1.91341907497032,1.95750999999433,1.66744794911376,1.63069003881927,1.55197487873217,1.55424732406042,1.55224849261633,1.55174000286506,1.57796981819174,1.80398582960234,1.80647477276545,1.81938566821469,1.6005705865256,1.59443698831393,1.599945592784,1.61477665522841,1.60896629572317,1.76946000053588,1.74696803308274,1.87988999999433,1.79936602962282,1.5722099989997,1.61355635756927,1.59244926711165,1.55343827194049,1.55033173643517,1.55407595458304,1.73047000096267,1.69688516337128,1.81720999999433,1.76560907088495,1.6660266239826,1.6157034867846,1.58850107459893,1.58670741140763,1.5793209731436,1.62006771353224,1.86082092865682,1.85503819609441,1.91364999999433,1.69558095638056,1.64195094746644,1.59959412037041,1.57540927145659,1.6058268973346,1.6951990652369,1.74435265401878,1.86682932885291,1.86540507081354,1.8780302834416,1.80138625698348,1.80924498994864,1.64102940666019,1.64418732586086,1.63757850481826,1.66521242589744,1.69199917987906,1.89948999999433,1.85331483858752,1.84193039432715,1.69708784222585,1.64620296970185,1.66330693115598,1.70398121020962,1.70324803396568,1.87267999999433,0.945965705275524,0.0044798199790999,1.01762658117375,1.77798999999433,1.68212502545829,1.68411607686331,1.68172698013258,1.74778018638726,1.73914304053672,1.91912676396061,1.91366191603732,1.91378569777573,1.80371575426036,1.80971414598886,1.66653514314078,1.61349984921187,1.66588162485101,1.72787275307303,1.72740163820796,2.07849999999433,1.92109607628266,1.89031006405491,1.80106835139001,1.80917930618237,1.76433492607426,1.72775018230632,1.76700482182366,1.79243904134008,1.81901200978699,1.98308999999433,1.85027694318257,1.77986593808501,1.77435242007284,1.72642843073071,1.80183648321736,1.89420952122843,1.90794244446673,2.13396999999433,1.87606832227392,1.83821828802269,1.83756568563925,1.77636808716665,1.83711928352189,1.87073733911813,1.87002098898342,2.10849999999433,2.11202411566243,2.10721944734587,2.0729972425766,2.0454006780105,1.96901145374072,1.93279745917699,1.86473150562781,1.86525130825048,1.77850303776543,1.73486874941608,1.78330766449818,1.79828645405622,1.76360474830548,2.03434999999433,1.61711427534605,1.84264999999433,1.55750310534193,1.51785082474726,1.50257589412563,1.48980190823471,1.50310212627638,1.51450722381842,1.47694737487114,1.3569815828757,1.35672038324779,1.35529541230514,1.39624134526151,1.46404628073001,1.47480510051712,1.72944999999433,1.39525994147062,1.33502912237828,1.33393054865718,1.33227148371284,1.38363976649859,1.4106599998079,1.53343609072399,1.68612008836454,1.70894951559773,1.72528034143944,1.33012079215907,1.31591634517021,1.31775319540376,1.30741328875338,1.31566623822468,1.33773086243993,1.48917941455483,1.62704501626484,1.62926383354803,1.66052000074713,1.37239896005156,1.36630485367116,1.36850899492921,1.37048367814993,1.44279536888328,1.58573250362781,1.597974283989,1.66911000033445,1.58757622603684,1.58048378780895,1.32322908464702,1.27825931593585,1.33454669985265,1.34555202484355
1.91674164060286,1.91875612713732,1.67747064213956,1.61878965403742,1.54904880983296,1.55130597558237,1.55179520222408,1.5516615584982,1.59015944367176,1.7788334135108,1.77505446042772,1.65412867817697,1.59788647515925,1.59876935801408,1.59964245060726,1.60201225721528,1.60573675513772,1.64879174588093,1.70702731431972,1.80007526999757,1.79986744759495,1.6572855954824,1.62864072728676,1.61945200324695,1.5501193473575,1.55053985953273,1.55182673814721,1.61854938183314,1.6894033211403,1.76558187244235,1.76541837126793,1.65621204294969,1.62290915244221,1.58670260401597,1.58554353105462,1.60120707723066,1.6179795552145,1.72707723041723,1.73862217892585,1.74984724630876,1.68351451403153,1.6501829877077,1.59584770216774,1.59445367903738,1.60402831484966,1.66831191058371,1.74620629753935,1.86545470244922,1.86432534352054,1.86354090728609,1.74686661922003,1.68581926649987,1.641318290453,1.63967350761214,1.63702187254063,1.68674085394416,1.70797378781634,1.72646100408579,1.63841666070291,1.63841666070008,1.63841666070291,1.64075696020236,1.66237800408599,1.70116715001325,1.70100206905504,1.75412480008935,1.1626649206852,1.16266492143922,1.1626649206852,1.73076800620984,1.68067837576869,1.68098692405865,1.68044917783451,1.73393290753884,1.73518046515651,1.89916390865596,1.89791609513316,1.83166920078413,1.74109335098806,1.69285528081444,1.65556039749352,1.64495966656058,1.6616001585087,1.72807268119949,1.72816364820653,1.72832241531437,1.72698088256361,1.72523219858592,1.72421183357898,1.72444486245012,1.72562061928611,1.72687671557644,1.75381068134339,1.79169461741831,1.81438771674975,1.83950619524009,1.83765599741084,1.79406686738458,1.79124550265189,1.77139003622573,1.80171051063034,1.85532688600712,1.91841445898204,1.92274266347657,1.89044545604891,1.85298823870814,1.85287785304407,1.85469583090458,1.85620825030499,1.86613621091572,1.86919460305429,2.11077687536333,2.10866242243341,2.10125438108832,2.07466451399814,2.06514220635042,1.96743256264687,1.92760953913981,1.86546498787925,1.86260516013217,1.82698970650556,1.82415648189958,1.82069592940342,1.81229384288847,1.63671732755164,1.63410594907434,1.62547649569774,1.61827824037505,1.58348663365186,1.57007522609176,1.55596629201684,1.54347163512025,1.53349711757526,1.52360972981834,1.48043855333889,1.35550317499711,1.35482093461611,1.35467014464104,1.41314881207825,1.4661092115858,1.48284628814612,1.50285075558067,1.40928405410446,1.38271049446128,1.38689767618692,1.38917801353147,1.39238440234199,1.45130248190303,1.52560142978299,1.7089687956803,1.71536659625689,1.71993102855395,1.33182142775046,1.31796992407393,1.31402897327518,1.32062518805612,1.31477774643097,1.40187049952167,1.49146916669877,1.55256807006978,1.52013232952318,1.47932885386454,1.37345976846937,1.37405825364423,1.37348773697077,1.43531337140584,1.45446813625011,1.52997166144315,1.5894250168344,1.60055621385359,1.59574897032479,1.354762140475,1.30692496419399,1.2968550726135,1.33231810695866,1.33773027502983
1.92140441536762,1.92434318712891,1.68773380784247,1.6024092687664,1.544186722249,1.51225225158999,1.52923639292468,1.53789224636634,1.60254726688175,1.80450999999433,1.76780885316958,1.59069376162417,1.59492811322097,1.58597069250512,1.58374124657127,1.52931999914225,1.59316975823276,1.59665952131997,1.70136688805774,1.88029999999433,1.84202616468613,1.85288999999433,1.64738153379572,1.64263639294539,1.5470913086494,1.5060399986889,1.54229944135203,1.5462792915212,1.68052782228407,1.83379999999433,1.765233592078,1.64432973297952,1.63041716402803,1.51210999979668,1.58385418847315,1.61165779320242,1.6151153172102,1.7002684421558,1.72591268492283,1.84916999999433,1.67766168968395,1.66118627267746,1.5945873467036,1.5260999994493,1.60263461519064,1.64110151914825,1.74699016445719,1.90292999999433,1.86510405876513,1.8646643745774,1.73874596450799,1.63120752209943,1.63021486144977,1.63065975247217,1.63403349857762,1.75063664320457,1.75067320151645,1.95603999999433,1.63841666070008,0.00437989997906401,1.63841666070008,1.6376753818614,1.66189770331454,1.69788434000066,1.69800892203194,1.80724965809317,1.84509651752264,1.94647999999433,1.83836119999845,1.84627898283244,1.68093513605672,1.65668897603268,1.68079755804213,1.70318951835033,1.73231954738812,1.90370999999433,1.89618270378998,1.78788640152445,1.73180440045367,1.65033402905916,1.64548515511379,1.62531627860672,1.65564417725759,1.73446695618919,1.71544148654085,1.705765595813,1.70494144065204,1.70415666613954,1.70221642571872,1.70195782748009,1.70008762933623,1.69182086931322,1.73288909125093,1.75966750591616,1.81228833723588,1.84615000028904,1.82496069128639,1.79813459328926,1.79288577907848,1.7180296955853,1.80282911110219,1.8057631221503,1.92495069942315,2.12245999999433,1.8950234429417,1.85673390602598,1.85478376226703,1.85688000382991,1.8582509350604,1.86433622979202,1.86787666818218,2.25486999999433,2.10918206031307,2.13024999999433,2.09153227351012,2.07942654609365,1.96385731150931,1.93426001646566,1.85715000942945,1.82310866516123,1.8291568152949,1.85012788278934,1.8466996356066,1.84900432284658,1.63722877872799,0.0052752999793858,1.63410594907434,1.87220999999433,1.60788588230242,1.57560855809216,1.57387635309516,1.57107711267722,1.56692290391761,1.56212326296569,1.48305154635017,1.35036706159575,1.3513523213197,1.34898003942121,1.42990428858633,1.46759832645493,1.49275631749028,1.55011033165269,1.42630189062928,1.37935300421876,1.38934921181108,1.39876661156549,1.3960149542317,1.48570042250516,1.52197066510647,1.75154999999433,1.71983566463751,1.72666071450335,1.33490166216534,1.31192794766397,1.32088771656155,1.30622039544957,1.31954223648582,1.51417048992844,1.49400220029309,1.64735999999433,1.49010766629314,1.43124070013184,1.37558689095151,1.37689591335357,1.37517214846989,1.47288288745299,1.46938104310091,1.49159954040991,1.57850660116796,1.62110000119455,1.60371549868549,1.26567960734198,1.29109252753947,1.25018999857808,1.3300914559259,1.3419326507322
1.73202584932994,1.74823908920916,1.70117443095025,1.64679636179618,1.54052701557557,1.52211303442049,1.52543991859394,1.52907093808825,1.6110387590176,1.74668290559643,1.75799836185198,1.65948015532925,1.63003235856503,1.61313669903938,1.58272647883568,1.57517538428005,1.58958819883724,1.5983330416097,1.69200483435081,1.84202598688436,1.8419818826969,1.76974172987693,1.65170974228285,1.59968293415855,1.54467282297573,1.53436641603221,1.53821904312455,1.60007176560731,1.66789105871396,1.76544377074885,1.7653009755024,1.67428386573066,1.63799024090227,1.57825175255606,1.58172746278703,1.59932675696859,1.60200200552825,1.62870670368719,1.69162202705775,1.693132302958,1.67280171603194,1.62220645325689,1.59063529582643,1.57423863830996,1.60147410182538,1.65331521466858,1.74778509293917,1.86694129088866,1.86570037773386,1.8647735838987,1.73024612544431,1.67641736967573,1.6292489065971,1.6296957393121,1.63253707861791,1.74940196031853,1.7506474536188,1.77522674979295,1.63841666070291,1.63841666070008,1.63841666070291,1.6365603689808,1.66085287557677,1.68857220223522,1.69640208152322,1.84276432306423,1.85523556290258,1.86705229681515,1.83369540875682,1.83117761286558,1.68284450092788,1.68076590767958,1.68261189667004,1.71144674528978,1.73119321175094,1.89800291740957,1.8939763588954,1.82764033880707,1.71960187587399,1.65484438987478,1.64106271762895,1.63497626168607,1.64914308435321,1.66706320194968,1.68072746243415,1.70523252272105,1.70458018350707,1.70422611330029,1.70069784153961,1.69978493874718,1.6980851423047,1.69440043742506,1.71638644852973,1.80311024471395,1.81223654461395,1.83297467064029,1.81252462192807,1.79301242314274,1.79163068684697,1.82064865364324,1.83714880955915,1.85415069545016,1.92925330590499,1.93212957859192,1.91159918143997,1.89662259938066,1.85440183265315,1.85630175545359,1.85861404742709,1.86126399276542,1.86668088011272,2.10667415963874,2.10646525057699,2.10468111113825,2.09971339447135,2.0912504736947,1.95953577540587,1.92794359591735,1.85194443890324,1.83100770209025,1.83464152409012,1.8396133479719,1.8428635477207,1.84429178965555,1.63725819074122,1.63722877872799,1.63671732755164,1.65441989048601,1.62866659531622,1.61494226604328,1.59963156467865,1.58568967136674,1.57653472334918,1.56941726820829,1.48486500930801,1.40425290320013,1.40036684609567,1.39244503925506,1.44437885788834,1.49364223560472,1.50311466025934,1.52167189499082,1.44115178333781,1.39114602067517,1.39173916045458,1.39497771705576,1.39560991931884,1.4625203300683,1.51780358951373,1.65943777983081,1.6597124228251,1.41857362347768,1.33961261421615,1.31982075555997,1.31610418098649,1.31945910047023,1.31628158177384,1.39135954115903,1.44824317815609,1.4962308466564,1.46128182259627,1.41168416229523,1.37706404036562,1.37762370763515,1.37604389056941,1.45711682175717,1.46676757952274,1.50599694708573,1.5663446194375,1.61614063931331,1.61013524467778,1.36152476778262,1.31780364941218,1.29106263657402,1.32678379031182,1.32827350837257
1.71323648700148,2.09032999999433,1.72464528400654,1.70657894561617,1.53842459832954,1.51784361029732,1.52050200481479,1.51143042311762,1.61981176293504,1.73129495015408,1.75924023842213,1.88341999999433,1.64510322396217,1.6339614952189,1.58226540029623,1.54316985387172,1.58572234467309,1.60042159013963,1.68319792725453,1.84523999999433,1.84171912939659,1.72788850288618,1.6555956058347,1.54422551721554,1.54343798036889,1.48835999929485,1.53505657762674,1.64385976181955,1.65515436622969,1.82800999999433,1.80660155130783,1.79905641278124,1.64493257475769,1.56852417472695,1.57399431281401,1.50320999922302,1.55507722334181,1.54998113134006,1.68868473889748,1.83416999999433,1.6659106275776,1.57289681916295,1.57456186868253,1.52773999877373,1.60045005180958,1.66577669702744,1.74837675698295,1.86766625956627,1.86551825929435,1.86331357646938,1.72290894394367,1.70891892188787,1.62756764684962,1.63125508108783,1.63207950279246,1.71810077269577,1.75081305529214,1.92282999999433,1.86817326603396,1.93806999999433,1.6667386270354,1.63308905005143,1.65793453912857,1.65143530260476,1.69748149374014,1.87641351627713,1.87164214545174,1.94892999999433,1.8321619878443,1.80988497477342,1.68465201302254,1.65939801677366,1.68420551797226,1.72314796773471,1.7291822267812,1.90475999999433,1.88611375220548,1.87782846509516,1.71615999884356,1.66013988361674,1.63171580619235,1.59099875121164,1.58930032139811,1.58181901874893,1.68152037932449,1.93281999999433,1.79844692701933,1.81699999999433,1.67152163169474,1.61415851857787,1.66772974495701,1.69358740157695,1.70743671949782,1.8075446051387,1.81167062629168,1.84796000016839,1.80664024545548,1.79440115901657,1.79077555657549,1.82409419700035,1.84380916706687,1.93243596733763,1.96347527013958,2.05174999999433,1.92973296169527,1.96587999999433,1.85497597710984,1.77280985913992,1.83825635815772,1.84316256647937,1.86646682972434,2.12983999999433,2.10343036796428,2.13150999999433,2.10515986118689,2.14964999999433,1.95751021482052,1.93385183110853,1.84395026309264,1.78493422883416,1.78546727448999,1.78522008669059,1.82442578090261,2.12368999999433,1.9262073321556,1.92206668848478,1.80774485689009,1.81367076345238,1.64857765360842,1.62872968176561,1.60730496438799,1.59277262616895,1.57768960467379,1.57435342847651,1.4876374769326,1.41021983792976,1.40456771670641,1.3830966213279,1.45633753172979,1.50245944056309,1.50900645486062,1.69864999999433,1.45282471264862,1.3914110177137,1.39115915032817,1.36054985815591,1.39442933861352,1.44890992326255,1.51509270410549,1.70999999999433,1.65946118986169,1.35336727782127,1.34567994321589,1.3232831929994,1.31140558954395,1.28648218723317,1.31680789017703,1.31806026103181,1.41925147039237,1.64321999999433,1.43043562290084,1.38500957182133,1.37926798841188,1.37757542359699,1.37671170188494,1.43985024557711,1.46512355480016,1.5189782551881,1.55348813295251,1.72534999999433,1.60797667833984,1.59409104244085,1.33646975112165,1.25704999861588,1.31943366566881,1.31182399843402
1.68909451319121,1.74557484207807,1.73518955372723,1.72533852362209,1.53804455845444,1.51996526315917,1.52184315218881,1.59385380986148,1.6273506735783,1.75641228840163,1.76783998692949,1.77918875692758,1.66528845440658,1.62777359935083,1.58140657888416,1.57586243749743,1.58182931842548,1.6142265489089,1.67615598503011,1.84291926320885,1.84070210694768,1.76859080389912,1.65925904182077,1.603958932987,1.55565940899988,1.53197761743025,1.53184534896104,1.59668244207899,1.65524905428426,1.81595816407946,1.81324540185501,1.75058956264103,1.65189353955701,1.58844477861478,1.57670167550483,1.54396508853054,1.55943492707324,1.56137388140745,1.68743272080602,1.69008161670097,1.65892773573,1.57493315402975,1.57532733834139,1.56259909179935,1.59947812937011,1.64009254372697,1.74801363500589,1.84666530852396,1.84474922070054,1.84312096980039,1.72547915319014,1.66923516311954,1.62530001474812,1.62604928070838,1.63224729158787,1.7230494826024,1.7513935206835,1.86623335066596,1.86521749893267,1.79567213735809,1.66671930992249,1.66622769308134,1.66696231976047,1.69109319960455,1.70027418421204,1.87404786499144,1.87181433720036,1.87202851899973,1.7872198575844,1.69827967227408,1.68541822173744,1.67648205545589,1.68517536677337,1.69981981267771,1.70243516793294,1.79855887411873,1.81878651841763,1.82139074128397,1.71514634106204,1.66635119374244,1.62405575261907,1.58935740071842,1.58789298388433,1.58474345841595,1.68294821930358,1.8003925939351,1.79948997040061,1.67719533017076,1.6567026038953,1.64417985591978,1.66070773840478,1.67252305354038,1.67882190389518,1.80662898725282,1.80431662395411,1.80108804944941,1.79747694595739,1.79327721704619,1.79149986737444,1.82465768807957,1.85665318240699,1.96341326356261,1.97959698249715,1.99363254235629,1.92718841728366,1.88721003995658,1.85653664225992,1.83025435426384,1.83411550248618,1.83766944398444,1.86788134753675,2.09706088924693,2.09959247043504,2.0993197374743,2.03358583757424,2.0175708952388,1.85465309177683,1.84153734844016,1.83160624535022,1.81869721070683,1.63759641527067,1.63759641526783,1.63759641527067,1.93196721358856,1.93066300443892,1.89455924877481,1.80581149728939,1.80803922990084,1.66626466794261,1.64843681230697,1.61228196715275,1.59188922964133,1.58001360739776,1.57659261894725,1.49814425005609,1.43242100563905,1.42458813005546,1.41141956589896,1.46973712650173,1.5139876979462,1.51895300523453,1.57085536354477,1.46282610090433,1.4474927894222,1.39108343140768,1.38330045021507,1.39217549402524,1.42301944505864,1.51517227956423,1.65483073140724,1.65728888817429,1.41840668550145,1.36973338805098,1.31429111258879,1.30709968607777,1.29585856445623,1.3358055803156,1.34151060679133,1.37326990743565,1.37468223035299,1.37301964364112,1.37316523475644,1.37518827270816,1.37632545882564,1.37451759679474,1.45251272887483,1.46392059102164,1.52923885573949,1.5515065825167,1.61448791730251,1.61266362054665,1.58366135948846,1.35206834952819,1.29126425301614,1.32387340345216,1.32577673656602
1.66748533285211,1.79106000038043,1.74742649558995,1.75946034866212,1.53925992899904,1.50748999896682,1.52285865141461,1.64673273821185,1.63735337457452,1.87279999999433,1.7738997383927,1.87640999999433,1.68515131302476,1.62188150255063,1.58000547006795,1.53352999884234,1.57812046903763,1.64127077287481,1.66853174296547,1.8410694784585,1.83572299616238,1.82961373041653,1.66326045926113,1.66681398025831,1.55960398085497,1.50732977084312,1.52873949736505,1.55088903310827,1.65566619322601,1.82504999999433,1.81704555490803,1.70921908719029,1.65673717040337,1.59675012789387,1.58068449711249,1.53310974547574,1.5611573102921,1.56137838894511,1.68373228185821,1.83544999999433,1.65220297597311,1.57600060853246,1.57484514067037,1.5591782052807,1.5984753024486,1.5974103443899,1.74630859371912,1.85064061417815,1.84702743052129,1.84395402404395,1.72600596787982,1.56229877422239,1.57232018516352,1.50885999970267,1.6327611818279,1.73239945569751,1.7521965967588,1.87554999999433,1.8598709697575,1.75309637305286,1.66912940102646,1.66581104075344,1.66826100495333,1.70240905655783,1.70231018530414,1.87729047007459,1.87424217430386,1.87703651684479,1.78754655762207,1.67398989636252,1.62366814652643,1.57004967539968,1.56832185287095,1.54607999928284,1.69622730834111,1.75762749153076,1.81523352920568,1.82450235297241,1.71382726147189,1.67604384357295,1.6162343130522,1.46260999964081,1.50923613178069,1.51049370776277,1.68430923901785,1.90723999999433,1.79962691828813,1.63179052324674,1.63227267096373,1.58851197476439,1.59236181274716,1.56902943179221,1.65928605421324,1.90534999999433,1.8006977824185,1.78762893940356,1.78456197320271,1.74402578235072,1.78668740265935,1.82251675579311,1.8682019178523,2.0108026770703,2.00858798193412,2.06201999999433,1.92180934533397,1.84071271838714,1.83577298951651,1.80834780470076,1.83186419829946,1.83708740892154,1.87082742280497,2.17724999999433,2.09930220740242,2.14183999999433,2.01757215235921,1.97547131522669,1.8416929771708,1.77474818496504,1.81847632016448,1.8279678094739,1.63759641526783,0.00406350997895031,1.63759641526783,1.93360766171944,1.93141914174043,1.84866681624174,1.80551095471476,1.80695284825624,1.68525263425643,1.65807026250164,1.61194780458481,1.58846599837159,1.61966501302743,1.75544999999433,1.51178038091142,1.45209878022415,1.43475994692276,1.39944000275862,1.48482724733285,1.54911337820926,1.55218250833135,1.77827999999433,1.47569515834617,1.50373143339187,1.39192481261386,1.35892999838469,1.3894499374583,1.40655573276389,1.51386560789005,1.64867290573962,1.65405126537892,1.68700999999433,1.37812141761071,1.29614505911586,1.30261220522177,1.27121999852364,1.34465479493067,1.35401988730871,1.3747602563732,1.36957946322876,1.37529294670633,1.33496713887364,1.3381475233797,1.33981771965134,1.37048022616241,1.46444869744607,1.46231396624888,1.53721818751266,1.54689843202824,1.63752052477323,1.61931315570552,1.55973877408438,1.35679465351838,1.27157978730358,1.32551122664342,1.3261733890978
1.64165002675233,1.68829446168454,1.65980730165353,1.6232324719938,1.54142360530304,1.53898287423961,1.53883500188569,1.59347686320202,1.63672729170644,1.71583683608904,1.77214426953478,1.77178035960664,1.70187317138895,1.66173254646072,1.57818998430193,1.57237334735137,1.57483186598655,1.61149353637469,1.66041655899544,1.78325623176148,1.77094136234164,1.75869052262572,1.65902818786089,1.634217072893,1.56264109284154,1.52577763950335,1.52662682043172,1.54182201951412,1.65631437906834,1.82095150588936,1.81971944047085,1.75198773935234,1.65904592642216,1.60592540032921,1.58524663067769,1.56038866093025,1.57263694321151,1.61131330441699,1.68309983901268,1.68390886431474,1.64563833095013,1.57393601931872,1.57288638572405,1.62633697040976,1.64623164558332,1.66187612364647,1.74365323696165,1.84998007960124,1.84920571140955,1.84856916709468,1.72572109929664,1.58423674716732,1.58002485622481,1.55395050325122,1.63363192829827,1.73282903283038,1.75262621802124,1.85248909566637,1.8544291565969,1.79350801267071,1.67272760659576,1.67461546485672,1.66948312425597,1.68448685449011,1.69316903627846,1.86102921992528,1.8710805232771,1.87765860238568,1.78783913159951,1.6299258661103,1.60770133689049,1.56832741769327,1.56691765916981,1.61472174819485,1.68571822424446,1.78937473763006,1.79954956083519,1.79956766936769,1.71269076866985,1.63369506999846,1.60778947148576,1.50553079788333,1.50751429612138,1.50923649369645,1.68505847118732,1.79899958617107,1.79936841883922,1.67027368636339,1.63243367766613,1.59238313122626,1.594662575326,1.60369341005079,1.64194888193596,1.8189499977407,1.79882189820964,1.78729601403977,1.78210383056094,1.76886254266834,1.77518128090908,1.86397014784952,1.88146334244373,1.98153382121397,1.9813267393375,1.98184442187784,1.90937347821824,1.87827669758304,1.83435890387529,1.82529677228557,1.82678315036205,1.8532808484653,1.87353583201707,2.08310819725893,2.07131893794716,2.06113041442725,1.95175818673117,1.939981513454,1.82806791475991,1.7809378648213,1.77890221627052,1.77838093946337,1.63759641527067,1.63759641526783,1.63759641527067,1.9238837464689,1.92366583127731,1.89054183610638,1.80560682920021,1.80592464390593,1.70332699517567,1.67800218565626,1.61181205222676,1.60942299137204,1.63382544401115,1.67191496185065,1.52640611430059,1.45531150781709,1.45663194422488,1.45660708521823,1.50113238337971,1.5521818225908,1.55395659660414,1.49523221668585,1.46179289722226,1.44835334930632,1.39343003956562,1.38690506287729,1.38738999563344,1.42515697891475,1.51073520091183,1.54000248252264,1.57632477651444,1.5920256542227,1.38090068220723,1.33614845682192,1.34347193696872,1.34707920477918,1.35628589149433,1.36293163130702,1.37350082908307,1.37537085585944,1.37449118099495,1.33750669727944,1.33893855882723,1.33990346919327,1.36843284578845,1.45522977251989,1.4579193285168,1.50878545162922,1.51715400299093,1.62608621626869,1.62224306630509,1.58854934750317,1.35451306358597,1.34375645333064,1.34370382463916,1.40163711260746
1.6274336954983,1.84178999999433,1.64564528702138,1.58270080450352,1.5434982805215,1.5392458766927,1.53837585401708,1.53628196364421,1.63678670809424,1.69236990402864,1.77273946297214,1.87068999999433,1.71961965903819,1.75364000100712,1.57592076395869,1.55496881308829,1.56882318086813,1.59350923862385,1.65344181107225,1.85755999999433,1.7520672751742,1.73172865000111,1.65526043389394,1.60940653854547,1.56546747393581,1.52297144652845,1.52604053377628,1.52336250833597,1.6569215219467,1.84527999999433,1.81989695052684,1.7549080892716,1.66788356921174,1.63133147214605,1.58911439831434,1.53362982935371,1.57744170157521,1.63317965746913,1.68088530714475,1.83849999999433,1.63930939776182,1.57403870188697,1.57120863033628,1.69259891761942,1.67969449443371,1.6832673647787,1.74082070976629,1.84885055024192,1.85032961979107,1.85144041100494,1.72523491408867,1.58896246121958,1.58337479393209,1.52247999907627,1.63478884256253,1.73110549708444,1.75222688843119,1.85085719486348,1.85168164663257,1.8242522300876,1.67581296459957,1.67912953728486,1.66663646493735,1.65824217548433,1.68311308945872,1.8282225073472,1.86069008477409,1.89023999999433,1.78774379057022,1.54728248641242,1.5515422128616,1.47963000005754,1.55998105941657,1.65921949832779,1.67697864588229,1.90471999999433,1.79957156191687,1.79945159893548,1.71143110853691,1.59603357871258,1.5899968039083,1.50309756283219,1.50553147778263,1.45457999993375,1.68508164871,1.79678566631692,1.79722550833706,1.79454073892767,1.63228705742408,1.53412999887251,1.59864110668909,1.60978622237945,1.62639047031724,1.92386999999433,1.78339599472744,1.74314068207567,1.73848343668965,1.72631260004568,1.7584019359699,1.92143999999433,1.89846490982623,1.97031707797016,1.982529525744,1.98763697575847,1.89400864306179,1.87940067702426,1.83294343184764,1.80680205532141,1.82328027719696,1.86296688844579,1.87061236307017,2.09970999999433,2.06111584098537,2.04312562349334,1.93998759163583,1.8982891714677,1.8168297944779,1.78850500315524,1.77773143772107,1.73362081064488,1.74517672612042,1.91347999999433,1.90567906791959,1.92987372828245,1.91168503176876,1.91151412927241,1.80654166830048,1.76306740484086,1.72573779807553,1.75881000091418,1.61528562954493,1.60036889777255,1.6449545684771,1.78558999999433,1.54173435275849,1.43640158758409,1.45661122083409,1.4557758667177,1.51632801442459,1.55563269731556,1.5558838802809,1.41379999889999,1.44833338398463,1.4130475865727,1.39551497164559,1.3817390454562,1.38523686952106,1.44962003546543,1.50650479974186,1.5063651469541,1.55746230416672,1.64787000046846,1.38333276241752,1.32754051694766,1.34705249354646,1.35044236456379,1.36484637100194,1.44082011581163,1.44725386268665,1.64233999999433,1.40776651773086,1.27661999960302,1.32784047756729,1.31468187444086,1.36770790659304,1.45392659510215,1.45611141227772,1.48999997715362,1.5064061639397,1.63680128048418,1.63853638688833,1.63992103373558,1.3518494887623,1.33051924106249,1.34352973718123,1.44922832516111
1.60855694754769,1.6466371977603,1.63415476553051,1.56614773500746,1.54480706468942,1.53891759545415,1.53842357860928,1.53891616026353,1.63629682776633,1.66345458828021,1.77308760828227,1.77453276213084,1.72158519463081,1.64812110205889,1.57310271267254,1.56216473339815,1.56411985560726,1.60974455647389,1.64826235302379,1.74317243715937,1.73685960025567,1.68425276669387,1.65248001044676,1.60889295317229,1.56919701613009,1.53001903784753,1.5335613595395,1.53792933567109,1.65728792536595,1.8149633759965,1.8180537690677,1.78441729688611,1.6803079435616,1.60971968386763,1.59192868124699,1.5780204607114,1.57930303474249,1.64664178465991,1.67683665950554,1.69671565847779,1.63336620050125,1.5696209586286,1.5686652592329,1.65251124690402,1.6691788126052,1.70327913749653,1.73803424478564,1.73553931980259,1.74072925828704,1.74099530993468,1.72455651450786,1.60098585531496,1.598981911499,1.5979645527522,1.62463774815164,1.72463604702449,1.75129933606875,1.84997980748547,1.85008157405238,1.83465379612257,1.67237034056184,1.66834601751959,1.66519116929161,1.66191501534145,1.67861823350378,1.78020848984305,1.79149299524398,1.80452744003142,1.7872837587372,1.61400322668733,1.55715331972825,1.55634463932871,1.5574915637283,1.60276446022444,1.67573796074435,1.77859237909143,1.77955731780817,1.78158466023346,1.709352365873,1.58885879388204,1.58625438971467,1.5546038617662,1.55325314803121,1.60061555912532,1.68452146580096,1.7309327608513,1.73215695310902,1.66679270095146,1.63184281711039,1.57299148897275,1.60368983785154,1.61336519449009,1.6274119495519,1.63524131917896,1.635856108463,1.73838514108408,1.73531144528522,1.73052516018776,1.75438988657062,1.75706224269565,1.77016145935576,1.79790199603332,1.80212069981782,1.80299240849429,1.80281444164728,1.80549909499571,1.8114524914422,1.81697086555857,1.82191776721051,1.86165879234083,1.86854591148849,1.98570226083069,1.98570359186724,1.98442527652962,1.90910157295349,1.89361285085363,1.80391252131363,1.78380127171166,1.77736244867493,1.75541086536824,1.75648875743274,1.86807677780117,1.8897319193881,1.92286699115471,1.90428952610669,1.90575426600978,1.80791799214405,1.79067511053901,1.71063744057306,1.66959446528112,1.61961444789433,1.62199858356278,1.65159205696053,1.69058742661255,1.55722319701656,1.50882363541866,1.51015199625506,1.51142442080552,1.5263739258293,1.55660324689256,1.55687952821861,1.503662849267,1.47371931250356,1.41220711097023,1.3988373413847,1.38141588370364,1.3827200598459,1.47301991917054,1.5020860467561,1.50732134919886,1.53780466493024,1.57223905684361,1.38773892635632,1.3689205661193,1.36586449966599,1.35898371476548,1.37536527569342,1.4277328946384,1.45484770037385,1.49010143090155,1.42215394771118,1.33867070698314,1.33224695890991,1.32528152200776,1.34979255264638,1.39778552529505,1.43066152954879,1.46476609758266,1.49627393588311,1.63779287551263,1.63910299331197,1.64030930894494,1.35009943659845,1.34006947601783,1.34367679974649,1.43567623500034
1.59008960161028,1.84148999999433,1.61687636648216,1.52311917340244,1.54097799347235,1.52110136755801,1.53827858899419,1.54065642488184,1.63486562396805,1.63323828192701,1.77095937810971,1.83261999999433,1.72251850543171,1.59901027857375,1.57003883474334,1.52998967873795,1.56175635064355,1.63524058550055,1.6429297360612,1.81740999999433,1.72629302295986,1.64780814582866,1.6501406116624,1.6084436285939,1.57328919190392,1.49811999845248,1.53575763175376,1.54261511629052,1.65729317758576,1.82808003089821,1.81890063475329,1.82700012971664,1.69552636895169,1.59535011537783,1.59387011371911,1.5542295531225,1.582579617074,1.66356110558376,1.67072705788892,1.82489999999433,1.62933479104203,1.55447999865107,1.56800440562407,1.6291631100439,1.65898336089997,1.76110840024523,1.74494414056081,1.71589811920658,1.74097113546103,1.74178145112393,1.72368338123721,1.60238868838988,1.59821901780336,1.59662331308743,1.6125725267292,1.68943931407476,1.75081335515583,1.86588954404752,1.8569200169757,1.86413813781322,1.66731215272937,1.57550971575091,1.58316236563483,1.58426904788671,1.66196477391463,1.75154763535265,1.77974448187888,1.81956999999433,1.78685769999395,1.81440999999433,1.55869469218249,1.53680863266105,1.54282618712625,1.51049999886364,1.67317706030148,1.77752081258905,1.77859892734441,1.78384641429948,1.70619975260493,1.58182960158733,1.57949748998117,1.55811029710502,1.55326054722087,1.60970977350929,1.68342223739506,1.75105000070121,1.73402846815073,1.64416553399271,1.63098997515968,1.54937935972231,1.60314135501543,1.63397037781752,1.62636280749506,0.00439224997906845,1.63060005149229,1.75842558687332,1.73453683675,1.69300767857709,1.72085030152055,1.72611073963145,1.75102142169437,1.78863475584682,1.78980082902298,1.79339587778505,1.79202199407687,1.77988218557762,1.81186879399133,1.82018708993947,1.82163564744226,1.82155986461352,1.86722089541773,1.9904225938811,1.99073798094026,1.98094299397938,1.89503624034535,1.849298064037,1.66311895942344,1.60313879121346,1.65922576987858,1.75720278609445,1.7573078348844,1.82101789378537,1.87846269532089,1.93524591452182,1.90102289194263,1.89822661943152,1.80399442357298,1.79345483498556,1.70011275319195,1.60927959896081,1.62199792711197,1.6246184859441,1.65341598585092,1.79915999999433,1.57564175771668,1.5074841508099,1.51007869937047,1.51248463039373,1.55733880719376,1.59187999941418,1.61626083959935,1.81759999999433,1.50253939566454,1.40859108986779,1.40362882393904,1.33006000004526,1.38206079011229,1.49445157588533,1.49804556523311,1.50833315256836,1.51767158268092,1.72444999999433,1.39343336969112,1.37157162308768,1.36839444623296,1.32600968198739,1.38521858900113,1.41225979091352,1.46264535001024,1.67212999999433,1.44683149972476,1.351601268946,1.33866483773482,1.31965420429646,1.31543160917389,1.30921642825869,1.4011561688968,1.44435999940528,1.47356531317589,1.63740724438977,1.64016785115999,1.64267174630963,1.34983004631939,1.32250999939924,1.34873868700562,1.42486021941613
1.57201342837172,1.58290604199363,1.59862116411634,1.57886304212787,1.5494396736031,1.5361735060951,1.5375801987092,1.54000822112782,1.63456961504852,1.66889855170841,1.76732621872546,1.76958670816016,1.72334163770223,1.62869446380186,1.56769918899274,1.55337441768941,1.56130286775057,1.60504641582292,1.63800644939644,1.70648217382148,1.71823339521074,1.67787933060824,1.67101441691578,1.6141643785016,1.57759499579517,1.52153078558741,1.5349282108182,1.55107112316656,1.65690160074675,1.78763344522525,1.78752690375198,1.78778364078554,1.7090051933777,1.6574959304513,1.59684083289122,1.598472692662,1.5985263323093,1.63055552830308,1.63518420504131,1.69042813254692,1.62743196870531,1.56752420234175,1.5685476996162,1.62628927840861,1.65071784515166,1.75455889806688,1.7498613111673,1.74710223846954,1.74542614525521,1.74372347062155,1.72275578829021,1.60881078083932,1.59889589010015,1.5985484200061,1.60122411487251,1.72328466557555,1.75123128428139,1.85502791632695,1.85032326389362,1.84627589151367,1.66925516120648,1.61638948843824,1.58269596068037,1.58359218845218,1.64542776213106,1.67387781227359,1.72400466751023,1.73173188860786,1.71906872743308,1.63784591383393,1.55781236440213,1.54260502719825,1.54729487813281,1.5520716899554,1.66888272949935,1.70907060111489,1.77307740470816,1.77147603368986,1.70243698646067,1.62884470374082,1.57638339168373,1.55284014605633,1.55106779964786,1.62920255794387,1.68160740132703,1.73489817175578,1.73510962225361,1.63524687219716,1.62982883185773,1.62535571581206,1.60369241368431,1.60812534681342,1.6141356023909,1.60566548551585,1.62010679983829,1.7382155248014,1.72792729905137,1.70843744417541,1.71720586005474,1.72002075758713,1.73443454171521,1.78824224165409,1.78933774996762,1.7905973925995,1.79060376949328,1.78818210296976,1.79385898295112,1.79942862046214,1.80506233061919,1.81012002395357,1.81322739350201,1.99779583646479,1.99778959343826,1.9937951878417,1.70513607973009,1.66013732812245,1.65250965102493,1.64024348388424,1.65399398200237,1.66098683333268,1.69585844926005,1.8050552558079,1.86725713141099,1.92220003126159,1.90426471264512,1.89229766163873,1.75396590408695,1.71452651762353,1.68831906885448,1.63553405800998,1.63772765473733,1.65661348772426,1.65848529715732,1.71081906142546,1.59837693475099,1.5569514026541,1.5555356787567,1.55397355579801,1.58650202713623,1.6188023242516,1.6469622173891,1.67528097136186,1.53319438563756,1.47608483650401,1.44133806991252,1.38275472575326,1.38215890582808,1.43786396338337,1.45779345976529,1.47408662576208,1.50129108498066,1.53481677839533,1.39914191971387,1.37987772421459,1.37642096887061,1.37467829386036,1.39164068536028,1.44167354938332,1.47086721967459,1.51271091797017,1.47656327475698,1.41315991218921,1.37845892298166,1.32300170438817,1.31077319831645,1.31026587075823,1.37253904776266,1.40681754982341,1.44811927884695,1.6398097138928,1.64144797805525,1.62199944206023,1.35180973231318,1.3541672349955,1.35357111416911,1.4009996449944
1.5566327038316,1.53233943935189,1.6177743076032,1.70705000069169,1.55171491604852,1.53373544978961,1.53566310831498,1.51326916265655,1.63383382585879,1.75362236602146,1.76093594047208,1.82083999999433,1.72354252972789,1.65763000057167,1.56665394945048,1.52267089618643,1.54852664269255,1.55842242054127,1.63252821110017,1.68965510833927,1.72209364703857,1.77480013229429,1.67936189704609,1.62079735319293,1.58190469246347,1.50174996699219,1.53401559489498,1.57277082029525,1.65617247652672,1.78838978635052,1.78753599011067,1.78871643149418,1.73046871222707,1.75206051438807,1.59822479824045,1.5969630910287,1.5987713304928,1.59704813085331,1.63328924097674,1.79690999999433,1.62592949026739,1.56150929456443,1.57064687276482,1.62396306530616,1.64297160985243,1.82516000069852,1.79715364929822,1.89002999999433,1.77885798398168,1.77957449052696,1.72202758308211,1.62490034360956,1.58882251351225,1.52747999904057,1.59295160721126,1.75110605080611,1.75166774722236,1.88792999999433,1.84641577657424,1.83022733896823,1.67228218060238,1.63567772646098,1.58177881958773,1.58446774275513,1.62466497568605,1.63089351496766,1.7129150652636,1.83720999999433,1.71921440404967,1.58830988668123,1.5575316647466,1.52379937370652,1.5521688719355,1.5600173855026,1.66353549666783,1.67770982001499,1.77199269953295,1.7708364209155,1.69876463938377,1.66980224553551,1.57242155926104,1.54449902203288,1.54943623534186,1.65080720211325,1.67930803467885,1.73271242670722,1.73410958709673,1.62619749983934,1.62829917345316,1.64464739960632,1.60377567435942,1.60258457580224,1.60781435406035,1.58043190942185,1.61232103390258,1.83450999999433,1.71159184866533,1.6809211938435,1.68091139158961,1.67942173594723,1.71948972563094,1.92624999999433,1.8331054736938,1.95641999999433,1.75244918603757,1.66953508888284,1.69617741723604,1.70597118561113,1.70657063743066,1.70643519789661,1.74347634856273,1.9937757967116,2.00001865636666,1.99498326468621,1.70618034038464,1.60960529034263,1.60427897748145,1.555169833361,1.5854217654828,1.5853617014225,1.68554627207114,1.80131377083442,1.85387794768538,1.93355999999433,1.89347267399925,1.85488589535257,1.73920621825789,1.68903490029291,1.68375454940738,1.63509900485132,1.64217599910056,1.67844343318013,1.67542919725711,1.82919999999433,1.62145287236119,1.55802486872298,1.55540017192407,1.55193703602033,1.61339091574038,1.74668576071836,1.75680312181476,1.82456999999433,1.80561112417084,1.90365999999433,1.46330930111049,1.38443921504561,1.38265966862855,1.38237901748861,1.4008403026501,1.39212617356769,1.47218783174396,1.71991999999433,1.40540356769676,1.38398030002618,1.37580630227222,1.37238871018394,1.39598372006934,1.46776013311664,1.47987142665148,1.67842000066135,1.65359680450053,1.68176000111223,1.39779998978267,1.32511837210143,1.3062956125446,1.2827598939221,1.33150699975798,1.34819126263761,1.42391613888146,1.64925926344709,1.64386154921458,1.59877878186329,1.35309960277478,1.35745057778399,1.35681153350232,1.36184968877949
1.59207447863536,1.61588360826484,1.64006283790522,1.6584998028353,1.55280295972346,1.53404412908655,1.53478430815668,1.53467374444309,1.63306312194904,1.66049476042461,1.71752039863241,1.7217868836466,1.72257063182471,1.6110115640183,1.56629151007949,1.53239757057608,1.54769862220107,1.54852675577687,1.62770228054524,1.71713914185946,1.73082074789987,1.75227267048016,1.68641376169607,1.65127900644542,1.58596844398256,1.53267608077981,1.53315839018568,1.57412263735484,1.65515874437557,1.78738790629117,1.78691804545054,1.78704930812774,1.7294613637986,1.67416549814582,1.59903337631683,1.59844324856139,1.59747645417117,1.5969426840028,1.63182596678897,1.63563227348895,1.62414531695024,1.5724109626271,1.57254488227347,1.60036379950986,1.63639081175867,1.77486209178424,1.78504006954414,1.79452781540989,1.77823901884763,1.76579046529457,1.7216609349595,1.66014520189212,1.5785748827614,1.57032216227401,1.5842298314951,1.7361266227259,1.73921340876103,1.77949015252547,1.78011052336215,1.78077785313807,1.67545177654627,1.62912650021652,1.57913032548699,1.58135208997376,1.62198761865448,1.63856818286391,1.70133012396605,1.7208514123563,1.72018003258871,1.60576053749598,1.55868299705048,1.54717382201521,1.55530555836549,1.57627201710345,1.66222996094027,1.7090109920883,1.77214211092949,1.7713109480826,1.69566265330335,1.66981756375955,1.5675001444373,1.54981358521373,1.54981314947707,1.6253540791239,1.67656938472128,1.73350840052298,1.73375666206701,1.61903015267816,1.61559277397437,1.61222413904753,1.60125965988617,1.60244113833338,1.6017970786397,1.61309699090587,1.6226521172334,1.63011973926023,1.641063920417,1.65589118233551,1.67268614097748,1.67894136744113,1.70616354637858,1.74578150978751,1.75972732706502,1.77755645921144,1.74881687537126,1.67772053264041,1.68466037011276,1.690920596633,1.65601350559726,1.63522720838449,1.63721359622045,1.63837411080093,1.63843505423789,1.70896398835269,1.70827802686319,1.60423138628551,1.60061363064591,1.58615190988709,1.586004106018,1.6142266271139,1.66845805592217,1.80587954676092,1.83954078088309,1.87879103458901,1.8760892236227,1.86281838095412,1.72829384102041,1.6960976696965,1.68198215049669,1.63845295763422,1.64793658075021,1.66636058591357,1.6694502780428,1.72060409313449,1.64755377043951,1.62317529297775,1.62447373153379,1.62564336866717,1.64226170543235,1.75671162023687,1.76007716663043,1.77288467816911,1.77221972432337,1.77166113623425,1.48613998291304,1.42430157024368,1.41963330445572,1.41351953966086,1.40605885257692,1.40091941756927,1.42378401532095,1.42370784535422,1.41123679557083,1.38007658733813,1.37767254556829,1.37540886625696,1.40235083114646,1.45954659256566,1.48984899366821,1.60593764652132,1.64775800950935,1.64849446965643,1.41846164725603,1.35681601155009,1.30219055872451,1.30054192339772,1.31949925742577,1.32982157391999,1.40144622001997,1.64606394058797,1.64552363365117,1.62371885989244,1.35290584317109,1.35461875086731,1.35471474948802,1.41207598365445
1.61893510740582,1.89130999999433,1.75319017016463,1.74295625922289,1.55539151515169,1.53334079663893,1.53377731886574,1.53411448796095,1.63184776228513,1.62830457140031,1.71573084536413,1.77525000026435,1.72159089373783,1.55679308780175,1.5615439783501,1.50174999846103,1.54584370286904,1.54262909743947,1.62280889941673,1.86529999999433,1.7580596710323,1.87213999999433,1.7184333786435,1.70953634988981,1.58918018800579,1.53357158558899,1.53299228222422,1.57723365267891,1.6538202317606,1.7880844047007,1.78673766074054,1.8306200000494,1.72855884172273,1.64047077826105,1.60184274816216,1.54630966261979,1.58794329440556,1.5958791053701,1.63061229889674,1.64723073605703,1.62295595628748,1.54727565389843,1.57399872988053,1.58614626569713,1.63101909679302,1.75372842195961,1.77473135547415,1.81197056624748,1.77673700363212,1.75942363065097,1.7206987510229,1.72039086504849,1.56897224696267,1.47118999988027,1.57585392744268,1.72624184714844,1.73634067988959,1.77900005993023,1.78019089739096,1.78154260907929,1.67847839559942,1.61805065091871,1.57559349545481,1.564999750444,1.62016677084903,1.64773289078706,1.68844390437641,1.83144999999433,1.72099912110629,1.63031006400844,1.5611386284605,1.52213990970635,1.55484046685468,1.60206622450613,1.66192006705284,1.77980114335939,1.7813038674613,1.78556797826586,1.69347219030423,1.66913661376694,1.56264179386451,1.47760999956676,1.5505846933106,1.59727997594914,1.67386891526547,1.77058000012802,1.7324910442635,1.612857434434,1.6094868950036,1.56714991671243,1.5913842502154,1.59587823996718,1.59919014583162,1.81077999999433,1.63251034516713,1.5714591284425,1.59407685232055,1.5622192364057,1.62199914612682,1.67717918474233,1.69657458195014,1.71628842734013,1.74364969287821,1.92442999999433,1.74043425313858,1.59945999913631,1.65754385916748,1.69992919000704,1.64422369333903,1.6157427406316,1.63095885916545,0.00440482997907297,1.63843505423505,1.94160999999433,1.70981011018455,1.55836080590575,1.58209529676555,1.58887368332912,1.58700830268746,1.64573974240118,1.65540870648671,1.81712382990531,1.82812516657667,1.88010732021107,1.87416012546427,1.87119641493709,1.71725106254778,1.70330079533605,1.67918663788401,1.60017999660926,1.65394775773232,1.66388076046168,1.6655297577389,1.83706999999433,1.66870604316644,1.62163941045235,1.62427145631266,1.62646128137125,1.65078199700331,1.77819457681561,1.76911809334623,1.7739911903558,1.77251681515712,1.77156549741555,1.50972319102547,1.42954063486595,1.42768204107706,1.42486617642823,1.41279960685146,1.38493956052113,1.42370043621432,1.4227602317341,1.41649663470281,1.37801940738155,1.37840397104586,1.33191999918331,1.40886925237705,1.45090339253974,1.50048690638918,1.5783588455963,1.64671971265138,1.7016500000722,1.44211359537063,1.37924010136605,1.30041017883291,1.29210793616259,1.3062173611717,1.30870374726716,1.38065196194029,1.64619382165101,1.64607087995305,1.65036008422406,1.3524462397909,1.35303475212018,1.35253463788238,1.44142300722095
1.62294722309595,1.76630499054295,1.76262920427449,1.63503334226182,1.56043239572006,1.53202924401071,1.53238630817819,1.53233345735405,1.6330519416034,1.63177758208798,1.71617987322187,1.72019763197612,1.71954135852926,1.59510209117665,1.58905620171598,1.52680871929877,1.54633047176534,1.54503394601645,1.61812798438481,1.72338519610787,1.73565013320328,1.75134255608607,1.72392826392312,1.6485483108999,1.59127591530445,1.5336451255088,1.533268232169,1.58782306750721,1.65225139645465,1.75613149502229,1.7643719251831,1.76452110277292,1.72706878163242,1.62422431468506,1.60521574267055,1.56136470360636,1.57656471243896,1.58668360742328,1.63123023126134,1.63103911227189,1.62284698316265,1.55863183641041,1.57008879393367,1.57560185489756,1.62666558589494,1.68359204021469,1.72878861163221,1.77424615015705,1.77508126479445,1.73159519944845,1.72053757542892,1.71937453664258,1.55705011154033,1.53953562488074,1.56147587428375,1.68548487650341,1.69687276329521,1.72303698366723,1.73120374944724,1.73268136232185,1.68107087017168,1.60682770125745,1.57472952485934,1.57563052386037,1.61750402174798,1.64782337359861,1.68695264190445,1.72471656573085,1.72264028805649,1.63159544029259,1.56442932131075,1.55260557878485,1.55418306749944,1.61027569395968,1.66036976492058,1.78032534426958,1.78141211838859,1.78312321147425,1.69266067692651,1.67151875555028,1.55850907588369,1.53656933240314,1.55098079187803,1.63407748293304,1.68160170203574,1.73086913585182,1.73141371246536,1.65288304617164,1.60198483707247,1.57650376173759,1.58496950315258,1.59908676114187,1.59805636203977,1.66353118437771,1.64867907109653,1.63094717944213,1.6169471712515,1.59635449620661,1.61400410470519,1.62685338076178,1.64196062882797,1.71365726782322,1.71019814692933,1.70781185336743,1.70521388982274,1.65613128787491,1.65514643076118,1.64978745483931,1.6392444794714,1.62899569788607,1.6312483771168,1.63745282583543,1.638393943511,1.71113316127159,1.71117639572549,1.5658400330254,1.57539187009088,1.57841264943658,1.58110906913934,1.60655447915221,1.61976234713001,1.81398962767199,1.82573679270789,1.8498866100776,1.85345983480024,1.86278967031534,1.67784784694463,1.67612443274099,1.67359234613519,1.66729561500001,1.65928837486699,1.66210900815992,1.66375276616907,1.72179958500278,1.69600638710142,1.69170127845574,1.68650384096515,1.68082387439637,1.67138349341288,1.69086584413001,1.71938345624939,1.75459775277366,1.75411128827642,1.75365085282117,1.53430020886987,1.46892719085235,1.4619674809321,1.44199268272749,1.43573858764813,1.43054853942841,1.42645637650302,1.4228701350369,1.41972536821427,1.39706562444912,1.39607674843126,1.39504077965909,1.41551575214872,1.44616404742689,1.51124300205096,1.60639878959517,1.64169504991849,1.64117569612998,1.46922488311213,1.42047091414094,1.29871839402684,1.29806575951341,1.30380998403799,1.30615249997107,1.36118221077015,1.48270597920915,1.5150145160735,1.54692248149252,1.35349463073395,1.35121346561472,1.35098728585759,1.40066109241713
1.62518361606161,1.86987999999433,1.77010253396287,1.57925461910096,1.56788992827751,1.52960948164385,1.53049257931525,1.5282137952649,1.63391142826859,1.63501615973103,1.71519269776092,1.79657999999433,1.71580794027252,1.61424026942497,1.6028022753257,1.51657997755818,1.5463567265172,1.5449652080408,1.61155887292047,1.69755963608451,1.71662552799954,1.85773999999433,1.72884810153492,1.59528992025827,1.59297764314699,1.53696775971334,1.53537875813831,1.59835065265421,1.65107823504663,1.73112792322436,1.76430912179915,1.76477819368388,1.72356024523987,1.60918856435711,1.60860734136666,1.54005849771756,1.54382574897263,1.49845999976066,1.63233683347009,1.69984000010233,1.62357828436986,1.51326998918063,1.55343336803625,1.55863747372563,1.62544404389172,1.64901727018222,1.71676969349029,1.77397880461838,1.77463560628595,1.69482793785163,1.7063939219081,1.71674535545032,1.54729963225586,1.49100927312129,1.55042821576163,1.66161965301313,1.68548239325301,1.71919224510556,1.7309837652482,1.73425401909547,1.68287135685458,1.54341356230335,1.56123153465887,1.56874706252136,1.61383870592823,1.6475143821153,1.68396914033407,1.84834999999433,1.7221228617296,1.633326080764,1.56795652723022,1.54184968846877,1.55559851410026,1.61624674404991,1.65732620984012,1.84771999999433,1.8062280446104,1.82714000025122,1.69371603234139,1.67319884088502,1.55544251953336,1.46757999933788,1.54410410672948,1.70002946210937,1.69027361056368,1.76489356285522,1.74535691385698,1.7529610168615,1.60278715742602,1.51784879739943,1.5661428556578,1.5977944345037,1.59910426838331,1.71256000097633,1.66353207119645,1.75746999999433,1.63477299823442,1.54079040819211,1.54211170736438,1.50887999860234,1.60175455557188,1.79684999999433,1.71058064616439,1.70879669900689,1.70824846124751,1.70920591290914,1.586892729282,1.49689960072952,1.56570973835213,1.67311000024071,1.62112387102098,1.91265999999433,1.83869331031651,1.84151285131611,1.71234663495644,1.55664746002168,1.57371849325085,1.48011664395213,1.49236484704307,1.49350465760349,1.58711344730139,1.7737775848653,1.82199838135305,1.84495021825704,1.85003374819028,1.87079624731202,1.61951161018434,1.50087999899543,1.58967387266354,1.66838100132278,1.64255296993041,1.6233495511868,1.64339547403006,1.85225999999433,1.70119262820054,1.7141288819679,1.69717980719286,1.73257000092108,1.66136027341039,1.63087034493376,1.70818112604744,1.75417384105853,1.75289237361133,1.75237962928064,1.55984081167524,1.48512129383132,1.46748777147044,1.45038505455916,1.46391715221392,1.48328077346261,1.51314972231242,1.69221999999433,1.46039363951991,1.39762867177686,1.39587793125393,1.39345788275622,1.42229968333293,1.44031488753635,1.52187574944163,1.61371767123584,1.64222908097812,1.64045582172038,1.50024669033849,1.58850999999433,1.29646924340325,1.29727846099131,1.29251412054039,1.29049887263924,1.34272348232809,1.45300999981462,1.4827059791772,1.67851999999433,1.35429388598588,1.32715035296856,1.32864117928358,1.32978001945967
1.63373172528066,1.77815879706446,1.77546982778414,1.64287639197632,1.61031542263071,1.56777777025224,1.56735775575721,1.56743613424462,1.6342808030589,1.63592733949279,1.71288693260219,1.71306051803904,1.71145118908659,1.64840798284075,1.6086088704183,1.59606326640071,1.57365033216856,1.57319336059094,1.60323669062931,1.66289806414353,1.69001261418409,1.73510555304619,1.73261657960054,1.64848429528326,1.60404781613299,1.53658227092625,1.53702411507052,1.57425743633096,1.65186770397795,1.75499171861467,1.76402680014238,1.76417554771311,1.71775992394227,1.65027302633288,1.61201894590539,1.59789482001589,1.54802276752832,1.54980658245591,1.63283108061445,1.63310911974812,1.62472722267069,1.54529245165333,1.55102879725822,1.55347303066263,1.62536201837241,1.65164470101761,1.70116785757237,1.77464313778074,1.77478833000707,1.73300242813784,1.69504301723378,1.56669691370983,1.53557520873048,1.52483872091459,1.53794626246078,1.56527923302194,1.67365276258155,1.71557860532374,1.73178077391863,1.73303935213041,1.68362321599565,1.55059525564366,1.5568215501912,1.56070945112444,1.60889104583542,1.62317548787553,1.68134072657379,1.72396979117175,1.72212392604251,1.6032915002158,1.57109707480814,1.55610038487695,1.55747268266563,1.62772585190364,1.65356131733104,1.77307562898876,1.78436180646908,1.79705770347401,1.69652846941503,1.68609480754108,1.55372079139615,1.50987441603653,1.52798954313524,1.56706461997266,1.62937866552007,1.75782871062999,1.74021235672165,1.73851775026069,1.60425580446593,1.54379191348771,1.56201455165741,1.57249783823965,1.58185575660845,1.5915375182097,1.62170212574602,1.66023566054826,1.64828194335325,1.59787000168988,1.54344632162109,1.5432550562284,1.57205713548904,1.6011282767378,1.63664621145171,1.70930666171105,1.70810206842513,1.70883614763072,1.55750020298193,1.53268245307895,1.5537922292062,1.56401613779086,1.60231984193428,1.84049716341516,1.83918030186474,1.84012803018308,1.71300736088363,1.60492295846869,1.58685063465426,1.48461419394687,1.49009695877473,1.49221592867284,1.5579381106441,1.78085981829228,1.79621438520499,1.80148082151091,1.79972119146007,1.78933326174783,1.59161360328287,1.53452500345619,1.55575835517674,1.57431439427224,1.59260123511692,1.60905556414159,1.63356932815251,1.73251669702138,1.69382257749198,1.69008195775421,1.68142956488818,1.66868816244065,1.65318196298994,1.6423905133264,1.6953691110774,1.70445084552129,1.75167837407987,1.75174887397587,1.58634580744722,1.55857383222224,1.53506158859637,1.52521637820954,1.52568521168348,1.52560935510107,1.5258753864977,1.52720431362068,1.48277342571932,1.41844413487076,1.41023577388367,1.40115795445553,1.42747332111345,1.43816532981291,1.53251445801084,1.61214849552698,1.64408176741674,1.64277310044588,1.47205654485519,1.34924273181349,1.29570626695912,1.29432148997487,1.2928580991719,1.29133220639194,1.3247805995508,1.42388989989041,1.39650430179986,1.37012526444888,1.35431918060339,1.32813286877957,1.32880854773075,1.32938108551152
1.64312375981486,1.88932610989,1.88139378062054,1.86959928990546,1.62835968280112,1.56788545985712,1.56680686244938,1.56743826859947,1.63427471668478,1.63666043470244,1.70975902471953,1.90146999999433,1.70689161918246,1.70439516759718,1.61818793325009,1.60598324987225,1.5753121506373,1.57422928792611,1.59406230237787,1.64392998294037,1.66741410241314,1.88150999999433,1.7337753667375,1.73349772846772,1.60931644095308,1.52197999884247,1.53993942499225,1.54328597848152,1.65714504692502,1.91074999999433,1.86421585004164,1.86211082098519,1.71025572622488,1.700375459098,1.61625537275778,1.62163188839189,1.55019309427111,1.55293857887828,1.63249553052315,1.69994000024054,1.62601197958323,1.53819400002522,1.53862887380186,1.49628984484877,1.62433881186486,1.65426524048929,1.68726931135271,1.92158999999433,1.78343151242972,1.92062999999433,1.69445818012442,1.48511335183256,1.49457542906157,1.42154999951802,1.49466920859701,1.46721937536262,1.67452535489612,1.69931060598885,1.7317644470362,1.80245999999433,1.68339091464538,1.47232375491462,1.48907114505299,1.49142867242414,1.59855543954978,1.59821563218581,1.68288361458088,1.75520000036962,1.71979081397474,1.57778798615007,1.57357078702149,1.55785382504785,1.56252443496305,1.64604146974074,1.64970580994262,1.74467763090874,1.77306810678003,1.80717000027055,1.69977837701573,1.69761588694487,1.5532328965698,1.4688182766025,1.47205035570149,1.45623979083604,1.62599958518304,1.76875020382505,1.73842855152394,1.73218558970595,1.60605726130894,1.46851445943311,1.48290410310094,1.44428892450349,1.52774063733073,1.5561899996984,1.59283818523455,1.79132999999433,1.73663010111635,1.75039999999433,1.5448844392445,1.49324677462825,1.51345934050976,1.52314721955295,1.61798891523707,1.84595999999433,1.73876080409674,1.82731999999433,1.52869374871367,1.43206956052694,1.43822198281381,1.43963914378347,1.59206139616568,1.84527845419322,1.84074687042141,1.84163075441334,1.79739346306171,1.78133387303935,1.59535831317014,1.48329528432141,1.4723792789212,1.4513019601506,1.53145446062561,1.78489042578977,1.7907463204224,1.80989899297123,1.78505454992559,1.75905767773617,1.58138269596978,1.46165999907462,1.51765920700966,1.53757205866444,1.53584696638689,1.53436795670428,1.61254273404087,1.89142999999433,1.6870850580229,1.66307801348788,1.65541538330231,1.64528271079777,1.64525522016357,1.62670874452326,1.67552201102013,1.65970341417011,1.77062828088056,1.82656999999433,1.5989440052319,1.59127114563068,1.53721870532605,1.523970346118,1.56157711072929,1.70197000007993,1.57117858178498,1.52953066252355,1.50594457682394,1.43394025839607,1.41869623003122,1.38106962920823,1.43196831412919,1.43678559600253,1.54331227249004,1.61106866097588,1.64490569599025,1.64287510911525,1.47472575897545,1.27988429512307,1.28449847155021,1.21738966028279,1.22816474866287,1.231744220642,1.30543631850314,1.61567999999433,1.3522792628745,1.29869078691689,1.28138917294441,1.27020407690858,1.26983664455913,1.27221157721058
1.65206602858938,1.88760303651678,1.88572545355163,1.86081816192023,1.63876586080609,1.62338549276211,1.56468903348028,1.56579172746679,1.63391814078297,1.6563326012074,1.70618233192645,1.70535057281906,1.70487181118522,1.70446454739469,1.63306247785889,1.58986798717821,1.57803278781272,1.57745389891797,1.58821531826468,1.62337795259201,1.63349311542476,1.64488791045963,1.66225503577874,1.66222711642022,1.61562944760412,1.55187362553445,1.55209465844618,1.61810398860964,1.66357423530075,1.87348898334896,1.8691843958559,1.86628062590715,1.68404584518101,1.64063339356016,1.59659998220446,1.59012491262835,1.55103542285155,1.55151296737597,1.63178409304796,1.63560003449972,1.62745797533878,1.54418290193358,1.54066088440339,1.5147003309434,1.62172307469249,1.64225152461029,1.67520918996874,1.75275890263316,1.737875596018,1.72040415336984,1.69344736192524,1.5072670270952,1.50268191828456,1.47891376198102,1.5129788822361,1.52555550932894,1.67587737056066,1.68913785772454,1.73235850410635,1.73206468004867,1.68249016254695,1.48365391590556,1.48656747742583,1.48906903416295,1.59857400605899,1.59902335826424,1.68423689328281,1.71447035317337,1.71700321971921,1.64152429918342,1.57156321327686,1.56959306780175,1.56840588066019,1.61021674289289,1.62389239408827,1.65726727476073,1.6823994059827,1.71100491012016,1.70397480474786,1.68592690044744,1.55128267355105,1.47226950908399,1.47483306514519,1.47716984499675,1.62051317546912,1.70414740653914,1.70683762135315,1.71224188967212,1.6076936829389,1.48280188319322,1.48762625888155,1.48631787852251,1.52027966935829,1.53732774632978,1.59951605854576,1.73709138332148,1.73548062879902,1.61599887656323,1.54661660496206,1.49892609691823,1.51114831988158,1.52117897366134,1.61006001278567,1.62291846694705,1.60376060268155,1.53721977549918,1.50079568887845,1.43608628098888,1.43628215710732,1.46750845241057,1.58312025247602,1.80921993215125,1.81035074530723,1.81124838569312,1.80429785362477,1.77880479923182,1.60149832146813,1.47314687514631,1.46657839789153,1.45923809264737,1.50699579228965,1.54571470644887,1.60097703302018,1.74707967841718,1.74458355915412,1.73655578854681,1.56939674254588,1.50151133842095,1.50600455817603,1.51393406881408,1.52048757083075,1.52634342120644,1.59863541474393,1.70690234911928,1.68129223560126,1.66430540709668,1.65079923887264,1.64486292733201,1.64506538767996,1.66541972141167,1.68720748848374,1.70296471839332,1.77642195766536,1.77834204460482,1.61555873122094,1.56595068807684,1.54172975692155,1.54205724824107,1.56325387315051,1.63518263859184,1.60392962789185,1.57013482159024,1.52822329825135,1.494119360047,1.48238124160296,1.46697232871798,1.47723564977393,1.48749482152619,1.55412532355211,1.62137878241714,1.64569693615112,1.64445796070364,1.47731684312006,1.29164459957831,1.28926056409144,1.22275127777136,1.22677173782991,1.22816989255145,1.25505841042775,1.25609813055927,1.25681423730962,1.25787707967749,1.26051850887375,1.26567930726455,1.26763641623214,1.26963091179031
1.6599767457891,1.96646999999433,1.88715268981431,1.81739705171899,1.67039281272485,1.66508217671462,1.5621098891451,1.55556980428415,1.63354083903371,1.87586999999433,1.70334269471927,1.62658999956629,1.70311092818561,1.75373000048294,1.6467735858764,1.58513447904961,1.58153821074355,1.57119025717503,1.58212242535079,1.5708595335764,1.62279335107238,1.59403956083591,1.66323746362442,1.66327037615585,1.62245772149718,1.55428655829303,1.5541291615308,1.64372988411793,1.67021275376483,1.88004371899327,1.87520271561278,1.8856234730738,1.67865691228315,1.59032728896198,1.58358064692535,1.53061916763742,1.5515234450331,1.55040629410962,1.63140191140545,1.74535999999433,1.62917972181553,1.55014773230025,1.54171358285621,1.49956950408453,1.61764941106766,1.62702009609186,1.66406330942571,1.84992999999433,1.72147144593697,1.68966929502522,1.69167876908247,1.51300847995697,1.50642945069893,1.41903999960714,1.5230625765324,1.54328006897671,1.67711615293091,1.68479757437883,1.73398943968934,1.81331999999433,1.68139383419632,1.48029257988137,1.48383060026861,1.47505803477076,1.59860090528003,1.59862330174759,1.68448933732666,1.7418860198812,1.74092365920415,1.76191000080952,1.57044061944495,1.57113006909097,1.57310755896979,1.57434704999294,1.6011484250918,1.63263999919206,1.65342550924721,1.75508000066301,1.70495543348649,1.6794599668878,1.54630469971736,1.47144578407911,1.47710109370749,1.4793986441503,1.61231618314429,1.70210577551926,1.70377774100696,1.71771007479336,1.60873073159627,1.45278941688366,1.49193934225394,1.49253219642246,1.51103200265177,0.00456834997913174,1.60249345797448,1.81498999999433,1.73141378117891,1.58151999879818,1.54882139467638,1.49450262230105,1.50961453493797,1.51627111834819,1.60101278059212,1.83078999999433,1.59433019810861,1.44132124602516,1.45208544855134,1.43025892014305,1.43421012536176,1.49040001874254,1.57347887688356,1.81047527395206,1.81211398268971,1.81473450456334,1.80642624079283,1.77338391599024,1.60531876938661,1.4499562134192,1.45014427780621,1.41047999906169,1.47533585404918,1.4884111526471,1.57552827134312,1.74960283768239,1.74450228511918,1.73527191974324,1.56111555376711,1.49187826251727,1.47841179585467,1.44505846607749,1.46971528807323,1.48584077811083,1.58367792040482,1.74217000111088,1.67655811959531,1.66398292780522,1.63688531799775,1.58013856035685,1.63435900191728,1.70731974892289,1.69643330166209,1.78451011203677,1.77830968599376,1.96523999999433,1.62738047859217,1.54679903660368,1.54352237184718,1.54226461773208,1.5644277966433,1.69586104358604,1.69048135998504,1.73110000089152,1.53886614802338,1.52279470759221,1.49275796145995,1.43332895118216,1.48914345714992,1.50280032165576,1.56424049810241,1.70450594005869,1.70417795180761,1.70409866722947,1.47847345659328,1.29380958352414,1.29161434833499,1.20963991176826,1.21308482797514,1.20889628388184,1.254646378441,1.25822764964681,1.25686665125475,1.2578837606587,1.2578416248338,1.23318999825465,1.2631027713312,1.26248062172039
1.666956001651,1.8899208982334,1.88884710346177,1.86197696768871,1.67590722278348,1.64164199030108,1.56043375683467,1.55831495910997,1.63366495636115,1.67849679816589,1.70036630858755,1.70090456893935,1.70122190582954,1.69928026750075,1.65738117242066,1.63007431184655,1.62752314533424,1.62228483592673,1.63244267243144,1.63827868379488,1.64329445362079,1.64765872681239,1.66418003907226,1.66414409454002,1.62920495031451,1.5593413480113,1.55708740518355,1.66562441169003,1.67564771792402,1.76708775865259,1.77919772226847,1.79302997815617,1.67375282739112,1.58347503893787,1.58014652066763,1.55513558435509,1.55348681794976,1.5517382976187,1.63154364415186,1.63138948433122,1.63090910811184,1.54131994007584,1.54103167882689,1.52510375313074,1.61272303666275,1.62298915951947,1.65415173687321,1.70043756413796,1.70296111348262,1.69396728688296,1.69067743590762,1.52535932725674,1.51928035743979,1.50731443189274,1.53029435213028,1.57623958329436,1.67763785218233,1.71366495691918,1.7365336267484,1.73536121032847,1.68063135431137,1.6074006711144,1.58353902432571,1.5772106167311,1.59825161488987,1.60676742956813,1.68391001120197,1.74163102636543,1.74037043440104,1.73898608549027,1.57088285560305,1.57356864819106,1.57865467946351,1.58595708606707,1.60265082433549,1.61996552033738,1.63117456039372,1.71296131453783,1.70358261370648,1.58151788406312,1.54012666849775,1.5040113959836,1.50278915278865,1.5474070061957,1.6020543275551,1.62314056110698,1.70237851062736,1.71107960818868,1.60901150583582,1.52417020691865,1.52584146669208,1.52780887869197,1.53533135111493,1.55389583336467,1.6022979506486,1.7281331228416,1.72615968085315,1.61732139745707,1.55154021335662,1.5012449761287,1.50609578447521,1.50730017870825,1.58902625815442,1.59775021448173,1.58345987762002,1.4776445364222,1.46138932318811,1.43007029310136,1.43191221183437,1.4875414934637,1.56745047849357,1.66222596947953,1.81473915927244,1.81350206902899,1.8106934565961,1.8091869880806,1.61270569868709,1.53215128122202,1.4517719947433,1.44364599406735,1.4589947892229,1.47195861164203,1.57202850544371,1.74796466029096,1.74539548427557,1.73865466266349,1.55359750323758,1.47850399157722,1.47114203366854,1.45995531924231,1.46749899429796,1.46965255872877,1.56911745057229,1.68762630667807,1.67105205413111,1.65961786528613,1.62604338579644,1.61296293980383,1.62397946570985,1.65397173795634,1.66628072913184,1.72004095446081,1.7560098029128,1.75494114079861,1.63523672027793,1.62426732864013,1.56596025647625,1.56711127125748,1.56619520910867,1.67217596994494,1.68617303400242,1.6972872091619,1.55123035058232,1.53126288356064,1.52949280819252,1.52465540605575,1.53111050312887,1.5345078251525,1.57695111187868,1.70419300376754,1.70405497663875,1.70398936699353,1.47853989739019,1.3085823694816,1.30343871734304,1.29185612175102,1.28103993790256,1.24964361239067,1.25282620108257,1.25524258431252,1.25651070296745,1.25723036736942,1.25805808911656,1.25981880997751,1.26238082220141,1.26217106111759
1.67347180191007,1.89164942859571,1.8898674902752,1.89149548375088,1.68055645418355,1.63028015039134,1.56322537729514,1.56005168515624,1.63466257167687,1.66592483516676,1.69697810982041,1.93782999999433,1.72468394401756,1.69689323455305,1.6644386412206,1.63205515102972,1.63009531149994,1.61776751340111,1.65754214246549,1.88044999999433,1.85319069957866,1.93101999999433,1.69370852022238,1.67446014753184,1.63458177662422,1.56324483849882,1.55868078733876,1.69793838551728,1.68837805872108,1.74080851593533,1.76565774117886,1.93464999999433,1.66708461231272,1.57358984227451,1.57551793484955,1.55737796920351,1.55522119277113,1.51340999851161,1.63191107568139,1.6551100019471,1.63187202638953,1.5354049581375,1.53848615875111,1.51653939767272,1.60769055708112,1.61864646051694,1.64544424562833,1.69625338573749,1.71326122543153,1.88193999999433,1.68910782337677,1.53866003275713,1.52574352083769,1.49521031796086,1.53134629065647,1.62259961640635,1.67687947726214,1.7223959255677,1.73998946226779,1.79417000006233,1.68037433706554,1.66331991044039,1.5929561514418,1.56533927613701,1.59790086686457,1.6155040763507,1.68302326784144,1.74319917970266,1.74005109225437,1.73800153305301,1.57114739575085,1.50990999861304,1.57978702684535,1.58676317172791,1.5987402832237,0.00464474997915919,1.63437371381161,1.82923999999433,1.70137482763039,1.52177828469788,1.53195469970173,1.50662011070539,1.50289721225885,1.58253315687395,1.59310595913684,1.57501334189681,1.7026687419772,1.82412999999433,1.60861954736717,1.51804239214754,1.52153821121658,1.52001836646357,1.54041511168934,1.80662999999433,1.7411450962489,1.78846999999433,1.71799496798686,1.70952303208659,1.55460391224831,1.47937020437697,1.48837321843185,1.46171999924702,1.57525722486255,1.77915999999433,1.57008764701765,1.49941008445124,1.47126123115142,1.40809999864407,1.43210533120726,1.48566010621624,1.56261117449297,1.61779999927447,1.81708352240651,1.83408460980767,1.83389868392027,1.83232943012026,1.67761553871488,1.67017070527854,1.45506768732689,1.42867125452259,1.42975668829393,1.39289999945361,1.57243043615938,1.77220014585735,1.74530151987629,1.74258091729612,1.55530179096273,1.37408999981953,1.41886093044568,1.42234722501865,1.44395722967488,1.45106230482595,1.55857221516345,1.77001999999433,1.66425705141652,1.65468666689176,1.57382114263515,1.49918957424662,1.57412158605268,1.63317986070688,1.65398773771627,1.69632945725846,1.75598906589833,1.77194037634732,1.64457970103018,1.6730108898585,1.56608198573581,1.57177571644299,1.56703297179551,1.64445286478764,1.68376538801222,1.76452999999433,1.56283252267603,1.53644770118287,1.5320748888497,1.50893438908897,1.53060662516579,1.53669975949266,1.59083055577001,1.80366999999433,1.74948959305504,1.79024000016667,1.47816158843765,1.32603182458881,1.31217941231281,1.29940009054599,1.28712040880621,1.24706953085077,1.3309620714179,1.61731006934436,1.59355837771764,1.66686999999433,1.30627884102965,1.28814270210513,1.2646974765694,1.24975926231899
1.68001441500856,1.88966616162329,1.88890573144702,1.88888412580374,1.68294699405435,1.6107193172137,1.56673559085875,1.56598165746473,1.63649476120146,1.67716648694481,1.69437899988063,1.76746364054185,1.74684649578172,1.71885907876457,1.67626870437913,1.67214321319794,1.68009997512376,1.68919091620542,1.69529094056067,1.71656151418531,1.85320135762964,1.85291081291948,1.71743207520674,1.69730145201178,1.63387082203701,1.55985607641954,1.5584401098886,1.64549736750144,1.68307074048746,1.73170682058147,1.71293854374306,1.67293749876313,1.65703009116952,1.57618420838704,1.57714198861808,1.56197507015474,1.56165946523691,1.56130490398209,1.63232150630443,1.63235371921867,1.63166654041267,1.54510139981243,1.54216424407236,1.52589528698165,1.60231043795066,1.60561960432223,1.6365179498698,1.65780129848723,1.72476543498454,1.7261537045512,1.68801211989275,1.60211451113004,1.57496396596241,1.53953999834013,1.53911273322119,1.58492860660635,1.67442823752014,1.71233595548302,1.74261218397821,1.74167821992597,1.68391482991758,1.63587912708557,1.60189988211276,1.58282116702554,1.59717915460158,1.60367563535515,1.68192410391971,1.70723575185639,1.69988608145276,1.63716689344953,1.57379793314456,1.55222838258573,1.5808384074644,1.59163625971345,1.60419604661476,1.62060531779857,1.63160751247773,1.71360524275634,1.69888119651954,1.58481937043505,1.54366948621254,1.50301824925712,1.50095047749002,1.55328006279112,1.60047760921206,1.61916473814036,1.69406023969654,1.68658100532969,1.60767797699662,1.51838003320868,1.51848183476021,1.51809260841151,1.5415348664642,1.71785432022211,1.7296699781406,1.74068469958833,1.65886617814689,1.62088978367666,1.55770172590338,1.55639761603325,1.53415451901123,1.53584583674523,1.56087303110427,1.60018816562421,1.55535713311463,1.51263254185307,1.48192117679885,1.4333055154506,1.43250350524633,1.48210020336512,1.55486061179687,1.66242026050218,1.81583634631639,1.8340736792184,1.83482504837286,1.8344097031562,1.68393939683641,1.58529298833042,1.459422451655,1.42975237478309,1.43100934395153,1.44950012977115,1.57299498390059,1.74993829419368,1.74785033338361,1.74565266978332,1.55756254569851,1.44448285346629,1.41688466060917,1.41885902247638,1.43852710341396,1.46262634875096,1.55909560373343,1.63246107087925,1.60428877544035,1.57084673144827,1.55244807074133,1.5378406000683,1.55233350541354,1.57412212347496,1.61133029548022,1.69070303733984,1.75430961707137,1.75550027025515,1.63264945670794,1.62810089904338,1.5638397282089,1.56598435408604,1.56530455896546,1.65209449878501,1.68262646728059,1.688319524265,1.57367926621661,1.54009920992286,1.53195459229933,1.52951970404237,1.53074180013355,1.53985744139941,1.60550396940851,1.75193980714455,1.7405811671677,1.72415885001934,1.47771970336762,1.32900931159884,1.32090705345627,1.3088895064722,1.33534684344588,1.36105365581095,1.39331715046034,1.56332466922002,1.57769826321635,1.58717949787508,1.32297125162022,1.27722429457305,1.26672589125277,1.26783222585292
1.68689886159314,1.91274899201674,1.90928716584706,1.90744543726944,1.6833441266245,1.57745962744368,1.57209897564932,1.56728543833995,1.63894984650157,1.68611967509234,1.69305458780272,1.88131999999433,1.81120112049749,1.81711122856003,1.68069571133837,1.66017666146368,1.68605018698445,1.71694072643902,1.70119133173014,1.67170919371075,1.85356640659911,1.92071999999433,1.74551927657204,1.72449974830141,1.63380910949567,1.56032050062361,1.55854688508534,1.55830327153108,1.67763111398591,1.88619999999433,1.6980522013968,1.62980892736183,1.64539537079669,1.57624815636403,1.5779115020015,1.563125628679,1.56170203330344,1.56058208925456,1.63297400555115,1.64576013644777,1.63097657669991,1.55764032156816,1.54460242910182,1.51170957268254,1.59589323081645,1.58821047206519,1.62654133118633,1.60615942038291,1.73387589126154,1.86613999999433,1.68764124495863,1.65041973752953,1.58915164534243,1.54039474374523,1.53953538105105,1.52129993068205,1.67032043092276,1.68377969861703,1.7464797769878,1.81072999999433,1.70059827018016,1.61062999681228,1.60803514637667,1.56977027423008,1.59627288995356,1.5945211567549,1.68015911507364,1.79647999999433,1.6903027331927,1.58155431349595,1.57755506889989,1.53490963617913,1.57856971905835,1.58427890037432,1.601796994166,1.77230564887166,1.79105169751831,1.83326999999433,1.69616701314424,1.69078465671026,1.55759246971744,1.4699399991401,1.4986903054296,1.49876940228054,1.60640208074722,1.73542000053866,1.6966061080808,1.67109323591507,1.60627487542657,1.47433999849979,1.51613955348512,1.51418480425039,1.53991356413697,1.69335820771659,1.71440835804286,1.86135999999433,1.6421500216166,1.58288033786656,1.56072693393835,1.5640939069451,1.53607229409616,1.53358121595737,1.54624798915428,1.74404999999433,1.54085931914873,1.53372475772362,1.49251898693628,1.40754999860069,1.43200504823352,1.47253629217949,1.54560113921952,1.80232370314306,1.8104220839519,1.84447970837089,1.83624059976125,1.88674999999433,1.6885837014141,1.55409000002563,1.46415153727887,1.41250979858639,1.43373372024025,1.46705026955533,1.57311906267,1.75205054864279,1.74975517238757,1.74754313254025,1.56042044353145,1.45541446296967,1.41469972347363,1.41475187147879,1.43387642401906,1.47599886256608,1.55839852487976,1.75161999999433,1.57605194842528,1.52313056440156,1.51150096256553,1.39476999941028,1.45842155209245,1.46641672732909,1.58223101048829,1.66950833498351,1.75012500762572,1.75450972308949,1.62420355101325,1.60637037443419,1.56116879690885,1.56223290697009,1.56318196145008,1.66071598391343,1.68011252049872,1.74126000058567,1.58578678067514,1.55098477002483,1.5351584877538,1.52669904239367,1.53312232316129,1.55725099663763,1.62025959604529,1.79220999999433,1.72958411039979,1.68995961943426,1.47725704949527,1.34680675495901,1.33164082830072,1.27599999894548,1.36119477038517,1.38767000050506,1.42569021710771,1.5435199813079,1.56921670238088,1.59972006671315,1.3404116137397,1.26656848780201,1.26717697696357,1.26780082630529
1.69363006502525,1.91004091389327,1.9094080970097,1.90726940831593,1.68804479713522,1.61639163141761,1.61671252553859,1.64008669377983,1.64211852874337,1.68583024362776,1.69339258520552,1.83831014180849,1.80574290227077,1.80342642204363,1.68595122026601,1.68025434514253,1.68868121341337,1.71709560833016,1.72656351356824,1.7389790911432,1.85381894586572,1.85392144175015,1.76202822063451,1.75218535865868,1.63510887478745,1.60979693108221,1.61699197218195,1.62082913777857,1.67124158402684,1.67828794794996,1.68166118783601,1.66286173356047,1.65572762530183,1.62927263749592,1.60807018416823,1.59119190137051,1.5898531465211,1.58839155805957,1.63517293736442,1.63821496733501,1.63356919427509,1.60936567752112,1.59853824071986,1.58785478172656,1.6093743763053,1.62115288076624,1.64425657663209,1.66398752422158,1.73337999483594,1.73443019947933,1.68627295149625,1.6742896244541,1.60205343409341,1.58072235439813,1.59290031858324,1.59873365173642,1.66518856676714,1.67562923022859,1.75081759385307,1.75319487627622,1.7125028848154,1.65955180464037,1.61347283613515,1.58381556289215,1.59681737654258,1.60089444054208,1.67716408636343,1.6749936350764,1.6740965923426,1.63258372626434,1.61382801194125,1.57196276498085,1.57503655646165,1.57839763318421,1.60500624999104,1.76897970732487,1.80392361007723,1.82136309856118,1.69771831533353,1.62355912194365,1.57072460296688,1.5280070453098,1.54429513399173,1.55858711000462,1.61122139546017,1.69995272528888,1.69890232636787,1.68886898114753,1.60453290475478,1.50136785352825,1.5223352147023,1.53898119387266,1.54448399537784,1.68614461495564,1.69631539774394,1.70248957117792,1.6224583534245,1.57019684436937,1.56056281108442,1.55331643710026,1.53484488910578,1.53973280936115,1.53463811960654,1.52980239229477,1.52630659089127,1.52528956924286,1.50235079078198,1.43215679906425,1.43204315570596,1.45962600454642,1.53680651095943,1.6425802911056,1.75085379213172,1.82703289086373,1.82058668860938,1.81805330955745,1.69136520924781,1.52534438605172,1.46863375536284,1.43804225981667,1.4368174277634,1.44897223399977,1.57258333531946,1.75273248798541,1.75264203661464,1.74207063251818,1.56290231569025,1.47855111786596,1.41372190993342,1.41413149700441,1.43054063746729,1.44928304474132,1.55611806651289,1.58513888029994,1.56562153019558,1.50669488775607,1.50304491721993,1.43395706585767,1.45033228034446,1.46394657982688,1.56977039903534,1.70230717576388,1.74563931058225,1.74823154118234,1.61484518846368,1.59739221727053,1.56010725082022,1.56178159276369,1.56193126331668,1.62675722356514,1.67639121099447,1.67754886072054,1.59863975362266,1.54892832873051,1.53912375860743,1.53313334565753,1.53591727089507,1.60343140059657,1.63404967278424,1.71309738490055,1.71291422518485,1.70539969706886,1.47617349990098,1.35110976486125,1.35662713616115,1.36028518553058,1.39294218225224,1.42566323440106,1.45901272107381,1.5513853296204,1.55298949598085,1.55284060930281,1.35592504637409,1.30173927387983,1.3124473766088,1.31835925278722
1.69892031991172,1.95483999999433,1.91313238450941,1.9186379562726,1.69557447553006,1.61662462660439,1.61789167305758,1.65784374619423,1.64865066656793,1.68498059161722,1.69556110924161,1.92817999999433,1.80386168285081,1.80327980237806,1.686053945053,1.6027899999476,1.68786635981303,1.71894289602427,1.73111954347379,1.89459579639403,1.91266793696594,1.91907836188953,1.88855725262493,1.8982239906253,1.63770051629967,1.60078329624094,1.6211174822588,1.62613628072808,1.66122716047629,1.65048774839763,1.68611557290532,1.7235303492263,1.67920000269009,1.68220389921127,1.61758008569684,1.59216980419287,1.58966107364883,1.58672415743061,1.64602200702157,1.96488999999433,1.82640110741027,1.79297819679111,1.62833637136385,1.55232955238464,1.62447058497468,1.66459585513338,1.66478908256843,1.73274998265134,1.73346890401128,1.73282895186238,1.73596434082935,1.73984413664707,1.61990354185169,1.56510252933847,1.59884638542497,1.60565655106041,1.65988494158629,1.65483432997235,1.75217491873971,1.81648999999433,1.79916137270012,1.84021999999433,1.6186238489768,1.54639999847027,1.59739565330822,1.60950020420217,1.67602738334841,1.67359849469331,1.6751603812968,1.67750835846992,1.62903207634437,1.56818329102723,1.57195663135505,1.54699920146064,1.6201492683771,1.76274502883086,1.81390337995922,1.83159930660669,1.69702852052555,1.58318697787737,1.57893925564562,1.50192936107328,1.56349774030041,1.57685006129182,1.61633247854615,1.70760773779793,1.70871710203282,1.71045549116175,1.60260244345689,1.47943999879821,1.53278108120778,1.56464420070349,1.56320372431581,1.6579885664183,1.6829211215515,1.76032000007415,1.60355344303832,1.56190812310751,1.56090235716082,1.5280488474735,1.53660787893479,1.53389362724595,1.53740858373914,1.5188196052424,1.52313918632645,1.51749726563223,1.51106883164953,1.43274490638555,1.43221209545536,1.42945982292102,1.52803445560426,1.59384999956293,1.74751977580084,1.83505508770767,1.81835428119926,1.79947206439042,1.69207647022004,1.47528124137793,1.47303835029071,1.43974312182161,1.43902051151319,1.41167953677549,1.57139818727539,1.77762000074998,1.7554066147185,1.73807057960136,1.56416761550809,1.50841979479023,1.41306544743185,1.35314999955626,1.42757276369005,1.42295051494981,1.55266625219288,1.79180999999433,1.54918814300302,1.48205385280357,1.48137492860414,1.39287999890989,1.44232770394192,1.46186185838451,1.5564805590752,1.73253162013978,1.73907595683661,1.75472000073195,1.58771939944809,1.51621961802498,1.55875225689465,1.56433027032308,1.56177691576602,1.59170997899958,1.67210049390506,1.72028000105439,1.61186543791629,1.5448953420542,1.54362527556001,1.51320931344652,1.5393753427766,1.66719646887681,1.65778395826006,1.71346898353427,1.71308934183824,1.77013000005901,1.47349123995863,1.33790039142563,1.36083199842033,1.36801804195756,1.41733179791809,1.46843431851859,1.48962916725079,1.55615199106255,1.55435477713474,1.55390108380258,1.3694707906227,1.28950580843399,1.31849073299044,1.32925824111598
1.70487852433029,1.89521269529068,1.8899008354273,1.88866729445871,1.70156398419329,1.61786249503779,1.62023771688669,1.63856067080319,1.63990982942526,1.69820893506086,1.69929861268078,1.78341692959179,1.76968877464446,1.75598625420807,1.68618878229063,1.6664448910747,1.68754751192192,1.71425428115606,1.73898015387963,1.91283771855789,1.91202454343763,1.91273621114985,1.88422815868723,1.88305980265025,1.64120156577264,1.64067769280554,1.6410645096883,1.63494086562424,1.6766741277409,1.68079794472882,1.69522656642553,1.70375597481497,1.67539620083726,1.67132758855423,1.63231138277108,1.62682204182633,1.63891056533382,1.64519247616193,1.67099135612361,1.85384231089586,1.83943627207049,1.82640110637575,1.67597647004922,1.67512863393503,1.66817481468279,1.66596006424211,1.66547156917885,1.70269165385253,1.73085585714405,1.73260320754185,1.73176407644319,1.73020443673842,1.6429862634509,1.63437947593669,1.62528934809152,1.61240911232938,1.66285076010045,1.68235686824733,1.75381595272709,1.79873019022922,1.79894187984194,1.68928448271276,1.62197050679605,1.58203649569265,1.59820284595133,1.60584238713665,1.67587418599668,1.67521907409066,1.67526132080445,1.67617470899634,1.64368093794143,1.59928447788988,1.60041322583632,1.60136238930161,1.62916656807402,1.80099600143118,1.81265135207222,1.82880575749142,1.69400976399863,1.60561991001797,1.6020062187231,1.59795271247391,1.5934086399284,1.58778648669829,1.62315699766148,1.70808713771237,1.70902563151986,1.70955628729855,1.60095583033949,1.52203258076305,1.54313889823794,1.56155522440148,1.5621087140839,1.56123380763742,1.56109526171214,1.56126983708968,1.56129863160248,1.56081841062658,1.56036165115557,1.53096185513757,1.53332791851739,1.53356866945603,1.53330021362289,1.53128679142754,1.52710714460382,1.52316380999905,1.51818444377143,1.4622384711417,1.47143213927472,1.47555084680161,1.52009164893393,1.64015158245397,1.74057711063592,1.80289670254891,1.79789799719948,1.79616130222149,1.69018237682523,1.55156033120907,1.47883667329933,1.44011664147158,1.44070117768545,1.44091294621391,1.56941259718232,1.76715238986953,1.75747164451826,1.73193755722944,1.56404030170664,1.46527777226532,1.4131264255128,1.4098368740017,1.43095579052946,1.44677179566994,1.54810949360445,1.54508076963077,1.54351523828612,1.51450093286338,1.47979425476372,1.42663252092203,1.43450875237596,1.44450097781758,1.54364655531878,1.66654201006212,1.66675460363275,1.58508108004207,1.55908596812762,1.53476082507304,1.55215106779102,1.56143348526202,1.56050936140835,1.62073734914925,1.66782809655242,1.6681151386812,1.6250502126679,1.54673347672874,1.54401914268158,1.5472331323647,1.54238734572833,1.64238994194304,1.64818281977164,1.69740218232108,1.69569470360415,1.6941923864086,1.47017832933853,1.39780732137465,1.39853631906023,1.39914319359461,1.4425725130783,1.47573325150047,1.51322279697607,1.55516434575023,1.55406194458087,1.5536324755576,1.38108181171673,1.32843873369611,1.34672653389898,1.37003332194521
1.71077475940789,1.9031000378688,1.88800639164463,1.88474566426547,1.70443051452881,1.6006393725228,1.62515273522464,1.63098039633943,1.63428251832425,1.71092280013834,1.70416516469602,1.87969999999433,1.74838852295817,1.72677229250769,1.68733319056688,1.61396999970848,1.68831429905593,1.70896216249451,1.74789936492786,1.99401999999433,1.94792469675391,1.98717999999433,1.88289611184882,1.84854965773804,1.64549522430336,1.6520569872075,1.6444020132623,1.60976920436236,1.68688955494673,1.80824475083977,1.81162732615855,1.81106891843986,1.67512490742491,1.66942614525587,1.6457774949831,1.60533960527001,1.64493822581936,1.65408029943744,1.69248883946902,1.87440027503711,1.87529795925026,1.87369887033865,1.67726414009248,1.67745942160297,1.66988944244558,1.58968999935541,1.66575219879637,1.66614834155468,1.75361478747824,2.04297999999433,1.73021618043133,1.72805956208891,1.65057778385662,1.66395367608036,1.64245503828712,1.59197903296458,1.668168706861,1.69566991857641,1.75569663375018,1.94777999999433,1.79892053912671,1.66379811794315,1.6248631202557,1.5598194527732,1.59947109794687,1.60094274606493,1.6846491178547,1.89981999999433,1.76597466435108,1.75272630657684,1.65957506630055,1.59774068190655,1.60010673186,1.60185539408789,1.63654345944654,1.81305231488142,1.8131552096045,1.95083999999433,1.68917287609682,1.60936739093792,1.6089616086805,1.60846220702502,1.60141278372918,1.52234999929092,1.63018482363319,1.75735687581817,1.76083531125262,1.76604082612748,1.60523720265745,1.49678989419147,1.55213128261162,1.56313029414704,1.55901828590201,1.55009650586209,1.5604445953545,1.56249228017947,1.56079610659237,1.5594435122065,1.55971464950758,1.49463939220173,1.51130570913376,1.49255960779762,1.57588140935335,1.69298000039893,1.57618726692857,1.5286483899959,1.5232998567806,1.45095886017048,1.47582038019178,1.48456933590377,1.51319224670913,1.71373020506786,1.73009598818384,1.81055353444711,1.79541207084131,1.7934399443658,1.68542806513304,1.6786076126902,1.48363998568107,1.40143999849949,1.44241661039152,1.44098113370019,1.56651447148413,1.76874806088913,1.76010819090575,1.71256804270162,1.56281205017157,1.41604995574316,1.41402004775656,1.36478992318345,1.43387486565692,1.47532141113851,1.54574740806909,1.54199994709829,1.54163307781589,1.53791534651997,1.47730078432788,1.41571718805766,1.42097779588878,1.41438323284755,1.53268299240278,1.77373999999433,1.66750940997237,1.52655179891923,1.52568831456618,1.52499985546825,1.49707336478427,1.43830921176833,1.53331954423089,1.66058353290889,1.66393316533682,1.75481999999433,1.63737386787379,1.54675064373367,1.55026603728503,1.53638228241018,1.54779677813183,1.63714463464963,1.64361157164806,1.69889711673197,1.69577949128189,1.69340734071557,1.484866308724,1.39678493834773,1.39832916030696,1.3994543426504,1.46391216469064,1.4829759471513,1.53730354490721,1.61224053883569,1.61165950837197,1.6122504059735,1.39246212896959,1.30557953765747,1.3485247327066,1.3954205134946
1.71709209374291,1.83321166563812,1.83420518313519,1.83645104700573,1.71088720009594,1.66350426243161,1.62703364611351,1.62863997807502,1.63034781577625,1.70061626285157,1.70230114303568,1.72336759329296,1.72474888499642,1.72581298914031,1.6889701530948,1.69166963586279,1.68935700762415,1.72089809412423,1.75961550355693,1.89428489105216,1.89416073361391,1.80600798014914,1.8015605894126,1.77075555546047,1.64436367879703,1.64777765838929,1.6481068255221,1.685020342281,1.69418297582124,1.81167816703398,1.81591438410641,1.71280401538457,1.67478760050256,1.67308707369145,1.64573740481874,1.64316245720123,1.65714812734235,1.68796127713887,1.71272555212675,1.87680482776822,1.87703155983771,1.86652154000095,1.67797846322738,1.67458778742525,1.67124996420064,1.6714779465717,1.67677312519979,1.69569758315328,1.75649846422017,1.75698027248605,1.63837022295544,1.6383702229526,1.63837022295544,1.65569862217349,1.64988405531014,1.64564811886662,1.67609804999225,1.71860805475636,1.75704748596835,1.7996806376427,1.79881410175215,1.65239831285068,1.62853914674206,1.61182921158158,1.630400600557,1.64660681276068,1.691842424207,1.77585436986852,1.77450634526751,1.74407847331691,1.68412760290846,1.67130812658232,1.63243495011353,1.63122470818325,1.63769170597147,1.81423247258333,1.81474297060218,1.85993809376526,1.6833082672119,1.65370204358727,1.64444858888276,1.64125521943025,1.61502453893715,1.61554819644526,1.6375559738257,1.72055431993678,1.76350915057579,1.7654328384175,1.61165707217907,1.58998150985862,1.58099385374734,1.55747885787057,1.55782803668162,1.55723012682962,1.55969450028547,1.56220502209783,1.5658718507052,1.56872187995353,1.57187668728976,1.57336610705321,1.57617775991933,1.59360020841635,1.59784975843346,1.63465842168264,1.60731739819018,1.57268993269372,1.52923211398905,1.51249850468819,1.49238463044276,1.48922234243111,1.50753042710105,1.58135406612567,1.64574455725087,1.80475027527266,1.79145449635675,1.7790991988168,1.63741415762642,1.54273473902123,1.48795285916567,1.42341703225412,1.44473515431779,1.44397719865172,1.56297412240052,1.76632793497298,1.76335359305466,1.74990638934264,1.5609728430543,1.41363636054281,1.41354285176,1.38473333911449,1.43691352180985,1.46784712010998,1.54532993686437,1.54329944888199,1.54191862795403,1.5057018995554,1.47449246644095,1.42688263590265,1.4296758789924,1.43832285811396,1.52109955731205,1.66909193246398,1.6689396921684,1.5149386828464,1.50535605435887,1.49644796611725,1.48535431495197,1.46504411671178,1.5035516857516,1.54891764025443,1.58438003715155,1.65847925718229,1.64776865361295,1.59288123850871,1.54792134765209,1.54985210325585,1.54618990915004,1.57635277518152,1.60577746053631,1.68096099870337,1.68229509640234,1.68644539741414,1.51115888617116,1.50686527901204,1.50382516059753,1.50348935431345,1.50309111630026,1.52755126762232,1.56173467547412,1.61086184469073,1.60983089045906,1.60666842881102,1.40375693554402,1.35411091865087,1.35443772431441,1.37354812537712
1.72575850153404,1.83162439997075,1.83341071601921,1.83776783116178,1.72224917150396,1.74134045708193,1.62170543117026,1.57879911492081,1.62777097710622,1.70053354851266,1.70192572081912,1.72102887899477,1.7246154626562,1.73837202608183,1.69170087814508,1.68817117270421,1.69198493443299,1.72953868858101,1.7719236991522,1.96970999999433,1.89440825017927,1.76225145186355,1.79248858951316,1.73018915303171,1.63934090366,1.62774913450028,1.648294149848,1.72159036748991,1.72249499750951,1.94134999999433,1.82474055974651,1.66285867976035,1.67550988603342,1.67457544239617,1.64769554326222,1.63990904482134,1.6578631403443,1.73024266232368,1.73824254507223,1.95512999999433,1.88090712723271,1.83718514737678,1.67782250157027,1.65061962212371,1.66876689079656,1.67076280119483,1.68322009457817,1.77294922675906,1.80386058404592,1.89429999999433,1.6383702229526,0.004644209979159,1.6383702229526,1.69954021016718,1.6731817850822,1.64058775167419,1.68830277923727,1.791794895698,1.80515006841981,1.87970999999433,1.79761409016094,1.64146593616589,1.63371149160714,1.57843976683803,1.65094136694256,1.66956999990801,1.70080999865109,1.99295999999433,1.78019329635972,1.7196927434122,1.72224845211114,1.7242845607417,1.63525416618659,1.62813562278264,1.6392249313311,1.82266615937922,1.81855641311161,1.90392999999433,1.67730626058732,1.67516881406279,1.64752618126267,1.65008096121806,1.61647481081013,1.61785436079251,1.64524634061334,1.68712898505594,1.76323757699487,1.77817000078068,1.61797104155234,1.60327730200374,1.58817263657109,1.50842999943192,1.58300347693205,1.68171000102361,1.63857813687512,1.93074999999433,1.62852143534167,1.66404032002296,1.57674163607433,1.58965573761577,1.57518711628972,1.61579976392088,1.61126350855088,1.70735229914292,1.71231856215286,1.71608203591488,1.54099417763792,1.53104085427802,1.49612126920245,1.45762971018208,1.5017882082619,1.52999078495569,1.64387427599327,1.81539999999433,1.77675907480982,1.75118810800029,1.63804307125206,1.49210374029383,1.49112594764814,1.41522380204686,1.44590760687885,1.44516750307062,1.55946264263222,1.78059954402756,1.77873964386275,1.81569999999433,1.5590846900552,1.41119741580311,1.41348176501842,1.36081999892541,1.44002539602438,1.46032760775513,1.54644097278416,1.77615999999433,1.5550814721932,1.47113111341817,1.47223522681646,1.42385452476838,1.43159516614896,1.45110190769157,1.51290983864415,1.72359999999433,1.67035026972932,1.43853999897262,1.48371480824222,1.39698953313654,1.41049786627582,1.39531937007833,1.47573457509431,1.51489999998796,1.55153521451059,1.76237999999433,1.65560587601018,1.63006985367755,1.55096436881625,1.4566661399301,1.46971683887517,1.4717274430654,1.55913800576603,1.66844054430243,1.67751787405782,1.7128202778429,1.51607352588157,1.52693854610814,1.50397363068973,1.49920051562556,1.50309226841506,1.57795714822176,1.58423443397198,1.72800999999433,1.61831113448439,1.59977215928036,1.41514733420817,1.35363896515352,1.35504560553279,1.357084769154
1.58800477299767,1.58782000307759,1.58901233880239,1.59087763284334,1.59015157569008,1.58963007064352,1.59020179455791,1.59071581175897,1.62636387809622,1.65973567800878,1.69657724546361,1.72242655066101,1.72359453364154,1.71970353498472,1.68981981164665,1.69195960472601,1.69074236335703,1.75991613393663,1.78390270302934,1.89520536618732,1.89516047079849,1.80716920503009,1.80487313370231,1.77472783611507,1.63493462158149,1.63360157538977,1.64812766309932,1.68787469434264,1.72346411105476,1.83642657377886,1.83216994979275,1.71488305298161,1.67637100186248,1.66422577430265,1.65022502283802,1.65288921058491,1.65967662614224,1.72040058085094,1.74513542109595,1.89854033821208,1.88594371780736,1.84278417416048,1.67679026662466,1.66155252214739,1.66422162627802,1.66799935602989,1.68814560962511,1.80414141220549,1.81515829150154,1.83165163123308,1.63837022295544,1.6383702229526,1.63837022295544,1.67473291860912,1.67247447434277,1.6942622065818,1.69770992533256,1.77016619566141,1.81432810120194,1.81705673073157,1.79681025736603,1.69348670101486,1.67326726826335,1.66083490684751,1.67342350155053,1.68781112740914,1.71339524976486,1.78953922742428,1.78437324421042,1.75138117186257,1.72265692482671,1.68501158459841,1.6398712291637,1.64341310728351,1.6452064372453,1.65947166603063,1.67188878748023,1.67328307719343,1.67332363891177,1.6605266090428,1.64579841346515,1.64096961189841,1.61764607017842,1.61780245927812,1.65485228288329,1.71891168535312,1.76164161971427,1.7594786347133,1.62828241060965,1.59639955216429,1.58712737893079,1.58451004698648,1.58182803698571,1.58058677395058,1.58023332923489,1.57976637177874,1.57899434439865,1.57795382657711,1.5785564636462,1.57585753345516,1.57760307047131,1.59808928631519,1.60741014816691,1.63493456245084,1.71726843309357,1.71658581368701,1.55849975788774,1.52287321052071,1.50135625917294,1.48292942153991,1.49575979691194,1.5126147976799,1.6442439846023,1.72577846727065,1.7459693234578,1.74517768406909,1.63925916046115,1.50263757442308,1.49635168495419,1.45306984199846,1.46622356823336,1.50865054587727,1.55679498735822,1.7729240690787,1.77604935028151,1.77882779447094,1.55764368159777,1.41375722045731,1.41528148426673,1.41632834522514,1.44305683430167,1.49185525962952,1.5466404347001,1.61422072275608,1.583139941145,1.53909035063813,1.48338038699729,1.43464955097703,1.4332347658196,1.44279477588935,1.51041821098611,1.67204025456968,1.67146877030577,1.53991163697309,1.50731752430729,1.47668106259138,1.4131382534913,1.41144615870575,1.4490949848383,1.48170104548245,1.52241096622129,1.6833363875988,1.67070888960542,1.65555419328911,1.55156132438345,1.46233895644848,1.46756512223786,1.46968598841441,1.52531083031498,1.66725687016972,1.67474418693497,1.69938279425554,1.510851250226,1.50662523543232,1.50412645600555,1.50357662268366,1.50307428401339,1.58452194410938,1.58782153769962,1.65585853760893,1.63773133036721,1.62211463852892,1.42655405247372,1.36710011259616,1.38551943553479,1.39964497596206
