1.1190370087606,1.12895037902465,1.01979325945671,1.14082624811987,1.17577523431439,1.012649396889,1.01405249184774,1.01669361177008,1.13084868396882,1.13189412727142,1.18089240416392,1.19379537545117,1.05101900020516,1.050083603566,1.18224964634623,1.19545524595791,1.06158347989451,1.06171186766851,1.0828408270472,1.08086915766073,1.03566749065658,1.03465872957514,1.03403513181569,1.03651118174288,1.22525038008177,1.04941415303013,1.05116572908974,1.05325661569492,1.05432040010808,1.05509989730738,1.1243009074947,1.06226210098566,1.06228961265152,1.06258307042067,1.06409621204284,1.06690240196032,1.06764521693848,1.06773692249134,1.0708824229544,1.07488078505904,1.07561442948192,1.0765314850105,1.08710513525513,1.087517810243,1.08798550856258,1.08880168798302,1.08880168798302,1.08926021574732,1.09075501625892,1.09529444112543,1.0964866133126,1.09786219660548,1.10056751041482,1.0995404082228,1.09519356501729,1.095248588349,1.09852247658607,1.09917358601136,1.0975228860599,1.10257586202243,1.10507025306019,1.10131032539298,1.10280512590458,1.10214484592399,1.1018788998207,1.10234659814028,1.10579472692778,1.10807819519396,1.10783059020124,1.11662515272041,1.17552762932168,1.17871898256116,1.18852230616178,1.12608916577545,1.12160476424065,1.12658437576089,1.12659354631617,1.13094038952168,1.12989494621909,1.13016089232238,1.13323302834316,1.13377409110502,1.13291205890815,1.13702963823151,1.1363235054745,1.13972578148556,1.14014762702872,1.13735060766652,1.13698378545508,1.13732309600066,1.14036772035558,1.14277957639577,1.14624604629383,1.29922924957303,1.15347244385911,1.15253704721995,1.15222524834023,1.15260124110695,1.15641619210588,1.15552664824315,1.15847039648992,1.15670964987503,1.15860795481921,1.16632956236993,1.16588937571621,1.16530246017791,1.16531163073319,1.16577015849749,1.17153843777231,1.17433545713451,1.17449135657437,1.17306992050506,1.17298738550748,1.17347342493764,1.17575689320382,1.17307909106034,1.18132342026236,1.18421214517741,1.18810963117392,1.18793539062348,1.19566616872949,1.19480413653261,1.19505174152533,1.19811470699082,1.20247072075162,1.20291090740534,1.23322876318049,1.26442699226308,1.22583729562006,1.23243092487062,1.2316605982266,1.23551223144667,1.23235756042833,1.23155055156317,1.22468180565404,1.22029828022739,1.21933537192237,1.39879396831193,1.23192654432989,1.23336632150978,1.23358641483664,1.23073437214273,1.23067017825573,1.25465118032833,1.23594324754511,1.23142216378917,1.20709268061571,1.2046899951308,1.20331441183792,1.20380045126807,1.20484589457066,1.20733111505314,1.20739530894014,1.20674419951484,1.20837655835573,1.20966043609575,1.22203151517642,1.22056422633068,1.22388396734417,1.22372806790431,1.22857012109526,1.22653425782179,1.22492024009147,1.22461761176704,1.22877187331155,1.2278273061171,1.22524120952648,1.22733209613166,1.22885440830912,1.27995274236209,1.23645679864112,1.23494365701895
1.28925168542198,1.15936911090794,1.01495120626576,1.12812502904892,1.13220592615114,1.13120633562497,1.11931212541918,1.14374248470078,1.14599844130111,1.05825456832573,1.04792852307382,1.05189020295732,1.04874470249426,1.04970761079928,1.05159674518817,1.14369663192435,1.06100573491149,1.06093237046921,1.09398305171955,1.09279087953239,1.04339826876259,1.03834529280006,1.03862040945864,1.03766667170891,1.05034037911401,1.04926742414556,1.04888226082355,1.04895562526584,1.05305486347863,1.05295398737048,1.05501736230981,1.05657635670841,1.06071227714235,1.06144592156522,1.06150094489693,1.06207868987994,1.06644387419603,1.06924089355822,1.07037804241367,1.07212044791799,1.0731567206653,1.10595979692292,1.08431728644822,1.08236395817233,1.08327184314563,1.08337271925378,1.08495005476295,1.08584876918097,1.08876500576188,1.08917768074975,1.09647744275731,1.09646827220203,1.09628486109631,1.09533112334658,1.09311184896739,1.09432236226513,1.0934970122894,1.09285507341939,1.10244747424843,1.10330033589001,1.10378637532017,1.10298853701029,1.10803234241753,1.10787644297767,1.10755547354267,1.10015483542695,1.1009710148474,1.10250249758014,1.10667510023522,1.10613403747335,1.11141627731803,1.1117555878636,1.12023835150305,1.12176983423579,1.12380569750926,1.12391574417269,1.12364062751412,1.12511708691514,1.12478694692485,1.12836346348635,1.132490213365,1.13321468723258,1.12925300734908,1.13065610230782,1.13141725839655,1.13237099614628,1.13445271219618,1.13340726889359,1.13216924392999,1.13518635661905,1.13670866879651,1.13571824882563,1.14388004303007,1.14332980971292,1.14364160859264,1.15024440839848,1.14928150009346,1.14898804232431,1.14991426840819,1.1521793955638,1.15261958221752,1.15330737386397,1.15685637875961,1.15669130876446,1.16188184305627,1.16340415523373,1.16425701687532,1.16616449237478,1.36607342705188,1.17168516665689,1.17273060995948,1.17425292213694,1.17340006049535,1.17163014332517,1.16897068229226,1.17157511999346,1.18125005582007,1.24526970227086,1.18788953784705,1.18802709617634,1.19183287661999,1.19258486215343,1.22670849837222,1.23434757092537,1.27035117097777,1.28923334431141,1.28892154543169,1.25085457043997,1.25729230025066,1.2580442857841,1.28346506503659,1.23451264092051,1.23795159915272,1.23391655482693,1.22613075338921,1.22570890784606,1.21601563090888,1.21636411200974,1.46303370808958,1.45720123492775,1.39342919346968,1.32306352276106,1.27349667144083,1.23122958212816,1.230037409941,1.3156262024242,1.31558952020306,1.28988445373671,1.20516686400567,1.20452492513566,1.20739530894014,1.20708351006042,1.2032593885062,1.20366289293878,1.20375459849164,1.20697346339699,1.20728526227671,1.22277433015458,1.22342543957987,1.22250838405128,1.22266428349114,1.22288437681801,1.22261843071472,1.2250302867549,1.22183893351541,1.22218741461628,1.22291188848386,1.22316866403187,1.2269836150308,1.230101603828,1.30279659557924,1.23290779374548
0.981212733368974,0.979351110645939,1.13767157710153,1.12158642313008,1.12486948192242,1.12477777636957,1.09015893016534,1.08301506759763,1.08060321155744,1.07096495795197,1.05522828508138,1.04224277879657,1.04158249881598,1.05084475965473,1.18280905021867,1.21709775643261,1.09132359068664,1.12435593082642,1.13332473389601,1.09667002441832,1.11106779621716,1.03902391389122,1.03595177787045,1.03742823727147,1.0420226854697,1.04519569759862,1.04604855924021,1.04855212083326,1.05127577575317,1.05291730514934,1.05370597290393,1.05780521111672,1.06025374937805,1.05998780327476,1.05949259328932,1.06046467214963,1.05487063342523,1.07089159350968,1.06752599971976,1.07098329906254,1.07104749294954,1.10309858367372,1.07831057273597,1.07914509326698,1.07822803773839,1.0838129059075,1.25875041854112,1.25827354966625,1.08616056806069,1.08624310305826,1.08749029857714,1.11313117115649,1.12195324534151,1.08775624468043,1.08951699129532,1.08899426964403,1.09114935013621,1.09026897682877,1.09715606384847,1.20071914469201,1.10153041871984,1.102530009246,1.27169924260479,1.11283771338734,1.11173724675303,1.1109118967773,1.10540956360577,1.10359379365916,1.10219069870042,1.10331867700059,1.10347457644045,1.11002235291457,1.29674402909056,1.13381994388145,1.13095873063226,1.12308122364168,1.12262269587738,1.12408998472312,1.12355809251654,1.12701539185932,1.12762981906348,1.12744640795776,1.12490616414357,1.12619004188359,1.12827175793349,1.12703373296989,1.13069278452896,1.13186661560556,1.1311238006274,1.13090370730054,1.12966568233694,1.13714885545023,1.13786415876253,1.13941398260584,1.1392489126107,1.14293547583563,1.147309830707,1.15051035450177,1.15239031833538,1.15178506168651,1.15150077447265,1.15125316947993,1.15315147442411,1.15389428940226,1.16116653974397,1.15969008034295,1.16358756633945,1.16106566363583,1.16035953087882,1.20147113022546,1.16584352293978,1.16565094127877,1.17112576278445,1.17125415055845,1.17055718835672,1.17326250216606,1.17520665988667,1.17863644756359,1.21301685933039,1.18672487732575,1.20126020745388,1.1880546078422,1.222563407383,1.22247170183014,1.21917947248251,1.22862514442697,1.23373314372121,1.20682673451241,1.2061847956424,1.20730360338728,1.21713443865375,1.26865461824988,1.28026454124181,1.28889403376583,1.21715277976433,1.21582304924787,1.21435576040213,1.21550207981287,1.21577719647144,1.21665756977889,1.21568549091858,1.21398893819069,1.21486931149814,1.22091270743154,1.27748586299019,1.23331129817806,1.23405411315622,1.2287993849774,1.27655046635103,1.2084590933533,1.20759706115643,1.2195096124728,1.20405722681608,1.20318602406392,1.20352533460949,1.20562539176996,1.20659747063027,1.20444239013808,1.2020947279849,1.26172167845375,1.25064364766839,1.24157396849065,1.25999761406,1.25832857299797,1.21983975246309,1.22021574522981,1.22018823356395,1.22109611853726,1.22027993911681,1.22636918782664,1.22547047340863,1.23197239710632
1.3776283267121,1.08498673698409,1.12379652695398,1.05424703566579,1.12623589466002,1.12298951808882,1.01536388125362,1.11997240539976,1.12166895812765,1.13890960206512,1.0806949171103,1.07382617120117,1.03549325010615,1.03304471184482,1.17314328494734,1.04291222933244,1.0450122864929,1.23697952029242,1.17209784164475,1.06828715580849,1.08072242877616,1.03528232733458,1.03541988566386,1.03636445285831,1.04166503381355,1.04304061710644,1.04679137421837,1.04744248364366,1.0516425979646,1.05055130188558,1.05155089241174,1.0529448168152,1.05159674518817,1.05400860122836,1.05520994397081,1.05854802609488,1.05788774611429,1.05774101722972,1.0581445216623,1.05974019828204,1.11324121781992,1.06884655968093,1.09320355452025,1.07301916233601,1.07301916233601,1.07382617120117,1.07373446564831,1.10206231092642,1.26093301069916,1.08658241360384,1.09227732843638,1.10476762473576,1.11658847049927,1.08594964528911,1.0847849847678,1.08572955196225,1.08617890917126,1.08287750926834,1.09551453445229,1.13437934775389,1.09179128900622,1.09062662848492,1.09197470011194,1.09899934546093,1.14315556916249,1.11339711725978,1.10999484124871,1.09924695045365,1.09852247658607,1.09938450878294,1.10320863033716,1.10405232142346,1.10666592967994,1.10914197960713,1.1113704245416,1.11475435944209,1.11583648496582,1.12061434426977,1.11995406428919,1.12085277870721,1.12851936292621,1.12864775070021,1.12413583749955,1.12405330250198,1.12420003138655,1.12629091799174,1.13026176843053,1.12724465574147,1.12730884962847,1.13055522619968,1.1313163822884,1.13071112563954,1.1333339044513,1.1339850138766,1.13707549100794,1.14177081531432,1.14124809366302,1.14413681857808,1.14459534634237,1.14910725954303,1.14852034400473,1.14876794899745,1.14923564731703,1.15215188389794,1.15296806331839,1.15836034982649,1.1595250103478,1.16176262583756,1.16057045365039,1.16281723969543,1.16395438855088,1.16655882625208,1.16909907006627,1.16818201453768,1.16987856726557,1.17129083277959,1.33039079643448,1.19569368039535,1.19722516312809,1.17831547812859,1.30271406058167,1.27044287653063,1.26770088050015,1.26764585716843,1.22500277508905,1.22180225129427,1.22396650234174,1.30637311214074,1.21692351588218,1.24617758724416,1.2466086033426,1.21867509194178,1.26840701325716,1.22579144284363,1.21428239595984,1.21575885536087,1.21532783926243,1.2144382953997,1.21235657934981,1.21290681266696,1.21704273310089,1.21661171700246,1.21687766310575,1.22208653850813,1.22179308073899,1.27257961591224,1.2362733875354,1.23133045823631,1.23038589104186,1.22899196663841,1.2218481040707,1.21597894868773,1.31479168189319,1.20308514795577,1.20267247296791,1.20060909802858,1.20180127021575,1.20406639737136,1.20497428234466,1.20628567175055,1.21008228163891,1.21103601938864,1.20990804108847,1.21565797925273,1.21589641369016,1.21780388918962,1.21822573473277,1.2189868908215,1.22068344354939,1.22182059240484,1.22195815073413,1.22220575572685
1.00059928724334,0.998490059527589,0.998169090092583,0.998480888972303,1.00432253268941,1.04519569759862,1.01775739618324,1.12140301202436,1.02544232151282,1.08357447147007,1.07400958230688,1.06872734246221,1.03575002565416,1.05327495680549,1.17654556095841,1.16412862910132,1.21987643468423,1.03414517847913,1.23703454362413,1.21325529376782,1.04283886489015,1.04260043045271,1.03829944002363,1.03844616890821,1.03928985999451,1.04104143605411,1.04539744981491,1.04536076759377,1.04928576525613,1.049891021905,1.04929493581141,1.04945083525127,1.17112576278445,1.05112904686859,1.05559510729282,1.05577851839854,1.05651216282141,1.05769516445329,1.06018038493576,1.0611341226855,1.06434381703556,1.06358266094683,1.06792033359705,1.06893826523379,1.06903914134193,1.06944264577451,1.07190952514642,1.07389953564345,1.0753026306022,1.07600876335921,1.10258503257771,1.10309858367372,1.08108925098759,1.08070408766558,1.08111676265345,1.08097003376887,1.08049316489401,1.07482576172733,1.07482576172733,1.11289273671905,1.1430180108332,1.08655490193798,1.08700425914699,1.08938860352132,1.4068732275188,1.22488355787033,1.10786727242239,1.10851838184768,1.09807311937706,1.09535863501243,1.09827487159335,1.09808228993234,1.09904519823736,1.1048685008439,1.10705109300194,1.10673012356694,1.1148093827738,1.11361721058664,1.11743216158557,1.11965143596475,1.12033005705591,1.12874862680836,1.12697870963818,1.12312707641811,1.12287947142539,1.12357643362711,1.12746474906833,1.12708875630161,1.12487865247771,1.12541971523958,1.12506206358343,1.12763898961876,1.13005084565895,1.13075697841597,1.13663530435422,1.1350212866239,1.13915720705784,1.13719470822666,1.13766240654624,1.14326561582592,1.14317391027306,1.14454949356594,1.14577834797425,1.14052361979544,1.15292221054196,1.23981322187576,1.15675550265146,1.30377784499483,1.15867214870621,1.16575181738692,1.16107483419111,1.15981846811695,1.16180847861399,1.16196437805385,1.16584352293978,1.16421116409889,1.27433119197184,1.2197021941338,1.19128264330283,1.17543592376882,1.17568352876154,1.17684818928284,1.1835060124204,1.18459730849942,1.18843060060892,1.19142020163212,1.24971742158452,1.25503634365033,1.19792212532982,1.23764897082829,1.2093027844396,1.20936697832661,1.26138236790817,1.2583744257744,1.21135698882364,1.21265920767424,1.21279676600353,1.21160459381636,1.21228321490752,1.21091680216992,1.2119072221408,1.21137532993422,1.21431907818099,1.22033496244853,1.22550715562977,1.22521369786062,1.2173637025359,1.21690517477161,1.23298115818777,1.23089027158259,1.23037672048658,1.22634167616079,1.23799745192915,1.2322475137649,1.22008735745581,1.20279169018662,1.19932522028856,1.20003135304557,1.19894922752184,1.20796388336786,1.20722106838971,1.21461253595013,1.21309939432796,1.21221902102052,1.21134781826836,1.21004559941776,1.21090763161463,1.21771218363676,1.22024325689567,1.25864954243297,1.21973887635495,1.21934454247765
1.1619918897197,1.11892696209717,1.00038836447177,1.00174560665408,1.00447843212927,1.14775001736072,1.25864037187769,1.10575804470663,1.10529034638705,1.02879874474745,1.03179751632594,1.06904831189722,1.07838393717825,1.19491418319604,1.05733751279714,1.01329133575901,1.01339221186716,1.04777262363396,1.23505370368238,1.22248087238543,1.26091466958859,1.2410879290605,1.03777671837234,1.03897806111479,1.04105977716469,1.03855621557164,1.06086817658221,1.04133489382326,1.04348080376016,1.04589265980035,1.0445629292839,1.04516818593276,1.0456633959182,1.0460577297955,1.04760755363881,1.05267887071191,1.05401777178365,1.05981356272433,1.06124416934893,1.0614550921205,1.06153762711808,1.06273896986053,1.0637293898314,1.06359183150211,1.06355514928097,1.06688406084975,1.06660894419117,1.06649889752774,1.06973610354366,1.06928674633465,1.41935435326289,1.07474322672976,1.07520175449405,1.07658650834222,1.07798960330096,1.07713674165937,1.07739351720738,1.07784287441639,1.0767974311138,1.07864988328154,1.08298755593177,1.08080496377373,1.08059404100215,1.08268492760734,1.0853719003061,1.08654573138269,1.24453605784799,1.09866920547064,1.094991812801,1.09556038722872,1.09654163664431,1.10300687812087,1.10159461260684,1.10223655147685,1.10787644297767,1.1084450174054,1.10710611633366,1.10827994741025,1.11115033121473,1.11469933611037,1.11597404329511,1.19798631921682,1.1244292952687,1.12243928477166,1.12101784870235,1.11653344716755,1.12048595649577,1.12033005705591,1.12184319867808,1.12216416811309,1.12426422527356,1.12400744972555,1.12380569750926,1.12307205308639,1.12297117697825,1.13770825932267,1.13536059716948,1.13696544434451,1.13837770985854,1.14111970588902,1.14026684424743,1.14155072198746,1.1417157919826,1.14484295133509,1.14664955072641,1.14477875744809,1.14443027634723,1.39465804787799,1.15393097162341,1.15420608828198,1.15606771100502,1.15913984702579,1.15889224203307,1.16390853577445,1.16436706353875,1.16512821962748,1.16575181738692,1.16526577795677,1.17394112325722,1.17268475718305,1.17298738550748,1.18444140905956,1.18421214517741,1.24457274006913,1.24528804338143,1.20268164352319,1.19986628305042,1.2089818150046,1.19517095874405,1.20323187684035,1.2025440851939,1.20815646502887,1.20717521561328,1.20012305859843,1.25353237258345,1.21305354155153,1.21168712881394,1.20985301775676,1.21301685933039,1.21232906768395,1.39826207610535,1.21552042092344,1.22223326739271,1.38603772590926,1.43789721605096,1.22877187331155,1.222755989044,1.2211328007584,1.22071095521525,1.32398057828965,1.23311871651706,1.23276106486091,1.23378816705293,1.23815335136901,1.28616120829064,1.20719355672385,1.2062489895294,1.20425897903237,1.20367206349407,1.20284671351834,1.20984384720147,1.21256750212138,1.20979799442504,1.21280593655881,1.21032071607634,1.20880757445417,1.21021066941291,1.21613484812759,1.21508023426971,1.21280593655881,1.21242994379209,1.21228321490752
1.04149079326312,1.23619085253783,1.09620232609874,1.00865103478435,1.00689028816946,1.00765144425819,1.01028339362524,1.09126856735493,1.14055113146129,1.13981748703842,1.02907386140603,1.03059617358349,1.11558887997311,1.05917162385432,1.1588739009225,1.01209916357185,1.01146639525712,1.01234676856457,1.04148162270784,1.23275189430562,1.2219122979577,1.034943016789,1.03436527180599,1.13374657943917,1.32055996116801,1.14027601480272,1.03198092743166,1.04112397105169,1.03760247782191,1.39376850401526,1.04140825826555,1.04006935719381,1.04296725266415,1.04392099041388,1.04503979815876,1.04807525195839,1.0507347129913,1.05274306459891,1.05869475497945,1.06233546542795,1.06121665768307,1.06280316374753,1.06341759095168,1.0613908982335,1.065031608682,1.06406870037698,1.06460059258356,1.06487570924214,1.06536174867229,1.06914918800536,1.06699410751318,1.06777360471248,1.06761770527262,1.06903914134193,1.07601793391449,1.07453230395818,1.07422050507846,1.07443142785004,1.0731567206653,1.07515590171762,1.07866822439212,1.07868656550269,1.07903504660355,1.08096086321359,1.0832901842562,1.08484000809952,1.08657324304855,1.09846745325435,1.09514771224086,1.09794473160305,1.10314443645015,1.10289683145743,1.10092516207097,1.0985683293625,1.09633988442802,1.10821575352325,1.10713362799952,1.10631744857907,1.10767469076138,1.10811487741511,1.11137959509688,1.11270015505805,1.20166371188646,1.12035756872177,1.11688192826842,1.19987545360571,1.12211831533666,1.12076107315435,1.11992655262333,1.11988987040219,1.11966060652004,1.11896364431831,1.12091697259421,1.12691451575118,1.12483279970128,1.12793244738791,1.13130721173312,1.13485621662876,1.13713968489494,1.13754318932752,1.13711217322909,1.13753401877224,1.13701129712094,1.13844190374554,1.14354990303978,1.14648448073127,1.1489330189926,1.15085883560263,1.15254621777524,1.15338073830625,1.15443535216413,1.15711315430761,1.15945164590551,1.1588097070355,1.15910316480465,1.16267051081086,1.16202857194085,1.16222115360185,1.16416531132246,1.16521992518034,1.17244632274562,1.17141004999831,1.17430794546865,1.1770682826097,1.17804953202529,1.17925087476775,1.18910005114479,1.24964405714223,1.20512101122924,1.19897673918769,1.20023310526186,1.20304846573463,1.20663415285141,1.20234233297761,1.20120518412216,1.2020947279849,1.20472667735195,1.20368123404935,1.20303929517934,1.20281920185248,1.21910610804022,1.3912099190905,1.37328148350658,1.2482959855152,1.22727707279995,1.244985415057,1.22897362552784,1.19932522028856,1.2069642928417,1.21317275877025,1.23337549206506,1.23613582920612,1.24421508841298,1.24609505224659,1.21276925433767,1.21066002662192,1.20989887053319,1.21741872586762,1.21902357304265,1.22934961829456,1.21964717080209,1.2156121264763,1.21338368154182,1.29114081981088,1.20623981897412,1.20557036843825,1.20493760012352,1.21246662601324,1.21054997995849,1.21007311108362,1.21940873636465,1.21936288358822
1.07599042224864,1.07664153167393,1.05339417402421,1.05393523678607,1.06396782426884,1.00981569530566,1.0095956019788,1.01006330029838,1.02326889991006,1.10965553070314,1.03575919620944,1.09164456012165,1.09942119100408,1.05798862222244,1.02613928371454,1.02721223868299,1.1872109167559,1.02380996267193,1.02295710103034,1.06438966981199,1.03386089126526,1.03403513181569,1.03403513181569,1.03352158071969,1.02874372141574,1.02877123308159,1.03132981800636,1.03181585743651,1.03414517847913,1.03602514231273,1.03531900955572,1.04498477482705,1.03847368057407,1.03945492998966,1.04050954384753,1.04175673936641,1.04588348924506,1.04883640804712,1.05133079908488,1.04890977248941,1.06040964881791,1.05623704616283,1.05370597290393,1.05206444350775,1.05533833174481,1.05609031727826,1.06836052025078,1.06891075356793,1.06398616537941,1.07267068123514,1.16526577795677,1.06792950415234,1.06850724913535,1.06927757577937,1.07197371903342,1.07389953564345,1.07478907950619,1.06911250578422,1.07258814623757,1.07098329906254,1.07274404567743,1.07437640451832,1.07495414950133,1.0793926982597,1.08028224212243,1.0815386081966,1.08440899200108,1.0881047257813,1.09554204611815,1.09342364784711,1.23852017358045,1.10540956360577,1.10416236808689,1.10348374699573,1.0995404082228,1.09656914831017,1.10861925795583,1.10778473742481,1.10681265856451,1.10653754190593,1.1065558830165,1.10681265856451,1.10827077685497,1.11048088067887,1.11268181394748,1.11499279387952,1.12165978757236,1.12361311584826,1.12075190259906,1.11725792103514,1.11620330717726,1.11742299103028,1.12102701925764,1.12198075700737,1.12135715924793,1.12533718024201,1.13045435009153,1.13310464056915,1.13184827449499,1.1313163822884,1.13372823832859,1.13557151994106,1.13503045717919,1.13370989721802,1.36822850754406,1.1992977086227,1.14410013635693,1.29421295583165,1.14752075347857,1.14832776234373,1.15007016784805,1.15353663774611,1.15624195155545,1.15429779383484,1.15308728053711,1.15621443988959,1.15970842145352,1.15999270866738,1.16376180688988,1.1656326001682,1.1684938134174,1.17185940720732,1.17145590277474,1.17351010715878,1.17373020048564,1.18566109291258,1.19453819042932,1.19540939318148,1.20339694683549,1.19700506980123,1.19574870372706,1.19770203200295,1.19794963699567,1.20984384720147,1.20929361388432,1.20372708682578,1.2029384190712,1.20578129120982,1.20367206349407,1.20580880287568,1.20803724781015,1.20999057608605,1.20925693166317,1.21883099138164,1.21563963814215,1.3980970061102,1.39041208078063,1.19448316709761,1.19430892654718,1.22454424732475,1.22806574055453,1.2269836150308,1.2254888145192,1.2260757300575,1.21440161317856,1.21253999045552,1.21148537659765,1.21182468714322,1.25028599601224,1.22514033341833,1.23326544540163,1.23912543022932,1.22754301890324,1.29311248919734,1.29211289867118,1.63157934368893,1.20641405952455,1.20713853339213,1.21030237496577,1.21146703548707,1.20933946666075,1.41597958891768
1.06408704148755,1.06430713481441,1.07739351720738,1.06815876803449,1.06726005361647,1.05717244280199,1.11199402230104,1.01030173473581,1.00956809031294,1.0058906976433,1.08339106036435,1.12429173693941,1.11835838766944,1.02196668105946,1.02157234718217,1.14354073248449,1.02803758865872,1.02865201586288,1.02884459752388,1.02856031031002,1.03366830960426,1.03381503848883,1.0329254946261,1.03256784296995,1.03262286630167,1.03200843909751,1.03205429187394,1.03189839243408,1.03234774964309,1.03879465000907,1.03460370624342,1.03521813344757,1.0344844890247,1.05222034294761,1.03745574893733,1.03828109891306,1.04389347874803,1.04601187701907,1.04780013529981,1.04785515863153,1.05101900020516,1.05250463016148,1.05134914019545,1.0530732045892,1.05485229231466,1.05536584341067,1.05246794794033,1.06072144769763,1.06459142202828,1.05757594723457,1.05888733664045,1.05928167051775,1.06103324657735,1.10862842851112,1.06762687582791,1.0701029257551,1.07066232962754,1.07046057741125,1.06968108021195,1.07061647685111,1.0710750046154,1.07123090405526,1.0717903079277,1.07413797008089,1.07589871669578,1.07973200880528,1.07960362103128,1.0955787283393,1.09048907015563,1.08649987860627,1.08382207646279,1.08677499526484,1.0885540829903,1.09742200995176,1.09444157948385,1.09534029390186,1.09517522390672,1.10335535922173,1.10454753140889,1.10413485642103,1.10474928362518,1.10837165296311,1.10852755240297,1.10443748474546,1.10674846467751,1.11155383564731,1.11210406896447,1.12581404911687,1.12595160744616,1.1145526072258,1.11441504889651,1.11436919612008,1.11497445276895,1.11532293386981,1.12028420427948,1.124823629146,1.12549307968187,1.12538303301843,1.12615335966245,1.12853770403678,1.13028928009639,1.13264611280486,1.1290420845775,1.13067444341839,1.1341134016506,1.13765323599095,1.14178915642489,1.14352239137392,1.14409096580165,1.14896970121374,1.14842863845187,1.14891467788203,1.14929984120403,1.14962998119432,1.14900638343488,1.15032694339605,1.18183697135837,1.21007311108362,1.16654965569679,1.16851215452797,1.16903487617927,1.17079562279416,1.17100654556573,1.17042880058272,1.17084147557059,1.17121746833731,1.17629795596569,1.18049807028663,1.18043387639963,1.19099835608897,1.19081494498325,1.19326348324458,1.19710594590937,1.1965006892605,1.23276106486091,1.22948717662385,1.26039194793729,1.21968385302323,1.21743706697819,1.20922941999732,1.2096329244299,1.2091743966656,1.20872503945659,1.20937614888189,1.22332456347173,1.21027486329991,1.19705092257766,1.19459321376104,1.19475828375618,1.22884523775383,1.20482755346009,1.2106050032902,1.21259501378724,1.20665249396198,1.21026569274462,1.2096329244299,1.21074256161949,1.21101767827807,1.21139367104479,1.38298393099906,1.27045204708591,1.23526462645396,1.23639260475412,1.23846515024873,1.24229844235823,1.21550207981287,1.22149962296984,1.20500179401052,1.20435985514051,1.20604723731311,1.20639571841398,1.20737696782957
1.1334622922253,1.06231712431738,1.06284901652396,1.06127168101478,1.07533931282334,1.08062155266801,1.08382207646279,1.08379456479693,1.05964849272918,0.990585040871153,0.990713428645155,1.11214075118561,1.00306616661525,1.00382732270398,1.12457602415328,1.02230599160504,1.03263203685695,1.02641440037312,1.02813846476687,1.02859699253116,1.02977999416304,1.03421854292141,1.03440195402713,1.0300642813769,1.0326687190781,1.03342070461154,1.03230189686666,1.03189839243408,1.03206346242923,1.0318250279918,1.03171498132836,1.02882625641331,1.02944068361746,1.02963326527847,1.09903602768208,1.03718980283404,1.04049120273696,1.04226111990714,1.04667215699965,1.04502145704819,1.04556251981006,1.04698395587937,1.04931327692199,1.05007443301071,1.05454966399023,1.05572349506682,1.05543003729767,1.05769516445329,1.05778687000615,1.05822705665987,1.05529247896839,1.05571432451154,1.05707156669385,1.05587939450668,1.05816286277287,1.0584654910973,1.05869475497945,1.06973610354366,1.06682903751803,1.06921338189236,1.07097412850726,1.0702955074161,1.07054311240882,1.07063481796168,1.0735418839873,1.07430304007603,1.07468820339804,1.0777695099741,1.08727937580557,1.08616973861597,1.08304257926349,1.08339106036435,1.0853077064191,1.08714181747628,1.09002137183605,1.08834316021873,1.16847547230683,1.09317604285439,1.0966150010866,1.10010898265052,1.09918275656665,1.10177802371256,1.10547375749277,1.10525366416591,1.10501522972848,1.10628076635793,1.10783059020124,1.28708743437451,1.11675354049441,1.11458011889166,1.11296610116134,1.11133374232045,1.11187480508232,1.11409407946151,1.11522205776167,1.11646008272526,1.11732211492214,1.11856013988573,1.11961475374361,1.1207885848202,1.12500704025171,1.12830844015463,1.12923466623851,1.1287853090295,1.12922549568322,1.12773986572691,1.12811585849363,1.13383828499202,1.13887291984398,1.13982665759371,1.14002840981,1.14569581297668,1.15603102878388,1.27571594582001,1.17441799213208,1.14643862795484,1.14675042683456,1.18377195852369,1.20676254062541,1.17290485050991,1.16912658173212,1.16716408290094,1.16722827678795,1.16877810063126,1.16867722452312,1.16793440954496,1.16685228402122,1.18098410971678,1.1820754057958,1.19998550026914,1.20008637637729,1.19716096924109,1.19513427652291,1.19622557260193,1.19591377372221,1.23551223144667,1.21979389968666,1.22336124569287,1.22337041624816,1.27352418310668,1.21177883436679,1.21025652218934,1.20789051892558,1.2068359050677,1.20952287776647,1.21908776692965,1.19813304810139,1.19284163770143,1.19579455650349,1.19669327092151,1.20741365005071,1.20602889620254,1.21277842489296,1.21339285209711,1.20572626787811,1.20789051892558,1.21002725830719,1.20902766778103,1.20636820674812,1.36010339556076,1.30578619660244,1.24569154781401,1.24553564837415,1.27385432309698,1.28028288235238,1.20434151402994,1.20458911902266,1.20409390903722,1.20623981897412,1.20516686400567,1.2061847956424,1.2061206017554
1.04816695751125,1.05100982964988,1.06152845656279,1.06173020877908,1.16555923572591,1.07110251628126,1.07140514460569,1.11402071501922,1.0860872036184,1.09296512008282,0.997068623458277,1.0021857933078,1.00253427440867,1.00177311831994,1.0006267989092,1.18755939785676,1.15382092495998,1.15636116877417,1.02396586211179,1.0409864127224,1.19747276812081,1.2235354862433,1.05122992297674,1.03879465000907,1.03927151888394,1.03795095892277,1.03835446335535,1.03834529280006,1.03810685836263,1.03472292346214,1.02663449369998,1.02718472701714,1.02670785814227,1.02715721535128,1.02840441087016,1.03493384623371,1.03963834109537,1.03785925336991,1.03872128556678,1.0411148004964,1.04138074659969,1.04177508047698,1.04430615373589,1.04443454150989,1.04532408537262,1.04781847641039,1.04944166469599,1.0559344178384,1.07075403518039,1.057621800011,1.05618202283112,1.05563178951396,1.05518243230495,1.05579685950911,1.05543920785296,1.05545754896353,1.05756677667929,1.06078564158463,1.06295906318739,1.06848890802478,1.07022214297381,1.06175772044494,1.06692074307089,1.06744346472219,1.06755351138562,1.06753517027505,1.0688649007915,1.07211127736271,1.07429386952075,1.08135519709088,1.08035560656472,1.08104339821116,1.0817953837446,1.08116261542988,1.07685245444551,1.08982879017504,1.08973708462218,1.09069082237192,1.09215811121766,1.14818103345915,1.11231499173604,1.1762887854104,1.09897183379507,1.10095267373683,1.10148456594341,1.10138368983526,1.10283263757043,1.117798983797,1.11746884380671,1.11718455659285,1.11177392897418,1.11126037787817,1.11071014456101,1.11214075118561,1.11096692010902,1.11219577451733,1.11416744390379,1.11582731441054,1.117349626588,1.12151305868779,1.12685949241946,1.12672193409017,1.12474109414842,1.12470441192728,1.12675861631132,1.12747391962362,1.13100458340868,1.12929886012551,1.13070195508425,1.20292924851591,1.1378183059861,1.13707549100794,1.14561327797911,1.365147200968,1.18858650004878,1.16059796531625,1.15029026117491,1.14942822897804,1.20613894286597,1.21724448531718,1.1875318861909,1.16942003950127,1.16431204020703,1.16527494851205,1.16465135075261,1.16401858243788,1.16963096227285,1.16962179171756,1.17172184887803,1.18515671237186,1.25756741690924,1.18224047579095,1.18292826743739,1.19152107774027,1.19613386704907,1.21739121420176,1.22907450163598,1.22448922399304,1.21750126086519,1.21867509194178,1.21104518994392,1.20877089223302,1.20430483180879,1.20249823241747,1.20194799910032,1.2018287818816,1.20210389854018,1.19967370138942,1.20050822192044,1.199820430274,1.20483672401538,1.20426814958765,1.20435068458522,1.20498345289995,1.20612977231069,1.20110430801402,1.20292924851591,1.20758789060114,1.20791803059143,1.20561622121468,1.20543281010896,1.40197615099613,1.2263966994925,1.22525955063705,1.29583614411725,1.20655161785384,1.20379128071279,1.20455243680151,1.20757872004586,1.20914688499974,1.20752369671414,1.20596470231554
1.04795603473967,1.04808442251368,1.04710317309809,1.05136748130602,1.05122992297674,1.05204610239718,1.25459615699661,1.035007210676,1.03517228067114,1.08696757692585,1.08481249643366,1.08443650366694,1.00359805882183,0.996986088460703,0.994592573531086,0.994886031300235,1.06186776710837,1.020251787221,1.02042602777144,1.21376884486383,1.18652312510946,1.05042291411158,1.22802905833339,1.19564782761892,1.03907893722293,1.03946410054494,1.03976672886938,1.03815271113906,1.03586924287287,1.09679841219232,1.02755154922857,1.02555236817625,1.02614845426983,1.02513969318838,1.02793671255058,1.03122894189821,1.03154991133322,1.03033939803548,1.03629108841602,1.03594260731516,1.03533735066629,1.03702473283889,1.04168337492413,1.04008769830438,1.04275632989258,1.04356333875773,1.04461795261561,1.04591100091092,1.04470965816847,1.0521011257289,1.05384353123321,1.05350422068764,1.05434791177394,1.05470556343009,1.05623704616283,1.0546963928748,1.05489814509109,1.0805665293363,1.05824539777044,1.07794375052453,1.06688406084975,1.06494907368443,1.06538926033815,1.0657469119943,1.06667313807817,1.06667313807817,1.06771858138077,1.06969942132252,1.07091910517554,1.07160689682198,1.07708171832766,1.07752190498138,1.07738434665209,1.0785490071734,1.07905338771412,1.07922762826456,1.08411553423193,1.09633988442802,1.08772873301457,1.08978293739861,1.09060828737434,1.09043404682391,1.09060828737434,1.15754417040605,1.11639588883826,1.10143871316698,1.1003199054221,1.10202562870528,1.15291303998667,1.11063678011873,1.11036166346015,1.11177392897418,1.10845418796068,1.10625325469207,1.10843584685011,1.109811430143,1.11102194344073,1.11275517838977,1.11391066835579,1.12067853815677,1.1219624158968,1.12892286735879,1.12835429293106,1.12195324534151,1.12178817534637,1.12687783353003,1.12363145695883,1.12653852298446,1.12691451575118,1.11992655262333,1.13503045717919,1.13693793267865,1.13002333399309,1.13057356731025,1.13293957057401,1.13461778219132,1.13459944108075,1.13678203323879,1.54565124066015,1.1916953182907,1.2268552272568,1.20416727347951,1.20261744963619,1.16081805864311,1.16411945854603,1.16307401524344,1.16318406190687,1.16520158406976,1.16482559130304,1.16642126792279,1.16847547230683,1.18143346692579,1.18395536962941,1.18368942352612,1.19354777045845,1.18918258614236,1.22576393117778,1.21180634603265,1.24002414464733,1.21903274359793,1.21796895918477,1.27868720573264,1.20364455182821,1.200205593596,1.20153532411246,1.20166371188646,1.20281920185248,1.19735355090209,1.19705092257766,1.19984794193985,1.20236067408819,1.20491925901295,1.20214058076133,1.20363538127293,1.20391966848679,1.20464414235437,1.20417644403479,1.20289256629477,1.20411225014779,1.20328690017206,1.2021589218719,1.39059549188634,1.32814401038944,1.21931703081179,1.21180634603265,1.21012813441533,1.20726692116614,1.20645991230098,1.20736779727428,1.2122923854628,1.21310856488325,1.2091743966656
1.04372840875288,1.04443454150989,1.04419610707246,1.04307729932758,1.19101669719954,1.03298051795782,1.03236609075366,1.0321459974268,1.03751994282433,1.03794178836748,1.05083558909944,1.0680212097052,1.09576213944501,0.992520028036475,0.99246500470476,0.990896839750873,1.06367436649969,1.06482068591042,1.18611045012159,1.18446892072542,1.04824949250882,1.04797437585025,1.18137844359407,1.18472569627342,1.19672078258736,1.19628059593364,1.04023442718896,1.03979424053523,1.03947327110023,1.03826275780249,1.03530983900043,1.08949865018475,1.05316491014206,1.0288996208556,1.02879874474745,1.03210014465037,1.03129313578521,1.02860616308645,1.02867952752874,1.0288354269686,1.03095382523964,1.03254950185938,1.03937239499208,1.03789593559105,1.03779505948291,1.0411148004964,1.04131655271269,1.04371006764231,1.04557169036534,1.15023523784319,1.0543112295528,1.05360509679578,1.05233956016633,1.05250463016148,1.32193554446089,1.07930099270684,1.11287439560848,1.18098410971678,1.13063776119725,1.05339417402421,1.05836461498916,1.06142758045464,1.06062057158949,1.06025374937805,1.06151011545222,1.06251887653367,1.06280316374753,1.06294072207682,1.06705830140018,1.06769106971491,1.06982780909652,1.07059813574053,1.07475239728504,1.07493580839076,1.07720093554637,1.07815467329611,1.0829050209342,1.0851151247581,1.08426226311651,1.0847849847678,1.08614222695012,1.20016891137486,1.08876500576188,1.09103013291749,1.09263498009253,1.09533112334658,1.09450577337085,1.09846745325435,1.09558789889458,1.10336452977702,1.10484098917804,1.10861925795583,1.1062991074685,1.10740874465809,1.10520781138948,1.10646417746365,1.10814238908096,1.10848169962654,1.10905027405427,1.11259010839462,1.11315868282234,1.11317702393292,1.12108204258935,1.11875272154674,1.11850511655402,1.11665266438627,1.12100867814707,1.11514869331938,1.11272766672391,1.11226913895961,1.10739957410281,1.12802415294077,1.12846433959449,1.12970236455809,1.13067444341839,1.1310596067404,1.13095873063226,1.13366404444159,1.13579161326792,1.13518635661905,1.2607771112593,1.21253999045552,1.34664102040108,1.15587512934402,1.15338990886154,1.155040608813,1.15942413423965,1.162450417484,1.16166174972941,1.16084557030897,1.16313820913044,1.18412961017984,1.18041553528905,1.17923253365717,1.18208457635109,1.18596372123702,1.19698672869066,1.18749520396976,1.19436394987889,1.2239940140076,1.24734224776547,1.21195307491723,1.21107270160978,1.21143952382122,1.21172381103508,1.35113459249116,1.37809602503168,1.24919469993322,1.19700506980123,1.19477662486676,1.20601972564726,1.20411225014779,1.20115016079045,1.20129688967502,1.19899508029827,1.20500179401052,1.20579963232039,1.20295676018177,1.20052656303101,1.19717013979637,1.19790378421924,1.19593211483278,1.40613041254064,1.40385611482974,1.21942707747523,1.26752663994971,1.20581797343097,1.20476335957309,1.20223228631418,1.20201219298732,1.20285588407362,1.20996306442019
1.04820363973239,1.17306074994977,1.04514067426691,1.04044534996053,1.03985843442223,1.03219185020323,1.0336407979384,1.03423688403198,1.03046778580948,1.02871620974988,1.03082543746563,1.03199926854223,1.08292336204477,1.09937533822765,0.992171546935612,0.980680841162393,0.979938026184236,1.05841963832087,1.05825456832573,0.978965947323931,1.06272062874996,1.18716506397947,1.1878620261812,1.21705190365618,1.1949416948619,1.18812797228449,1.21762047808391,1.22566305506963,1.09972381932852,1.16610029848778,1.06386694816069,1.07091910517554,1.10550126915863,1.110004011804,1.02192082828304,1.02263613159533,1.05685147336699,1.02931229584346,1.02720306812771,1.02713887424071,1.02756989033914,1.02995423471347,1.03259535463581,1.72975013802437,1.03935405388151,1.0402069155231,1.04191263880627,1.04231614323885,1.04574593091578,1.04944166469599,1.05260550626962,1.05144084574831,1.04763506530467,1.04847875639097,1.24332554455025,1.0585296849843,1.06046467214963,1.0978530260502,1.10179636482313,1.04846958583568,1.05107402353688,1.05310071625506,1.05838295609973,1.05716327224671,1.06239048875966,1.06349095539397,1.06215205432223,1.06380275427369,1.06479317424457,1.06433464648027,1.06511414367957,1.06751682916448,1.07912675215641,1.07595374002749,1.07587120502992,1.08085081655016,1.08139187931203,1.08421641034008,1.08591296306797,1.08541775308253,1.0837487120205,1.08553697030125,1.08729771691614,1.08880168798302,1.09042487626863,1.09036068238162,1.0896637201799,1.09620232609874,1.0963582255386,1.14883214288445,1.10472177195933,1.18144263748107,1.10888520405912,1.10829828852082,1.1070144107808,1.10589560303592,1.10683099967508,1.1079864896411,1.10905027405427,1.10659256523765,1.11182895230589,1.110068205691,1.11180144064003,1.12032088650062,1.11917456708989,1.11922041986632,1.11805575934501,1.11721206825871,1.11329624115163,1.11284688394262,1.11226913895961,1.12517211024686,1.125272986355,1.12708875630161,1.12664856964789,1.12675861631132,1.12925300734908,1.1301517217671,1.13117882395912,1.13528723272719,1.13814844597639,1.13708466156323,1.14225685474447,1.14942822897804,1.14885048399502,1.15070293616277,1.15418774717141,1.15437115827713,1.15447203438527,1.15753499985076,1.15767255818005,1.16441291631518,1.16820952620354,1.1714192205536,1.17044714169329,1.17168516665689,1.1870825289819,1.19759198533952,1.24141806905079,1.21320027043611,1.2208118313234,1.21251247878967,1.21111855438621,1.21298934766453,1.21000891719662,1.20968794776161,1.19580372705878,1.19632644871007,1.19493252430662,1.19441897321061,1.20721189783442,1.20515769345038,1.20346114072249,1.20337860572492,1.20291090740534,1.20145278911488,1.20165454133117,1.19833480031768,1.19683999980608,1.19733520979152,1.19765617922653,1.40922088967198,1.19853655253397,1.4619790942317,1.21943624803051,1.2591539229737,1.20448824291451,1.20520354622681,1.20124186634331,1.19975623638699,1.20217726298247,1.2050843290081
1.06681986696275,1.11796405379215,1.1799294958589,1.05913494163317,1.03653869340874,1.03608016564445,1.0342919073637,1.03240277297481,1.02727643256999,1.02693712202442,1.02773496033429,1.0461861175695,1.05258716515905,1.09262580953724,1.0806949171103,1.08546360585896,1.08085998710544,1.08641734360869,1.05792442833544,1.20411225014779,1.22326036958473,1.11189314619289,1.10271342035172,1.03923483666279,1.05408196567065,1.07760443997895,1.18517505348243,1.222370825722,1.02170990551146,1.22025242745096,1.07707254777237,1.05813535110701,1.11558887997311,1.11490108832666,1.12182485756751,1.11467182444452,1.0236999160085,1.02131557163417,1.0245436070948,1.0280559297693,1.02790003032943,1.03584173120701,1.03552076177201,1.04984516912857,1.05512740897324,1.06096905269035,1.06437132870142,1.05715410169142,1.05289896403877,1.05384353123321,1.06603119920816,1.04594768313206,1.04316900488044,1.04232531379414,1.03714395005761,1.03542905621915,1.10838999407368,1.12323712308154,1.12475026470371,1.04699312643466,1.04592017146621,1.05029452633758,1.05427454733165,1.05396274845193,1.05433874121865,1.05458634621137,1.05783272278258,1.06143675100993,1.06449054592013,1.06437132870142,1.06482985646571,1.06400450648998,1.0666547969676,1.07450479229232,1.07391787675403,1.08007131935086,1.09435904448627,1.08045648267286,1.11185646397175,1.08296004426591,1.08236395817233,1.0828408270472,1.08545443530367,1.08659158415912,1.24182157348337,1.0847849847678,1.08550945863539,1.08573872251754,1.08594964528911,1.09027814738405,1.0903790234922,1.12966568233694,1.20977965331447,1.20356201683064,1.10276844368343,1.10349291755102,1.11566224441539,1.11073765622687,1.1076655202061,1.10500605917319,1.10452919029832,1.10566633915377,1.10931622015756,1.13420510720346,1.11920207875575,1.11757889047014,1.11447924278351,1.11565307386011,1.11452509555994,1.1146809949998,1.1123425034019,1.11590067885283,1.12065102649092,1.12463104748499,1.12389740306212,1.12268688976438,1.12251264921395,1.12658437576089,1.1259240957803,1.12764816017405,1.14010177425229,1.13556234938577,1.15495807381543,1.14118389977602,1.1428254291722,1.14333898026821,1.14564078964496,1.15075795949449,1.15954335145837,1.15701227819947,1.15786513984105,1.16279889858486,1.16551338294948,1.16532080128848,1.17198779498132,1.1718043838756,1.17254719885376,1.17404199936536,1.19916015029341,1.199884624161,1.24736058887604,1.25471537421533,1.27466133196214,0.00413091331074982,1.33924955284065,1.20408473848193,1.19749110923138,1.1955286104002,1.19196126439399,1.19022802944496,1.30229221503852,1.20547866288539,1.20533193400081,1.199948818048,1.20105845523759,1.20018725248543,1.19861908753154,1.1972801864598,1.19919683251455,1.40327836984673,1.20354367572007,1.20935780777132,1.19885752196898,1.19706009313294,1.25132226875955,1.59709805581399,1.59538316197553,1.20435985514051,1.2010492846823,1.19701424035651,1.19606967316207,1.1991693208487
1.07312920899944,1.07703586555123,1.08249234594633,1.10934373182341,1.03615353008674,1.03493384623371,1.03847368057407,1.03832695168949,1.03326480517168,1.03342987516683,1.03369582127012,1.08700425914699,1.09378129950326,1.02703799813256,1.02984418805004,1.00995325363495,1.03652952285346,1.03689634506489,0.941054871772067,0.942907323939816,0.938698039063593,0.935249910276099,1.04499394538233,1.25665036138065,1.22674518059337,1.01684034065465,1.20794554225729,1.07983288491342,1.02624933037798,1.02502964652495,1.282740591169,1.18467984349699,1.07775116886353,1.00657848928974,1.13347146278059,1.16172594361641,1.15326152108754,1.39681312837018,1.02444273098665,1.43773214605581,1.02601089594054,1.05223868405818,1.06103324657735,1.04529657370677,1.02875289197102,1.03066953802577,1.03217350909266,1.03497969901014,1.03663956951689,1.04166503381355,1.06988283242823,1.04411357207489,1.04216024379899,1.0412431882704,1.03880382056436,1.03807017614149,1.03608933619973,1.03633694119245,1.125272986355,1.13017923343295,1.04635118756464,1.04794686418439,1.05809866888587,1.07064398851696,1.0514500163036,1.05144084574831,1.05194522628904,1.05529247896839,1.0844640153328,1.06023540826748,1.06098739380092,1.06267477597353,1.06374773094197,1.15471963937799,1.12331965807911,1.06923172300294,1.07235888235542,1.07428469896546,1.072441417353,1.07774199830824,1.08144690264374,1.08130934431445,1.08158446097303,1.08575706362811,1.08817809022358,1.08991132517262,1.08876500576188,1.0840054875685,1.08143773208845,1.08431728644822,1.08806804356015,1.09269917397953,1.09479006058471,1.09383632283498,1.09742200995176,1.09711021107204,1.09903602768208,1.10017317653753,1.102594203133,1.10308024256315,1.10191558204184,1.10464840751704,1.10600564969935,1.10711528688894,1.1078581018671,1.11934880764032,1.11041668679186,1.11141627731803,1.11295693060606,1.11329624115163,1.11639588883826,1.11785400712872,1.1181933176743,1.11872520988088,1.12091697259421,1.12147637646665,1.12194407478623,1.12229255588709,1.12273274254081,1.12702456241461,1.12764816017405,1.13390247887903,1.16542167739663,1.16422033465417,1.14161491587446,1.14494382744324,1.14527396743353,1.14787840513472,1.14987758618704,1.14910725954303,1.15264709388338,1.17439048046623,1.17583025764611,1.1819470180218,1.16402775299317,1.1677785101051,1.16732915289609,1.17313411439206,1.1723912994139,1.17314328494734,1.22848758609768,1.17182272498618,1.26086881681216,1.23046842603944,1.26132734457645,1.26417021671508,1.18555104624915,1.19713345757523,1.1931901188023,1.34158804443855,1.19975623638699,1.20732194449785,1.20615728397654,1.20249823241747,1.19883918085841,1.19962784861299,1.20100343190587,1.19938024362027,1.1979954897721,1.21185219880908,1.21121025993907,1.20356201683064,1.19590460316692,1.19096167386783,1.47542312828082,1.47562488049711,1.27966845514823,1.1995544841707,1.19887586307955,1.19574870372706,1.19490501264076,1.1971517986858
1.07058896518525,1.07093744628611,1.0704880890771,1.18238720467552,1.18222213468037,1.05520077341553,1.02951404805975,1.03497052845486,1.03631860008188,1.04935912969842,1.18410209851398,1.09401973394069,1.12251264921395,1.11496528221366,1.03586007231759,1.0288354269686,1.079979613798,1.09567960444744,1.04040866773939,1.2115770821505,0.935259080831385,1.12521796302329,1.06762687582791,1.07329427899459,1.09652329553374,1.23376065538707,1.02314051213606,1.24674616167189,1.28396027502203,1.05232121905576,1.08114427431931,1.10587726192535,1.08093335154773,0.991392049736311,0.984578327158896,0.984294039945033,0.984422427719036,1.09603725610359,1.03343904572211,1.04304978766172,1.04301310544058,1.02899132640846,1.00841260034692,1.03588758398344,1.03194424521051,1.03029354525905,1.03082543746563,1.03221936186909,1.03282461851796,1.03536486233215,1.03758413671133,1.04034447385239,1.03987677553281,1.03909727833351,1.03730902005276,1.0359792895363,1.03601597175745,1.03553910288258,1.12110955425521,1.13306795834801,1.04652542811508,1.0440402076326,1.04573676036049,1.16890648840526,1.04590183035564,1.04655293978093,1.05128494630845,1.05083558909944,1.05142250463774,1.05741087723943,1.05795194000129,1.05936420551532,1.06115246379607,1.0637935837184,1.35655439066512,1.09208474677537,1.06992868520466,1.07025882519496,1.07367027176131,1.0747157150639,1.07579784058763,1.07639392668122,1.07658650834222,1.07959445047599,1.06170269711322,1.33370136689269,1.10242913313785,1.15878219536964,1.12140301202436,1.08418889867422,1.08104339821116,1.0839412936815,1.09644076053617,1.09025063571819,1.09561541056044,1.09449660281556,1.09545951112058,1.09647744275731,1.09630320220688,1.10509776472605,1.10284180812572,1.10245664480371,1.10204396981585,1.1033095064453,1.10994898847228,1.1068218291198,1.10813321852568,1.10789478408824,1.10952714292913,1.11090272622202,1.11267264339219,1.11964226540947,1.11834004655887,1.11656095883341,1.11883525654431,1.26642617331541,1.12145803535607,1.12243928477166,1.12315458808396,1.12165978757236,1.12662105798203,1.12675861631132,1.12914296068565,1.13138057617541,1.14642945739955,1.14367829081378,1.18455145572299,1.1820112119088,1.14720895459885,1.14640194573369,1.15239031833538,1.15235363611423,1.15554498935372,1.15590264100987,1.16163423806355,1.16145999751312,1.20347031127778,1.21008228163891,1.17037377725101,1.22797403500167,1.16679726068951,1.16711823012452,1.17043797113801,1.16930999283784,1.17172184887803,1.1738860999255,1.185129200706,1.18463399072056,1.34664102040108,1.19777539644524,1.20424980847708,1.22325119902944,1.22562637284849,1.21553876203401,1.200269787483,1.19856406419983,1.19993047693743,1.19945360806256,1.19859157586569,1.19673912369794,1.20239735630933,1.20122352523274,1.20074665635787,1.18809129006334,1.18624800845088,1.18433136239613,1.26625193276497,1.19985711249514,1.19537271096034,1.19469408986918,1.19613386704907,1.19394210433574
1.07395455897517,1.12909710790922,1.25683377248637,1.16409194688017,1.02038934555029,1.0205819272113,1.02982584693947,1.03318227017411,1.03601597175745,1.03562163788015,1.12212748589194,1.13673618046237,1.10510693528133,1.11632252439598,1.12085277870721,1.06667313807817,1.06809457414749,1.13509465106619,1.06906665300779,1.21438327206799,1.05769516445329,1.11168222342132,1.09324023674139,1.10170465927027,0.965558595495962,0.965255967171527,0.966961690454703,1.034878822902,0.959084183464124,0.958588973478686,1.24516882616272,1.16937418672484,0.996032350710971,0.995867280715825,0.992052329716895,0.99061255253701,0.986971842088513,0.988402448713111,0.988393278157826,0.984825932151615,0.981441997251122,0.988705077037546,1.03628191786074,1.08798550856258,1.02935814861989,1.02929395473289,1.02886293863445,1.03003676971105,1.02946819528332,1.08970040240104,1.08755449246414,1.04028027996539,1.03865709167978,1.03851036279521,1.03927151888394,1.03425522514256,1.03267788963338,1.03219185020323,1.03608016564445,1.04062876106625,1.04077548995082,1.04106894771997,1.04196766213799,1.05891484830631,1.04560837258649,1.04290305877715,1.0433249043203,1.04805691084782,1.04817612806654,1.14391672525122,1.0554116961871,1.06087734713749,1.06060223047892,1.06168435600265,1.06404118871112,1.06510497312429,1.06571022977316,1.06692991362618,1.06979112687538,1.07007541408924,1.07295496844901,1.07217547124971,1.0732851084393,1.0823822992829,1.06441718147784,1.06369270761026,1.06687489029446,1.22648840504536,1.15650789765874,1.07723761776752,1.07722844721223,1.08090583988187,1.08638983194283,1.08784795023329,1.08999386017019,1.09125939679964,1.09256161565024,1.09291926730639,1.14839195623073,1.09413895115941,1.0988251049105,1.09923777989837,1.09910939212436,1.10009064153995,1.10083345651811,1.10179636482313,1.10309858367372,1.10394227476003,1.10684017023037,1.10726201577352,1.11099443177487,1.11433251389894,1.11777147213115,1.11748718491728,1.11746884380671,1.11571726774711,1.11728543270099,1.11874355099145,1.11900949709474,1.11918373764517,1.11979816484933,1.1304726912021,1.13050020286796,1.13013338065653,1.13995504536771,1.13871702040412,1.13783664709667,1.14294464639091,1.14215597863633,1.14449447023423,1.1452281146571,1.14638360462312,1.15029026117491,1.15404101828684,1.15371087829655,1.15530655491629,1.15851624926635,1.14680545016627,1.15199598445808,1.15586595878873,1.1581585976102,1.15770924040119,1.16526577795677,1.17155677888289,1.20037066359115,1.30400710887698,1.18138761414936,1.26470210892166,1.2457649122563,1.22569973729077,1.22845090387654,1.27090140429492,1.29650559465312,1.20612977231069,1.20419478514536,1.20601055509197,1.29798205405415,1.20104011412702,1.19932522028856,1.19046646388239,1.19012715333681,1.1913009844134,1.26085964625687,1.28465723722375,1.18417546295627,1.18254310411538,1.18273568577638,1.20016891137486,1.19899508029827,1.19648234814993,1.19606967316207,1.1965006892605
1.06918587022651,1.25742985857995,1.06584778810244,1.05415533011293,1.02966077694433,1.02954155972561,1.03531900955572,1.06375690149726,1.12204495089437,1.05413698900236,1.1185142871093,1.11146213009445,1.11415827334851,1.08533521808496,1.08396880534736,1.13231597281457,1.12980324066623,1.08360198313592,1.16930082228256,1.14732817181757,1.05238541294276,1.07997044324271,1.09339613618125,1.09164456012165,1.05514575008381,1.01256686189143,0.96558610716182,0.96435725275351,0.951674374793126,0.956727350755651,1.04436117706761,1.13530557383777,1.14058781368244,1.13635101714036,0.994399991870083,0.994757643526232,0.994766814081518,0.990896839750873,0.990548358650009,0.983496201635161,0.982340711669139,0.98410145828403,1.01982994167785,1.03060534413877,1.03104553079249,1.03479628790442,1.03251281963824,1.01341055297773,1.08683001859656,1.0358509017623,1.07986039657928,1.09186465344851,1.03884967334079,1.03902391389122,1.04228863157299,1.04223360824128,1.03933571277094,1.03209097409509,1.03532818011101,1.03640113507945,1.0388405027855,1.04073880772968,1.03830861057892,1.03682298062261,1.04009686885967,1.03937239499208,1.04058290828982,1.17910414588317,1.22624080005264,1.04628699367764,1.12683198075361,1.09981552488138,1.05731000113128,1.05868558442416,1.05994195049833,1.06420625870627,1.06663645585703,1.0675626819409,1.06742512361162,1.06922255244765,1.06794784526291,1.06947015744037,1.07240473513185,1.07006624353395,1.06850724913535,1.06798452748406,1.06741595305633,1.06750765860919,1.15953418090309,1.07574281725592,1.07758609886838,1.08046565322815,1.08264824538619,1.08442733311165,1.08557365252239,1.0858946219574,1.09229566954695,1.09240571621038,1.09233235176809,1.09569794555801,1.09571628666858,1.09571628666858,1.09598223277187,1.09698182329804,1.09706435829561,1.10108106151083,1.09944870266994,1.10139286039055,1.10369466976731,1.10639998357664,1.11229665062547,1.11239752673362,1.11826668211658,1.11319536504349,1.11597404329511,1.117478014362,1.11749635547257,1.12157725257479,1.1230628825311,1.12289781253596,1.12017415761605,1.12076107315435,1.12487865247771,1.12464938859556,1.1243651013817,1.13324219889844,1.13569073715977,1.14442110579194,1.14446695856837,1.14564078964496,1.13777245320967,1.13984499870428,1.14525562632296,1.14831859178844,1.15128985170107,1.14992343896347,1.14510889743838,1.14442110579194,1.1447695868928,1.15050118394648,1.15438032883242,1.16189101361156,1.1619918897197,1.27344164810911,1.27108481540064,1.28020034735481,1.2922321158899,1.29050805149615,1.31219641474728,1.25818184411339,1.35131800359688,1.24526053171558,1.24506795005457,1.33091351808578,1.20330524128263,1.20738613838485,1.20822065891587,1.20180127021575,1.1968308292508,1.19080577442797,1.18998042445224,1.18925595058465,1.41127509405602,1.21464921817128,1.21824407584335,1.71492135012709,1.18467984349699,1.18581699235244,1.19055816943525,1.18960443168551,1.19031973499781,1.18390951685298
1.22597485394935,1.17804036147001,1.05117489964502,1.04268296545029,1.04252706601043,1.04225194935185,1.06668230863346,1.08605969195254,1.11225996840433,1.16029533699181,1.10445582585604,1.08694006525999,1.08870998243016,1.08746278691128,1.08943445629775,1.15297723387367,1.15235363611423,1.13436100664332,1.07990624935571,1.15258289999638,1.16837459619868,1.23027584437843,1.10824326518911,1.05297232848106,1.11369057502893,1.12578653745101,1.12536469190786,0.968419808745159,1.06773692249134,1.0400785277491,1.15228944222723,1.22427830122146,0.998728493965022,1.00096610945478,1.00206657608909,1.00202072331266,0.995317047398672,0.994005657992789,0.991878089166463,0.992483345815332,1.03560329676958,1.04523237981976,1.04659879255736,1.02699214535613,1.00762393259233,1.00819250702006,1.00966896642109,1.0097239897528,1.0103109052911,1.01307124243215,1.01472194238361,1.04716736698509,1.06060223047892,1.04116982382812,1.04438868873346,1.04559003147592,1.04591100091092,1.04449873539689,1.0329896885131,1.03527315677929,1.03630025897131,1.03671293395917,1.03502555178657,1.03527315677929,1.17934258032061,1.05245877738505,1.05440293510565,1.04890977248941,1.09649578386788,1.09126856735493,1.05935503496003,1.05806198666472,1.05545754896353,1.05597110005954,1.05699820225156,1.05975853939261,1.06685654918389,1.06615041642688,1.06470146869171,1.06417874704041,1.06878236579393,1.06495824423971,1.06505912034786,1.06434381703556,1.064903220908,1.06518750812186,1.06670982029932,1.0665906030806,1.06736092972462,1.07335847288159,1.07738434665209,1.08087832821602,1.08061238211272,1.080108001572,1.08474830254666,1.08763702746172,1.09013141849948,1.08921436297089,1.08938860352132,1.09231401065752,1.09305682563568,1.0926533212031,1.09335028340482,1.09540448778886,1.09520273557257,1.09630320220688,1.09903602768208,1.09930197378537,1.1003840993091,1.10241079202728,1.11228748007019,1.10774805520367,1.10693187578323,1.11413993223793,1.11458011889166,1.11385564502407,1.11558887997311,1.11635920661712,1.11785400712872,1.11883525654431,1.64010796010481,1.13318717556673,1.1146168011128,1.11570809719182,1.11769810768886,1.14303635194377,1.14020265036043,1.13779996487553,1.13649774602493,1.13616760603464,1.13650691658022,1.16161589695298,1.1468513029427,1.17268475718305,1.18377195852369,1.13957905260099,1.140156797584,1.14253197140305,1.14361409692678,1.1437975080325,1.20196634021089,1.25333979092244,1.21764798974976,1.26216186510747,1.20312183017692,1.27423948641898,1.20778047226215,1.23529213811981,1.2353655025621,1.230229991602,1.22640587004779,1.22571807840135,1.22381060290188,1.20637737730341,1.27158002538608,1.20900015611517,1.20893596222817,1.19421722099432,1.19249315660057,1.19205296994685,1.18885244615207,1.18772446785191,1.36325806657911,1.20779881337272,1.25145982708884,1.25866788354354,0.0045994278097506,1.19531768762862,1.18485408404742,1.19092499164668,1.18927429169522,1.18718340509004
1.1788290292246,1.05062466632787,1.05067968965958,1.05075305410187,1.04986351023914,1.04473716983433,1.04492975149533,1.14907974787717,1.08770122134872,1.09425816837813,1.09080086903535,1.09097510958578,1.08728854636085,1.09235069287866,1.09205723510951,1.09175460678508,1.09235986343395,1.09502849502214,1.13306795834801,1.1309312189664,1.1204676153852,1.09158036623465,1.20347031127778,1.10809653630453,1.05502653286509,1.26893890546374,1.23564978977596,1.1662195157065,0.977663728473335,0.977471146812332,0.984734226598756,0.99498690740838,1.06527004311943,1.00456096712685,1.00638590762874,1.21374133319797,1.08350110702778,0.993996487437504,0.9908143047533,0.992116523603896,1.04227029046242,1.04011520997024,1.02750569645214,1.05997863271947,1.01284197855001,1.01362147574931,1.02053607443487,1.01452936072261,1.01281446688415,1.01638181289036,1.01624425456107,1.14715393126714,1.04665381588908,1.06338090873054,1.04001433386209,1.04013355108081,1.04126152938098,1.04153664603955,1.04127069993626,1.03596094842573,1.03491550512314,1.03511725733943,1.03017432804034,1.02892713252145,1.0285052869783,1.03390674404169,1.03548407955087,1.08741693413485,1.18661483066232,1.13528723272719,1.09858667047307,1.05702571391742,1.05788774611429,1.06765438749376,1.05440293510565,1.05367846123807,1.21088929050406,1.06168435600265,1.06383943649483,1.06378441316312,1.06363768427854,1.06299574540853,1.06330754428825,1.0596393221739,1.06133587490179,1.06322500929068,1.06489405035271,1.0659394936553,1.06702161917904,1.06963522743552,1.07135929182926,1.11639588883826,1.08254736927805,1.08401465812379,1.0844640153328,1.08513346586867,1.08883837020417,1.08804970244958,1.08904929297574,1.09061745792963,1.08904929297574,1.09189216511437,1.0919380178908,1.09214894066237,1.09355203562111,1.09467084336599,1.09399222227484,1.09289175564053,1.09679841219232,1.09862335269421,1.10000810654238,1.11560722108368,1.10518947027891,1.10572136248549,1.10814238908096,1.10904110349898,1.11093940844316,1.11223245673847,1.11943134263789,1.11928461375332,1.11401154446393,1.1139656916875,1.11429583167779,1.11457094833637,1.11127871898874,1.11284688394262,1.13095873063226,1.14909808898774,1.21616235979345,1.12817088182534,1.14896053065846,1.16829206120111,1.12464021804028,1.12964734122637,1.1302159156541,1.13345312167002,1.13671783935179,1.1444486174578,1.14140399310288,1.23293530541134,1.17145590277474,1.23234838987304,1.25415597034289,1.25298213926629,1.17962686753447,1.19135600774512,1.22045417966725,1.21555710314458,1.21467672983714,1.27294643812367,1.28129164343383,1.2389420191236,1.23199990877218,1.21087094939349,1.20944951332418,1.20974297109333,1.26316145563363,1.19505174152533,1.19544607540263,1.19202545828099,1.18475320793928,1.18481740182628,1.1822037935698,1.18144263748107,1.19138351941098,1.21924366636951,1.28598696774021,1.19563865706363,1.18553270513858,1.18496413071086,1.1857161162443,1.18372610574726
1.0892693863026,1.24150060404836,1.24167484459879,1.21848251028078,1.11906452042646,1.11939466041675,1.12338385196611,1.12360394529297,1.12521796302329,1.08765536857229,1.08797633800729,1.0892051924156,1.08862744743259,1.09055326404263,1.09610144999059,1.09566126333687,1.09900851601622,1.30016464621219,1.11646008272526,1.1283267812652,1.13998255703357,1.12780405961391,1.1446411991188,1.11503864665595,1.06692991362618,1.04482887538719,1.10708777522309,1.27976016070109,1.019995011673,0.979892173407806,0.980075584513524,0.979516180641085,1.2338707020505,1.13514050384262,1.18268983299995,1.05496233897809,1.01608835512121,1.07604544558035,0.999040292844742,0.999471308943179,1.00209408775494,1.00722042815976,1.01695955787337,1.01164063580755,1.01099869693754,1.01235593911985,1.01478613627061,1.01532719903248,1.01734472119538,1.01776656673853,1.01988496500957,1.0905074112662,1.03517228067114,1.03658454618517,1.03770335393005,1.03829026946835,1.03680463951203,1.03679546895675,1.03685049228846,1.08301506759763,1.03525481566872,1.03277876574153,1.0326045251911,1.03021101026148,1.02905552029546,1.02881708585802,1.02739564978871,1.07319340288644,1.0596393221739,1.05603529394654,1.17223539997404,1.05291730514934,1.05523745563667,1.11924793153218,1.0853077064191,1.05175264462803,1.05448547010323,1.06427962314856,1.06149177434165,1.06047384270491,1.06040964881791,1.06106075824321,1.05925415885189,1.05959346939747,1.06168435600265,1.06230795376209,1.06328003262239,1.0665264091936,1.06902997078665,1.06954352188266,1.06760853471733,1.06894743578907,1.08844403632687,1.08628895583469,1.08337271925378,1.08462908532794,1.08607803306311,1.08562867585411,1.08769205079343,1.08748112802186,1.08799467911787,1.08685753026242,1.08716015858685,1.08936109185546,1.08266658649676,1.24795667496963,1.12887701458236,1.09086506292235,1.09153451345822,1.09465250225542,1.09878842268936,1.09866920547064,1.10174134149141,1.10213567536871,1.10404315086817,1.10464840751704,1.10783976075653,1.10938041404456,1.11404822668508,1.11280103116619,1.11667100549684,1.11708368048471,1.11756971991486,1.11105862566188,1.1128652250532,1.11406656779565,1.11380979224764,1.11900032653946,1.11572643830239,1.12044927427463,1.12067853815677,1.12375984473283,1.12581404911687,1.12617170077302,1.12917964290679,1.13010586899067,1.17663726651127,1.14679627961099,1.14144067532403,1.22358133901973,1.24633348668402,1.2232145168083,1.24860778439492,1.23251345986819,1.24571905947987,1.26403265838579,1.25994259072828,1.26218020621804,1.25057945378139,1.25223932428814,1.25448611033318,1.1978671019981,1.26769170994486,1.20268164352319,1.20461663068852,1.20601972564726,1.26196928344646,1.19191541161756,1.1908516272044,1.1888982989285,1.18667902454932,1.18605542678988,1.18666068343874,1.18167190136322,1.17926004532303,1.1798653019719,1.17945262698404,1.2460858816913,1.18751354508033,1.1882471895032,1.22950551773442,1.19343772379502
1.22339792791402,1.13595668326306,1.1616067263977,1.33934125839351,1.34387151270474,1.21652918200488,1.07129509794226,1.13007835732481,1.09967796655209,1.09065414015077,1.0940839278277,1.10093433262625,1.11288356616377,1.11142544787331,1.1138373039135,1.13862531485126,1.22508531008662,1.11120535454645,1.11159051786846,1.11409407946151,1.13687373879165,1.12907876679865,1.18074567527935,1.19206214050213,1.17040128891686,1.22546130285334,1.13823098097397,1.22356299790916,1.18213042912752,1.07385368286702,1.0823822992829,1.07713674165937,1.04519569759862,1.20980716498033,1.18186448302422,1.12811585849363,1.17566518765096,1.12328297585797,1.00477188989842,1.00403824547555,1.00514788266514,1.02970662972076,1.01081528583182,1.01098035582697,1.01107206137983,1.01108123193511,1.01300704854515,1.01306207187687,1.01404332129246,1.020187593334,1.10501522972848,1.02327807046535,1.1236497980694,1.22003233412409,1.03200843909751,1.0328613007391,1.03333816961397,1.03243028464066,1.03212765631623,1.03027520414848,1.03209097409509,1.03334734016925,1.03224687353495,1.03124728300878,1.03053197969649,1.02972497083133,1.0289638147426,1.0289638147426,1.03132064745107,1.06681069640746,1.26724235273585,1.09556955778401,1.05444878788208,1.04855212083326,1.07146933849269,1.07021297241853,1.05691566725399,1.05691566725399,1.05830042110216,1.06030877270977,1.06186776710837,1.05832793276801,1.05800696333301,1.05738336557357,1.06571022977316,1.06647138586188,1.07398207064103,1.07898002327184,1.07603627502507,1.0769258188878,1.0765314850105,1.08383124701807,1.08813223744715,1.08952616185061,1.08477581421252,1.08307009092934,1.08345525425135,1.08366617702293,1.08505093087109,1.08542692363782,1.08454655033037,1.08601383917611,1.08629812638998,1.08564701696468,1.08582125751511,1.08375788257578,1.0838129059075,1.11248006173119,1.09047989960034,1.0914794901265,1.09643158998088,1.09584467444259,1.09783468493962,1.10053999874896,1.10250249758014,1.10339204144287,1.10549209860334,1.10616154913921,1.1114346184286,1.11550634497553,1.17296904439691,1.17738925204471,1.11085687344559,1.10518029972362,1.10625325469207,1.11061843900815,1.11153549453674,1.11202153396689,1.11338794670449,1.11277351950034,1.11270015505805,1.11849594599873,1.1207885848202,1.12136632980322,1.19472160153504,1.19512510596762,1.18224047579095,1.1287853090295,1.2201607218981,1.14706222571428,1.15125316947993,1.15440784049827,1.15232612444838,1.15338073830625,1.15236280666952,1.15298640442896,1.25823686744511,1.27467967307271,1.2488187071665,1.19229140438428,1.28377686391631,1.20263579074676,1.20203053409789,1.20421312625594,1.20974297109333,1.27392768753926,1.27333160144568,1.1911725966394,1.18745852174862,1.18728428119819,1.18299246132439,1.18249725133895,1.18623883789559,1.17797616758301,1.17769188036915,1.17878317644817,1.1782421136863,1.17747178704228,1.17847137756845,1.18782534396005,1.24573740059044,1.22576393117778
1.19443731432118,1.10413485642103,1.16807196787425,1.16599942237964,1.15088634726849,1.08194211262918,1.08051150600458,1.07983288491342,1.08837984243987,1.17571104042739,1.11107696677245,1.24956152214466,1.13636935825093,1.13993670425714,1.2106691971772,1.22012403967695,1.2187943091605,1.11626750106426,1.11324121781992,1.11744133214085,1.11742299103028,1.11153549453674,1.11166388231074,1.13734143711123,1.16045123643167,1.12506206358343,1.05897904219331,1.05390772512022,1.06998370853638,1.14459534634237,1.09207557622009,1.0637935837184,1.17555514098753,1.21988560523952,1.14156906309803,1.11734045603271,1.11723957992457,1.15658126210103,1.06902080023136,0.997701391773003,0.999480479498465,1.15608605211559,1.18073650472406,1.01087947971882,1.01082445638711,1.01019168807238,1.01136551914898,1.01158561247584,1.01299787798987,1.01418087962175,1.01433677906161,1.02253525548719,1.04213273213313,1.09508351835386,1.06406870037698,1.03540154455329,1.03022018081676,1.03042193303305,1.03008262248748,1.03087129024206,1.03114640690064,1.03111889523478,1.03009179304276,1.0318250279918,1.0318250279918,1.03120143023236,1.03038525081191,1.02965160638904,1.02943151306218,1.05809866888587,1.03835446335535,1.08346442480664,1.05063383688315,1.05076222465716,1.04902898970812,1.04789184085267,1.05841046776559,1.05653967448727,1.05662220948484,1.05565930117982,1.09530361168072,1.06407787093227,1.06349095539397,1.05834627387859,1.05848383220787,1.26704060051956,1.06868148968578,1.07430304007603,1.08594964528911,1.07760443997895,1.0890768046416,1.08852657132445,1.09174543622979,1.09146114901593,1.08362949480178,1.08289585037891,1.08110759209816,1.08378539424164,1.0840054875685,1.08144690264374,1.08262990427562,1.08288667982363,1.08404216978965,1.08563784640939,1.08607803306311,1.08395963479207,1.08557365252239,1.08579374584925,1.08716932914214,1.08837067188459,1.08882919964888,1.09094759791992,1.09552370500758,1.0980456077112,1.09974216043909,1.10031073486681,1.102594203133,1.20054490414158,1.11148047120503,1.23464102869452,1.19968287194471,1.19948111972842,1.10996732958286,1.11072848567158,1.10904110349898,1.10847252907126,1.11016908179914,1.11026995790729,1.1094170962657,1.11051756290001,1.11186563452703,1.11446090167294,1.12369565084583,1.11541463942267,1.11523122831696,1.17869147089531,1.21692351588218,1.25210176595885,1.20369040460464,1.23039506159715,1.14098214755973,1.14545737853925,1.14458617578709,1.14982256285533,1.15245451222238,1.23620002309312,1.17339088994006,1.24965322769752,1.27625700858188,1.18474403738399,1.185129200706,1.22095856020797,1.2048183829048,1.20437819625108,1.24490288005943,1.21058666217963,1.20709268061571,1.22780896500653,1.25508219642676,1.18432219184084,1.18718340509004,1.34099195834497,1.17566518765096,1.17493154322809,1.17463808545894,1.17797616758301,1.18007622474348,1.17786612091958,1.18008539529876,1.18473486682871,1.18492744848971,1.21059583273491
1.10548292804806,1.12232923810823,1.13197666226899,1.23186235044289,1.10624408413678,1.0855002880801,1.08716932914214,1.08852657132445,1.09024146516291,1.1567921848726,1.15884638925664,1.35912214614517,1.222435019609,1.29225962755576,1.14027601480272,1.14570498353196,1.35317962631992,1.11982567651519,1.11655178827812,1.11727626214571,1.11961475374361,1.11610243106911,1.1161757955114,1.16020363143895,1.13851526818783,1.13806591097882,1.17362015382221,1.19100752664426,1.16240456470757,1.18791704951291,1.0686081252435,1.16847547230683,1.13978997537257,1.13874453206997,1.04819446917711,1.04857963249911,1.10144788372226,1.22241667849843,1.2217839101837,0.997178670121707,0.996967747350131,0.998499230082875,1.00664268317674,1.00780734369805,1.01092533249525,1.01034758751224,1.01019168807238,1.00974233086337,1.00990740085852,1.01007247085367,1.01672112343594,1.0192155144737,1.02458945987123,1.03561246732487,1.02761574311557,1.03028437470377,1.03033939803548,1.02903717918489,1.02873455086045,1.0285052869783,1.02871620974988,1.03151322911208,1.03295300629196,1.0325403313041,1.03241194353009,1.03159576410965,1.03106387190307,1.03105470134778,1.03062368524934,1.03165078744136,1.03258618408052,1.03382420904412,1.03447531846942,1.04814861640068,1.0484604152804,1.04753418919652,1.05052379021972,1.05585188284082,1.05517326174967,1.05416450066822,1.05459551676666,1.05932752329418,1.06212454265637,1.0635368081704,1.06328920317768,1.06038213715205,1.06189527877423,1.06357349039154,1.0633442265094,1.06543511311458,1.06961688632494,1.18114917971193,1.08970957295633,1.08980127850919,1.09114017958093,1.080108001572,1.08073159933144,1.0816028020836,1.08180455429989,1.08117178598516,1.08013551323786,1.08087832821602,1.08228142317476,1.08284999760248,1.08599549806554,1.08663743693555,1.08694006525999,1.08962703795875,1.09045238793448,1.08893007575703,1.08905846353103,1.18268066244467,1.09312101952268,1.09403807505127,1.09490927780343,1.09675255941589,1.09917358601136,1.19628059593364,1.19905010362998,1.22193063906827,1.11502030554538,1.28617037884593,1.10716113966537,1.10861008740054,1.11108613732773,1.11049005123415,1.11046253956829,1.12220085033423,1.23442093536765,1.12898706124579,1.13669949824122,1.16932833394841,1.17339088994006,1.11088438511144,1.18912756281065,1.16059796531625,1.16924579895084,1.19131015496869,1.19174117106713,1.16835625508811,1.13343478055945,1.17758183370571,1.15894726536479,1.19355694101373,1.20107679634816,1.20550617455125,1.18071816361349,1.18173609525022,1.18269900355524,1.22956971162142,1.19106254997597,1.19776622588996,1.19722516312809,1.25043272489682,1.28259386228443,1.2083948994663,1.20759706115643,1.21338368154182,1.25536648364062,1.19069572776454,1.19078743331739,1.18548685236215,1.18489076626857,1.18106664471435,1.18132342026236,1.18214877023809,1.18339596575697,1.18087406305335,1.18783451451534,1.18747686285919,1.1766189254007,1.17568352876154
1.35925970447446,1.199948818048,1.1105909273423,1.1125350850629,1.11203070452218,1.10878432795098,1.09235069287866,1.12175149312522,1.29000367095543,1.30501586995843,1.14752992403386,1.16561425905763,1.30801464153691,1.2324400954259,1.15780094595405,1.14751158292328,1.147566606255,1.13759821265924,1.11115950177002,1.11027912846258,1.1215038881325,1.12087111981778,1.12147637646665,1.12041259205348,1.14337566248935,1.13029845065167,1.14491631577738,1.17279480384648,1.16564177072349,1.15859878426392,1.15866297815093,1.07572447614535,1.07392704730931,1.14078039534344,1.16080888808782,1.12353975140597,1.0717903079277,1.20648742396684,1.21113689549678,1.00045255835877,0.998159919537297,0.998884393404882,1.00289192606482,1.00404741603084,1.08917768074975,1.42954284018551,1.01379571629974,1.09556038722872,1.01396995685017,1.00813748368834,1.00910039199336,1.15236280666952,1.02099460219916,1.04835036861697,1.02661615258941,1.02939483084104,1.03035773914605,1.03059617358349,1.02725809145942,1.03015598692976,1.03028437470377,1.03103636023721,1.0327329129651,1.0337691857124,1.03177917521537,1.03221936186909,1.03187088076822,1.0318250279918,1.03198092743166,1.03263203685695,1.03443863624827,1.0491757185927,1.03714395005761,1.03789593559105,1.04217858490956,1.0450122864929,1.04781847641039,1.20355284627535,1.05347670902178,1.05390772512022,1.05324744513963,1.05367846123807,1.05457717565609,1.06283067541339,1.06253721764424,1.0605472071472,1.06228961265152,1.0637935837184,1.06888324190207,1.0678286280442,1.06866314857521,1.06975444465423,1.14362326748207,1.23255931264462,1.08347359536192,1.07732932332038,1.07726512943338,1.08514263642395,1.079979613798,1.08031892434358,1.07839310773354,1.07892499994012,1.07927348104098,1.08127266209331,1.08251985761219,1.08289585037891,1.08388627034979,1.08089666932659,1.07921845770927,1.0795210860337,1.08569286974111,1.08659158415912,1.08685753026242,1.09001220128076,1.0919380178908,1.09452411448142,1.09493678946928,1.20656995896441,1.21345704598411,1.10903193294369,1.10930704960227,1.25171660263684,1.10496020639676,1.1070786046678,1.11043502790244,1.11071014456101,1.13849692707726,1.13875370262526,1.09890763990807,1.09765127383391,1.09662417164189,1.09974216043909,1.1015579303857,1.18101162138264,1.1070786046678,1.11154466509203,1.11421329668022,1.11566224441539,1.17476647323295,1.17044714169329,1.14620936407269,1.1470438846037,1.17013534281357,1.17247383441147,1.17141004999831,1.18462482016528,1.18217628190394,1.18126839693064,1.18076401638992,1.1765547315137,1.17872815311645,1.21149454715293,1.19103503831011,1.25387168312902,1.20389215682093,1.20538695733253,1.20561622121468,1.20473584790723,1.19381371656174,1.19300670769658,1.18553270513858,1.18777032062834,1.18877908170978,1.18309333743253,1.18257061578124,1.18157102525508,1.18079152805578,1.17573855209325,1.18034217084677,1.20727609172142,1.21059583273491,1.17549094710053
1.08860910632202,1.08915016908389,1.24261024123795,1.11529542220396,1.14262367695591,1.13466363496775,1.10463923696175,1.10466674862761,1.12736387296019,1.13227929059342,1.2390062130106,1.16422033465417,1.14596175907997,1.14929067064875,1.14996012118462,1.14993260951876,1.15030860228548,1.15655375043517,1.14170662142732,1.13780913543081,1.12536469190786,1.18162604858679,1.12099033703649,1.1210545309235,1.12019249872662,1.12045844482991,1.13447105330675,1.15422442939256,1.1648531029689,1.15357331996726,1.15620526933431,1.07743019942852,1.07299165067015,1.07306501511244,1.15684720820432,1.13699295601037,1.15961671590066,1.09899934546093,1.20714770394742,1.0778337038611,1.14337566248935,0.99937960339032,1.00054426391163,1.00184648276222,0.990630893647582,0.990979374748446,1.03581421954116,1.04960673469113,1.01870196337769,1.01680365843351,1.01742725619295,1.01573987402035,1.01722550397666,1.02521305763067,1.02705633924313,1.02659781147884,1.0253231042941,1.02557987984211,1.02602923705111,1.02887210918974,1.02679039313984,1.02876206252631,1.0291563964036,1.03177917521537,1.03387006182055,1.03410849625798,1.03186171021294,1.03187088076822,1.03275125407567,1.0337049918254,1.14499885077495,1.03950995332137,1.03950995332137,1.03948244165551,1.0402711094101,1.04315066376987,1.04532408537262,1.24833266773635,1.19673912369794,1.05285311126234,1.05323827458435,1.05364177901693,1.05452215232437,1.05566847173511,1.05977688050319,1.05870392553474,1.0592449882966,1.06053803659191,1.06032711382034,1.06818627970035,1.06687489029446,1.0674984880539,1.06772775193605,1.1754450943241,1.08205215929261,1.08140104986731,1.07761361053424,1.0779620916351,1.07476156784033,1.07455064506875,1.07155187349027,1.07748522276024,1.07654982612108,1.07767780442124,1.07797126219039,1.08122680931688,1.08413387534251,1.08475747310195,1.08352861869364,1.08061238211272,1.08162114319417,1.08264824538619,1.0847849847678,1.08384041757336,1.08808638467072,1.08884754075945,1.0910943268045,1.08431728644822,1.08612388583954,1.2247093173199,1.10559297471149,1.22502111619962,1.1055838041562,1.10796814853053,1.10776639631424,1.10665675912465,1.10203479926056,1.09412978060413,1.09747703328347,1.09813731326406,1.09700933496389,1.0966150010866,1.09862335269421,1.10085179762868,1.10312609533958,1.18653229566474,1.14869458455516,1.16544918906248,1.17450969768494,1.14730066015171,1.14731900126228,1.16288143358243,1.15266543499395,1.17848054812373,1.17585776931197,1.17864561811888,1.18494578960028,1.18185531246894,1.18176360691608,1.17524334210781,1.17621542096812,1.27453294418813,1.27131407928279,1.22792818222524,1.24333471510554,1.20833987613459,1.21031154552105,1.21113689549678,1.33320615690725,1.18719257564533,1.18593620957116,1.18807294895277,1.19118176719469,1.19589543261163,1.185065006819,1.17966354975561,1.17448218601908,1.17432628657922,1.1740144876995,1.17196028331546,1.17923253365717,1.17785695036429
1.10915115016241,1.10053999874896,1.10334618866644,1.11807410045558,1.14880463121859,1.12383320917512,1.11187480508232,1.10713362799952,1.10858257573469,1.10808736574925,1.18693580009732,1.23852017358045,1.18119503248835,1.14858453789173,1.14944657008861,1.14889633677145,1.14970334563661,1.1432105924942,1.33310528079911,1.3335638085634,1.1280058118302,1.12739138462604,1.12700622130404,1.13559903160691,1.12027503372419,1.12023835150305,1.12210914478137,1.1580302098362,1.1527021172151,1.1512715105905,1.08799467911787,1.17294153273105,1.08581208695982,1.12325546419211,1.11911954375817,1.15101473504249,1.21745540808876,1.19146605440855,1.20968794776161,1.14976753952361,1.1087659868404,1.00151634277193,1.0012137144475,1.00132376111093,1.03908810777822,0.993006067466628,0.993262843014633,0.99509695407181,1.32196305612675,1.06125333990421,1.01279612577358,1.01363064630459,1.0150520823739,1.02112298997316,1.02195751050418,1.02231516216033,1.02571743817139,1.02575412039254,1.02631352426498,1.02819348809858,1.02557070928682,1.0255156859551,1.25532980141948,1.03210931520566,1.03192590409994,1.03233857908781,1.03154074077793,1.03177917521537,1.03179751632594,1.03184336910237,1.0366945928486,1.04061959051096,1.04044534996053,1.0404636910711,1.0403994971841,1.04165586325827,1.04476468150018,1.04525989148562,1.07072652351454,1.19108089108654,1.05430205899751,1.05407279511536,1.05410030678122,1.05498068008867,1.05443044677151,1.0562553872734,1.05526496730253,1.05741087723943,1.05735585390771,1.05912577107789,1.06271145819467,1.06668230863346,1.07158855571141,1.07210210680742,1.08269409816262,1.08230893484061,1.07687079555608,1.07678826055851,1.07527511893634,1.07559608837134,1.07625636835193,1.07565111170306,1.07626553890721,1.07696250110894,1.07665987278451,1.07811799107496,1.07719176499109,1.19459321376104,1.08614222695012,1.08576623418339,1.08548194696953,1.08259322205448,1.08310677315049,1.08239146983819,1.08251985761219,1.08454655033037,1.08940694463189,1.08447318588808,1.08389544090507,1.10334618866644,1.09976050154966,1.10241079202728,1.16830123175639,1.10264922646472,1.10352042921688,1.10546458693748,1.10599647914407,1.1055196102692,1.1057121919302,1.13755235988281,1.10603316136521,1.16164340861884,1.15077630060506,1.13017923343295,1.14092712422802,1.1616709202847,1.16132243918383,1.16486227352419,1.14280708806162,1.14511806799367,1.14570498353196,1.15977261534052,1.15159248002551,1.16831957286697,1.1685580073044,1.18556938735972,1.1829190968821,1.18270817411053,1.18370776463669,1.18138761414936,1.18186448302422,1.17649970818198,1.2930758069762,1.26892973490845,1.25793423912067,1.20933029610546,1.21036656885277,1.21256750212138,1.19892171585598,1.19742691534438,1.18808211950806,1.1866240012176,1.19086996831497,1.18206623524051,1.18168107191851,1.17760017481629,1.1766831192877,1.17516997766553,1.17575689320382,1.17327167272135,1.17959018531332,1.18340513631225
1.1035662819933,1.1053912224952,1.12619004188359,1.23001906883043,1.2503777015651,1.12682281019832,1.13085785452411,1.15141823947507,1.1076655202061,1.14044108479786,1.139900022036,1.24236263624523,1.24272945845667,1.27379929976526,1.14741070681514,1.15025357895377,1.15140906891979,1.16892482951584,1.11429583167779,1.11599238440568,1.12117374814221,1.12231089699766,1.12397993805969,1.12075190259906,1.1183217054483,1.11849594599873,1.12558478523472,1.12474109414842,1.12372316251169,1.11898198542888,1.1512073167035,1.17244632274562,1.17505993100209,1.16638458570164,1.10829828852082,1.16853049563854,1.36555070540058,1.16964013282813,1.17563767598511,1.19772037311353,1.14401760135936,1.12420003138655,1.05884148386402,1.12992245788495,1.03736404338447,0.993675518002498,0.995638016833678,0.996270785148404,1.46064019315996,1.05149586908003,1.0111545963774,1.01136551914898,1.01415336795589,1.01742725619295,1.01810587728411,1.03910644888879,1.02224179771804,1.02260861992948,1.02314051213606,1.0141441974006,1.16411945854603,1.03326480517168,1.03274208352038,1.04281135322429,1.03177000466008,1.0325403313041,1.03268706018867,1.03193507465523,1.03183419854708,1.0327329129651,1.03841865724235,1.0382535872472,1.04049120273696,1.03984009331166,1.04081217217197,1.04259125989743,1.0448838987189,1.04613109423778,1.04440702984404,1.05247711849562,1.06247302375724,1.0537243140145,1.0539168956755,1.05310071625506,1.05202776128661,1.05373348456978,1.05830959165744,1.05855719665016,1.05838295609973,1.06084983547163,1.0635368081704,1.06894743578907,1.06976361520952,1.17085981668116,1.08019053656957,1.0814102204226,1.07976869102642,1.07426635785489,1.07388119453288,1.0738078300906,1.07227634735785,1.07228551791314,1.07986039657928,1.08306092037406,1.08586711029154,1.07628388001778,1.07690747777723,1.07611881002264,1.07505502560948,1.13731392544538,1.0898563018409,1.08688504192827,1.08352861869364,1.08577540473868,1.08149275542017,1.08183206596575,1.0825106870569,1.08398714645793,1.08525268308738,1.08636232027698,1.23165142767132,1.09509268890914,1.09853164714135,1.0980456077112,1.10131949594826,1.10212650481342,1.10505191194962,1.10763800854024,1.13154564617055,1.11152632398146,1.11174641730832,1.24600334669373,1.13312298167973,1.12892286735879,1.16375263633459,1.15878219536964,1.16068967086911,1.1377541120991,1.13748816599581,1.16553172406006,1.17203364775775,1.14549406076039,1.14789674624529,1.15918569980222,1.15843371426878,1.17031875391929,1.17218954719761,1.17938843309703,1.18127756748593,1.18014958918576,1.23475107535795,1.22967975828485,1.18413878073513,1.1868165828786,1.19466657820333,1.2314038226786,1.20127854856445,1.19947194917313,1.20164537077589,1.20193882854504,1.18752271563562,1.18641307844603,1.18548685236215,1.18432219184084,1.18293743799267,1.17970023197675,1.18341430686754,1.17580274598025,1.17451886824023,1.17515163655495,1.18484491349214,1.18404707518227
1.20964209498518,1.15628780433188,1.21662088755774,1.23266018875276,1.2570080130368,1.25885129464926,1.12487865247771,1.23509955645881,1.10226406314271,1.10795897797525,1.15617775766845,1.27578013970701,1.14032186757915,1.15990100311452,1.15554498935372,1.3110134131154,1.14099131811502,1.11557053886253,1.11546966275439,1.11670768771798,1.37522564122719,1.24362817287469,1.24891958327464,1.26791180327172,1.24639768057103,1.11513035220881,1.13055522619968,1.12664856964789,1.12652935242917,1.12701539185932,1.15585678823344,1.17188691887318,1.16517407240391,1.1140298855745,1.11435085500951,1.11532293386981,1.11572643830239,1.11415827334851,1.11481855332909,1.12441095415813,1.16600859293492,1.21909693748493,1.10783059020124,1.05161508629874,1.04651625755979,1.00128707888979,1.05496233897809,1.07909006993527,1.09953123766751,1.09907270990322,1.01186072913442,1.01244764467271,1.01443765516975,1.01478613627061,1.01658356510665,1.01904127392327,1.0207745088723,1.02085704386987,1.02117801330488,1.01628093678221,1.01605167290007,1.03479628790442,1.19428141488132,1.02692795146913,1.03584173120701,1.03206346242923,1.03207263298451,1.03242111408538,1.03352158071969,1.03513559845,1.03530983900043,1.03776754781705,1.03670376340389,1.0387121150115,1.04009686885967,1.04281135322429,1.04776345307867,1.04813944584539,1.04859797360969,1.05286228181762,1.05769516445329,1.05397191900722,1.05435708232922,1.05403611289422,1.05418284177879,1.05420118288936,1.06023540826748,1.05965766328447,1.05829125054687,1.05988692716662,1.06211537210109,1.06811291525806,1.06728756528233,1.09277253842181,1.19164946551427,1.07981454380285,1.08093335154773,1.07135929182926,1.07593539891692,1.07584369336406,1.07004790242338,1.06996536742581,1.07201957180985,1.08295087371063,1.0994120204488,1.07778785108467,1.07637558557064,1.07518341338348,1.07187284292527,1.07356939565316,1.12360394529297,1.14757577681029,1.14500802133024,1.08330852536678,1.08549111752482,1.08704094136813,1.08375788257578,1.08283165649191,1.08380373535221,1.08788463245443,1.09084672181178,1.09929280323008,1.09852247658607,1.09892598101865,1.09797224326891,1.09788053771605,1.0986967171365,1.10172300038084,1.10521698194476,1.10540039305048,1.10759215576381,1.10921534404941,1.11494694110309,1.11847760488816,1.11582731441054,1.11498362332424,1.11555219775196,1.13056439675496,1.12762981906348,1.13367321499688,1.13985416925957,1.16772348677338,1.16908989951098,1.15995602644624,1.15612273433673,1.16954842727528,1.16886980618412,1.16907155840041,1.17808621424644,1.17122663889259,1.17423458102637,1.22843256276597,1.22572724895663,1.23579651866054,1.23158723378431,1.24777326386391,1.19746359756552,1.19959116639185,1.19731686868095,1.19916015029341,1.18733013397461,1.18456062627828,1.18623883789559,1.18555104624915,1.18569777513373,1.18169024247379,1.18183697135837,1.18281822077396,1.17503241933624,1.17568352876154,1.18010373640933,1.18887078726264
1.30596960770816,1.11852345766459,1.11939466041675,1.2397215163229,1.21032988663162,1.19937107306499,1.15992851478038,1.26724235273585,1.11347965225735,1.11402071501922,1.12235674977409,1.12809751738306,1.13310464056915,1.14337566248935,1.13507630995562,1.29525839913424,1.11759723158071,1.11679022271556,1.11177392897418,1.20360786960707,1.10261254424357,1.28453802000504,1.23528296756453,1.12824424626763,1.11278269005562,1.11895447376303,1.11800990656858,1.11856931044102,1.12465855915085,1.12489699358828,1.1523077833378,1.15361917274369,1.13461778219132,1.11159051786846,1.15236280666952,1.17262056329605,1.12041259205348,1.11753303769371,1.11740464991971,1.1514640922515,1.12717129129918,1.18224047579095,1.25758575801981,1.29228713922161,1.03652952285346,1.01320880076144,1.00886195755593,1.01027422306996,1.00911873310393,1.00922877976737,1.01087947971882,1.01072358027896,1.01134717803841,1.0131079246533,1.01304373076629,1.01588660290492,1.02004086444943,1.01991247667543,1.02049939221372,1.01540973403005,1.01533636958777,1.0170696045368,1.03243945519595,1.02920224918003,1.03087129024206,1.03244862575124,1.03193507465523,1.03219185020323,1.03207263298451,1.03332899905868,1.03400762014984,1.03989511664338,1.04106894771997,1.04135323493383,1.04123401771512,1.04147245215255,1.04570924869463,1.04868967916255,1.04795603473967,1.04872636138369,1.06915835856065,1.05507238564152,1.05441210566094,1.0539168956755,1.05251380071676,1.05193605573375,1.05343085624535,1.05478809842766,1.05587939450668,1.05891484830631,1.06195030210594,1.06224375987509,1.06385777760541,1.06803955081577,1.06979112687538,1.08117178598516,1.08070408766558,1.07872324772383,1.08003463712971,1.08448235644337,1.07323008510758,1.07051560074296,1.07066232962754,1.07590788725106,1.07286326289615,1.07408294674917,1.07630222112836,1.07599959280392,1.07076320573568,1.07034136019253,1.07174445515127,1.15621443988959,1.0764672911235,1.08395046423679,1.08280414482605,1.12397076750441,1.09264415064781,1.09245156898681,1.08948030907418,1.08563784640939,1.08594047473383,1.08950782074004,1.09221313454937,1.102786784794,1.1050610825049,1.10001727709767,1.09922860934308,1.10032907597739,1.10210816370285,1.10374969309902,1.10457504307475,1.10784893131181,1.10754630298738,1.11122369565702,1.11496528221366,1.11422246723551,1.13119716506969,1.1278132301692,1.13124301784612,1.13448022386204,1.16859468952554,1.14197256753061,1.14693383794027,1.15951583979251,1.16140497418141,1.17787529147486,1.16479807963719,1.16555006517063,1.17600449819654,1.21901440248736,1.16852132508326,1.16942003950127,1.22583729562006,1.22768057723253,1.21950044191751,1.24281199345424,1.2542751875616,1.25477039754704,1.19529934651805,1.19350191768202,1.20277334907605,1.18877908170978,1.18843977116421,1.18834806561135,1.19020968833438,1.19046646388239,1.18090157471921,1.18060811695006,1.177719392035,1.18197452968766,1.18095659805092,1.19551026928963
1.19375869323002,1.4600991303981,1.49059122672368,1.24291286956239,1.2429036990071,1.19034724666367,1.28001693624909,1.25786087467839,1.34550387154563,1.12784074183505,1.23935469411146,1.12386072084098,1.12353058085069,1.12307205308639,1.12091697259421,1.12142135313493,1.15683803764903,1.20004969415614,1.37592260342892,1.10386891031774,1.09861418213892,1.09762376216805,1.09843077103321,1.13135306450955,1.13691959156808,1.2646104033688,1.11987152929162,1.11870686877031,1.1205960031592,1.14783255235829,1.11529542220396,1.17506910155738,1.19389625155931,1.09637656664917,1.17505076044681,1.20389215682093,1.18231384023323,1.16521075462505,1.29178275868089,1.18013124807519,1.16332162023616,1.21053163884791,1.21571300258444,1.26641700276012,1.35516963681695,1.05923581774132,1.01029256418053,1.01063187472611,1.01070523916839,1.00976984252923,1.01178736469213,1.00908205088279,1.01025588195938,1.01146639525712,1.01472194238361,1.01683117009937,1.110068205691,1.02293875991977,1.01678531732294,1.0178491017361,1.01810587728411,1.02209506883347,1.02422263765979,1.03049529747534,1.03056866191763,1.03318227017411,1.03207263298451,1.03184336910237,1.03190756298937,1.03318227017411,1.03431024847427,1.03608016564445,1.04274715933729,1.0446913170579,1.04459961150504,1.04478302261076,1.04555334925477,1.04785515863153,1.04752501864124,1.04788267029739,1.05498068008867,1.05445795843737,1.05382519012264,1.05363260846164,1.05354090290878,1.05483395120409,1.05552174285053,1.05516409119438,1.05569598340096,1.0584012972103,1.0596393221739,1.06182191433194,1.06465561591528,1.22007818690052,1.07563277059249,1.19051231665882,1.23160557489489,1.08263907483091,1.08176787207875,1.08260239260976,1.08066740544444,1.07843896050997,1.07734766443095,1.07194620736756,1.07151519126912,1.07182699014884,1.07114836905769,1.07249644068471,1.07307418566772,1.07450479229232,1.07569696447949,1.07564194114777,1.07737517609681,1.07996127268743,1.08042897100701,1.08003463712971,1.08273995093905,1.12809751738306,1.08587628084682,1.08557365252239,1.08528019475324,1.0866099252697,1.08873749409602,1.26373003006136,1.26231776454733,1.10250249758014,1.10034741708796,1.09933865600651,1.09889846935279,1.14555825464739,1.10541873416105,1.1040248097576,1.10550126915863,1.10866511073226,1.10937124348927,1.1115630062026,1.11163637064489,1.1214396942455,1.14099131811502,1.13214173226413,1.13240767836743,1.16190018416684,1.18658731899646,1.15118897559293,1.15318815664525,1.15442618160885,1.15627863377659,1.15856210204278,1.15865380759564,1.15851624926635,1.21442912484442,1.21594226646659,1.15956169256894,1.16203774249613,1.16157004417655,1.16737500567252,1.24548979559772,1.24633348668402,1.23381567871879,1.2069642928417,1.20101260246116,1.20194799910032,1.19057651054582,1.18989788945466,1.19214467549971,1.19256652104286,1.18419380406684,1.1844780912807,1.18145180803636,1.17915916921489,1.1790216108856,1.18461564960999
