1.03628, 1.03635, 1.04354, 1.13284, 1.13642, 1.13665, 1.1429, 1.13133, 1.04368, 1.16285, 1.20793, 1.20774, 1.26872, 1.27137, 1.27166, 1.13918, 1.15758, 0.970838, 1.28196, 1.05591, 1.05731, 1.06509, 1.07431, 1.07465, 1.0809, 1.08829, 1.09838, 1.1195, 1.12539, 1.12647, 1.06433, 1.04631, 1.07531, 1.0066, 1.05022, 1.06044, 1.07612, 1.07442, 1.07447, 1.10036, 1.27345, 1.01525, 1.13181, 1.09134, 1.11015, 0.928771, 0.93159, 1.10425, 0.983732, 1.08856, 0.986225, 1.14204, 1.10623, 0.976428, 0.975383, 0.986956, 0.90439, 0.9071, 0.916122, 0.947879, 0.974604, 0.987694, 1.02023, 1.07067, 1.11724, 1.11846, 1.14653, 1.25359, 1.24623, 1.26925, 1.30833, 1.27543, 1.27574, 1.29358, 1.29863, 1.29128, 1.28497, 1.32587, 1.3049, 1.30583, 1.30935, 1.34112, 1.36132, 1.38322, 1.40218, 1.39555, 1.39558, 1.41033, 1.41261, 1.49678, 1.49594, 1.46445, 1.48834, 1.48867, 1.49486, 1.49419, 1.50188, 1.56284, 1.56499, 1.61061, 1.69701, 1.55389, 1.53793, 1.55418, 1.55484, 1.59995, 1.61268, 1.68844, 1.61381, 1.61396, 1.64499, 1.65775, 1.76464, 1.6886, 1.67901, 1.66436, 1.66305, 1.66271, 1.73083, 1.7374, 1.6807, 1.69287, 1.68996, 1.71784, 1.80347, 1.71944, 1.71483, 1.71669, 1.94876, 1.93184, 1.68257, 1.67707, 1.5849, 1.58365, 1.58405, 1.58648, 1.58539, 1.624, 1.57306, 1.57141, 1.57094, 1.55529, 1.5266, 1.46498, 1.46819, 1.43226, 1.44111, 1.43972, 1.41947, 1.41849, 1.50818, 1.5079, 1.45336, 1.38409, 1.33208, 1.32005, 1.30333, 1.28127, 1.26729, 1.26782, 1.25424, 1.25036, 1.23304, 1.24997, 1.19719, 1.18835, 1.16756, 1.13602, 1.11726, 1.13362, 1.08042, 1.11412, 1.06426, 1.06993, 1.09197, 1.06239, 1.06327, 1.05901, 1.0716, 1.08973, 1.09352, 1.09461, 1.09656, 1.32653, 1.21191, 1.17593, 1.12937, 1.26406, 1.42722, 1.30143, 1.18488, 1.18447, 1.18419, 1.18489, 1.23728, 1.24322, 1.17109, 1.17386, 1.17989, 1.18083, 1.18241, 1.18376, 1.18241, 1.18013, 1.17811, 1.17739, 1.1781, 1.18109, 1.18047, 1.22705, 1.18585, 1.18761, 1.24665, 1.17898, 1.1767, 1.18264, 1.19218, 1.19844, 1.21046, 1.23967, 1.23595, 1.24627, 1.24473, 1.246, 1.27639, 1.33646, 1.33721, 1.28494, 1.28471, 1.28534, 1.42366, 1.42352, 1.24671, 1.35537, 1.41536, 1.23205, 1.23344, 1.23395, 1.23547, 1.226
1.04005, 1.04212, 1.04127, 1.13683, 1.02639, 1.0479, 1.10147, 1.02587, 1.1628, 1.01911, 1.14734, 1.06466, 1.04202, 1.03878, 1.03765, 1.03481, 0.926041, 1.0154, 1.25413, 1.01906, 1.24233, 1.08583, 1.08554, 1.08902, 1.0674, 1.06547, 1.10702, 1.113, 1.26547, 1.07007, 1.06384, 1.06831, 1.06642, 1.12314, 1.11962, 1.11844, 1.12176, 1.22796, 1.00734, 1.17511, 1.06561, 1.07525, 0.985575, 1.10878, 1.08939, 0.973911, 0.986321, 1.109, 1.0845, 1.09295, 0.991099, 0.967883, 0.873327, 0.867085, 0.869247, 0.866443, 0.902478, 0.873924, 0.922846, 0.923397, 0.966077, 0.98075, 1.01612, 1.03719, 1.11011, 1.12974, 1.20101, 1.24007, 1.30033, 1.3, 1.30184, 1.31337, 1.3669, 1.33378, 1.32332, 1.30336, 1.31093, 1.31538, 1.3275, 1.35088, 1.34091, 1.36181, 1.36171, 1.3713, 1.36967, 1.38514, 1.38609, 1.38484, 1.40926, 1.41442, 1.45828, 1.46604, 1.48802, 1.50921, 1.51015, 1.51374, 1.5441, 1.56085, 1.55818, 1.56431, 1.68116, 1.61776, 1.56121, 1.5616, 1.56122, 1.62347, 1.60609, 1.60528, 1.60193, 1.60552, 1.62173, 1.65546, 1.64871, 1.68193, 1.66607, 1.67157, 1.68426, 1.68569, 1.69809, 1.699, 1.72351, 1.68637, 1.68385, 1.78229, 1.69337, 1.69533, 1.71151, 1.79939, 1.71631, 1.71615, 1.7281, 1.66163, 1.64083, 1.60555, 1.61106, 1.58844, 1.60001, 1.649, 1.62086, 1.56885, 1.56958, 1.52188, 1.50565, 1.46004, 1.48586, 1.45793, 1.47822, 1.53361, 1.443, 1.4586, 1.40968, 1.41693, 1.46132, 1.39114, 1.37265, 1.31255, 1.27741, 1.27727, 1.27293, 1.2564, 1.25657, 1.23251, 1.23263, 1.22334, 1.20587, 1.20327, 1.16978, 1.17346, 1.14057, 1.12345, 1.09412, 1.06913, 1.06699, 1.06735, 1.06292, 1.09549, 1.08458, 1.1003, 1.08682, 1.07729, 1.14643, 1.27087, 1.09383, 1.09413, 1.18522, 1.18645, 1.18108, 1.13239, 1.36393, 1.43002, 1.43017, 1.15584, 1.16043, 1.3001, 1.19591, 1.1699, 1.2006, 1.17263, 1.22722, 1.28607, 1.34067, 1.3639, 1.3649, 1.27409, 1.20302, 1.17428, 1.1749, 1.1803, 1.18092, 1.18084, 1.22896, 1.18673, 1.18643, 1.18398, 1.18075, 1.29414, 1.19943, 1.2041, 1.21696, 1.2228, 1.22873, 1.2318, 1.31953, 1.24058, 1.52535, 1.26767, 1.27179, 1.28809, 1.28885, 1.28875, 1.29169, 1.48163, 1.2459, 1.23956, 1.2403, 1.23981, 1.2364, 1.22938, 1.23004, 1.2297
1.14457, 1.14499, 1.17438, 1.21361, 1.14808, 1.1491, 1.15015, 1.15298, 1.09916, 1.09904, 1.05812, 1.0534, 0.999347, 1.00674, 1.0359, 0.925217, 0.925154, 1.17665, 1.00724, 1.29722, 0.88674, 0.876239, 0.874141, 1.0126, 1.02328, 1.0129, 1.06355, 1.10482, 1.08503, 1.07138, 1.07261, 1.04587, 1.00597, 1.05044, 1.09113, 1.20481, 1.03288, 1.03392, 1.2362, 1.02398, 1.01975, 1.0806, 1.09633, 1.08806, 0.871591, 0.879765, 1.11905, 0.945368, 0.895312, 0.869484, 0.86794, 0.960125, 0.86438, 0.866549, 0.871089, 0.873492, 0.898737, 0.918099, 0.923331, 0.950264, 0.997472, 0.986922, 1.01974, 1.08726, 1.09078, 1.1515, 1.17055, 1.21656, 1.22638, 1.31631, 1.46088, 1.33398, 1.334, 1.33994, 1.33454, 1.32998, 1.34013, 1.38809, 1.36079, 1.36529, 1.36162, 1.35867, 1.4175, 1.41809, 1.4951, 1.40286, 1.4046, 1.43174, 1.4331, 1.44056, 1.49337, 1.48233, 1.48884, 1.49178, 1.4857, 1.53333, 1.67904, 1.62654, 1.55466, 1.55472, 1.56446, 1.56345, 1.55895, 1.56825, 1.5694, 1.62995, 1.60558, 1.60542, 1.60277, 1.60798, 1.61786, 1.64741, 1.64771, 1.659, 1.71097, 1.72418, 1.76201, 1.72235, 1.72257, 1.74744, 1.75122, 1.68489, 1.68506, 1.68386, 1.71083, 1.74123, 1.74078, 1.73859, 1.81423, 1.74852, 1.82329, 1.74933, 1.74277, 1.66157, 1.62975, 1.61211, 1.62697, 1.68408, 1.6427, 1.63994, 1.63753, 1.55173, 1.5604, 1.54573, 1.57178, 1.48512, 1.5409, 1.46219, 1.43157, 1.41306, 1.4567, 1.45124, 1.41238, 1.34188, 1.34324, 1.31661, 1.31644, 1.28228, 1.2899, 1.28273, 1.28272, 1.27144, 1.25789, 1.30116, 1.2379, 1.27481, 1.24036, 1.19265, 1.16051, 1.11184, 1.1001, 1.09914, 1.08533, 1.06342, 1.04935, 1.05623, 1.05816, 1.0672, 1.09829, 1.08306, 1.08052, 1.07352, 1.24066, 1.09369, 1.09474, 1.18607, 1.23953, 1.19424, 1.21058, 1.12382, 1.12282, 1.18847, 1.27472, 1.18509, 1.16759, 1.1686, 1.27763, 1.16127, 1.16038, 1.16497, 1.16564, 1.32279, 1.19149, 1.19778, 1.19916, 1.16664, 1.1671, 1.22416, 1.18062, 1.18021, 1.23354, 1.22582, 1.18923, 1.19121, 1.22981, 1.23289, 1.22605, 1.20666, 1.21561, 1.22285, 1.22343, 1.22978, 1.23286, 1.43441, 1.26338, 1.28859, 1.27516, 1.27482, 1.28368, 1.28382, 1.36069, 1.42016, 1.24473, 1.23586, 1.23566, 1.24193, 1.24013, 1.23339, 1.22954, 1.22922
1.34855, 1.14251, 1.11786, 1.07943, 1.10278, 1.0924, 1.15313, 1.09197, 1.10584, 1.11298, 1.26877, 0.99017, 0.928715, 0.925458, 0.923746, 0.923837, 0.916838, 0.913326, 0.912754, 1.01202, 1.0385, 1.03887, 1.01229, 0.860119, 0.856469, 1.06482, 1.08493, 0.858935, 0.857821, 1.0615, 0.875605, 1.04046, 1.20421, 1.14603, 1.02579, 1.02593, 0.99198, 1.03979, 0.942637, 0.942357, 1.07447, 1.01161, 1.00934, 0.870822, 0.871231, 1.16385, 0.871368, 0.868706, 0.929784, 0.95032, 0.959396, 0.879676, 0.895741, 0.883683, 0.926452, 0.928089, 0.917727, 0.912085, 0.932017, 0.99533, 0.990374, 1.02594, 1.03022, 1.06854, 1.11579, 1.14417, 1.15437, 1.21146, 1.23407, 1.45438, 1.45166, 1.32724, 1.3479, 1.36161, 1.38652, 1.42939, 1.38402, 1.38452, 1.37362, 1.43267, 1.45588, 1.45631, 1.45648, 1.46391, 1.46036, 1.47841, 1.45407, 1.43421, 1.53794, 1.5274, 1.50017, 1.50179, 1.5682, 1.57598, 1.58629, 1.58366, 1.57101, 1.57287, 1.56273, 1.57223, 1.56408, 1.58499, 1.58485, 1.60158, 1.69636, 1.60422, 1.60371, 1.63343, 1.67244, 1.7214, 1.64216, 1.64151, 1.68073, 1.73195, 1.73387, 1.72677, 1.72676, 1.72317, 1.723, 1.72396, 1.72364, 1.72496, 1.82835, 1.70598, 1.70559, 1.71442, 1.81003, 1.81109, 1.82537, 1.95943, 1.83131, 1.8309, 1.73044, 1.72393, 1.67499, 1.62039, 1.62319, 1.62224, 1.62313, 1.65048, 1.64864, 1.56891, 1.581, 1.5901, 1.53187, 1.53079, 1.48637, 1.51767, 1.4369, 1.42259, 1.42445, 1.40322, 1.38143, 1.40582, 1.35394, 1.34764, 1.34458, 1.31552, 1.27983, 1.28901, 1.34737, 1.34732, 1.33466, 1.33254, 1.29627, 1.25151, 1.27359, 1.20444, 1.23339, 1.18753, 1.12448, 1.11532, 1.06784, 1.05994, 1.07273, 1.05493, 1.05592, 1.06115, 1.06269, 1.06428, 1.08092, 1.07668, 1.07378, 1.07489, 1.08786, 1.18584, 1.34676, 1.25667, 1.25537, 1.20992, 1.12014, 1.38439, 1.14365, 1.34719, 1.13615, 1.32186, 1.2082, 1.16833, 1.18552, 1.15906, 1.18126, 1.37177, 1.32125, 1.32068, 1.15795, 1.20964, 1.19694, 1.23005, 1.21621, 1.17428, 1.17538, 1.178, 1.19425, 1.19326, 1.20241, 1.22508, 1.22248, 1.21333, 1.22436, 1.23293, 1.38246, 1.27142, 1.23437, 1.2991, 1.27468, 1.27427, 1.28405, 1.2849, 1.34012, 1.3347, 1.37417, 1.42067, 1.28586, 1.23793, 1.23928, 1.23572, 1.23328, 1.23524, 1.25745, 1.33628
1.28963, 1.35053, 1.06505, 1.06811, 1.36369, 1.0855, 1.16682, 1.10173, 1.1196, 1.27556, 1.03552, 0.928561, 0.927154, 0.925407, 0.925912, 1.18281, 0.915999, 1.03237, 0.91467, 0.946262, 1.05678, 1.07127, 1.06601, 0.935677, 0.964077, 0.854393, 0.854289, 0.85387, 0.856516, 0.857903, 0.866053, 1.01655, 1.14437, 0.984709, 1.04185, 1.04712, 1.00982, 1.03358, 0.987673, 0.918315, 0.902397, 1.02213, 1.03619, 0.866738, 0.865926, 0.8637, 0.863666, 0.863854, 0.932359, 0.932422, 0.967312, 0.881604, 0.854798, 0.829512, 0.846254, 0.853227, 0.89085, 0.900398, 0.967957, 1.01588, 1.0539, 1.07077, 1.10996, 1.10949, 1.14745, 1.1469, 1.17411, 1.28899, 1.21815, 1.27172, 1.32756, 1.3341, 1.32624, 1.33708, 1.36069, 1.37196, 1.37379, 1.37247, 1.39331, 1.4609, 1.45517, 1.45532, 1.4615, 1.49709, 1.48323, 1.46852, 1.47429, 1.58314, 1.53986, 1.50808, 1.58377, 1.64633, 1.65323, 1.61032, 1.59802, 1.59781, 1.62828, 1.62646, 1.67573, 1.59033, 1.5988, 1.58051, 1.58025, 1.64044, 1.6173, 1.68281, 1.68788, 1.63691, 1.67462, 1.6418, 1.64123, 1.65758, 1.65682, 1.76269, 1.76525, 1.757, 1.71886, 1.70599, 1.70507, 1.72401, 1.79236, 1.73052, 1.74171, 1.70589, 1.69774, 1.70279, 1.77017, 1.75536, 1.84193, 1.83156, 1.83297, 1.82984, 1.95164, 1.70535, 1.68295, 1.61448, 1.61912, 1.62456, 1.60661, 1.61596, 1.61346, 1.54864, 1.54902, 1.58138, 1.51955, 1.53148, 1.55857, 1.55146, 1.46518, 1.41634, 1.39887, 1.38979, 1.39251, 1.46233, 1.45869, 1.48235, 1.48144, 1.39272, 1.38275, 1.4071, 1.38265, 1.34682, 1.33467, 1.2745, 1.27289, 1.24464, 1.19536, 1.27799, 1.20534, 1.14905, 1.12156, 1.07717, 1.07571, 1.07266, 1.06222, 1.0709, 1.05727, 1.05648, 1.06044, 1.06718, 1.08127, 1.06999, 1.06788, 1.06783, 1.32525, 1.115, 1.08777, 1.09523, 1.23321, 1.23484, 1.11538, 1.12957, 1.13841, 1.14074, 1.15094, 1.16368, 1.21014, 1.19069, 1.15154, 1.15193, 1.15008, 1.62559, 1.40878, 1.21193, 1.21289, 1.21435, 1.22397, 1.22611, 1.23819, 1.24006, 1.22674, 1.2336, 1.21267, 1.21831, 1.18088, 1.21623, 1.24006, 1.20961, 1.23399, 1.23682, 1.2409, 1.24422, 1.25926, 1.26576, 1.2917, 1.32076, 1.29512, 1.29428, 1.30096, 1.30373, 1.31194, 1.38133, 1.36388, 1.23446, 1.23341, 1.23287, 1.23221, 1.23643, 1.38093, 1.38135
1.29218, 1.15381, 1.06823, 1.06752, 1.09416, 1.03606, 1.11365, 1.09876, 1.10994, 1.01854, 0.930047, 0.928571, 0.928444, 0.925965, 0.931912, 0.932381, 0.925365, 0.924723, 1.18739, 0.913051, 1.03729, 1.06078, 1.06155, 0.887003, 1.73434, 0.856236, 0.918984, 0.844139, 1.02515, 1.12971, 0.852191, 1.05685, 1.13592, 1.13853, 1.13826, 1.05053, 0.832887, 0.833041, 0.932332, 0.900954, 0.902013, 0.901395, 1.00756, 1.08128, 0.854482, 0.861153, 0.960517, 0.856691, 1.06187, 0.836867, 0.83688, 0.86032, 0.830524, 0.853041, 0.828913, 0.856915, 0.881843, 0.954462, 0.977268, 1.03321, 1.06477, 1.05823, 1.08585, 1.13363, 1.16158, 1.19483, 1.18799, 1.32041, 1.25137, 1.26359, 1.29066, 1.28558, 1.2958, 1.31897, 1.34276, 1.33785, 1.34316, 1.35142, 1.41943, 1.37962, 1.44576, 1.44193, 1.50291, 1.4526, 1.4519, 1.52555, 1.48803, 1.4982, 1.49762, 1.50917, 1.50913, 1.53867, 1.71054, 1.60424, 1.60192, 1.60109, 1.59802, 1.61562, 1.60433, 1.62405, 1.59521, 1.58561, 1.59571, 1.58396, 1.63497, 1.64135, 1.6333, 1.63124, 1.63288, 1.65942, 1.65883, 1.67806, 1.68886, 1.66669, 1.70711, 1.7077, 1.70624, 1.70681, 1.70618, 1.70659, 1.79121, 1.71695, 1.76529, 1.69944, 1.69803, 1.77629, 1.75789, 1.77589, 1.77674, 1.82181, 1.82406, 1.81543, 1.67629, 1.65918, 1.63626, 1.61778, 1.61683, 1.61819, 1.58608, 1.56867, 1.56805, 1.53795, 1.53787, 1.60592, 1.54839, 1.57155, 1.47932, 1.55302, 1.50226, 1.42373, 1.44785, 1.44023, 1.43795, 1.43906, 1.43722, 1.43442, 1.44564, 1.36795, 1.36725, 1.39586, 1.27901, 1.25852, 1.23438, 1.22404, 1.19268, 1.16518, 1.16197, 1.18886, 1.20057, 1.1323, 1.12145, 1.08931, 1.06839, 1.06731, 1.0504, 1.05936, 1.06009, 1.05622, 1.05697, 1.07577, 1.12695, 1.06667, 1.06212, 1.06324, 1.07017, 1.19507, 1.08431, 1.08097, 1.24726, 1.12359, 1.11846, 1.12231, 1.13272, 1.13847, 1.14035, 1.18149, 1.17438, 1.18806, 1.18174, 1.20631, 1.18528, 1.19482, 1.36899, 1.39151, 1.23553, 1.22648, 1.21975, 1.23209, 1.23552, 1.2306, 1.23399, 1.2359, 1.2226, 1.24454, 1.24361, 1.17232, 1.17488, 1.17958, 1.18187, 1.18387, 1.18466, 1.18629, 1.19035, 1.19056, 1.32746, 1.28563, 1.28963, 1.29563, 1.2948, 1.30222, 1.24441, 1.24662, 1.31729, 1.23115, 1.23203, 1.23112, 1.2291, 1.32327, 1.33923, 1.39283
0.99445, 1.12649, 1.12547, 1.12684, 1.09863, 1.0987, 1.11566, 1.10545, 0.978263, 0.970676, 0.924186, 0.925429, 0.926961, 0.929484, 0.930344, 0.932842, 0.932649, 0.921543, 1.0188, 0.932936, 1.08523, 1.20126, 0.922297, 0.974141, 0.992675, 0.992828, 0.89295, 0.955137, 0.839087, 0.840485, 0.84318, 0.845268, 0.84529, 0.843434, 0.834052, 1.04633, 1.04509, 0.827077, 0.828181, 0.827738, 1.08764, 1.03546, 1.0015, 0.953324, 0.850675, 0.84891, 0.849726, 0.991518, 0.840201, 0.83792, 0.887418, 0.815877, 0.857563, 0.811746, 0.864089, 0.86316, 0.904714, 0.999335, 0.980553, 0.977091, 1.04755, 1.07428, 1.11277, 1.2036, 1.20245, 1.26148, 1.26685, 1.29873, 1.27569, 1.32662, 1.28064, 1.29653, 1.28819, 1.29776, 1.29814, 1.30852, 1.30829, 1.37384, 1.33904, 1.3451, 1.36089, 1.43649, 1.41018, 1.44428, 1.48638, 1.47681, 1.47496, 1.4921, 1.50454, 1.50045, 1.4999, 1.5299, 1.54448, 1.59941, 1.60536, 1.64097, 1.59267, 1.65768, 1.62995, 1.62313, 1.62241, 1.65874, 1.60897, 1.58929, 1.61777, 1.6267, 1.61839, 1.64409, 1.65081, 1.65061, 1.71244, 1.68954, 1.6889, 1.69421, 1.68024, 1.6804, 1.68397, 1.70113, 1.71464, 1.79895, 1.72415, 1.78635, 1.80306, 1.69041, 1.69058, 1.69066, 1.68826, 1.68778, 1.76949, 1.71083, 1.71013, 1.87841, 1.68131, 1.68198, 1.64985, 1.63716, 1.6366, 1.61074, 1.58724, 1.58218, 1.58325, 1.54713, 1.5385, 1.54741, 1.52309, 1.5066, 1.55803, 1.54132, 1.47783, 1.44325, 1.4158, 1.40451, 1.45449, 1.43701, 1.43139, 1.39009, 1.35422, 1.31988, 1.30843, 1.25824, 1.32546, 1.22562, 1.20923, 1.20282, 1.17943, 1.16429, 1.1609, 1.13725, 1.12599, 1.12711, 1.10613, 1.14614, 1.10888, 1.05532, 1.03611, 1.07588, 1.08143, 1.09866, 1.06105, 1.05008, 1.05278, 1.07171, 1.0596, 1.06174, 1.06309, 1.07091, 1.0772, 1.08265, 1.08957, 1.09062, 1.09105, 1.11944, 1.11685, 1.13377, 1.13664, 1.13657, 1.13934, 1.20107, 1.16746, 1.15059, 1.19126, 1.19105, 1.20169, 1.13462, 1.13939, 1.15813, 1.22104, 1.23578, 1.22059, 1.23627, 1.23655, 1.22582, 1.19122, 1.16062, 1.16028, 1.17116, 1.17497, 1.17521, 1.18135, 1.18439, 1.18782, 1.18996, 1.19347, 1.19358, 1.20298, 1.20235, 1.20776, 1.21485, 1.30007, 1.30409, 1.30321, 1.31681, 1.23819, 1.22768, 1.23419, 1.23538, 1.22934, 1.23027, 1.24811, 1.34958
0.958056, 0.958172, 0.956992, 0.952985, 1.08868, 1.08985, 0.945294, 0.944061, 0.943371, 0.941512, 0.92015, 0.920464, 0.922688, 0.960317, 0.950714, 0.937301, 1.20929, 0.938949, 1.12097, 0.946163, 0.933114, 0.950489, 1.2649, 0.972381, 0.986387, 0.974743, 0.980266, 1.01502, 0.95659, 0.84319, 0.842701, 0.8419, 0.84052, 1.05362, 1.04638, 0.817642, 0.825197, 0.824813, 0.824783, 0.827208, 0.826624, 0.919114, 1.05275, 0.934774, 0.947208, 0.83717, 0.837566, 0.835327, 0.831615, 0.832564, 0.831993, 0.905578, 0.905836, 0.898154, 0.816478, 0.910813, 0.915495, 0.927507, 0.95401, 0.991592, 1.04595, 1.07083, 1.14035, 1.16715, 1.2812, 1.2996, 1.31151, 1.29876, 1.32949, 1.31067, 1.31313, 1.47856, 1.30798, 1.2986, 1.2999, 1.30274, 1.2971, 1.29636, 1.31913, 1.32744, 1.36174, 1.35393, 1.37558, 1.42737, 1.46898, 1.48972, 1.47949, 1.47345, 1.48669, 1.50408, 1.50283, 1.49745, 1.49732, 1.49647, 1.62249, 1.59599, 1.60225, 1.60428, 1.65222, 1.70834, 1.71816, 1.6576, 1.64467, 1.69187, 1.62345, 1.61295, 1.61995, 1.65281, 1.84009, 1.69301, 1.68175, 1.70044, 1.69322, 1.69283, 1.69024, 1.68899, 1.75526, 1.7096, 1.70788, 1.70717, 1.81973, 1.70548, 1.70463, 1.70293, 1.6922, 1.69197, 1.68735, 1.68668, 1.8099, 1.74219, 1.74071, 1.79977, 1.80866, 1.64552, 1.64552, 1.66984, 1.64479, 1.62739, 1.63586, 1.64561, 1.60173, 1.58266, 1.55121, 1.53309, 1.4651, 1.46487, 1.45876, 1.47153, 1.45403, 1.4209, 1.42017, 1.48109, 1.44716, 1.38965, 1.41129, 1.35367, 1.37665, 1.38148, 1.24119, 1.24166, 1.22103, 1.2399, 1.20677, 1.18377, 1.18408, 1.1705, 1.14621, 1.14613, 1.13478, 1.1325, 1.10331, 1.12521, 1.08119, 1.07204, 1.03505, 1.02596, 1.05542, 1.06303, 1.01398, 1.0163, 1.08527, 1.05625, 1.04929, 1.04981, 1.05681, 1.06209, 1.07079, 1.09107, 1.09102, 1.08476, 1.08571, 1.18821, 1.15794, 1.19092, 1.16366, 1.10943, 1.10863, 1.11439, 1.1149, 1.11564, 1.11683, 1.20102, 1.19551, 1.13244, 1.13365, 1.13391, 1.22457, 1.23196, 1.23555, 1.23573, 1.23677, 1.23343, 1.22365, 1.22458, 1.23853, 1.23365, 1.16728, 1.17589, 1.17835, 1.17874, 1.1831, 1.25068, 1.1928, 1.19389, 1.19968, 1.20227, 1.27588, 1.21929, 1.30241, 1.23498, 1.2347, 1.23807, 1.28566, 1.22868, 1.22964, 1.23636, 1.23632, 1.26092, 1.24757, 1.24762
0.954647, 1.10917, 1.21437, 0.947479, 0.94369, 0.943471, 0.942904, 0.942978, 0.942059, 0.94207, 0.942719, 0.935236, 0.951336, 1.13889, 0.941796, 0.942094, 0.942218, 0.940554, 0.938585, 0.933775, 0.933222, 0.934302, 0.940836, 0.940042, 1.2464, 0.96721, 0.966273, 0.971793, 0.988621, 1.00168, 1.00183, 0.841715, 0.838356, 0.83798, 0.837917, 1.19445, 0.825609, 0.825029, 0.825939, 0.826453, 0.824589, 0.823704, 0.846712, 0.845835, 1.03285, 0.82474, 1.07515, 1.07599, 0.829111, 0.829897, 0.830504, 0.829496, 0.899324, 0.910608, 0.907664, 0.845573, 0.961156, 0.909241, 0.964119, 0.964391, 1.01489, 1.13313, 1.14708, 1.25079, 1.20764, 1.30555, 1.26652, 1.30145, 1.29823, 1.35106, 1.3229, 1.33181, 1.32273, 1.31972, 1.33329, 1.32633, 1.32929, 1.32083, 1.33039, 1.33112, 1.38493, 1.35624, 1.39137, 1.43039, 1.46384, 1.46425, 1.49661, 1.51692, 1.52997, 1.50673, 1.56329, 1.51531, 1.51696, 1.62772, 1.62133, 1.61249, 1.61104, 1.62039, 1.66714, 1.66599, 1.65299, 1.65123, 1.65163, 1.6476, 1.62604, 1.62602, 1.62118, 1.62143, 1.65394, 1.7069, 1.76906, 1.7304, 1.70188, 1.68139, 1.7064, 1.70674, 1.69216, 1.69201, 1.70691, 1.70679, 1.71309, 1.70594, 1.70585, 1.70551, 1.7027, 1.70245, 1.76609, 1.78962, 1.78754, 1.80273, 1.74237, 1.74176, 1.73896, 1.7385, 1.69581, 1.69376, 1.8104, 1.84802, 1.73618, 1.72801, 1.69945, 1.66888, 1.55515, 1.51244, 1.46225, 1.46865, 1.43725, 1.50678, 1.50871, 1.4429, 1.41791, 1.42046, 1.45171, 1.39288, 1.37693, 1.3394, 1.31584, 1.31651, 1.30824, 1.36808, 1.2423, 1.24085, 1.23977, 1.1889, 1.18763, 1.19309, 1.17493, 1.14591, 1.14905, 1.12353, 1.11212, 1.12527, 1.0712, 1.04671, 1.03867, 1.03601, 1.03619, 1.07094, 1.02053, 1.02021, 1.05359, 1.0538, 1.04154, 1.04232, 1.04413, 1.05645, 1.06825, 1.08503, 1.11275, 1.09553, 1.09665, 1.11555, 1.18779, 1.1424, 1.14869, 1.20177, 1.20143, 1.11568, 1.17417, 1.11408, 1.11146, 1.11324, 1.11562, 1.12226, 1.12573, 1.21315, 1.21711, 1.22695, 1.164, 1.23843, 1.19518, 1.19899, 1.2481, 1.24754, 1.24297, 1.15866, 1.15797, 1.16141, 1.16783, 1.16882, 1.17231, 1.17387, 1.24742, 1.24358, 1.24577, 1.19788, 1.25304, 1.25343, 1.29581, 1.26938, 1.28155, 1.28212, 1.23259, 1.23101, 1.23142, 1.34128, 1.34459, 1.24482, 1.33577, 1.37904
1.0345, 0.950092, 0.946941, 0.944431, 0.943913, 0.945465, 0.94531, 0.942909, 0.943025, 0.942718, 0.940653, 1.10684, 0.938372, 0.942682, 0.943912, 0.950681, 1.15777, 0.956053, 0.943056, 0.941611, 0.936157, 0.937044, 0.942675, 0.944893, 0.944121, 0.943201, 0.954218, 0.956581, 0.96576, 1.25433, 1.76114, 1.09866, 1.07433, 1.02295, 1.18655, 1.02501, 0.826736, 0.827715, 0.829017, 0.8349, 0.830658, 0.829808, 0.844326, 0.848714, 0.848755, 1.01752, 0.806989, 0.806587, 0.807957, 0.859899, 0.777313, 0.772696, 0.825196, 0.825273, 0.873439, 0.873979, 0.947535, 0.919544, 0.974752, 1.10971, 1.11437, 1.11674, 1.20927, 1.1803, 1.23087, 1.25778, 1.27758, 1.28293, 1.32676, 1.36783, 1.38156, 1.37845, 1.39114, 1.39096, 1.36011, 1.36058, 1.38035, 1.36461, 1.35885, 1.34454, 1.34566, 1.40999, 1.42255, 1.48108, 1.48621, 1.48941, 1.49986, 1.55205, 1.58403, 1.52009, 1.518, 1.54838, 1.55653, 1.59848, 1.59286, 1.63688, 1.62675, 1.66469, 1.65493, 1.64142, 1.64064, 1.64201, 1.69046, 1.65677, 1.65481, 1.62664, 1.62607, 1.66469, 1.668, 1.67663, 1.67621, 1.70596, 1.67184, 1.66377, 1.67867, 1.68579, 1.68581, 1.68854, 1.68852, 1.70311, 1.70629, 1.70059, 1.70091, 1.6995, 1.69966, 1.7024, 1.8747, 1.79595, 0.00465736, 1.85537, 1.90209, 2.03752, 1.87246, 1.87165, 1.689, 1.69538, 1.69568, 1.69599, 1.71919, 1.69749, 1.65318, 1.67639, 1.58848, 1.48835, 1.46289, 1.51582, 1.42783, 1.43647, 1.43148, 1.44254, 1.46114, 1.48881, 1.42571, 1.38182, 1.34816, 1.32791, 1.31496, 1.31815, 1.3173, 1.32152, 1.28143, 1.2551, 1.24645, 1.2361, 1.19463, 1.20944, 1.18015, 1.19131, 1.17058, 1.13048, 1.1069, 1.10855, 1.08506, 1.07797, 1.0754, 1.0769, 1.0903, 1.04473, 1.00893, 1.05208, 1.02289, 1.04988, 1.04916, 1.04963, 1.0905, 1.2445, 1.28414, 1.13351, 1.35333, 1.19508, 1.22046, 1.06139, 1.06235, 1.11344, 1.14473, 1.0776, 1.15869, 1.17115, 1.31182, 1.10667, 1.17834, 1.19179, 1.10909, 1.20037, 1.14903, 1.20872, 1.17758, 1.16462, 1.23338, 1.18098, 1.24724, 1.16919, 1.24483, 1.23323, 1.25808, 1.153, 1.15377, 1.15725, 1.15968, 1.2375, 1.15996, 1.16346, 1.25451, 1.16697, 1.25041, 1.25096, 1.27512, 1.25967, 1.27698, 1.27902, 1.28928, 1.28354, 1.30453, 1.22538, 1.225, 1.21684, 1.21992, 1.35101, 1.34907, 1.33054
0.935378, 0.934808, 1.22407, 1.03939, 0.946093, 0.945355, 0.945108, 0.944882, 0.943129, 0.941174, 0.940299, 0.939543, 0.985413, 1.1289, 0.953804, 0.952985, 0.952619, 0.943464, 0.94389, 0.943797, 0.936922, 0.940592, 0.94074, 0.95015, 0.97006, 0.971372, 0.97636, 0.95184, 0.928613, 0.92876, 1.14278, 1.14064, 1.28878, 1.03619, 1.02389, 1.05906, 1.05739, 0.849812, 0.834909, 0.835113, 0.832406, 0.837497, 0.842469, 0.842515, 0.842751, 1.00126, 1.02878, 0.730206, 0.730004, 0.730054, 0.769739, 0.769307, 0.814525, 0.857459, 0.873884, 0.876578, 0.889482, 0.915617, 0.91121, 0.995563, 1.11526, 1.17018, 1.19834, 1.20806, 1.22619, 1.26059, 1.26068, 1.26796, 1.28558, 1.35731, 1.37839, 1.37605, 1.40986, 1.42015, 1.38756, 1.43857, 1.44017, 1.4402, 1.42615, 1.42657, 1.38815, 1.52008, 1.52724, 1.60764, 1.56443, 1.56412, 1.51384, 1.51399, 1.51983, 1.50895, 1.51069, 1.54802, 1.54517, 1.58324, 1.58061, 1.58821, 1.59861, 1.61415, 1.64669, 1.62791, 1.6424, 1.64403, 1.64534, 1.63098, 1.63007, 1.63169, 1.62083, 1.65662, 1.67368, 1.76128, 1.77564, 1.67517, 1.66939, 1.66937, 1.75816, 1.76164, 1.6918, 1.69011, 1.72836, 1.69277, 1.7341, 1.73383, 1.70665, 1.70247, 1.74443, 1.81346, 1.84575, 1.73408, 1.71395, 1.70624, 1.76081, 0.00442204, 1.73349, 1.77322, 1.69118, 1.69639, 1.6963, 1.76777, 1.76816, 1.60453, 1.59247, 1.56073, 1.55542, 1.49218, 1.49231, 1.46042, 1.50102, 1.42632, 1.47518, 1.47114, 1.42126, 1.43351, 1.46684, 1.36888, 1.34848, 1.3357, 1.36835, 1.31333, 1.30832, 1.31221, 1.29408, 1.29363, 1.31469, 1.24764, 1.24735, 1.20231, 1.19834, 1.1913, 1.1569, 1.18031, 1.11461, 1.09331, 1.09351, 1.10735, 1.07345, 1.08716, 1.02026, 1.02042, 0.994582, 1.01483, 1.04631, 1.0541, 1.04731, 1.14151, 1.1122, 0.99585, 1.12038, 1.12851, 1.12738, 1.45861, 1.13913, 1.07677, 1.05658, 1.11814, 1.10973, 1.1062, 1.24387, 1.1097, 1.27752, 1.13289, 1.09524, 1.09544, 1.19693, 1.19559, 1.69875, 1.34405, 1.20768, 1.23493, 1.47727, 1.15962, 1.16006, 1.24012, 1.24089, 1.25049, 1.24059, 1.15579, 1.15691, 1.15608, 1.15319, 1.15522, 1.15494, 1.15658, 1.16075, 1.16067, 1.16666, 1.16571, 1.25988, 1.28121, 1.26904, 1.29109, 1.33894, 1.2945, 1.29576, 1.21296, 1.34099, 1.21206, 1.21749, 1.3109, 1.31878, 1.24534
0.932915, 0.931973, 0.933346, 0.939404, 0.945401, 0.945888, 0.946162, 0.940524, 0.944297, 0.944006, 0.945543, 0.945862, 0.948292, 0.947621, 1.11202, 1.11416, 1.12632, 0.945781, 0.943112, 0.94227, 0.941668, 0.940493, 1.19226, 0.923698, 0.923561, 0.924976, 0.924684, 0.926609, 0.961942, 1.14092, 1.14144, 1.26663, 1.15094, 0.985083, 1.14972, 0.924748, 0.848634, 0.849406, 0.848925, 0.848565, 0.829235, 0.829832, 0.829838, 0.843275, 0.842182, 0.841925, 0.730494, 0.734359, 0.725863, 0.726348, 0.798986, 0.787722, 0.830178, 0.873419, 0.901452, 0.895764, 0.960239, 0.96106, 1.0051, 1.02868, 1.12608, 1.1944, 1.19477, 1.21599, 1.25157, 1.25806, 1.25989, 1.28186, 1.33657, 1.35302, 1.35713, 1.3625, 1.36025, 1.40595, 1.4214, 1.45956, 1.47108, 1.47037, 1.43678, 1.42707, 1.43968, 1.49267, 1.49686, 1.54321, 1.51141, 1.5109, 1.52608, 1.51998, 1.52777, 1.54521, 1.5423, 1.51875, 1.54009, 1.58676, 1.60006, 1.60339, 1.55877, 1.55789, 1.58936, 1.58633, 1.75057, 1.73449, 1.68597, 1.71891, 1.73999, 1.67239, 1.61405, 1.65329, 1.69085, 1.68996, 1.81761, 1.75341, 1.65899, 1.65779, 1.66218, 1.71842, 1.71729, 1.77465, 1.71352, 1.7069, 1.72724, 1.73123, 1.72998, 1.72978, 1.71494, 1.71337, 1.72366, 1.69508, 1.69798, 1.70309, 1.69352, 1.72973, 1.71307, 1.71267, 1.69237, 1.69793, 1.69862, 1.63967, 1.69989, 1.59146, 1.57646, 1.56756, 1.56796, 1.5558, 1.55705, 1.49401, 1.48166, 1.48085, 1.46582, 1.48665, 1.48638, 1.42935, 1.40605, 1.37989, 1.35818, 1.36371, 1.34164, 1.31458, 1.31379, 1.34708, 1.29212, 1.3107, 1.23457, 1.21662, 1.2107, 1.20016, 1.19162, 1.18743, 1.13594, 1.13565, 1.11632, 1.09248, 1.08098, 1.05167, 1.06225, 1.01319, 1.01028, 1.0048, 1.0053, 1.00063, 1.01521, 1.01547, 1.1497, 1.1558, 0.98322, 0.98369, 0.988765, 1.26973, 1.11381, 1.02635, 1.19892, 1.06638, 1.05286, 1.05746, 1.06492, 1.06818, 1.06988, 1.2674, 1.12044, 1.09163, 1.0927, 1.09142, 1.09186, 1.2048, 1.42052, 1.21521, 1.2131, 1.18783, 1.23295, 1.24061, 1.21524, 1.23705, 1.23477, 1.23366, 1.21884, 1.15752, 1.15644, 1.1523, 1.15148, 1.15281, 1.15405, 1.15657, 1.15632, 1.15589, 1.15665, 1.16038, 1.16232, 1.16557, 1.17132, 1.17393, 1.17801, 1.28879, 1.35384, 1.24116, 1.34587, 1.34709, 1.37437, 1.37622, 1.35711, 1.36009
0.94053, 0.938924, 0.932103, 0.942225, 0.942242, 0.942523, 1.07276, 0.944088, 0.944661, 0.944687, 1.09623, 0.940149, 0.939086, 0.937871, 0.939159, 0.940525, 0.940392, 0.942292, 0.942443, 0.943616, 0.943233, 0.94356, 1.21302, 0.92309, 0.923962, 0.923958, 0.922213, 1.07839, 1.11578, 0.973123, 0.972943, 0.951391, 0.956737, 0.957799, 0.984831, 1.04629, 1.04607, 1.06906, 1.05859, 0.852354, 0.855913, 0.85192, 0.843966, 0.845376, 0.84259, 0.842277, 0.729338, 0.735744, 0.752489, 0.751768, 0.758015, 0.794846, 0.878781, 0.837922, 0.870623, 0.882729, 0.888687, 0.971923, 0.997944, 0.992044, 1.08067, 1.18801, 1.1897, 1.21718, 1.2407, 1.24296, 1.26443, 1.30874, 1.30784, 1.37143, 1.41221, 1.43137, 1.3659, 1.37092, 1.43406, 1.44721, 1.45852, 1.50625, 1.46681, 1.44087, 1.44115, 1.4406, 1.53472, 1.53447, 1.52607, 1.58851, 1.59135, 1.49156, 1.52157, 1.48213, 1.5454, 1.54037, 1.62982, 1.59993, 1.69388, 1.57886, 1.57849, 1.60545, 1.5794, 1.6913, 1.71143, 1.71773, 1.8202, 1.64769, 1.65955, 1.63021, 1.63159, 1.63414, 1.67535, 1.67585, 1.66663, 1.66705, 1.66135, 1.66822, 1.66549, 1.66504, 1.65354, 1.65315, 1.66482, 1.76091, 1.74034, 1.74336, 1.7278, 1.76475, 1.76447, 1.72075, 1.83741, 1.73184, 1.68107, 1.67905, 1.66671, 1.67816, 1.71929, 1.71147, 1.71109, 1.82791, 1.82701, 1.66781, 1.64203, 1.62805, 1.66188, 1.60393, 1.5489, 1.53672, 1.49816, 1.49203, 1.50645, 1.46226, 1.44861, 1.44625, 1.46126, 1.44557, 1.45752, 1.41173, 1.41016, 1.38777, 1.38943, 1.34839, 1.31387, 1.29, 1.26866, 1.2512, 1.27722, 1.21883, 1.23678, 1.20059, 1.22369, 1.15394, 1.13742, 1.1187, 1.11287, 1.09533, 1.04962, 1.05439, 1.02624, 1.07805, 1.00106, 1.00094, 0.994625, 1.01685, 1.01733, 1.02528, 1.03643, 0.987491, 0.985893, 0.987338, 0.997446, 0.999105, 1.00609, 1.12268, 1.1029, 1.07449, 1.07425, 1.05615, 1.16002, 1.07126, 1.16548, 1.16543, 1.16058, 1.14455, 1.08598, 1.08802, 1.35984, 1.17758, 1.18568, 1.74546, 1.74539, 1.15821, 1.21942, 1.23713, 1.2436, 1.24341, 1.23675, 1.47145, 1.22973, 1.15666, 1.15692, 1.15079, 1.15186, 1.15084, 1.15775, 1.15665, 1.15717, 1.15096, 1.1533, 1.15938, 1.16345, 1.16602, 1.16748, 1.17067, 1.17111, 1.30384, 1.18777, 1.29225, 1.19016, 1.1902, 1.19085, 1.35668, 1.3621, 1.36105
0.939097, 0.93966, 0.940696, 0.955582, 1.07226, 0.976815, 0.934568, 0.934, 0.935265, 0.934481, 0.934967, 0.931437, 0.937036, 0.936279, 0.937126, 0.93763, 0.938309, 0.938605, 0.939431, 0.9406, 1.12516, 0.946205, 1.18561, 1.31338, 1.19254, 1.11255, 0.971968, 1.07266, 1.02904, 0.954958, 0.956042, 0.95564, 0.956124, 0.958161, 0.962887, 0.968145, 1.01804, 1.03311, 0.989032, 1.00894, 0.987136, 1.01531, 0.844419, 0.843739, 0.843115, 0.835458, 0.739482, 0.737178, 0.737804, 0.797322, 0.794131, 0.791665, 0.784465, 0.782048, 0.888043, 0.887396, 0.933684, 0.938775, 0.988986, 0.99545, 1.13699, 1.13614, 1.15725, 1.23574, 1.24743, 1.25076, 1.25335, 1.29907, 1.33378, 1.36209, 1.3648, 1.34027, 1.34177, 1.34738, 1.34776, 1.37346, 1.37912, 1.40208, 1.39852, 1.39878, 1.43416, 1.42746, 1.47111, 1.46815, 1.47099, 1.46543, 1.46438, 1.49297, 1.48553, 1.48515, 1.56384, 1.57298, 1.55833, 1.66198, 1.57612, 1.57518, 1.58957, 1.58918, 1.57403, 1.71265, 1.71267, 1.71425, 1.67872, 1.63422, 1.63512, 1.64445, 1.64468, 1.6611, 1.66185, 1.66926, 1.67354, 1.66199, 1.74147, 1.67365, 1.67009, 1.66853, 1.68601, 1.69531, 1.69125, 1.69063, 1.71303, 1.79533, 1.72779, 1.67634, 1.67237, 1.67007, 1.66959, 1.67633, 1.65323, 1.65277, 1.6527, 1.67327, 1.70318, 1.70284, 1.70217, 1.82965, 1.82852, 1.82822, 1.66712, 1.64358, 1.64181, 1.68942, 1.58219, 1.57505, 1.51697, 1.49368, 1.50569, 1.56853, 1.50352, 1.50253, 1.41715, 1.41638, 1.40806, 1.4272, 1.42725, 1.38162, 1.39402, 1.34572, 1.3101, 1.25152, 1.21682, 1.217, 1.2184, 1.23015, 1.22027, 1.19681, 1.18454, 1.14289, 1.14443, 1.125, 1.12516, 1.08023, 1.09505, 1.02823, 1.0253, 1.01933, 1.01321, 1.02411, 1.02396, 1.00216, 1.02385, 1.02379, 1.02283, 1.10226, 1.29618, 0.991649, 1.28402, 1.00775, 1.008, 1.00669, 1.03591, 1.03373, 1.06716, 1.08456, 1.09189, 1.14647, 1.15393, 1.16216, 1.13012, 1.14993, 1.288, 1.0905, 1.17443, 1.174, 1.18017, 1.18074, 1.12036, 1.20107, 1.24996, 1.24765, 1.23897, 1.24348, 1.20899, 1.14852, 1.14931, 1.14831, 1.1497, 1.15298, 1.15417, 1.22466, 1.23024, 1.23513, 1.22729, 1.15951, 1.16157, 1.16524, 1.16755, 1.16844, 1.16992, 1.16473, 1.16977, 1.29061, 1.18504, 1.1848, 1.18541, 1.19078, 1.18818, 1.18928, 1.36088, 1.37069
0.94988, 0.921787, 0.92444, 0.923099, 0.924624, 0.922974, 0.926316, 0.930892, 0.932076, 1.31337, 1.31366, 0.935372, 0.935744, 0.933807, 0.938109, 0.937608, 0.935873, 0.938405, 0.939179, 0.963667, 0.949658, 0.950818, 0.94799, 0.947005, 0.946447, 0.947116, 0.946372, 1.03395, 0.952481, 0.953436, 1.17089, 0.946947, 0.945791, 0.949122, 0.949091, 0.945903, 0.946602, 1.2639, 1.08506, 1.0876, 1.04908, 0.983074, 1.01563, 0.847211, 0.844445, 0.763294, 0.742925, 0.747914, 0.731856, 0.731288, 0.898431, 0.902945, 0.783181, 0.784583, 0.786076, 0.90178, 0.990405, 0.987159, 0.988672, 1.09574, 1.07033, 1.1325, 1.21426, 1.23799, 1.26501, 1.26814, 1.30911, 1.26795, 1.30112, 1.36082, 1.32863, 1.324, 1.32544, 1.34757, 1.3536, 1.35143, 1.35649, 1.3853, 1.39605, 1.39861, 1.40463, 1.42093, 1.43469, 1.44053, 1.46515, 1.48854, 1.47802, 1.50075, 1.52407, 1.524, 1.51634, 1.52396, 1.63735, 1.62349, 1.53052, 1.5935, 1.67639, 1.60482, 1.71428, 1.71072, 1.74818, 1.72375, 1.72396, 1.70218, 1.64893, 1.63652, 1.63626, 1.70532, 1.66445, 1.67748, 1.67597, 1.65758, 1.6575, 1.66771, 1.66675, 1.66633, 1.67652, 1.67682, 1.69519, 1.71355, 1.70265, 1.69774, 1.68926, 1.72433, 1.68897, 1.73719, 1.67185, 1.66859, 1.71255, 1.64762, 1.64471, 1.67881, 1.70349, 1.69927, 1.77572, 1.82997, 1.8306, 1.83027, 1.66474, 1.65442, 1.63868, 1.72754, 1.62137, 1.55558, 1.53782, 1.50667, 1.50055, 1.49506, 1.44759, 1.42171, 1.42775, 1.41008, 1.40969, 1.37953, 1.34338, 1.3982, 1.35071, 1.30906, 1.28964, 1.2644, 1.23703, 1.21239, 1.21165, 1.20638, 1.21328, 1.17109, 1.15456, 1.17086, 1.12386, 1.09106, 1.09573, 1.04813, 1.04215, 1.05979, 1.10124, 1.09868, 0.998638, 0.9993, 1.05236, 1.02039, 1.02033, 1.0238, 1.02661, 1.02728, 1.01313, 1.00184, 1.05902, 1.06572, 1.26366, 1.02751, 1.02278, 1.02328, 1.04278, 1.34426, 1.12679, 1.1292, 1.08925, 1.1535, 1.13679, 1.16279, 1.0876, 1.0892, 1.09184, 1.10164, 1.1038, 1.10641, 1.11196, 1.11602, 1.11754, 1.20425, 1.12568, 1.25386, 1.25664, 1.2611, 1.13741, 1.1428, 1.1446, 1.14783, 1.14682, 1.14648, 1.1466, 1.14819, 1.15014, 1.29456, 1.15614, 1.2233, 1.22857, 1.23352, 1.17079, 1.17159, 1.17496, 1.1826, 1.18465, 1.25315, 1.19055, 1.19089, 1.18795, 1.19054, 1.31653, 1.20945
0.911458, 0.932444, 0.9135, 0.913682, 0.918327, 0.916321, 1.30794, 0.924138, 0.922605, 0.923074, 0.942784, 0.936017, 0.937773, 0.936347, 0.938194, 0.93969, 0.93952, 0.945223, 0.94592, 1.33914, 0.949049, 0.949501, 0.948817, 0.949356, 0.946164, 0.945639, 0.945638, 0.948948, 0.949326, 0.949664, 0.944748, 0.944574, 0.945624, 0.949487, 0.948965, 0.948025, 0.959262, 0.942298, 0.941343, 0.943209, 0.958545, 0.959157, 0.995092, 1.08525, 1.00255, 0.848602, 0.754337, 0.842246, 0.748246, 0.753288, 0.914469, 0.91291, 0.807924, 0.801662, 0.856358, 0.908508, 0.935687, 0.967961, 1.00202, 1.0819, 1.0628, 1.17765, 1.22889, 1.22927, 1.22691, 1.22701, 1.23589, 1.23265, 1.26788, 1.32379, 1.32659, 1.35259, 1.34825, 1.36837, 1.36106, 1.43661, 1.33836, 1.37811, 1.38144, 1.40548, 1.40639, 1.43705, 1.44513, 1.45093, 1.46564, 1.49071, 1.55378, 1.52834, 1.50547, 1.51644, 1.51309, 1.51325, 1.5162, 1.52345, 1.52666, 1.52706, 1.56779, 1.74751, 1.6902, 1.66149, 1.665, 1.65901, 1.67815, 1.66735, 1.64361, 1.64199, 1.68955, 1.63931, 1.64002, 1.65644, 1.65764, 1.65736, 1.71281, 1.64107, 1.65481, 1.67576, 1.69218, 1.66128, 1.66975, 1.66986, 1.67575, 1.67721, 1.67935, 1.75828, 1.75219, 1.67464, 1.74512, 1.74482, 1.70324, 1.75377, 1.75342, 1.70708, 1.70339, 1.81666, 1.87945, 1.92636, 2.01952, 1.92631, 1.88908, 1.86873, 1.75722, 1.74231, 1.62751, 1.59273, 1.59176, 1.59822, 1.50795, 1.50875, 1.44482, 1.47892, 1.42616, 1.41618, 1.37804, 1.37652, 1.375, 1.3733, 1.37704, 1.27093, 1.2578, 1.26942, 1.2369, 1.20711, 1.25325, 1.2046, 1.20702, 1.20413, 1.20117, 1.16006, 1.12091, 1.10075, 1.10349, 1.09766, 1.04652, 1.02718, 1.01979, 1.0347, 1.00107, 1.00845, 1.00872, 0.99467, 1.0158, 1.00224, 1.02655, 1.02211, 0.997869, 1.05098, 1.0479, 1.03313, 1.03291, 1.03324, 1.0163, 1.01652, 1.10183, 1.04599, 1.07394, 1.28874, 1.10132, 1.06431, 1.12335, 1.07768, 1.12018, 1.3889, 1.09253, 1.15809, 1.09986, 1.10172, 1.2818, 1.17482, 1.205, 1.19439, 1.52458, 1.52441, 1.35381, 1.22439, 1.13072, 1.12975, 1.13649, 1.1371, 1.1418, 1.14186, 1.14298, 1.14593, 1.14698, 1.14784, 1.15266, 1.15342, 1.15783, 1.16093, 1.16111, 1.22683, 1.24038, 1.1685, 1.171, 1.29382, 1.19214, 1.19181, 1.18947, 1.31547, 1.29336, 1.21576
0.915321, 0.914865, 0.908611, 0.899289, 0.909853, 0.912006, 1.11285, 1.11277, 0.931937, 0.933806, 0.933988, 0.937683, 0.937984, 0.941202, 0.941085, 0.94149, 0.945609, 0.944952, 0.943782, 0.943508, 0.944693, 0.945696, 0.944339, 0.943014, 0.942627, 0.943545, 0.943837, 0.953844, 0.953417, 0.950457, 0.949197, 0.947074, 0.948214, 0.951016, 0.952659, 0.952552, 0.952127, 0.942877, 0.935781, 0.93378, 1.02976, 0.964109, 0.96845, 1.04396, 1.00104, 0.851332, 0.849673, 0.849497, 0.841348, 0.916313, 0.912692, 0.811503, 0.811375, 0.900174, 0.899863, 1.0299, 0.971169, 0.978287, 1.01043, 1.03501, 1.12503, 1.22301, 1.22169, 1.22624, 1.26014, 1.23032, 1.26885, 1.26696, 1.29871, 1.27605, 1.31761, 1.32326, 1.35448, 1.35365, 1.34974, 1.34414, 1.36807, 1.38129, 1.37938, 1.39953, 1.43763, 1.46425, 1.51905, 1.56857, 1.60299, 1.55232, 1.55222, 1.50964, 1.61537, 1.59183, 1.55981, 1.57613, 1.5346, 1.53398, 1.53194, 1.54174, 1.64159, 1.63963, 1.68966, 1.68863, 1.68097, 1.66502, 1.69656, 1.68961, 1.6896, 1.70693, 1.68341, 1.67658, 1.63354, 1.63353, 1.63662, 1.63675, 1.64357, 1.60781, 1.63824, 1.62511, 1.70341, 1.68606, 1.68569, 1.67048, 1.67515, 1.67538, 1.68222, 1.6833, 1.70505, 1.71668, 1.71381, 1.74112, 1.69252, 1.69202, 1.70707, 1.70552, 1.69982, 1.77693, 1.86122, 1.81105, 1.8104, 1.83344, 1.95385, 1.77541, 1.62895, 1.60156, 1.58676, 1.5833, 1.56145, 1.61739, 1.54713, 1.58461, 1.5216, 1.4554, 1.45685, 1.41711, 1.3422, 1.3809, 1.29815, 1.29281, 1.27839, 1.24926, 1.25326, 1.2771, 1.27067, 1.2607, 1.27, 1.19657, 1.19704, 1.1887, 1.26812, 1.21962, 1.14691, 1.10877, 1.07101, 1.05018, 1.02988, 1.05166, 1.0734, 1.00472, 1.00441, 1.00471, 1.00273, 1.00084, 1.00399, 0.999589, 0.999129, 1.12198, 1.12108, 1.32206, 1.05959, 1.0312, 1.032, 1.03256, 1.03986, 1.25682, 1.04434, 1.03894, 1.03979, 1.05993, 1.0578, 1.06468, 1.06837, 1.07167, 1.07682, 1.1272, 1.38534, 1.08738, 1.15329, 1.0986, 1.10407, 1.10415, 1.19743, 1.19868, 1.20614, 1.11453, 1.21925, 1.12123, 1.12242, 1.12703, 1.1286, 1.12917, 1.13412, 1.13476, 1.13568, 1.13642, 1.13683, 1.14124, 1.14773, 1.14974, 1.15354, 1.15402, 1.15499, 1.14843, 1.15066, 1.15461, 1.15749, 1.22188, 1.24342, 1.19354, 1.19427, 1.19605, 1.25756, 1.21668
0.867027, 0.868552, 0.905845, 0.905562, 0.939801, 0.946621, 0.956449, 0.934368, 0.932969, 0.934765, 0.933461, 0.936535, 0.941468, 0.947308, 0.952298, 0.95083, 0.948439, 0.943741, 0.944256, 0.943455, 0.942265, 0.943588, 0.944589, 0.943476, 0.943368, 0.943181, 0.941482, 0.942227, 0.94449, 0.958246, 0.946216, 0.970748, 0.939174, 1.22636, 0.947737, 1.08739, 1.29341, 1.12695, 1.07095, 1.07703, 1.07348, 1.05597, 0.971848, 0.928579, 0.86599, 0.989009, 1.11245, 0.858355, 0.986019, 0.911938, 1.05974, 0.904849, 0.905001, 0.90473, 1.02871, 0.940952, 0.984322, 1.00984, 1.03351, 1.08811, 1.1378, 1.20552, 1.23891, 1.20499, 1.22254, 1.23155, 1.23325, 1.33492, 1.25862, 1.26021, 1.30976, 1.3302, 1.33311, 1.38838, 1.3705, 1.38547, 1.35752, 1.35516, 1.38092, 1.49759, 1.56475, 1.47178, 1.76229, 1.86175, 1.51181, 1.51136, 1.51151, 1.60484, 1.60739, 1.60985, 1.55748, 1.55635, 1.54137, 1.5315, 1.5442, 1.56149, 1.63677, 1.62744, 1.68286, 1.68502, 1.68522, 1.68497, 1.66625, 1.62446, 1.63614, 1.66792, 1.66735, 1.75978, 1.68206, 1.6678, 1.65904, 1.66887, 1.61292, 1.61263, 1.62302, 1.62294, 1.66117, 1.64667, 1.6433, 1.7004, 1.70126, 1.70143, 1.73213, 1.65897, 1.63732, 1.70447, 1.86829, 1.8684, 1.72829, 1.72984, 1.71031, 1.71012, 1.70483, 1.71388, 1.69931, 1.7134, 1.86365, 1.76827, 1.76692, 1.61046, 1.58992, 1.56121, 1.57183, 1.57522, 1.54743, 1.52891, 1.5418, 1.52137, 1.52038, 1.51878, 1.43826, 1.36847, 1.36002, 1.39853, 1.30559, 1.25366, 1.25191, 1.24925, 1.26047, 1.26037, 1.28794, 1.26358, 1.1905, 1.18976, 1.26571, 1.14923, 1.14379, 1.10584, 1.08828, 1.05411, 1.01769, 1.01827, 1.01964, 0.995997, 0.986699, 0.995827, 1.02346, 1.09917, 1.01441, 1.13383, 1.00089, 1.00135, 1.14515, 1.00828, 1.00957, 1.01184, 1.00952, 1.14421, 1.03096, 1.03357, 1.0469, 1.04021, 1.1449, 1.28188, 1.40633, 1.40899, 1.08775, 1.10012, 1.067, 1.0685, 1.07062, 1.10518, 1.07567, 1.36784, 1.17037, 1.09116, 1.09295, 1.17539, 1.17873, 1.19837, 1.10049, 1.10208, 1.10334, 1.10636, 1.20918, 1.20583, 1.12649, 1.12652, 1.13134, 1.29058, 1.13578, 1.13617, 1.13384, 1.13519, 1.13692, 1.1397, 1.15001, 1.14977, 1.14193, 1.14379, 1.14481, 1.14865, 1.15411, 1.39634, 1.24985, 1.24598, 1.29113, 1.31294, 1.26465, 1.27073
0.966606, 0.857614, 0.904542, 0.925612, 0.955459, 0.940779, 1.08609, 0.943375, 0.945855, 0.945883, 0.940218, 0.94174, 0.9454, 0.944557, 0.947844, 0.948993, 0.947971, 0.948876, 0.94679, 0.945686, 0.942323, 0.942528, 0.942406, 1.15272, 0.940065, 0.95781, 0.937041, 0.936899, 0.936598, 0.936929, 0.946197, 0.940541, 0.939956, 0.935525, 0.934256, 0.937113, 0.936979, 1.24448, 1.24604, 1.02642, 1.02534, 0.980111, 0.879799, 0.879669, 0.878794, 0.935703, 0.867987, 0.869672, 0.869115, 0.885266, 0.897817, 0.881228, 0.880829, 0.908375, 1.04318, 1.0421, 1.03441, 1.09622, 1.05414, 1.07437, 1.09497, 1.2003, 1.18035, 1.17782, 1.1865, 1.21514, 1.24652, 1.22639, 1.27242, 1.25456, 1.31264, 1.31405, 1.32758, 1.37505, 1.3676, 1.36505, 1.36421, 1.41878, 1.49638, 1.4963, 1.47779, 1.47776, 1.4788, 1.5229, 1.55359, 1.51316, 1.4614, 1.52459, 1.52479, 1.60159, 1.61024, 1.55398, 1.56879, 1.63473, 1.63345, 1.64778, 1.62704, 1.62581, 1.62264, 1.66922, 1.68008, 1.61279, 1.61327, 1.64778, 1.71432, 1.66937, 1.66918, 1.75141, 1.75171, 1.77044, 1.77007, 1.76676, 1.66193, 1.67577, 1.6504, 1.65013, 1.6797, 1.66875, 1.66938, 1.70558, 1.6407, 1.63058, 1.63041, 1.63161, 1.65085, 1.65128, 1.65798, 1.68438, 1.81092, 1.67918, 1.70595, 1.70477, 1.72074, 1.66463, 1.65507, 1.64792, 1.63897, 1.71583, 1.73427, 1.60639, 1.59176, 1.5715, 1.5652, 1.52664, 1.52396, 1.52605, 1.49629, 1.49642, 1.49574, 1.50226, 1.43569, 1.37989, 1.34535, 1.32757, 1.30631, 1.26091, 1.2612, 1.24506, 1.25095, 1.281, 1.25534, 1.22211, 1.18884, 1.18598, 1.14767, 1.12422, 1.12914, 1.0603, 1.06694, 1.11637, 1.02018, 1.01049, 1.02702, 1.02011, 0.974152, 0.981978, 1.04123, 0.99398, 1.01734, 1.01811, 1.00036, 1.00179, 1.00361, 1.00328, 0.999677, 1.00103, 1.00188, 1.04596, 1.14953, 1.04281, 1.03654, 1.03911, 1.04314, 1.04688, 1.05355, 1.05609, 1.05743, 1.05986, 1.05977, 1.06118, 1.07344, 1.07074, 1.07389, 1.14358, 1.08293, 1.0838, 1.08771, 1.08773, 1.09161, 1.0915, 1.09847, 1.09809, 1.09067, 1.21148, 1.19718, 1.29237, 1.12679, 1.12699, 1.18853, 1.13712, 1.13903, 1.1396, 1.13702, 1.1393, 1.13913, 1.1403, 1.14185, 1.13868, 1.14004, 1.14245, 1.13956, 1.13988, 1.2295, 1.16127, 1.16162, 1.16653, 1.25391, 1.29416, 1.29691, 1.27013
0.945844, 0.895508, 0.962197, 0.917795, 0.926095, 1.07909, 0.942608, 0.943972, 0.948758, 0.948627, 1.12643, 1.27014, 1.27003, 0.946024, 0.949504, 0.949252, 0.949685, 0.949242, 0.947161, 0.946133, 1.18094, 1.185, 1.17455, 0.935569, 0.931486, 0.931449, 0.931927, 0.93305, 0.935267, 0.937124, 0.942975, 0.945095, 0.945416, 0.940451, 0.933102, 1.29558, 1.29668, 0.932221, 0.935244, 0.970366, 1.08211, 1.15723, 0.956234, 0.885143, 0.886635, 0.883266, 0.88192, 0.869824, 0.870764, 0.879865, 0.88011, 0.879762, 0.881566, 0.960061, 0.92932, 0.929227, 0.95039, 1.02287, 1.02574, 1.09142, 1.12403, 1.15708, 1.16492, 1.17834, 1.20191, 1.20894, 1.2351, 1.2383, 1.23793, 1.27204, 1.34382, 1.37477, 1.41746, 1.40863, 1.36983, 1.46808, 1.43013, 1.42751, 1.4965, 1.49654, 1.47323, 1.58829, 1.47273, 1.45897, 1.44768, 1.41979, 1.41212, 1.41659, 1.41105, 1.43723, 1.64517, 1.56102, 1.55932, 1.57471, 1.60678, 1.59581, 1.62932, 1.6726, 1.63896, 1.64621, 1.61233, 1.61243, 1.61287, 1.63451, 1.6447, 1.67138, 1.67143, 1.76633, 1.7663, 1.74793, 1.76454, 1.76474, 1.76406, 1.67767, 1.66395, 1.65191, 1.68784, 1.67931, 1.65521, 1.65503, 1.69607, 1.69695, 1.62025, 1.61642, 1.61585, 1.62621, 1.61192, 1.64158, 1.65191, 1.64434, 1.63144, 1.63452, 1.61297, 1.65056, 1.62837, 1.62198, 1.62154, 1.63913, 1.63911, 1.61403, 1.60447, 1.62516, 1.53415, 1.53367, 1.52128, 1.51309, 1.51229, 1.57794, 1.48965, 1.48117, 1.4623, 1.42071, 1.46032, 1.33751, 1.33713, 1.29145, 1.27775, 1.25131, 1.24023, 1.20872, 1.2304, 1.20241, 1.18278, 1.14516, 1.14707, 1.13277, 1.0957, 1.06167, 1.04915, 1.01363, 1.00561, 0.9932, 0.992101, 0.973984, 0.970805, 0.973528, 1.0426, 1.04281, 1.01475, 1.0156, 1.01155, 1.00944, 1.03533, 0.987681, 0.991444, 0.998496, 1.08139, 1.01302, 1.01521, 1.01816, 1.02614, 1.03228, 1.03943, 1.04394, 1.04684, 1.05759, 1.05634, 1.05879, 1.06024, 1.06056, 1.06306, 1.0689, 1.07274, 1.07338, 1.07397, 1.15776, 1.0848, 1.1522, 1.1719, 1.08709, 1.09068, 1.0915, 1.18871, 1.10714, 1.10726, 1.1176, 1.11695, 1.12406, 1.12905, 1.13199, 1.13238, 1.13365, 1.13348, 1.13577, 1.13965, 1.14234, 1.14171, 1.14249, 1.14244, 1.14109, 1.13562, 1.13594, 1.1421, 1.14594, 1.15293, 1.23301, 1.16228, 1.16309, 1.16357, 1.29177
0.97065, 0.883395, 0.883033, 0.956249, 0.900781, 0.942271, 1.09723, 1.09194, 0.958567, 1.11214, 1.26478, 1.31885, 1.15382, 0.951814, 0.951604, 0.950832, 0.949538, 0.94937, 0.949413, 0.958035, 0.942228, 0.940551, 0.937117, 0.933267, 0.929745, 0.928555, 0.93086, 0.931745, 0.932277, 0.932473, 0.931325, 0.941121, 0.949521, 1.02927, 1.29885, 0.928479, 0.928534, 0.932434, 0.928573, 0.929365, 0.941438, 1.08163, 1.01227, 0.888119, 0.890754, 0.892063, 0.893184, 0.893637, 0.892851, 0.980356, 0.978281, 0.891316, 0.89136, 0.909182, 1.04848, 0.960119, 0.998061, 1.00503, 1.08477, 1.07743, 1.17253, 1.17402, 1.18707, 1.27404, 1.22395, 1.22403, 1.24468, 1.24508, 1.26796, 1.26937, 1.32675, 1.3428, 1.34987, 1.39846, 1.39841, 1.37067, 1.38896, 1.42875, 1.40914, 1.40294, 1.40939, 1.44427, 1.40215, 1.39596, 1.39515, 1.40261, 1.39265, 1.39334, 1.42147, 1.44901, 1.54539, 1.54449, 1.54525, 1.59972, 1.56085, 1.62055, 1.6271, 1.58305, 1.64929, 1.654, 1.69403, 1.66091, 1.62324, 1.72135, 1.70165, 1.70239, 1.69529, 1.79945, 1.83141, 1.77788, 1.77729, 1.77566, 1.65879, 1.66227, 1.65995, 1.65108, 1.67285, 1.66318, 1.67296, 1.67292, 1.66601, 1.62211, 1.65193, 1.62091, 1.71531, 1.71995, 1.72102, 1.67845, 1.61741, 1.63346, 1.64775, 1.64744, 1.61332, 1.64193, 1.63087, 1.71555, 1.68347, 1.72427, 1.72717, 1.64293, 1.63764, 1.57138, 1.53988, 1.53862, 1.55824, 1.55438, 1.56333, 1.61935, 1.61856, 1.65101, 1.46599, 1.45831, 1.45734, 1.36421, 1.34722, 1.30256, 1.25692, 1.22641, 1.22569, 1.19912, 1.19986, 1.20851, 1.17242, 1.14983, 1.17551, 1.16711, 1.10146, 1.07074, 1.0535, 1.02913, 1.00505, 1.03767, 0.981029, 0.978141, 1.03952, 1.0424, 0.990634, 1.00422, 1.0003, 1.00074, 1.01352, 1.0137, 1.01294, 0.990524, 0.991046, 0.991367, 0.999192, 1.0742, 1.01009, 1.25429, 1.01587, 1.01591, 1.03231, 1.0563, 1.28575, 1.27547, 1.07704, 1.06458, 1.05752, 1.05945, 1.06056, 1.06066, 1.06351, 1.06577, 1.06659, 1.06897, 1.07784, 1.07812, 1.08124, 1.0892, 1.24698, 1.38481, 1.10124, 1.10823, 1.11017, 1.1151, 1.11753, 1.12444, 1.12601, 1.12907, 1.12816, 1.12689, 1.12577, 1.13126, 1.13369, 1.15296, 1.22552, 1.22451, 1.16411, 1.23439, 1.1396, 1.14001, 1.2494, 1.14604, 1.14696, 1.15004, 1.14965, 1.14918, 1.2526, 1.29047
0.877707, 0.878804, 0.884173, 0.891038, 0.95876, 0.984724, 1.06378, 1.06457, 1.0199, 1.07755, 1.13877, 1.14086, 1.16186, 1.14677, 1.13215, 1.13371, 0.971076, 0.949554, 0.949304, 0.947267, 0.990975, 0.937128, 0.937028, 0.933702, 0.933613, 0.934516, 0.934507, 0.940404, 0.940649, 0.932866, 0.939969, 0.93635, 0.952319, 0.951474, 0.927152, 0.926953, 0.923608, 0.921501, 0.921755, 0.928096, 0.937059, 0.978767, 0.967313, 0.884859, 0.981532, 0.878231, 0.890805, 0.894177, 0.893006, 0.897416, 0.905207, 1.11525, 0.997624, 0.984402, 0.998801, 1.04042, 1.0414, 1.04297, 1.08313, 1.10911, 1.20408, 1.30515, 1.30519, 1.25132, 1.24991, 1.24285, 1.24327, 1.2487, 1.24767, 1.29786, 1.2848, 1.28496, 1.33833, 1.32622, 1.40461, 1.3343, 1.33649, 1.36618, 1.36731, 1.36625, 1.36825, 1.36488, 1.37315, 1.36106, 1.37464, 1.37972, 1.39475, 1.39478, 1.43393, 1.58269, 1.58256, 1.55748, 1.62744, 1.5639, 1.56449, 1.55959, 1.65139, 1.59875, 1.60672, 1.6083, 1.61903, 1.63985, 1.66124, 1.67884, 1.66429, 1.75909, 1.73712, 1.73692, 1.73647, 1.77842, 1.77842, 1.77644, 1.66768, 1.66303, 1.67189, 1.68322, 1.66841, 1.66592, 1.66819, 1.6714, 1.67642, 1.64832, 1.64851, 1.75047, 1.74834, 1.67818, 1.62935, 1.67664, 1.61609, 1.61684, 1.63552, 1.61776, 1.60059, 1.60863, 1.64793, 1.67247, 1.68766, 1.68706, 1.73771, 1.65604, 1.65537, 1.6096, 1.64099, 1.55391, 1.63764, 1.55776, 1.53478, 1.55454, 1.55184, 1.55154, 1.39708, 1.39121, 1.34493, 1.3416, 1.32455, 1.29575, 1.28222, 1.23328, 1.21338, 1.19551, 1.17707, 1.17797, 1.22542, 1.15343, 1.18449, 1.13567, 1.10914, 1.06321, 1.0631, 1.05176, 1.05683, 1.04276, 0.981082, 1.0281, 1.02626, 1.00551, 1.00766, 1.00418, 1.00096, 1.00495, 1.02081, 0.998389, 1.00422, 1.00247, 0.992263, 0.994384, 1.00003, 1.00317, 1.00421, 1.00826, 1.18107, 1.26797, 1.02895, 1.02532, 1.04376, 1.08141, 1.18503, 1.08486, 1.07863, 1.05862, 1.05881, 1.05821, 1.05784, 1.06192, 1.06653, 1.06762, 1.0711, 1.07877, 1.08593, 1.0874, 1.09356, 1.0976, 1.1014, 1.10485, 1.30199, 1.11539, 1.11503, 1.11938, 1.17365, 1.15767, 1.12646, 1.12488, 1.12552, 1.1249, 1.12521, 1.15764, 1.21925, 1.17112, 1.2049, 1.22816, 1.19558, 1.16074, 1.14827, 1.15024, 1.15088, 1.14822, 1.15174, 1.15302, 1.15382, 1.16132
0.957368, 0.957226, 0.96636, 1.0506, 1.07459, 1.0079, 1.18851, 1.17073, 1.18212, 1.22235, 1.2381, 1.34311, 1.32563, 1.19943, 1.19856, 1.09531, 1.08701, 0.989708, 1.0568, 1.14308, 1.1503, 0.93658, 0.937299, 0.936461, 0.935342, 0.934556, 0.937347, 0.937525, 0.939506, 0.938962, 0.938423, 0.938725, 0.949539, 0.951847, 1.09663, 0.925085, 0.921935, 0.921293, 0.924553, 0.92352, 1.35289, 1.06349, 0.873186, 0.983441, 0.877895, 0.878261, 0.874939, 0.98805, 0.99033, 0.992239, 0.965272, 0.96465, 1.01561, 0.953308, 0.975865, 0.976567, 1.02229, 1.07104, 1.07834, 1.15431, 1.19591, 1.27034, 1.26818, 1.26422, 1.18892, 1.21666, 1.22029, 1.25051, 1.26696, 1.31366, 1.28699, 1.28695, 1.44115, 1.44345, 1.34452, 1.34298, 1.34033, 1.34779, 1.3536, 1.35083, 1.38652, 1.39198, 1.38571, 1.38388, 1.40998, 1.40966, 1.3984, 1.435, 1.62336, 1.58133, 1.5813, 1.57976, 1.58888, 1.57943, 1.59147, 1.55095, 1.55201, 1.55346, 1.56759, 1.60597, 1.60296, 1.60063, 1.66152, 1.67869, 1.69372, 1.69386, 1.70758, 1.73431, 1.74114, 1.74133, 1.74595, 1.76494, 1.63641, 1.63583, 1.65901, 1.70625, 1.72088, 1.81097, 1.7517, 1.81014, 1.64928, 1.64282, 1.65591, 1.66445, 1.66414, 1.71669, 1.6584, 1.63382, 1.60477, 1.62118, 1.65333, 1.59718, 1.6018, 1.60121, 1.62496, 1.67168, 1.68043, 1.66456, 1.66421, 1.73912, 1.6723, 1.62459, 1.58532, 1.55465, 1.52738, 1.56105, 1.56087, 1.4882, 1.47934, 1.38923, 1.37016, 1.40715, 1.34044, 1.36019, 1.31314, 1.27089, 1.26032, 1.22531, 1.22697, 1.19974, 1.21806, 1.15927, 1.16779, 1.18379, 1.13128, 1.13735, 1.08741, 1.07583, 1.06565, 1.03925, 1.04865, 1.04634, 1.00281, 0.964794, 1.05706, 1.00527, 0.993002, 0.994807, 0.992315, 0.994265, 1.02477, 0.998318, 1.00515, 0.998941, 0.991469, 0.99693, 1.05405, 1.00478, 1.00661, 1.00662, 1.19406, 1.01569, 1.02167, 1.02526, 1.19855, 1.08755, 1.04326, 1.04388, 1.05368, 1.08839, 1.06481, 1.06387, 1.06592, 1.08607, 1.06857, 1.07765, 1.07555, 1.07746, 1.104, 1.10674, 1.0876, 1.09133, 1.09787, 1.09829, 1.2718, 1.12172, 1.10581, 1.10829, 1.1649, 1.16484, 1.14911, 1.11624, 1.11722, 1.11841, 1.11903, 1.11965, 1.12085, 1.44629, 1.28136, 1.22699, 1.13653, 1.14005, 1.15035, 1.15134, 1.15393, 1.1544, 1.15721, 1.16311, 1.15324, 1.25081
0.953385, 0.953627, 1.11539, 1.16743, 1.05756, 1.02977, 1.21282, 1.06384, 1.05687, 1.10781, 1.17872, 1.23895, 1.25155, 1.25671, 1.32307, 1.19606, 1.22204, 1.22272, 1.25472, 1.19865, 1.08903, 1.09272, 1.11257, 0.937267, 0.937039, 0.937338, 0.950555, 1.0066, 0.939617, 0.937046, 0.93732, 0.94079, 0.937016, 0.942407, 0.943261, 0.92681, 0.922531, 0.921624, 0.924061, 0.923465, 0.92322, 0.970317, 1.27533, 0.898113, 0.897898, 0.971105, 0.994556, 0.98792, 1.39987, 0.963028, 0.963, 0.960927, 0.95271, 1.01603, 0.933539, 0.932041, 1.00535, 1.01929, 1.03692, 1.1277, 1.1277, 1.11681, 1.126, 1.13678, 1.15077, 1.165, 1.22044, 1.20351, 1.27887, 1.26179, 1.27646, 1.31267, 1.38095, 1.31454, 1.33235, 1.36833, 1.34121, 1.33027, 1.35643, 1.36653, 1.52402, 1.51793, 1.60796, 1.58838, 1.41903, 1.41879, 1.40974, 1.42653, 1.4274, 1.4299, 1.51681, 1.5932, 1.55853, 1.5574, 1.63851, 1.54694, 1.5467, 1.54867, 1.57958, 1.59069, 1.61812, 1.62689, 1.62467, 1.66806, 1.67034, 1.66996, 1.77833, 1.77621, 1.73685, 1.77115, 1.7573, 1.74375, 1.64925, 1.64798, 1.64943, 1.76157, 1.92716, 1.92662, 1.77294, 1.6619, 1.63688, 1.63602, 1.68966, 1.74328, 1.6561, 1.72999, 1.63438, 1.64458, 1.60508, 1.60335, 1.59965, 1.61061, 1.5963, 1.63072, 1.59487, 1.61016, 1.64867, 1.66886, 1.66886, 1.68036, 1.6531, 1.52009, 1.51029, 1.47913, 1.50353, 1.50275, 1.46081, 1.47136, 1.46093, 1.4481, 1.37636, 1.35718, 1.3764, 1.32038, 1.28863, 1.25464, 1.25502, 1.23624, 1.23584, 1.19167, 1.2397, 1.17413, 1.13657, 1.09181, 1.0891, 1.08585, 1.06452, 1.065, 1.06089, 1.01124, 1.0435, 1.05853, 0.988699, 0.975244, 1.06737, 0.987247, 0.987811, 0.984939, 0.973303, 0.973613, 0.989014, 1.00893, 1.01225, 0.988708, 0.98888, 0.99152, 1.212, 1.37833, 1.10181, 1.10241, 1.01448, 1.01675, 1.02135, 1.02347, 1.02503, 1.03127, 1.03616, 1.03912, 1.04266, 1.04288, 1.08554, 1.08722, 1.05817, 1.06197, 1.06583, 1.06766, 1.0717, 1.07329, 1.27067, 1.0744, 1.08774, 1.08041, 1.08087, 1.09978, 1.10645, 1.10463, 1.11889, 1.09945, 1.36123, 1.10313, 1.15103, 1.10362, 1.10554, 1.10644, 1.10796, 1.11868, 1.11854, 1.11755, 1.1206, 1.12912, 1.1322, 1.13438, 1.14311, 1.23841, 1.15111, 1.15304, 1.15687, 1.16049, 1.16996, 1.17034
1.06237, 1.19136, 0.994626, 1.12187, 1.16794, 1.03415, 1.18898, 1.14085, 1.09904, 1.10641, 1.22731, 1.19914, 1.21865, 1.21874, 1.19174, 1.23935, 1.23951, 1.36101, 1.19261, 1.33961, 1.23997, 1.24017, 1.26537, 1.26624, 0.00457909, 0.00479612, 1.38226, 0.00454608, 1.21973, 1.33788, 0.00450593, 1.08274, 1.08734, 0.990336, 1.01386, 1.15509, 0.920608, 0.92127, 0.921277, 0.924836, 0.923929, 0.921667, 0.91553, 0.91606, 0.911429, 0.911244, 0.939372, 0.984571, 0.954109, 1.25832, 1.01489, 1.02906, 0.946348, 0.941377, 0.944958, 1.00514, 0.978463, 1.00412, 1.0363, 1.11972, 1.07051, 1.13256, 1.11602, 1.18448, 1.12082, 1.14058, 1.17124, 1.19079, 1.28068, 1.25545, 1.27693, 1.27128, 1.32025, 1.35786, 1.32176, 1.31752, 1.32981, 1.444, 1.3466, 1.49359, 1.5994, 1.50847, 1.50803, 1.59553, 1.50007, 1.4305, 1.43262, 1.41988, 1.46819, 1.52137, 1.52122, 1.58302, 1.58101, 1.55685, 1.54585, 1.54581, 1.54495, 1.57854, 1.63049, 1.62923, 1.62869, 1.62274, 1.61562, 1.6718, 1.6588, 1.68192, 1.66459, 1.66431, 1.75053, 1.74057, 1.75704, 1.65512, 1.65362, 1.64964, 1.67119, 1.75596, 1.75544, 1.76987, 1.71696, 1.72001, 1.7177, 1.65865, 1.63816, 1.64399, 1.63493, 1.65238, 1.62761, 1.61789, 1.63141, 1.59878, 1.60021, 1.5338, 1.53212, 1.53356, 1.57718, 1.59232, 1.66545, 1.66437, 1.76228, 1.6677, 1.64465, 1.51049, 1.47094, 1.46313, 1.49664, 1.43122, 1.41337, 1.41265, 1.52254, 1.40341, 1.41927, 1.40306, 1.33313, 1.34747, 1.27129, 1.27252, 1.23328, 1.23408, 1.24679, 1.19152, 1.18573, 1.14282, 1.10325, 1.09473, 1.0581, 1.05379, 1.01473, 0.991383, 0.991402, 1.00074, 1.01576, 1.01574, 0.949797, 0.958529, 0.959455, 0.951313, 1.00544, 0.964124, 0.974019, 0.977523, 0.978299, 0.97235, 1.09202, 0.998042, 0.992858, 0.99385, 0.994402, 0.998588, 1.00096, 1.00713, 1.00928, 1.04216, 1.02071, 1.02084, 1.28119, 1.03044, 1.03351, 1.03319, 1.06781, 1.03997, 1.0466, 1.04691, 1.0534, 1.35046, 1.06686, 1.06909, 1.06896, 1.06838, 1.06906, 1.06965, 1.07153, 1.07397, 1.07484, 1.07454, 1.28903, 1.1017, 1.08551, 1.10332, 1.08447, 1.08446, 1.0913, 1.09371, 1.09475, 1.09494, 1.10251, 1.10496, 1.10807, 1.11355, 1.11685, 1.12278, 1.12612, 1.13413, 1.13526, 1.14638, 1.16507, 1.23023, 1.24696, 1.19999, 1.2667, 1.21657
1.1375, 1.15734, 1.02264, 1.02279, 1.03087, 1.03085, 1.11917, 1.18105, 1.12137, 1.10659, 1.20667, 1.17954, 1.21183, 1.22968, 1.26313, 1.21268, 1.23316, 1.32268, 1.29077, 1.35768, 1.19822, 1.21182, 1.29156, 1.30172, 1.14004, 1.44571, 1.45394, 1.20209, 1.16456, 1.34172, 1.32483, 1.12708, 0.00468466, 1.0194, 1.0713, 1.07236, 0.945484, 0.919515, 0.919166, 0.919326, 0.925225, 0.914494, 0.914606, 0.915824, 0.918704, 0.912879, 0.91443, 1.03561, 0.989619, 0.969882, 0.970152, 1.00151, 1.04651, 0.956627, 0.956498, 1.03451, 1.01683, 1.01546, 1.01634, 1.04947, 1.05047, 1.07658, 1.09356, 1.14306, 1.16658, 1.1568, 1.18613, 1.19836, 1.25871, 1.25665, 1.25317, 1.30102, 1.33953, 1.29678, 1.31713, 1.31477, 1.32631, 1.37019, 1.43039, 1.39763, 1.38897, 1.38277, 1.61283, 1.53157, 1.50307, 1.38946, 1.38824, 1.39783, 1.39881, 1.40589, 1.41568, 1.42907, 1.50834, 1.51793, 1.50669, 1.5576, 1.65794, 1.6852, 1.6815, 1.63326, 1.68158, 1.68088, 1.6577, 1.61917, 1.67071, 1.6688, 1.70642, 1.70467, 1.73196, 1.73436, 1.65294, 1.64131, 1.64657, 1.68705, 1.67946, 1.71408, 1.77599, 1.74446, 1.73722, 1.70217, 1.70585, 1.70703, 1.6319, 1.59373, 1.60995, 1.67998, 1.67841, 1.61297, 1.61379, 1.64922, 1.66245, 1.6624, 1.55509, 1.52263, 1.5232, 1.67378, 1.67025, 1.65797, 1.62906, 1.60424, 1.60606, 1.50329, 1.50251, 1.45375, 1.43054, 1.42976, 1.41814, 1.43937, 1.41263, 1.41695, 1.3664, 1.36983, 1.33493, 1.29535, 1.29232, 1.2927, 1.2379, 1.2199, 1.19432, 1.18447, 1.16309, 1.14344, 1.10393, 1.11012, 1.05534, 1.07434, 1.01614, 0.99792, 0.989905, 0.996127, 0.947716, 0.94775, 0.94958, 0.948025, 0.945553, 0.957013, 0.945459, 0.950877, 0.935798, 0.936235, 1.03896, 1.09845, 0.966913, 1.2474, 1.18441, 0.994199, 0.994405, 0.99676, 0.997559, 1.00153, 1.13212, 1.01152, 1.01896, 1.0205, 1.02253, 1.02481, 1.02835, 1.02968, 1.03662, 1.0362, 1.03763, 1.04064, 1.22858, 1.05415, 1.06032, 1.10176, 1.06241, 1.0654, 1.06667, 1.06666, 1.06639, 1.06873, 1.08455, 1.07048, 1.07098, 1.07139, 1.07279, 1.20543, 1.12136, 1.07938, 1.08075, 1.13693, 1.13238, 1.09149, 1.09399, 1.09779, 1.09781, 1.10146, 1.20518, 1.19265, 1.12506, 1.12531, 1.13346, 1.13372, 1.16451, 1.19618, 1.19892, 1.1995, 1.19493, 1.19553
1.0474, 1.13403, 1.16413, 1.14997, 1.15033, 1.16451, 1.17879, 1.12313, 1.10471, 1.17869, 1.1879, 1.19941, 1.20873, 1.21155, 1.24058, 1.22853, 1.24702, 1.22259, 1.22305, 1.22351, 1.30106, 1.39414, 1.19438, 1.22618, 1.15018, 1.16301, 1.15393, 1.31284, 1.357, 1.28858, 1.33955, 1.33132, 1.19544, 1.04036, 1.02395, 1.05205, 1.36897, 1.08161, 0.918725, 0.920046, 0.919175, 0.924856, 0.92447, 0.911019, 0.91214, 0.912946, 1.245, 0.925392, 1.0002, 1.0779, 0.974727, 1.00643, 1.0454, 0.987404, 0.987585, 0.969204, 0.970821, 1.01686, 1.00834, 1.05051, 1.07171, 1.06902, 1.07347, 1.11377, 1.12727, 1.15292, 1.1803, 1.18027, 1.20196, 1.20672, 1.24996, 1.30128, 1.26225, 1.26767, 1.29487, 1.30911, 1.3219, 1.29667, 1.35321, 1.34596, 1.40281, 1.39489, 1.3298, 1.33082, 1.37308, 1.35538, 1.3554, 1.38634, 1.39022, 1.38133, 1.39167, 1.39264, 1.5129, 1.52305, 1.49611, 1.51387, 1.53722, 1.55686, 1.50166, 1.53141, 1.62577, 1.62673, 1.62387, 1.63648, 1.62541, 1.67448, 1.67875, 1.67662, 1.72082, 1.64108, 1.69, 1.69323, 1.59198, 1.61956, 1.64228, 1.68521, 1.68589, 1.6752, 1.74015, 1.60653, 1.60594, 1.61565, 1.56676, 1.56729, 1.6009, 1.68291, 1.62399, 1.61393, 1.61341, 1.6316, 1.55948, 1.56941, 1.5677, 1.52717, 1.57883, 1.53655, 1.64531, 1.64145, 1.62405, 1.57062, 1.51263, 1.48707, 1.47354, 1.46754, 1.46383, 1.42337, 1.39424, 1.37711, 1.37897, 1.36468, 1.33168, 1.37781, 1.29307, 1.29509, 1.27955, 1.28139, 1.22721, 1.19153, 1.17161, 1.14633, 1.14408, 1.11955, 1.09905, 1.15855, 1.06325, 1.03916, 1.0377, 1.04075, 0.994544, 1.00562, 0.968216, 0.947892, 0.948564, 0.935734, 0.936243, 0.935468, 0.934831, 0.936741, 0.947576, 0.939729, 0.955235, 0.953152, 0.953311, 1.09133, 0.97782, 0.990624, 0.991556, 0.994024, 0.996247, 0.997433, 1.13834, 1.26889, 1.15742, 1.01721, 1.01788, 1.02105, 1.02367, 1.02516, 1.02908, 1.03116, 1.03404, 1.03606, 1.04027, 1.0465, 1.05293, 1.05443, 1.05522, 1.05607, 1.0594, 1.06052, 1.06194, 1.06353, 1.06468, 1.10859, 1.06748, 1.06937, 1.07038, 1.07855, 1.09497, 1.07372, 1.07422, 1.07571, 1.08133, 1.08536, 1.0885, 1.08858, 1.16404, 1.1644, 1.10047, 1.10158, 1.11676, 1.20428, 1.12608, 1.1279, 1.17146, 1.22585, 1.23452, 1.23776, 1.24112, 1.2335
1.08915, 1.0739, 1.15908, 1.15982, 1.12558, 1.11917, 1.16109, 1.12161, 1.10625, 1.09827, 1.19817, 1.19139, 1.20964, 1.20991, 1.2113, 1.22693, 1.24504, 1.25745, 1.23372, 1.26449, 1.37529, 1.37655, 1.40757, 1.16197, 1.16402, 1.40577, 1.19609, 1.25741, 1.22443, 1.33713, 1.33028, 1.30425, 1.14425, 1.21289, 0.932165, 0.933245, 0.933667, 0.97016, 1.0499, 0.91506, 0.914388, 0.962553, 0.912094, 0.912519, 0.914573, 0.911592, 0.911277, 0.915764, 0.914671, 1.0535, 1.02288, 1.00717, 0.994401, 0.994889, 1.01369, 0.975837, 0.973376, 0.96899, 1.0226, 1.01613, 1.07187, 1.08919, 1.08499, 1.09815, 1.15962, 1.15311, 1.15687, 1.17521, 1.18424, 1.20162, 1.19973, 1.23076, 1.23343, 1.25688, 1.25664, 1.26128, 1.28897, 1.28995, 1.32077, 1.32136, 1.35006, 1.31539, 1.31251, 1.39848, 1.32676, 1.32741, 1.33764, 1.43008, 1.41327, 1.37896, 1.38937, 1.41574, 1.50005, 1.50327, 1.50531, 1.46764, 1.52987, 1.49958, 1.49629, 1.51601, 1.55473, 1.63017, 1.56886, 1.66329, 1.67195, 1.61008, 1.61903, 1.62179, 1.6175, 1.57501, 1.57485, 1.66208, 1.61053, 1.61126, 1.5781, 1.64073, 1.67551, 1.59965, 1.59902, 1.61509, 1.57626, 1.59404, 1.57798, 1.64465, 1.64442, 1.58534, 1.5718, 1.57262, 1.58121, 1.58056, 1.68198, 1.57634, 1.53554, 1.53444, 1.53519, 1.54394, 1.53899, 1.56842, 1.56867, 1.55796, 1.5402, 1.5883, 1.48525, 1.46103, 1.4304, 1.3952, 1.37031, 1.34855, 1.34444, 1.35035, 1.29638, 1.30533, 1.27204, 1.28913, 1.28939, 1.21449, 1.17902, 1.18373, 1.1291, 1.1061, 1.1044, 1.25038, 1.09744, 1.09218, 1.09127, 1.04617, 1.05306, 1.07391, 1.00571, 0.969718, 0.966036, 0.966619, 0.963166, 0.932807, 0.918874, 0.917479, 0.940396, 0.943916, 0.948086, 0.949731, 0.946464, 0.95603, 0.956024, 0.982046, 0.98344, 0.99009, 0.992528, 0.993464, 0.995022, 0.998105, 1.00178, 1.00519, 1.01033, 1.01508, 1.01668, 1.0158, 1.01496, 1.12141, 1.03253, 1.0328, 1.03079, 1.03242, 1.12288, 1.04623, 1.04663, 1.04952, 1.0516, 1.05331, 1.05493, 1.2437, 1.25775, 1.06658, 1.06071, 1.05951, 1.06188, 1.06498, 1.06525, 1.06675, 1.06278, 1.06179, 1.06643, 1.06734, 1.10804, 1.07834, 1.07882, 1.0804, 1.08181, 1.26501, 1.09485, 1.10343, 1.1077, 1.10843, 1.20249, 1.12022, 1.1229, 1.16438, 1.13189, 1.20546, 1.23917, 1.24338
1.06206, 1.07842, 1.07037, 1.07141, 1.0725, 1.0731, 1.06709, 1.06709, 1.17811, 1.18532, 1.17565, 1.1732, 1.17829, 1.19786, 1.19291, 1.20859, 1.20706, 1.23756, 1.23748, 1.25016, 1.26434, 1.30143, 1.15246, 1.33323, 1.40351, 1.17327, 1.17315, 1.16909, 1.21977, 1.24122, 1.35053, 1.12964, 1.14377, 1.18405, 1.20584, 0.987363, 1.08529, 0.917981, 0.918651, 0.910951, 0.910654, 0.911156, 0.910424, 0.912396, 0.91003, 0.910496, 0.911493, 0.913229, 0.913202, 0.911897, 1.17733, 1.125, 1.0161, 1.05787, 1.0327, 1.03202, 0.98509, 0.963091, 0.964997, 1.02742, 1.01604, 1.02362, 1.06786, 1.07793, 1.12647, 1.14597, 1.12713, 1.14277, 1.18073, 1.1848, 1.20853, 1.21186, 1.22299, 1.26348, 1.31255, 1.25041, 1.24629, 1.29146, 1.27436, 1.30949, 1.34133, 1.30611, 1.30344, 1.30386, 1.3306, 1.32985, 1.34879, 1.38534, 1.42566, 1.43169, 1.41805, 1.39841, 1.41847, 1.49038, 1.49112, 1.49621, 1.49551, 1.46145, 1.48285, 1.51239, 1.56128, 1.5337, 1.53984, 1.61008, 1.59224, 1.58584, 1.61454, 1.56367, 1.5635, 1.61794, 1.62353, 1.59422, 1.52679, 1.55538, 1.58492, 1.57909, 1.60881, 1.57136, 1.57056, 1.624, 1.58578, 1.53777, 1.57965, 1.56426, 1.56205, 1.55926, 1.6479, 1.62679, 1.63855, 1.67921, 1.55197, 1.55161, 1.54869, 1.53561, 1.53564, 1.54646, 1.54133, 1.54016, 1.57918, 1.57544, 1.55627, 1.52918, 1.47028, 1.42661, 1.42159, 1.42914, 1.3752, 1.36293, 1.37648, 1.28944, 1.29167, 1.29335, 1.25494, 1.26379, 1.24642, 1.21918, 1.13864, 1.15731, 1.11511, 1.08815, 1.07977, 1.10291, 1.06354, 1.06369, 1.03521, 1.04683, 1.02064, 1.00144, 0.970743, 0.972707, 0.948861, 0.927217, 0.925725, 0.962277, 0.920579, 0.921702, 0.984067, 0.967452, 0.953724, 0.946303, 0.948898, 1.00589, 0.977137, 0.979618, 0.982071, 1.43292, 1.00058, 1.00324, 0.996608, 0.998466, 1.00151, 1.00231, 1.00141, 1.25737, 1.25654, 1.01297, 1.01397, 1.01231, 1.01625, 1.2473, 1.02525, 1.02774, 1.0291, 1.11612, 1.14302, 1.04791, 1.04762, 1.18483, 1.04868, 1.04955, 1.04956, 1.05634, 1.08151, 1.07931, 1.05769, 1.06231, 1.06378, 1.05757, 1.36124, 1.05855, 1.05863, 1.08524, 1.10517, 1.1119, 1.07724, 1.07916, 1.08, 1.08185, 1.09055, 1.0963, 1.09933, 1.10053, 1.18774, 1.11039, 1.11283, 1.12056, 1.17116, 1.2169, 1.23033, 1.18459
1.09259, 1.10161, 1.11165, 1.1144, 1.13297, 1.14681, 1.14848, 1.16437, 1.17015, 1.16551, 1.16387, 1.1736, 1.17508, 1.20213, 1.20161, 1.19634, 1.2017, 1.22626, 1.22505, 1.25388, 1.26142, 1.13536, 1.29896, 1.31619, 1.17089, 1.17178, 1.17386, 1.1668, 1.34062, 1.33449, 1.34804, 0.00439798, 1.17814, 1.18576, 1.01886, 1.01895, 1.12639, 0.909222, 0.909282, 0.907925, 0.91089, 0.909241, 0.906811, 0.908474, 0.907742, 0.905725, 0.938188, 1.02251, 0.914413, 0.919085, 1.21121, 0.970241, 1.16693, 1.02735, 1.0319, 1.05239, 1.2149, 1.01955, 0.977081, 0.986964, 1.07353, 1.07201, 1.07148, 1.12906, 1.12897, 1.18219, 1.14782, 1.14594, 1.14038, 1.16152, 1.16618, 1.18863, 1.21777, 1.22903, 1.30841, 1.23699, 1.23314, 1.23355, 1.25783, 1.26796, 1.29503, 1.29228, 1.29449, 1.29006, 1.30274, 1.32334, 1.37418, 1.36998, 1.41047, 1.4194, 1.41773, 1.40933, 1.46037, 1.49889, 1.50616, 1.42054, 1.43423, 1.43502, 1.48188, 1.54001, 1.50323, 1.53615, 1.54162, 1.55102, 1.5509, 1.55029, 1.54484, 1.57061, 1.55929, 1.55236, 1.5521, 1.55264, 1.5542, 1.51207, 1.58263, 1.57617, 1.57123, 1.56585, 1.56492, 1.60509, 1.53999, 1.53991, 1.53315, 1.52647, 1.72125, 1.56167, 1.56058, 1.59935, 1.53305, 1.56844, 1.53742, 1.51306, 1.51332, 1.51455, 1.54627, 1.50979, 1.53022, 1.54105, 1.66123, 1.56333, 1.49704, 1.52728, 1.55063, 1.45203, 1.42206, 1.37302, 1.32954, 1.315, 1.32907, 1.31147, 1.29864, 1.30639, 1.27423, 1.24264, 1.18371, 1.17084, 1.08918, 1.10281, 1.09593, 1.09146, 1.08919, 1.05478, 1.04623, 1.03626, 1.03142, 0.996293, 0.987393, 0.982539, 0.963072, 0.966475, 0.938974, 0.922939, 0.938937, 0.91477, 0.939925, 0.951657, 0.952713, 0.971185, 0.95334, 0.954144, 0.952771, 0.953748, 1.1326, 0.96315, 1.1451, 0.990804, 0.990996, 0.991791, 0.991186, 0.991692, 0.999668, 0.999563, 1.00074, 1.00312, 1.01949, 1.01005, 1.01283, 1.01311, 1.01274, 1.01398, 1.01848, 1.02004, 1.02067, 1.0851, 1.14339, 1.04184, 1.04202, 1.04251, 1.04569, 1.04614, 1.0474, 1.04806, 1.06083, 1.06761, 1.05823, 1.08799, 1.07963, 1.07402, 1.0755, 1.08112, 1.08418, 1.09026, 1.10586, 1.07057, 1.07322, 1.07445, 1.0755, 1.08243, 1.08489, 1.08755, 1.09414, 1.09711, 1.09677, 1.1718, 1.17338, 1.11469, 1.11539, 1.12434, 1.22001, 1.22544
1.0887, 1.12263, 1.07655, 1.12919, 1.14604, 1.13084, 1.09843, 1.16597, 1.14912, 1.15008, 1.18398, 1.1787, 1.18198, 1.19131, 1.21966, 1.21033, 1.21419, 1.20917, 1.23975, 1.25017, 1.24793, 1.27706, 1.27054, 1.37194, 1.20068, 1.41907, 1.41669, 1.50545, 1.39214, 0.00503006, 1.05091, 1.32886, 0.00451638, 0.980654, 1.01404, 1.23319, 0.904622, 1.05986, 0.897725, 0.898207, 0.906322, 0.906957, 0.907431, 0.90635, 0.908538, 0.908189, 0.902428, 0.903801, 0.904584, 0.906291, 0.923031, 0.925764, 0.950311, 1.03946, 1.03578, 1.03948, 1.00073, 1.00755, 1.02513, 0.994609, 0.961331, 0.959703, 1.02712, 1.06398, 1.10128, 1.20269, 1.14276, 1.16499, 1.13362, 1.16002, 1.14933, 1.15988, 1.28861, 1.23245, 1.2363, 1.231, 1.23165, 1.22132, 1.22191, 1.25972, 1.30371, 1.29574, 1.28251, 1.31797, 1.30876, 1.29201, 1.33299, 1.40741, 1.39658, 1.39574, 1.43793, 1.40587, 1.40758, 1.39468, 1.3949, 1.44668, 1.40551, 1.43765, 1.46824, 1.48808, 1.50007, 1.51358, 1.55825, 1.55406, 1.54902, 1.54609, 1.54506, 1.54118, 1.5297, 1.52999, 1.65541, 1.52761, 1.52513, 1.54853, 1.56124, 1.57039, 1.57156, 1.57103, 1.61511, 1.61483, 1.53075, 1.52975, 1.59562, 1.51777, 1.54724, 1.53759, 1.53609, 1.53686, 1.5092, 1.499, 1.47949, 1.47892, 1.47814, 1.49133, 1.49315, 1.47143, 1.48845, 1.51834, 1.56761, 1.54604, 1.55112, 1.50525, 1.44376, 1.51122, 1.35861, 1.3315, 1.32773, 1.30055, 1.29153, 1.29144, 1.27347, 1.27672, 1.28094, 1.2821, 1.16043, 1.14538, 1.0768, 1.07718, 1.06317, 1.04995, 1.03498, 1.05378, 1.07247, 0.99329, 1.00097, 0.991066, 0.966811, 0.967593, 0.967102, 0.924677, 0.916165, 0.91825, 0.955924, 0.941114, 0.91447, 0.961435, 0.962402, 0.95072, 0.945867, 0.949788, 0.955459, 0.95361, 0.956045, 0.960946, 1.0711, 1.01891, 1.11103, 0.984435, 0.985101, 1.06067, 1.0535, 0.998995, 0.997729, 1.00004, 1.00354, 1.19127, 1.0103, 1.0115, 1.0116, 1.01213, 1.01344, 1.01549, 1.02128, 1.02176, 1.12266, 1.03789, 1.03719, 1.03604, 1.03282, 1.03388, 1.055, 1.05426, 1.05299, 1.07045, 1.07794, 1.08059, 1.07772, 1.06315, 1.07372, 1.07021, 1.13668, 1.07667, 1.08686, 1.06488, 1.06431, 1.06431, 1.12141, 1.07766, 1.07868, 1.0831, 1.084, 1.08974, 1.09291, 1.18296, 1.20527, 1.17359, 1.21225, 1.21506, 1.2185, 1.21869
1.13099, 1.13764, 1.06603, 1.06618, 1.1617, 1.05418, 1.0258, 1.0144, 1.0461, 1.04836, 1.04862, 1.15794, 1.1919, 1.19755, 1.16049, 1.19246, 1.24984, 1.22309, 1.29477, 1.29485, 1.23333, 1.2497, 1.15715, 1.28951, 1.33012, 1.43289, 0.950013, 1.05421, 1.06701, 0.983331, 0.984457, 0.96761, 0.967505, 0.995283, 1.06988, 0.90301, 0.902793, 0.89566, 0.894547, 0.894664, 0.907467, 0.90765, 0.907904, 0.90769, 0.908219, 0.904842, 0.902823, 0.903197, 0.904739, 0.907436, 0.916862, 1.10829, 0.94231, 1.23113, 1.03647, 1.04526, 1.04601, 1.05983, 1.06015, 0.961069, 0.969914, 1.01569, 1.02209, 1.04277, 1.11056, 1.18836, 1.12415, 1.10891, 1.12004, 1.12044, 1.13683, 1.2397, 1.15319, 1.28185, 1.23611, 1.23463, 1.23279, 1.25809, 1.2764, 1.2584, 1.25758, 1.26334, 1.26342, 1.2922, 1.27694, 1.28544, 1.29957, 1.37062, 1.37058, 1.3894, 1.37946, 1.37507, 1.44014, 1.40593, 1.37781, 1.37763, 1.41388, 1.40873, 1.44389, 1.48395, 1.44194, 1.46059, 1.504, 1.49291, 1.65807, 1.54809, 1.58246, 1.61768, 1.52649, 1.58141, 1.51642, 1.52942, 1.52729, 1.54099, 1.54065, 1.57302, 1.57551, 1.56866, 1.55419, 1.5424, 1.54146, 1.53537, 1.53667, 1.52425, 1.52463, 1.52709, 1.52628, 1.52528, 1.49506, 1.4956, 1.48967, 1.48566, 1.48594, 1.4864, 1.46446, 1.52591, 1.5239, 1.45705, 1.48283, 1.43739, 1.41896, 1.39841, 1.41344, 1.40383, 1.3716, 1.30905, 1.29539, 1.30509, 1.27169, 1.26026, 1.24188, 1.23091, 1.21687, 1.18611, 1.13488, 1.07824, 1.12941, 1.05555, 1.03614, 1.01582, 1.0058, 0.992044, 0.984176, 1.00225, 0.995782, 1.01372, 0.964301, 0.939048, 0.923592, 0.925479, 0.960478, 0.917746, 0.938393, 0.918486, 0.929925, 0.92742, 0.96292, 0.933893, 0.946663, 0.950207, 0.95122, 0.952211, 0.95314, 1.07803, 1.14743, 1.10651, 1.17412, 0.982952, 0.984435, 1.04356, 0.995869, 0.995451, 0.994677, 0.996593, 0.998068, 1.00053, 1.00096, 1.00848, 1.00823, 1.00957, 1.01147, 1.01155, 1.01241, 1.02025, 1.02171, 1.1131, 1.03239, 1.02958, 1.03099, 1.03113, 1.03212, 1.05718, 1.06022, 1.05294, 1.06835, 1.0714, 1.08075, 1.05646, 1.06787, 1.07082, 1.07681, 1.09205, 1.09189, 1.09602, 1.12868, 1.13658, 1.13195, 1.12879, 1.12893, 1.07791, 1.07672, 1.08042, 1.08214, 1.2064, 1.0885, 1.0915, 1.0961, 1.09709, 1.10693, 1.10813
0.946416, 1.05301, 0.929946, 0.931031, 0.958647, 1.00804, 0.918239, 0.912215, 1.04426, 1.04464, 0.950568, 0.949993, 0.969063, 0.960449, 0.967974, 0.995206, 0.964288, 1.15726, 1.23727, 1.27009, 1.30962, 1.30647, 1.30612, 1.03145, 1.03231, 0.905455, 1.41783, 1.40198, 1.01103, 0.973226, 0.997759, 0.996268, 1.00759, 1.02021, 1.02037, 0.932473, 1.09167, 0.89933, 0.899015, 0.900986, 0.902312, 0.908615, 0.906648, 0.907177, 0.90757, 0.908459, 0.947338, 0.969264, 0.978122, 1.1153, 0.91091, 0.911526, 0.912216, 0.928739, 0.9429, 0.97021, 1.05032, 1.07705, 1.12216, 1.01012, 0.990445, 0.990416, 0.990685, 1.02825, 1.04046, 1.13172, 1.07204, 1.08472, 1.08836, 1.13359, 1.19151, 1.19251, 1.18752, 1.18298, 1.17752, 1.18042, 1.2157, 1.26572, 1.25739, 1.26424, 1.24421, 1.23848, 1.28208, 1.26179, 1.36525, 1.28686, 1.29794, 1.29746, 1.3131, 1.33283, 1.38503, 1.39572, 1.39906, 1.37704, 1.37768, 1.37612, 1.46038, 1.39416, 1.41769, 1.41913, 1.41926, 1.51371, 1.47018, 1.48057, 1.49529, 1.51325, 1.52428, 1.5187, 1.56107, 1.4909, 1.49885, 1.5016, 1.51911, 1.59363, 1.63773, 1.62813, 1.58828, 1.54477, 1.54431, 1.54352, 1.51445, 1.51359, 1.51031, 1.51087, 1.53748, 1.51308, 1.52629, 1.52618, 1.55761, 1.47072, 1.49467, 1.49541, 1.49472, 1.488, 1.50586, 1.54839, 1.43803, 1.43665, 1.44288, 1.40791, 1.40095, 1.40571, 1.36178, 1.36159, 1.30471, 1.4051, 1.28018, 1.26694, 1.24997, 1.28216, 1.22286, 1.20186, 1.17238, 1.1354, 1.07721, 1.06233, 1.05147, 1.01488, 0.998146, 0.999198, 0.987086, 0.980693, 0.959628, 0.955069, 0.9924, 0.944668, 0.946119, 0.929141, 0.931368, 0.925924, 0.917311, 0.914311, 0.921799, 0.934034, 0.935189, 0.914794, 0.935868, 0.939039, 0.93991, 1.11655, 0.952327, 0.951847, 0.952786, 0.955751, 0.965635, 0.967143, 0.973107, 0.978323, 0.980492, 1.00509, 0.993099, 0.993238, 0.993865, 0.995082, 0.996175, 0.998837, 1.00092, 1.00282, 1.00447, 1.00526, 1.00782, 1.00775, 1.00861, 1.01117, 1.03607, 1.03177, 1.03177, 1.02641, 1.02622, 1.0271, 1.49017, 1.04147, 1.06013, 1.05594, 1.05393, 1.06157, 1.07697, 1.07596, 1.05795, 1.07752, 1.07781, 1.09143, 1.0961, 1.1813, 1.11636, 1.2254, 1.13312, 1.06128, 1.06122, 1.06218, 1.07007, 1.07007, 1.07019, 1.07832, 1.08404, 1.08527, 1.0912, 1.09238, 1.23102, 1.10382
0.916523, 0.915716, 1.16172, 0.918238, 1.12947, 0.971295, 0.963899, 0.91148, 0.938746, 0.885933, 0.889194, 0.901721, 0.912304, 0.918964, 0.918818, 0.922074, 0.916729, 0.914147, 0.928824, 0.931447, 0.919574, 0.915714, 0.974949, 0.888445, 0.889272, 0.899352, 1.05698, 1.07016, 0.942953, 0.986988, 1.30444, 0.979295, 0.979938, 1.17648, 0.978859, 0.950641, 1.23983, 0.94185, 0.900074, 0.901484, 0.902698, 0.90494, 0.904067, 0.904481, 0.91136, 0.910522, 0.908988, 0.909339, 0.912393, 0.911383, 0.91285, 0.91031, 0.911044, 0.924339, 0.964935, 0.933273, 0.977285, 1.0817, 1.07958, 1.00473, 0.988635, 0.988423, 0.991521, 1.0558, 1.02992, 1.06453, 1.06439, 1.04557, 1.07215, 1.18056, 1.25812, 1.25746, 1.15052, 1.16255, 1.14785, 1.16121, 1.24255, 1.21657, 1.22936, 1.21648, 1.20114, 1.20512, 1.26396, 1.24675, 1.24515, 1.26014, 1.33785, 1.33799, 1.31981, 1.28872, 1.30242, 1.32456, 1.35071, 1.32683, 1.36277, 1.37112, 1.39541, 1.42599, 1.43317, 1.41997, 1.45124, 1.4448, 1.44392, 1.50258, 1.46498, 1.46704, 1.47742, 1.48632, 1.4711, 1.48797, 1.4851, 1.47531, 1.48899, 1.48928, 1.55163, 1.56048, 1.53664, 1.51068, 1.52799, 1.50362, 1.55975, 1.55415, 1.56889, 1.54081, 1.51442, 1.51953, 1.48293, 1.48816, 1.45754, 1.46209, 1.47826, 1.47467, 1.47526, 1.47625, 1.47311, 1.50411, 1.47632, 1.49113, 1.43362, 1.44063, 1.46266, 1.34963, 1.34098, 1.30605, 1.29285, 1.28447, 1.28318, 1.27437, 1.22634, 1.22484, 1.18531, 1.20138, 1.20107, 1.20866, 1.06646, 1.06872, 1.04308, 1.02515, 0.985571, 0.985481, 0.998925, 0.971617, 1.02003, 1.01958, 0.946727, 0.943512, 0.962174, 0.962769, 0.923558, 0.92469, 0.918439, 0.93539, 0.963401, 0.964467, 0.925291, 0.926444, 0.978353, 0.956807, 0.944041, 0.949339, 0.952522, 0.952559, 0.954321, 0.956167, 0.96173, 0.964826, 0.967614, 0.973646, 0.974511, 0.98446, 0.986986, 0.99122, 0.992823, 0.993927, 0.99505, 0.996519, 0.998838, 1.00024, 1.00217, 1.00337, 1.00326, 1.00438, 1.00514, 1.00856, 1.01544, 1.10633, 1.02178, 1.02235, 1.27801, 1.02937, 1.0302, 1.32046, 1.04422, 1.05703, 1.05135, 1.0471, 1.07131, 1.0502, 1.05213, 1.08743, 1.0879, 1.09256, 1.08548, 1.11497, 1.03869, 1.04268, 1.04423, 1.05449, 1.05953, 1.0602, 1.06487, 1.06716, 1.06702, 1.07183, 1.18054, 1.08257, 1.08605, 1.09038, 1.09506, 1.0987
0.917693, 0.91548, 0.907465, 0.906182, 1.13285, 0.92223, 0.922359, 0.955569, 0.939819, 0.995767, 0.997926, 0.900243, 0.913692, 0.911633, 0.910238, 0.910538, 0.910866, 0.90896, 1.35426, 0.940004, 1.38619, 0.880322, 0.879699, 0.898263, 0.905167, 0.913468, 1.01798, 1.01878, 1.00538, 0.987474, 0.979426, 0.979913, 0.977031, 0.976119, 0.981667, 0.981351, 1.11686, 1.01889, 0.959804, 1.02565, 0.904816, 0.903413, 0.903193, 0.904882, 0.906784, 0.90339, 0.908125, 0.910888, 0.910832, 0.910922, 0.911106, 0.910911, 0.90667, 0.906481, 1.16408, 0.95563, 1.10843, 0.998286, 1.0019, 1.00601, 1.02607, 1.08647, 1.0131, 1.02969, 1.03184, 0.98049, 1.01959, 1.03617, 1.0429, 1.13834, 1.17702, 1.14413, 1.14347, 1.14538, 1.1449, 1.13096, 1.14477, 1.15386, 1.1802, 1.18585, 1.19222, 1.2031, 1.20842, 1.21628, 1.21427, 1.24517, 1.25332, 1.25761, 1.2506, 1.25157, 1.30829, 1.31002, 1.3103, 1.32025, 1.32537, 1.35843, 1.39194, 1.4072, 1.41473, 1.43159, 1.50692, 1.43892, 1.43419, 1.45868, 1.41972, 1.46923, 1.44682, 1.47529, 1.46371, 1.46474, 1.45066, 1.44395, 1.46622, 1.4586, 1.46169, 1.48275, 1.4983, 1.48887, 1.49726, 1.48452, 1.48955, 1.48849, 1.47683, 1.48252, 1.49026, 1.49069, 1.50176, 1.43763, 1.40984, 1.40991, 1.40043, 1.40366, 1.42071, 1.45433, 1.49651, 1.49181, 1.48798, 1.52016, 1.43828, 1.38842, 1.47507, 1.31528, 1.32336, 1.35702, 1.27219, 1.26813, 1.35068, 1.30371, 1.21579, 1.17437, 1.1708, 1.13124, 1.11599, 1.09925, 1.08909, 1.08137, 1.05341, 1.01258, 0.989263, 0.990665, 0.980822, 0.98103, 0.959137, 0.93308, 0.928419, 0.990624, 0.990756, 0.937061, 0.935801, 0.923183, 0.932707, 0.936123, 0.934492, 0.931966, 0.935756, 0.928578, 0.928129, 0.954555, 0.956264, 0.959185, 0.962615, 0.958355, 0.955068, 0.954496, 0.963154, 0.9657, 0.966601, 0.968749, 0.972072, 0.973529, 1.01192, 0.989298, 0.988092, 0.990051, 0.992191, 0.9944, 0.995462, 0.997457, 0.997421, 0.99741, 0.998952, 1.00188, 1.00285, 1.0049, 1.00636, 1.01032, 1.20065, 1.14641, 1.17805, 1.27512, 1.02961, 1.0531, 1.05231, 1.06423, 1.04292, 1.05151, 1.05402, 1.05803, 1.06616, 1.06417, 1.09806, 1.07769, 1.10817, 1.03068, 1.03684, 1.35442, 1.04778, 1.05301, 1.05262, 1.05753, 1.05986, 1.06571, 1.06823, 1.07006, 1.07616, 1.08239, 1.08445, 1.08798, 1.09241, 1.09524
1.04673, 1.09095, 1.17134, 0.894478, 0.943765, 0.88272, 0.879873, 0.931892, 0.872844, 0.862764, 0.860703, 0.864335, 0.891981, 0.905001, 0.905975, 0.908619, 0.907792, 0.898338, 0.897169, 0.895541, 0.895144, 0.894704, 0.894415, 0.903807, 0.910251, 1.39312, 1.39505, 0.945928, 0.964073, 0.971277, 0.974388, 0.980223, 0.976741, 0.97527, 0.97756, 0.975919, 1.12317, 0.960304, 0.943621, 0.971372, 0.908968, 0.902328, 0.898692, 0.900478, 0.900591, 0.900764, 0.90084, 0.907565, 0.908669, 0.908034, 0.911416, 0.907611, 0.906814, 0.90701, 0.907846, 0.912271, 0.911623, 1.08633, 1.05676, 1.04987, 1.03593, 0.98423, 0.984938, 0.95072, 0.949181, 0.949555, 1.00912, 1.01069, 1.06208, 1.04986, 1.08195, 1.0785, 1.09181, 1.07851, 1.12395, 1.13366, 1.1312, 1.14723, 1.14763, 1.18485, 1.15428, 1.14722, 1.22261, 1.18449, 1.19498, 1.28834, 1.22353, 1.19416, 1.20456, 1.22765, 1.2411, 1.25326, 1.28894, 1.33455, 1.33497, 1.3479, 1.37758, 1.39682, 1.39691, 1.43528, 1.42938, 1.43432, 1.44706, 1.47113, 1.4081, 1.47876, 1.50818, 1.50782, 1.4654, 1.44125, 1.45164, 1.43322, 1.43337, 1.43679, 1.42882, 1.41349, 1.44993, 1.40958, 1.4173, 1.41598, 1.46615, 1.46741, 1.46927, 1.52282, 1.46494, 1.46524, 1.48105, 1.43041, 1.39254, 1.37176, 1.3721, 1.41299, 1.39737, 1.36333, 1.43032, 1.38285, 1.36118, 1.40281, 1.36513, 1.32268, 1.3222, 1.29922, 1.27985, 1.27518, 1.26736, 1.24072, 1.24191, 1.23197, 1.17804, 1.15742, 1.1325, 1.11178, 1.06109, 1.06094, 1.05508, 1.05025, 1.0487, 1.00241, 0.988334, 0.990808, 1.02527, 0.930447, 0.93104, 0.928612, 0.928548, 0.946604, 0.954737, 0.945604, 0.99753, 0.91983, 0.925225, 0.943556, 0.94444, 0.942639, 0.94453, 0.945581, 0.92736, 0.969789, 0.975495, 0.960044, 0.961623, 0.947128, 0.948066, 0.949099, 0.957386, 0.9636, 0.96437, 0.970035, 0.969767, 0.970935, 1.21428, 0.982605, 0.982938, 0.987298, 0.986746, 0.988223, 0.990644, 0.992268, 0.992299, 0.993028, 0.990525, 0.99195, 0.999042, 0.999862, 1.00152, 1.03606, 1.02376, 1.02519, 1.21566, 1.01789, 1.02476, 1.22984, 1.23632, 1.0531, 1.05304, 1.05477, 1.05158, 1.06025, 1.05739, 1.07022, 1.08196, 1.01834, 1.01969, 1.03198, 1.03592, 1.03962, 1.04075, 1.0537, 1.05581, 1.05655, 1.05953, 1.06176, 1.06844, 1.07325, 1.07321, 1.07397, 1.0838, 1.08607, 1.09047, 1.09032
0.898376, 0.897138, 0.896953, 0.886033, 0.886273, 0.870911, 0.940089, 0.940554, 0.864411, 0.852071, 0.852416, 0.880969, 0.881613, 0.91703, 0.90782, 0.907257, 0.900517, 0.899438, 0.895354, 0.893547, 0.89362, 0.892787, 0.892292, 0.893462, 1.07432, 1.34852, 1.21834, 0.945876, 0.962347, 0.961335, 0.970794, 0.960204, 0.97743, 0.977136, 1.20552, 0.960489, 0.96742, 1.14337, 1.15247, 0.9156, 0.917851, 0.898841, 0.897978, 0.894579, 0.8939, 0.895544, 0.896474, 0.900225, 0.906583, 0.906183, 0.903674, 0.904504, 0.906678, 0.906031, 0.905715, 0.905957, 0.992627, 1.16019, 1.16015, 0.976222, 0.977703, 0.952508, 1.00082, 0.945929, 0.948709, 0.949074, 1.02028, 1.01484, 1.02379, 1.04034, 1.04108, 1.05695, 1.06374, 1.07174, 1.05137, 1.08856, 1.06765, 1.12656, 1.14559, 1.14543, 1.14266, 1.14654, 1.21786, 1.19871, 1.19179, 1.25593, 1.26451, 1.19159, 1.1791, 1.21435, 1.21462, 1.23152, 1.28562, 1.29606, 1.3092, 1.39228, 1.33609, 1.36515, 1.36538, 1.38744, 1.38762, 1.41626, 1.39874, 1.37773, 1.42363, 1.39207, 1.38946, 1.44778, 1.4286, 1.45834, 1.46824, 1.47121, 1.42573, 1.42399, 1.40295, 1.40182, 1.3947, 1.46647, 1.38275, 1.40174, 1.39336, 1.45357, 1.42241, 1.52787, 1.46121, 1.45507, 1.44747, 1.42793, 1.39713, 1.36306, 1.43257, 1.4308, 1.32858, 1.31853, 1.3034, 1.30943, 1.32597, 1.35875, 1.31091, 1.28273, 1.27471, 1.26854, 1.26878, 1.23996, 1.24318, 1.22274, 1.223, 1.20248, 1.13103, 1.0952, 1.09508, 1.08475, 1.03424, 1.03731, 1.07898, 1.05007, 0.977713, 0.976837, 0.979994, 1.00491, 0.934942, 0.935057, 0.935873, 0.92474, 0.923013, 0.986161, 1.01199, 0.939647, 0.918341, 0.917988, 0.936342, 0.937161, 0.93983, 0.95981, 0.957101, 0.926291, 0.927418, 0.92775, 0.941861, 0.943377, 0.946699, 0.946815, 0.9472, 0.94852, 0.956028, 0.958863, 0.98829, 0.970815, 0.971307, 0.97142, 0.972412, 0.979779, 0.978579, 0.982709, 0.984608, 0.986951, 0.987632, 0.986507, 0.98894, 0.991024, 0.990784, 0.991373, 0.996598, 0.996551, 0.996119, 1.14156, 1.12496, 0.992437, 0.991897, 1.28469, 1.01452, 1.01375, 1.08122, 1.04208, 1.0391, 1.05689, 1.05905, 1.11138, 1.0702, 1.06009, 1.01362, 1.02207, 1.03296, 1.03451, 1.03869, 1.04063, 1.04522, 1.04706, 1.05252, 1.05505, 1.05781, 1.06, 1.062, 1.06876, 1.07062, 1.07401, 1.07765, 1.0812, 1.0873, 1.08563
0.883686, 0.897023, 0.896304, 0.894334, 0.892367, 0.862777, 0.866971, 0.869566, 0.869147, 0.862429, 0.862438, 0.867336, 0.890243, 0.890092, 0.897587, 0.898173, 0.905935, 0.893189, 0.893998, 0.894743, 0.89479, 0.894554, 0.892996, 0.89358, 0.893112, 0.901528, 0.90214, 1.3755, 1.21635, 1.13649, 0.96219, 0.98355, 0.983531, 0.98163, 0.992839, 0.993251, 1.18391, 1.13712, 0.914519, 0.912781, 0.901356, 0.900683, 0.895588, 0.894098, 0.893863, 0.893685, 0.894974, 0.894926, 0.897337, 0.897336, 0.900364, 1.06866, 0.912705, 0.912344, 0.907617, 0.908048, 1.10791, 1.21244, 0.957321, 0.966384, 0.919716, 0.967255, 0.918363, 0.953647, 0.953139, 0.952763, 0.972989, 0.98772, 1.00843, 1.02373, 1.06655, 1.04795, 1.02595, 1.0076, 1.10771, 1.1073, 1.10306, 1.08095, 1.15075, 1.12862, 1.12878, 1.12802, 1.13053, 1.17461, 1.17486, 1.17516, 1.27768, 1.16633, 1.18212, 1.17043, 1.20066, 1.22673, 1.28684, 1.25, 1.24958, 1.27593, 1.2577, 1.27495, 1.2777, 1.33037, 1.33093, 1.33972, 1.34602, 1.34746, 1.33841, 1.33179, 1.33174, 1.35617, 1.38285, 1.42947, 1.43315, 1.42686, 1.46403, 1.38611, 1.38644, 1.39549, 1.37874, 1.37763, 1.37197, 1.44249, 1.3686, 1.39218, 1.39652, 1.52208, 1.48748, 1.44925, 1.55636, 1.42599, 1.38844, 1.3502, 1.42843, 1.30525, 1.3024, 1.28295, 1.27771, 1.2801, 1.2966, 1.26003, 1.25949, 1.23935, 1.27453, 1.3237, 1.21019, 1.22603, 1.20953, 1.20654, 1.18733, 1.16516, 1.13297, 1.08726, 1.08155, 1.04043, 1.03043, 1.02932, 1.01162, 0.992828, 1.00551, 1.00399, 0.953529, 0.955681, 0.947826, 1.01529, 1.02163, 0.934742, 0.924018, 0.924989, 0.90894, 0.938463, 0.921541, 0.97386, 0.935575, 0.935749, 0.935975, 0.935222, 0.935925, 0.922855, 0.984945, 0.935631, 0.938386, 0.943308, 0.945881, 0.947242, 0.946562, 0.946051, 1.0714, 1.1154, 1.10518, 0.968242, 0.9697, 0.969676, 0.969267, 0.974757, 0.976531, 0.977304, 0.982403, 0.984423, 0.984337, 0.985034, 0.985857, 0.986788, 0.990542, 0.992862, 0.993774, 0.993221, 0.993122, 0.993149, 1.17031, 1.01414, 1.01453, 1.02117, 1.02204, 1.26055, 1.25237, 1.02153, 1.03303, 1.04251, 1.05405, 1.04549, 1.05749, 1.00975, 1.01177, 1.0216, 1.02644, 1.03372, 1.03861, 1.04069, 1.04214, 1.04234, 1.28607, 1.05616, 1.05644, 1.05694, 1.06432, 1.06568, 1.06871, 1.07474, 1.07601, 1.076, 1.08101, 1.08018
0.906018, 0.904557, 0.895869, 0.881412, 0.881099, 0.881313, 0.931301, 0.930163, 0.862621, 0.862611, 0.863015, 0.867325, 0.875468, 0.93906, 0.893969, 0.890543, 0.890215, 0.888238, 0.89305, 0.891085, 0.891867, 0.899078, 0.900007, 0.899537, 0.897556, 0.900493, 0.902931, 0.907226, 1.41206, 1.414, 1.05783, 1.05916, 0.982103, 0.983017, 0.983472, 0.977465, 0.923647, 0.914485, 1.03866, 0.907624, 0.904855, 0.904718, 0.893535, 0.892645, 0.890434, 0.890329, 0.890437, 0.893796, 0.893352, 0.901348, 0.901313, 1.06327, 1.20887, 0.92307, 0.922804, 0.916795, 0.917999, 0.91524, 0.901659, 0.93512, 0.930942, 0.934709, 0.945902, 1.00298, 1.00092, 0.937777, 0.990384, 1.00658, 1.03679, 1.11376, 1.01172, 1.00685, 1.00158, 0.995904, 1.00318, 1.05076, 1.05044, 1.12599, 1.07623, 1.15394, 1.10242, 1.07879, 1.09666, 1.0889, 1.11449, 1.13195, 1.1359, 1.13327, 1.12766, 1.15104, 1.18499, 1.17793, 1.17845, 1.25948, 1.25414, 1.23584, 1.23398, 1.25735, 1.25495, 1.27352, 1.31654, 1.31507, 1.30991, 1.33094, 1.31941, 1.30728, 1.30831, 1.31931, 1.33661, 1.32961, 1.34786, 1.36964, 1.3897, 1.48146, 1.48195, 1.36933, 1.3849, 1.36479, 1.3534, 1.38267, 1.36854, 1.33194, 1.341, 1.35125, 1.47813, 1.44895, 1.44829, 1.43513, 1.43459, 1.4197, 1.34808, 1.29955, 1.26806, 1.26168, 1.25141, 1.25599, 1.24509, 1.24329, 1.2234, 1.2087, 1.20783, 1.20625, 1.19095, 1.18747, 1.17083, 1.15943, 1.14687, 1.14933, 1.16891, 1.11822, 1.08411, 1.02845, 1.0249, 1.04218, 1.04276, 0.971319, 1.00576, 0.946395, 0.946054, 0.939335, 0.941967, 0.923769, 0.924783, 0.910396, 0.907845, 0.908099, 0.921166, 0.925442, 0.932754, 0.932814, 0.932698, 0.930338, 0.930857, 0.930494, 0.928639, 0.928997, 0.931749, 0.932065, 0.937329, 0.939175, 0.946359, 0.947892, 0.946422, 0.946323, 0.959947, 0.956218, 1.05056, 0.963852, 0.963402, 0.965537, 0.966368, 0.970547, 0.974715, 0.976182, 0.977344, 0.980179, 0.980906, 1.13258, 0.982931, 0.983608, 0.985874, 0.987569, 0.990145, 0.990363, 0.98962, 0.990742, 1.10843, 1.01522, 1.01252, 1.31119, 1.22225, 1.01493, 1.01251, 1.01936, 1.41766, 1.03702, 1.05409, 1.05979, 1.00704, 1.00909, 1.01819, 1.02297, 1.02734, 1.0329, 1.03708, 1.04048, 1.04407, 1.04791, 1.04868, 1.05322, 1.05495, 1.0568, 1.05948, 1.06538, 1.06671, 1.07181, 1.0815, 1.08179, 1.14945, 1.18076
0.90731, 0.906484, 0.896762, 0.893057, 0.891767, 0.891495, 0.890527, 0.88425, 0.956266, 0.862657, 0.862369, 0.867208, 0.87108, 0.880189, 0.891049, 0.890686, 0.876637, 0.874085, 0.890988, 0.891759, 1.24679, 0.897048, 0.897819, 0.900666, 0.950336, 0.894967, 0.89422, 0.900121, 0.898827, 0.90574, 1.3675, 0.955868, 0.955114, 0.957357, 0.949788, 0.949771, 0.956622, 0.936656, 0.900863, 0.900434, 0.891893, 0.893216, 0.892681, 0.888073, 0.889404, 0.889957, 0.886309, 0.886844, 0.887129, 0.887053, 1.05115, 0.91989, 0.915075, 0.924866, 0.924493, 0.914587, 0.914366, 0.896023, 0.895562, 0.934996, 0.935134, 0.939134, 0.934374, 0.898579, 0.946276, 0.930949, 0.93027, 1.02632, 1.02392, 0.981906, 0.979203, 0.992235, 0.99159, 0.990794, 0.989596, 1.00905, 1.00063, 1.04637, 1.04796, 1.06151, 1.06472, 1.04661, 1.0523, 1.08242, 1.13001, 1.09086, 1.10881, 1.16498, 1.13777, 1.13812, 1.15737, 1.17695, 1.17133, 1.17197, 1.20229, 1.26731, 1.26941, 1.23768, 1.23795, 1.2616, 1.25398, 1.27561, 1.28848, 1.28816, 1.30221, 1.30028, 1.30622, 1.31305, 1.32299, 1.28774, 1.3091, 1.30828, 1.37681, 1.36499, 1.36195, 1.35462, 1.34696, 1.336, 1.30288, 1.29813, 1.32354, 1.28475, 1.28959, 1.30301, 1.33435, 1.42415, 1.44422, 1.43623, 1.44171, 1.43112, 1.42895, 1.27765, 1.27415, 1.2462, 1.2451, 1.24422, 1.25126, 1.23341, 1.20527, 1.19096, 1.19196, 1.17675, 1.16795, 1.12636, 1.13064, 1.13325, 1.12233, 1.13372, 1.11525, 1.1054, 1.10668, 1.03907, 1.03299, 1.03202, 1.02271, 1.02423, 0.937671, 0.935639, 0.951624, 0.9507, 0.932121, 0.938664, 0.938655, 0.967015, 1.03929, 0.923167, 0.92162, 0.928569, 0.929052, 0.943178, 0.943118, 0.941738, 0.930684, 0.932219, 0.97196, 0.934643, 0.935132, 0.935361, 0.937072, 0.938883, 0.941543, 0.945792, 0.945886, 0.95891, 0.959921, 0.964654, 0.970714, 0.972875, 0.973898, 0.962612, 0.963246, 0.967645, 0.969835, 0.970779, 0.974978, 0.97691, 0.977305, 0.985146, 0.979568, 0.980068, 0.980621, 0.984569, 0.986272, 0.987227, 0.987702, 1.10553, 1.14957, 1.14829, 1.01693, 1.01579, 1.01098, 1.01245, 1.32294, 1.02203, 1.01909, 1.02852, 1.03511, 1.03296, 1.00847, 1.01113, 1.01241, 1.02542, 1.02873, 1.03175, 1.03518, 1.03918, 1.04439, 1.04656, 1.04952, 1.05484, 1.05574, 1.05416, 1.0629, 1.06435, 1.07346, 1.07835, 1.08252, 1.34442, 1.08767, 1.09116
0.899351, 0.902342, 0.894414, 0.898413, 0.898099, 1.09994, 0.908032, 0.879956, 0.922841, 0.918019, 0.874564, 0.945448, 0.902857, 0.921958, 0.89834, 0.920504, 0.874443, 0.874284, 1.28532, 1.26879, 0.893736, 0.894192, 0.895489, 0.894517, 0.890967, 0.891197, 0.891298, 1.01088, 1.03325, 0.889953, 0.889357, 0.90127, 1.04867, 0.953097, 0.956506, 0.956019, 1.04073, 1.07874, 0.901483, 0.898442, 0.893983, 0.893679, 0.88899, 0.888648, 0.886985, 0.886808, 0.887163, 0.887481, 0.887012, 0.896266, 0.903289, 0.90434, 0.904724, 0.903752, 0.973656, 0.920195, 0.951438, 0.899091, 0.89123, 0.887371, 0.876833, 0.918229, 0.918506, 0.917528, 0.928045, 0.926409, 0.922367, 0.973576, 0.948877, 0.949332, 0.960235, 0.962317, 0.957589, 0.978502, 1.03228, 1.02482, 1.02534, 1.02941, 1.03034, 1.04604, 1.01641, 1.01469, 1.07652, 1.12212, 1.12638, 1.12643, 1.13337, 1.201, 1.19795, 1.20539, 1.153, 1.14056, 1.15308, 1.17442, 1.18636, 1.25683, 1.23766, 1.21746, 1.21775, 1.22269, 1.24213, 1.23274, 1.25716, 1.26507, 1.27041, 1.24734, 1.26578, 1.26576, 1.26498, 1.26384, 1.28298, 1.30886, 1.30749, 1.31723, 1.35301, 1.32723, 1.40755, 1.31662, 1.2815, 1.24026, 1.24024, 1.24808, 1.24416, 1.26857, 1.29317, 1.33663, 1.38088, 1.39905, 1.43309, 1.3864, 1.41262, 1.27858, 1.27615, 1.25226, 1.24754, 1.22766, 1.21975, 1.21874, 1.2065, 1.19246, 1.17104, 1.14498, 1.12921, 1.1018, 1.09246, 1.09438, 1.06658, 1.06318, 1.0984, 1.08052, 1.04595, 1.0366, 1.01662, 1.01468, 0.963671, 1.05481, 0.949383, 0.999847, 0.929374, 0.932014, 0.928117, 0.934952, 0.959314, 0.960254, 0.950794, 0.949367, 0.949887, 0.93674, 0.935967, 0.938766, 1.02711, 0.929614, 0.928111, 0.945714, 0.946689, 0.935129, 0.935372, 0.935296, 0.937397, 0.93871, 0.941937, 1.04396, 1.08118, 0.957214, 0.959447, 0.934949, 0.936072, 1.17591, 1.17565, 0.963137, 0.961311, 0.963957, 0.965567, 0.968138, 0.971296, 0.974704, 0.975127, 0.972707, 1.14366, 0.97893, 0.980209, 0.983764, 0.983821, 0.985228, 0.987942, 0.991436, 0.978002, 0.976658, 0.976793, 0.975744, 0.979414, 0.978221, 0.981141, 1.02015, 1.02726, 1.02887, 1.03222, 1.03226, 1.00517, 1.10133, 1.01943, 1.02028, 1.02698, 1.02772, 1.03264, 1.0337, 1.0341, 1.11903, 1.0512, 1.05417, 1.05314, 1.0545, 1.0571, 1.06612, 1.07109, 1.07694, 1.08049, 1.08242, 1.08582, 1.0883
0.899443, 0.898872, 0.894722, 0.915581, 0.882254, 0.881926, 0.875314, 0.880579, 0.910544, 0.935745, 0.952463, 0.902395, 0.90274, 0.90255, 0.89208, 0.891355, 0.880869, 0.880692, 0.884614, 0.887734, 0.89386, 0.89379, 0.892934, 0.891133, 0.890393, 0.890924, 0.88908, 1.37021, 0.883832, 0.8915, 0.889113, 0.890214, 1.37728, 0.950505, 0.958554, 0.952673, 0.949141, 0.951139, 1.15355, 0.901219, 0.891583, 0.893442, 0.894008, 0.889274, 0.8859, 0.888567, 0.888758, 0.889036, 0.888435, 0.897307, 0.898295, 0.900689, 0.897522, 0.95305, 0.908006, 0.992709, 0.897498, 0.89437, 0.892528, 0.890635, 0.890975, 1.02038, 0.92562, 0.920134, 0.956595, 0.954224, 0.955806, 0.956439, 0.929177, 0.927299, 0.939064, 0.924666, 0.917777, 1.09623, 0.977978, 1.00472, 1.01744, 1.03935, 0.97669, 0.97472, 1.03818, 1.01243, 1.01113, 1.0203, 1.08441, 1.09475, 1.22925, 1.1857, 1.15245, 1.18915, 1.16714, 1.12309, 1.1223, 1.14364, 1.16448, 1.17436, 1.18864, 1.19318, 1.18845, 1.1816, 1.18681, 1.1877, 1.19106, 1.2162, 1.23926, 1.23916, 1.24733, 1.25398, 1.23656, 1.234, 1.23304, 1.22848, 1.23668, 1.24182, 1.24737, 1.31949, 1.34314, 1.31822, 1.3207, 1.26754, 1.21239, 1.21245, 1.23457, 1.2533, 1.27412, 1.2913, 1.28606, 1.35463, 1.37172, 1.37208, 1.38938, 1.32878, 1.32884, 1.25511, 1.27512, 1.28298, 1.30897, 1.20289, 1.17448, 1.15872, 1.16498, 1.16682, 1.09834, 1.105, 1.07449, 1.06144, 1.06434, 1.06356, 1.02285, 1.02438, 1.04852, 1.01796, 1.01126, 0.965797, 1.00319, 1.00727, 0.987492, 0.993794, 0.994084, 1.02533, 1.01842, 0.930023, 0.957682, 0.95707, 0.957174, 0.950438, 0.946047, 0.943855, 0.93021, 0.9318, 0.926817, 0.923283, 0.927384, 0.93313, 0.931676, 0.930888, 0.931791, 0.935581, 0.935487, 0.935078, 0.936835, 0.943617, 1.09052, 0.92953, 0.928876, 0.930269, 0.963337, 0.963154, 0.989339, 0.962083, 0.960896, 0.961742, 0.962911, 0.965408, 0.968154, 0.968814, 0.969996, 0.973038, 0.972827, 0.97079, 0.971219, 0.983589, 0.983792, 0.984193, 0.984551, 0.976119, 0.976638, 0.976367, 0.974354, 0.975695, 1.16063, 0.980257, 0.98172, 0.983524, 1.18882, 1.02501, 0.99821, 0.998761, 1.00768, 1.00956, 1.01253, 1.01018, 1.02027, 1.01795, 1.02241, 1.02721, 1.04004, 1.04256, 1.04846, 1.04822, 1.04858, 1.05602, 1.06134, 1.0668, 1.07026, 1.07343, 1.07517, 1.07927, 1.08408, 1.08612
0.967683, 0.968017, 0.903234, 0.888533, 0.932727, 0.891376, 0.890439, 0.926975, 0.895228, 0.895656, 0.951474, 0.903328, 0.903793, 0.905161, 0.899064, 0.891261, 0.888207, 0.88627, 0.88709, 0.890245, 0.89009, 0.890158, 0.89058, 0.889096, 0.888079, 0.890574, 0.882473, 0.882013, 0.881777, 0.880635, 0.883216, 0.885795, 0.888307, 1.0328, 0.946046, 0.928037, 0.927469, 0.925995, 0.918758, 0.921215, 1.08902, 0.892853, 0.892839, 0.888297, 0.886834, 0.886972, 0.887556, 0.890225, 0.888705, 0.890787, 0.894981, 0.893494, 0.89184, 0.891701, 0.891484, 0.894992, 0.893126, 0.892296, 0.891082, 0.891091, 0.891043, 0.960723, 0.980793, 1.02578, 1.0013, 0.967005, 0.950579, 0.951094, 0.952503, 0.936862, 0.911384, 0.914584, 0.91255, 0.960253, 0.970658, 0.980939, 0.97077, 0.981417, 1.00264, 0.967148, 0.968298, 0.980621, 0.99568, 1.01529, 1.02629, 1.03696, 1.17217, 1.17539, 1.20957, 1.13722, 1.1326, 1.12342, 1.10822, 1.12397, 1.12609, 1.18434, 1.18519, 1.20447, 1.16785, 1.15992, 1.1576, 1.15443, 1.15359, 1.2076, 1.17033, 1.18537, 1.26114, 1.19809, 1.1984, 1.20607, 1.21155, 1.19149, 1.22056, 1.19534, 1.21231, 1.22342, 1.26244, 1.2725, 1.31337, 1.2274, 1.19587, 1.18908, 1.2191, 1.21525, 1.24017, 1.24026, 1.31771, 1.3177, 1.37149, 1.38321, 1.38806, 1.34721, 1.28133, 1.2999, 1.27098, 1.24371, 1.16207, 1.16699, 1.14941, 1.13454, 1.11277, 1.10536, 1.08327, 1.05106, 1.06072, 1.03925, 1.02523, 1.01026, 1.00091, 0.969238, 0.977309, 0.980923, 0.957809, 0.977137, 0.936412, 0.973998, 0.974249, 0.950195, 1.01153, 0.943812, 0.92805, 0.922413, 0.940358, 1.00546, 0.950858, 0.95087, 0.946088, 0.939571, 0.931337, 0.928194, 0.92129, 0.923308, 0.927991, 0.935158, 0.935511, 0.930172, 0.932461, 0.93248, 0.93439, 0.930744, 0.933159, 0.93432, 1.19927, 0.927328, 0.927413, 0.92705, 0.929763, 0.932032, 1.17851, 1.41622, 0.957664, 0.961482, 0.962191, 0.962713, 0.963242, 0.964431, 0.966861, 0.968836, 0.971526, 1.15102, 1.17515, 1.08466, 1.08427, 0.980865, 0.972542, 0.983682, 1.20244, 0.996072, 0.995958, 1.21514, 1.21019, 0.978294, 0.979902, 1.32753, 1.01134, 1.01442, 1.00016, 1.00147, 1.0049, 1.00798, 1.01143, 1.01271, 1.01205, 1.01651, 1.01972, 1.01999, 1.02761, 1.03561, 1.04236, 1.04457, 1.05376, 1.10011, 1.10117, 1.10946, 1.06973, 1.06999, 1.12407, 1.12436, 1.07605, 1.07989
