1.02916721475019,1.02908542734935,1.02658636787918,1.03446522082695,1.03083931272296,1.02735880444269,1.03267498549741,1.03197524884577,1.03409263377867,1.0335110344838,1.03346559703889,1.02775865395791,1.03081205025601,1.03376548417531,1.03588286910821,1.07928471648834,1.03939063985544,1.04410704663732,1.1046115482824,1.08287427463641,1.07359594838534,1.03405628382274,1.08590040846756,1.00083242410295,1.00121409864021,1.13384600033891,1.082047313139,1.02087033730922,1.05064095121569,1.04435240883985,1.00444924471796,1.0102743251557,1.21586058840542,1.23389016654658,1.02707709228423,1.01702632946965,1.0328385602991,1.0252323320208,1.02939440197475,1.03118463730429,1.03225696100422,1.0324750607398,1.03764584197081,1.04298928549248,1.04912334055563,1.05278559861555,1.05436682169849,1.05369434751379,1.0564842066314,1.05639333174158,1.05733843059575,1.06227293711322,1.05946490301764,1.05982840257694,1.06729831852051,1.06658040689089,1.06663493182479,1.06519910856556,1.07046985217538,1.0702517524398,1.07441382239375,1.07503177164456,1.07602230794365,1.08603672080229,1.09402462361786,1.09319766212046,1.08755433146236,1.10012232872507,1.09807764370403,1.09805946872606,1.09916814238192,1.1032120749791,1.10505683524254,1.1075104572678,1.10776490695931,1.11253583867509,1.11052750360997,1.10974597955748,1.11084556572435,1.11473501100884,1.1232409006964,1.1262942969945,1.12760289540797,1.12930225584769,1.12889331884348,1.12938404324853,1.13620874747434,1.13976195566647,1.14376045081875,1.14302436421117,1.14530532394576,1.14719552165411,1.15547422411711,1.15176652861228,1.15272980244441,1.1552742993595,1.16335307706488,1.16528871221814,1.16901458270094,1.17752955987749,1.24537675262038,1.18925242066484,1.19202410480448,1.19795823511001,1.19291467872476,1.19217859211718,1.19446863934076,1.1932054783722,1.1973948107931,1.1987397591625,1.23986973429702,1.21516993924275,1.38102570066124,1.18937055802161,1.20477385184684,1.22024984558394,1.2394153598479,1.20211121757499,1.20036641969036,1.20658226215435,1.21181665580823,1.22371217888624,1.27840068758256,1.19721306101345,1.19561366295254,1.20424677748586,1.20177498048264,1.20568260074509,1.20592796294761,1.20529183871884,1.21516993924275,1.21544256391223,1.21835964787559,1.22224000567109,1.22425742822519,1.22602948857677,1.22775611148343,1.24142369491302,1.24057855843765,1.23723436249211,1.24115107024354,1.32796385249278,1.27069449692545,1.26893152406286,1.25201970706654,1.25855361164492,1.25632717684422,1.25247408151566,1.26082548389052,1.26737756344686
1.02880371519089,1.05200407456306,1.02699530488339,1.02814941598416,1.03001235122556,1.02795857871553,1.02716796717405,1.0322660484932,1.03245688576183,1.03137547457292,1.0334565095499,1.02774956646893,1.02818576594009,1.03096653756871,1.03947242725628,1.04247129862048,1.04228954884083,1.04268939835606,1.04775112971928,1.0701972275059,1.06658040689089,1.07545888362674,1.08630934547177,1.00341327097396,1.00133223599698,1.00505810647978,1.09223438828832,1.12088724104995,1.01932546418221,1.01865298999751,1.01955265140677,1.01087409942854,1.05547549535435,1.0278677038257,1.02571396893686,1.02018877563554,1.02002520083386,1.02370563387175,1.02710435475118,1.02842204065363,1.03121189977124,1.03207521122457,1.03252049818471,1.03879086558259,1.04266213588911,1.05134068786734,1.05710215588221,1.04469773342118,1.04669698099732,1.05750200539744,1.05191319967324,1.06430853464528,1.05931041570494,1.06006467729048,1.06355427305974,1.06580797032739,1.0621275372895,1.06377237279532,1.0656443955257,1.06767090556879,1.07076065182281,1.07570424582926,1.07546797111572,1.08642748282854,1.15712814711191,1.09475162273645,1.09455169797884,1.0917254889053,1.09861380555399,1.09747786943119,1.0978322815015,1.09945894202936,1.100676665553,1.10830106880927,1.11231773893951,1.11410797426905,1.1076649445805,1.11008221664983,1.1103548413193,1.11199058933614,1.11755213259339,1.12350443787689,1.12652148421906,1.12616707214874,1.12592170994622,1.13226477725596,1.1343639872109,1.13712658386157,1.13822617002844,1.14298801425524,1.14415121284499,1.14555977363727,1.3423947849969,1.1502034805073,1.15383847610027,1.15806415847711,1.1626715153912,1.1641709510733,1.16488886270292,1.17753864736647,1.18434517661432,1.18884348366063,1.1937234652442,1.18819827194287,1.19938497088026,1.19282380383493,1.19521381343732,1.19475943898819,1.19958489563787,1.20015740744376,1.20617332515014,1.20520096382902,1.18489951344225,1.18451783890499,1.21320704162254,1.21626952540963,1.21445202761314,1.20390145290453,1.20186585537246,1.20331076612067,1.21451564003602,1.22116768197116,1.21717827430787,1.23984247183007,1.19810363493373,1.19545917563984,1.20257467951309,1.20182950541653,1.35969736401946,1.20600066285947,1.21542438893426,1.21288897950816,1.21417031545468,1.21789618593748,1.25728136318737,1.23100943253914,1.22915558478673,1.22784698637325,1.24009692152158,1.23996969667583,1.24333206759933,1.24513139041785,1.31839472659428,1.27689216441148,1.26416967983606,1.25565470265952,1.25544569041292,1.25511854080955,1.26184328265656,1.2672049011562
1.02701347986135,1.09662364546684,1.02265148514978,1.03272042294233,1.02985786391286,1.02938531448577,1.02857652796633,1.0296306766883,1.03201159880169,1.03094836259075,1.02314220955483,1.02395099607427,1.0254867817123,1.02803127862739,1.03487415783116,1.3051360801689,1.04489765817879,1.0397177894588,1.04792379200995,1.05454857147814,1.05662051896614,1.05599348222635,1.07041532724148,1.08304693692707,1.00343144595192,1.00190474780287,1.0086204021609,1.07970274098153,1.1115998273099,1.01949812647288,1.01985253854319,1.01633568030699,1.01678096726713,1.02634100567665,1.02595933113939,1.02565035651399,1.02346027166922,1.02349662162515,1.02338757175736,1.02806762858332,1.02845839060956,1.03066665043229,1.03262046056352,1.04115361271803,1.03963600205796,1.03849097844617,1.03969961448084,1.0444796336856,1.04628804399311,1.0475875549176,1.03339289712703,1.05149517518004,1.05299461086215,1.08894471727668,1.12399516228194,1.06405408495377,1.06242742442592,1.06128240081413,1.06329073587925,1.06655314442395,1.06904311640513,1.07299617411249,1.08244716265423,1.08220180045171,1.07922110406547,1.08861756767331,1.11355363744112,1.0862911704938,1.09957707938613,1.09911361744802,1.09793224388031,1.09802311877013,1.1017671642309,1.10384819920787,1.11283572581151,1.11164526475481,1.10733779497713,1.10764676960253,1.1058020093391,1.11158165233193,1.11389896202245,1.11760665752729,1.12098720342875,1.12098720342875,1.12266838889051,1.12322272571843,1.13057450430523,1.13470022430325,1.1381443826276,1.13864419452163,1.14041625487321,1.14459649980513,1.14368775090689,1.14941286896582,1.15644658543823,1.15769157142883,1.16092671750657,1.16099032992945,1.16093580499556,1.18618993687775,1.18953413282329,1.18061021864254,1.18482681353039,1.18599001212014,1.20022101986664,1.19395973995774,1.19953037070397,1.19657693678468,1.19890333396419,1.19980299537345,1.20040276964629,1.19979390788447,1.1882891468327,1.18686241106245,1.22444826549382,1.20973562083125,1.19870340920657,1.20227479237667,1.20172954303772,1.20227479237667,1.20987193316599,1.22431195315909,1.2248208525421,1.25004772195735,1.20471023942396,1.19785827273121,1.19884880903029,1.2006026944039,1.22894657254013,1.20445578973246,1.33000853751383,1.21489731457328,1.21268905475055,1.21751451140022,1.21672389985875,1.23359936689914,1.23154559438911,1.22881934769437,1.23059140804595,1.24050585852579,1.24252328107989,1.2497660097989,1.2833988065229,1.27694668934537,1.25863539904576,1.2553002905892,1.25517306574345,1.2536463675944,1.26403336750133,1.26895878652981
1.02313312206585,1.02256969774894,1.01740800400692,1.01834401537211,1.0252323320208,1.02328760937855,1.02371472136073,1.0270952672622,1.02814941598416,1.02591389369448,1.02558674409111,1.02389647114038,1.02445989545729,1.02863105290023,1.02906725237138,1.0366643931607,1.03824561624365,1.03590104408618,1.037545879592,1.04567918223128,1.05722938072796,1.05612070707211,1.05910140345835,1.05884695376684,1.04955954002678,1.00228642234014,0.997815377760777,1.08740893163864,1.11755213259339,1.01397293317155,1.01957082638474,1.01999793836691,1.02049775026094,1.02597750611736,1.02581393131567,1.02510510717504,1.02420544576578,1.02333304682347,1.02492335739539,1.02625921827581,1.02595933113939,1.02710435475118,1.02943075193068,1.03615549377769,1.04011763897403,1.03931793994358,1.04377080954497,1.04367993465515,1.04738763015998,1.04659701861851,1.05251297394608,1.04958680249373,1.05096810081906,1.0514133877792,1.06009193975743,1.06239107446999,1.06159137543953,1.06122787588024,1.06334526081314,1.06320894847841,1.06697116891714,1.07099692653636,1.08871753005211,1.08112038926279,1.0756315459174,1.0795119037129,1.08072053974757,1.0861366831811,1.08658197014124,1.09546953436607,1.09543318441014,1.09567854661266,1.09511512229575,1.09894095515736,1.1031121126003,1.11681604598582,1.10579292185012,1.10526584748914,1.10731053251018,1.10666532079243,1.11152712739804,1.1157891597308,1.11750669514848,1.11877894360602,1.12000575461865,1.12134161549907,1.18830732181066,1.13300995135252,1.13893499416907,1.13909856897076,1.13958020588682,1.13987100553426,1.1396983432436,1.19555913801865,1.15749164667121,1.15960903160412,1.16152649177941,1.1608085801498,1.16092671750657,1.16196269125057,1.17018686877968,1.17985595705699,1.18272760357544,1.18732587300056,1.1852357505346,1.24066034583849,1.24095114548593,1.19991204524124,1.20018466991071,1.1991032587218,1.2001392324658,1.20875417202115,1.18701689837516,1.18589004974133,1.19317821590525,1.20059360691492,1.19772196039647,1.20041185713527,1.20038459466832,1.20168410559281,1.30222808369452,1.22542971430392,1.2265293004708,1.23117300734083,1.20462845202312,1.19419601467128,1.19592263757795,1.19688591141008,1.18655343643705,1.20713659898228,1.20692758673568,1.37261977335249,1.21100786928879,1.21345240382507,1.21777804858071,1.26664147683929,1.2263202882242,1.22793786126308,1.23675272557604,1.24240514372312,1.24063308337155,1.24435895385435,1.26327910591578,1.27742832626144,1.27767368846397,1.25696330107299,1.25394625473082,1.25117457059117,1.25708143842976,1.26478762908687
1.02090668726515,1.02061588761772,1.01858937757463,1.01798960330179,1.02346027166922,1.02585936876058,1.02629556823174,1.02651366796732,1.02811306602823,1.02296954726417,1.02436902056746,1.02156098647189,1.02813124100619,1.02626830576479,1.02898546497054,1.03543758214807,1.03510134505572,1.03550119457095,1.03798207906316,1.03976322690372,1.09965886678697,1.05433047174257,1.05407602205106,1.06526272098844,1.07499542168863,1.04997756451998,0.983266307899893,1.10276678801896,0.995352668246536,1.01344585881057,1.0166900923773,1.01960717634067,1.02035235043723,1.02578666884872,1.02566853149195,1.01704450444762,1.02443263299034,1.02344209669125,1.02364202144887,1.0236783714048,1.02376924629462,1.02840386567567,1.02961250171033,1.03307483501264,1.03820926628772,1.03716420505474,1.04074467571382,1.0417352120129,1.04792379200995,1.04740580513795,1.05735660557372,1.05002300196489,1.04694234319984,1.04819641667942,1.0504319389691,1.05123163799955,1.06029186451504,1.06025551455912,1.06472655913848,1.06319077350044,1.06510823367574,1.06650770697903,1.0675073307671,1.07745813120287,1.07464100961832,1.07588599560891,1.08042974010013,1.0810658643289,1.0844282352524,1.08785421859878,1.0924524880239,1.09538774696522,1.09608748361687,1.09661455797785,1.09961342934206,1.13644502218788,1.10453884837054,1.10381184925195,1.10392089911973,1.10629273374415,1.1074559323339,1.11429881153768,1.1105638535659,1.11857901884841,1.12064187884742,1.11985126730595,1.11865171876027,1.30224625867248,1.13098344130944,1.13383691284992,1.137935370381,1.13872598192248,1.13973469319953,1.14038899240626,1.18105550560268,1.16109937979724,1.15954541918124,1.15968173151598,1.15897290737535,1.15883659504061,1.16835119600523,1.18914337079705,1.18067383106541,1.18635351167944,1.18548111273712,1.23105486998405,1.21255274241581,1.21471556479363,1.20061178189288,1.19922139607857,1.19989387026327,1.19964850806075,1.18634442419046,1.18509035071088,1.19664054920756,1.19601351246777,1.19862162180573,1.19759473555071,1.19926683352348,1.19916687114468,1.35043721274636,1.23491705280159,1.2267383127174,1.23353575447626,1.23376294170082,1.19575906277626,1.19535012577205,1.19664054920756,1.18863447141403,1.18662613634891,1.20502830153835,1.34164961090034,1.21010820787953,1.21132593140318,1.2210949820593,1.22216730575923,1.22670196276147,1.22532066443614,1.36727632983081,1.25450967904773,1.23950623473772,1.24002422160972,1.26553280318343,1.34982835098453,1.27959114863926,1.25522759067734,1.25539116547903,1.2531283807224,1.25532755305615,1.26716855120027
1.01895287713393,1.01882565228818,1.01454544497745,1.01194642312847,1.05970117773119,1.02713161721813,1.02632283069869,1.02635009316564,1.02560491906908,1.02148828656003,1.02211532329982,1.02113387448972,1.0241418333429,1.02702256735034,1.02803127862739,1.02950345184254,1.03499229518793,1.03575564426246,1.03555571950485,1.038063866464,1.04360723474329,1.05326723553162,1.05293099843927,1.0529673483952,1.07321427384807,1.0893445667919,0.983357182789717,1.10816475647453,0.994316694502538,0.994916468775379,1.01489076955878,1.02645005554444,1.17731146014191,1.02242429792522,1.02733154197574,1.11370812475382,1.0265772803902,1.02455077034711,1.02476887008269,1.02435993307848,1.0204159628601,1.02173364876256,1.02828572831889,1.03101197501363,1.03644629342513,1.03715511756576,1.03744591721319,1.03910892769698,1.04342548496364,1.04862352866159,1.04894159077598,1.04984125218524,1.04743306760489,1.04760572989556,1.04675150593121,1.05055916381485,1.0602100771142,1.06043726433876,1.06130966328108,1.06095525121076,1.06322712345637,1.06584432028332,1.06658040689089,1.07477732195305,1.07529530882505,1.07385039807684,1.07166031323208,1.07712189411052,1.085155234371,1.08725444432594,1.09069860265029,1.09267967524846,1.09521508467456,1.09475162273645,1.0981412561269,1.10780125691524,1.10776490695931,1.10250325083847,1.10313937506724,1.10415717383328,1.10485691048493,1.10922799268548,1.11080012827944,1.1149076732995,1.11808829444336,1.11914244316532,1.11995122968476,1.12302280096082,1.12878426897569,1.12948400562733,1.13435489972192,1.13527273610915,1.13655407205567,1.13661768447855,1.17770222216816,1.15949998173633,1.15846400799233,1.15778244631865,1.15807324596609,1.1564102354823,1.16149922931247,1.23933357244706,1.29858400061256,1.17832017141896,1.18283665344323,1.19710401114566,1.21471556479363,1.21307981677679,1.20192038030636,1.19895785889808,1.19527742586019,1.19849439695998,1.18581734982947,1.18546293775916,1.18769846004884,1.1944959018077,1.19518655097037,1.19543191317289,1.19713127361261,1.19988478277429,1.19519563845935,1.23592576407864,1.26498755384448,1.24036954619105,1.19407787731451,1.19532286330511,1.19637701202707,1.19573180030931,1.19031565687578,1.18795290974035,1.18775298498273,1.34971021362776,1.20948117113974,1.21522446417665,1.21791436091545,1.2178870984485,1.22186741862281,1.22341229174982,1.22342137923881,1.26271568159887,1.23762512451836,1.23688903791078,1.2724302073211,1.28120872167814,1.29948366202182,1.32794567751482,1.2509019459217,1.25488226609601,1.26197959499129,1.26733212600195
1.01598126823667,1.01362760859022,1.01071052462686,1.01334589643177,1.09264332529253,1.09950437947427,1.31453254377674,1.02258787272691,1.02559583158009,1.02102482462193,1.02013425070165,1.01985253854319,1.02151554902698,1.02863105290023,1.02877645272395,1.02914903977223,1.03019410100521,1.03616458126667,1.03667348064969,1.03668256813867,1.0387363406487,1.04268031086708,1.05307639826299,1.15572867380862,1.06325438592332,1.09840479330739,0.988755151245286,0.989891087368091,0.994852856352502,0.993798707630539,1.01432734524187,1.14583239830674,1.03285673527706,1.19335087819592,1.04747850504981,1.03204794875762,1.03005778867047,1.03124824972717,1.02973972655609,1.01945268902796,1.01937090162712,1.01969805123049,1.02074311246347,1.03067573792128,1.03133003712801,1.03071208787721,1.03382909659818,1.03605553139888,1.03860911580295,1.04160798716715,1.04781474214216,1.04906881562173,1.04779656716419,1.0475875549176,1.0475875549176,1.04769660478538,1.05261293632488,1.06018281464726,1.05998288988964,1.0584016668067,1.05935585314985,1.05957395288543,1.06496283385202,1.09922266731581,1.0729416491786,1.07346872353958,1.07293256168962,1.08050244001199,1.08113856424076,1.08263799992286,1.13888955672416,1.17075938058557,1.09148012670278,1.0927069377154,1.09544227189912,1.10933704255327,1.10526584748914,1.1025941257283,1.10164902687412,1.1022851511029,1.10472059815019,1.10726509506527,1.10791030678302,1.11885164351788,1.11607087188926,1.11730677039087,1.11800650704251,1.12244120166594,1.12170511505837,1.12852981928418,1.1557377612976,1.35420852067407,1.15163021627754,1.13414588747533,1.19659511176265,1.20802717290255,1.15818229583388,1.1546018251748,1.15788240869746,1.1557377612976,1.16078131768285,1.24375009209252,1.1716226920389,1.17334931494557,1.18361817749572,1.20849972232964,1.2194410590645,1.20779998567799,1.2011752062098,1.19866705925064,1.19379616515606,1.19182418004687,1.19166060524518,1.19026113194189,1.19048831916645,1.19526833837121,1.19514111352546,1.19378707766707,1.19304190357051,1.19864888427268,1.19601351246777,1.19577723775423,1.21559705122493,1.21730549915362,1.19562275044153,1.19714944859058,1.19864888427268,1.19643153696096,1.19541373819493,1.18926150815382,1.18910702084112,1.33989572552673,1.20441035228754,1.20589161299168,1.22164023139825,1.21875040990183,1.21920478435095,1.22241266796176,1.2234759041727,1.22457549033958,1.2333085672517,1.40896064179326,1.409096954128,1.35785260375603,1.28981457374451,1.29015081083686,1.25061114627426,1.25025673420395,1.2584082118212,1.26254301930821
1.01689001713492,1.01283699704875,1.01320958409703,1.01337315889871,1.01396384568257,1.01790781590095,1.01768062867639,1.01809865316958,1.02628648074276,1.02216984823371,1.01863481501954,1.02011607572368,1.02260604770487,1.02726792955286,1.02648640550037,1.02388738365139,1.05114985059871,1.0340290213558,1.03628271862344,1.03561024443874,1.0394088148334,1.0397177894588,1.04568826972027,1.04479769579999,1.0534853352672,1.09317948714249,1.08588223348959,0.99338977062633,0.991581360318824,0.988373476708023,1.17068668067371,1.01114672409801,1.01621754295022,1.18131904278317,1.18196425450092,1.03181167404408,1.03190254893391,1.03109376241447,1.03064847545433,1.01929820171526,1.01882565228818,1.01919823933646,1.01975257616438,1.02602294356227,1.02812215351721,1.03036676329587,1.03197524884577,1.03267498549741,1.0368734054073,1.0389453528953,1.04224411139592,1.08698181965647,1.04390712187971,1.04564283227535,1.04746033007184,1.04607903174651,1.04900520319886,1.05579355746874,1.05909231596936,1.05752926786438,1.0587106414321,1.05961030284136,1.06321803596739,1.06267278662844,1.07081517675671,1.07076065182281,1.0710787139372,1.0695792782551,1.08230176283051,1.08267434987879,1.15831860816861,1.10628364625517,1.10263956317321,1.09205263850867,1.09308861225267,1.11047297867607,1.10297580026556,1.10014050370304,1.09934989216157,1.10150362705041,1.10189438907665,1.10524767251117,1.10823745638639,1.11763391999423,1.11846996898062,1.11410797426905,1.11880620607297,1.11797924457557,1.1250493110039,1.12530376069541,1.11746125770357,1.12234123928714,1.15981804385072,1.13513642377441,1.20513735140614,1.18381810225334,1.18961592022413,1.15342045160708,1.1537203387435,1.15432011301634,1.15837313310251,1.15910921971009,1.17192257917532,1.1730221653422,1.18111003053657,1.19378707766707,1.20874508453217,1.20879960946606,1.20772728576613,1.19508658859156,1.19035200683171,1.19072459387999,1.19256935414343,1.18961592022413,1.19236942938581,1.1946503891204,1.19256935414343,1.19381434013402,1.19472308903226,1.19459586418651,1.19567727537542,1.19587720013303,1.2170601369511,1.21609686311896,1.1968768239211,1.19778557281935,1.19900329634299,1.20142056841232,1.20268372938088,1.22557511412764,1.20325624118677,1.32181162245167,1.20192038030636,1.20560081334424,1.20821801017119,1.21951375897636,1.21989543351362,1.22064060761018,1.22782881139529,1.22652021298182,1.23124570725269,1.23530781482784,1.28630680299728,1.28108149683238,1.48727662184392,1.29448554308148,1.25353731772661,1.25134723288184,1.25217419437924,1.26395158010048
1.01484533211387,1.01321867158601,1.01199186057338,1.01282790955977,1.01269159722503,1.01657195502053,1.01867116497547,1.01697180453576,1.02299680973112,1.01926185175933,1.01898013960088,1.01756249131962,1.02416909580985,1.02575940638178,1.02698621739441,1.027713216513,1.0295761517544,1.04235316126371,1.04211688655017,1.03713694258779,1.04003585157319,1.03864546575888,1.03941790232238,1.0429256730696,1.03541940717011,1.02647731801139,1.07768531842743,1.07962095358069,0.991090635913773,0.989318575562197,0.986874041025921,1.0522403492766,1.01071961211584,1.17692978560465,1.21316160417763,1.03258411060759,1.03205703624661,1.03267498549741,1.02936713950781,1.08967171639527,1.01841671528397,1.01835310286109,1.02333304682347,1.02363293395989,1.0253868193335,1.02749511677742,1.02851291554346,1.03111193739243,1.0350104701659,1.03593739404211,1.03712785509881,1.04557921985248,1.04480678328897,1.04687873077696,1.04800557941079,1.05682044372375,1.07311431146927,1.08828133058096,1.05619340698397,1.05642059420853,1.05600256971533,1.0589196536787,1.06029186451504,1.0610370386116,1.06340887323602,1.0683888171984,1.06889771658141,1.06845242962127,1.07213286265916,1.07774893085031,1.07926654151038,1.10790121929404,1.23759786205141,1.10782851938218,1.09043506546979,1.09085308996299,1.10092202775553,1.10226697612493,1.09983152907764,1.09885008026753,1.10183986414276,1.10239420097068,1.10511136017643,1.11184518951242,1.11037301629727,1.11247222625221,1.11379899964365,1.11435333647157,1.11110001541586,1.12658509664194,1.12214131452952,1.1215869777016,1.12300462598286,1.12536737311829,1.12824810712572,1.13382782536094,1.1923239919409,1.15380212614434,1.1548562748663,1.15333866420624,1.15178470359024,1.15649202288314,1.15932731944566,1.1720407165321,1.17130462992452,1.17773857212409,1.202102130086,1.23319951738391,1.20430130241975,1.19433232700602,1.31266960853534,1.3879321922879,1.18928877062077,1.18712594824295,1.19080638128083,1.19216041713922,1.19298737863662,1.19483213890005,1.19523198841528,1.19405970233655,1.18833458427761,1.18952504533431,1.31705886571386,1.20270190435885,1.19942132083619,1.19744024823801,1.20444670224347,1.19896694638706,1.19884880903029,1.1955864004856,1.1968768239211,1.19953037070397,1.20268372938088,1.20349251590032,1.20781816065596,1.2119893180989,1.21696017457229,1.21670572488078,1.2189230721925,1.22389392866589,1.22716542469957,1.22926463465451,1.34937397653541,1.29304063233327,1.28807886334886,1.29648479065762,1.29578505400597,1.25568196512646,1.25210149446738,1.25848999922204
1.01429099528594,1.01259163484622,1.01220087281998,1.01666282991036,1.01193733563949,1.01564503114432,1.0156541186333,1.01354582118938,1.02004337581182,1.02100664964396,1.02027056303638,1.02132471175835,1.02479613254964,1.02594115616143,1.02856744047735,1.0292126521951,1.02785861633672,1.0256957939589,1.04035391368757,1.03663713069376,1.03626454364548,1.03800025404112,1.03807295395298,1.18055569370864,1.02407822092003,1.0245053329022,1.02983060144591,1.04198057421543,0.991654060230684,0.985365517854836,1.05510290830607,1.05587534486958,1.17626639890893,1.0394088148334,1.03623728117853,1.18676244868365,1.03258411060759,1.03224787351524,1.03177532408815,1.3090164379644,1.07269628697607,1.02049775026094,1.02180634867442,1.02286958488536,1.02146102409308,1.02597750611736,1.02668633025799,1.02947618937559,1.030821137745,1.03334745968211,1.03558298197179,1.0426166984442,1.04554286989655,1.04445237121865,1.04767842980742,1.06883410415854,1.22864668540371,1.04558830734146,1.0526583737698,1.05276742363759,1.05192228716222,1.05429412178664,1.05439408416544,1.05934676566087,1.06094616372178,1.06622599482058,1.06932482856359,1.06839790468738,1.0731506614252,1.07576785825214,1.07684926944105,1.12238667673205,1.12264112642356,1.08589132097858,1.08699999463443,1.09025331569015,1.09714163233883,1.15322052684947,1.09884099277855,1.09844114326332,1.09966795427595,1.0988682552455,1.10183077665377,1.10691977048394,1.10919164272955,1.10912803030667,1.11141807753025,1.11271758845474,1.10472968563917,1.09824121850571,1.12182325241514,1.12135070298805,1.12115986571942,1.12154154025668,1.12465854897766,1.12611254721485,1.33503391892112,1.14048895478507,1.14596871064148,1.15096682958182,1.15173926614533,1.15169382870042,1.15574684878658,1.1703322686034,1.17065941820677,1.18662613634891,1.19325091581711,1.23629835112692,1.23611660134727,1.20131151854453,1.20167501810383,1.34002295037248,1.23638013852776,1.18672609872772,1.18615358692182,1.19295102868069,1.19193322991466,1.19583176268812,1.19502297616868,1.19203319229346,1.18787112233951,1.18840728418947,1.39014045211063,1.21171669342943,1.19896694638706,1.1956863628644,1.19230581696294,1.20038459466832,1.19872158418454,1.19586811264405,1.19652241185079,1.20404685272825,1.20373787810284,1.20263829193597,1.20915402153638,1.21165308100655,1.21737819906548,1.21455198999195,1.21909573448317,1.22242175545074,1.22530248945817,1.22664743782757,1.24115107024354,1.2474850500643,1.2468671008135,1.29668471541523,1.29324964457987,1.28727007682942,1.24947521015146,1.25481865367313
1.01367304603513,1.01246441000047,1.01360943361226,1.0157086435672,1.0136912210131,1.01483624462489,1.01603579317057,1.01109219916412,1.21101695677778,1.02288775986333,1.02594115616143,1.02627739325378,1.02437810805645,1.03513769501165,1.03210247369152,1.03021227598317,1.03125733721615,1.02359658400396,1.30556319215107,1.03714603007677,1.03670074311663,1.03543758214807,1.03529218232436,1.02886732761377,1.02631374320971,1.02648640550037,1.02975790153405,1.02275144752859,1.08245625014321,0.985274642965012,1.05237666161134,0.975678254599556,1.06389959764107,1.06486287147321,1.17521225018697,1.04118087518498,1.1796469448104,1.24590382698136,1.13021100474593,1.04593363192279,1.07928471648834,1.02115204946768,1.01790781590095,1.01973440118642,1.01888017722207,1.01962535131863,1.0239873460302,1.02850382805447,1.03144817448478,1.03254776065166,1.03506499509979,1.04159889967817,1.04360723474329,1.04151711227733,1.15003990570561,1.06343613570297,1.08579135859977,1.0414807623214,1.20548267598747,1.05147700020208,1.05186776222832,1.05389427227141,1.05507564583913,1.056693218878,1.05844710425161,1.06764364310184,1.06730740600949,1.07096966406941,1.07600413296568,1.07659481974954,1.07586782063095,1.08025707780946,1.08038430265522,1.08235628776441,1.08488260970152,1.08639113287261,1.09885008026753,1.176748035825,1.09822304352774,1.09681448273547,1.09699623251512,1.09985879154458,1.09908635498108,1.10478421057307,1.11269941347677,1.11151803990905,1.10799209418387,1.10638360863398,1.10538398484591,1.10148545207244,1.12300462598286,1.11767935743915,1.12363166272264,1.12322272571843,1.1232409006964,1.12631247197246,1.12943856818242,1.493965013735,1.14810427055235,1.14636856015671,1.14893123204975,1.15016713055137,1.14949465636667,1.16409825116145,1.16507061248257,1.16856020825182,1.17669351089111,1.20273825431478,1.20736378620684,1.20232931731057,1.20341072849948,1.33178968535439,1.19365985282132,1.18910702084112,1.18749853529123,1.19492301378988,1.19220585458413,1.19190596744771,1.19534103828307,1.19008846965122,1.18845272163438,1.18638986163537,1.39661074426613,1.38815937951246,1.1967768615423,1.19453225176363,1.19197866735957,1.19188779246974,1.19614982480251,1.19499571370174,1.19546826312882,1.20198399272923,1.2032925911427,1.20139330594537,1.20384692797063,1.21234373016921,1.21605142567405,1.21476100223854,1.21676933730366,1.21942288408653,1.22755618672582,1.22661108787164,1.23613477632524,1.2392608725352,1.24178719447232,1.4202200406425,1.37577313202939,1.29095959735629,1.46418531233954,1.24833927402865
1.01385479581478,1.01330045898685,1.01631750532902,1.01630841784004,1.0149816444486,1.01245532251149,1.01289152198264,1.00917473898883,1.01510886929436,1.01376392092496,1.02254243528199,1.13942571857412,1.02894911501461,1.03084840021194,1.03730960487846,1.04462503350932,1.02319673448873,1.02286958488536,1.02596841862837,1.03704606769797,1.03953603967915,1.16388923891485,1.03263863554148,1.03192072391187,1.02555039413518,1.0230058972201,1.02115204946768,1.02371472136073,1.02539590682248,1.16168097909212,0.973033795305666,1.05816539209315,0.978813438298497,1.05473032125779,1.17730237265293,1.21426119034451,1.18446331397109,1.20654591219842,1.09503333489491,1.05647511914242,1.09285233753912,1.01424555784103,1.01376392092496,1.04883254090819,1.01936181413814,1.01919823933646,1.02301498470908,1.02623195580886,1.03202977377966,1.03255684814064,1.03510134505572,1.04118087518498,1.04332552258483,1.03941790232238,1.03833649113347,1.05103171324194,1.09184362626207,1.04010855148505,1.0412717500748,1.05124981297752,1.04788744205402,1.05423959685274,1.05447587156628,1.05628428187379,1.05563907015604,1.05964665279729,1.06679850662647,1.06713474371882,1.0727871618659,1.07707645666561,1.07567698336231,1.07605865789958,1.07968456600357,1.08190191331528,1.08034795269929,1.14281535196457,1.13983465557833,1.34226756015114,1.09947711700732,1.09842296828536,1.09758691929897,1.0988682552455,1.09833209339553,1.10103107762332,1.10126735233686,1.11086374070232,1.11054567858793,1.10866456836857,1.10428439867903,1.11130902766246,1.11675243356294,1.11787928219676,1.11696144580953,1.12001484210763,1.12181416492616,1.1278482576105,1.12835715699351,1.13341888835673,1.1386078445657,1.14213379029089,1.14484186200766,1.1483405452659,1.14914933178533,1.15836404561353,1.1620535661404,1.16222622843106,1.17573023705897,1.20633689995182,1.21203475554381,1.20232931731057,1.20381966550369,1.2001392324658,1.18656252392603,1.18384536472028,1.18501765079902,1.19551370057374,1.19428688956111,1.19262387907732,1.19170604269009,1.18871625881487,1.18753488524715,1.39648351942037,1.18941599546652,1.21088064444304,1.19597716251184,1.19525016339325,1.19039744427662,1.19193322991466,1.19545917563984,1.19619526224742,1.1956863628644,1.20454666462228,1.20203851766313,1.19923957105654,1.20471023942396,1.20499195158242,1.20970835836431,1.21263452981665,1.21205293052178,1.22141304417369,1.22669287527248,1.22950090936806,1.23005524619599,1.24018779641141,1.23919726011232,1.24809391182613,1.32411984465321,1.27089442168307,1.27053092212377,1.2558182774612
1.017362566562,1.01611758057141,1.01533605651892,1.02081581237533,1.01661739246544,1.01169197343696,1.01067417467093,1.0052035063035,1.01645381766376,1.01214634788608,1.0177260661213,1.02490518241743,1.03312935994653,1.03332019721517,1.03927250249866,1.04224411139592,1.02490518241743,1.02395099607427,1.02706800479525,1.09898639260227,1.06490830891812,1.06563530803672,1.06377237279532,1.0241963582768,1.02474160761574,1.02311494708789,1.0209339497321,1.02448715792424,1.02521415704283,1.06292723631995,1.01457270744439,1.07606774538856,1.0775490060927,1.16169915407008,1.04727858029219,1.17874728340114,1.04355270980939,1.06501735878591,1.06369967288346,1.05650238160937,1.0553482705086,1.1129447756793,1.01512704427232,1.01449092004355,1.02067950004059,1.01963443880761,1.02084307484228,1.02592298118346,1.22811052355374,1.03496503272099,1.03756405456997,1.04532477016097,1.0373368673454,1.03773671686063,1.03998132663929,1.0273497169537,1.11009130413881,1.03722781747761,1.04027212628673,1.04533385764995,1.04694234319984,1.04838725394805,1.05336719791043,1.05636606927463,1.05561180768909,1.05739295552965,1.06570800794858,1.06832520477552,1.0743411224819,1.23628926363794,1.07410484776835,1.07375043569804,1.07829418018926,1.10503866026457,1.07932106644427,1.08035704018827,1.08036612767725,1.08921734194615,1.18280939097629,1.09351572423484,1.09631467084143,1.10103107762332,1.09618744599568,1.09715071982782,1.10419352378921,1.1093733925092,1.1079739192059,1.10656535841362,1.10807388158471,1.10412082387735,1.11478953594273,1.11514394801305,1.1149076732995,1.11539839770455,1.11697053329852,1.57262631836699,1.12667597153176,1.13152869064838,1.13410045003041,1.14006184280289,1.14276991451966,1.14784982086084,1.14889488209382,1.15760978402798,1.16115390473113,1.16130839204384,1.17543034992255,1.193305440751,1.20308357889611,1.21558796373594,1.2820538581535,1.2301006836409,1.18765302260393,1.18201877943481,1.3342705698466,1.19608621237963,1.19213315467227,1.19048831916645,1.18910702084112,1.18830732181066,1.18819827194287,1.19383251511198,1.19228764198497,1.24833927402865,1.28987818616738,1.19691317387703,1.18908884586315,1.18907067088519,1.19603168744574,1.19465947660939,1.19481396392209,1.19406878982553,1.20026645731155,1.1975492981058,1.19833990964727,1.20154779325808,1.20669131202214,1.21323430408949,1.21463377739279,1.21398856567503,1.21958645888822,1.22877391024946,1.23073680786967,1.2344445033745,1.23133658214251,1.25039304653868,1.24901174821335,1.38387008471275,1.27300271912699,1.27092168415001
1.01900740206782,1.01559050621043,1.01807139070263,1.02563218153602,1.01459996991134,1.01298239687247,1.01294604691654,1.00539434357213,1.01722625422727,1.0175170538747,1.01743526647386,1.0180895656806,1.04042661359943,1.03562841941671,1.04141714989852,1.04137171245361,1.04809645430061,1.09590573383722,1.10452976088156,1.08167472609072,1.42807163112333,1.07765805596049,1.05983749006592,1.02721340461897,1.02606838100718,1.02570488144788,1.02039778788214,1.03642811844716,1.03939972734442,1.20796356047968,0.975823654423275,0.938855749242714,1.08032977772132,1.03939972734442,1.03966326452491,1.21267996726156,1.08571865868791,1.18724408559972,1.05857432909736,1.01267342224707,1.06480834653932,1.11520756043592,1.11230865145053,1.01523609414011,1.01350947123345,1.07096966406941,1.04148984981038,1.05032288910131,1.02356023404803,1.05897417861259,1.05081361350636,1.04752394249472,1.03719146752169,1.03424712109137,1.0300941386264,1.02770412902402,1.11494402325543,1.11737947030273,1.03864546575888,1.04527933271606,1.04559739483044,1.04588819447788,1.04613355668041,1.05482119614762,1.0563297193187,1.05552093279926,1.06699843138408,1.06506279623083,1.06950657834324,1.0702517524398,1.07285986177776,1.07445017234968,1.07598595798772,1.08058422741283,1.07911205419768,1.0752680463581,1.0787394671494,1.08288336212539,1.11660703373922,1.09392466123905,1.09269785022642,1.11299930061319,1.0936429490806,1.09476071022544,1.09824121850571,1.12109625329654,1.10867365585755,1.10389363665279,1.10472059815019,1.10592923418485,1.10794665673895,1.10874635576941,1.11382626211059,1.11370812475382,1.11672517109599,1.11687057091971,1.12483121126833,1.14536893636864,1.13360972562536,1.13500919892866,1.13968925575461,1.13994370544612,1.14848594508961,1.16635194842909,1.15645567292721,1.16399828878264,1.16400737627162,1.17034135609238,1.24089662055204,1.23409917879317,1.28119963418915,1.18969770762498,1.18305475317881,1.18222779168141,1.18323650295846,1.19532286330511,1.19219676709515,1.19230581696294,1.19051558163339,1.18939782048855,1.19802184753289,1.19923957105654,1.1875621477141,1.26180693270063,1.58171380734943,1.19573180030931,1.18851633405726,1.18638986163537,1.18946143291143,1.195895375111,1.19183326753585,1.19618617475844,1.19176056762399,1.19747659819394,1.19792188515408,1.20167501810383,1.20850880981862,1.20737287369582,1.20932668382704,1.21404309060893,1.22006809580429,1.23103669500609,1.23080042029255,1.23458990319822,1.23179095659163,1.2378613992319,1.24841197394051,1.3887591537853,1.27387511806931,1.27381150564643
1.0167446173112,1.01569046858923,1.02551404417925,1.02871284030107,1.02179726118543,1.01702632946965,1.00517624383655,1.00412209511459,1.00473095687641,1.01412742048426,1.01954356391779,1.0185530276187,1.10118556493602,1.03487415783116,1.10103107762332,1.04189878681459,1.05720211826102,1.06073715147518,1.07307796151334,1.06355427305974,1.0647629090944,1.06581705781637,1.07510447155642,1.0292126521951,1.02888550259174,1.026159255897,1.02545043175637,1.07724911895628,1.08405564820412,1.02059771263975,1.06224567464627,0.938146925102083,0.934693679288757,0.931722070391499,1.03794572910723,0.981521510015264,1.24255054354684,1.19680412400924,1.01661739246544,1.01871660242039,1.07076065182281,0.999478388244563,1.14243367742731,1.14322428896878,1.01679005475611,1.42443663553036,1.04354362232041,1.03829105368856,1.02154281149393,1.02540499431146,1.02704982981728,1.02933987704086,1.03597374399804,1.03440160840408,1.03228422347117,1.02851291554346,1.0285947029443,1.12839350694944,1.03844554100126,1.03850915342414,1.04448872117458,1.04375263456701,1.04522480778216,1.05104080073092,1.05286738601639,1.05448495905527,1.14545981125846,1.06285453640809,1.065489908213,1.06374511032837,1.0700972651271,1.07288712424471,1.07728546891221,1.0795664286468,1.08031160274336,1.07349598600653,1.07538618371488,1.07950281622392,1.08560052133114,1.08916281701225,1.09005339093253,1.09140742679092,1.09442447313309,1.09393374872803,1.09646007066515,1.09822304352774,1.10975506704646,1.10181260167581,1.10411173638837,1.10757406969067,1.10928251761937,1.11021852898456,1.11222686404968,1.11286298827845,1.11391713700042,1.11804285699844,1.12434957435226,1.15549239909508,1.13246470201357,1.13575437302522,1.14049804227405,1.13997096791307,1.1432152014798,1.16644282331891,1.17267684076087,1.15851853292623,1.16378927653604,1.1639165013818,1.21816881060696,1.24972057235398,1.29025986070464,1.25565470265952,1.35534445679687,1.18339099027116,1.1891161083301,1.19657693678468,1.19609529986861,1.18950687035634,1.19002485722834,1.18935238304364,1.20174771801569,1.19535012577205,1.18608088700996,1.18117364295945,1.26857711199255,1.27167594573556,1.18643529908028,1.18561742507186,1.18945234542245,1.19430506453907,1.19306007854848,1.2972663147101,1.18931603308771,1.19032474436476,1.19685864894314,1.19488666383395,1.2512109205471,1.26465131675213,1.20859059721947,1.21256182990479,1.2185595726332,1.21865953501201,1.22734717447922,1.23050053315613,1.23407191632622,1.23452629077535,1.24222339394347,1.35784351626704,1.27681037701063,1.27446580485317
1.01683549220102,1.01480898215794,1.02498696981827,1.028749190257,1.08928095436903,1.01737165405099,1.00568514321957,1.00424931996034,1.01084683696159,1.00971090083879,1.02288775986333,1.01875295237632,1.01748979140776,1.03048490065265,1.10905533039481,1.09569672159063,1.05592986980347,1.13888955672416,1.07530439631403,1.07655846979361,1.06372693535041,1.07968456600357,1.15184831601312,1.02797675369349,1.03135729959496,1.027195229641,1.03317479739145,1.13195580263056,1.08231085031949,1.02704982981728,1.02039778788214,1.02989421386879,1.20153870576909,0.928096162287506,1.06726196856458,1.06783448037047,1.24358651729084,1.23012794610785,1.0432891726289,1.11509851056813,1.06374511032837,1.06826159235264,0.977641152219763,1.03587378161923,1.0229513722862,1.02136106171428,1.01507251933843,1.06030095200403,1.02068858752958,1.02365110893785,1.02445080796831,1.13648137214381,1.03327475977025,1.03295669765587,1.03046672567468,1.02995782629166,1.02938531448577,1.1201875043983,1.03559206946078,1.035991918976,1.04201692417136,1.04102638787227,1.0427711857569,1.24270503085954,1.05186776222832,1.05322179808671,1.05737478055168,1.06180038768613,1.06327256090128,1.06493557138507,1.06958836574408,1.06983372794661,1.07502268415558,1.22790151130715,1.08007532802981,1.07171483816597,1.07442290988274,1.0808568520823,1.08371032362279,1.08602763331331,1.08865391762924,1.08859939269534,1.09513329727372,1.09329762449926,1.09494246000508,1.09675995780157,1.10496596035271,1.10153997700634,1.10459337330443,1.10522949753321,1.10961875471172,1.10970054211257,1.11041845374218,1.11186336449039,1.11349911250722,1.11719772052308,1.1181155569103,1.1233953880091,1.13215572738817,1.15124854174028,1.14190660306633,1.1411977789257,1.14105237910198,1.1459050982186,1.15167565372245,1.15515616200273,1.15954541918124,1.16228075336496,1.15631027310349,1.16099941741843,1.15689187239837,1.23967889702839,1.17336748992353,1.18039211890696,1.19090634365964,1.19285106630188,1.19590446259998,1.19246939176462,1.19148794295452,1.18622628683368,1.1935144529976,1.19153338039943,1.18004679432563,1.18017401917138,1.18411798938976,1.19022478198596,1.18436335159228,1.18571738745067,1.18565377502779,1.19234216691887,1.19101539352743,1.30650829100525,1.18979767000378,1.18949778286736,1.19525925088223,1.19712218612363,1.21457925245889,1.22321236699221,1.20485563924768,1.21419757792163,1.21425210285553,1.22018623316106,1.22343955421677,1.22367582893031,1.22654747544877,1.23219989359584,1.24025140883428,1.30289147039023,1.36636758093257,1.3660404313292
1.01967987625253,1.01794416585688,1.02730427950879,1.03203886126864,1.0355284570379,1.03969052699186,1.05842892927364,1.00360410824259,1.00413118260357,1.01068326215991,1.02054318770586,1.02155189898291,1.01603579317057,1.01475445722404,1.05689314363561,1.03465605809558,1.09592390881519,1.1058020093391,1.07457739719544,1.07574059578519,1.06311807358858,1.07064251446604,1.14952191883361,1.17264049080494,1.02117931193463,1.02435993307848,1.04291658558062,1.09817760608283,1.08229267534153,1.05184958725036,1.07122411376092,1.07156943834225,1.03312935994653,1.12388611241415,1.05831987940586,1.06699843138408,1.06917034125089,1.03983592681558,0.951105684391041,0.951832683509636,0.985474567722625,1.07192385041257,0.977314002616395,0.978022826757025,0.985547267634485,1.03497412020997,1.0353194447913,1.00120501115123,1.02308768462094,1.02290593484129,1.02443263299034,1.02725884206388,1.03222969853727,1.03185711148899,1.02925808964002,1.02885824012479,1.02685899254865,1.02936713950781,1.03613731879972,1.0345470082278,1.03857276584702,1.0376004045259,1.04171703703494,1.04373445958904,1.04954136504882,1.0514679127131,1.05442134663239,1.15767339645086,1.06126422583617,1.06382689772921,1.06618964486465,1.06550808319096,1.13288272650677,1.05383065984853,1.09496063498305,1.11383534959958,1.07058798953215,1.07295073666758,1.0812748765755,1.08244716265423,1.08557325886419,1.08718174441408,1.09831391841757,1.09393374872803,1.09400644863989,1.09331579947723,1.09658729551091,1.09967704176494,1.10051309075132,1.10332112484689,1.1105638535659,1.10733779497713,1.10435709859089,1.11081830325741,1.11385352457754,1.11204511427003,1.1176520949722,1.12306823840573,1.13548174835574,1.13562714817946,1.17324935256676,1.13765365822255,1.13962564333174,1.14653213495839,1.14820423293116,1.1501489555734,1.18454510137193,1.2076909358102,1.14984906843698,1.16077223019387,1.16079949266082,1.16385288895892,1.17184079177448,1.31933073795947,1.18915245828603,1.20242019220039,1.20099345643015,1.19031565687578,1.19048831916645,1.18970679511396,1.18692602348533,1.19236942938581,1.19495027625682,1.17581202445981,1.17446707609041,1.18947052040041,1.18516305062274,1.18478137608548,1.18624446181165,1.18695328595228,1.18716229819887,1.19177874260195,1.18619902436674,1.1853357129134,1.34152238605458,1.19421418964925,1.19668598665247,1.22824683588848,1.20721838638312,1.20887230937792,1.2099173706109,1.2160241632071,1.22416655333537,1.2228579549219,1.22785607386224,1.22729264954533,1.24221430645449,1.24576751464662,1.27596524053527,1.28301713198564
1.02232433554642,1.0206249751067,1.03420168364646,1.03553754452688,1.03638268100225,1.03618275624463,1.12284105118117,1.00506719396876,1.01012892533198,1.01300057185043,1.01661739246544,1.08747254406152,1.01400928312748,1.01275520964791,1.24620371411778,1.10136731471567,1.04197148672645,1.0987137679328,1.0766675196614,1.0743411224819,1.0701972275059,1.12320455074047,1.11309017550302,1.01260980982419,1.02366928391582,1.02445080796831,1.02827664082991,1.13128332844586,1.11957864263648,1.1132537503047,1.05979205262101,1.14017998015967,1.0452066328042,1.10232150105882,1.24853919878627,0.958466550466817,0.958012176017695,0.960683897778532,0.950887584655463,0.951550971351181,0.987673740056376,0.987973627192796,0.981039873099195,0.97986758702046,0.980839948341581,0.976423428696116,0.975641904643626,1.0789939168409,1.02271509757266,1.02200627343203,1.02355114655904,1.08042065261115,1.03265681051945,1.03192981140085,1.03098471254668,1.02682264259272,1.02447807043525,1.0326295480525,1.0329385226779,1.03437434593713,1.037545879592,1.03859094082498,1.03899987782919,1.04009946399607,1.04814189174552,1.05130433791141,1.05448495905527,1.05628428187379,1.05776554257793,1.06041000187182,1.06364514794956,1.06509914618676,1.13189219020768,1.05505747086116,1.05499385843828,1.1205510039576,1.0684887795772,1.07198746283544,1.07830326767824,1.08031160274336,1.0844282352524,1.08560052133114,1.1808374058671,1.09159826405955,1.09243431304593,1.09198902608579,1.09247066300186,1.09510603480677,1.09879555533364,1.12066005382539,1.10851008105587,1.10742866986696,1.10542942229082,1.1084919060779,1.11007312916085,1.11039119127523,1.12067822880335,1.12083271611605,1.129138681046,1.12985659267561,1.13271915170508,1.13396413769568,1.13735377108613,1.141043291613,1.1439422005984,1.14778620843797,1.18495403837614,1.14727730905495,1.14814062050828,1.15253896517578,1.16047234305745,1.17044131847119,1.17053219336101,1.22473906514126,1.21539712646731,1.26862254943746,1.19649514938384,1.19499571370174,1.31626825417238,1.18913428330806,1.18379992727537,1.18359091502878,1.20784542312291,1.17376733943876,1.17312212772101,1.18983401995971,1.18654434894807,1.18727134806666,1.18582643731846,1.18349095264997,1.18287300339916,1.18721682313277,1.19187870498076,1.18488133846428,1.19859435933878,1.18937964551059,1.19570453784237,1.23359936689914,1.20324715369779,1.21086246946508,1.20953569607364,1.21139863131504,1.21832329791966,1.23802497403359,1.22702911236483,1.27516554150481,1.23670728813113,1.24568572724578,1.24443165376621,1.28765175136668
1.02591389369448,1.02467799519287,1.10139457718262,1.33080823654429,1.09878646784466,1.05144065024615,1.0698882528805,1.00815694022279,1.01385479581478,1.01646290515274,1.01491803202573,1.0131732341411,1.00988356312946,1.01006531290911,1.06257282424964,1.0356829443506,1.03860002831396,1.09584212141435,1.07286894926674,1.07056981455418,1.14876765724807,1.27395690547015,1.15163930376652,1.14281535196457,1.24438621632129,1.04054475095621,1.12990203012053,1.08935365428088,1.09553314678894,1.10970054211257,1.12261386395661,1.06375419781735,1.0520858619639,1.07106053895923,1.07456830970646,1.08878114247499,0.959093587206605,0.957912213638888,0.951169296813918,1.06803440512808,1.25984403508042,0.99003648719181,0.985238293009082,0.983638894948173,0.982621096182139,0.973406382353946,0.973442732309876,1.0520858619639,1.02058862515077,1.0224333854142,1.02284232241841,1.02839477818668,1.08187465084834,1.02992147633573,1.03176623659917,1.02497788232929,1.02527776946571,1.02835842823075,1.03252958567369,1.03152087439664,1.03532853228029,1.03358373439566,1.03702789272,1.1496309687014,1.09353389921281,1.05042285148012,1.05227669923253,1.05671139385596,1.05773828011098,1.05994653993371,1.06114608847939,1.06256373676065,1.06319077350044,1.05698401852544,1.05626610689582,1.06087346380992,1.06964289067797,1.07036988979657,1.07486819684288,1.08036612767725,1.08121126415262,1.08372849860076,1.08612759569212,1.08731805674882,1.08853578027247,1.09070769013927,1.09342484934502,1.09380652388228,1.09837753084045,1.09970430423188,1.10720148264239,1.10816475647453,1.10897354299397,1.10897354299397,1.11050024114302,1.11179066457853,1.11767026995016,1.11729768290188,1.1378354080022,1.12679410888853,1.13284637655084,1.13303721381947,1.13081986650775,1.13810803267167,1.14410577540008,1.14555977363727,1.13626327240823,1.14137044121637,1.21317069166662,1.1535113264969,1.15790058367542,1.2175781238231,1.21443385263517,1.24586747702543,1.25389172979692,1.25231959420296,1.39405715986206,1.19573180030931,1.19932135845738,1.19306916603746,1.18018310666036,1.18009223177054,1.42428214821765,1.28746091409805,1.17372190199385,1.17381277688367,1.18353639009488,1.18730769802259,1.18452692639397,1.18296387828899,1.18012858172647,1.1821278293026,1.19348719053065,1.18112820551454,1.18452692639397,1.18685332357347,1.19125166824097,1.196413361983,1.2002937197785,1.20451031466635,1.20950843360669,1.21089881942101,1.26097088371424,1.27935487392572,1.22325780443712,1.22747439932497,1.23373567923387,1.23921543509029,1.24074213323933,1.35658035529848
1.02679538012577,1.02483248250557,1.03017592602724,1.02966702664423,1.01003805044216,1.00289528410196,1.00392217035698,1.00772074075164,1.00831142753549,1.01740800400692,1.01184646074966,1.01012892533198,1.00993808806335,1.01139208630054,1.02631374320971,1.02712252972914,1.03974505192575,1.04117178769599,1.07354142345144,1.07240548732864,1.06315442354451,1.24755774997616,1.04557013236349,1.02220619818964,1.02705891730627,1.11138172757432,1.13311900122031,1.09018970326727,1.07931197895529,1.07490454679881,1.12139614043296,1.07669478212835,1.05839257931772,1.06805258010605,1.0851007094371,1.03322023483636,1.00554883088483,0.95799400103973,0.944417292499966,1.07975726591543,1.12666688404278,1.12656692166397,0.987664652567393,0.98772826499027,0.982775583494841,0.975750954511416,0.975741867022433,1.02332395933448,1.02369654638276,1.0981957810608,1.00501266903487,1.02758599166725,1.02695895492746,1.03074843783314,1.03445613333797,1.03320205985839,1.02439628303441,1.028231203385,1.03272042294233,1.02947618937559,1.02962158919931,1.03198433633475,1.03206612373559,1.0378548542174,1.05465762134593,1.04512484540335,1.05035015156826,1.05468488381288,1.05987384002185,1.05831079191687,1.05954669041848,1.06065536407434,1.06239107446999,1.06025551455912,1.05936494063884,1.0589196536787,1.06772543050268,1.07212377517018,1.07377769816498,1.07642215745887,1.07673113208428,1.08336499904146,1.0842737479397,1.08618212062601,1.08761794388524,1.08848125533857,1.09272511269337,1.09021696573422,1.09486067260424,1.09825939348367,1.10373914934009,1.10751954475678,1.10778308193727,1.10867365585755,1.11384443708856,1.11386261206652,1.11307200052505,1.11528934783677,1.12354078783282,1.12446771170903,1.1350909863295,1.13600882271673,1.12979298025274,1.13632688483111,1.14195204051124,1.13918944386058,1.13515459875238,1.1354544858888,1.14488729945257,1.15286611477915,1.23668002566418,1.26343359322849,1.27997282317652,1.29278618264176,1.29083237251054,1.21534260153342,1.31963062509589,1.19435958947297,1.1987942840964,1.19171513017908,1.18157349247468,1.17987413203496,1.39868269175412,1.20824527263813,1.31810392694684,1.17537582498865,1.18027398155019,1.18094645573489,1.17373098948283,1.17984686956801,1.18040120639594,1.17849283370963,1.17620278648605,1.18814374700898,1.34008656279536,1.18768937255986,1.19259661661037,1.19301464110357,1.19802184753289,1.20413772761807,1.20548267598747,1.20840884743982,1.21762356126801,1.21820516056289,1.2231124046134,1.22797421121901,1.23405374134826,1.23483526540075,1.23939718486993,1.24104202037576
1.02118839942361,1.02898546497054,1.03259319809657,1.01874386488733,1.00815694022279,1.00399487026884,1.0040130452468,1.00549430595094,1.00299524648077,1.01633568030699,1.01057421229212,1.00909295158798,1.01019253775486,1.011155811587,1.17056854331694,1.02604111854023,1.04037208866554,1.04100821289431,1.0861366831811,1.19246939176462,1.05942855306171,1.06226384962423,1.03353829695074,1.03422894611341,1.05020475174454,1.09930445471666,1.14206109037903,1.07916657913157,1.07926654151038,1.07855771736975,1.07632219508007,1.07059707702113,1.06835246724247,1.06040091438283,1.05947399050663,1.09582394643638,1.08744528159457,1.01379118339191,0.95460436764928,1.09898639260227,1.11257218863102,0.994198557145767,0.99443483185931,0.989200438205425,0.985292817942977,0.985174680586205,1.21542438893426,0.997906252650602,0.999414775821686,1.00115957370631,1.00400395775782,1.00403122022477,1.08529154670573,1.02932170206289,1.03446522082695,1.03834557862245,1.02518689457588,1.02500514479623,1.02991238884675,1.02969428911117,1.02878554021293,1.05171327491562,1.14204291540107,1.11163617726582,1.05270381121471,1.04673333095325,1.04825094161331,1.05115893808769,1.05843801676263,1.05716576830509,1.05832896689484,1.06125513834718,1.05711124337119,1.05820174204908,1.05816539209315,1.05847436671856,1.06705295631798,1.07252362468541,1.07360503587432,1.07777619331726,1.07792159314098,1.08392842335837,1.0829287995703,1.08386481093549,1.08472812238882,1.08718174441408,1.08869935507415,1.08998977850966,1.09414276097463,1.09888643022346,1.1000041913683,1.10517497259931,1.10431166114598,1.10774673198134,1.10858278096773,1.11065472845572,1.11263580105389,1.11022761647355,1.2372434499811,1.12698494615716,1.13317352615421,1.12689407126734,1.12723939584867,1.13619057249637,1.15187557848006,1.12937495575955,1.13324622606606,1.13502737390662,1.18000135688071,1.14824058288709,1.2497660097989,1.17930162022907,1.2779644881114,1.27173955815843,1.21551526382408,1.21732367413159,1.24735782521855,1.19723123599142,1.19883972154131,1.1833182903593,1.1813553927391,1.17841104630879,1.40405339774274,1.20802717290255,1.20216574250888,1.17768404719019,1.17531221256577,1.18042846886289,1.17637544877672,1.17429441379974,1.17804754674949,1.17918348287229,1.17583019943777,1.17877454586808,1.32965412544352,1.18711686075396,1.18598092463116,1.1921149796943,1.20256559202411,1.20160231819197,1.20608245026031,1.20650956224249,1.21478826470549,1.21681477474857,1.21894124717046,1.22428469069214,1.22934642205536,1.23571675183205,1.23928813500214,1.24142369491302
1.02585936876058,1.02935805201882,1.03222969853727,1.01916188938053,1.01663556744341,1.0073754161703,1.00294980903586,1.00565788075262,1.00103234886056,1.01393658321562,1.00883850189648,1.00927470136763,1.01091953687345,1.08879022996397,1.03511043254471,1.03043037571875,1.03530126981334,1.03679161800646,1.12769377029779,1.06624416979854,1.16766963433154,1.16819670869252,1.04184426188069,1.03597374399804,1.03555571950485,1.10454793585952,1.09191632617393,1.07922110406547,1.08010259049676,1.08495530961338,1.08364671119991,1.07942102882308,1.14874039478112,1.15789149618644,1.1970313112338,1.22014988320513,1.22960087174686,0.965927378921399,0.967190539889958,1.22493898989887,1.14036172993931,0.992899046221278,0.994671106572853,0.988673363844444,0.985065630718415,0.985656317502274,1.20229296735464,1.02142467413715,1.01981618858726,1.00312247132652,1.00376768304427,1.00347688339684,1.00786614057535,1.08632752044973,1.0366643931607,1.03848189095719,1.03622819368955,1.02697712990542,1.02885824012479,1.02678629263679,1.02670450523595,1.02582301880465,1.0289036775697,1.11406253682414,1.03807295395298,1.03874542813768,1.04793287949893,1.04895067826496,1.05246753650117,1.05543005790944,1.05635698178565,1.05583899491365,1.05538462046453,1.05584808240263,1.05774736759996,1.05838349182873,1.0640904349097,1.07274172442099,1.07240548732864,1.07611318283347,1.08040247763318,1.08019346538659,1.08012076547473,1.08084776459332,1.08541877155149,1.08536424661759,1.08651835771836,1.08869026758517,1.09171640141632,1.09479706018137,1.09754148185406,1.10023137859286,1.10164902687412,1.10752863224576,1.10857369347874,1.10897354299397,1.10754680722373,1.10691977048394,1.11164526475481,1.12442227426412,1.12649422175211,1.12499478607001,1.13174679038396,1.15960903160412,1.12534011065134,1.12470398642257,1.12907506862313,1.1330735637754,1.23893372293183,1.22646568804792,1.17704792296142,1.27192130793808,1.23197270637128,1.20492833915954,1.26813182503241,1.21576971351559,1.1999847451531,1.19895785889808,1.19916687114468,1.18437243908127,1.18298205326695,1.17745685996563,1.45479793622068,1.45068130371164,1.26452409190638,1.19077911881389,1.17462156340311,1.17652993608942,1.17823838401812,1.17603921168437,1.17618461150809,1.17702974798346,1.17664807344619,1.17842013379777,1.18268216613053,1.18661704885993,1.18586278727439,1.18759849767003,1.3304901744299,1.20449213968839,1.20793629801273,1.20675492444501,1.20688214929077,1.21543347642324,1.21648762514521,1.22185833113383,1.22476632760821,1.23927904751316,1.23935174742502,1.24339568002221
1.03025771342808,1.03072117536619,1.03096653756871,1.01809865316958,1.02299680973112,1.15489262482223,1.00359502075361,1.00508536894673,1.00357684577564,1.009601850971,1.00882941440749,1.00885667687444,1.00998352550826,1.06707113129594,1.04838725394805,1.05814721711519,1.03531035730232,1.0358374316633,1.11421702413684,1.06730740600949,1.16901458270094,1.04169886205697,1.04198966170441,1.04053566346722,1.03700971774204,1.18633533670147,1.07823056776638,1.08232902529746,1.07894847939599,1.08300149948216,1.08283792468048,1.0861366831811,1.10442979850275,1.08303784943809,1.19323274083914,1.13820799505048,1.25678155129334,1.22404841597859,0.969444237157603,0.971434397244757,1.05765649271014,0.997551840580287,0.999351163398809,0.988237164373287,0.983738857326979,0.984956580850626,1.03392905897699,1.01987980101014,1.0056669682416,1.00533981863824,1.00444015722898,1.00700282912202,1.02726792955286,1.05523922064081,1.03142999950682,1.03258411060759,1.03370187175243,1.0275587292003,1.02656819290121,1.02242429792522,1.02066132506263,1.02586845624957,1.02705891730627,1.08056605243487,1.08890836732075,1.04898702822089,1.04505214549149,1.04537929509486,1.05409419702902,1.05507564583913,1.0549847709493,1.05392153473836,1.05411237200699,1.05309457324095,1.05635698178565,1.05793820486859,1.0624365119149,1.10651992096871,1.07509538406744,1.07619497023431,1.07984814080525,1.07933924142224,1.08226541287458,1.08042974010013,1.08391933586939,1.08393751084735,1.08545512150742,1.08510979692609,1.08875388000804,1.09114388961043,1.09660547048887,1.09650550811006,1.09942259207343,1.10201252643342,1.11032757885235,1.11027305391846,1.10438436105784,1.1054930347137,1.10365736193924,1.12316820078454,1.13661768447855,1.1225684265117,1.15979078138377,1.16827849609337,1.12125982809823,1.12463128651071,1.12740297065036,1.22038615791867,1.22239449298379,1.24352290486796,1.24303218046291,1.18075561846626,1.22950090936806,1.20740013616277,1.26999476027381,1.21919569686197,1.20181133043857,1.20005744506496,1.25037487156072,1.18618084938877,1.18328194040337,1.17578476199286,1.17324935256676,1.16881465794333,1.27492017930229,1.18654434894807,1.1752486001429,1.17536673749967,1.17379460190571,1.17867458348928,1.17650267362247,1.17439437617855,1.17306760278711,1.17613008657419,1.18081923088913,1.18313654057965,1.18645347405824,1.18919789573094,1.20940847122789,1.20027554480053,1.20414681510705,1.20684579933484,1.20668222453315,1.21383407836233,1.22085870734576,1.21964098382211,1.22534792690308,1.22416655333537,1.23766147447429,1.23585306416678
1.03196616135678,1.030821137745,1.09531504705336,1.01957082638474,1.08603672080229,1.08854486776145,1.2304641832002,1.00429475740526,1.00358593326463,1.00527620621536,1.00852952727107,1.00980177572861,1.00999261299725,1.11564375990708,1.04360723474329,1.04422518399409,1.03523765739046,1.03665530567172,1.03751861712505,1.0682343298857,1.11257218863102,1.21842326029846,1.04555195738553,1.0485690037277,1.03886356549445,1.13328257602199,1.07950281622392,1.08032977772132,1.08126578908651,1.08556417137521,1.08633660793871,1.08975350379611,1.12017841690932,1.11781566977388,1.10201252643342,1.10205796387833,1.10784669436015,1.09953164194122,1.00247725960877,0.972561245878579,0.973288244997175,1.18263672868562,1.03332928470415,1.07013361508303,0.985065630718415,1.03063030047636,0.994961906220292,1.00171391053424,1.00454011960778,1.00771165326265,1.00815694022279,1.01031976260061,1.03004870118149,1.03090292514584,1.03103923748057,1.03239327333896,1.03197524884577,1.03173897413222,1.02634100567665,1.02314220955483,1.02117931193463,1.02023421308045,1.05720211826102,1.05212221191983,1.04495218311269,1.52193630482294,1.03953603967915,1.0436526721882,1.05185867473934,1.05226761174355,1.05222217429864,1.05242209905625,1.05246753650117,1.05314909817485,1.05623884442888,1.05821991702705,1.06012828971336,1.05890147870073,1.07903935428582,1.07597687049873,1.07608592036652,1.07843049252399,1.08055696494588,1.07930289146631,1.07974817842645,1.08421922300581,1.0881541057352,1.08390116089142,1.08667284503107,1.08886292987583,1.11125450272856,1.0973142946295,1.09856836810908,1.1038845491638,1.104820560529,1.11046389118709,1.10640178361194,1.10587470925096,1.10484782299594,1.10425713621208,1.10857369347874,1.1115998273099,1.15824590825675,1.11980582986104,1.12009662950848,1.12342265047605,1.12944765567141,1.12985659267561,1.21805067325018,1.23687086293282,1.17117740507876,1.17015051882375,1.24416811658571,1.26861346194848,1.27159415833472,1.21558796373594,1.23745246222769,1.20092075651829,1.25325560556815,1.18139174269503,1.18311836560169,1.17683891071482,1.17324026507778,1.17098656781013,1.16925085741449,1.18384536472028,1.17771130965714,1.17668442340212,1.18250950383987,1.17558483723525,1.1739036517735,1.17257687838206,1.17218611635582,1.17547578736746,1.18051934375271,1.18320015300253,1.1835273026059,1.18830732181066,1.19228764198497,1.19978482039548,1.20390145290453,1.20311992885204,1.20312901634102,1.23936992240299,1.21648762514521,1.21857774761117,1.22621123835641,1.22532066443614,1.22749257430294,1.23273605544581
1.03780032928351,1.03231148593812,1.12010571699746,1.12010571699746,1.01947995149491,1.01918006435849,1.08348313639823,1.0041675325595,1.00623039255852,1.00244999714182,1.00932922630153,1.01111946163107,1.01114672409801,1.11001860422695,1.04268939835606,1.04509758293641,1.04027212628673,1.04211688655017,1.16823305864845,1.07335058618281,1.073250623804,1.22403024100063,1.20859059721947,1.11089100316926,1.11425337409277,1.11488949832154,1.07947555375697,1.08090228952722,1.08065692732469,1.08580044608875,1.086191208115,1.14219740271377,1.12419508703956,1.12991111760951,1.1353999609549,1.10542942229082,1.03660078073783,1.03325658479229,0.981557859971194,0.972852045526018,1.22190376857874,1.00707552903388,1.17318574014388,1.00832960251346,0.991981209834051,0.992453759261138,1.00085968656989,1.00378585802224,1.00394034533494,1.00733906621437,1.00870218956174,1.01081957449465,1.01545419387569,1.02800401616044,1.02906725237138,1.02908542734935,1.02928535210696,1.02775865395791,1.02488700743946,1.02482339501659,1.0219699234761,1.02057953766179,1.06682576909342,1.08353766133212,1.04122631262989,1.04612446919142,1.11068199092267,1.06807075508401,1.04781474214216,1.05306731077401,1.05163148751478,1.05218582434271,1.05056825130384,1.0540033221392,1.05454857147814,1.06100068865568,1.06054631420655,1.06035547693792,1.08108403930687,1.07491363428779,1.07489545930982,1.07652211983768,1.07953916617985,1.07919384159852,1.07888486697312,1.07964821604764,1.07378678565397,1.08608215824721,1.08299241199318,1.08675463243191,1.09117115207737,1.09247066300186,1.09509694731779,1.0979867688142,1.10232150105882,1.10439344854682,1.10789213180506,1.10220336370205,1.10161267691819,1.1054385097798,1.10992772933713,1.10755589471271,1.11424428660378,1.11488949832154,1.1164616339155,1.1199784921517,1.16757875944172,1.1977037854185,1.14041625487321,1.21509723933089,1.22254898029649,1.23896098539878,1.20447396471042,1.23333582971865,1.24507686548396,1.18965227018006,1.19186961749178,1.19686773643212,1.1965678492957,1.18178250472127,1.17960150736549,1.17650267362247,1.17656628604535,1.17178626684059,1.1702777436695,1.17355832719216,1.17862005855538,1.22030437051783,1.18464506375074,1.27419318018369,1.17490327556156,1.17086843045336,1.17104109274403,1.17441255115651,1.17818385908423,1.18902523344027,1.18358182753979,1.18899797097333,1.19067915643508,1.1983762596032,1.19909417123282,1.20149326832418,1.20198399272923,1.23234529341956,1.21220741783448,1.21801432329426,1.21814154814001,1.22492081492091,1.22684736258519,1.23336309218559
1.07373226072007,1.08655470767429,1.04433423386188,1.2275107492809,1.01951630145084,1.01939816409407,1.01840762779498,1.00676655440848,1.00624856753648,1.000805161636,1.12045104157879,1.12703947109106,1.07415937270225,1.02931261457391,1.23821581130222,1.04528842020504,1.04180791192476,1.04351635985346,1.05637515676361,1.08052970247894,1.1082828938313,1.08785421859878,1.15173926614533,1.41700306954272,1.11120906528365,1.13098344130944,1.08307419939402,1.08281974970251,1.09943167956241,1.10466607321629,1.14227010262563,1.10271226308507,1.10437527356886,1.12737570818341,1.13624509743027,1.1088554056372,1.12671232148769,1.11580733470876,1.20523731378495,0.985983467105642,1.06836155473145,1.18981584498175,1.04208053659424,1.12768468280881,0.996979328774393,0.997397353267585,1.01659921748748,1.00307703388161,1.00269535934435,1.0047400443654,1.00733906621437,1.01051968735823,1.01631750532902,1.02391464611834,1.02597750611736,1.02606838100718,1.02478704506066,1.02573214391483,1.02458712030304,1.02527776946571,1.02250608532606,1.02157916144986,1.02052501272789,1.02340574673533,1.04202601166034,1.04644253130581,1.0640904349097,1.06100977614466,1.04957771500475,1.05081361350636,1.05366708504685,1.04982307720728,1.05088631341822,1.05627519438481,1.09987696652255,1.06767090556879,1.06515367112065,1.06892497904836,1.08055696494588,1.07663116970547,1.07576785825214,1.07564063340638,1.0768220069741,1.07714006908849,1.07767623093845,1.07675839455122,1.0755315835386,1.11731585787985,1.08226541287458,1.08660923260819,1.08952631657155,1.09148012670278,1.09359751163568,1.09768688167778,1.09924084229378,1.10609280898654,1.11803376950946,1.09843205577434,1.09941350458444,1.10203978890037,1.10567478449334,1.10407538643244,1.11136355259635,1.11432607400463,1.11516212299101,1.18581734982947,1.1197240424602,1.25663615146962,1.14118869143672,1.1435787010391,1.14353326359419,1.14315158905692,1.26247940688533,1.23951532222671,1.27304815657191,1.19238760436378,1.19195140489262,1.20125699361064,1.21521537668766,1.17813842163931,1.17758408481138,1.17335840243455,1.17525768763188,1.17150455468213,1.169505307106,1.1681058338027,1.28962373647587,1.20695484920263,1.21398856567503,1.1889070960835,1.18928877062077,1.17260414084901,1.17177717935161,1.17389456428451,1.1765935485123,1.17968329476633,1.18542658780323,1.18580826234049,1.19306007854848,1.19733119837022,1.19685864894314,1.19994839519717,1.20227479237667,1.2267383127174,1.20798173545764,1.21437932770128,1.21863227254506,1.22449370293873,1.22589317624203,1.23366297932201
1.08227450036356,1.08988072864187,1.1481315330193,1.09905909251413,1.02011607572368,1.01968896374151,1.02058862515077,1.05677500627884,1.00635761740427,1.00076881168007,1.12284105118117,1.0500684394098,1.0775490060927,1.10401177400956,1.09455169797884,1.0459790693677,1.04228046135185,1.04265304840013,1.04467955844321,1.13076534157386,1.08597310837942,1.15230269046224,1.14809518306337,1.07962095358069,1.12052374149065,1.07732181886814,1.07885760450617,1.10604737154162,1.22700184989789,1.10173081427497,1.34312178411549,1.10313937506724,1.10410264889938,1.11140899004126,1.1464230850906,1.13330075099996,1.14980363099207,1.13306447628642,1.13055632932726,1.03986318928252,1.03851824091312,1.20847245986269,1.03372004673039,1.0255413066462,1.09234343815611,0.997715415381971,1.02012516321266,1.00454920709676,1.00427658242729,1.00505810647978,1.00523076877045,1.00725727881353,1.01373665845801,1.12759380791899,1.02448715792424,1.02460529528101,1.02333304682347,1.0233693967794,1.02376015880564,1.0240418709641,1.02296045977519,1.02253334779301,1.02135197422529,1.02135197422529,1.03333837219313,1.26694136397571,1.04079920064771,1.03922706505375,1.04835090399212,1.04927782786833,1.05263111130285,1.05251297394608,1.04902337817682,1.05440317165442,1.12455858659885,1.06929756609664,1.06761638063489,1.07714915657747,1.08250168758813,1.07375043569804,1.07332332371586,1.07474097199712,1.07497724671067,1.07520443393523,1.07489545930982,1.07800338054182,1.07582238318603,1.07519534644624,1.07958460362476,1.08395568582532,1.08680006987682,1.09123476450025,1.09408823604074,1.09717798229476,1.09725068220662,1.10834650625418,1.14923111918617,1.10120373991398,1.10090385277756,1.10181260167581,1.10063122810809,1.10116738995806,1.10702882035173,1.111545302376,1.10522041004422,1.18718047317684,1.12041469162286,1.18718047317684,1.14490547443053,1.14024359258254,1.14107964156893,1.14050712976303,1.16288961512678,1.17280406560662,1.20661861211028,1.194341414495,1.19408696480349,1.20140239343436,1.20426495246383,1.23047327068918,1.17656628604535,1.17554848727932,1.16850568331793,1.16687902279007,1.16821488367049,1.16823305864845,1.17170447943975,1.19270566647816,1.2588716737593,1.21939562161959,1.19205136727143,1.19493210127886,1.17408540155315,1.17431258877771,1.17665716093518,1.1763845362657,1.17767495970121,1.18538115035832,1.18782568489459,1.1985852718498,1.19747659819394,1.19887607149724,1.20114794374285,1.20458301457821,1.21153494364978,1.21059893228458,1.2172691491977,1.21729641166464,1.22476632760821,1.22751983676989
1.02344209669125,1.09544227189912,1.0533308479545,1.05614796953905,1.08597310837942,1.02157916144986,1.02286049739638,1.2246663652294,1.01381844585885,1.00582145555431,1.11240861382933,1.05553910777723,1.10448432343665,1.05526648310776,1.04626078152616,1.0482055041684,1.0463970938609,1.04226228637389,1.048932503287,1.19505023863563,1.1838908021652,1.0951423847627,1.15933640693465,1.24688527579146,1.07274172442099,1.07940285384511,1.15788240869746,1.10253051330542,1.23769782443022,1.19280562885697,1.1975492981058,1.1051295351544,1.10522041004422,1.10878270572534,1.1031121126003,1.12803909487913,1.1547563124875,1.05221308680966,1.0671983561417,1.08064783983571,1.166915372746,1.13181949029582,1.10827380634232,1.0545213090112,1.06074623896417,0.991399610539176,0.993498820494119,1.00395852031291,1.00283167167908,1.00368589564343,1.00411300762561,1.00625765502546,1.00725727881353,1.02575940638178,1.05500294592727,1.02266966012775,1.02247882285912,1.02282414744045,1.0230058972201,1.02283323492943,1.02381468373953,1.02273327255062,1.02241521043624,1.02167003633968,1.02983968893489,1.26742300089178,1.0421532365061,1.04002676408421,1.04899611570987,1.04796014196588,1.04787835456503,1.05582990742467,1.05134068786734,1.05004117694285,1.06755276821201,1.07879399208329,1.07983905331627,1.08062966485774,1.08321959921774,1.0818928258263,1.07402306036751,1.07524078389116,1.07383222309888,1.07422298512512,1.07514990900133,1.07800338054182,1.07672204459529,1.07709463164357,1.07841231754603,1.08012985296371,1.08347404890925,1.08861756767331,1.09056229031555,1.09273420018235,1.10895536801601,1.22418472831333,1.18977040753683,1.10098564017841,1.10084932784367,1.09995875392339,1.10147636458346,1.10068575304199,1.10511136017643,1.11409888678007,1.10621094634331,1.16891462032214,1.27083989674917,1.19423236462721,1.21872314743489,1.13487288659392,1.14081610438844,1.14250637733917,1.16423456349618,1.26547827824953,1.17557574974627,1.28417124308641,1.19556822550763,1.233672066811,1.19772196039647,1.24073304575035,1.17469426331497,1.17701157300549,1.16710621001463,1.16509787494951,1.17011416886782,1.16913272005772,1.17620278648605,1.17668442340212,1.22991893386125,1.28990544863433,1.29140488431643,1.19590446259998,1.19841260955913,1.1776295222563,1.17647541115553,1.17067759318473,1.17650267362247,1.18311836560169,1.1824913288619,1.19893968392012,1.19715853607956,1.19645879942791,1.20019375739969,1.20114794374285,1.20816348523729,1.21018090779139,1.21595146329524,1.2177326111358,1.22374852884217,1.22376670382014
1.02011607572368,1.5140938018311,1.05314001068587,1.14854955751249,1.07902117930785,1.0218154361634,1.02339665924634,1.02540499431146,1.04124448760785,1.01124668647682,1.14496908685341,1.10314846255623,1.10261230070626,1.05163148751478,1.18219144172548,1.13089256641961,1.05124072548854,1.04318012276111,1.04922330293443,1.17098656781013,1.17346745230234,1.10718330766443,1.21232555519125,1.11256310114203,1.07676748204021,1.07848501745789,1.17391273926248,1.22076783245593,1.295766879028,1.1183245691569,1.12533102316236,1.10888266810415,1.10963692968969,1.11020944149558,1.10656535841362,1.16136291697773,1.12943856818242,1.18232775406022,1.17937432014092,1.17732963511988,1.16811492129168,1.12990203012053,1.04220776143999,1.18817100947593,1.01784420347807,0.989473062874898,0.99179037256542,1.00190474780287,1.00315882128245,1.00319517123838,1.00262265943249,1.00418570753747,1.01766245369842,1.01917097686951,1.02379650876157,1.02278779748452,1.02084307484228,1.02050683774993,1.02197901096508,1.0243508455895,1.02498696981827,1.02338757175736,1.02247882285912,1.02263331017182,1.03102106250261,1.03720964249965,1.04020851386386,1.03887265298344,1.0698882528805,1.04746941756082,1.04547016998469,1.05235848663338,1.05205859949696,1.05121346302159,1.05303096081808,1.05453948398916,1.05891056618971,1.10063122810809,1.08319233675079,1.08272887481269,1.0720601627473,1.07297799913453,1.07305069904639,1.07303252406842,1.0736686482972,1.07714006908849,1.07793068062996,1.07783980574013,1.07831235516722,1.08026616529845,1.08447367269731,1.08630934547177,1.0887266175411,1.09227073824425,1.18933420806568,1.21060801977357,1.26795007525276,1.10166720185209,1.10147636458346,1.10079480290978,1.23052779562307,1.22956452179094,1.14371501337383,1.1523208654402,1.10551120969166,1.14723187161004,1.18506308824393,1.18186429212211,1.12938404324853,1.13706297143869,1.18089193080099,1.19527742586019,1.1763845362657,1.17597559926149,1.17675712331398,1.18754397273614,1.18894344603943,1.19715853607956,1.19815815986763,1.24827566160578,1.18035576895103,1.1809918931798,1.1713137174135,1.16936899477126,1.17411266402009,1.17140459230333,1.17702974798346,1.16647008578586,1.17480331318276,1.23827033623611,1.28105423436543,1.54394620313841,1.20270190435885,1.20372879061386,1.17465791335904,1.17526677512086,1.1771115353843,1.17882907080198,1.18277304102036,1.18413616436772,1.1930509910595,1.19237851687479,1.20222026744278,1.20230205484362,1.20928124638213,1.20854515977455,1.21322521660051,1.2155061763351,1.22171293131011,1.22768341157157
1.02307859713196,1.06040091438283,1.1157891597308,1.12583083505639,1.07996627816203,1.02191539854221,1.02254243528199,1.02444172047932,1.02424179572171,1.01561776867738,1.01450909502152,1.03887265298344,1.10519314757728,1.05184049976138,1.05716576830509,1.05461218390102,1.05513017077302,1.13890773170212,1.15060333002252,1.16800587142389,1.17714788534023,1.10219427621307,1.10454793585952,1.11385352457754,1.07807608045368,1.08095681446111,1.18939782048855,1.29397664369846,1.37256524841859,1.34147694860967,1.13663585945651,1.13600882271673,1.10771038202541,1.11091826563621,1.1079739192059,1.12750293302916,1.1271757834258,1.17702066049447,1.15810050843304,1.16652461071976,1.15830952067963,1.12952035558326,1.03930885245459,1.04612446919142,1.00170482304526,0.9903000243723,0.990827098733282,1.00047801203263,1.00235003476301,1.00289528410196,1.00219554745031,1.00327695863922,1.0128097345818,1.02164277387273,1.01878930233225,1.02276962250655,1.02141558664817,1.02084307484228,1.02092486224312,1.02575031889279,1.02595024365041,1.02266057263877,1.02286049739638,1.02290593484129,1.02446898294627,1.02678629263679,1.02742241686556,1.03891809042835,1.04242586117557,1.04545199500672,1.04455233359746,1.04840542892601,1.05469397130186,1.05407602205106,1.05280377359352,1.0565387315653,1.05837440433975,1.06099160116669,1.08017529040862,1.08196552573816,1.07063342697706,1.07571333331824,1.07564063340638,1.07251453719643,1.07214195014815,1.07502268415558,1.07775801833929,1.0761495327894,1.08188373833732,1.07916657913157,1.08079323965943,1.08424648547275,1.08670010749801,1.08869935507415,1.09306134978572,1.21622408796471,1.14589601072962,1.09897730511329,1.10212157630121,1.10210340132325,1.16465258798937,1.09198902608579,1.09882281780059,1.09935897965055,1.09998601639034,1.10705608281868,1.18217326674752,1.18302749071187,1.18315471555762,1.16734248472818,1.16812400878067,1.18455418886092,1.17325844005574,1.17304942780915,1.2136977660276,1.19497753872377,1.22783789888427,1.19474126401023,1.19909417123282,1.19408696480349,1.18276395353137,1.17956515740956,1.17613917406318,1.17015051882375,1.17346745230234,1.1726586657829,1.17807480921644,1.16610658622656,1.16675179794432,1.25061114627426,1.29562147920428,1.21156220611672,1.20776363572206,1.68564741884158,1.17394000172943,1.17403996410823,1.17652084860044,1.17530312507679,1.1833182903593,1.1832183279805,1.19302372859255,1.19178783009094,1.19474126401023,1.20525548876291,1.20610062523828,1.20710024902635,1.20889048435589,1.21238916761413,1.27730110141569,1.31239698386587
1.02411457087596,1.02492335739539,1.21123505651336,1.11762483250525,1.07610409534449,1.02152463651596,1.02275144752859,1.02349662162515,1.0226423976608,1.02047957528298,1.01623571792818,1.1797469071892,1.05423050936376,1.05597530724839,1.06387233517413,1.07001547772625,1.05887421623378,1.13205576500937,1.06668945675868,1.06165498786241,1.1771115353843,1.10452067339258,1.10384819920787,1.10365736193924,1.08211092556188,1.10114012749111,1.13616331002943,1.18633533670147,1.22037707042969,1.22143121915165,1.13794445786999,1.12773012025372,1.10153088951735,1.11192697691326,1.11100005303705,1.13923488130549,1.14605049804232,1.15636479803739,1.15593768605521,1.14842233266674,1.06738010592135,1.06318168601146,1.11465322360799,1.20917219651434,1.20931759633806,0.991799460054403,0.991263298204439,0.994989168687239,1.08188373833732,1.00681199185339,1.00681199185339,1.00170482304526,1.00434928233915,1.01400928312748,1.01911645193561,1.02218802321168,1.02242429792522,1.20270190435885,1.02229707307947,1.02441445801238,1.02378742127259,1.02350570911413,1.02359658400396,1.02365110893785,1.02598659360634,1.03511043254471,1.02927626461798,1.03646446840309,1.03980866434863,1.04510667042539,1.04508849544742,1.04495218311269,1.05407602205106,1.05381248487057,1.05279468610453,1.06008285226845,1.06018281464726,1.06060992662943,1.13274641417203,1.07435929745986,1.07028810239573,1.07686744441901,1.07149673843039,1.0697337655678,1.07050620213131,1.07268719948709,1.07531348380302,1.07504994662253,1.07063342697706,1.07654029481565,1.07783071825115,1.08276522476862,1.0838102860016,1.08550964644131,1.19928500850145,1.10125826484788,1.24202346918586,1.09699623251512,1.10128552731483,1.12943856818242,1.09048959040369,1.08904467965548,1.08947179163766,1.16497065010376,1.0976232692549,1.10402086149854,1.10607463400857,1.16519783732832,1.13678125928023,1.17044131847119,1.16962344446277,1.1720407165321,1.17290402798543,1.16861473318572,1.16709712252565,1.18371813987453,1.24349564240101,1.19869432171759,1.19571362533135,1.1938779525569,1.18308201564576,1.17858370859945,1.17929253274008,1.17284041556255,1.17208615397701,1.16627016102825,1.17385821432858,1.16771507177646,1.16647917327484,1.17101383027708,1.19584993766609,1.21029904514816,1.20873599704318,1.66211990986605,1.17370372701588,1.17433076375567,1.17470335080395,1.17447616357939,1.17781127203595,1.18364543996267,1.19325091581711,1.19311460348237,1.19416875220434,1.20531001369681,1.20661861211028,1.20510100145021,1.20540088858663,1.20880869695504,1.21424301536654,1.2111623566015
1.25449150406977,1.22821957342153,1.20027554480053,1.09791406890234,1.25314655570036,1.02254243528199,1.02221528567863,1.02185178611933,1.02241521043624,1.02169729880663,1.01661739246544,1.13611787258452,1.05423959685274,1.06042817684978,1.06658949437988,1.06726196856458,1.20550085096544,1.06720744363068,1.0695792782551,1.17119558005673,1.07346872353958,1.19361441537641,1.1078739568271,1.10459337330443,1.12600349734706,1.16121751715401,1.12628520950552,1.1267577589326,1.13891681919111,1.14047986729609,1.14234280253749,1.128102707302,1.10221245119104,1.15018530552933,1.11186336449039,1.11229047647256,1.13826251998437,1.15582863618743,1.14795887072863,1.07021540248387,1.06543538327911,1.06440849702409,1.13373695047112,1.19975755792854,1.19194231740364,0.990472686662967,0.991763110098473,0.994198557145767,0.995298143312642,1.02445989545729,1.00845682735921,1.00806606533297,1.00753899097199,1.0112557739658,1.0189710521119,1.020470487794,1.0189710521119,1.017362566562,1.02256969774894,1.02288775986333,1.02366928391582,1.02646823052241,1.0239873460302,1.02522324453181,1.02837660320872,1.03093927510177,1.03224787351524,1.03551028205993,1.03879086558259,1.08792691851064,1.04399799676953,1.04441602126272,1.0548302836366,1.0531763606418,1.05251297394608,1.05256749887997,1.05836531685077,1.05932859068291,1.06410860988767,1.15870028270588,1.06972467807882,1.06997912777032,1.07021540248387,1.06889771658141,1.06945205340934,1.06734375596542,1.07324153631502,1.07467735957425,1.0726326745532,1.07375043569804,1.075322571292,1.07843958001298,1.08082050212637,1.08428283542868,1.2069184992467,1.21453381501398,1.09466983533561,1.09758691929897,1.09926810476073,1.0981412561269,1.08844490538264,1.08822680564706,1.08662740758615,1.08974441630713,1.09553314678894,1.09964069180901,1.15471996253157,1.13887138174619,1.13827160747335,1.16061774288117,1.15874572015079,1.17407631406416,1.17224972877869,1.16854203327386,1.16491612516986,1.22627485077929,1.21033539510409,1.19774013537443,1.19762199801766,1.19580450022117,1.17616643653012,1.17940158260787,1.17875637089012,1.17527586260984,1.16808765882474,1.16459806305548,1.16418912605127,1.16836028349421,1.1681058338027,1.17058671829491,1.27534729128446,1.31287862078193,1.35257277265723,1.18272760357544,1.18096463071285,1.17508502534121,1.17624822393097,1.17536673749967,1.1764390611996,1.17817477159524,1.19864888427268,1.19498662621275,1.18954322031227,1.20052999449204,1.20253832955716,1.20441943977653,1.20485563924768,1.20591887545863,1.21299802937595,1.21370685351658
1.17790214692577,1.01791690338993,1.13690848412599,1.09320674960944,1.01168288594798,1.01171923590391,1.02022512559147,1.02078854990838,1.02123383686852,1.05217673685373,1.0766675196614,1.14762263363628,1.11236317638442,1.06313624856655,1.0663168697104,1.06930665358562,1.07558610847249,1.18081923088913,1.06758003067896,1.18011949423748,1.08062966485774,1.08049335252301,1.1989487714091,1.13196489011954,1.09707801991596,1.09655094555498,1.11826095673402,1.19063371899017,1.13712658386157,1.14164306588584,1.14046169231812,1.13690848412599,1.12982933020867,1.11747943268153,1.11282663832252,1.11060020352183,1.11092735312519,1.10910076783972,1.08474629736679,1.2517289074191,1.06608059499686,1.06480834653932,1.15829134570167,1.195895375111,1.19895785889808,1.0701972275059,0.99294448366619,0.994298519524573,0.98299368323042,0.983111820587191,1.0445341586195,1.00972907581675,1.008047890355,1.0103288500896,1.01966170127456,1.01858029008565,1.01708994189253,1.01947086400593,1.01956173889575,1.02084307484228,1.02446898294627,1.02483248250557,1.02417818329883,1.02485974497252,1.13578163549217,1.03198433633475,1.03181167404408,1.03399267139987,1.03750044214709,1.18599001212014,1.04475225835507,1.04497035809065,1.04675150593121,1.05059551377078,1.05082270099534,1.05200407456306,1.05958304037441,1.05873790389905,1.06056448918452,1.07370499825312,1.06892497904836,1.06806166759503,1.06655314442395,1.06327256090128,1.06740736838829,1.06813436750689,1.06960654072204,1.07729455640119,1.07654938230463,1.0726326745532,1.0746500971073,1.07574059578519,1.08249260009914,1.08240172520932,1.07624040767923,1.09489702256017,1.21462468990381,1.09899548009125,1.09887734273448,1.09684174520241,1.08537333410658,1.08906285463345,1.08861756767331,1.08731805674882,1.09476979771442,1.13703570897174,1.15370216376553,1.13911674394872,1.13776270809034,1.14363322597299,1.17059580578389,1.16791499653407,1.17336748992353,1.17203162904311,1.16674271045533,1.16869652058656,1.2651874786021,1.19676777405331,1.20085714409541,1.20318354127491,1.17717514780717,1.17656628604535,1.18105550560268,1.17701157300549,1.16962344446277,1.16487977521393,1.16456171309955,1.17016869380171,1.17109561767792,1.17153181714908,1.17413992648704,1.43831323120654,1.17463973838107,1.1753485625217,1.18088284331201,1.17776583459103,1.17796575934865,1.17872910842317,1.1756120997022,1.17850192119861,1.18433608912534,1.19126984321894,1.18961592022413,1.19643153696096,1.19762199801766,1.20027554480053,1.20085714409541,1.2035016033893,1.20550993845442,1.21231646770227
1.02953980179847,1.01963443880761,1.10958240475579,1.02692260497153,1.01287334700468,1.0119827730844,1.02003428832284,1.02018877563554,1.02144284911512,1.09504242238389,1.16772415926544,1.21563340118086,1.11408979929108,1.06772543050268,1.12036016668897,1.07696740679782,1.21172578091841,1.17011416886782,1.18002861934766,1.07694923181986,1.07953916617985,1.2334630545644,1.10926434264141,1.14609593548723,1.09490611004915,1.09901365506922,1.09911361744802,1.18230049159327,1.13888955672416,1.1388168568123,1.14046169231812,1.13236473963477,1.32158443522711,1.11902430580855,1.1175975700383,1.11085465321334,1.11103640299298,1.11473501100884,1.14944013143277,1.1521663781275,1.07640398248091,1.0734596360506,1.1416612408638,1.18165527987552,1.13460026192445,1.09836844335146,0.993326158203452,0.994298519524573,0.984720306137083,0.985002018295538,0.987210278118271,1.08839946793773,1.00582145555431,1.00918382647781,1.01420012039611,1.01679005475611,1.01781694101113,1.01877112735428,1.01693545457983,1.02226981061252,1.02484156999455,1.02448715792424,1.02337848426838,1.02364202144887,1.0331475349245,1.03221152355931,1.0321660861144,1.03282947281011,1.03803660399705,1.06190943755392,1.04566100725332,1.04594271941177,1.04823276663535,1.04695143068882,1.04742398011591,1.04770569227437,1.05155878760292,1.05965574028627,1.0616095504175,1.07298708662351,1.07248727472948,1.06748006830015,1.06663493182479,1.06698025640612,1.06817071746282,1.06828885481959,1.0686977918238,1.07140586354057,1.07691288186393,1.07491363428779,1.07388674803277,1.07467735957425,1.07448652230561,1.07890304195108,1.0757860332301,1.09485158511526,1.36388669644036,1.09699623251512,1.09825939348367,1.09779593154557,1.09832300590655,1.09918631735988,1.08887201736482,1.08862665516229,1.13330075099996,1.12855708175113,1.15536517424932,1.13943480606311,1.13615422254045,1.14201565293412,1.15092139213691,1.17475787573785,1.17212250393294,1.1733311399676,1.17201345406515,1.16751514701884,1.2833988065229,1.19917595863366,1.20177498048264,1.20193855528432,1.18918880824196,1.17649358613349,1.18255494128478,1.17060489327287,1.16731522226123,1.16602479882572,1.16488886270292,1.17160451706094,1.17393091424044,1.17485783811665,1.17504867538528,1.17798393432661,1.17472152578192,1.17589381186065,1.18267307864155,1.18920698321992,1.17646632366654,1.17712062287328,1.17746594745461,1.17682982322584,1.17828382146303,1.18989763238259,1.18830732181066,1.19614982480251,1.19221494207311,1.19560457546356,1.20040276964629,1.20431947739772,1.20538271360867,1.20869964708726
1.0259048062055,1.026159255897,1.01879838982123,1.02185178611933,1.01967078876354,1.10504774775356,1.02057953766179,1.01987980101014,1.02084307484228,0.986110691951396,0.986955828426763,1.08371032362279,1.13768092068949,1.10511136017643,1.07351416098449,1.08192008829325,1.08321051172876,1.08301058697114,1.08283792468048,1.07513173402337,1.08708178203527,1.18831640929964,1.21184391827518,1.2361529513032,1.15948180675837,1.09832300590655,1.09915905489294,1.1681058338027,1.18690784850737,1.1396438183097,1.13991644297917,1.1352454736422,1.13060176677218,1.11827004422301,1.11647072140448,1.11162708977684,1.1106638159447,1.11351728748519,1.10865548087958,1.28172670855013,1.14921294420821,1.15805507098812,1.15010351812849,1.16694263521295,1.18164619238653,1.13281002659491,1.1608631050837,0.995225443400782,0.983647982437155,0.987101228250482,0.987991802170761,1.00377677053326,1.00474913185438,1.00772074075164,1.00984721317353,1.01496346947064,1.01554506876552,1.1675878469307,1.1641709510733,1.02133379924733,1.0265772803902,1.02539590682248,1.02338757175736,1.0238328587175,1.02995782629166,1.03161174928647,1.03001235122556,1.03249323571776,1.0367189180946,1.0370824176539,1.04258034848827,1.04654249368461,1.04537020760588,1.04675150593121,1.04929600284629,1.05010478936573,1.05133160037836,1.05986475253287,1.06352701059279,1.07334149869383,1.07354142345144,1.06586249526128,1.0666258443358,1.065489908213,1.06868870433482,1.06992460283643,1.0686977918238,1.0695247533212,1.06732558098745,1.0792029290875,1.07445017234968,1.07432294750393,1.07299617411249,1.07661299472751,1.07594960803179,1.21885037228064,1.09209807595358,1.0917800138392,1.09575124652452,1.09583303392536,1.09818669357182,1.12819358219183,1.14596871064148,1.14667753478211,1.15704635971107,1.15590133609928,1.15450186279599,1.13938936861819,1.15874572015079,1.14209744033496,1.15770065891781,1.16423456349618,1.1740581390862,1.17223155380073,1.17211341644396,1.17406722657518,1.23408100381521,1.23735249984888,1.2026746418919,1.19525925088223,1.18061021864254,1.17856553362149,1.17872910842317,1.17176809186262,1.17003238146698,1.1671243849926,1.16506152499358,1.16784229662221,1.17624822393097,1.17434893873364,1.17426715133279,1.17319482763287,1.17381277688367,1.17812933415033,1.18338190278218,1.18511761317783,1.18309110313474,1.17666624842416,1.17677529829195,1.17712062287328,1.177784009569,1.19091543114862,1.1894796078894,1.18697146093024,1.19441411440686,1.19500480119072,1.1981218099117,1.19918504612264,1.20160231819197,1.21000824550073
1.02750420426641,1.01836219035007,1.01815317810348,1.02204262338796,1.02717705466304,1.02292410981926,1.02099756215498,1.018398540306,1.01634476779597,1.01725351669421,1.07250544970744,1.08755433146236,1.10871000581348,1.17795667185966,1.07399579790056,1.26149795807523,1.08703634459036,1.08779060617591,1.08926277939106,1.09013517833337,1.09204355101969,1.09744151947526,1.21991360849158,1.17463065089209,1.11858810633739,1.09837753084045,1.13085621646368,1.23219080610686,1.23191818143739,1.13937119364023,1.31748597769603,1.15891838244145,1.10691977048394,1.11219960158274,1.11468957356392,1.10999134176,1.1097368920685,1.11732494536883,1.11216325162681,1.14068887954268,1.16435270085295,1.14607776050927,1.10040404088353,1.14067070456472,1.15599221098911,1.19333270321795,1.15269345248848,1.12089632853893,0.985992554594624,0.987864577325007,0.989045950892724,1.45101754080399,1.00656662965087,1.00669385449662,1.01011075035402,1.01382753334783,1.01489076955878,1.00677564189746,1.15479266244343,1.02544134426739,1.03300213510078,1.02408730840901,1.02444172047932,1.02373289633869,1.03067573792128,1.02953980179847,1.03201159880169,1.03499229518793,1.03853641589109,1.03667348064969,1.05442134663239,1.04542473253977,1.04510667042539,1.04407978417037,1.05004117694285,1.05066821368264,1.05276742363759,1.06014646469133,1.06090072627687,1.07174210063292,1.07314157393621,1.06542629579012,1.06570800794858,1.06363606046058,1.06509914618676,1.07574059578519,1.06790718028233,1.06847060459924,1.06648953200107,1.08221088794069,1.07675839455122,1.07661299472751,1.0734596360506,1.073250623804,1.07644941992582,1.22052247025341,1.08723626934798,1.08884475489787,1.09180727630614,1.09684174520241,1.09837753084045,1.10233967603679,1.13095617884249,1.12383158748026,1.12045104157879,1.14894031953874,1.12870248157485,1.15598312350013,1.13595429778283,1.1362269224523,1.14842233266674,1.14905845689551,1.16227166587597,1.17151364217112,1.17165904199483,1.17513046278613,1.17538491247763,1.22174928126604,1.1918060050689,1.19072459387999,1.1921695046282,1.17709336040633,1.17604829917335,1.17448525106837,1.17342201485743,1.16707894754768,1.16495247512579,1.17475787573785,1.17654811106739,1.17632092384283,1.17491236305055,1.17507593785223,1.17353106472522,1.1744216386455,1.1818188546772,1.18469050119565,1.18015584419341,1.17717514780717,1.17732054763089,1.17377642692774,1.1734856272803,1.18981584498175,1.1914425055096,1.19041561925459,1.19741298577107,1.19773104788545,1.19819450982356,1.19907599625485,1.19957580814889,1.21148950620486
