1.11652, 1.15418, 1.14723, 1.18381, 1.08047, 1.30007, 1.1154, 1.24389, 1.25862, 1.2596, 1.11727, 1.26401, 1.20242, 1.35773, 1.24773, 1.38162, 1.41382, 1.25284, 1.2528, 1.38924, 1.37123, 1.38983, 1.22467, 1.44494, 1.29192, 1.25402, 1.23955, 1.23998, 1.23947, 1.22549, 1.36876, 1.42323, 1.28201, 1.20972, 1.223, 1.25844, 1.24753, 1.25302, 1.24372, 1.22487, 1.23349, 1.26077, 1.27026, 1.27838, 1.29014, 1.27856, 1.2894, 1.27082, 1.31707, 1.44061, 1.21537, 1.18561, 1.19129, 1.0998, 1.09821, 1.09738, 1.09772, 1.10709, 1.11043, 1.11059, 1.12344, 1.12912, 1.13544, 1.13543, 1.1306, 1.13487, 1.13845, 1.20812, 1.15772, 1.14914, 1.14683, 1.14662, 1.15835, 1.14976, 1.15037, 1.17449, 1.16605, 1.15634, 1.15756, 1.15907, 1.37118, 1.18455, 1.18775, 1.18793, 1.18382, 1.18597, 1.17227, 1.17151, 1.17099, 1.17245, 1.16877, 1.17242, 1.17537, 1.1762, 1.17683, 1.17866, 1.17073, 1.17789, 1.1821, 1.18592, 1.19151, 1.19244, 1.19449, 1.20841, 1.21183, 1.21921, 1.20726, 1.20667, 1.21147, 1.25842, 1.25521, 1.25755, 1.25803, 1.25958, 1.25507, 1.25517, 1.25362, 1.25091, 1.25739, 1.26366, 1.28774, 1.31924, 1.30828, 1.30175, 1.31017, 1.29933, 1.29779, 1.29121, 1.28125, 1.29917, 1.29649, 1.2962, 1.31592, 1.31796, 1.31602, 1.29309, 1.28523, 1.28266, 1.28416, 1.2898, 1.28883, 1.28855, 1.28959, 1.29195, 1.29498, 1.3022, 1.3052, 1.30591, 1.30835, 1.31344
1.28982, 1.11291, 1.14256, 1.07914, 1.07968, 1.21972, 1.11699, 1.27037, 1.27104, 1.1151, 1.11598, 1.24039, 1.20261, 1.45071, 1.27533, 1.26422, 1.27048, 1.5364, 1.59635, 1.26691, 1.26212, 1.27002, 1.22791, 1.34034, 1.25451, 1.25643, 1.241, 1.24061, 1.23611, 1.23743, 1.32606, 1.40416, 1.22483, 1.2836, 1.52673, 1.25603, 1.34637, 1.37506, 1.33362, 1.33969, 1.22523, 1.21665, 1.22464, 1.29433, 1.29081, 1.23966, 1.24958, 1.25127, 1.28442, 1.27283, 1.43403, 1.19808, 1.18898, 1.10578, 1.09944, 1.09837, 1.09858, 1.11327, 1.11173, 1.11136, 1.11919, 1.12899, 1.13718, 1.13201, 1.13206, 1.13239, 1.20838, 1.1494, 1.15928, 1.14728, 1.14622, 1.14826, 1.16009, 1.15085, 1.14852, 1.3361, 1.22448, 1.1566, 1.15788, 1.15957, 1.16067, 1.18429, 1.18877, 1.18843, 1.18418, 1.18421, 1.20129, 1.17143, 1.17224, 1.17112, 1.17087, 1.17219, 1.17669, 1.1751, 1.17599, 1.17668, 1.17667, 1.17754, 1.1818, 1.18464, 1.19081, 1.19116, 1.19099, 1.25659, 1.20152, 1.20691, 1.20665, 1.20463, 1.21514, 1.34019, 1.25927, 1.2546, 1.26528, 1.26157, 1.25361, 1.25282, 1.25032, 1.24934, 1.2553, 1.33995, 1.30298, 1.3724, 1.30347, 1.29947, 1.3096, 1.30991, 1.37648, 1.2963, 1.28144, 1.29955, 1.29522, 1.2946, 1.31647, 1.46065, 1.40275, 1.29013, 1.28568, 1.28224, 1.28465, 1.28381, 1.28958, 1.28807, 1.29278, 1.29335, 1.29467, 1.30348, 1.30281, 1.30523, 1.30913, 1.31253
1.11653, 1.07101, 1.07341, 1.07977, 1.07978, 1.28862, 1.219, 1.28141, 1.11615, 1.11641, 1.16763, 1.26055, 1.40263, 1.36744, 1.43433, 1.26498, 1.26534, 1.26406, 1.25977, 1.26609, 1.26269, 1.42753, 1.2292, 1.23042, 1.25494, 1.25591, 1.24189, 1.24185, 1.23798, 1.23744, 1.24089, 1.30416, 1.29789, 1.26683, 1.23839, 1.34625, 1.25977, 1.27442, 1.26419, 1.2473, 1.25765, 1.22421, 1.22771, 1.22697, 1.24677, 1.26834, 1.25055, 1.25105, 1.27375, 1.27291, 1.38137, 1.22278, 1.16071, 1.11955, 1.09762, 1.09781, 1.09876, 1.10172, 1.10585, 1.11255, 1.11528, 1.32304, 1.14052, 1.14092, 1.13094, 1.13123, 1.14203, 1.14933, 1.15506, 1.15273, 1.14829, 1.14979, 1.16159, 1.14934, 1.14929, 1.15038, 1.16927, 1.15817, 1.15892, 1.16128, 1.18069, 1.1858, 1.18739, 1.1899, 1.18497, 1.1841, 1.19939, 1.17211, 1.17181, 1.17035, 1.17178, 1.17186, 1.17691, 1.17392, 1.17349, 1.17628, 1.17603, 1.17736, 1.18071, 1.18317, 1.18739, 1.18868, 1.18923, 1.24334, 1.19834, 1.20271, 1.20645, 1.20268, 1.20857, 1.22763, 1.23228, 1.24796, 1.26343, 1.25809, 1.27556, 1.29141, 1.24775, 1.2469, 1.25317, 1.34229, 1.35153, 1.37314, 1.30526, 1.30344, 1.30913, 1.31126, 1.34792, 1.29896, 1.28768, 1.29594, 1.29532, 1.29306, 1.28738, 1.46146, 1.31188, 1.31325, 1.28678, 1.28418, 1.28271, 1.28362, 1.28695, 1.28827, 1.29434, 1.29374, 1.29471, 1.29764, 1.30479, 1.30533, 1.31025, 1.31326
1.11851, 1.16459, 1.06426, 1.24339, 1.07978, 1.22521, 1.29108, 1.26414, 1.11523, 1.11803, 1.11853, 1.26258, 1.29499, 1.29223, 1.229, 1.40623, 1.26467, 1.26376, 1.25973, 1.26394, 1.36867, 1.42965, 1.42974, 1.34093, 1.25406, 1.38284, 1.37271, 1.23113, 1.23275, 1.24884, 1.25701, 1.35638, 1.46128, 1.22989, 1.24446, 1.24171, 1.34049, 1.34689, 1.26366, 1.24881, 1.49087, 1.22955, 1.22245, 1.23055, 1.24684, 1.26622, 1.25043, 1.25108, 1.27593, 1.27353, 1.4167, 1.31921, 1.16789, 1.1964, 1.21016, 1.09724, 1.09755, 1.10577, 1.10775, 1.11297, 1.1183, 1.32379, 1.14029, 1.14071, 1.13332, 1.13264, 1.13745, 1.15277, 1.14625, 1.15483, 1.14601, 1.1439, 1.14636, 1.16528, 1.15023, 1.15035, 1.16949, 1.15744, 1.16354, 1.16332, 1.16772, 1.2121, 1.18756, 1.18762, 1.18818, 1.18335, 1.18396, 1.17082, 1.17066, 1.17171, 1.17213, 1.17415, 1.17537, 1.17264, 1.17151, 1.17676, 1.17428, 1.1753, 1.17929, 1.18069, 1.18515, 1.18768, 1.18798, 1.18766, 1.26482, 1.28451, 1.20292, 1.20047, 1.20705, 1.22349, 1.25313, 1.24306, 1.24272, 1.24316, 1.24051, 1.23817, 1.24145, 1.2451, 1.2521, 1.34499, 1.2669, 1.30321, 1.35915, 1.30244, 1.30966, 1.35357, 1.35284, 1.34794, 1.29135, 1.29389, 1.29268, 1.29042, 1.28782, 1.28802, 1.312, 1.31176, 1.2852, 1.28179, 1.2845, 1.28593, 1.28857, 1.28645, 1.29154, 1.29373, 1.29465, 1.29825, 1.30679, 1.30704, 1.30833, 1.31337
1.14414, 1.27807, 1.13333, 1.12994, 1.23981, 1.27751, 1.27739, 1.26351, 1.11202, 1.1179, 1.15438, 1.25892, 1.40539, 1.26143, 1.39958, 1.43014, 1.2548, 1.26077, 1.26014, 1.25872, 1.37124, 1.48875, 1.23975, 1.35215, 1.25112, 1.37749, 1.23644, 1.22918, 1.45687, 1.26124, 1.26712, 1.38794, 1.27654, 1.23702, 1.24385, 1.24543, 1.35303, 1.26786, 1.25881, 1.26143, 1.2477, 1.2587, 1.24051, 1.22538, 1.27005, 1.26976, 1.29066, 1.25292, 1.34166, 1.36778, 1.34039, 1.40336, 1.44862, 1.15175, 1.17218, 1.12716, 1.09837, 1.10219, 1.10954, 1.11617, 1.11904, 1.11907, 1.14116, 1.14165, 1.28794, 1.13271, 1.22994, 1.23343, 1.1441, 1.1468, 1.14275, 1.1396, 1.1415, 1.16629, 1.15007, 1.14954, 1.16992, 1.16884, 1.16294, 1.15672, 1.18006, 1.33968, 1.28118, 1.1811, 1.1741, 1.18875, 1.19205, 1.20434, 1.17138, 1.1716, 1.17197, 1.17494, 1.17383, 1.17393, 1.17059, 1.1708, 1.17411, 1.17529, 1.17956, 1.18077, 1.1913, 1.31563, 1.18818, 1.18759, 1.19769, 1.19896, 1.20213, 1.20108, 1.20648, 1.22843, 1.35517, 1.24212, 1.24019, 1.24303, 1.24275, 1.2408, 1.24071, 1.24451, 1.25051, 1.26061, 1.30486, 1.31302, 1.35244, 1.30303, 1.30879, 1.37189, 1.32275, 1.30654, 1.29215, 1.29135, 1.29043, 1.29009, 1.2868, 1.28865, 1.31081, 1.3117, 1.28556, 1.28402, 1.28781, 1.2868, 1.28876, 1.28652, 1.287, 1.29381, 1.29833, 1.29866, 1.30037, 1.31152, 1.30978, 1.31047
1.16536, 1.14927, 1.06025, 1.154, 1.34684, 1.21236, 1.16081, 1.12794, 1.12783, 1.12101, 1.25656, 1.25962, 1.25995, 1.23347, 1.23318, 1.23853, 1.25567, 1.25777, 1.26107, 1.26091, 1.25812, 1.24923, 1.24334, 1.42958, 1.25278, 1.31925, 1.22648, 1.22656, 1.24279, 1.35648, 1.26795, 1.26832, 1.42499, 1.26374, 1.52229, 1.36049, 1.37201, 1.2712, 1.26131, 1.29481, 1.25016, 1.2652, 1.2297, 1.22556, 1.23561, 1.26724, 1.28083, 1.25124, 1.31824, 1.34486, 1.42322, 1.46927, 0.00444278, 1.21733, 1.20161, 1.10567, 1.10691, 1.11083, 1.28466, 1.12429, 1.13423, 1.3027, 1.14592, 1.18252, 1.30254, 1.2441, 1.23536, 1.14969, 1.14049, 1.14375, 1.13925, 1.13888, 1.1395, 1.14695, 1.15175, 1.14947, 1.15689, 1.1711, 1.15742, 1.15698, 1.20859, 1.18189, 1.24964, 1.27096, 1.17496, 1.17379, 1.17593, 1.17511, 1.17185, 1.17054, 1.17044, 1.17409, 1.1685, 1.16913, 1.17018, 1.17083, 1.17164, 1.1715, 1.17595, 1.59691, 1.21398, 1.18482, 1.18615, 1.18714, 1.18683, 1.19778, 1.19289, 1.20119, 1.20777, 1.21524, 1.24078, 1.23952, 1.24031, 1.24441, 1.2435, 1.24308, 1.24238, 1.2429, 1.24619, 1.25861, 1.3055, 1.35888, 1.35293, 1.33443, 1.32399, 1.32431, 1.32547, 1.33933, 1.30049, 1.29157, 1.29228, 1.28729, 1.28564, 1.28784, 1.51217, 1.31158, 1.28735, 1.28418, 1.28814, 1.28731, 1.29001, 1.29125, 1.28404, 1.29527, 1.30529, 1.30462, 1.30251, 1.31609, 1.31511, 1.30916
1.12624, 1.09279, 1.29088, 1.04573, 1.2133, 1.2896, 1.1357, 1.27219, 1.14265, 1.12748, 1.23385, 1.37792, 1.33734, 1.22622, 1.23471, 1.2408, 1.41297, 1.2817, 1.27431, 1.25253, 1.25667, 1.24625, 1.2461, 1.3509, 1.25385, 1.40231, 1.2253, 1.22778, 1.24317, 1.26822, 1.33778, 1.45333, 1.39201, 1.42817, 1.45756, 1.45833, 1.3751, 1.30915, 1.2617, 1.25856, 1.25242, 1.2343, 1.23647, 1.22528, 1.22556, 1.29171, 1.24709, 1.25505, 1.32766, 1.33387, 1.26064, 1.43776, 1.23778, 1.21596, 1.1471, 1.11479, 1.12015, 1.12921, 1.1221, 1.11957, 1.13788, 1.22888, 1.15054, 1.14644, 1.11092, 1.11148, 1.24916, 1.15289, 1.13569, 1.13557, 1.1372, 1.13724, 1.14473, 1.17832, 1.17422, 1.15279, 1.26853, 1.17085, 1.15205, 1.15447, 1.15818, 1.17364, 1.24778, 1.17077, 1.16965, 1.17037, 1.17148, 1.17783, 1.17127, 1.16915, 1.16905, 1.17337, 1.16688, 1.17088, 1.17101, 1.17091, 1.17267, 1.17214, 1.17139, 1.43432, 1.16674, 1.31771, 1.18457, 1.18777, 1.18707, 1.18848, 1.19164, 1.21181, 1.20998, 1.21855, 1.23675, 1.24039, 1.2375, 1.23925, 1.24352, 1.24479, 1.24358, 1.24234, 1.24682, 1.3159, 1.35607, 1.34611, 1.32361, 1.29854, 1.34766, 1.3953, 1.32189, 1.45315, 1.34773, 1.29252, 1.2878, 1.28555, 1.28496, 1.52991, 1.29668, 1.3049, 1.28756, 1.28575, 1.28456, 1.28569, 1.29036, 1.29124, 1.28414, 1.28871, 1.30329, 1.30298, 1.29696, 1.32905, 1.31774, 1.31375
1.19166, 1.1789, 1.01014, 1.05096, 1.14033, 1.33032, 1.13688, 1.13746, 1.1677, 1.12719, 1.22279, 1.26528, 1.32758, 1.23746, 1.23718, 1.24429, 1.24583, 1.28924, 1.30276, 1.25205, 1.25718, 1.25007, 1.24936, 1.25523, 1.37558, 1.38577, 1.22633, 1.33644, 1.42304, 1.27199, 1.27228, 1.36612, 1.36939, 1.26401, 1.27108, 1.25643, 1.26283, 1.30947, 1.33956, 1.25856, 1.37617, 1.23662, 1.23531, 1.28475, 1.2256, 1.29822, 1.303, 1.24936, 1.29703, 1.32599, 1.39189, 1.43849, 1.23913, 1.39894, 1.14643, 1.12462, 1.17096, 1.13092, 1.13067, 1.12613, 1.13701, 1.13704, 1.14514, 1.14592, 1.11223, 1.11127, 1.23901, 1.26043, 1.13264, 1.13424, 1.13505, 1.13367, 1.13497, 1.20292, 1.17587, 1.26902, 1.21324, 1.17358, 1.15372, 1.15222, 1.22285, 1.17455, 1.17012, 1.17032, 1.16779, 1.16734, 1.16895, 1.17005, 1.16965, 1.17729, 1.1692, 1.1701, 1.16369, 1.16594, 1.17167, 1.16893, 1.17125, 1.17006, 1.17075, 1.31605, 1.15877, 1.18394, 1.18391, 1.18432, 1.18608, 1.18649, 1.19208, 1.19224, 1.2084, 1.21651, 1.24007, 1.23706, 1.23569, 1.24029, 1.2416, 1.24664, 1.24425, 1.24372, 1.24481, 1.25503, 1.34298, 1.34485, 1.29064, 1.32289, 1.34042, 1.34366, 1.39757, 1.3135, 1.30967, 1.29498, 1.28786, 1.28635, 1.28365, 1.28076, 1.28742, 1.28874, 1.30211, 1.28565, 1.28471, 1.28463, 1.28923, 1.29095, 1.28394, 1.28781, 1.29764, 1.30855, 1.29588, 1.35967, 1.35718, 1.32256
1.20456, 1.17831, 1.17849, 1.31018, 1.35436, 1.12182, 1.13587, 1.1371, 1.14432, 1.13457, 1.21868, 1.2992, 1.26423, 1.31333, 1.23836, 1.23858, 1.24852, 1.23025, 1.22926, 1.25546, 1.26218, 1.25624, 1.34678, 1.26026, 1.2698, 1.38656, 1.32704, 1.33237, 1.26531, 1.26711, 1.30183, 1.27708, 1.43981, 1.26784, 1.26047, 1.26106, 1.33316, 1.2893, 1.33735, 1.26262, 1.25766, 1.24348, 1.23569, 1.23369, 1.22532, 1.28589, 1.24294, 1.24288, 1.32381, 1.35473, 1.34843, 1.29645, 1.46565, 1.22542, 1.41313, 1.14454, 1.19234, 1.12622, 1.12972, 1.13569, 1.21811, 1.13945, 1.14571, 1.17111, 1.27788, 1.1292, 1.15681, 1.15534, 1.18558, 1.14049, 1.13956, 1.13417, 1.13325, 1.12708, 1.18363, 1.16986, 1.17247, 1.22362, 1.15992, 1.15974, 1.20667, 1.15334, 1.16697, 1.1708, 1.17011, 1.16456, 1.16731, 1.16731, 1.16833, 1.16935, 1.16819, 1.16908, 1.16157, 1.1619, 1.17099, 1.17007, 1.16893, 1.16878, 1.16697, 1.32248, 1.15964, 1.22003, 1.18226, 1.18285, 1.18445, 1.18573, 1.18887, 1.19274, 1.22317, 1.21575, 1.23884, 1.24332, 1.3659, 1.24019, 1.24684, 1.2473, 1.2439, 1.24299, 1.246, 1.2528, 1.27715, 1.28576, 1.3201, 1.32364, 1.33996, 1.3926, 1.39576, 1.30848, 1.30946, 1.2987, 1.29075, 1.28635, 1.2835, 1.28137, 1.28939, 1.28765, 1.30192, 1.47469, 1.28815, 1.28614, 1.29045, 1.2884, 1.28498, 1.28923, 1.29089, 1.30426, 1.29706, 1.29731, 1.35513, 1.32306
1.14639, 1.18018, 1.15385, 1.14085, 1.12837, 1.20909, 1.13598, 1.1379, 1.14475, 1.14297, 1.14234, 1.37894, 1.26874, 1.27058, 1.24059, 1.24064, 1.24305, 1.23244, 1.3156, 1.296, 1.2621, 1.26175, 1.25758, 1.26562, 1.40991, 1.40306, 1.32414, 1.26728, 1.26715, 1.27416, 1.28115, 1.28141, 1.27787, 1.5558, 1.26159, 1.26357, 1.53733, 1.29203, 1.29656, 1.26319, 1.27111, 1.23938, 1.23875, 1.2357, 1.22455, 1.29563, 1.2933, 1.28415, 1.30501, 1.22834, 1.23075, 1.29157, 1.2123, 1.39916, 1.21271, 1.26468, 1.28247, 1.19233, 1.14474, 1.13739, 1.14121, 1.14602, 1.14407, 1.15483, 1.13988, 1.15633, 1.14188, 1.16005, 1.16821, 1.14013, 1.16299, 1.12651, 1.12152, 1.17907, 1.17789, 1.15396, 1.15353, 1.19068, 1.16456, 1.15147, 1.12221, 1.15449, 1.16835, 1.1751, 1.17841, 1.16784, 1.16664, 1.15792, 1.1675, 1.16694, 1.16563, 1.17432, 1.16189, 1.16102, 1.16241, 1.16496, 1.16486, 1.16513, 1.16045, 1.15999, 1.15915, 1.15729, 1.18098, 1.18477, 1.1858, 1.18508, 1.1885, 1.19222, 1.19494, 1.21041, 1.2161, 1.22637, 1.24344, 1.24462, 1.24558, 1.24677, 1.24836, 1.2446, 1.24581, 1.2524, 1.27659, 1.27764, 1.28834, 1.29965, 1.2991, 1.34765, 1.36705, 1.30666, 1.30881, 1.30267, 1.28821, 1.28425, 1.28287, 1.27854, 1.2821, 1.28697, 1.30322, 1.44728, 1.52191, 1.28823, 1.28416, 1.28609, 1.28438, 1.2846, 1.29017, 1.29808, 1.29606, 1.29777, 1.35661, 1.4407
0.971089, 1.16129, 1.15499, 1.10133, 1.13629, 1.20519, 1.13551, 1.13684, 1.14645, 1.14112, 1.14245, 1.26473, 1.3227, 1.32356, 1.24142, 1.23992, 1.24282, 1.45304, 1.44751, 1.36432, 1.25974, 1.26029, 1.25989, 1.26733, 1.28423, 1.36108, 1.33343, 1.33457, 1.26792, 1.27915, 1.28325, 1.28237, 1.28039, 1.27466, 1.26358, 1.26409, 1.51633, 1.30603, 1.4265, 1.33953, 1.27777, 1.24477, 1.23918, 1.23994, 1.24029, 1.23722, 1.23326, 1.31332, 1.349, 1.28081, 1.2843, 1.28543, 1.285, 1.36826, 1.28932, 1.17411, 1.21382, 1.14848, 1.14776, 1.14726, 1.1457, 1.15042, 1.16018, 1.15492, 1.15725, 1.16071, 1.14288, 1.15707, 1.16505, 1.14135, 1.14687, 1.17258, 1.12134, 1.1191, 1.17735, 1.1488, 1.13636, 1.13555, 1.16929, 1.12723, 1.13669, 1.16132, 1.17155, 1.17749, 1.17941, 1.17203, 1.22012, 1.15617, 1.16544, 1.16558, 1.17322, 1.16384, 1.17489, 1.16069, 1.16057, 1.1632, 1.16371, 1.16305, 1.15526, 1.15485, 1.15722, 1.17584, 1.17727, 1.18464, 1.18415, 1.185, 1.18909, 1.19058, 1.2028, 1.20437, 1.21702, 1.22274, 1.25674, 1.24528, 1.24793, 1.24863, 1.24858, 1.24579, 1.2467, 1.25334, 1.35681, 1.28392, 1.31873, 1.29844, 1.29926, 1.28804, 1.29806, 1.29928, 1.4086, 1.30099, 1.30048, 1.28352, 1.28135, 1.27978, 1.28101, 1.6544, 1.30068, 1.37969, 1.43748, 1.28499, 1.28493, 1.28546, 1.28606, 1.28622, 1.28955, 1.29117, 1.29611, 1.29602, 1.29634, 1.37886
0.97234, 0.973175, 1.17435, 1.14059, 1.12666, 1.23548, 1.13562, 1.14268, 1.14568, 1.1403, 1.16706, 1.28436, 1.22626, 1.24362, 1.24046, 1.24003, 1.24277, 1.23877, 1.23765, 1.32037, 1.25871, 1.25835, 1.25899, 1.48893, 1.37532, 1.36024, 1.27273, 1.27283, 1.27095, 1.38548, 1.38193, 1.28167, 1.27774, 1.45247, 1.26437, 1.26417, 1.29592, 0.00462203, 1.34637, 1.33825, 1.24276, 1.23325, 1.24187, 1.27145, 1.21613, 1.30959, 1.30225, 1.33962, 1.36812, 1.3504, 1.28223, 1.28862, 1.38467, 1.40157, 1.19302, 1.23746, 1.16845, 1.2619, 1.3849, 1.15983, 1.14909, 1.16344, 1.16132, 1.16201, 1.17086, 1.1601, 1.16355, 1.15651, 1.16707, 1.20354, 1.14249, 1.17444, 1.11625, 1.13508, 1.13213, 1.15436, 1.15541, 1.18616, 1.12398, 1.1365, 1.13647, 1.1323, 1.18068, 1.17935, 1.1835, 1.1564, 1.19252, 1.15026, 1.18113, 1.16514, 1.17207, 1.16362, 1.17136, 1.15836, 1.15971, 1.16277, 1.16254, 1.16075, 1.16067, 1.15589, 1.15732, 1.1738, 1.17518, 1.18479, 1.18436, 1.1872, 1.18805, 1.18961, 1.20649, 1.20366, 1.21019, 1.2213, 1.22392, 1.26133, 1.24665, 1.25009, 1.24946, 1.24636, 1.24605, 1.25526, 1.37525, 1.28591, 1.30039, 1.2989, 1.30031, 1.35041, 1.29988, 1.29903, 1.35353, 1.37473, 1.33061, 1.28389, 1.28074, 1.28097, 1.27921, 1.28056, 1.48957, 1.31341, 1.38238, 1.32948, 1.28351, 1.28411, 1.28554, 1.28396, 1.28718, 1.28841, 1.29836, 1.29524, 1.29692, 1.29954
0.961987, 1.06463, 1.02665, 1.04583, 1.12618, 1.13275, 1.16117, 1.1436, 1.14517, 1.13827, 1.16816, 1.28484, 1.22684, 1.23625, 1.24015, 1.24124, 1.24399, 1.23618, 1.23731, 1.45403, 1.2605, 1.25979, 1.25819, 1.28478, 1.29175, 1.31293, 1.27564, 1.27636, 1.27424, 1.41025, 1.29505, 1.29334, 1.33691, 1.45115, 1.26626, 1.26645, 1.46198, 1.41834, 1.30909, 1.43054, 1.31502, 1.23865, 1.23918, 1.29987, 1.21544, 1.31172, 1.30192, 1.28672, 1.29901, 1.28508, 1.31281, 1.34709, 1.29225, 1.33426, 1.21853, 1.24389, 1.17058, 1.22602, 1.17096, 1.16783, 1.1506, 1.18464, 1.16354, 1.17187, 1.17488, 1.15396, 1.14437, 1.16433, 1.1741, 1.14241, 1.14051, 1.1294, 1.18048, 1.16684, 1.11701, 1.15806, 1.1608, 1.13047, 1.14051, 1.1391, 1.12915, 1.14344, 1.1507, 1.18866, 1.15278, 1.15099, 1.15444, 1.15059, 1.14107, 1.16151, 1.16206, 1.16432, 1.16921, 1.15948, 1.15894, 1.15803, 1.16451, 1.16386, 1.15975, 1.15627, 1.15625, 1.17506, 1.17377, 1.17662, 1.55421, 1.18647, 1.18745, 1.18756, 1.23803, 1.20318, 1.21054, 1.21013, 1.37386, 1.40234, 1.24872, 1.24953, 1.25035, 1.25407, 1.24851, 1.25614, 1.27748, 1.28522, 1.28846, 1.29806, 1.2899, 1.28777, 1.30206, 1.30189, 1.3485, 1.27888, 1.41295, 1.28299, 1.2805, 1.28057, 1.27821, 1.28432, 1.49002, 1.31218, 1.31267, 1.29479, 1.28254, 1.28271, 1.28574, 1.28503, 1.28514, 1.28567, 1.29252, 1.29459, 1.29628, 1.29575
1.31205, 1.11212, 1.21536, 1.05321, 1.04774, 1.12974, 1.28672, 1.1424, 1.14319, 1.13599, 1.13677, 1.24788, 1.32281, 1.36452, 1.24275, 1.24342, 1.23765, 1.23613, 1.23688, 1.23757, 1.42683, 1.2589, 1.25922, 1.31658, 1.29097, 1.28631, 1.28378, 1.28204, 1.44789, 1.46807, 1.29956, 1.29966, 1.29857, 1.28913, 1.26696, 1.26685, 1.78678, 1.31614, 1.3055, 1.48099, 1.75136, 1.28181, 1.23967, 1.27369, 1.23899, 1.29798, 1.31412, 1.30743, 1.27827, 1.28388, 1.28529, 1.30311, 1.30833, 1.30502, 1.18611, 1.4242, 1.17554, 1.17696, 1.17, 1.17855, 1.1532, 1.18342, 1.16264, 1.16665, 1.15638, 1.14961, 1.16498, 1.18636, 1.17176, 1.17392, 1.1289, 1.13664, 1.16381, 1.15482, 1.14493, 1.14273, 1.16515, 1.21489, 1.19114, 1.17087, 1.13553, 1.13607, 1.15225, 1.15713, 1.16071, 1.1613, 1.17805, 1.15605, 1.14959, 1.15375, 1.15991, 1.32971, 1.19007, 1.15688, 1.15853, 1.15432, 1.16262, 1.16011, 1.15983, 1.15537, 1.15663, 1.20286, 1.1731, 1.17414, 1.17945, 1.18139, 1.18295, 1.18788, 1.20188, 1.20184, 1.20989, 1.20982, 1.21601, 1.33035, 1.25141, 1.24836, 1.25451, 1.2505, 1.2491, 1.25554, 1.37217, 1.28206, 1.28838, 1.29672, 1.3213, 1.28662, 1.37468, 1.39969, 1.28316, 1.28063, 1.28713, 1.2845, 1.28149, 1.28155, 1.27818, 1.27879, 1.29247, 1.53298, 1.33414, 1.3763, 1.28408, 1.2833, 1.28501, 1.28462, 1.28516, 1.28408, 1.28894, 1.29522, 1.29613, 1.29688
1.11888, 1.09907, 1.02164, 1.18392, 1.12329, 1.22815, 1.13739, 1.14252, 1.1428, 1.13326, 1.22318, 1.44163, 1.31782, 1.31659, 1.24789, 1.31587, 1.23835, 1.23524, 1.23241, 1.23598, 1.34311, 1.25373, 1.36808, 1.33245, 1.3699, 1.28905, 1.28636, 1.2839, 1.45005, 1.42671, 1.29951, 1.30054, 1.29605, 1.29516, 1.291, 1.54331, 1.29175, 1.31996, 1.35126, 1.43043, 1.27229, 1.25211, 1.25209, 1.25305, 1.25691, 1.30302, 1.34245, 1.27766, 1.26166, 1.28212, 1.2866, 1.2891, 1.30996, 1.42261, 1.40744, 1.3481, 1.19653, 1.20204, 1.20658, 1.18524, 1.17215, 1.16371, 1.16119, 1.1609, 1.15445, 1.18439, 1.16489, 1.16318, 1.1712, 1.17008, 1.14657, 1.13644, 1.18576, 1.13753, 1.16521, 1.14427, 1.16136, 1.1358, 1.22206, 1.17464, 1.14675, 1.20131, 1.15312, 1.16375, 1.16659, 1.17484, 1.17247, 1.15593, 1.16406, 1.1543, 1.19181, 1.14964, 1.15017, 1.15481, 1.15964, 1.15344, 1.16024, 1.16008, 1.15997, 1.15631, 1.15486, 1.31596, 1.17104, 1.17225, 1.17636, 1.18091, 1.18479, 1.18568, 1.18938, 1.20612, 1.2575, 1.21009, 1.21471, 1.37655, 1.3435, 1.25018, 1.25622, 1.25689, 1.24934, 1.33313, 1.27741, 1.28202, 1.28765, 1.30251, 1.317, 1.32605, 1.33232, 1.4015, 1.28818, 1.28179, 1.27541, 1.28421, 1.28189, 1.2814, 1.27793, 1.27912, 1.29279, 0.00451028, 1.29549, 1.29535, 1.28269, 1.28452, 1.28505, 1.28423, 1.2842, 1.28419, 1.28736, 1.29068, 1.29303, 1.29595
0.946174, 1.025, 1.1639, 1.12085, 1.11938, 1.14387, 1.10615, 1.22867, 1.14351, 1.13438, 1.20135, 1.25087, 1.47463, 1.47105, 1.25121, 1.25105, 1.2957, 1.231, 1.23239, 1.23248, 1.25006, 1.24819, 1.29946, 1.26777, 1.32459, 1.33216, 1.29213, 1.66462, 1.29639, 1.37789, 1.381, 1.54738, 1.31286, 1.3472, 1.303, 1.46669, 1.39589, 1.3465, 1.30997, 1.43672, 1.27849, 1.25181, 1.25307, 1.25404, 1.24742, 1.21905, 1.33791, 1.28076, 1.28718, 1.35063, 1.28575, 1.24041, 1.27808, 1.39278, 1.40925, 1.15953, 1.1606, 1.22003, 1.20957, 1.43447, 1.18546, 1.16411, 1.16077, 1.15599, 1.15425, 1.1778, 1.18383, 1.20144, 1.16918, 1.168, 1.18506, 1.25366, 1.18842, 1.16998, 1.15748, 1.16756, 1.1617, 1.21554, 1.20154, 1.21963, 1.14569, 1.18128, 1.17036, 1.19143, 1.21126, 1.20915, 1.18753, 1.14709, 1.16502, 1.22291, 1.15132, 1.15051, 1.14848, 1.15435, 1.15411, 1.15022, 1.15147, 1.15907, 1.16072, 1.16104, 1.1539, 1.20601, 1.17003, 1.17171, 1.1745, 1.17981, 1.17922, 1.18306, 1.18849, 1.20517, 1.20155, 1.20571, 1.20773, 1.21686, 1.26247, 1.272, 1.25814, 1.25309, 1.24478, 1.31591, 1.27549, 1.29117, 1.22784, 1.22768, 1.33756, 1.31301, 1.34897, 1.36811, 1.28802, 1.28699, 1.27547, 1.28521, 1.28438, 1.28057, 1.27699, 1.27582, 1.56123, 1.70282, 1.29273, 1.29308, 1.28406, 1.28386, 1.28445, 1.28409, 1.28428, 1.28119, 1.28058, 1.29023, 1.29079, 1.2979
1.12578, 1.12843, 1.01016, 1.01, 1.19801, 1.21863, 1.21893, 1.1454, 1.14217, 1.1354, 1.13523, 1.20556, 1.22811, 1.57886, 1.51614, 1.25151, 1.29481, 1.22878, 1.23257, 1.23268, 1.38525, 1.24938, 1.24974, 1.26554, 1.35114, 1.33032, 1.29533, 1.29567, 1.30074, 1.37851, 1.38053, 1.54862, 1.29831, 1.38616, 1.30174, 1.45037, 1.31363, 1.30838, 1.31181, 1.30952, 1.34109, 1.28612, 1.26002, 1.26047, 1.24778, 1.2563, 1.34298, 1.27922, 1.26692, 1.35065, 1.28559, 1.14256, 1.29147, 1.37282, 1.38613, 1.1625, 1.15666, 1.23353, 1.1842, 1.18448, 1.15834, 1.15954, 1.16378, 1.16384, 1.15972, 1.1549, 1.17521, 1.16035, 1.19126, 1.18487, 1.19875, 1.21955, 1.19163, 1.14931, 1.15525, 1.1552, 1.17832, 1.27373, 1.28556, 1.22239, 1.19212, 1.20059, 1.16848, 1.16255, 1.16539, 1.21519, 1.18636, 1.18322, 1.13016, 1.13104, 1.13226, 1.13988, 1.13609, 1.14591, 1.15241, 1.14959, 1.14951, 1.15703, 1.15695, 1.16033, 1.15697, 1.19215, 1.16636, 1.17232, 1.17341, 1.1792, 1.1787, 1.18165, 1.18638, 1.19098, 1.25798, 1.20235, 1.20547, 1.20752, 1.24094, 1.25539, 1.26922, 1.24854, 1.24537, 1.31865, 1.27125, 1.30545, 1.22196, 1.21917, 1.22497, 1.33561, 1.3499, 1.35007, 1.4049, 1.28689, 1.2759, 1.2867, 1.28475, 1.28246, 1.27753, 1.27693, 1.28295, 1.28472, 1.29286, 1.29266, 1.28207, 1.28395, 1.28277, 1.27985, 1.28172, 1.28229, 1.28094, 1.28389, 1.29156, 1.2937
0.94645, 1.22022, 1.01045, 1.01119, 1.25027, 1.10856, 1.21237, 1.22102, 1.13676, 1.13691, 1.15317, 1.36695, 1.23975, 1.4744, 1.30782, 1.31246, 1.45056, 1.22705, 1.22795, 1.22936, 1.24912, 1.24807, 1.25121, 1.27891, 1.29168, 1.29241, 1.2982, 1.29952, 1.44432, 1.38545, 1.36079, 1.34151, 1.39893, 1.30187, 1.3086, 1.31482, 0.00459865, 1.32441, 1.37812, 1.40393, 1.2845, 1.28469, 1.27696, 1.26926, 1.23969, 1.2465, 1.27085, 1.29842, 1.28031, 1.27888, 1.34682, 1.34066, 1.28162, 1.31027, 1.17124, 1.17172, 1.22038, 1.2272, 1.25453, 1.18484, 1.18319, 1.15837, 1.16647, 1.17657, 1.1623, 1.1599, 1.1713, 1.15654, 1.17476, 1.17609, 1.20899, 1.25941, 1.21263, 1.20531, 1.1789, 1.16184, 1.21895, 1.31623, 1.29197, 1.20362, 1.17599, 1.17506, 1.17999, 1.18027, 1.18319, 1.20402, 1.18802, 1.16315, 1.17039, 1.13098, 1.13304, 1.14015, 1.14173, 1.14282, 1.21961, 1.15616, 1.14734, 1.15702, 1.15807, 1.16009, 1.15935, 1.16058, 1.16675, 1.17232, 1.17064, 1.17368, 1.17707, 1.1819, 1.1848, 1.19097, 1.21176, 1.20474, 1.20334, 1.20661, 1.21882, 1.25703, 1.26015, 1.25246, 1.25204, 1.34553, 1.25138, 1.29703, 1.21532, 1.21621, 1.22268, 1.23084, 1.35038, 1.34845, 1.4035, 1.28167, 1.27548, 1.27567, 1.28817, 1.28225, 1.2777, 1.27758, 1.28445, 1.28834, 1.29242, 1.29178, 1.28529, 1.2833, 1.283, 1.28, 1.27899, 1.27817, 1.28066, 1.28481, 1.29549, 1.29416
0.940831, 1.02301, 1.10812, 1.16052, 1.1637, 1.2076, 1.21175, 1.12756, 1.17407, 1.1375, 1.13844, 1.2879, 1.2946, 1.47484, 1.31163, 1.45734, 1.2982, 1.44776, 1.22525, 1.42923, 1.41887, 1.2454, 1.37319, 1.26361, 1.29233, 1.37079, 1.30379, 1.30399, 1.41205, 1.38729, 1.3764, 1.54351, 1.34645, 1.34327, 1.31577, 1.31646, 1.31214, 1.31361, 1.31713, 1.43344, 1.54521, 1.28434, 1.28411, 1.30203, 1.32612, 1.22395, 1.21586, 1.29513, 1.28427, 1.27873, 1.40097, 1.29207, 1.30175, 1.26709, 1.17023, 1.16782, 1.43759, 1.24022, 1.2338, 1.18566, 1.16896, 1.16302, 1.19166, 1.23238, 1.23568, 1.22001, 1.22171, 1.18079, 1.20219, 1.20477, 1.23915, 1.25891, 1.26347, 1.1991, 1.23136, 1.20498, 1.27559, 1.30373, 1.30563, 1.20952, 1.17911, 1.23229, 1.1788, 1.20263, 1.18421, 1.19494, 1.24814, 1.19776, 1.16975, 1.12095, 1.13321, 1.13824, 1.13677, 1.20843, 1.14223, 1.15617, 1.14635, 1.14868, 1.15862, 1.16698, 1.15731, 1.15956, 1.16684, 1.17321, 1.17028, 1.17088, 1.17277, 1.18769, 1.19546, 1.19231, 1.2044, 1.20685, 1.20636, 1.20486, 1.21729, 1.27556, 1.26243, 1.25406, 1.25631, 1.28395, 1.19776, 1.35529, 1.21258, 1.21498, 1.22426, 1.2289, 1.23473, 1.34864, 1.39846, 1.27553, 1.27715, 1.27595, 1.28818, 1.29541, 1.27953, 1.27851, 1.28447, 1.29248, 1.29447, 1.2856, 1.2858, 1.28296, 1.28472, 1.28468, 1.27719, 1.27591, 1.27669, 1.28093, 1.29587, 1.29532
1.01585, 1.01836, 1.12977, 1.18798, 1.12599, 1.44529, 1.21017, 1.21847, 1.13074, 1.30173, 1.18528, 1.24306, 1.27978, 1.30726, 1.29341, 1.32426, 1.29886, 1.22196, 1.22229, 1.62441, 1.24345, 1.41994, 1.43682, 1.27069, 1.36841, 1.33946, 1.31878, 1.30867, 1.41017, 1.35427, 1.37785, 1.54417, 1.49065, 1.31203, 1.31033, 1.31209, 1.31435, 1.31401, 1.31831, 1.35715, 1.56818, 1.28533, 1.28785, 1.30277, 1.21332, 1.3226, 1.19539, 1.2925, 1.21424, 1.27937, 1.13327, 1.29031, 1.26768, 1.15155, 1.12147, 1.10678, 1.13695, 1.12595, 1.21617, 1.35342, 1.18503, 1.20894, 1.19361, 1.23492, 1.2361, 1.24026, 1.20942, 1.19919, 1.21014, 1.264, 1.24085, 1.29536, 1.22966, 1.23332, 1.22296, 1.21146, 1.26567, 1.30434, 1.29908, 1.20209, 1.18095, 1.19301, 1.19971, 1.22436, 1.19122, 1.1953, 1.19217, 1.19425, 1.14771, 1.12513, 1.18786, 1.13675, 1.13487, 1.14074, 1.22916, 1.14875, 1.14779, 1.14958, 1.16116, 1.16563, 1.14993, 1.15526, 1.15969, 1.16644, 1.16907, 1.17183, 1.16872, 1.17362, 1.18505, 1.2017, 1.18435, 1.20943, 1.19835, 1.2007, 1.2022, 1.25639, 1.2566, 1.25175, 1.18529, 1.19095, 1.19955, 1.20279, 1.20926, 1.21386, 1.22237, 1.23246, 1.23488, 1.37313, 1.26505, 1.27536, 1.27698, 1.47675, 1.29824, 1.297, 1.29028, 1.28352, 1.28231, 1.51483, 1.28839, 1.28629, 1.2816, 1.28143, 1.28418, 1.2867, 1.27642, 1.27428, 1.27639, 1.8848, 1.29717, 1.295
1.13325, 1.2576, 1.12225, 1.18206, 1.08846, 1.27402, 1.21701, 1.17805, 1.17215, 1.30212, 1.28768, 1.30238, 1.37376, 1.30835, 1.30277, 1.34699, 1.3333, 1.21972, 1.22338, 1.43348, 1.36535, 1.23331, 1.42673, 1.26426, 1.36633, 1.36885, 1.45415, 1.36766, 1.40639, 1.41307, 1.382, 1.35073, 1.33934, 1.37762, 1.31361, 1.31526, 1.31984, 1.31577, 1.32205, 1.39447, 1.56646, 1.3005, 1.31573, 1.30573, 1.23237, 1.21896, 1.21896, 1.29241, 1.29548, 1.20898, 1.1432, 1.28537, 1.16428, 1.07692, 1.09664, 1.07735, 1.07604, 1.14741, 1.18201, 1.19863, 1.24662, 1.21378, 1.20802, 1.23061, 1.23887, 1.22495, 1.23073, 1.25965, 1.22518, 1.32608, 1.25668, 1.29837, 1.29668, 1.29884, 1.21835, 1.22647, 1.29202, 1.29215, 1.29724, 1.20136, 1.20111, 1.26873, 1.24063, 1.2353, 1.19795, 1.19663, 1.18728, 1.20232, 1.15628, 1.12543, 1.14813, 1.14286, 1.13571, 1.13971, 1.12258, 1.15289, 1.14792, 1.14848, 1.15633, 1.16587, 1.15236, 1.15281, 1.15659, 1.20478, 1.16297, 1.16222, 1.16717, 1.17226, 1.19257, 1.18299, 1.18831, 1.21052, 1.2123, 1.22037, 1.22275, 1.24661, 1.2577, 1.24947, 1.18404, 1.18583, 1.19632, 1.20624, 1.20734, 1.20994, 1.2257, 1.23198, 1.23505, 1.25023, 1.26453, 1.2778, 1.27101, 1.27452, 1.2985, 1.28852, 1.29036, 1.28497, 1.28439, 1.29764, 1.2983, 1.28207, 1.28089, 1.2794, 1.28515, 1.28629, 1.30911, 1.27373, 1.27393, 1.28343, 1.31549, 1.29419
1.07935, 0.990839, 1.08457, 1.14148, 1.13313, 1.20202, 1.21227, 1.22213, 1.17581, 1.32813, 1.17441, 1.28855, 1.37875, 1.28125, 1.29685, 1.43735, 1.36039, 1.21439, 1.21631, 1.43142, 1.24353, 1.23241, 1.43078, 1.26858, 1.47219, 1.37276, 1.45458, 1.31764, 1.36383, 1.39193, 1.43607, 1.34649, 1.34094, 1.40215, 1.4781, 1.31906, 1.32106, 1.32037, 1.32141, 1.38833, 1.56952, 1.30667, 1.29857, 1.31555, 1.31508, 1.21366, 1.29232, 1.13653, 1.13542, 1.13622, 1.14263, 1.08256, 1.08701, 1.07507, 1.07585, 1.07868, 1.07845, 1.11256, 1.15209, 1.19513, 1.19623, 1.2329, 1.21637, 1.25177, 1.24071, 1.21955, 1.20952, 1.22849, 1.236, 1.26151, 1.3113, 1.30839, 1.3372, 1.26676, 1.24765, 1.24498, 1.30974, 1.29585, 1.2959, 1.22863, 1.22649, 1.22193, 1.22382, 1.26547, 1.2322, 1.22974, 1.19468, 1.18864, 1.16879, 1.1648, 1.19423, 1.17983, 1.15983, 1.17289, 1.12796, 1.12648, 1.16774, 1.1524, 1.1564, 1.16714, 1.15049, 1.15185, 1.15314, 1.15564, 1.15894, 1.16333, 1.16482, 1.15915, 1.16887, 1.17356, 1.18539, 1.19531, 1.22316, 1.19214, 1.19274, 1.22995, 1.25382, 1.24032, 1.18349, 1.18548, 1.19758, 1.20126, 1.20539, 1.21465, 1.21931, 1.22795, 1.23082, 1.3328, 1.2515, 1.26018, 1.27128, 1.27252, 1.31305, 1.28991, 1.29024, 1.2833, 1.28188, 1.2979, 1.29766, 1.27898, 1.27808, 1.27861, 1.29163, 1.29675, 1.70751, 1.27536, 1.27384, 1.27395, 1.29406, 1.29293
1.09724, 1.12593, 1.14356, 1.13255, 1.06814, 1.19997, 1.21661, 1.23128, 1.178, 1.3035, 1.34051, 1.35543, 1.19905, 1.39313, 1.29764, 1.29965, 1.40462, 1.21469, 1.21487, 1.44707, 1.23746, 1.22831, 1.35793, 1.49931, 1.47841, 1.47539, 1.31099, 1.31833, 1.45669, 1.35147, 1.38829, 1.35407, 1.40237, 1.34145, 1.47823, 1.32374, 1.32295, 1.32195, 1.32362, 1.32973, 1.30066, 1.30666, 1.30278, 1.28531, 1.341, 1.2132, 1.21267, 1.13945, 1.13598, 1.13469, 1.16975, 1.08351, 1.09623, 1.06184, 1.09992, 1.03882, 1.06688, 1.11137, 1.17126, 1.19626, 1.20085, 1.23888, 1.29522, 1.23243, 1.24663, 1.29563, 1.2928, 1.26189, 1.25008, 1.27849, 1.32683, 1.35065, 1.31249, 1.29411, 1.28183, 1.26127, 1.29124, 1.2947, 1.29573, 1.29592, 1.37914, 1.27138, 1.26328, 1.33451, 1.23486, 1.22315, 1.20264, 1.19633, 1.18645, 1.15832, 1.17386, 1.20612, 1.18887, 1.13942, 1.1322, 1.13269, 1.14964, 1.15077, 1.15421, 1.15026, 1.14791, 1.14806, 1.15121, 1.15306, 1.1572, 1.15699, 1.15771, 1.16074, 1.16721, 1.16997, 1.17137, 1.1757, 1.22087, 1.21997, 1.20284, 1.23078, 1.18755, 1.17551, 1.18054, 1.2974, 1.19594, 1.20028, 1.2052, 1.21829, 1.21663, 1.22246, 1.23023, 1.24262, 1.25062, 1.42381, 1.27375, 1.27226, 1.27854, 1.28876, 1.28729, 1.28396, 1.28394, 1.2994, 1.29686, 1.37085, 1.27819, 1.27834, 1.27823, 1.29298, 1.29318, 1.45327, 1.27132, 1.27286, 1.31954, 1.29242
1.05517, 0.984647, 1.12229, 1.12346, 1.05704, 1.05669, 1.21234, 1.09296, 1.17598, 1.17231, 1.17872, 1.33704, 1.20457, 1.28204, 1.51697, 1.49503, 1.21213, 1.21345, 1.2151, 1.48424, 1.23745, 1.2275, 1.22883, 1.35741, 1.28848, 1.31899, 1.31038, 1.31179, 1.45179, 1.3986, 1.39614, 1.3511, 1.34986, 1.45295, 1.45338, 1.3326, 1.32367, 1.49305, 1.43238, 1.3676, 1.31341, 1.57579, 1.31235, 1.27171, 1.3458, 1.2122, 1.21201, 1.14827, 1.13355, 1.2878, 1.15856, 1.09027, 1.09921, 1.08857, 1.06937, 1.0292, 1.07355, 1.08176, 1.12875, 1.20621, 1.20928, 1.24663, 1.29574, 1.29286, 1.31856, 1.30133, 1.31006, 1.26886, 1.27902, 1.26328, 1.37622, 1.33772, 1.3237, 1.29687, 1.28387, 1.3018, 1.31252, 1.31919, 1.42539, 1.2932, 1.3115, 1.26156, 1.25788, 1.27341, 1.2586, 1.21648, 1.22747, 1.22862, 1.20557, 1.18125, 1.17892, 1.17922, 1.21938, 1.18513, 1.11989, 1.15278, 1.15045, 1.18846, 1.15332, 1.14708, 1.14183, 1.14635, 1.14852, 1.15016, 1.1541, 1.15214, 1.15559, 1.15775, 1.16673, 1.17111, 1.17787, 1.17027, 1.21645, 1.23053, 1.20848, 1.22714, 1.17144, 1.17125, 1.17697, 1.17418, 1.19006, 1.19312, 1.20216, 1.2117, 1.21239, 1.22236, 1.2249, 1.23824, 1.25041, 1.24663, 1.41597, 1.27028, 1.2779, 1.29127, 1.28932, 1.28393, 1.28747, 1.28668, 1.29706, 1.29828, 1.27919, 1.27558, 1.27592, 1.29065, 1.28835, 1.42978, 1.26979, 1.26946, 1.27874, 1.29494
1.03079, 0.982801, 1.09837, 1.09831, 1.0546, 1.05924, 1.21938, 1.07344, 1.17739, 1.08921, 1.33844, 1.32704, 1.22051, 1.38168, 1.52865, 1.30565, 1.21007, 1.21019, 1.25426, 1.45915, 1.23775, 1.22704, 1.22795, 1.35825, 1.471, 1.31442, 1.31266, 1.30894, 1.36212, 1.38839, 1.35467, 1.35735, 1.34996, 1.43304, 1.47809, 1.33465, 1.32679, 1.50607, 1.36884, 1.42702, 1.31743, 1.31892, 1.28169, 1.26045, 1.18895, 1.19357, 1.20205, 1.16419, 1.13592, 1.15818, 1.10122, 1.0717, 1.09442, 1.09485, 1.02843, 1.06368, 1.08127, 1.08781, 1.09471, 1.17597, 1.32036, 1.25052, 1.29986, 1.30037, 1.30268, 1.29909, 1.29846, 1.28876, 1.27786, 1.30933, 1.37253, 1.37469, 1.31622, 1.3021, 1.34634, 1.30852, 1.3518, 1.39691, 1.31972, 1.29844, 1.29072, 1.27927, 1.28454, 1.29175, 1.25615, 1.27149, 1.24023, 1.23634, 1.21147, 1.20433, 1.19318, 1.1942, 1.19049, 1.1899, 1.1222, 1.12179, 1.15664, 1.19784, 1.14843, 1.14723, 1.14345, 1.1407, 1.14735, 1.1481, 1.14995, 1.15039, 1.15793, 1.15835, 1.16731, 1.16889, 1.19869, 1.16982, 1.16753, 1.21238, 1.21341, 1.22999, 1.17123, 1.17206, 1.1746, 1.17492, 1.18755, 1.193, 1.19799, 1.20647, 1.21402, 1.34977, 1.32308, 1.34454, 1.24822, 1.24443, 1.41308, 1.26325, 1.26351, 1.28957, 1.28792, 1.28444, 1.28698, 1.28439, 1.29681, 1.29797, 1.2785, 1.27563, 1.2752, 1.29841, 1.28431, 1.27576, 1.27045, 1.2699, 1.27121, 1.3028
1.23692, 1.16035, 1.11671, 1.15689, 1.22739, 1.05938, 1.05878, 1.11554, 1.17167, 1.31941, 1.31422, 1.35421, 1.21554, 1.38185, 1.38537, 1.29862, 1.20782, 1.20919, 1.4162, 1.29617, 1.26118, 1.22563, 1.22707, 1.35876, 1.41412, 1.31381, 1.3122, 1.30974, 1.48027, 1.44636, 1.35414, 1.3586, 1.35364, 1.40274, 1.3364, 1.33604, 1.33996, 1.37903, 1.38341, 1.31311, 1.42975, 1.32459, 1.33996, 1.25744, 1.32097, 1.20464, 1.20074, 1.15312, 1.1263, 1.14146, 1.08444, 1.08319, 1.0571, 1.06148, 1.03971, 1.04923, 1.07157, 1.09877, 1.12119, 1.2149, 1.30295, 1.28012, 1.30333, 1.3006, 1.3028, 1.31219, 1.31285, 1.31526, 1.35409, 1.3448, 1.4013, 1.40083, 1.37172, 1.30342, 1.35106, 1.33293, 1.40897, 1.39644, 1.31853, 1.30271, 1.27589, 1.29194, 1.3123, 1.29546, 1.28883, 1.28877, 1.26779, 1.25813, 1.24635, 1.22298, 1.2192, 1.2798, 1.21834, 1.20637, 1.1571, 1.12559, 1.18067, 1.14238, 1.15329, 1.14113, 1.14321, 1.14336, 1.14561, 1.14533, 1.14786, 1.14927, 1.14671, 1.15712, 1.16122, 1.16728, 1.15511, 1.1626, 1.16675, 1.20597, 1.22199, 1.1632, 1.16697, 1.16763, 1.17396, 1.17688, 1.18462, 1.19105, 1.45262, 1.31313, 1.53727, 1.34672, 1.35455, 1.34394, 1.34784, 1.2461, 1.41457, 1.26388, 1.26255, 1.33031, 1.28937, 1.28437, 1.28797, 1.28033, 1.29744, 1.29641, 1.2817, 1.27518, 1.27541, 1.27327, 1.74582, 1.27423, 1.27053, 1.26988, 1.26893, 1.28445
0.990909, 1.06731, 1.11228, 1.11379, 1.17877, 1.05694, 1.22735, 1.0657, 1.16002, 1.1578, 1.18086, 1.16292, 1.21732, 1.33667, 1.29896, 1.21429, 1.20638, 1.20652, 1.22262, 1.27028, 1.26063, 1.22499, 1.2254, 1.4141, 1.4194, 1.32302, 1.31276, 1.31063, 1.48059, 1.35152, 1.35197, 1.41234, 1.35382, 1.3919, 1.33718, 1.33685, 1.34427, 1.291, 1.292, 1.45106, 1.66122, 1.33708, 1.28057, 1.22973, 1.38121, 1.16691, 1.20532, 1.13695, 1.09854, 1.0962, 1.05661, 1.06096, 1.05127, 1.0595, 1.03986, 1.04962, 1.0669, 1.12225, 1.13235, 1.22912, 1.26291, 1.27725, 1.27352, 1.27256, 1.30443, 1.31762, 1.32328, 1.32223, 1.38031, 1.36421, 1.40188, 1.3677, 1.34855, 1.34121, 1.36568, 1.34616, 1.38665, 1.40818, 1.37309, 1.29981, 1.29951, 1.30199, 1.30264, 1.30239, 1.3763, 1.3831, 1.32226, 1.34651, 1.29465, 1.32374, 1.27819, 1.25577, 1.21129, 1.21378, 1.15418, 1.19105, 1.12977, 1.17647, 1.15751, 1.12356, 1.15976, 1.14572, 1.14624, 1.14328, 1.14588, 1.14265, 1.14345, 1.17431, 1.15737, 1.16404, 1.15398, 1.19852, 1.19347, 1.21262, 1.15905, 1.16227, 1.16311, 1.16422, 1.17133, 1.17183, 1.18206, 1.19027, 1.19284, 1.30294, 1.31819, 1.34606, 1.34988, 1.36658, 1.34955, 1.24821, 1.35294, 1.26378, 1.25925, 1.35397, 1.29077, 1.28076, 1.2829, 1.28446, 1.29075, 1.29884, 1.28185, 1.27743, 1.27608, 1.27116, 1.26778, 1.26778, 1.26921, 1.27002, 1.26878, 1.27258
1.05029, 1.05982, 1.06356, 1.10736, 1.05212, 1.05619, 1.05803, 1.09555, 1.16594, 1.16661, 1.16878, 1.13966, 1.16561, 1.23009, 1.21551, 1.4035, 1.20496, 1.20507, 1.22652, 1.46801, 1.26058, 1.22515, 1.22579, 1.48098, 1.54875, 1.47909, 1.31166, 1.31127, 1.47734, 1.35699, 1.40276, 1.36263, 1.36436, 1.36524, 1.41811, 1.3368, 1.40642, 1.29268, 1.29222, 1.30937, 1.41753, 1.35138, 1.34718, 1.22614, 1.38366, 1.0593, 1.06011, 1.13559, 1.1358, 1.07937, 1.07054, 1.08018, 1.06791, 1.11647, 1.06099, 1.0749, 1.07326, 1.10826, 1.15239, 1.23407, 1.27384, 1.28162, 1.29433, 1.34126, 1.3297, 1.37538, 1.40557, 1.40284, 1.39454, 1.42096, 1.36392, 1.42041, 1.39558, 1.44423, 1.39169, 1.37366, 1.38246, 1.38417, 1.3732, 1.31962, 1.31263, 1.31438, 1.3202, 1.33671, 1.447, 1.37907, 1.33897, 1.34136, 1.29554, 1.2568, 1.32489, 1.27762, 1.21889, 1.19109, 1.18091, 1.21007, 1.1712, 1.11391, 1.13674, 1.1239, 1.13932, 1.14871, 1.14748, 1.14043, 1.14246, 1.14403, 1.14311, 1.14638, 1.15698, 1.1593, 1.15174, 1.18678, 1.19619, 1.20454, 1.15594, 1.22535, 1.16022, 1.16095, 1.16991, 1.17179, 1.18256, 1.18816, 1.29789, 1.31895, 1.29679, 1.31588, 1.31179, 1.31208, 1.38126, 1.35057, 1.25469, 1.26143, 1.25946, 1.34826, 1.29097, 1.28909, 1.28511, 1.28511, 1.29349, 1.3001, 1.28466, 1.28002, 1.27754, 1.27389, 1.26743, 1.26552, 1.26603, 1.27054, 1.26714, 1.26784
1.06418, 1.24339, 1.07714, 1.08016, 1.05697, 1.05681, 1.05639, 1.0559, 1.14336, 1.16415, 1.14836, 1.10583, 1.12944, 1.13204, 1.23324, 1.20385, 1.20415, 1.20455, 1.40991, 1.22911, 1.23257, 1.22535, 1.22785, 1.40467, 1.30957, 1.47195, 1.30654, 1.31148, 1.43407, 1.45218, 1.35384, 1.36365, 1.36294, 1.36094, 1.44731, 1.51591, 1.39209, 1.5134, 1.29563, 1.42775, 1.43728, 1.39591, 1.26818, 1.21184, 1.18516, 1.05318, 1.05379, 1.09171, 1.08713, 1.08749, 1.09651, 1.07466, 1.11828, 1.0746, 1.07786, 1.08326, 1.07852, 1.15118, 1.13104, 1.2242, 1.29114, 1.2749, 1.2954, 1.40051, 1.32768, 1.38491, 1.40404, 1.40369, 1.42626, 1.4236, 1.39202, 1.39575, 1.39485, 1.40336, 1.39061, 1.39216, 1.43377, 1.42053, 1.36211, 1.3379, 1.33657, 1.33532, 1.33505, 1.3681, 1.38558, 1.38847, 1.41721, 1.36176, 1.30848, 1.28834, 1.26762, 1.27171, 1.25508, 1.20624, 1.20899, 1.21034, 1.13431, 1.12089, 1.17567, 1.12387, 1.14325, 1.14777, 1.14908, 1.13481, 1.13712, 1.14528, 1.14464, 1.15886, 1.15662, 1.17074, 1.19149, 1.18735, 1.19641, 1.21225, 1.23096, 1.22769, 1.15511, 1.16082, 1.25418, 1.28447, 1.17529, 1.18403, 1.30959, 1.48945, 1.32558, 1.33282, 1.30476, 1.35081, 1.38289, 1.3206, 1.24834, 1.25959, 1.25757, 1.44095, 1.2912, 1.29091, 1.27946, 1.28682, 1.28789, 1.30148, 1.39426, 1.38959, 1.27752, 1.27741, 1.26803, 1.26708, 1.26856, 1.26914, 1.27067, 1.26902
1.04727, 1.05036, 1.04744, 1.1052, 1.05434, 1.0561, 1.05727, 1.1318, 1.15669, 1.18432, 1.16144, 1.32299, 1.15014, 1.1295, 1.23798, 1.20484, 1.20457, 1.20322, 1.39639, 1.2576, 1.22888, 1.22522, 1.22686, 1.28936, 1.33696, 1.47129, 1.30486, 1.30794, 1.31029, 1.51053, 1.38774, 1.36397, 1.36372, 1.36162, 1.45101, 1.51651, 1.34067, 1.34674, 1.30052, 1.29948, 1.4925, 0.00438693, 1.18818, 1.21095, 1.35638, 1.17187, 1.04046, 1.04764, 1.07443, 1.05288, 1.05783, 1.08259, 1.08261, 1.08768, 1.08916, 1.08658, 1.09365, 1.12758, 1.18839, 1.24149, 1.3363, 1.31032, 1.29916, 1.30396, 1.38479, 1.42647, 1.40279, 1.43026, 1.42415, 1.42446, 1.4241, 1.39992, 1.4053, 1.41334, 1.44107, 1.39611, 1.39479, 1.39421, 1.39488, 1.37021, 1.3489, 1.35416, 1.41956, 1.36388, 1.41666, 1.38852, 1.38029, 1.39217, 1.30245, 1.27776, 1.32785, 1.29605, 1.2331, 1.20548, 1.19159, 1.16269, 1.15033, 1.19088, 1.12622, 1.13052, 1.14146, 1.12632, 1.15031, 1.13235, 1.13079, 1.13544, 1.15096, 1.15822, 1.15888, 1.17786, 1.17421, 1.17479, 1.20131, 1.20788, 1.14628, 1.14597, 1.15256, 1.15777, 1.28474, 1.33294, 1.17671, 1.18034, 1.18836, 1.2985, 1.30996, 1.25429, 1.21435, 1.21542, 1.30959, 1.31319, 1.24871, 1.2575, 1.25805, 1.48878, 1.35542, 1.31944, 1.28172, 1.28049, 1.2862, 1.35837, 1.32433, 1.3863, 1.27934, 1.27924, 1.26964, 1.26683, 1.26994, 1.27036, 1.27048, 1.27252
1.05013, 1.04305, 1.16248, 1.11567, 1.05379, 1.05494, 1.08304, 1.08099, 1.04076, 1.25065, 1.172, 1.20746, 1.11138, 1.12322, 1.50313, 1.2057, 1.20554, 1.20425, 1.21144, 1.27489, 1.23024, 1.22643, 1.23304, 1.23968, 1.29629, 1.47539, 1.4376, 1.30696, 1.31081, 1.48313, 1.40026, 1.54434, 1.36466, 1.3678, 1.45163, 1.35321, 1.33967, 1.34646, 1.29992, 1.30008, 1.46109, 0.00473091, 1.33456, 1.1913, 1.22512, 1.04786, 1.04959, 1.04956, 1.04993, 1.05801, 1.05782, 1.08123, 1.08519, 1.09297, 1.10438, 1.09653, 1.11022, 1.12536, 1.25417, 1.24286, 1.38104, 1.30617, 1.30247, 1.3063, 1.37179, 1.4025, 1.40126, 1.45253, 1.45054, 1.44715, 1.42732, 1.41662, 1.41737, 1.41941, 1.43995, 1.44686, 1.4188, 1.39584, 1.39659, 1.36222, 1.41916, 1.34992, 1.38873, 1.37367, 1.38204, 1.43973, 1.38237, 1.36698, 1.30742, 1.27775, 1.33052, 1.30687, 1.27165, 1.23663, 1.19431, 1.18501, 1.16406, 1.18924, 1.17822, 1.12947, 1.16912, 1.12574, 1.1427, 1.12925, 1.12695, 1.14272, 1.14993, 1.1566, 1.15907, 1.13562, 1.13709, 1.18417, 1.19567, 1.13913, 1.18491, 1.14645, 1.15237, 1.15552, 1.15659, 1.16818, 1.17135, 1.17878, 1.18754, 1.28562, 1.3116, 1.30187, 1.21258, 1.2134, 1.21537, 1.24653, 1.24565, 1.25244, 1.41274, 1.44739, 1.40168, 1.29168, 1.35524, 1.28285, 1.28395, 1.30309, 1.30288, 1.33286, 1.28381, 1.28241, 1.26739, 1.26499, 1.26925, 1.26994, 1.26989, 1.27479
1.03215, 1.12914, 1.11372, 1.09537, 1.10887, 1.13909, 1.12383, 1.10547, 1.13564, 1.157, 1.15432, 1.15568, 1.33884, 1.23663, 1.24988, 1.40567, 1.20608, 1.20664, 1.20681, 1.28399, 1.2234, 1.22522, 1.23704, 1.26482, 1.34678, 1.48516, 1.47783, 1.40499, 1.41827, 1.31676, 1.39054, 1.45351, 1.36592, 1.36627, 1.35515, 1.35446, 1.34853, 1.33482, 1.52004, 1.42622, 1.42682, 1.39179, 1.24267, 1.23561, 1.33616, 1.17694, 1.05311, 1.04913, 1.05025, 1.05636, 1.05675, 1.10958, 1.17579, 1.17971, 1.10496, 1.12876, 1.15338, 1.14055, 1.25138, 1.38601, 1.37578, 1.31641, 1.30652, 1.33583, 1.35787, 1.37798, 1.39348, 1.53344, 1.42471, 1.4337, 1.44519, 1.40856, 1.42653, 1.42033, 1.41962, 1.44969, 1.42095, 1.46742, 1.44694, 1.45182, 1.45469, 1.37837, 1.36215, 1.36865, 1.38612, 1.38518, 1.38282, 1.39204, 1.30685, 1.27989, 1.30639, 1.36895, 1.29548, 1.23666, 1.20584, 1.17808, 1.16559, 1.17493, 1.18295, 1.13085, 1.1278, 1.13881, 1.1399, 1.14007, 1.13001, 1.13296, 1.14579, 1.25815, 1.16855, 1.13634, 1.13578, 1.1842, 1.20548, 1.1358, 1.18178, 1.14421, 1.14712, 1.15441, 1.15629, 1.16843, 1.17049, 1.17855, 1.182, 1.50042, 1.30886, 1.31309, 1.21314, 1.21482, 1.34911, 1.24308, 1.24613, 1.24994, 1.31384, 1.36429, 1.38677, 1.3962, 1.51958, 1.41954, 1.28715, 1.3399, 1.3044, 1.34387, 1.28058, 1.28148, 1.26789, 1.26695, 1.27198, 1.27228, 1.27169, 1.27389
1.03339, 1.06648, 1.10234, 1.10484, 1.14962, 1.11952, 1.04249, 1.08462, 1.12613, 1.2102, 1.14853, 1.1997, 1.22481, 1.26174, 1.18402, 1.28513, 1.2063, 1.20546, 1.20515, 1.20933, 1.22366, 1.22314, 1.22928, 1.53579, 1.4042, 1.47296, 1.3151, 1.47443, 1.45503, 1.3183, 1.32252, 1.39896, 1.36428, 1.36663, 1.50809, 1.46582, 1.35762, 1.35824, 1.3347, 1.45398, 1.45179, 1.35103, 1.19625, 1.2518, 1.28998, 1.05279, 1.07028, 1.07677, 1.05829, 1.05044, 1.09172, 1.21252, 1.19969, 1.13274, 1.12335, 1.11515, 1.14904, 1.17077, 1.25686, 1.35999, 1.37852, 1.33831, 1.32204, 1.38304, 1.38211, 1.36276, 1.41018, 1.43153, 1.42524, 1.42126, 1.42706, 1.4087, 1.4266, 1.42564, 1.45073, 1.42909, 1.42899, 1.40338, 1.39347, 1.46232, 1.45033, 1.37713, 1.38241, 1.38939, 1.46603, 1.39246, 1.38182, 1.3594, 1.31388, 1.29991, 1.31989, 1.36365, 1.28887, 1.25673, 1.22933, 1.21896, 1.20923, 1.17448, 1.16743, 1.21489, 1.12352, 1.13905, 1.13951, 1.16327, 1.13228, 1.13297, 1.14994, 1.13908, 1.14034, 1.14552, 1.16414, 1.1839, 1.2096, 1.17409, 1.13215, 1.14003, 1.14512, 1.15549, 1.1573, 1.16817, 1.16964, 1.17656, 1.29284, 1.28314, 1.30923, 1.31081, 1.2157, 1.32596, 1.23707, 1.24294, 1.2434, 1.30703, 1.38143, 1.34934, 1.35046, 1.3053, 1.4005, 1.31273, 1.36583, 1.29445, 1.30439, 1.30469, 1.28101, 1.28153, 1.26846, 1.26524, 1.27378, 1.273, 1.27753, 1.27414
1.03311, 1.198, 1.06571, 1.08136, 1.13377, 1.04598, 1.03906, 1.02431, 1.02346, 1.20971, 1.20215, 1.21325, 1.49883, 1.13361, 1.28472, 1.20947, 1.20249, 1.20407, 1.20562, 1.20898, 1.2219, 1.22324, 1.50649, 1.53684, 1.3032, 1.49298, 1.53611, 1.4766, 1.32095, 1.31937, 1.32199, 1.40062, 1.57556, 1.36435, 1.44738, 1.44994, 1.48924, 1.33842, 1.42375, 1.44769, 1.44617, 1.30021, 1.28906, 1.24441, 1.07661, 1.1265, 1.01379, 1.07735, 1.08452, 1.1258, 1.07008, 1.16099, 1.21591, 1.15127, 1.19442, 1.1586, 1.17896, 1.21936, 1.25681, 1.3527, 1.33503, 1.3813, 1.35055, 1.35226, 1.37442, 1.40346, 1.40165, 1.42658, 1.41325, 1.46129, 1.42867, 1.43309, 1.43505, 1.44048, 1.50026, 1.45008, 1.45843, 1.4303, 1.39539, 1.46185, 1.46203, 1.38901, 1.38705, 1.36244, 1.43863, 1.43695, 1.39568, 1.33773, 1.33062, 1.30936, 1.32571, 1.31159, 1.30634, 1.26849, 1.25052, 1.22897, 1.21401, 1.17199, 1.1655, 1.12278, 1.13191, 1.14135, 1.13411, 1.12737, 1.12958, 1.12956, 1.1388, 1.13543, 1.13594, 1.14667, 1.11108, 1.11142, 1.21483, 1.2058, 1.19915, 1.14074, 1.14396, 1.15507, 1.1568, 1.1616, 1.17011, 1.17431, 1.17825, 1.25088, 1.23776, 1.30614, 1.31343, 1.32678, 1.23941, 1.24266, 1.24541, 1.25669, 1.40177, 1.33081, 1.36063, 1.30479, 1.33027, 1.34564, 1.3077, 1.29389, 1.30349, 1.30264, 1.33913, 1.28321, 1.27181, 1.26215, 1.67661, 1.67583, 1.28509, 1.27017
1.03376, 1.20073, 1.0643, 1.0717, 1.08819, 1.04682, 1.1324, 1.02572, 1.12072, 1.20234, 1.09969, 1.22379, 1.23037, 1.23161, 1.1568, 0.00429235, 1.41168, 1.20176, 1.20492, 1.21197, 1.22178, 1.22202, 1.33839, 1.24569, 1.35095, 1.47063, 1.33044, 1.47896, 1.50643, 1.3199, 1.32256, 1.53399, 1.3961, 1.38508, 1.56475, 1.45784, 1.51968, 1.34297, 1.34292, 1.49933, 1.34009, 1.33654, 1.26806, 1.23425, 1.07061, 1.07348, 1.07455, 1.07282, 1.0182, 1.04662, 1.06691, 1.12013, 1.21595, 1.14517, 1.17638, 1.18813, 1.19901, 1.19781, 1.34659, 1.37847, 1.37879, 1.36851, 1.3513, 1.42186, 1.42106, 1.40639, 1.40885, 1.41676, 1.47907, 1.42086, 1.46235, 1.44898, 1.4456, 1.43884, 1.45755, 1.47203, 1.46451, 1.48115, 1.40188, 1.44376, 1.44293, 1.43376, 1.38559, 1.4225, 1.40605, 1.403, 1.39302, 1.35381, 1.36582, 1.3151, 1.33699, 1.32239, 1.31634, 1.31236, 1.26039, 1.27567, 1.27271, 1.21263, 1.15345, 1.13265, 1.13205, 1.13631, 1.13625, 1.13202, 1.1282, 1.15003, 1.1479, 1.13188, 1.13624, 1.1468, 1.17735, 1.19452, 1.14765, 1.21784, 1.21887, 1.13756, 1.14529, 1.15271, 1.15598, 1.16065, 1.17079, 1.17698, 1.18406, 1.24317, 1.24947, 1.24897, 1.30917, 1.24593, 1.24123, 1.24333, 1.24526, 1.25483, 1.27374, 1.35989, 1.37129, 1.30956, 1.39195, 1.51945, 1.34157, 1.29634, 1.29541, 1.34794, 1.3366, 1.47699, 1.26139, 1.261, 1.26208, 1.26797, 1.2611, 1.29312
1.03343, 1.06178, 1.06982, 1.08018, 1.09119, 1.03754, 1.10829, 1.02548, 1.15969, 1.14972, 1.06431, 1.22622, 1.50068, 1.1888, 1.17395, 1.40435, 1.2615, 1.20149, 1.32061, 1.21157, 1.22028, 1.22037, 1.23344, 1.24684, 1.34756, 1.48131, 1.33022, 1.48059, 1.33121, 1.3207, 1.32111, 1.45094, 1.45807, 1.36036, 0.00449146, 1.48203, 0.00447861, 1.40214, 1.35066, 1.36705, 1.32727, 1.35019, 1.25585, 1.18686, 1.0334, 1.06127, 1.00012, 0.976086, 1.00513, 1.03532, 1.10574, 1.13622, 1.1757, 1.1909, 1.20244, 1.20073, 1.20847, 1.25362, 1.34736, 1.37101, 1.38562, 1.35611, 1.43824, 1.45398, 1.49647, 1.44795, 1.4101, 1.40931, 1.42025, 1.41694, 1.47065, 1.47552, 1.4516, 1.43891, 1.47173, 1.6099, 1.6015, 1.46791, 1.40413, 1.40345, 1.47043, 1.42016, 1.4311, 1.42703, 1.40625, 1.40588, 1.39481, 1.3987, 1.33515, 1.3227, 1.3711, 1.46821, 1.36535, 1.34179, 1.30994, 1.29888, 1.29353, 1.23683, 1.15032, 1.13334, 1.13611, 1.19268, 1.14752, 1.13235, 1.11491, 1.11697, 1.15658, 1.1273, 1.15156, 1.15697, 1.17897, 1.09207, 1.2136, 1.21629, 1.21843, 1.21705, 1.14244, 1.15266, 1.15426, 1.15949, 1.17221, 1.2933, 1.18182, 1.20244, 1.51885, 1.25074, 1.31217, 1.31328, 1.24237, 1.24387, 1.2481, 1.25012, 1.27384, 1.27616, 1.34396, 1.4501, 1.41488, 1.43658, 1.62288, 1.51428, 1.29625, 1.29701, 1.56646, 1.33281, 1.32682, 1.26008, 1.26268, 1.61057, 1.2583, 1.26108
1.03295, 1.02888, 1.024, 1.03621, 1.04944, 1.06384, 1.14362, 1.16465, 1.13457, 1.04927, 1.21887, 1.21983, 1.08999, 1.11957, 0.00441442, 1.34166, 1.36221, 1.34975, 1.37108, 1.299, 1.21924, 1.2192, 1.22712, 1.33847, 1.47946, 1.45164, 1.47463, 1.48129, 1.33371, 1.32291, 1.321, 1.45159, 1.39473, 0.00414578, 1.45815, 1.48807, 1.50401, 1.43184, 1.41662, 1.3322, 1.24413, 1.24282, 1.24918, 1.01469, 1.05569, 1.00201, 1.00244, 0.977937, 1.02212, 1.03558, 1.04734, 1.14659, 1.16203, 1.20934, 1.33105, 1.25862, 1.23403, 1.24027, 1.35413, 1.34421, 1.3746, 1.3475, 1.34894, 1.40641, 1.48651, 1.45858, 1.41055, 1.4095, 1.43687, 1.4816, 1.55719, 1.48336, 1.47953, 1.45755, 1.47436, 1.5988, 1.6034, 1.46974, 1.43414, 1.47727, 1.42935, 1.42214, 1.42342, 1.43014, 1.40247, 1.40349, 1.38078, 1.37089, 1.33116, 1.31882, 1.31663, 1.32985, 1.3501, 1.35354, 1.32701, 1.47473, 1.42379, 1.17969, 1.1865, 1.13999, 1.1342, 1.13582, 1.1482, 1.1221, 1.13227, 1.11232, 1.12811, 1.12546, 1.12595, 1.14151, 1.10643, 1.09178, 1.21708, 1.21329, 1.21015, 1.18076, 1.1423, 1.14896, 1.15796, 1.16025, 1.17259, 1.18149, 1.26687, 1.24079, 1.24032, 1.23384, 1.23382, 1.23477, 1.2429, 1.24223, 1.2469, 1.37395, 1.27408, 1.34149, 1.32268, 1.44464, 1.41456, 1.43714, 1.56797, 1.55257, 1.29783, 1.29473, 1.33758, 1.33716, 1.26219, 1.25807, 1.26424, 1.2661, 1.26355, 1.26091
1.03157, 1.02154, 1.02159, 1.03344, 1.03363, 1.00493, 1.00875, 1.01561, 1.30612, 1.19925, 1.23408, 1.28389, 1.26822, 1.13958, 1.21942, 1.28073, 1.32742, 1.3209, 1.55212, 1.30337, 1.21778, 1.21855, 1.29693, 1.29848, 1.41986, 1.41568, 1.47581, 1.479, 1.4829, 1.32775, 1.32516, 1.32618, 1.37942, 1.42399, 1.43642, 1.43613, 1.41651, 1.41596, 1.3812, 1.22685, 1.22755, 1.22656, 1.20672, 1.00178, 0.998822, 1.00309, 0.997979, 1.00643, 1.02001, 1.06076, 1.06323, 1.11078, 1.15644, 1.20785, 1.33042, 1.27763, 1.27785, 1.28274, 1.35097, 1.33937, 1.35773, 1.34991, 1.40975, 1.45083, 1.49634, 1.51258, 1.43166, 1.42685, 1.42621, 1.47915, 1.54678, 1.50238, 1.49248, 1.4763, 1.47089, 1.54866, 1.60592, 1.59173, 1.49396, 1.4302, 1.42965, 1.42723, 1.45476, 1.45866, 1.44679, 1.44734, 1.38293, 1.36905, 1.36632, 1.35451, 1.33009, 1.36215, 1.35845, 1.35366, 1.3258, 1.47439, 1.40533, 1.18164, 1.17068, 1.13925, 1.13966, 1.13191, 1.18451, 1.1205, 1.11393, 1.11672, 1.12662, 1.12465, 1.12399, 1.12329, 1.10148, 1.19761, 1.21278, 1.09619, 1.21886, 1.20425, 1.13754, 1.14463, 1.16102, 1.16057, 1.16706, 1.22706, 1.22017, 1.48752, 1.22716, 1.23725, 1.2351, 1.23462, 1.23951, 1.24234, 1.24867, 1.25208, 1.29453, 1.27778, 1.38401, 1.29256, 1.41748, 1.51636, 1.32933, 1.48805, 1.45129, 1.29284, 1.29165, 1.36815, 1.35686, 1.25894, 1.2617, 1.26353, 1.25847, 1.25341
1.10409, 1.02092, 1.02148, 1.24968, 1.00192, 1.00367, 1.00537, 1.17733, 1.13202, 1.27564, 1.24753, 1.28438, 1.27204, 1.14335, 1.17089, 1.18112, 1.20966, 1.21842, 1.35521, 1.21664, 1.21525, 1.47406, 1.31973, 1.32219, 1.35799, 1.47903, 1.47929, 1.48125, 1.48388, 1.33103, 1.32536, 1.32565, 1.48182, 1.68483, 1.44442, 1.43758, 1.43679, 1.41663, 1.24739, 1.23004, 1.19268, 1.29527, 1.34111, 0.990762, 0.999587, 1.00001, 0.991794, 1.06389, 1.06093, 1.08619, 1.07857, 1.07877, 1.15119, 1.19749, 1.32669, 1.31302, 1.29695, 1.28444, 1.34163, 1.35741, 1.3571, 1.37574, 1.45112, 1.45297, 1.50591, 1.50985, 1.44705, 1.44449, 1.47838, 1.48089, 1.51276, 1.50561, 1.48776, 1.4923, 1.49502, 1.55825, 1.56065, 1.52049, 1.5054, 1.48258, 1.43036, 1.42777, 1.46454, 1.46499, 1.50037, 1.45386, 1.44466, 1.37877, 1.37764, 1.32751, 1.35042, 1.36833, 1.36729, 1.37556, 1.36236, 1.40528, 1.37847, 1.20931, 1.2016, 1.16121, 1.13181, 1.13179, 1.12251, 1.11806, 1.17164, 1.11877, 1.12894, 1.12414, 1.12367, 1.12206, 1.16388, 1.11853, 1.11361, 1.10563, 1.16009, 1.12748, 1.13401, 1.14312, 1.15663, 1.16238, 1.17008, 1.25438, 1.19995, 1.24249, 1.25659, 1.22639, 1.23627, 1.23404, 1.23564, 1.24239, 1.24697, 1.24724, 1.31501, 1.38334, 1.28887, 1.28864, 1.42363, 1.37159, 1.41915, 1.33246, 1.60428, 1.33219, 1.30681, 1.36986, 1.25363, 1.25417, 1.25462, 1.2604, 1.26007, 1.25205
1.11413, 1.02062, 1.22422, 1.24665, 1.00301, 1.00209, 1.00359, 1.06281, 1.13763, 1.09347, 1.19396, 1.22055, 1.17554, 1.41321, 1.20551, 1.28204, 1.22538, 1.18944, 1.22076, 1.2235, 1.21263, 1.21263, 1.32231, 1.25123, 1.25827, 1.47433, 1.48144, 1.48112, 1.52243, 1.33965, 1.32592, 1.32625, 1.34008, 1.48966, 1.41525, 1.2996, 1.28922, 1.26741, 1.25342, 1.21645, 1.29908, 1.28897, 1.3487, 1.09141, 0.994645, 1.00022, 1.01997, 1.09532, 1.09779, 1.10125, 1.16068, 1.10991, 1.13242, 1.28797, 1.33082, 1.31114, 1.31213, 1.31129, 1.41296, 1.35818, 1.35714, 1.3763, 1.45207, 1.46223, 1.49471, 1.55093, 1.45466, 1.46226, 1.45426, 1.53375, 1.56486, 1.51714, 1.48806, 1.50424, 1.56191, 1.60038, 1.561, 1.56239, 1.50621, 1.50588, 1.42923, 1.45138, 1.46808, 1.47232, 1.48552, 1.52409, 1.44347, 1.38921, 1.35771, 1.32554, 1.36658, 1.36738, 1.36766, 1.36047, 1.3466, 1.39846, 1.37858, 1.29328, 1.16938, 1.16366, 1.12535, 1.12188, 1.1225, 1.15954, 1.12172, 1.1191, 1.12885, 1.29005, 1.12192, 1.11973, 1.11878, 1.15822, 1.19927, 1.20158, 1.21677, 1.13216, 1.13203, 1.14364, 1.15684, 1.16227, 1.25121, 1.24083, 1.22481, 1.22623, 1.23329, 1.22698, 1.2295, 1.23396, 1.23483, 1.23667, 1.24674, 1.24815, 1.37449, 1.31506, 1.28672, 1.28525, 1.41562, 1.42599, 1.42785, 1.3332, 1.33314, 1.44489, 1.36919, 1.2522, 1.25036, 1.25355, 1.25317, 1.25316, 1.25517, 1.24959
1.10058, 1.24304, 1.00911, 1.00431, 1.00229, 1.00286, 1.00224, 1.0033, 1.13238, 1.13647, 1.10856, 1.28422, 1.15439, 1.16545, 1.24968, 1.16704, 1.17872, 1.23367, 1.19517, 1.19958, 1.2128, 1.21377, 1.30277, 1.32025, 1.32154, 1.32583, 1.481, 1.48132, 1.48412, 1.36718, 1.63732, 1.32822, 1.33809, 1.37498, 1.44078, 1.48529, 1.46829, 1.25731, 1.33985, 1.49542, 1.19881, 1.19142, 1.06988, 1.00421, 0.984146, 1.01796, 0.994849, 1.0638, 1.11199, 1.13772, 1.12237, 1.09404, 1.14025, 1.25068, 1.32188, 1.31098, 1.31199, 1.35949, 1.33006, 1.35335, 1.35578, 1.41719, 1.44501, 1.49511, 1.49376, 1.51291, 1.55138, 1.49949, 1.46849, 1.51085, 1.57828, 1.53793, 1.48726, 1.51056, 1.56463, 1.58807, 1.57523, 1.57563, 1.51583, 1.50623, 1.43284, 1.46946, 1.49254, 1.49145, 1.49635, 1.52969, 1.58197, 1.40418, 1.40394, 1.35816, 1.37508, 1.38578, 1.37995, 1.3489, 1.34793, 1.39845, 1.45189, 1.2087, 1.19086, 1.17506, 1.15045, 1.12257, 1.23569, 1.15054, 1.18091, 1.12461, 1.12882, 1.12889, 1.1187, 1.11768, 1.1176, 1.15153, 1.11251, 1.12996, 1.22501, 1.12765, 1.13214, 1.14935, 1.23617, 1.16295, 1.25785, 1.24172, 1.22046, 1.25174, 1.24039, 1.24148, 1.22899, 1.23281, 1.2324, 1.23515, 1.24985, 1.24739, 1.26137, 1.27052, 1.27873, 1.41617, 1.41614, 1.42739, 1.31759, 1.42222, 1.43, 1.43956, 1.35325, 1.25031, 1.24955, 1.24955, 1.25389, 1.2551, 1.25043, 1.25008
1.20669, 1.23046, 1.00801, 1.00303, 1.00234, 1.00205, 1.00097, 1.00227, 1.12872, 1.13422, 1.11206, 1.17204, 1.41703, 1.5176, 1.20303, 1.18164, 1.27164, 1.23283, 1.19581, 1.1945, 1.21371, 1.21309, 1.32468, 1.32139, 1.47759, 1.32096, 1.32873, 1.4815, 1.4839, 1.38905, 1.52494, 1.34789, 1.33363, 1.37594, 1.20992, 1.47786, 1.13756, 1.1772, 1.17605, 1.31829, 1.24806, 1.14758, 1.0357, 1.00546, 1.00112, 0.984316, 1.04791, 1.10299, 1.12972, 1.13926, 1.1216, 1.18027, 1.15066, 1.24015, 1.3025, 1.46682, 1.32658, 1.34384, 1.34501, 1.36748, 1.35376, 1.41402, 1.44521, 1.47152, 1.51458, 1.51275, 1.55247, 1.46848, 1.46767, 1.50006, 1.57569, 1.54468, 1.5103, 1.50995, 1.52668, 1.588, 1.65554, 1.57603, 1.53559, 1.4916, 1.46977, 1.57176, 1.49176, 1.48901, 1.48204, 1.58514, 1.57754, 1.4635, 1.4169, 1.41485, 1.38831, 1.38936, 1.41239, 1.38218, 1.34817, 1.42143, 1.50073, 1.26757, 1.1921, 1.17898, 1.17425, 1.247, 1.21759, 1.1803, 1.12183, 1.10728, 1.12235, 1.18766, 1.11881, 1.11851, 1.11734, 1.12103, 1.11268, 1.10945, 1.21524, 1.12681, 1.13273, 1.14906, 1.15103, 1.16661, 1.25476, 1.22426, 1.23534, 1.23982, 1.24297, 1.22119, 1.29594, 1.22951, 1.25786, 1.28794, 1.26503, 1.24279, 1.29021, 1.32274, 1.31261, 1.47781, 1.41732, 1.30483, 1.31752, 1.32517, 1.35962, 1.43463, 0.00430583, 1.25025, 1.24775, 1.24729, 1.25001, 1.25134, 1.24951, 1.24997
1.52985, 1.16066, 1.23958, 1.01464, 0.999238, 1.00021, 0.999503, 1.00341, 1.0044, 1.18167, 1.09495, 1.28434, 1.30375, 1.30178, 1.10588, 1.15885, 1.26694, 1.13413, 1.21546, 1.30891, 1.21255, 1.21279, 1.57167, 1.24037, 1.3225, 1.4865, 1.4779, 1.47843, 1.4846, 1.47042, 1.43474, 1.5255, 1.33577, 1.38159, 1.20239, 1.20165, 1.44012, 1.27551, 1.19879, 1.08585, 1.0874, 1.04615, 1.02484, 1.03407, 1.00112, 0.993643, 0.999983, 1.1046, 1.12411, 1.16035, 1.13676, 1.13405, 1.15638, 1.18638, 1.29298, 1.46157, 1.33751, 1.33778, 1.36755, 1.35697, 1.35705, 1.4272, 1.42057, 1.4831, 1.46491, 1.5497, 1.54298, 1.46657, 1.47431, 1.47781, 1.57167, 1.57332, 1.51436, 1.51812, 1.60152, 1.62316, 1.64748, 1.64743, 1.48169, 1.47896, 1.46555, 1.47793, 1.49069, 1.53047, 1.48559, 1.58135, 1.68878, 1.46129, 1.42751, 1.42272, 1.43355, 1.41062, 1.39998, 1.39384, 1.40587, 1.37757, 1.43652, 1.26692, 1.21122, 1.19185, 1.21519, 1.16822, 1.19093, 1.12264, 1.16939, 1.10411, 1.12143, 1.13267, 1.20701, 1.11415, 1.13237, 1.12162, 1.12196, 1.10957, 1.15041, 1.12976, 1.13247, 1.15149, 1.15784, 1.16496, 1.25481, 1.22581, 1.23273, 1.23306, 1.53391, 1.30067, 1.30308, 1.33354, 1.26203, 1.2579, 1.29152, 1.2362, 1.25613, 1.32315, 1.27421, 1.27504, 1.48844, 1.3764, 1.31273, 1.47826, 1.4104, 1.46265, 1.43038, 1.24773, 1.24588, 1.24753, 1.2484, 1.24651, 1.25054, 1.24959
1.24251, 1.00081, 1.23675, 1.01947, 0.999419, 0.998753, 0.998485, 1.00108, 1.19454, 1.12695, 1.12239, 1.42251, 1.28143, 1.31512, 1.34327, 1.46066, 1.45926, 1.25687, 1.25524, 1.18849, 1.20496, 1.21493, 1.39151, 1.24228, 1.28264, 1.48642, 1.32957, 1.45178, 1.48706, 1.45619, 1.40967, 1.37089, 1.37161, 1.38229, 1.13963, 1.12312, 1.14091, 1.10013, 1.24284, 1.08751, 1.07342, 1.03608, 1.10789, 1.0456, 1.00414, 1.00513, 1.03559, 1.12219, 1.14927, 1.16622, 1.18368, 1.18408, 1.16777, 1.21352, 1.35507, 1.46068, 1.45806, 1.36385, 1.46731, 1.35674, 1.37291, 1.42244, 1.43479, 1.47346, 1.55468, 1.54598, 1.49637, 1.51647, 1.47574, 1.47526, 1.68602, 1.63164, 1.53514, 1.58998, 1.64368, 1.80959, 1.65466, 1.62386, 1.51201, 1.46817, 1.49846, 1.48208, 1.49049, 1.50446, 1.48783, 1.57931, 1.56542, 1.47808, 1.43517, 1.43941, 1.4393, 1.49461, 1.51269, 1.51277, 1.40911, 1.35646, 1.4192, 1.24618, 1.22716, 1.21818, 1.21221, 1.20132, 1.21988, 1.10836, 1.1057, 1.10259, 1.20221, 1.16169, 1.1367, 1.11232, 1.10316, 1.1217, 1.12184, 1.10879, 1.11969, 1.13067, 1.13422, 1.15376, 1.16351, 1.16361, 1.36779, 1.30381, 1.2289, 1.21309, 1.36699, 1.56991, 1.23675, 1.21731, 1.2506, 1.28239, 1.22819, 1.23192, 1.31388, 1.25196, 1.35873, 1.27509, 1.2987, 1.36181, 1.30933, 1.3192, 1.32232, 1.43171, 1.25021, 1.24783, 1.24486, 1.24265, 1.24568, 1.24675, 1.24772, 1.24986
1.10125, 1.00012, 1.2361, 0.993929, 0.998375, 0.998045, 0.997546, 1.1328, 1.14276, 1.05288, 1.07776, 1.11516, 1.28111, 1.31204, 1.11651, 1.1786, 1.13097, 1.13686, 1.13663, 1.28777, 1.30126, 1.21668, 1.21969, 1.39013, 1.3317, 1.334, 1.3707, 1.48848, 1.48833, 1.37854, 1.37913, 1.52076, 1.39671, 1.26437, 1.10786, 1.10186, 1.18348, 1.08903, 1.22243, 1.15204, 1.10164, 1.03546, 1.10795, 1.05074, 1.07709, 1.0135, 1.04063, 1.12337, 1.17162, 1.17329, 1.15948, 1.22011, 1.17715, 1.32064, 1.34731, 1.40788, 1.39633, 1.34526, 1.3597, 1.36035, 1.38819, 1.42038, 1.4345, 1.5198, 1.50801, 1.50369, 1.49573, 1.52368, 1.47708, 1.49886, 1.67084, 1.69245, 1.69371, 1.79723, 1.80002, 1.81501, 1.60582, 1.62205, 1.50991, 1.50419, 1.50996, 1.49692, 1.50767, 1.50656, 1.49668, 1.58152, 1.57091, 1.47575, 1.43725, 1.46794, 1.42436, 1.49595, 1.52043, 1.47447, 1.41732, 1.34272, 1.36081, 1.30122, 1.25957, 1.25324, 1.23, 1.20205, 1.20886, 1.16024, 1.10073, 1.10139, 1.22945, 1.22218, 1.11495, 1.11043, 1.10415, 1.1338, 1.12166, 1.11078, 1.11243, 1.12678, 1.1395, 1.23461, 1.1612, 1.16476, 1.20565, 1.22104, 1.22414, 1.50612, 1.36536, 1.29561, 1.21404, 1.21481, 1.30558, 1.30683, 1.22593, 1.22749, 1.30021, 1.24828, 1.33805, 1.33998, 1.3021, 1.30255, 1.37449, 1.3116, 1.36768, 1.42841, 1.24624, 1.24478, 1.24425, 1.24393, 1.24474, 1.24695, 1.25018, 1.24816
1.09886, 1.00546, 0.994866, 0.993107, 0.996771, 0.997578, 0.998815, 1.05006, 1.10163, 1.17875, 1.11134, 1.4365, 1.13696, 1.2778, 1.13632, 1.13589, 1.12996, 1.18523, 1.26332, 1.15972, 1.29491, 1.40306, 1.22646, 1.37114, 1.33487, 1.34177, 1.4542, 1.45411, 1.48839, 1.37956, 1.37982, 1.63395, 1.40595, 1.16735, 1.31878, 1.08298, 1.09792, 1.13365, 1.07489, 1.06458, 1.01949, 1.01669, 1.02496, 1.04398, 1.0442, 1.04678, 1.06401, 1.19551, 1.18282, 1.15871, 1.15543, 1.18663, 1.2154, 1.34624, 1.31144, 1.44132, 1.359, 1.34654, 1.36019, 1.35895, 1.42729, 1.43454, 1.4821, 1.51436, 1.5189, 1.50663, 1.50906, 1.51712, 1.49754, 1.50881, 1.72089, 1.69422, 1.69388, 1.84014, 1.78434, 1.80565, 1.5648, 1.51291, 1.49657, 1.50078, 1.49806, 1.51302, 1.51218, 1.52295, 1.48511, 1.46918, 1.57023, 1.56887, 1.4419, 1.4541, 1.41871, 1.50142, 1.52594, 1.51579, 1.35101, 1.35493, 1.30281, 1.29346, 1.27759, 1.27466, 1.2714, 1.23001, 1.19706, 1.09776, 1.09759, 1.10218, 1.10471, 1.11482, 1.1099, 1.10894, 1.10555, 1.11867, 1.12408, 1.1108, 1.1202, 1.1256, 1.23695, 1.24103, 1.16054, 1.16368, 1.22696, 1.21865, 1.21969, 1.21812, 1.29991, 1.22901, 1.21475, 1.20941, 1.21607, 1.27242, 1.28225, 1.2219, 1.29708, 1.33016, 1.33137, 1.34034, 1.33278, 1.37987, 1.32004, 1.43833, 1.47069, 1.38898, 1.40882, 1.24367, 1.24605, 1.24447, 1.24558, 1.24479, 1.24495, 1.24723
1.00084, 0.994033, 0.99275, 0.992991, 0.994821, 0.997575, 1.08093, 1.16032, 1.10145, 1.19039, 1.1849, 1.10061, 1.10213, 1.16356, 1.25201, 1.38931, 1.28824, 1.13985, 1.24711, 1.16673, 1.38296, 1.40646, 1.40372, 1.30254, 1.33784, 1.55374, 1.33658, 1.45161, 1.48806, 1.38176, 1.3816, 1.47584, 1.54091, 1.24698, 1.29216, 1.2531, 1.19471, 1.14652, 1.05765, 1.05983, 1.02586, 1.01913, 1.02361, 1.04052, 1.03688, 1.04709, 1.07893, 1.17452, 1.26439, 1.22048, 1.17565, 1.18438, 1.2334, 1.34922, 1.32289, 1.41964, 1.41756, 1.35675, 1.36092, 1.38661, 1.412, 1.43011, 1.46314, 1.45145, 1.52608, 1.50645, 1.51321, 1.52134, 1.50334, 1.51584, 1.67198, 1.70946, 1.7091, 1.84186, 1.80004, 1.8006, 1.62344, 1.5233, 1.51274, 1.50741, 1.51087, 1.5123, 1.53582, 1.54152, 1.5149, 1.48417, 1.47563, 1.46164, 1.45138, 1.45453, 1.41854, 1.50205, 1.50238, 1.50586, 1.36449, 1.32941, 1.29701, 1.29264, 1.29084, 1.30038, 1.36088, 1.24708, 1.15503, 1.09753, 1.09567, 1.12401, 1.21652, 1.10953, 1.10991, 1.10287, 1.10605, 1.11606, 1.12338, 1.11719, 1.11936, 1.19339, 1.13597, 1.23356, 1.20938, 1.16416, 1.22862, 1.215, 1.21218, 1.21347, 1.20509, 1.20872, 1.23359, 1.23316, 1.23631, 1.27437, 1.21306, 1.21628, 1.22541, 1.24078, 1.33145, 1.3631, 1.29466, 1.29297, 1.42247, 1.31245, 1.32367, 1.38818, 1.39475, 1.24001, 1.23987, 1.23896, 1.23987, 1.24431, 1.245, 1.247
0.999609, 0.996944, 0.993271, 0.992553, 0.996826, 0.99991, 1.07674, 1.21575, 1.07926, 1.18201, 1.21291, 1.10203, 1.09822, 1.17744, 1.24302, 1.30388, 1.14715, 1.38534, 1.23811, 1.16779, 1.28415, 1.28462, 1.22836, 1.62166, 1.25899, 1.34384, 1.337, 1.51226, 1.37159, 1.45692, 1.38372, 1.63671, 1.2056, 1.25349, 1.29105, 1.17118, 1.14751, 1.18282, 1.23293, 1.07036, 1.02211, 1.05004, 1.04901, 1.03983, 1.15807, 1.11532, 1.08555, 1.22144, 1.28202, 1.25781, 1.24718, 1.24386, 1.23356, 1.35453, 1.32857, 1.40993, 1.42288, 1.35866, 1.38907, 1.41554, 1.4303, 1.5438, 1.47123, 1.45035, 1.45341, 1.51511, 1.51461, 1.57835, 1.53439, 1.53654, 1.57183, 1.71905, 1.70942, 1.82042, 1.84832, 1.80128, 1.56186, 1.54429, 1.53332, 1.53581, 1.52816, 1.63386, 1.77631, 1.53938, 1.51219, 1.49321, 1.44421, 1.44001, 1.45022, 1.4497, 1.4188, 1.5033, 1.50846, 1.40269, 1.38496, 1.40684, 1.2969, 1.28602, 1.28047, 1.28136, 1.31284, 1.23715, 1.17606, 1.16042, 1.13161, 1.09168, 1.09849, 1.10906, 1.14777, 1.09292, 1.10806, 1.11226, 1.12326, 1.12507, 1.11816, 1.12953, 1.13478, 1.14732, 1.15881, 1.15503, 1.2264, 1.38663, 1.20263, 1.20704, 1.20633, 1.30697, 1.23609, 1.23225, 1.20851, 1.21191, 1.20843, 1.24978, 1.22035, 1.25423, 1.31753, 1.22378, 1.33736, 1.27678, 1.31133, 1.312, 1.38196, 1.38176, 1.28563, 1.23607, 1.23497, 1.23776, 1.23599, 1.24503, 1.24616, 1.24768
0.998971, 0.994751, 0.993628, 0.993711, 0.997167, 0.999464, 1.25428, 1.21223, 1.16099, 1.06321, 1.19605, 1.09749, 1.10039, 1.20171, 1.26717, 1.15733, 1.14728, 1.25501, 1.16378, 1.17818, 1.37871, 1.38208, 1.23053, 1.51731, 1.35149, 1.34636, 1.53595, 1.51179, 1.43408, 1.49459, 1.38955, 1.3918, 1.21838, 1.2124, 1.1512, 1.12549, 1.12529, 1.18176, 1.01354, 1.09243, 1.03578, 1.01338, 1.0955, 1.10339, 1.11301, 1.11211, 1.1129, 1.21977, 1.26715, 1.24041, 1.24664, 1.24055, 1.26471, 1.45181, 1.3223, 1.34091, 1.36373, 1.35652, 1.35365, 1.42028, 1.55039, 1.54417, 1.52112, 1.46547, 1.45384, 1.51373, 1.59604, 1.53979, 1.55316, 1.54103, 1.59962, 1.71998, 1.73394, 0.00416286, 1.84828, 1.80249, 1.59563, 1.55742, 1.57372, 1.57144, 1.58942, 1.65413, 1.67244, 1.55095, 1.56926, 1.5274, 1.48054, 1.4404, 1.44054, 1.44861, 1.44131, 1.42682, 1.50868, 1.4494, 1.43474, 1.35037, 1.366, 1.28083, 1.28199, 1.28208, 1.25917, 1.22202, 1.17035, 1.13359, 1.1391, 1.09873, 1.09095, 1.08618, 1.0911, 1.09109, 1.10187, 1.11018, 1.20316, 1.12502, 1.12094, 1.12221, 1.19237, 1.14619, 1.15818, 1.16027, 1.21102, 1.18218, 1.21907, 1.21055, 1.20439, 1.21576, 1.19726, 1.2295, 1.20485, 1.20377, 1.20462, 1.20852, 1.2122, 1.20718, 1.31527, 1.19983, 1.20502, 1.35712, 1.31279, 1.43562, 1.31856, 1.28248, 1.28342, 1.29435, 1.23241, 1.23653, 1.23594, 1.23729, 1.24686, 1.24656
0.998539, 0.995193, 0.994004, 0.994615, 0.998257, 0.999101, 1.22451, 1.21283, 1.11247, 1.16503, 1.07684, 1.07817, 1.09932, 1.4542, 1.2233, 1.14872, 1.29957, 1.16172, 1.16127, 1.19425, 1.32966, 1.35687, 1.2332, 1.37228, 1.31731, 1.33733, 1.54523, 1.34752, 1.53469, 1.51514, 1.38824, 1.38974, 1.2619, 1.13728, 1.15069, 1.16371, 1.16501, 1.10169, 1.04769, 1.04821, 1.00826, 1.0374, 1.08574, 1.16676, 1.14316, 1.12543, 1.16407, 1.24259, 1.30732, 1.31468, 1.26088, 1.25988, 1.30881, 1.38156, 1.3485, 1.34874, 1.36197, 1.36835, 1.4652, 1.46046, 1.47042, 1.45798, 1.46098, 1.46586, 1.48585, 1.6566, 1.65456, 1.54603, 1.5439, 1.57138, 1.59517, 1.72005, 1.74007, 1.94369, 1.93427, 1.79284, 1.64546, 1.64495, 1.57111, 1.57174, 1.56598, 1.75377, 0.00497467, 1.5684, 1.56826, 1.53139, 1.48209, 1.45844, 1.44037, 1.44718, 1.43417, 1.42937, 1.46761, 1.40556, 1.38092, 1.33023, 1.33664, 1.32883, 1.30199, 1.28212, 1.28806, 1.18447, 1.17085, 1.11246, 1.11237, 1.09376, 1.07491, 1.0806, 1.10201, 1.10264, 1.10245, 1.10772, 1.11389, 1.12546, 1.12377, 1.12532, 1.13078, 1.17824, 1.15667, 1.2994, 1.39656, 1.42325, 1.20635, 1.20319, 1.42886, 1.19931, 1.1968, 1.19784, 1.20321, 1.20325, 1.20467, 1.20726, 1.21133, 1.20717, 1.31774, 1.35523, 1.20348, 1.35718, 1.38863, 1.38712, 1.27884, 1.28163, 1.29212, 1.29627, 1.2397, 1.23584, 1.23572, 1.23706, 1.2419, 1.2437
0.999926, 0.994619, 0.991864, 0.994466, 0.998464, 1.13788, 1.02209, 1.4513, 1.45195, 1.4094, 1.07409, 1.07831, 1.15025, 1.28509, 1.22228, 1.19814, 1.16162, 1.16182, 1.16245, 0.00442413, 1.19985, 1.35011, 1.41352, 1.24736, 1.28621, 1.36349, 1.36231, 1.34412, 1.57922, 1.51354, 1.38862, 1.38874, 1.16474, 1.13891, 1.14754, 1.20099, 1.08867, 1.10286, 0.998684, 1.03583, 1.01298, 1.07227, 1.13021, 1.16681, 1.15517, 1.1286, 1.18619, 1.22289, 1.31041, 1.31552, 1.34108, 1.34864, 1.31926, 1.38203, 1.33733, 1.34118, 1.36896, 1.36777, 1.40272, 1.40298, 1.47163, 1.45487, 1.45957, 1.47485, 1.47306, 1.49604, 1.64458, 1.62385, 1.56375, 1.56251, 1.56796, 1.74469, 1.74159, 1.73105, 1.79489, 1.7939, 1.7204, 1.72777, 1.64587, 1.69991, 1.74732, 1.86601, 0.0042407, 1.586, 1.52383, 1.51194, 1.45002, 1.45795, 1.4481, 1.44704, 1.43548, 1.44583, 1.43268, 1.40813, 1.39506, 1.35422, 1.33013, 1.31583, 1.31676, 1.31228, 1.28773, 1.26008, 1.16295, 1.12058, 1.12513, 1.10046, 1.08081, 1.08178, 1.11513, 1.10143, 1.10129, 1.10194, 1.11154, 1.44689, 1.12745, 1.128, 1.12933, 1.21226, 1.21891, 1.23499, 1.1954, 1.41737, 1.39203, 1.25103, 1.19595, 1.19094, 1.19408, 1.19699, 1.19922, 1.19946, 1.19876, 1.20043, 1.20625, 1.24143, 1.32403, 1.189, 1.20717, 1.30821, 1.38799, 1.38879, 1.43742, 1.284, 1.28946, 1.41085, 1.29881, 1.23639, 1.23476, 1.23716, 1.23681, 1.23908
1.00176, 0.999788, 0.989341, 0.991941, 1.08237, 1.22812, 1.02007, 1.21112, 1.38638, 1.22698, 1.08673, 1.08119, 1.08142, 1.08795, 1.15746, 1.36121, 1.21333, 1.26499, 1.14979, 1.15366, 1.21483, 1.21914, 1.39277, 1.31694, 0.00459706, 1.32261, 1.30903, 1.27091, 1.52953, 1.54038, 1.39619, 1.1789, 1.3597, 1.13579, 1.06786, 1.11229, 1.1102, 0.977091, 0.988041, 1.01432, 1.01947, 1.09435, 1.09264, 1.14932, 1.16414, 1.15299, 1.17517, 1.2658, 1.31912, 1.31895, 1.31068, 1.3277, 1.38245, 1.3403, 1.33936, 1.34176, 1.46762, 1.38509, 1.37925, 1.40272, 1.48519, 1.45654, 1.45433, 1.47656, 1.49632, 1.52053, 1.6583, 1.61611, 1.5614, 1.54789, 1.58519, 1.6684, 1.74184, 1.73375, 1.79501, 1.79455, 1.71737, 1.72, 1.65518, 1.83139, 1.74811, 1.80081, 1.76567, 1.53421, 1.52494, 1.49208, 1.45021, 1.45891, 1.44683, 1.45173, 1.44392, 1.44897, 1.40209, 1.38802, 1.39818, 1.37452, 1.37166, 1.32756, 1.31805, 1.33998, 1.28934, 1.24456, 1.16492, 1.12075, 1.16085, 1.0949, 1.13944, 1.08066, 1.07632, 1.07231, 1.10109, 1.09947, 1.10512, 1.13589, 1.12849, 1.12898, 1.13197, 1.13327, 1.21274, 1.44778, 1.19369, 1.37547, 1.37643, 1.19455, 1.1949, 1.19126, 1.19339, 1.19485, 1.19594, 1.19879, 1.19853, 1.20296, 1.20313, 1.23356, 1.18722, 1.3112, 1.34702, 1.34688, 1.25031, 1.38908, 1.38753, 1.37331, 1.29115, 1.29269, 1.38522, 1.23486, 1.23412, 1.23256, 1.24292, 1.23622
0.999154, 0.998958, 0.989331, 0.989522, 1.03701, 1.03126, 1.19449, 1.04155, 1.04594, 1.41959, 1.29916, 1.08823, 1.08744, 1.08828, 1.09193, 1.18482, 0.00434419, 1.18526, 1.13718, 1.11239, 1.11144, 0.00435063, 1.23034, 1.2814, 1.2717, 1.3679, 1.36816, 1.27768, 1.5321, 1.74188, 1.23386, 1.36856, 1.14098, 1.14356, 1.12944, 1.19119, 1.06271, 0.977374, 1.00784, 1.0072, 1.10778, 1.1055, 1.12079, 1.12631, 1.13945, 1.18137, 1.18465, 1.22626, 1.36822, 1.31522, 1.39804, 1.38427, 1.38306, 1.35735, 1.35911, 1.36441, 1.40029, 1.38527, 1.38112, 1.38102, 1.46547, 1.55261, 1.5028, 1.48095, 1.51581, 1.53785, 1.66096, 1.59611, 1.57673, 1.5476, 1.57493, 1.68942, 1.7359, 1.73608, 1.65078, 1.67062, 1.72768, 1.72131, 1.87173, 1.86859, 1.82147, 1.8237, 1.7727, 1.59682, 1.57853, 1.58319, 1.49507, 1.53807, 1.449, 1.44084, 1.44106, 1.43359, 1.40371, 1.38889, 1.4, 1.40273, 1.37736, 1.34686, 1.33086, 1.35902, 1.34189, 1.25199, 1.17994, 1.16853, 1.13198, 1.09761, 1.09209, 1.08084, 1.08159, 1.0771, 1.09879, 1.10198, 1.10666, 1.42608, 1.12834, 1.12679, 1.12512, 1.18702, 1.21179, 1.42048, 1.24881, 1.24855, 1.52311, 1.19148, 1.19441, 1.1921, 1.19075, 1.23668, 1.19492, 1.19948, 1.19861, 1.20183, 1.19953, 1.23575, 1.18404, 1.18797, 1.31144, 1.33777, 1.31193, 1.46837, 1.26638, 1.28838, 1.29324, 1.29113, 1.37103, 1.23628, 1.23492, 1.23211, 1.22805, 1.23658
1.00803, 1.006, 1.07105, 1.06516, 1.24327, 1.39156, 1.21704, 1.04652, 1.04616, 1.21048, 1.08421, 1.09086, 1.09081, 1.09058, 1.0891, 1.09287, 1.16576, 1.24793, 1.24133, 1.11229, 1.11192, 1.18925, 0.00427243, 1.23127, 1.32362, 1.37121, 1.3095, 1.29233, 1.1295, 1.21635, 1.16766, 1.34444, 1.34417, 1.14766, 1.17759, 1.05405, 1.01898, 0.993324, 0.967752, 0.983708, 1.0675, 1.14001, 1.13732, 1.12314, 1.1779, 1.17619, 1.21665, 1.25997, 1.29152, 1.36128, 1.37553, 1.42634, 1.43749, 1.38064, 1.38433, 1.38204, 1.42641, 1.4035, 1.40933, 1.43051, 1.46467, 1.5576, 1.55032, 1.48217, 1.51773, 1.66134, 1.66157, 1.58845, 1.56275, 1.56208, 1.60325, 1.6229, 1.65096, 1.74559, 1.69532, 1.71111, 1.72403, 1.87648, 0.00471333, 1.88462, 0.00450752, 1.85934, 0.00439158, 1.58823, 1.54024, 1.5322, 1.58333, 1.54068, 1.45709, 1.44066, 1.42791, 1.40337, 1.39606, 1.39071, 1.41664, 1.39076, 1.37412, 1.3776, 1.38909, 1.34974, 1.29491, 1.24555, 1.21183, 1.17125, 1.16832, 1.1377, 1.13223, 1.14967, 1.09162, 1.07602, 1.07689, 1.10049, 1.20109, 1.2087, 1.32065, 1.12702, 1.12363, 1.13193, 1.19901, 1.18412, 1.5189, 1.24404, 1.24971, 1.18836, 1.19266, 1.19112, 1.19081, 1.20136, 1.19291, 1.20147, 1.1975, 1.19759, 1.20143, 1.23591, 1.18127, 1.18126, 1.34631, 1.34648, 1.32292, 1.32231, 1.26443, 1.27354, 1.45834, 1.29087, 1.44164, 1.23613, 1.23485, 1.24369, 1.23304, 1.2336
1.01496, 1.05286, 1.02994, 1.10413, 1.20824, 1.04108, 1.21386, 1.21227, 1.0472, 1.21521, 1.0865, 1.09071, 1.09125, 1.09151, 1.08972, 1.09395, 1.15083, 1.27143, 1.17693, 1.11467, 1.11522, 1.11763, 1.20676, 1.16548, 1.18841, 1.22354, 1.19554, 1.16828, 1.21808, 1.42427, 1.08004, 1.23666, 1.15021, 1.08344, 1.12915, 0.927253, 0.946813, 0.945511, 0.979215, 1.01454, 1.07441, 1.09095, 1.13576, 1.17591, 1.17693, 1.20035, 1.24395, 1.2733, 1.30544, 1.34829, 1.39255, 1.42718, 1.42743, 1.39163, 1.39515, 1.41951, 1.42568, 1.40614, 1.43332, 1.43563, 1.51259, 1.53671, 1.51958, 1.57448, 1.5239, 1.66077, 1.67226, 1.69779, 1.5816, 1.56298, 1.60238, 1.626, 1.65178, 1.65212, 1.69249, 1.70205, 1.72053, 1.9667, 1.89953, 1.90051, 1.88709, 0.00450813, 0.00453407, 1.58539, 1.59756, 1.52953, 1.50211, 1.54762, 1.45758, 1.44035, 1.42914, 1.4027, 1.39499, 1.39518, 1.37647, 1.37485, 1.39104, 1.39432, 1.34726, 1.34669, 1.29217, 1.25069, 1.20212, 1.17219, 1.15483, 1.13865, 1.10886, 1.14938, 1.09113, 1.07888, 1.09929, 1.0992, 1.10166, 1.20507, 1.20132, 1.12675, 1.12281, 1.12983, 1.19564, 1.22222, 1.1812, 1.32727, 1.23072, 1.18468, 1.18938, 1.19112, 1.18694, 1.18796, 1.19705, 1.20124, 1.19907, 1.19707, 1.26402, 1.28425, 1.18117, 1.17799, 1.19093, 1.19208, 1.32194, 1.4746, 1.26337, 1.27869, 1.34809, 1.2903, 1.33102, 1.32548, 1.23454, 1.23923, 1.23421, 1.23433
1.01674, 1.0224, 1.01697, 1.11955, 1.06427, 1.20232, 1.13228, 1.05168, 1.2193, 1.42355, 1.32681, 1.08646, 1.08637, 1.09097, 1.08339, 1.09458, 1.11179, 1.36585, 1.15699, 1.29531, 1.11477, 1.11496, 1.13233, 1.23372, 0.0042155, 1.19318, 1.16894, 1.16777, 1.16628, 1.18815, 1.10897, 1.01052, 1.1928, 1.1358, 1.01653, 0.933839, 0.979814, 0.984428, 0.959767, 0.961803, 1.09826, 1.19075, 1.20686, 1.15746, 1.20067, 1.25108, 1.26268, 1.28429, 1.3307, 1.30172, 1.4314, 1.42943, 1.57412, 1.40281, 1.40229, 1.42784, 1.42744, 1.44021, 1.42698, 1.4444, 1.51204, 1.57866, 1.58626, 1.57849, 1.53773, 1.67644, 1.67466, 1.60234, 1.59997, 1.5885, 1.60676, 1.66539, 1.65208, 1.65519, 1.65458, 1.69963, 1.72476, 1.91687, 1.89407, 1.92442, 1.89669, 1.94829, 0.00453563, 1.62299, 1.58574, 1.55568, 1.50254, 1.55394, 1.61427, 1.46043, 1.43048, 1.39972, 1.39643, 1.40608, 1.3892, 1.37611, 1.3899, 1.49523, 1.34763, 1.34692, 1.31865, 1.26454, 1.22033, 1.28295, 1.15978, 1.20155, 1.13588, 1.08856, 1.07381, 1.07982, 1.08209, 1.09922, 1.10103, 1.10545, 1.45132, 1.12455, 1.16739, 1.13639, 1.18157, 1.21511, 1.17996, 1.32298, 1.31329, 1.18373, 1.18794, 1.18664, 1.18562, 1.18752, 1.20601, 1.23313, 1.23124, 1.19516, 1.22181, 1.2197, 1.18384, 1.32326, 1.19022, 1.19383, 1.32693, 1.3616, 1.27155, 1.27159, 1.27845, 1.29044, 1.41526, 1.23525, 1.23407, 1.23945, 1.23389, 1.23319
1.02092, 1.07378, 1.06766, 1.03818, 1.14824, 1.56696, 1.21187, 1.05306, 1.05953, 1.05964, 1.08122, 1.32595, 1.07879, 1.80751, 1.07692, 1.08458, 1.23911, 1.15639, 1.15329, 1.38807, 1.15682, 1.12375, 1.12564, 1.17133, 1.22062, 0.00399294, 1.13564, 1.1366, 1.24946, 1.224, 1.06828, 1.18214, 1.12637, 1.12933, 1.03165, 0.933701, 0.930566, 0.937189, 0.967118, 1.01947, 1.08177, 1.10244, 1.15173, 1.2289, 1.18561, 1.2093, 1.26389, 1.28622, 1.30153, 1.30228, 1.44018, 1.43076, 1.55416, 1.40333, 1.39159, 1.42927, 1.45366, 1.45797, 1.44344, 1.45732, 1.48101, 1.55089, 1.53734, 1.54029, 1.53915, 1.58496, 1.59225, 1.62095, 1.67613, 1.6883, 1.61069, 1.6974, 1.65807, 1.65494, 1.65475, 1.70389, 1.70331, 1.92674, 1.95495, 1.88907, 1.94204, 0.00457242, 1.89081, 1.61951, 1.57734, 1.54199, 1.5407, 1.53451, 1.61765, 1.4759, 1.43742, 1.42092, 1.41936, 1.40849, 1.39319, 1.39139, 1.40298, 1.50343, 1.41925, 1.3372, 1.27244, 1.27013, 1.24767, 1.25663, 1.16866, 1.13732, 1.13021, 1.07394, 1.07464, 1.07403, 1.07324, 1.09237, 1.09895, 1.10437, 1.21004, 1.12342, 1.13622, 1.13633, 1.22622, 1.21064, 1.21474, 1.2374, 1.17894, 1.18219, 1.18743, 1.18732, 1.18734, 1.18774, 1.19282, 1.19634, 1.19204, 1.19251, 1.21997, 1.28977, 1.18366, 1.18314, 1.19092, 1.32983, 1.32687, 1.31566, 1.31577, 1.31664, 1.27756, 1.46137, 1.41325, 1.31296, 1.23487, 1.23404, 1.23226, 1.23359
1.08017, 1.03121, 1.09291, 1.51304, 1.13927, 1.05552, 1.05584, 1.05676, 1.06023, 1.21717, 1.23039, 1.22713, 1.18951, 1.42829, 1.20187, 1.16427, 1.28867, 1.13797, 1.18915, 1.17865, 1.17051, 1.38602, 1.12749, 1.13214, 1.20162, 1.1264, 1.27935, 1.13616, 1.14235, 1.21678, 1.04778, 1.18477, 1.11739, 1.0848, 1.03576, 0.934254, 0.931404, 0.951835, 0.953937, 1.02901, 1.0572, 1.1059, 1.18452, 1.17077, 1.22629, 1.25443, 1.26905, 1.28496, 1.30141, 1.30166, 1.43965, 1.42672, 1.40497, 1.40312, 1.40124, 1.4746, 1.4887, 1.46418, 1.4677, 1.47591, 1.47815, 1.59586, 1.54415, 1.55567, 1.54781, 1.55092, 1.5928, 1.63398, 1.63518, 1.6887, 1.65615, 1.7505, 1.68331, 1.65545, 1.65717, 1.69286, 1.69199, 1.97632, 0.00440376, 1.88544, 1.88726, 1.94414, 1.89671, 1.62663, 1.57902, 1.58478, 1.55706, 1.56495, 1.63102, 1.49295, 1.41866, 1.42014, 1.49638, 1.4124, 1.40205, 1.40356, 1.42205, 1.41641, 1.37335, 1.33222, 1.28118, 1.26076, 1.23057, 1.25036, 1.19097, 1.18755, 1.11804, 1.09234, 1.0556, 1.05092, 1.09156, 1.08533, 1.1289, 1.09839, 1.10459, 1.1576, 1.33294, 1.13839, 1.17874, 1.2411, 1.23337, 1.18036, 1.24122, 1.18036, 1.1816, 1.1874, 1.18748, 1.19055, 1.19104, 1.19115, 1.23137, 1.24042, 1.22259, 1.23742, 1.18412, 1.18396, 1.19073, 1.33269, 1.33333, 1.24861, 1.31547, 1.27104, 1.27884, 1.28466, 1.41218, 1.34178, 1.23267, 1.23284, 1.23033, 1.22977
1.03615, 1.03292, 1.03381, 1.13404, 1.05223, 1.05411, 1.05546, 1.2095, 1.22434, 1.47426, 1.10684, 0.00470734, 1.10276, 1.0301, 1.22672, 1.2474, 1.12682, 1.13429, 1.13577, 1.11604, 1.05356, 1.15377, 1.17204, 1.28842, 1.20323, 1.1217, 1.11174, 1.17429, 1.19813, 1.14763, 1.13982, 0.990675, 1.08431, 0.989455, 0.995804, 0.947484, 0.931605, 0.9591, 0.960675, 1.00046, 1.07818, 1.15658, 1.19107, 1.1874, 1.2352, 1.2737, 1.29755, 1.28463, 1.29934, 1.29887, 1.33247, 1.41684, 1.41747, 1.40805, 1.42451, 1.47498, 1.46165, 1.46732, 1.48488, 1.49105, 1.51005, 1.55133, 1.56524, 1.53101, 1.53714, 1.57595, 1.6352, 1.62296, 1.63415, 1.61313, 1.65628, 1.67417, 1.67461, 1.65725, 1.65761, 1.65738, 1.69365, 1.85581, 1.93172, 1.88867, 1.88801, 1.90403, 1.88866, 1.60302, 1.66843, 1.58461, 1.60006, 1.5507, 1.59983, 1.50987, 1.41889, 1.45146, 1.42513, 1.41542, 1.41535, 1.44043, 1.41959, 1.38143, 1.3999, 1.39817, 1.38126, 1.26765, 1.27475, 1.23648, 1.1925, 1.13757, 1.14356, 1.09925, 1.04757, 1.09892, 1.08732, 1.08093, 1.17113, 1.09954, 1.10622, 1.20853, 1.12888, 1.16404, 1.1413, 1.18095, 1.17765, 1.18135, 1.20553, 1.17959, 1.18037, 1.1858, 1.18861, 1.18986, 1.18256, 1.22832, 1.23377, 1.23882, 1.22058, 1.23021, 1.17919, 1.18469, 1.19039, 1.33789, 1.33014, 1.24985, 1.25342, 1.38803, 1.31886, 1.28467, 1.2859, 1.31061, 1.23269, 1.2326, 1.23421, 1.22995
1.03793, 1.03668, 1.15393, 1.13701, 1.13, 1.22244, 1.20919, 1.2121, 1.2605, 1.14173, 1.13722, 1.24698, 0.00455383, 1.23528, 1.24837, 1.22001, 1.28792, 1.11362, 1.12687, 1.12066, 1.05951, 1.16516, 1.11259, 1.03705, 1.03822, 1.1432, 1.11523, 1.07046, 1.08714, 1.14358, 1.14416, 1.16716, 1.08256, 1.15422, 0.97764, 0.976913, 0.962786, 0.922702, 0.990946, 1.00042, 1.09167, 1.10898, 1.17764, 1.2746, 1.27556, 1.2608, 1.29478, 1.28458, 1.2946, 1.29581, 1.32098, 1.37852, 1.37824, 1.40831, 1.42357, 1.48663, 1.48123, 1.53183, 1.49876, 1.49178, 1.50343, 1.56225, 1.56639, 1.53752, 1.53823, 1.56828, 1.63669, 1.62449, 1.62307, 1.63659, 1.66462, 1.66534, 1.67521, 1.66332, 1.66007, 1.65871, 1.69489, 1.70232, 0.00465615, 1.88887, 1.88843, 1.90275, 1.68903, 1.69885, 1.63094, 1.57902, 1.58366, 1.59322, 1.63794, 1.51039, 1.44192, 1.43225, 1.43342, 1.42006, 1.50308, 1.43954, 1.40388, 1.46386, 1.32941, 1.28928, 1.27874, 1.25138, 1.21418, 1.20206, 1.17345, 1.13675, 1.13855, 1.07377, 1.06509, 1.07778, 1.06079, 1.07228, 1.08338, 1.0952, 1.15749, 1.10865, 1.16356, 1.16528, 1.1368, 1.30024, 1.18548, 1.18427, 1.1878, 1.17779, 1.17737, 1.18276, 1.19025, 1.19934, 1.17863, 1.17764, 1.17798, 1.18327, 1.18787, 1.18711, 1.17758, 1.18551, 1.18893, 1.21942, 1.24267, 1.247, 1.25272, 1.3849, 1.28482, 1.28412, 1.28657, 1.33594, 1.23385, 1.23142, 1.23459, 1.22783
1.03813, 1.03727, 1.04444, 1.13642, 1.13643, 1.16202, 1.13646, 1.20906, 1.20937, 1.26897, 1.14029, 1.14303, 1.0363, 1.29101, 1.25378, 1.07498, 1.10211, 1.08189, 1.12539, 1.12706, 1.04581, 1.12332, 1.11221, 1.07188, 1.08155, 1.09136, 1.11476, 1.11849, 0.929449, 1.02942, 1.12358, 1.15068, 1.10853, 0.975766, 0.97629, 0.97576, 0.908008, 0.92606, 0.96478, 1.03474, 1.0917, 1.1199, 1.19041, 1.24605, 1.2687, 1.27693, 1.29195, 1.28871, 1.32696, 1.30532, 1.31014, 1.34864, 1.36905, 1.4056, 1.39557, 1.41507, 1.45182, 1.48891, 1.4885, 1.49492, 1.50438, 1.56685, 1.56717, 1.59577, 1.53773, 1.57516, 1.5938, 1.68939, 1.62709, 1.63453, 1.76471, 1.76411, 1.663, 1.66344, 1.6616, 1.67802, 1.69601, 1.72141, 1.73451, 1.88919, 1.96607, 1.91369, 1.68543, 1.58453, 1.58381, 1.58805, 1.58555, 1.56985, 1.57106, 1.50935, 1.46378, 1.43233, 1.44091, 1.41971, 1.50807, 1.50904, 1.46156, 1.45047, 1.30539, 1.2672, 1.2631, 1.23979, 1.23302, 1.21454, 1.16882, 1.13718, 1.13557, 1.14426, 1.06101, 1.09442, 1.08192, 1.08926, 1.13201, 1.09586, 1.09877, 1.32624, 1.18425, 1.26493, 1.13624, 1.18183, 1.18404, 1.18466, 1.24416, 1.17299, 1.1763, 1.18119, 1.18423, 1.18333, 1.18034, 1.17875, 1.17895, 1.18101, 1.18722, 1.24729, 1.17654, 1.18545, 1.19537, 1.23921, 1.23614, 1.24455, 1.40619, 1.33629, 1.33595, 1.28462, 1.28572, 1.4256, 1.2472, 1.23328, 1.23326, 1.23418
1.0379, 1.03866, 1.04368, 1.13625, 1.04012, 1.13675, 1.15955, 1.16069, 1.15011, 0.00443665, 1.03195, 0.998551, 1.27563, 1.05738, 1.09196, 1.05067, 1.08936, 1.10861, 1.12536, 1.12791, 1.07696, 1.01872, 1.04076, 1.14706, 1.15019, 1.08936, 1.09709, 1.10881, 1.10945, 0.915078, 1.1049, 1.0885, 0.970987, 0.876843, 0.976808, 0.90208, 0.952977, 0.99069, 0.957666, 1.04872, 1.08403, 1.1295, 1.25412, 1.25394, 1.28416, 1.27619, 1.3103, 1.30935, 1.28457, 1.3064, 1.30942, 1.34999, 1.37841, 1.39521, 1.39894, 1.40611, 1.43385, 1.44895, 1.4878, 1.496, 1.52027, 1.5816, 1.56639, 1.56125, 1.54531, 1.54706, 1.5984, 1.60395, 1.61856, 1.63634, 1.65922, 1.73055, 1.66225, 1.66348, 1.67501, 1.74031, 1.74091, 1.71446, 1.71328, 1.71525, 1.7171, 1.93943, 1.74911, 1.58503, 1.58381, 1.58342, 1.58545, 1.57408, 1.56398, 1.51418, 1.46366, 1.46406, 1.46489, 1.42012, 1.41517, 1.40207, 1.45435, 1.3835, 1.27934, 1.27824, 1.26416, 1.24764, 1.23255, 1.21886, 1.18669, 1.16512, 1.13103, 1.10522, 1.10523, 1.07039, 1.06624, 1.05838, 1.16078, 1.08962, 1.09509, 1.34556, 1.22029, 1.34838, 1.39915, 1.4254, 1.18491, 1.16441, 1.16831, 1.24625, 1.22675, 1.18235, 1.23964, 1.18373, 1.17945, 1.17806, 1.18114, 1.18098, 1.18642, 1.188, 1.17979, 1.18178, 1.1985, 1.2103, 1.2335, 1.24298, 1.24402, 1.27725, 1.36618, 1.2866, 1.32202, 1.42475, 1.24315, 1.23882, 1.23464, 1.23411
1.03645, 1.04264, 1.04341, 1.14491, 1.02058, 1.02375, 1.15949, 1.08326, 1.04405, 1.0466, 1.03697, 1.1904, 0.00454031, 0.900097, 1.08424, 1.09115, 1.04243, 1.11489, 1.12925, 1.06362, 1.07788, 1.01808, 1.11891, 1.12701, 1.03439, 1.08932, 1.0791, 1.11207, 1.08984, 1.02603, 1.10943, 1.13285, 0.969975, 0.873966, 0.869644, 0.864107, 0.904679, 0.926399, 0.965861, 1.02413, 1.08418, 1.20107, 1.19979, 1.27441, 1.27836, 1.3137, 1.37108, 1.30966, 1.30764, 1.32679, 1.33784, 1.34394, 1.38981, 1.38844, 1.38663, 1.38446, 1.41709, 1.45108, 1.48769, 1.49508, 1.5134, 1.55951, 1.56437, 1.61857, 1.56131, 1.56138, 1.6196, 1.60454, 1.60598, 1.62447, 1.65601, 1.7306, 1.66622, 1.66278, 1.69782, 1.7453, 1.68666, 1.68309, 1.69085, 1.71594, 1.77174, 1.71628, 1.66235, 1.63497, 1.61157, 1.58246, 1.5915, 1.62091, 1.58934, 1.52207, 1.45985, 1.45328, 1.5274, 1.45937, 1.4142, 1.44993, 1.37837, 1.32571, 1.27755, 1.27908, 1.2563, 1.23254, 1.23295, 1.19993, 1.16995, 1.14848, 1.12429, 1.10556, 1.06869, 1.09448, 1.08203, 1.08556, 1.12718, 1.08705, 1.09438, 1.09494, 1.19117, 1.25152, 1.13512, 1.36936, 1.15793, 1.16091, 1.19508, 1.17073, 1.17275, 1.43399, 1.23995, 1.19212, 1.20249, 1.17578, 1.18087, 1.18235, 1.18697, 1.18725, 1.18411, 1.18412, 1.20179, 1.22377, 1.23038, 1.23375, 1.24097, 1.27643, 1.35999, 1.28974, 1.28968, 1.48194, 1.242, 1.2401, 1.2395, 1.22976
1.03866, 1.04142, 1.04203, 1.13941, 1.01947, 1.0062, 1.01534, 1.22058, 1.20831, 1.05658, 0.928228, 0.925554, 1.0111, 1.01914, 1.08867, 1.08902, 1.0696, 1.06422, 1.06455, 1.06875, 1.06824, 1.05815, 1.12211, 1.18907, 1.00671, 1.00947, 1.07775, 1.08557, 1.06792, 1.01566, 1.08612, 1.09244, 0.869911, 0.868813, 0.872935, 0.873203, 0.895573, 0.956649, 0.96762, 1.00892, 1.03556, 1.14626, 1.19504, 1.30049, 1.30148, 1.36536, 1.36174, 1.31954, 1.31035, 1.3297, 1.3342, 1.43281, 1.36818, 1.37085, 1.39281, 1.41769, 1.41476, 1.44453, 1.49587, 1.50285, 1.51231, 1.56132, 1.55852, 1.68175, 1.67992, 1.56831, 1.60645, 1.60551, 1.60552, 1.60621, 1.64426, 1.6617, 1.669, 1.69281, 1.6925, 1.71226, 1.68502, 1.68477, 1.78232, 1.74029, 1.79708, 1.74773, 1.75188, 1.69954, 1.62637, 1.62719, 1.60046, 1.69068, 1.56933, 1.56246, 1.48862, 1.46949, 1.50655, 1.43652, 1.40941, 1.45308, 1.45806, 1.32099, 1.30964, 1.27785, 1.26399, 1.25972, 1.24359, 1.22119, 1.20135, 1.17344, 1.10089, 1.10158, 1.09598, 1.06339, 1.056, 1.08689, 1.07793, 1.07789, 1.094, 1.09416, 1.19797, 1.36079, 1.13397, 1.37748, 1.18386, 1.16286, 1.29877, 1.2503, 1.16984, 1.22712, 1.25127, 1.36215, 1.20504, 1.17537, 1.1803, 1.18203, 1.18692, 1.18726, 1.22577, 1.22861, 1.20646, 1.28125, 1.22864, 1.23258, 1.2372, 1.37249, 1.28117, 1.28783, 1.29044, 1.36528, 1.24022, 1.24204, 1.23793, 1.23562
1.03363, 1.04179, 1.04222, 1.14973, 1.1496, 1.15282, 1.0051, 1.00172, 0.998208, 1.03663, 0.927791, 0.925437, 1.00918, 0.888408, 0.879688, 1.01895, 1.06488, 1.06723, 1.06883, 1.07405, 1.05363, 1.00494, 1.16175, 1.17458, 1.03138, 1.02346, 1.06617, 1.09645, 0.880664, 1.07261, 0.956615, 1.12532, 0.869764, 0.866435, 0.873817, 0.873263, 0.919547, 0.949345, 0.949381, 1.01909, 1.08454, 1.14022, 1.20873, 1.22581, 1.47138, 1.34751, 1.33976, 1.33565, 1.34105, 1.37564, 1.43053, 1.35871, 1.41748, 1.4956, 1.39599, 1.41894, 1.42533, 1.49148, 1.49225, 1.48899, 1.51511, 1.5656, 1.55577, 1.56412, 1.56062, 1.56897, 1.56966, 1.60563, 1.60481, 1.60914, 1.64708, 1.67434, 1.70128, 1.74882, 1.72654, 1.71557, 1.68543, 1.68506, 1.74126, 1.74118, 1.7833, 1.74876, 1.7517, 1.6644, 1.65503, 1.61667, 1.61837, 1.64302, 1.59056, 1.55233, 1.50999, 1.48566, 1.50604, 1.46018, 1.4564, 1.45088, 1.34178, 1.34088, 1.3148, 1.29008, 1.28519, 1.27088, 1.23758, 1.24035, 1.23961, 1.17528, 1.15092, 1.09877, 1.0677, 1.04975, 1.05118, 1.08218, 1.08252, 1.07463, 1.07431, 1.09413, 1.18614, 1.2381, 1.24736, 1.12629, 1.18786, 1.34118, 1.16883, 1.17102, 1.16434, 1.16441, 1.17043, 1.19936, 1.20113, 1.16831, 1.18169, 1.18086, 1.18137, 1.18918, 1.22586, 1.23319, 1.2062, 1.21853, 1.2982, 1.23113, 1.43395, 1.26431, 1.27587, 1.33461, 1.29491, 1.36153, 1.24596, 1.23624, 1.2367, 1.23331
1.03362, 1.14427, 1.21257, 1.14965, 1.15046, 1.10583, 1.0988, 0.994861, 1.0519, 0.925025, 0.925297, 0.925172, 1.03395, 0.887784, 0.8747, 1.02557, 1.10136, 1.06023, 1.06154, 1.02802, 1.04535, 1.04568, 1.04712, 0.965535, 0.946175, 1.01317, 1.07665, 1.09611, 0.872534, 0.876148, 1.13919, 0.981105, 1.1334, 0.856245, 0.901807, 0.89919, 0.91453, 0.98589, 0.973595, 1.01217, 1.14773, 1.14686, 1.21882, 1.23439, 1.45247, 1.33432, 1.33802, 1.37796, 1.39585, 1.3748, 1.37806, 1.38198, 1.37986, 1.40073, 1.41676, 1.43382, 1.50513, 1.49839, 1.49048, 1.50854, 1.53358, 1.58964, 1.55459, 1.56416, 1.55887, 1.66057, 1.56968, 1.60542, 1.60228, 1.63436, 1.64846, 1.68234, 1.72386, 1.72381, 1.72323, 1.72497, 1.68497, 1.68477, 1.72005, 1.74128, 1.85601, 1.81533, 1.82469, 1.74161, 1.67355, 1.61387, 1.62011, 1.64145, 1.63754, 1.56147, 1.55938, 1.5291, 1.53752, 1.43292, 1.44362, 1.45162, 1.35772, 1.33757, 1.29584, 1.28353, 1.28147, 1.28359, 1.26501, 1.27518, 1.27789, 1.19702, 1.15032, 1.08599, 1.08624, 1.05641, 1.05437, 1.05963, 1.08371, 1.08381, 1.07429, 1.09484, 1.09723, 1.10604, 1.25075, 1.12274, 1.18651, 1.18815, 1.19035, 1.18876, 1.16113, 1.16355, 1.20869, 1.1915, 1.20173, 1.19581, 1.23041, 1.17719, 1.17659, 1.19257, 1.19359, 1.20617, 1.42751, 1.21624, 1.22611, 1.23221, 1.27551, 1.3081, 1.27672, 1.28409, 1.28475, 0.00463126, 1.23601, 1.23714, 1.23717, 1.22934
1.03239, 1.14508, 1.20549, 1.10161, 1.18104, 1.10459, 0.973007, 0.989827, 0.93012, 0.925486, 0.92481, 0.925645, 0.999421, 0.994596, 0.875519, 1.04926, 1.1027, 0.860694, 1.05844, 0.999017, 1.04812, 1.20437, 1.14436, 0.991262, 0.943523, 0.943618, 1.01305, 0.873524, 0.871971, 1.16523, 1.03193, 0.931665, 0.936691, 0.856354, 0.927945, 0.919132, 0.917336, 0.987905, 0.980236, 1.02541, 1.08546, 1.15394, 1.21203, 1.21358, 1.43074, 1.36495, 1.33361, 1.37839, 1.38435, 1.3742, 1.43267, 1.45626, 1.46451, 1.46016, 1.45427, 1.54429, 1.4914, 1.4895, 1.55548, 1.53421, 1.57273, 1.57227, 1.56481, 1.56477, 1.58512, 1.64318, 1.60302, 1.60461, 1.65784, 1.64208, 1.64244, 1.72458, 1.7339, 1.72637, 1.72356, 1.72309, 1.72469, 1.70636, 1.70541, 1.77561, 1.81723, 1.96036, 1.84865, 1.73115, 1.65869, 1.61454, 1.62293, 1.62307, 1.6426, 1.56411, 1.53819, 1.56787, 1.54211, 1.44985, 1.42366, 1.38412, 1.36147, 1.35046, 1.32855, 1.27927, 1.28111, 1.34476, 1.33477, 1.31109, 1.27515, 1.21872, 1.20028, 1.11995, 1.05731, 1.07339, 1.056, 1.0925, 1.06335, 1.08046, 1.07564, 1.24746, 1.08895, 1.26104, 1.23169, 1.12283, 1.14372, 1.34651, 1.19487, 1.16546, 1.16144, 1.15897, 1.39309, 1.63817, 1.20114, 1.20449, 1.22949, 1.17551, 1.17645, 1.19395, 1.19356, 1.22583, 1.21373, 1.21536, 1.22252, 1.30757, 1.44055, 1.27872, 1.3084, 1.34034, 1.37469, 1.32625, 1.23496, 1.23782, 1.23459, 1.23648
1.13939, 1.144, 1.07781, 1.08477, 1.15435, 1.09648, 1.1062, 0.966671, 0.931068, 0.926444, 0.920712, 0.915808, 0.914968, 1.01223, 1.05711, 0.862619, 1.07464, 0.858763, 0.858373, 0.876828, 1.02189, 1.00084, 1.00645, 1.012, 0.942967, 1.00189, 1.01145, 0.981708, 0.870433, 0.866389, 0.868612, 0.971248, 0.937171, 0.896297, 0.83137, 0.849052, 0.915299, 0.973924, 1.02634, 1.03293, 1.06762, 1.14563, 1.19065, 1.21813, 1.4531, 1.32688, 1.35056, 1.42409, 1.38456, 1.37754, 1.46081, 1.45403, 1.46645, 1.47923, 1.46201, 1.52357, 1.52817, 1.56315, 1.56838, 1.58805, 1.57082, 1.57017, 1.56414, 1.60008, 1.58534, 1.64864, 1.60423, 1.66698, 1.7217, 1.65079, 1.66254, 1.72141, 1.72599, 1.72708, 1.73041, 1.72486, 1.72393, 1.7068, 1.70635, 1.84145, 1.83629, 1.83144, 1.83088, 1.85858, 1.7489, 1.62056, 1.62201, 1.66115, 1.64855, 1.58126, 1.58032, 1.53118, 1.50215, 1.46536, 1.41632, 1.39185, 1.37276, 1.35405, 1.33495, 1.29848, 1.32967, 1.34798, 1.32941, 1.31199, 1.31209, 1.27802, 1.22255, 1.1269, 1.0825, 1.05808, 1.05312, 1.06497, 1.06458, 1.07922, 1.07493, 1.07413, 1.10133, 1.39112, 1.25397, 1.11686, 1.13301, 1.20193, 1.13693, 1.151, 1.27538, 1.25827, 1.3865, 1.32242, 1.32228, 1.20963, 1.22222, 1.23741, 1.17606, 1.17866, 1.23032, 1.225, 1.22323, 1.22835, 1.23283, 1.27331, 1.30487, 1.2993, 1.28308, 1.29679, 1.38548, 1.41757, 1.23899, 1.23574, 1.23299, 1.23561
1.14783, 1.28879, 1.0719, 1.082, 1.08242, 1.10466, 1.13118, 1.16828, 0.928642, 0.926728, 1.04405, 0.916624, 0.915504, 1.07036, 1.05701, 1.06814, 0.856003, 0.855487, 0.857596, 0.870444, 1.14452, 1.04407, 1.03277, 1.034, 1.01508, 1.0095, 1.03233, 1.03056, 0.8657, 0.864395, 0.864385, 1.06381, 1.01893, 0.855498, 0.831865, 0.85545, 0.91069, 1.01717, 1.03607, 1.04283, 1.12249, 1.1478, 1.18338, 1.22802, 1.45218, 1.33353, 1.34694, 1.37179, 1.37496, 1.37581, 1.45828, 1.46332, 1.46222, 1.49703, 1.47388, 1.51456, 1.49421, 1.56447, 1.64836, 1.59956, 1.59676, 1.64369, 1.58975, 1.586, 1.58051, 1.64772, 1.63353, 1.6366, 1.63699, 1.6697, 1.65721, 1.71943, 1.75663, 1.8109, 1.71161, 1.72478, 1.73789, 1.70729, 1.70632, 1.72711, 1.92476, 1.83162, 1.83155, 1.96159, 1.68327, 1.62099, 1.62056, 1.66173, 1.57107, 1.5487, 1.58132, 1.53109, 1.53877, 1.43728, 1.42253, 1.40616, 1.45912, 1.39193, 1.37265, 1.38294, 1.36423, 1.34704, 1.33496, 1.27789, 1.27071, 1.1965, 1.15994, 1.12386, 1.08799, 1.09554, 1.0565, 1.05393, 1.05989, 1.0822, 1.07041, 1.0717, 1.11225, 1.11144, 1.10685, 1.11608, 1.13032, 1.12759, 1.14421, 1.16221, 1.14999, 1.15196, 1.62601, 1.38979, 1.21171, 1.22223, 1.22506, 1.23987, 1.2324, 1.21223, 1.18407, 1.23394, 1.24016, 1.23437, 1.24073, 1.24411, 1.26347, 1.27549, 1.28655, 1.29481, 1.31558, 1.38009, 1.23761, 1.23454, 1.23223, 1.4375
