0.442364, 0.441567, 0.442638, 0.441116, 0.440681, 0.440557, 0.441355, 0.441977, 1.1038, 1.10201, 0.450165, 0.449496, 0.456051, 0.454642, 0.454513, 0.454652, 0.454425, 0.452952, 0.447544, 0.446739, 0.446803, 0.895095, 0.78003, 0.455107, 0.455352, 0.576988, 0.46623, 0.604498, 0.469793, 0.471975, 0.470874, 0.472987, 0.687135, 0.618196, 0.48068, 0.479524, 0.479299, 0.527655, 0.652046, 0.636222, 0.508545, 0.628971, 0.595358, 0.676501, 0.658967, 0.662381, 0.504206, 0.498074, 0.497943, 0.498093, 0.502391, 0.510612, 0.509943, 0.660975, 0.600627, 0.598085, 0.512155, 0.690434, 0.525446, 1.31171, 1.30189, 0.660673, 0.562104, 0.806424, 0.563322, 0.589352, 0.564842, 0.567116, 0.562562, 0.583496, 0.563538, 0.681371, 0.67678, 0.674446, 0.670503, 0.669231, 0.572306, 0.660104, 0.656133, 1.04816, 0.566407, 0.566773, 0.564931, 0.568929, 0.568301, 0.571542, 0.706084, 0.5799, 0.579812, 0.579592, 0.589681, 0.589308, 0.901939, 0.597914, 0.624857, 0.615187, 0.627288, 0.627516, 0.628461, 0.614545, 0.616739, 0.614987, 0.676438, 0.642393, 0.640479, 0.640787, 0.636128, 0.638793, 0.643723, 0.674055, 0.673618, 0.647992, 0.694775, 0.694375, 0.746238, 0.71422, 0.646382, 0.647076, 0.645726, 0.652825, 0.651238, 0.65191, 0.65153, 0.647712, 0.640532, 0.644108, 0.644595, 0.671693, 0.676885, 0.670211, 0.667763, 0.667549, 0.662601, 0.66239, 0.670534, 0.727897, 0.646906, 0.647239, 0.65437, 0.653421, 0.626804, 0.631759, 0.633266, 0.632788, 0.633194, 0.794791, 0.648698, 0.648595, 0.8009, 0.748713, 0.897407, 0.809834, 0.920616, 0.721502, 0.722973, 0.764252, 0.788693, 1.02258, 0.91257, 0.889844, 0.872558, 0.92353, 0.961397, 0.901567, 0.7565, 0.756998, 0.742415, 0.742929, 0.743067, 0.745665, 0.74632, 0.746384, 0.74713, 0.747919, 0.750561, 0.748873, 0.748115, 0.74533, 0.732476, 0.729777, 0.725073, 0.726511, 0.727761, 0.72819, 0.728083, 0.726968, 0.711087, 0.708352, 0.711425, 0.711536, 0.713667, 0.715544, 0.716153, 0.715887, 0.713444, 0.712757, 0.712057, 0.953625, 0.715995, 0.716131, 0.724594, 0.725601, 0.753548, 0.738508, 0.743315, 0.728412, 0.730672, 0.731045, 0.73071, 0.73445, 0.734507, 0.730445, 0.738279, 0.731912, 0.734468, 0.736142, 0.737178, 0.740257, 0.74652, 0.74826, 0.748921, 0.750726, 0.839218, 0.999379, 1.15111, 1.15, 0.760483, 0.760723, 0.761578, 0.762437, 0.762356, 0.762867, 0.759772, 0.75865, 0.751965, 1.34761, 1.30417, 1.30352, 1.14145, 0.767257
0.441597, 0.441544, 0.441317, 0.442087, 0.441283, 0.441634, 0.441111, 0.440366, 0.439578, 1.1014, 0.672435, 0.448375, 0.898166, 0.454834, 0.452525, 0.453158, 0.45253, 0.450145, 0.448254, 0.448021, 0.448788, 0.446983, 0.454507, 0.454055, 0.453904, 0.446832, 0.445039, 0.445183, 0.463195, 0.468794, 0.503817, 0.456998, 0.455309, 0.486173, 0.469725, 0.468895, 0.498044, 0.70098, 0.467825, 0.702641, 0.698803, 0.555482, 0.511833, 0.653486, 0.6155, 0.670367, 0.494177, 0.499749, 0.499064, 0.498386, 0.501461, 0.509832, 0.508162, 0.517301, 0.518407, 0.513514, 0.512811, 0.512471, 0.519331, 0.51917, 0.659863, 0.61779, 0.638173, 0.621889, 0.738693, 0.583888, 0.601003, 0.549324, 0.825717, 0.89208, 0.577854, 0.687116, 0.680679, 0.534785, 0.594076, 0.670959, 0.574588, 0.664701, 1.0032, 0.654165, 0.649474, 0.64615, 0.560886, 0.639426, 0.567717, 0.778812, 0.787726, 0.579493, 0.580319, 0.580045, 0.590278, 0.588565, 0.595491, 0.596128, 0.71513, 0.62255, 0.625815, 0.626721, 0.717769, 0.712101, 0.605642, 0.605054, 0.700425, 0.657062, 0.642619, 0.632648, 0.63386, 0.68608, 0.643754, 0.63192, 0.631161, 0.631915, 0.690375, 0.672501, 0.71172, 0.742026, 0.647538, 0.648404, 0.646568, 0.6471, 0.648077, 0.656627, 0.640205, 0.650772, 0.639438, 0.672374, 0.6459, 0.646211, 0.680691, 0.6384, 0.666406, 0.66264, 0.663135, 0.742691, 0.742394, 0.651462, 0.651539, 0.651843, 0.653395, 0.646128, 0.628351, 0.628027, 0.627654, 0.632737, 0.63152, 0.677778, 0.649078, 0.651689, 0.735299, 0.735296, 0.717782, 0.703062, 0.703676, 0.794789, 0.861453, 0.771032, 0.821758, 0.895074, 0.984185, 0.983643, 0.943915, 0.959963, 0.9497, 0.755372, 0.745058, 0.734669, 0.735548, 0.743046, 0.744296, 0.745717, 0.746549, 0.746851, 0.745599, 0.744315, 0.748662, 0.748767, 0.749333, 0.738437, 0.734008, 0.729658, 0.725155, 0.723159, 0.723449, 0.726202, 0.726664, 0.745573, 0.71003, 0.707615, 0.707517, 0.710897, 0.713198, 0.713156, 0.708238, 0.714046, 0.710559, 0.71174, 0.712367, 0.714245, 0.715798, 0.717629, 0.714902, 0.709703, 0.735637, 0.718861, 0.721987, 0.880978, 0.721888, 0.7228, 0.724061, 0.73197, 0.730194, 0.73131, 0.733027, 0.732738, 0.739062, 0.735624, 0.749163, 0.743658, 0.745895, 0.749366, 0.747067, 0.750911, 0.767079, 0.753043, 1.31088, 0.757453, 0.759733, 0.760792, 0.762193, 0.761238, 0.759451, 1.55169, 0.756862, 0.753283, 0.753368, 0.75301, 0.761532, 0.758926, 0.760859, 0.766365
0.442687, 0.442499, 0.442364, 0.443068, 0.441496, 0.440504, 0.441725, 0.441287, 0.439918, 0.443554, 0.444611, 0.470448, 0.900553, 0.444539, 0.443183, 0.882164, 0.834737, 0.448445, 0.448362, 0.449578, 0.449008, 0.44808, 0.442528, 0.450493, 0.448587, 0.447984, 0.448474, 0.445046, 0.681716, 0.681867, 0.642773, 0.645937, 0.455342, 0.460364, 0.470204, 0.468874, 0.494351, 0.468529, 0.469485, 0.468816, 0.697973, 0.696681, 0.617412, 0.482719, 0.482532, 0.650656, 0.496764, 0.49719, 0.498297, 0.498619, 0.499115, 0.500035, 0.54986, 0.517062, 0.517241, 0.514507, 0.513672, 0.513654, 0.517609, 0.51427, 0.64988, 0.639675, 0.544702, 0.545885, 0.798785, 0.533987, 0.84693, 0.58498, 0.824633, 0.897926, 0.692447, 0.51875, 0.687456, 0.793778, 0.794116, 0.525447, 0.669171, 0.995603, 1.00102, 0.554936, 1.03322, 0.745393, 0.743842, 0.562474, 0.562356, 0.562162, 0.778826, 0.75263, 0.579766, 1.14969, 0.583935, 0.584367, 0.587559, 0.588201, 0.665229, 0.617201, 0.620067, 0.621807, 0.618434, 1.01769, 0.605401, 0.604738, 0.683907, 0.659603, 0.631866, 0.633754, 0.632421, 0.635095, 0.675015, 0.631371, 0.679869, 0.680389, 0.611079, 0.669372, 0.680794, 0.72451, 0.673636, 0.653017, 0.633795, 0.633606, 0.692472, 0.619151, 0.653036, 0.617483, 0.618179, 0.646577, 0.649622, 0.653909, 0.670135, 0.637425, 0.639839, 0.644726, 0.683001, 0.638686, 0.638877, 0.65092, 0.651817, 0.652432, 0.636597, 0.628367, 0.627554, 0.629242, 0.628758, 0.632078, 0.634825, 0.635968, 0.781248, 0.77971, 0.73886, 0.737955, 0.755818, 0.732702, 0.703834, 0.8006, 0.901556, 0.901816, 0.776401, 1.00627, 0.980684, 0.988744, 0.949943, 0.963802, 0.941552, 0.737789, 0.736177, 0.736554, 0.735964, 0.81322, 0.744223, 0.74564, 0.746092, 0.746282, 0.745435, 0.734608, 0.805485, 0.797309, 0.76474, 0.765824, 0.779113, 0.729538, 0.721521, 0.722078, 0.72267, 0.725222, 0.724344, 0.719878, 0.708601, 0.707073, 0.699093, 0.702037, 0.701939, 0.702491, 0.702699, 0.706576, 0.708877, 0.709486, 0.708106, 0.713977, 0.715834, 0.713376, 0.713858, 0.711232, 0.709868, 0.711981, 0.711487, 0.715741, 0.721095, 0.723784, 0.724593, 0.725194, 0.736285, 0.736894, 0.738422, 0.738544, 0.740341, 0.740824, 0.739852, 1.07765, 0.741577, 0.745045, 0.745413, 0.748926, 0.750137, 0.751056, 0.752173, 0.763178, 1.49515, 0.761081, 0.752822, 0.753723, 0.754535, 1.40645, 0.748494, 0.749229, 0.752857, 1.49422, 1.4948, 0.760179, 0.759242, 0.761144
0.923087, 0.441472, 0.93133, 0.441682, 0.443086, 0.44339, 0.44188, 0.441439, 0.440477, 0.445147, 0.444875, 0.880592, 0.884035, 0.444654, 0.443358, 0.440096, 0.431504, 0.434768, 0.436118, 0.43553, 0.446725, 0.442482, 0.44317, 0.447596, 0.449124, 0.448686, 0.44706, 0.445607, 0.68103, 0.53819, 0.68023, 0.525602, 0.526161, 0.46632, 0.593709, 0.596509, 0.576796, 0.467778, 0.468523, 0.468974, 0.468726, 0.581889, 0.62084, 0.483137, 0.482762, 0.485739, 0.487871, 0.497247, 0.497381, 0.499056, 0.500115, 0.50264, 0.51517, 0.515173, 0.51465, 0.515063, 0.512613, 0.511433, 0.512063, 0.511231, 0.646503, 0.726192, 0.725585, 1.09916, 0.890372, 0.847396, 0.699254, 0.694719, 0.593848, 0.839302, 0.812201, 0.51936, 0.519265, 0.944064, 0.52499, 0.677785, 1.01171, 0.532121, 0.532412, 0.532303, 0.79056, 0.720162, 1.15595, 1.1499, 0.562542, 0.562393, 1.15354, 0.743228, 0.743317, 0.734877, 0.584086, 0.586847, 0.856339, 0.742651, 0.793867, 0.786838, 0.728919, 0.711485, 0.619473, 1.01888, 1.02117, 0.689475, 0.607016, 0.608462, 0.65335, 0.636735, 0.714529, 0.632774, 0.682984, 0.677071, 0.677387, 0.666588, 0.666137, 0.668585, 0.691012, 0.653168, 0.674384, 0.620763, 0.632193, 0.620676, 0.623749, 0.621137, 0.621446, 0.618067, 0.61301, 0.688258, 0.631248, 0.632542, 0.669288, 0.669235, 0.636324, 0.644562, 0.64483, 0.683799, 0.640199, 0.64195, 0.644948, 0.77989, 0.629705, 0.631418, 0.62978, 0.783459, 0.675279, 0.634734, 0.636177, 0.636278, 0.7779, 0.782248, 0.725057, 0.750907, 0.75202, 0.752522, 0.747413, 0.76291, 0.751332, 0.76358, 0.768617, 0.858466, 0.75225, 0.743085, 0.755873, 0.798693, 0.764449, 0.736595, 0.736721, 0.738125, 0.738989, 0.797614, 0.74409, 0.745326, 0.745822, 0.745573, 0.73901, 0.731656, 0.731329, 0.721106, 0.733716, 0.963594, 0.725735, 0.746364, 0.725503, 0.723813, 0.724237, 0.723696, 0.72177, 0.721561, 0.718674, 0.707645, 0.699972, 0.701967, 0.703483, 0.70395, 0.704122, 0.701108, 0.700113, 0.707549, 0.707691, 0.696199, 0.693218, 0.694716, 0.700481, 0.709186, 0.711009, 0.712923, 0.714015, 0.713072, 0.715521, 0.719197, 0.722722, 0.735705, 0.737581, 0.738482, 0.738584, 0.738668, 0.74053, 0.73629, 0.736097, 0.738736, 0.741997, 0.743285, 0.746955, 0.749082, 0.749633, 0.749914, 1.47599, 1.56028, 0.75234, 0.750985, 0.751977, 0.752642, 0.752571, 0.745482, 0.740542, 0.743042, 0.748733, 0.766842, 0.74955, 0.752615, 0.753512, 0.758761
0.928824, 0.928594, 0.947064, 0.422588, 0.700296, 0.441624, 0.440004, 0.441039, 0.438628, 0.444409, 0.443206, 0.878826, 0.433642, 0.43316, 0.434248, 0.433019, 0.432488, 0.431775, 0.436184, 0.434556, 0.437506, 0.44285, 0.442976, 0.447881, 0.448171, 0.4494, 0.448291, 0.445821, 0.44523, 0.539149, 0.427322, 0.426972, 0.42681, 0.505474, 0.595324, 0.593001, 0.507426, 0.46653, 0.468722, 0.466349, 0.615306, 0.514858, 0.48176, 0.481916, 0.482108, 0.821722, 0.674848, 0.580311, 0.603847, 0.811842, 0.802104, 0.843397, 0.71448, 0.795442, 0.777198, 0.512216, 0.511957, 0.511354, 0.51062, 0.510999, 0.652654, 0.73124, 0.762866, 0.81777, 0.628162, 0.817086, 0.708847, 0.499344, 0.835323, 0.831798, 0.810335, 0.518307, 0.677229, 0.518245, 0.825664, 0.772194, 1.01488, 0.533069, 0.533534, 0.533084, 0.790328, 0.720685, 0.553147, 0.550519, 0.562083, 0.753423, 0.781655, 0.54979, 0.876506, 0.595127, 0.576717, 0.753488, 0.902033, 0.749824, 0.74332, 0.811752, 0.577812, 0.569197, 0.569602, 0.570874, 0.690907, 0.618336, 0.612554, 0.615635, 0.631928, 0.635837, 0.719332, 0.601856, 0.601684, 0.6329, 0.631803, 0.631494, 0.663697, 0.587729, 0.65264, 0.614349, 0.612717, 0.615031, 0.624289, 0.624115, 0.621204, 0.618384, 0.621274, 0.620229, 0.613549, 0.684944, 0.684334, 0.645679, 0.645133, 0.627483, 0.627471, 0.639875, 0.652223, 0.651312, 0.638015, 0.640034, 0.641327, 0.740316, 0.634455, 0.632255, 0.63245, 0.722341, 0.637141, 0.676149, 0.637946, 0.636251, 0.635626, 0.78009, 0.743709, 0.754719, 0.752382, 0.75221, 0.88418, 0.75499, 0.752073, 0.755774, 0.85246, 0.863527, 0.850642, 0.746294, 0.764665, 0.935002, 0.739015, 0.736253, 0.736338, 0.736914, 0.738247, 0.799464, 0.742457, 0.744842, 0.745552, 0.739087, 0.738745, 0.730175, 0.726574, 0.722329, 0.721271, 0.716838, 0.715558, 0.724783, 0.99918, 0.723605, 0.722519, 0.721438, 0.721666, 0.721713, 0.718513, 0.718308, 0.702256, 0.701806, 0.701558, 0.702688, 0.702834, 0.702296, 0.700504, 0.69885, 0.698124, 0.697534, 0.695542, 0.695087, 0.699947, 0.714115, 0.71251, 0.711714, 0.711839, 0.714412, 0.74351, 0.745566, 0.74651, 0.738492, 0.738208, 0.738563, 0.737046, 0.73761, 0.736612, 0.734679, 0.73551, 0.738603, 0.742205, 0.742963, 0.746596, 0.750419, 0.749387, 0.749392, 0.763561, 0.766958, 0.750835, 0.7512, 0.751847, 0.747032, 0.744639, 0.743092, 0.741308, 0.740629, 0.744369, 0.743264, 0.746491, 0.750048, 0.752507, 0.755378
1.28001, 0.42227, 0.421824, 0.42156, 0.422486, 0.689587, 0.437087, 0.436376, 0.435468, 0.964003, 0.896599, 0.427502, 0.434868, 0.433813, 0.434197, 0.434006, 0.433271, 0.431221, 0.435039, 0.434515, 0.449293, 0.450032, 0.449858, 0.448718, 0.44832, 0.448782, 0.448068, 0.446073, 0.600681, 0.599758, 0.428032, 0.428199, 0.427241, 0.527757, 0.499272, 0.491397, 0.505409, 0.490219, 0.579938, 0.581398, 0.596686, 0.753503, 0.59382, 0.849606, 1.36803, 0.471035, 0.469423, 0.556541, 0.487456, 0.491248, 0.800649, 0.681207, 0.693827, 0.828007, 0.697339, 0.510105, 0.509986, 0.593524, 0.58334, 0.508001, 0.660429, 0.765314, 0.65915, 0.748093, 0.495098, 0.494783, 0.500029, 0.500127, 0.500462, 0.50373, 0.842796, 0.511134, 0.511906, 0.673004, 0.838584, 0.832575, 1.36494, 0.644916, 0.533251, 0.96844, 0.54176, 0.780362, 0.778211, 0.946998, 0.877772, 0.546205, 0.546959, 0.550834, 0.550538, 0.819551, 0.827009, 0.758955, 0.754627, 0.710737, 0.702663, 0.735535, 0.570606, 0.570562, 0.57066, 0.570027, 0.572108, 0.621735, 0.642004, 0.580331, 0.580694, 0.580506, 0.588941, 0.60134, 0.647158, 0.600824, 0.634285, 0.572213, 0.573243, 0.589324, 0.588815, 0.667596, 0.620661, 0.621917, 0.624153, 0.624262, 0.610306, 0.619536, 0.621386, 0.620721, 0.610133, 0.677573, 0.681251, 0.649242, 0.647003, 0.622099, 0.627428, 0.648022, 0.645506, 0.656419, 0.639093, 0.639552, 0.640199, 0.640266, 0.635018, 0.633464, 0.632648, 0.636286, 0.637977, 0.677352, 0.637476, 0.631028, 0.636414, 0.636682, 0.671353, 0.763815, 0.764428, 0.880675, 0.765921, 0.752726, 0.752149, 0.75518, 0.874249, 0.721263, 0.831823, 0.770405, 0.767431, 0.762198, 0.742306, 0.806918, 0.805626, 0.806736, 0.833489, 0.796946, 0.800936, 0.789217, 0.766103, 0.73826, 0.755962, 0.725424, 0.725193, 0.725132, 0.720352, 0.718373, 0.717617, 0.718051, 0.75141, 0.752112, 0.720248, 0.720028, 0.72101, 0.730269, 0.714051, 0.708991, 0.709002, 0.685711, 0.687024, 0.699566, 0.700895, 0.700096, 0.699503, 0.698977, 0.699864, 0.699901, 0.696298, 0.693506, 0.734311, 0.73552, 0.721888, 0.723691, 0.724972, 0.725713, 0.728233, 0.790263, 0.759808, 0.736857, 0.738257, 0.736327, 0.736257, 0.734975, 0.735101, 0.733339, 0.735023, 0.740688, 0.742853, 0.742956, 0.746214, 0.748731, 0.748855, 0.7486, 0.746446, 0.993677, 0.814425, 0.804915, 0.801497, 0.744141, 0.745495, 0.745292, 0.744912, 0.739528, 0.74082, 0.743596, 0.743811, 0.749441, 0.752121, 1.46049
0.414609, 0.630175, 0.608173, 0.422363, 0.424338, 0.625201, 0.43592, 0.435495, 0.880556, 0.876254, 0.423852, 0.424009, 0.424388, 0.433143, 0.434466, 0.433415, 0.431791, 0.430493, 0.433913, 0.43525, 0.45035, 0.451365, 0.451176, 0.449896, 0.448292, 0.448166, 0.670204, 0.421888, 0.424311, 0.420253, 0.419005, 0.426948, 0.426708, 0.423735, 0.424328, 0.500926, 0.721262, 0.583319, 0.449537, 0.448711, 0.569852, 0.460073, 0.72689, 1.35738, 1.33998, 0.47053, 0.566183, 0.566283, 0.489413, 0.701657, 0.696544, 0.686269, 0.694951, 0.693775, 0.693855, 0.503201, 0.502377, 0.496225, 0.496226, 0.495857, 0.495242, 0.494647, 0.49297, 0.491858, 0.497089, 0.494874, 0.492816, 0.501265, 0.502061, 0.502529, 0.501993, 0.923047, 0.490762, 0.500546, 0.831238, 0.688079, 0.621383, 0.655307, 0.798993, 0.969327, 0.856967, 0.87062, 0.945623, 0.891214, 0.651904, 0.551143, 0.555823, 0.550606, 0.550742, 0.787395, 0.638971, 0.758567, 0.639122, 0.567082, 0.638037, 0.579743, 0.565323, 0.571096, 0.570877, 0.569003, 0.566029, 0.656572, 0.594436, 0.581514, 0.582649, 0.581861, 0.721748, 0.612359, 0.659552, 0.776337, 0.572262, 0.572347, 0.573416, 0.566331, 0.589079, 0.665039, 0.621427, 0.622678, 0.656285, 0.613536, 0.613245, 0.620766, 0.62087, 0.620831, 0.614192, 0.603959, 0.62539, 0.635449, 0.624486, 0.646102, 0.651466, 0.648832, 0.649297, 0.676387, 0.641353, 0.641805, 0.641381, 0.640892, 0.881448, 0.632079, 0.63148, 1.08122, 0.669639, 0.649511, 0.734784, 0.655342, 0.670297, 0.67263, 0.673104, 0.759895, 0.788214, 0.882577, 0.882498, 0.881216, 0.892191, 0.878107, 0.862338, 0.839592, 0.820394, 0.806006, 0.804175, 0.897585, 0.84664, 0.808462, 0.807139, 0.817554, 0.798482, 0.799861, 0.792326, 0.788719, 0.770236, 0.759545, 0.736626, 0.724558, 0.724732, 0.720528, 0.720793, 0.718962, 0.718445, 0.718693, 0.758505, 0.773502, 0.71824, 0.743421, 0.744615, 0.714441, 0.711641, 0.740497, 0.687162, 0.687965, 0.68819, 0.68707, 0.699501, 0.70007, 0.697733, 0.698809, 0.700722, 0.708866, 0.707325, 0.725257, 0.728279, 0.724976, 0.722977, 0.725446, 0.727416, 0.728187, 0.728074, 0.967797, 0.952653, 0.732584, 0.733917, 0.733097, 0.73225, 0.733803, 0.735611, 0.734156, 0.733842, 0.742816, 0.74409, 0.744418, 0.745824, 0.749515, 0.749408, 0.748837, 0.802526, 0.804405, 1.27068, 0.771109, 0.796758, 0.743898, 0.745404, 0.746746, 0.745419, 0.743306, 0.743188, 0.743293, 0.745823, 0.747601, 0.752079, 0.753828
0.411506, 0.421314, 0.421042, 0.420648, 0.418871, 0.626101, 0.654814, 0.866576, 0.867912, 0.864608, 0.425919, 0.424626, 0.424089, 0.434237, 0.433618, 0.514043, 0.430563, 0.429377, 0.725132, 0.604299, 0.449978, 0.451528, 0.450452, 0.449238, 0.448351, 0.421602, 0.421447, 0.421401, 0.42317, 0.423025, 0.421314, 0.423614, 0.422686, 0.422713, 0.424026, 0.995318, 0.583768, 0.447254, 0.448282, 0.449022, 0.450746, 0.569726, 0.451815, 0.451997, 0.567032, 0.742081, 0.465021, 1.35775, 0.488729, 0.488939, 0.640296, 0.676449, 0.503948, 0.503536, 0.501728, 0.495397, 0.497088, 0.496916, 0.496743, 0.496529, 0.495779, 0.495375, 0.494627, 0.491887, 0.49079, 0.490519, 0.491615, 0.501719, 0.503317, 0.503194, 0.502819, 0.492506, 0.492553, 0.492183, 0.833537, 0.96121, 0.68438, 0.655839, 0.969252, 0.970615, 0.828847, 0.542181, 0.943095, 0.870346, 0.619264, 0.651538, 0.546988, 0.648315, 0.646534, 0.728414, 0.646293, 0.562246, 0.717894, 0.715283, 0.698131, 0.559738, 0.56055, 0.568716, 0.569411, 0.801473, 0.632746, 0.596573, 0.814592, 0.914936, 0.581296, 0.628151, 0.822838, 0.758359, 0.572714, 0.573732, 0.575791, 0.5784, 0.578662, 0.578489, 0.575245, 0.635576, 0.603799, 0.604511, 0.601877, 0.599941, 0.61149, 0.612684, 0.620643, 0.612577, 0.610788, 0.609503, 0.621266, 0.646293, 0.647289, 0.648623, 0.64742, 0.676031, 0.676031, 0.675934, 0.677001, 0.64546, 0.642846, 0.642079, 0.641814, 0.770114, 0.84378, 0.861789, 0.870294, 0.684737, 0.73565, 0.683823, 0.686548, 0.687797, 0.688385, 0.920115, 0.739164, 0.883601, 0.880302, 0.876078, 0.765189, 0.777917, 0.836846, 0.849416, 0.817091, 0.776035, 0.895735, 0.884922, 0.89357, 0.814445, 0.820665, 0.818612, 0.817944, 0.795251, 0.790881, 0.784415, 0.780582, 0.781306, 0.72557, 0.758036, 0.759842, 0.768099, 0.761206, 0.717612, 0.717725, 0.768611, 0.794799, 0.795033, 0.768553, 0.758307, 0.757352, 0.742068, 0.710714, 0.709347, 0.735189, 0.687994, 0.688754, 0.703537, 0.725243, 0.710081, 0.7107, 0.733418, 0.733034, 0.756061, 0.728501, 0.731419, 0.737719, 0.738605, 0.738419, 0.725469, 0.727303, 0.727501, 0.716691, 1.20205, 1.24316, 0.73129, 0.732866, 0.733482, 0.733358, 0.734699, 0.738541, 0.735602, 0.736391, 0.740101, 0.743991, 0.745771, 0.745769, 0.748414, 0.752965, 1.0151, 0.742061, 0.883342, 1.65963, 0.756648, 1.64848, 0.742729, 0.744162, 0.744386, 0.745038, 0.743681, 0.743238, 0.741772, 0.741645, 0.742994, 0.742277, 0.981002
0.410378, 0.413855, 0.886921, 0.419004, 0.418378, 0.418255, 0.897092, 0.424035, 0.837652, 0.837882, 0.426567, 0.426202, 0.424647, 0.422917, 0.413877, 0.414057, 0.53308, 0.625715, 0.760193, 0.4367, 0.449623, 0.449022, 0.449387, 0.417934, 0.420031, 0.424205, 0.421932, 0.423714, 0.425274, 0.423971, 0.421158, 0.424143, 0.424935, 0.42477, 0.428312, 0.460504, 0.448653, 0.449392, 0.449095, 0.449941, 0.450847, 0.451238, 0.452428, 0.447211, 0.447541, 0.450532, 0.462571, 0.781535, 0.780356, 0.783901, 0.760105, 0.501479, 0.506841, 0.506826, 0.954383, 0.687073, 0.496774, 0.497109, 0.497372, 0.49704, 0.498064, 0.497523, 0.495339, 0.494404, 0.492104, 0.492772, 0.493101, 0.497456, 0.503183, 0.503573, 0.50181, 0.493991, 0.493836, 0.493274, 0.492024, 0.566368, 0.511545, 0.511194, 0.560198, 0.560589, 0.531588, 0.55227, 0.572611, 0.573818, 0.615148, 0.608431, 0.612538, 0.543513, 0.618168, 0.551743, 0.543241, 0.543758, 0.854873, 0.860751, 0.937019, 0.559806, 0.562101, 0.946302, 0.920887, 0.607859, 0.632523, 0.887011, 0.889434, 0.889469, 0.611888, 0.612387, 0.612318, 0.604216, 0.574395, 0.573044, 0.573248, 0.579024, 0.580277, 0.580554, 0.579984, 0.585702, 0.604875, 0.605175, 0.603637, 0.603113, 0.605105, 0.614522, 0.614865, 0.614056, 0.611612, 0.828589, 0.629567, 0.632838, 0.633881, 0.638816, 0.63981, 0.731377, 0.676106, 0.780671, 1.16011, 0.761435, 0.761144, 0.870615, 0.86988, 0.807682, 0.852422, 0.854024, 0.756898, 0.853019, 0.884053, 0.685789, 0.686432, 0.69, 0.689821, 0.89329, 0.915703, 0.915999, 0.872906, 0.884697, 0.767289, 0.770647, 0.862319, 0.821312, 0.83276, 0.829422, 0.848106, 0.849983, 0.85251, 0.816419, 0.801811, 0.80136, 0.800422, 0.798959, 0.788897, 0.802238, 0.801283, 0.779248, 0.777465, 0.758613, 0.758101, 0.759058, 0.77715, 0.715767, 0.781758, 0.787409, 0.77415, 0.787748, 0.7868, 0.727731, 0.762609, 0.728033, 0.711097, 0.71064, 0.709671, 0.735833, 0.704337, 0.708979, 0.710992, 0.712289, 0.712468, 0.71221, 0.713973, 0.7158, 0.718508, 0.719022, 0.784498, 0.787909, 0.825632, 0.724164, 0.724471, 0.715142, 0.71557, 0.716837, 1.29418, 0.72923, 0.730065, 0.731448, 0.732597, 0.734831, 0.736719, 0.738348, 0.738375, 0.740249, 0.7434, 0.743369, 0.745432, 0.739511, 0.739459, 0.95639, 1.66222, 1.65898, 1.66451, 1.31036, 0.99121, 0.730528, 0.739751, 0.741936, 0.7366, 0.736111, 0.737204, 0.736188, 0.737564, 0.737534, 0.739152, 0.740055
0.410559, 0.411881, 0.411471, 0.415398, 0.41344, 0.415122, 0.545387, 0.422937, 0.594177, 0.424752, 0.424191, 0.423904, 0.418641, 0.415863, 0.414116, 0.41352, 0.414379, 0.767803, 0.751065, 0.428938, 0.426534, 0.426354, 0.414224, 0.417321, 0.4214, 0.422145, 0.42167, 0.421219, 0.421938, 0.425192, 0.430568, 0.424202, 0.590826, 0.586427, 0.459694, 0.461426, 0.449289, 0.450128, 0.450109, 0.452339, 0.451483, 0.451897, 0.449998, 0.447886, 0.447288, 0.446243, 0.840761, 0.73474, 0.781812, 0.785523, 0.786516, 0.94541, 0.743892, 1.09963, 0.536414, 0.511704, 0.495426, 0.496196, 0.669867, 0.497739, 0.497133, 0.496781, 0.49637, 0.495828, 0.494679, 0.494439, 0.496369, 0.498738, 0.49826, 0.497888, 0.500036, 0.494608, 0.493723, 0.497265, 0.498326, 0.50083, 0.511192, 0.510584, 0.628144, 0.573279, 0.573789, 0.538656, 0.531864, 0.550022, 0.620941, 0.609345, 0.530322, 0.887325, 0.5368, 0.544684, 0.54468, 0.544654, 0.544973, 0.851976, 0.5532, 0.554319, 0.555711, 0.555182, 0.60794, 0.607462, 0.750322, 0.55747, 0.562908, 0.562836, 0.87396, 0.700928, 0.61051, 0.844834, 0.567818, 0.568292, 0.55902, 0.572629, 0.578815, 0.579894, 0.581702, 0.581291, 0.588657, 0.700193, 0.686931, 0.607061, 0.613091, 0.606114, 0.605306, 0.61293, 0.614249, 0.829243, 0.632599, 0.632083, 0.636167, 0.638855, 0.6417, 0.643828, 0.659416, 0.658699, 1.16007, 0.654677, 0.653987, 0.761948, 0.760441, 0.870118, 0.870053, 0.870246, 0.721086, 0.720861, 0.714653, 0.882856, 0.686447, 0.903326, 0.891221, 0.94538, 0.875204, 0.756746, 0.898419, 0.807795, 0.876605, 0.857529, 0.711588, 0.905362, 0.885778, 0.887883, 0.881582, 0.847784, 0.849681, 0.85084, 0.83646, 0.821581, 0.825215, 0.797682, 0.816766, 0.80386, 0.802479, 0.801183, 0.794323, 0.767166, 0.791375, 0.795084, 0.779466, 0.779338, 0.715604, 0.786613, 0.828666, 0.828847, 0.808171, 0.707942, 0.709249, 0.709617, 0.710534, 0.710758, 0.710767, 0.710576, 0.79408, 0.711622, 0.712395, 0.714194, 0.714231, 0.714068, 0.715083, 0.715239, 1.01697, 0.781335, 0.717596, 0.753372, 0.779521, 1.33219, 0.711204, 0.71208, 0.71709, 0.718221, 0.714688, 0.714905, 0.715675, 0.717979, 0.724523, 0.734058, 0.734941, 0.735168, 0.737893, 0.736915, 0.742404, 1.2874, 0.728297, 0.737986, 1.14433, 1.67118, 1.68051, 0.716647, 0.717398, 0.719362, 0.769991, 1.01558, 1.00157, 0.735008, 0.734265, 0.734286, 0.737987, 0.736825, 0.73658, 0.735373, 0.735635, 0.73491
0.410284, 0.409702, 0.410544, 0.413443, 0.413865, 0.412001, 0.412023, 0.40341, 0.769282, 0.538255, 0.423802, 0.423989, 0.420518, 0.417951, 0.414638, 0.413711, 0.414811, 0.769787, 0.649463, 0.430359, 0.427685, 0.427645, 0.415333, 0.415127, 0.416739, 0.423451, 0.422557, 0.421687, 0.431165, 0.431676, 0.431472, 0.430123, 0.587916, 0.586592, 0.453512, 0.456908, 0.451819, 0.451556, 0.450749, 0.450323, 0.451418, 0.451446, 0.450258, 0.449692, 0.448947, 0.447919, 0.446962, 0.728806, 0.730024, 0.731446, 0.78794, 0.787728, 0.787266, 0.509878, 0.684108, 0.510643, 0.805441, 0.669632, 0.797923, 0.496089, 0.496277, 0.496354, 0.495439, 0.495377, 0.49512, 0.495082, 0.494399, 0.499693, 0.498703, 0.497651, 0.495915, 0.495711, 0.496258, 0.495152, 0.494351, 0.49881, 0.569339, 0.562381, 0.503956, 0.503587, 0.503415, 0.507749, 0.534843, 0.529005, 0.518443, 0.521631, 1.33709, 0.95345, 0.890031, 0.543676, 0.544837, 0.544642, 0.544466, 0.628787, 0.628884, 0.627927, 0.554535, 0.555632, 0.55603, 0.676086, 0.862813, 0.557303, 0.79685, 0.822998, 0.858504, 0.612064, 0.846694, 0.564375, 0.569221, 0.56893, 0.569441, 0.57211, 0.57334, 0.571955, 0.56997, 0.576631, 0.718876, 0.705868, 0.792218, 0.687138, 0.606643, 0.605699, 0.605482, 0.670562, 0.64229, 0.637793, 0.639244, 0.634534, 0.638764, 0.63882, 0.639323, 0.642881, 0.75217, 0.747532, 0.655102, 0.655205, 0.655335, 0.884898, 0.7603, 0.761812, 0.762608, 0.763604, 0.723596, 0.722252, 0.722992, 0.728399, 0.89426, 0.966465, 0.884509, 0.997349, 0.904628, 0.91497, 0.892267, 0.887529, 0.801035, 0.825132, 0.712696, 0.712079, 0.886556, 0.891991, 0.846547, 0.846273, 0.829276, 0.828182, 0.837355, 0.825729, 0.823461, 0.824658, 0.840558, 0.836349, 0.810339, 0.800358, 0.817184, 0.809176, 0.795614, 0.778389, 0.779688, 0.780119, 0.71077, 0.707735, 0.707934, 0.824685, 0.736635, 0.815895, 0.788568, 0.707962, 0.708353, 0.708706, 0.706698, 0.705354, 0.828701, 0.71131, 0.712264, 0.713995, 0.714044, 0.70857, 0.708497, 0.709864, 0.70941, 0.704479, 0.702748, 0.704566, 0.704329, 0.710151, 0.711197, 0.712946, 0.716241, 0.715978, 0.713703, 0.715452, 0.717299, 0.719269, 0.721971, 0.73185, 0.732892, 0.733231, 0.742833, 0.736579, 1.1344, 0.728135, 0.729684, 0.729592, 1.02987, 0.732084, 0.715761, 0.716934, 0.718704, 0.718508, 0.980487, 0.723016, 1.02172, 0.731509, 0.733904, 0.735104, 0.736297, 0.736203, 0.736107, 0.735693, 0.738625, 0.736527
0.408993, 0.407444, 0.406337, 0.410514, 0.411885, 0.411996, 0.4032, 0.401572, 0.406858, 0.410703, 0.421606, 0.421581, 0.420908, 0.418038, 0.415083, 0.420712, 0.420827, 0.422005, 0.448746, 0.584623, 0.428325, 0.427272, 0.417208, 0.415803, 0.414558, 0.424193, 0.423917, 0.460776, 0.451069, 0.432361, 0.44866, 0.448657, 0.448616, 0.448556, 0.445121, 0.444894, 0.448275, 0.451748, 0.452075, 0.451583, 0.451786, 0.451654, 0.449314, 0.449884, 0.448457, 0.44831, 0.447738, 0.45076, 0.450033, 0.673396, 0.455258, 0.573502, 0.787484, 0.500082, 0.495811, 1.1051, 0.62566, 0.653917, 0.611307, 0.661001, 0.49448, 0.494208, 0.493993, 0.494351, 0.493946, 0.493647, 0.493628, 0.49754, 0.497727, 0.486093, 0.486377, 0.494396, 0.495039, 0.494279, 0.491735, 0.741859, 0.73589, 0.505372, 0.503481, 0.504396, 0.504401, 0.5041, 0.891341, 0.00468521, 0.514767, 0.519454, 0.519859, 0.895697, 0.921266, 0.904284, 0.544884, 0.884647, 0.534486, 0.534925, 0.874356, 0.627028, 0.848403, 0.862816, 0.856094, 0.543742, 0.543907, 0.544115, 0.555272, 0.857046, 0.549092, 0.833239, 0.843052, 0.563368, 0.566224, 0.567403, 0.571144, 0.571045, 0.570915, 0.570157, 0.569536, 0.7397, 0.718766, 0.584609, 0.714718, 0.645435, 0.674212, 0.604959, 0.670111, 0.652761, 0.691704, 0.66199, 0.655073, 0.832203, 0.638454, 0.638205, 1.16966, 1.16962, 0.78622, 0.77344, 0.65548, 0.655357, 0.655452, 1.11241, 0.847796, 0.761153, 0.76211, 0.732594, 0.863787, 1.13709, 0.873404, 1.00929, 1.00006, 0.943112, 0.94513, 0.93417, 0.916741, 0.915235, 0.907961, 0.870385, 0.887188, 0.7075, 0.711621, 0.849009, 0.848654, 0.813634, 0.851569, 0.851737, 0.839063, 0.83017, 0.857222, 0.824902, 0.824803, 0.803424, 0.843251, 0.822639, 0.808977, 0.808564, 0.725932, 0.8421, 0.839572, 0.735528, 0.787351, 0.704226, 0.705657, 0.707294, 0.874354, 0.870508, 0.704185, 0.776512, 0.704973, 0.699178, 0.700729, 0.703596, 0.7048, 0.706469, 0.706225, 0.708891, 0.708495, 0.709083, 0.704472, 0.710737, 0.710403, 0.710375, 0.709096, 0.706885, 0.70457, 0.704737, 0.70478, 0.705852, 0.708199, 0.7099, 0.711151, 0.715098, 0.713937, 0.714099, 0.716142, 0.717888, 0.721775, 0.721643, 0.724307, 0.723027, 0.724353, 0.721952, 0.722668, 0.724749, 0.724685, 0.726921, 0.728491, 0.722122, 0.717331, 0.717796, 0.721023, 0.744737, 0.722511, 0.724675, 0.724805, 0.729198, 0.733081, 0.735972, 0.735501, 0.736436, 0.737073, 0.738272, 0.738516, 0.740295
0.405039, 0.406721, 0.405231, 0.403161, 0.402366, 0.404885, 0.40475, 0.40331, 0.403173, 0.754498, 0.418597, 0.424384, 0.424349, 0.42368, 0.423844, 0.422791, 0.421617, 0.421552, 0.421938, 0.413176, 0.412485, 0.420503, 0.417688, 0.41528, 0.415078, 0.42592, 0.424901, 0.469942, 0.44466, 0.450229, 0.450837, 0.450546, 0.449354, 0.449529, 0.450704, 0.445613, 0.445921, 0.447027, 0.452226, 0.452624, 0.452083, 0.451102, 0.449137, 0.448705, 0.448535, 0.448898, 0.448894, 0.451001, 0.451505, 0.451731, 0.456226, 0.456368, 0.461901, 0.654977, 1.10717, 0.628863, 0.476964, 0.47557, 0.612006, 0.632078, 0.635479, 0.606015, 1.0702, 0.487427, 0.485919, 0.486807, 0.48683, 0.497007, 0.489153, 0.487592, 0.487375, 0.490209, 0.492243, 0.485103, 0.484848, 0.491614, 0.566403, 0.502637, 0.503435, 0.504307, 0.50531, 0.505437, 0.504732, 0.660208, 0.517388, 0.933257, 0.516127, 0.904591, 0.911392, 0.913203, 0.913923, 0.881725, 0.535982, 0.53534, 0.534975, 0.85136, 0.854042, 0.846907, 0.53834, 0.544009, 0.545101, 0.544915, 0.540703, 0.548353, 0.548661, 0.548484, 0.551276, 0.553474, 0.567654, 0.568325, 0.570538, 0.569912, 0.56855, 0.569186, 0.569741, 0.611209, 0.576457, 0.573327, 0.572595, 0.612343, 0.670334, 0.619091, 0.623139, 0.673558, 0.666416, 0.718278, 0.733106, 0.663597, 0.729401, 0.719145, 0.787606, 0.943225, 0.722076, 0.758311, 0.654021, 0.749956, 0.76362, 0.659065, 1.03523, 1.05183, 0.762938, 0.849268, 0.860865, 0.687643, 1.02164, 0.871046, 0.94515, 0.941373, 0.966831, 0.907371, 0.9357, 0.899238, 0.898827, 0.894623, 0.839808, 0.804577, 0.875127, 0.848968, 0.8489, 0.898203, 0.887752, 0.84066, 0.839974, 0.856697, 0.826524, 0.884463, 0.814473, 0.858959, 0.869828, 0.836597, 0.712132, 0.875271, 0.729752, 0.798892, 0.812348, 0.812763, 0.693703, 0.694034, 0.808769, 0.808385, 0.787855, 0.702032, 0.703368, 0.708868, 0.69421, 0.700442, 0.700899, 0.699587, 0.70206, 0.70224, 0.704271, 0.705357, 0.694418, 0.694795, 0.69518, 0.706449, 0.70654, 0.706998, 0.707777, 0.707132, 0.704543, 0.704581, 0.704478, 0.707278, 0.708135, 0.708896, 0.710941, 0.710511, 0.711971, 0.713793, 1.55893, 0.711148, 0.716882, 0.717783, 0.714894, 0.722154, 0.72151, 0.724393, 0.724279, 0.724519, 0.725227, 0.724928, 0.764479, 0.720144, 0.716922, 0.718083, 0.718679, 0.761463, 0.747831, 0.723589, 0.818932, 0.730441, 0.732952, 0.733462, 0.735737, 0.738137, 0.737642, 0.738174, 0.7399, 0.743872
0.405552, 0.406428, 0.404429, 0.403926, 0.403423, 0.406235, 0.406591, 0.405624, 0.653221, 0.420375, 0.420565, 0.420862, 0.422286, 0.424599, 0.424251, 0.424053, 0.422477, 0.421496, 0.408878, 0.412244, 0.413985, 0.413723, 0.414939, 0.414107, 0.414228, 0.441289, 0.442457, 0.445245, 0.447649, 0.446135, 0.451174, 0.451455, 0.451706, 0.450151, 0.449125, 0.449068, 0.448174, 0.448871, 0.448123, 0.447741, 0.93001, 0.436672, 0.447988, 0.447618, 0.448383, 0.448721, 0.701038, 0.521562, 0.45121, 0.451578, 0.501196, 0.521658, 0.519493, 0.461062, 0.487427, 1.07711, 1.08526, 0.473702, 0.477619, 0.635164, 0.697878, 1.07152, 1.07395, 0.484186, 1.0615, 0.479441, 0.47765, 0.607682, 0.487899, 0.48702, 0.486242, 0.481191, 0.590246, 0.486518, 0.488173, 0.486652, 0.569126, 0.501315, 0.564089, 0.503635, 0.504617, 0.503773, 0.501974, 0.501736, 0.502009, 0.932437, 0.910899, 0.908816, 0.905341, 0.887554, 0.885139, 0.861557, 0.534858, 0.533483, 0.537839, 0.532401, 0.853013, 0.533081, 0.535657, 0.538416, 0.544335, 0.541973, 0.542229, 0.541457, 0.54867, 0.5489, 0.549186, 0.549267, 0.567224, 0.567937, 0.552971, 0.55513, 0.554891, 0.74885, 0.625845, 0.625463, 0.575904, 0.574409, 0.573411, 0.573087, 0.919159, 0.81225, 0.817516, 0.809235, 0.800994, 0.66341, 0.732191, 0.862608, 0.862612, 0.835446, 1.17013, 1.17027, 0.785609, 0.887324, 0.896265, 1.03185, 1.03235, 0.854085, 0.765271, 0.826712, 0.766253, 0.76564, 0.887759, 0.678505, 0.680729, 0.960721, 0.958055, 0.913735, 0.940669, 0.940713, 0.881663, 0.899329, 0.859986, 0.893955, 0.91399, 0.863803, 0.798927, 0.845472, 0.91885, 0.907875, 0.899713, 0.870715, 0.854285, 0.87441, 0.847712, 0.881801, 0.814814, 0.901936, 0.870406, 0.738371, 0.840277, 0.842166, 0.800719, 0.801254, 0.860453, 0.752931, 0.69457, 0.694921, 0.69646, 0.722827, 0.807615, 0.702285, 0.702844, 0.693836, 0.692673, 0.693654, 0.69334, 0.694538, 0.695235, 0.700907, 0.700797, 0.70199, 0.695134, 0.696298, 0.696686, 0.705691, 0.707165, 0.70671, 0.708084, 0.707175, 0.703671, 0.702784, 0.702775, 0.706753, 0.707725, 0.709214, 0.710165, 0.711119, 0.706101, 0.704668, 0.706308, 0.711107, 0.705617, 0.708915, 0.710287, 0.712058, 0.717993, 0.723332, 0.7242, 0.725284, 0.725602, 0.71808, 0.718018, 0.715416, 0.717208, 0.717618, 0.716598, 0.720582, 0.721114, 0.911378, 0.730155, 0.729271, 0.731237, 0.731953, 0.735915, 0.737522, 0.737925, 0.73745, 0.740828, 0.742337
0.40567, 0.405556, 0.402189, 0.403459, 0.403556, 0.403149, 0.405178, 0.40879, 0.409238, 0.420728, 0.421104, 0.423082, 0.422475, 0.424319, 0.42386, 0.423254, 0.420371, 0.409555, 0.410171, 0.411358, 0.412817, 0.414473, 0.41493, 0.413644, 0.412588, 0.443827, 0.44454, 0.444815, 0.445565, 0.443896, 0.450078, 0.450438, 0.45224, 0.451615, 0.451383, 0.449639, 0.448837, 0.448473, 0.447724, 0.446549, 0.438208, 0.437129, 0.435904, 0.43502, 0.5383, 0.528561, 0.543194, 0.525031, 0.566672, 0.518197, 0.503608, 0.506954, 0.502053, 0.521404, 0.462507, 1.0779, 1.07526, 1.08125, 1.13325, 0.633436, 0.630984, 0.629176, 0.844087, 0.622341, 0.479814, 0.478749, 0.479679, 0.808894, 0.604271, 0.707935, 1.01174, 0.481317, 0.4728, 0.473202, 0.475311, 0.482776, 0.567598, 0.490998, 0.913528, 0.498323, 0.498498, 0.502006, 0.500992, 0.502389, 0.503409, 0.552338, 0.913255, 0.912714, 0.700017, 0.983843, 0.885837, 0.860194, 0.860107, 0.86341, 0.844319, 0.531688, 0.53233, 0.533031, 0.832823, 0.53833, 0.541392, 0.542599, 0.542503, 0.540752, 0.548255, 0.54904, 0.548747, 0.714152, 0.711974, 0.554278, 0.554496, 0.554931, 0.555016, 0.637613, 0.629338, 0.624779, 0.572521, 0.572933, 0.572888, 0.927588, 0.922088, 0.812026, 0.74369, 0.809283, 0.904844, 0.799883, 0.800724, 0.860484, 0.861298, 0.856327, 0.835792, 0.836112, 0.834673, 0.791835, 0.768656, 0.766933, 0.743476, 0.74607, 1.03569, 0.665141, 0.665444, 0.92865, 0.912769, 1.00269, 0.880783, 0.983046, 0.887212, 0.975559, 0.948858, 0.880863, 0.875599, 0.941469, 0.942607, 0.858893, 0.889331, 0.798248, 0.939705, 0.929351, 0.889005, 0.788783, 0.903829, 0.905445, 0.694869, 0.83508, 0.835824, 0.814337, 0.859187, 0.746137, 0.849038, 0.81488, 0.858333, 0.86047, 0.853345, 0.800713, 0.892429, 0.891397, 0.751011, 0.750062, 0.689808, 0.877924, 0.701378, 0.700808, 0.697275, 0.694179, 0.691941, 0.692117, 0.694303, 0.695033, 0.696508, 0.69598, 0.700605, 1.0723, 1.147, 0.69482, 1.03925, 0.703515, 0.706082, 0.707259, 0.707151, 0.704328, 0.702993, 0.703377, 0.702375, 0.702192, 0.705164, 0.706578, 0.708133, 0.705812, 0.707011, 0.707108, 0.70561, 0.705409, 0.706085, 0.709104, 0.71222, 0.711913, 0.716134, 0.721388, 0.721515, 0.725765, 0.717303, 0.717706, 0.717837, 0.71635, 0.715303, 0.715486, 0.716444, 0.720047, 0.721912, 0.725208, 0.730556, 0.729854, 0.729304, 0.730662, 0.732343, 0.735873, 0.737927, 0.737662, 0.739388, 0.741983
0.403804, 0.40273, 0.400444, 0.40132, 0.403876, 0.407955, 0.410139, 0.41016, 0.408939, 0.419195, 0.421492, 0.42198, 0.421823, 0.423959, 0.423031, 0.411334, 0.409878, 0.409992, 0.409993, 0.409829, 0.413812, 0.414083, 0.41333, 0.448698, 0.449421, 0.436003, 0.444721, 0.445007, 0.446038, 0.444975, 0.444611, 0.452912, 0.452193, 0.451857, 0.451658, 0.451067, 0.450596, 0.449161, 0.583497, 0.556426, 0.555356, 0.436704, 0.436395, 0.435663, 0.539292, 0.424075, 0.560619, 0.558405, 0.559469, 0.508351, 0.519922, 0.521595, 0.497091, 0.534202, 0.553087, 1.07869, 1.07545, 1.07403, 0.615502, 0.636873, 0.630756, 0.628445, 0.496093, 0.546792, 0.562781, 0.470541, 0.478292, 1.00193, 0.969129, 0.760256, 0.474859, 0.47627, 0.474601, 0.472776, 0.47241, 0.472032, 0.84592, 0.899132, 0.956059, 0.498718, 0.93934, 0.493923, 0.503071, 0.499976, 0.674611, 0.674777, 0.53674, 0.514104, 0.877507, 0.874253, 0.576479, 0.596459, 0.843989, 0.842049, 0.569641, 0.526656, 0.531266, 0.533121, 0.716073, 0.605449, 0.540219, 0.541258, 0.541209, 0.540327, 0.546845, 0.534826, 0.534603, 0.843039, 0.776097, 0.554185, 0.555094, 0.554597, 0.688479, 0.632788, 0.624068, 0.887363, 0.635196, 0.568228, 0.595339, 0.558833, 0.911796, 0.911939, 0.630907, 0.905237, 0.688541, 0.783016, 0.878683, 0.597775, 0.59876, 0.599171, 0.860679, 0.838259, 0.834375, 0.753316, 1.02648, 1.03117, 0.790869, 0.742691, 0.752103, 0.66523, 0.666275, 0.797178, 1.03464, 1.00881, 0.803501, 0.804181, 0.91306, 0.950233, 0.951886, 0.907953, 0.875285, 0.917881, 0.941127, 0.842915, 0.907397, 0.841268, 0.841664, 0.832972, 0.94288, 0.911415, 0.697345, 0.905226, 0.887408, 0.705146, 0.8589, 0.788021, 0.801048, 0.877541, 0.796182, 0.683424, 0.85581, 0.680603, 0.813473, 0.71424, 0.825342, 0.864455, 0.677015, 0.681585, 0.681658, 0.685092, 0.705684, 1.03835, 0.69318, 0.692204, 0.690733, 0.689985, 0.690319, 0.691518, 0.69581, 0.694784, 0.690673, 0.690256, 0.690328, 0.690984, 0.701474, 0.70238, 0.703992, 0.705467, 0.703651, 0.704235, 0.703808, 0.701677, 0.697926, 0.698703, 0.700576, 0.700879, 0.703178, 0.705621, 0.707171, 0.706954, 0.705369, 0.704279, 0.704235, 0.708652, 0.711649, 0.714013, 0.71631, 0.717456, 0.718939, 0.719254, 0.719105, 0.719595, 0.715883, 0.716474, 0.716226, 0.717039, 0.718498, 0.719283, 0.723642, 0.724612, 0.728109, 0.72792, 0.729685, 0.729906, 0.731311, 0.734817, 0.736165, 0.738276, 0.741741, 0.741685
0.401313, 0.401997, 0.401082, 0.40012, 0.387995, 0.387862, 0.410476, 0.40967, 0.408952, 0.415562, 0.421079, 0.420791, 0.414762, 0.418854, 0.413754, 0.413164, 0.411097, 0.410685, 0.410336, 0.41105, 0.41387, 0.414362, 0.412735, 0.464022, 0.438715, 0.438678, 0.439029, 0.444957, 0.445508, 0.444686, 0.774301, 0.761355, 0.695246, 0.451093, 0.450648, 0.450355, 0.449551, 0.446409, 0.558939, 0.584104, 0.431061, 0.427533, 0.427291, 0.423327, 0.42349, 0.422522, 0.427077, 0.427825, 0.563001, 0.552753, 0.487668, 0.434952, 0.63317, 0.632087, 0.535826, 1.03822, 0.838007, 1.03974, 0.632304, 0.566422, 0.474979, 0.529485, 0.535083, 0.462445, 0.611231, 0.469673, 0.470075, 0.470778, 0.470407, 1.2424, 0.475653, 0.471817, 0.47218, 0.471996, 0.472369, 0.890538, 0.888101, 0.912227, 0.718775, 0.498299, 0.705407, 0.883225, 0.494201, 0.619018, 0.594739, 0.880938, 0.802196, 0.884548, 0.579989, 0.628079, 0.869509, 0.607931, 0.778791, 0.740015, 0.527766, 0.519355, 0.525468, 0.524551, 0.52393, 0.529045, 0.529843, 0.530119, 0.74168, 0.739415, 0.529013, 0.535162, 0.535645, 0.535218, 0.715054, 0.964515, 0.700635, 0.680598, 0.689819, 0.693783, 0.647121, 0.645924, 0.652992, 0.877859, 0.559419, 0.560006, 0.559318, 0.560609, 0.635983, 0.609809, 1.04758, 0.900347, 0.867261, 0.59909, 0.600408, 0.600068, 0.834938, 0.835139, 0.83659, 0.787174, 1.0836, 0.819344, 0.822345, 0.836978, 0.798215, 0.780686, 0.891248, 0.860178, 0.950503, 0.816841, 0.817948, 0.984606, 0.77635, 0.904483, 0.694405, 0.696334, 0.883776, 0.696618, 0.860379, 0.757978, 0.877984, 0.852752, 0.839653, 0.895049, 0.94672, 0.862398, 0.821732, 0.90831, 0.767072, 0.820751, 0.771448, 0.780299, 0.777811, 0.783533, 0.667836, 0.668256, 0.856881, 0.828703, 0.82803, 0.828279, 0.669054, 0.766421, 0.675079, 0.679753, 0.681364, 0.685107, 0.684714, 1.06633, 1.04538, 0.689882, 0.687563, 0.689805, 0.690467, 0.691554, 0.693563, 0.691587, 0.692158, 0.693654, 0.691407, 0.692688, 0.694475, 0.702293, 0.703122, 0.703188, 0.703843, 0.704287, 0.700722, 0.698947, 0.698652, 0.70041, 0.700302, 0.699356, 0.70258, 0.70445, 0.706812, 0.709735, 0.710479, 0.707447, 0.901904, 0.711123, 0.713805, 0.714363, 0.71547, 0.717926, 0.718579, 0.719563, 0.720732, 0.720737, 0.716609, 0.717472, 0.71651, 0.717698, 0.717942, 0.718213, 0.724371, 0.724432, 0.722826, 0.727952, 0.726452, 0.727921, 0.730306, 0.733217, 0.741791, 0.737876, 0.740302, 0.740858
0.858186, 0.524928, 0.400525, 0.396969, 0.390925, 0.39628, 0.396173, 0.401057, 0.406421, 0.576911, 0.415703, 0.415818, 0.414615, 0.414858, 0.41089, 0.41163, 0.411448, 0.413296, 0.410309, 0.408986, 0.416249, 0.476216, 0.444743, 0.435984, 0.438806, 0.4377, 0.440782, 0.438653, 0.442883, 0.434673, 0.72223, 0.715212, 0.694957, 0.694699, 0.692108, 0.562894, 0.448259, 0.687496, 0.885022, 0.570917, 0.430119, 0.428822, 0.426896, 0.425115, 0.424716, 0.425709, 0.426312, 0.427282, 0.846058, 0.844421, 0.436466, 0.437737, 0.435648, 0.633221, 0.995297, 1.06247, 1.0398, 1.03961, 0.636798, 0.657261, 0.62534, 0.729406, 0.462354, 0.462486, 0.867526, 0.746506, 0.766113, 0.470513, 0.46973, 0.468756, 0.466798, 0.4722, 0.472203, 0.471691, 0.466082, 0.466693, 0.466587, 0.883564, 0.777676, 0.47638, 0.477237, 0.912607, 0.483083, 0.484228, 0.486268, 0.876689, 0.876578, 0.876765, 0.721612, 0.691064, 0.691012, 0.521684, 0.510728, 0.509064, 0.504663, 0.50495, 0.517458, 0.518459, 0.517641, 0.529941, 0.530707, 0.53002, 0.524024, 0.52477, 0.526292, 0.535465, 0.535188, 0.535053, 0.633742, 1.00829, 1.01224, 0.939606, 0.99056, 0.992877, 0.994314, 1.01368, 0.640655, 0.882489, 0.559415, 0.559933, 0.559773, 0.847238, 0.905433, 0.641722, 0.643132, 0.898849, 0.890759, 0.593789, 0.594888, 0.595075, 0.863061, 0.852658, 0.850953, 0.833613, 0.826818, 0.857277, 0.829857, 0.830493, 0.857195, 0.88888, 0.891421, 0.86679, 0.971184, 0.954588, 0.773947, 0.968534, 0.845102, 0.900743, 0.884075, 0.696044, 0.69733, 0.698573, 0.697053, 0.905498, 0.90552, 0.881915, 0.864771, 0.855976, 0.836178, 0.81767, 0.917762, 0.906753, 0.768615, 0.784686, 0.784943, 0.860452, 0.862075, 0.863022, 0.667682, 0.669277, 0.669215, 0.998913, 0.806991, 0.778265, 0.660251, 0.665782, 0.665032, 1.01831, 0.675693, 1.06658, 0.887826, 1.02997, 1.04404, 0.705722, 0.684688, 0.69513, 0.687743, 0.689284, 1.24525, 0.752186, 0.690263, 0.692186, 0.693294, 0.694275, 0.696581, 0.693158, 0.694579, 0.695464, 0.702756, 0.695596, 0.696347, 0.697566, 0.697578, 0.699264, 0.699782, 0.701301, 0.703594, 0.703675, 0.707079, 0.709382, 0.710532, 0.708549, 0.7093, 0.713131, 0.714366, 0.716403, 0.717305, 0.718641, 0.720588, 0.721138, 0.721001, 0.719356, 0.718026, 0.717448, 0.716416, 0.720002, 0.719278, 0.720874, 0.720865, 1.03084, 0.736285, 0.726816, 0.726868, 0.729056, 0.730141, 0.732868, 0.742881, 0.746826, 0.749375, 0.739505
0.390541, 0.659768, 0.392794, 0.39161, 0.391865, 0.399166, 0.397562, 0.396, 0.407013, 0.405909, 0.416642, 0.417053, 0.417025, 0.410081, 0.411413, 0.411712, 0.411184, 0.41041, 0.409855, 0.680549, 0.424308, 0.434175, 0.434482, 0.4341, 0.43828, 0.439238, 0.436459, 0.435794, 0.427478, 0.434587, 0.434269, 0.716049, 0.728703, 0.929265, 0.553285, 0.733601, 0.736668, 0.434706, 0.43428, 0.432946, 0.433224, 0.429889, 0.426686, 0.427332, 0.426858, 0.426524, 0.426282, 0.425922, 0.609633, 0.838011, 0.828316, 0.438226, 0.438897, 0.809328, 0.844181, 1.04067, 1.02241, 0.652077, 0.670805, 0.462336, 0.804927, 0.92819, 0.854943, 0.465331, 0.463829, 0.852868, 0.469035, 0.469632, 0.470043, 0.467674, 0.466596, 0.951894, 0.470391, 0.468928, 0.466612, 0.466751, 0.466072, 0.472596, 0.470921, 0.472474, 0.479458, 0.479579, 0.482697, 0.482789, 0.92586, 0.894532, 0.805745, 0.843333, 0.618826, 0.615405, 0.612833, 0.52084, 0.518203, 0.694884, 0.693661, 0.506241, 0.50071, 0.501864, 0.520076, 0.528523, 0.525763, 0.528141, 0.524707, 0.52567, 0.526308, 0.531717, 0.528805, 0.528293, 1.01231, 1.09092, 0.779848, 0.552636, 0.992078, 0.990927, 0.990043, 0.901052, 1.01235, 0.565803, 0.56457, 0.559309, 0.583999, 0.853204, 0.923322, 0.848644, 0.890852, 0.897893, 0.891536, 0.673037, 0.596435, 0.596137, 0.866841, 0.849277, 0.846397, 0.882261, 0.890052, 0.857426, 0.7012, 0.828487, 1.03862, 0.850299, 1.0192, 1.0114, 0.987111, 0.945069, 0.940713, 0.922401, 0.906716, 0.930234, 0.697043, 0.696822, 0.6975, 0.697916, 0.696927, 0.896929, 0.902814, 0.912248, 0.897913, 0.856942, 0.838866, 0.823703, 0.846781, 0.847163, 0.780679, 0.79138, 0.75658, 0.877007, 0.876902, 0.714496, 0.717882, 0.665286, 0.655417, 0.89447, 0.659154, 0.658464, 0.658315, 0.993945, 0.660706, 0.66412, 1.03605, 1.07735, 1.04627, 0.855542, 0.883774, 0.684351, 0.668476, 0.690107, 0.682401, 0.68262, 0.68748, 0.68457, 0.718286, 0.68938, 0.68837, 0.691788, 0.692298, 0.693006, 0.692489, 0.693235, 0.693309, 0.695116, 0.696589, 0.696844, 0.698684, 0.699674, 0.700412, 0.70328, 0.703994, 0.704259, 0.707637, 0.709501, 0.709454, 0.709457, 0.712546, 0.713789, 0.714305, 0.71615, 0.71773, 0.719535, 0.720058, 0.72073, 0.718828, 0.718197, 0.717518, 0.717966, 0.720409, 0.722052, 0.722874, 0.720752, 1.0461, 0.735335, 0.735074, 0.728971, 0.727629, 0.72968, 0.728894, 0.729595, 1.2585, 0.732035, 0.899595, 0.899017
0.654318, 0.654812, 0.392929, 0.392484, 0.39041, 0.399758, 0.399308, 0.399422, 0.398715, 0.437908, 0.406777, 0.41711, 0.416058, 0.412212, 0.401766, 0.410662, 0.410584, 0.410228, 0.417739, 0.417178, 0.417703, 0.436768, 0.436121, 0.43674, 0.437246, 0.428213, 0.427577, 0.427123, 0.427188, 0.427711, 0.757117, 0.939916, 0.939307, 0.884879, 0.560743, 0.428954, 0.435821, 0.436463, 0.435757, 0.435208, 0.434108, 0.433367, 0.431616, 0.429104, 0.427482, 0.426689, 0.425675, 0.418118, 0.418422, 0.422273, 0.750695, 0.817931, 0.802844, 0.704203, 0.704312, 0.843105, 0.852255, 0.795289, 0.796251, 0.912223, 0.476036, 0.931953, 0.688507, 0.837935, 0.836415, 0.832646, 0.467598, 0.476173, 0.468271, 0.467912, 0.465726, 0.459545, 0.459873, 0.459594, 0.465578, 0.465799, 0.467034, 0.46903, 0.46948, 0.47293, 0.474881, 0.479732, 0.483741, 0.47491, 0.480643, 0.48655, 0.514077, 0.482921, 0.482666, 0.48359, 0.643073, 0.642072, 0.809602, 0.692282, 0.792031, 0.502056, 0.501613, 0.501336, 0.501171, 0.652656, 0.741866, 0.724859, 0.724894, 0.549882, 0.527846, 0.528809, 0.529548, 0.528839, 0.531455, 0.997974, 0.992205, 0.663255, 0.543174, 0.988549, 0.538513, 0.545371, 0.7531, 0.977262, 0.974205, 0.87096, 1.38856, 0.637293, 0.562626, 0.853194, 0.885668, 0.891704, 0.881763, 0.867582, 0.595003, 0.594993, 0.862709, 0.847003, 0.87837, 0.764543, 0.890961, 0.804634, 0.847376, 0.898067, 1.03363, 0.971566, 1.0056, 0.798611, 0.906004, 0.907986, 0.942716, 0.952334, 0.960402, 0.953641, 0.702866, 0.703816, 0.697052, 0.80245, 0.695475, 0.918134, 0.913604, 0.890663, 0.918841, 0.853514, 0.840178, 0.842413, 0.845548, 0.856667, 0.848191, 0.932957, 0.880971, 0.666056, 0.716292, 0.715311, 1.0014, 0.65403, 0.65526, 0.658923, 0.660693, 0.659693, 0.657631, 0.658849, 0.66184, 0.663355, 0.959225, 0.673418, 0.853475, 0.697138, 0.683659, 0.684473, 0.669997, 0.67692, 0.681349, 0.682441, 0.682112, 0.683041, 0.683242, 0.685319, 0.687541, 0.690872, 0.692242, 0.692744, 0.692662, 0.692775, 0.693678, 0.694355, 0.696198, 0.696051, 0.697792, 0.699669, 0.700447, 0.780942, 0.715179, 0.704184, 1.19113, 0.708257, 0.707792, 0.711022, 0.713308, 0.715563, 0.714889, 0.716659, 0.718609, 0.718337, 0.729416, 1.17457, 0.738748, 0.794124, 0.759177, 0.767614, 0.71899, 0.718323, 0.71985, 0.719902, 0.711613, 0.735016, 1.01888, 0.723542, 0.725894, 0.724847, 0.72561, 0.726063, 0.96053, 1.01973, 0.726195, 0.727718
0.381403, 0.38073, 0.391401, 0.392474, 0.396918, 0.400892, 0.400141, 0.399391, 0.399777, 0.446503, 0.445706, 0.400079, 0.399484, 0.399404, 0.398652, 0.401954, 0.409193, 0.75606, 0.419294, 0.419504, 0.417819, 0.625252, 0.434752, 0.4305, 0.429636, 0.429721, 0.428909, 0.427929, 0.427382, 0.425275, 0.425366, 0.618674, 0.428735, 0.429906, 0.428974, 0.428693, 0.43608, 0.437396, 0.436557, 0.436039, 0.434411, 0.433588, 0.431586, 0.83741, 0.88077, 0.867467, 0.418738, 0.419067, 0.417375, 0.425058, 0.988497, 0.411177, 0.411629, 0.809223, 0.811153, 1.02567, 0.802013, 0.798054, 0.855202, 0.863043, 0.863325, 0.731758, 0.432694, 0.64867, 0.464669, 0.466185, 0.906263, 0.484258, 0.00435722, 0.484778, 0.461106, 0.459852, 0.460685, 0.460395, 0.460876, 0.467124, 0.469725, 0.467868, 0.468897, 0.472463, 0.472912, 0.473189, 0.474558, 0.475336, 0.476391, 0.474555, 0.675375, 0.483994, 0.483892, 0.482662, 0.486627, 0.807215, 0.789388, 0.791572, 0.845876, 0.500148, 0.501555, 0.502082, 0.50344, 0.743802, 0.00420751, 0.726357, 0.544186, 0.574512, 0.527633, 0.527498, 0.552208, 0.529411, 0.532936, 0.989507, 0.987752, 0.985825, 0.986385, 0.984707, 0.552406, 0.633026, 0.56552, 0.714389, 0.628796, 0.970415, 0.967056, 0.798017, 0.564591, 0.563597, 0.905618, 0.895117, 0.871326, 0.889178, 0.594368, 0.835986, 0.824769, 0.870359, 0.924923, 0.767369, 0.80824, 0.806254, 0.848891, 0.850383, 0.932739, 1.00927, 0.939278, 0.954397, 0.954009, 0.840323, 0.841098, 0.847775, 0.844865, 0.81053, 0.704614, 0.70491, 0.703967, 0.743526, 0.783944, 0.918794, 0.876226, 0.871145, 0.945792, 0.796914, 0.977685, 0.781851, 0.860194, 0.841874, 0.884991, 0.752656, 0.908785, 0.64749, 0.647148, 0.717428, 1.02748, 1.03441, 1.02594, 1.01436, 0.656832, 0.657166, 0.657687, 0.65845, 0.663325, 0.662906, 0.660788, 1.26918, 1.2334, 1.2875, 1.21316, 1.26567, 1.3186, 1.26482, 0.67909, 0.679904, 0.679093, 0.68089, 0.682451, 0.683744, 0.687615, 0.688948, 0.690649, 0.694405, 0.69035, 0.690985, 0.693216, 0.694372, 0.695072, 0.696323, 0.696949, 0.698854, 0.696315, 0.695223, 0.696979, 1.24741, 1.06679, 0.701771, 0.708135, 0.710628, 0.710571, 0.714262, 0.714048, 0.717058, 0.718008, 0.717294, 0.708576, 0.708561, 0.709508, 0.698301, 0.700049, 0.708501, 0.717467, 0.719206, 0.720661, 0.720837, 0.71158, 0.712514, 0.713314, 0.722574, 0.723517, 0.724991, 0.725849, 0.726476, 0.00449607, 0.724783, 0.727334, 0.727484
0.377215, 0.618724, 0.555729, 0.00413861, 0.39689, 0.399796, 0.399269, 0.398198, 0.42768, 0.394477, 0.706307, 0.400235, 0.399879, 0.39884, 0.399709, 0.401133, 0.410136, 0.414844, 0.421997, 0.423026, 0.421648, 0.420985, 0.434402, 0.430497, 0.43063, 0.429663, 0.428531, 0.428049, 0.42611, 0.426061, 0.424175, 0.422513, 0.430965, 0.430041, 0.430705, 0.429668, 0.429648, 0.43486, 0.435543, 0.434364, 0.434126, 0.432749, 0.430934, 0.564425, 1.00688, 1.10857, 0.417804, 0.416956, 0.415668, 0.998892, 0.412466, 0.412647, 0.411531, 0.806792, 0.770905, 0.756612, 0.417797, 0.418731, 0.763077, 0.421369, 0.421347, 0.742234, 0.435658, 0.699563, 0.732622, 0.690929, 0.722721, 0.481048, 0.50084, 0.460168, 0.459715, 0.458378, 0.458352, 0.459531, 0.695397, 0.461563, 0.465653, 0.466001, 0.466892, 0.467381, 0.470777, 0.47539, 0.475637, 0.47566, 0.47569, 0.474302, 0.477432, 0.483124, 0.483563, 0.483472, 0.485543, 0.487159, 0.77337, 0.792945, 0.491873, 0.500199, 0.499802, 0.498613, 0.747207, 0.535148, 0.561072, 0.571999, 0.728387, 0.53566, 0.535323, 0.694127, 0.693976, 0.541547, 0.989658, 0.989743, 0.989384, 0.987403, 0.989911, 0.982527, 0.983696, 0.981052, 0.97847, 0.573196, 0.623648, 0.621278, 0.621687, 0.924011, 0.915246, 0.863087, 0.883771, 0.902115, 0.888865, 0.590011, 0.590416, 0.590383, 0.591259, 0.831402, 0.725045, 0.725753, 0.833923, 0.82238, 0.84238, 0.995803, 0.79106, 1.00588, 0.912471, 0.77378, 0.918115, 0.838571, 0.808271, 0.87373, 0.923627, 0.856266, 0.704084, 0.704017, 0.694234, 0.694927, 0.879923, 0.953333, 0.685618, 0.991313, 0.947233, 0.798015, 0.797723, 0.773697, 1.00656, 1.10314, 0.9127, 0.635465, 0.636525, 0.636938, 0.835848, 0.836113, 0.630942, 0.631714, 0.636455, 0.794112, 0.781358, 0.654301, 0.656368, 0.65389, 0.652756, 0.652746, 0.663088, 1.27124, 0.7072, 1.26859, 1.32453, 1.32558, 0.680225, 0.676879, 0.67612, 0.678626, 0.678229, 0.680265, 1.53364, 0.681681, 0.686881, 0.688289, 1.64295, 1.18578, 0.843868, 0.687778, 0.691137, 0.692144, 0.693479, 0.693727, 0.694783, 0.697286, 0.696467, 0.696842, 0.696869, 0.697371, 0.702188, 0.704082, 0.706366, 0.710496, 0.708712, 0.71077, 0.710716, 0.715091, 0.710365, 0.708115, 0.707647, 0.709498, 0.710344, 0.700221, 0.70099, 0.701224, 0.86672, 0.70527, 0.707659, 0.706817, 0.708721, 0.712494, 0.716968, 0.719683, 0.721213, 0.720685, 0.717651, 0.717995, 0.722588, 0.724172, 0.724504, 0.723622
0.68607, 0.658917, 0.658937, 0.511359, 0.00446607, 0.397623, 0.39693, 0.394167, 0.393301, 0.393079, 0.393917, 0.400771, 0.40032, 0.399844, 0.39989, 0.399023, 0.405868, 0.417487, 0.416132, 0.423115, 0.421707, 0.421032, 0.430281, 0.429501, 0.428672, 0.428283, 0.420821, 0.420402, 0.424812, 0.426111, 0.425491, 0.423979, 0.431305, 0.430903, 0.430178, 0.428785, 0.428373, 0.428214, 0.433654, 0.433778, 0.432493, 0.43182, 0.804961, 0.777431, 0.565501, 0.889386, 0.569485, 0.562749, 0.404579, 0.555125, 0.412755, 0.413273, 0.413317, 0.412965, 0.412098, 0.791005, 0.420637, 0.420273, 0.448178, 0.421273, 0.420723, 0.958891, 0.929421, 0.718469, 0.709842, 0.703946, 0.453469, 0.674066, 0.910767, 0.447222, 0.458088, 0.4563, 0.455913, 0.516655, 0.456015, 0.458779, 0.4659, 0.465493, 0.464375, 0.470411, 0.470565, 0.470642, 0.475832, 0.475663, 0.473123, 0.472695, 0.472546, 0.472363, 0.483477, 0.484401, 0.486692, 0.488172, 0.775455, 0.511278, 0.490877, 0.49109, 0.493633, 0.497389, 0.556446, 0.517454, 0.49713, 0.496766, 0.56381, 0.538852, 0.538932, 0.693463, 0.539017, 0.519785, 0.987929, 0.988272, 0.990926, 0.909869, 0.905511, 0.984559, 0.894156, 0.886829, 0.562561, 0.632855, 0.622041, 0.736826, 0.708106, 0.922226, 0.908933, 0.909431, 0.922665, 0.883031, 0.884309, 0.590435, 0.592304, 0.593362, 0.592202, 0.789623, 0.787462, 0.621295, 0.831276, 0.830236, 0.900358, 0.86336, 0.859438, 0.77753, 0.861075, 0.884177, 0.919813, 0.932266, 0.931634, 0.899787, 0.929636, 0.930853, 0.876806, 0.708799, 0.693976, 0.856123, 0.952767, 0.953144, 0.959333, 0.717812, 0.992172, 0.794977, 1.0422, 0.812695, 0.638379, 0.632604, 0.636157, 0.638456, 0.63807, 0.637411, 0.620924, 0.62159, 0.631255, 0.633725, 0.644537, 0.63691, 0.640022, 0.676812, 0.645896, 0.645361, 0.646109, 1.32538, 1.32443, 0.66418, 0.855837, 0.680841, 0.662935, 0.652106, 0.651907, 0.67813, 0.677193, 0.677153, 0.704224, 0.712903, 0.728536, 0.697943, 0.676859, 0.67678, 0.932421, 1.02895, 0.676955, 0.677733, 0.678213, 1.80576, 0.940099, 0.932968, 0.691378, 0.690299, 0.696834, 0.69711, 0.697318, 0.69956, 0.703733, 0.704958, 0.705135, 0.70401, 0.706272, 0.707387, 0.7054, 0.707321, 0.707624, 0.708801, 0.709826, 0.711022, 0.711419, 0.7105, 0.70343, 0.703821, 0.70265, 0.705145, 0.709871, 0.709886, 0.709466, 0.716495, 0.717924, 0.719312, 0.720039, 0.718855, 0.719229, 0.71901, 0.712757, 0.715604, 0.718763, 0.723658
0.370212, 0.368808, 0.368313, 0.45304, 0.556264, 0.459785, 0.555574, 0.393352, 0.390372, 0.393033, 0.401173, 0.401398, 0.401217, 0.400716, 0.399755, 0.406422, 0.406585, 0.416463, 0.415058, 0.421121, 0.421343, 0.442254, 0.428885, 0.428742, 0.669372, 0.424222, 0.421244, 0.420884, 0.42001, 0.418831, 0.417149, 0.426583, 0.430119, 0.430472, 0.427582, 0.427598, 0.429808, 0.427907, 0.431925, 0.870156, 0.886299, 1.12207, 0.402169, 0.569764, 0.579878, 0.56392, 0.398755, 0.397872, 0.407314, 0.652327, 0.411785, 0.414575, 0.413562, 0.413366, 0.412039, 0.416863, 0.416637, 0.416069, 0.41532, 0.414175, 0.41412, 0.414134, 0.695452, 0.714122, 0.705247, 0.662921, 0.455032, 0.739015, 0.925092, 0.447955, 0.904923, 0.725645, 0.455489, 0.00461426, 0.460393, 0.465581, 0.460013, 0.465575, 0.465274, 0.469025, 0.470719, 0.470258, 0.505353, 0.473521, 0.517753, 1.08089, 0.467819, 0.46609, 0.483435, 0.4762, 0.487166, 0.48681, 0.490378, 0.487124, 0.486051, 0.490855, 0.487418, 0.488769, 0.811476, 0.510395, 0.490106, 0.497361, 0.51658, 0.516953, 0.582974, 0.581975, 0.681613, 0.563502, 0.667057, 0.990153, 0.518436, 0.514347, 0.513955, 0.641945, 0.88836, 0.624469, 0.683435, 0.682977, 0.615849, 0.614999, 0.696796, 0.538594, 0.539039, 0.911552, 0.628645, 0.631207, 0.937344, 0.843354, 0.591015, 0.592274, 0.91817, 0.950661, 0.773623, 0.730935, 0.83323, 0.831902, 0.830358, 0.892903, 0.892749, 0.802381, 0.882113, 0.936636, 0.912526, 0.937315, 0.933516, 0.758008, 0.76015, 0.697002, 0.846961, 0.847552, 0.707842, 0.853203, 0.852769, 0.955035, 0.860096, 0.994097, 0.814885, 0.642972, 0.645818, 1.02664, 0.633839, 0.634264, 0.634756, 0.639926, 0.939098, 0.618753, 0.617795, 0.616589, 0.617197, 0.933444, 0.622403, 0.638482, 0.639188, 0.645782, 0.638674, 0.644239, 1.34556, 1.34624, 0.648892, 0.718375, 0.694555, 0.659091, 1.51256, 0.651038, 0.651856, 1.07351, 0.674194, 0.671127, 0.671957, 0.694304, 0.709321, 1.76669, 0.677607, 0.678263, 1.03755, 0.670267, 0.678342, 0.679374, 0.679131, 0.677626, 0.676919, 0.904069, 0.950559, 0.92323, 0.691775, 0.692517, 0.695668, 0.715313, 1.01664, 0.70402, 0.701626, 0.701498, 0.702647, 0.702336, 0.703243, 0.703764, 0.707822, 0.708401, 0.711362, 0.711749, 0.712435, 0.72255, 0.704801, 0.70405, 0.704056, 0.705443, 0.707741, 0.709549, 0.710049, 0.715776, 0.717834, 0.718556, 0.720994, 0.718259, 0.718027, 0.714549, 0.714167, 0.715402, 0.716188, 0.72127
0.37158, 0.370881, 0.369195, 0.368571, 0.556769, 0.410648, 0.392915, 0.393794, 0.391409, 0.390147, 0.394881, 0.394291, 0.400845, 0.399713, 0.399811, 1.04005, 0.785045, 0.416093, 0.416329, 0.415682, 0.415325, 0.556402, 0.684681, 0.436059, 0.416767, 0.414339, 0.414335, 0.420101, 0.42004, 0.418939, 0.418723, 0.418494, 0.418845, 0.424113, 0.424832, 0.424972, 0.424021, 0.425359, 0.425998, 0.887992, 0.901137, 0.403743, 0.403336, 0.402309, 0.408067, 0.407796, 0.398527, 0.39083, 0.390664, 0.401388, 0.400236, 0.399908, 0.401769, 0.402162, 0.417092, 0.418023, 0.417288, 0.416881, 0.415292, 0.414634, 0.416405, 0.415412, 0.414907, 0.426704, 0.427078, 0.427368, 0.639741, 0.738797, 0.918896, 0.918204, 0.904859, 0.998364, 0.457339, 0.456506, 0.565705, 0.871113, 0.462333, 0.464511, 0.466283, 0.466946, 0.465761, 0.814431, 0.787022, 0.801837, 0.457166, 0.552945, 0.46589, 0.46687, 0.611447, 0.762487, 0.669293, 0.48029, 0.480036, 0.487224, 0.487772, 0.48747, 0.487428, 0.487572, 0.487975, 0.52447, 0.4908, 0.489801, 0.777733, 0.760565, 0.515055, 0.682953, 0.566474, 0.565448, 0.500213, 0.884854, 0.918432, 0.715892, 0.65435, 0.654009, 0.646543, 0.515145, 0.711087, 0.512092, 0.512725, 0.531744, 0.623995, 0.53828, 0.539361, 0.66636, 0.631428, 0.632387, 0.833013, 0.936267, 0.605867, 0.974574, 0.625193, 0.959236, 0.792077, 0.853095, 0.84183, 0.688626, 0.918312, 0.894641, 0.95231, 0.822721, 0.821328, 0.804797, 0.736049, 0.91047, 0.908445, 0.906177, 0.87244, 0.810257, 0.848642, 0.847684, 0.843349, 0.832947, 0.825096, 0.838707, 0.732796, 1.00045, 0.642987, 0.643372, 0.643727, 0.634487, 0.634868, 0.635023, 0.637845, 0.638685, 0.626262, 0.609447, 0.617701, 0.617691, 0.617237, 0.621406, 0.620568, 0.620708, 0.616442, 0.631399, 0.670174, 0.639172, 0.824666, 0.638372, 0.805145, 0.667211, 0.690599, 0.704722, 0.656722, 1.41655, 1.56654, 0.660599, 1.13061, 0.666323, 0.672801, 0.667215, 0.680811, 1.0496, 0.676827, 0.676416, 0.954583, 0.670158, 0.672168, 0.677099, 0.676444, 0.674346, 0.676959, 0.679666, 0.680544, 0.711196, 0.683634, 0.684381, 0.686015, 0.686297, 0.715153, 0.728694, 0.701588, 0.702154, 0.703846, 0.703216, 0.702921, 0.702165, 0.703908, 0.703998, 0.710929, 0.710766, 0.710857, 0.722503, 0.701135, 0.702559, 0.703047, 0.703249, 0.697204, 0.707521, 0.708511, 0.710236, 0.715579, 0.735264, 0.715955, 0.717799, 0.714643, 0.714677, 0.716333, 0.716157, 0.71562, 0.718071
0.370221, 0.37054, 0.369884, 0.465645, 0.466435, 0.439516, 0.39404, 0.390963, 0.390123, 0.383771, 0.39669, 0.39393, 0.399315, 0.397967, 0.389336, 0.458308, 0.415132, 0.415978, 0.416909, 0.416788, 0.414852, 0.409406, 0.410506, 0.675055, 0.410249, 0.409419, 0.409532, 0.416796, 0.418423, 0.41829, 0.416837, 0.41973, 0.781241, 0.425141, 0.424767, 0.424885, 0.42398, 0.424012, 0.848508, 0.889791, 0.397713, 0.397753, 0.403326, 0.40294, 0.407204, 0.759538, 0.396564, 0.391767, 0.392421, 0.391352, 0.400055, 0.400292, 0.401402, 0.403506, 0.403236, 0.418648, 0.4179, 0.418203, 0.41683, 0.41387, 0.415662, 0.415263, 0.420917, 0.427725, 0.428663, 0.427626, 0.42757, 0.425077, 0.902046, 0.919207, 0.542153, 1.00965, 1.00561, 0.568659, 0.457702, 0.457956, 0.839368, 0.838942, 0.459957, 0.459339, 0.796315, 0.796545, 0.791298, 0.458567, 0.458403, 0.781855, 0.779917, 0.466145, 0.465721, 0.4732, 0.759553, 0.670976, 0.48237, 0.48684, 0.486916, 0.486326, 0.487737, 0.487194, 0.697923, 0.580168, 0.524716, 0.578643, 0.578783, 0.995611, 0.514786, 0.569985, 0.676777, 0.565722, 0.565533, 0.94477, 0.632626, 1.01496, 1.01334, 0.547232, 0.982729, 0.854021, 0.511214, 0.512133, 0.512343, 0.936955, 0.852485, 0.626923, 0.628067, 0.627709, 0.9165, 0.831663, 0.573846, 0.579658, 0.763511, 0.743396, 0.895231, 0.874691, 0.956496, 0.850389, 0.845286, 0.688535, 0.685311, 0.878075, 0.839536, 0.836837, 0.8978, 0.867118, 0.736704, 0.908709, 0.825871, 0.825347, 0.873125, 0.860277, 0.860901, 0.861187, 0.668045, 0.843529, 0.835428, 0.741741, 0.74305, 1.06371, 0.642596, 0.643632, 1.09325, 1.11889, 0.631715, 0.63195, 0.634959, 0.637237, 0.613115, 0.609998, 0.614697, 0.616457, 0.600648, 0.62144, 0.620906, 0.61431, 0.614393, 0.613247, 0.613757, 0.616105, 0.825495, 0.638699, 0.625125, 0.625844, 0.688055, 0.687526, 0.656245, 0.656218, 1.20824, 0.658106, 0.6614, 0.663019, 0.939949, 0.663538, 0.66385, 1.03064, 0.659703, 0.790748, 0.655237, 0.655974, 0.661056, 0.662343, 0.666802, 0.673638, 0.673557, 0.677693, 0.68052, 0.682876, 0.684873, 0.684721, 0.685116, 0.686669, 0.953857, 0.955197, 0.700804, 0.701435, 0.703592, 0.701908, 0.700504, 0.700161, 0.702682, 0.703497, 0.704519, 0.699155, 0.700679, 0.700503, 0.697802, 0.698014, 0.699029, 0.703216, 0.697524, 0.699298, 0.828564, 0.708197, 0.709964, 0.710816, 0.742942, 0.718751, 0.71681, 0.716851, 0.717208, 0.7176, 0.717605, 0.718572
0.402345, 0.370182, 0.470722, 0.469397, 0.369257, 0.371698, 0.370584, 0.37647, 0.379793, 0.389204, 0.383039, 0.57648, 0.389425, 0.389452, 0.388602, 0.756874, 0.437407, 0.414629, 0.414795, 0.415724, 0.41295, 0.41061, 0.410618, 0.408534, 0.407785, 0.410715, 0.411071, 0.410016, 0.417258, 0.416611, 0.926356, 0.925849, 0.92617, 0.424412, 0.424211, 0.424226, 0.424524, 0.773598, 0.784141, 0.888835, 0.399585, 0.398475, 0.397284, 0.39792, 0.698527, 0.390143, 0.389683, 0.39059, 0.392532, 0.392314, 0.392019, 0.400724, 0.402243, 0.413199, 0.414038, 0.414188, 0.423977, 0.42393, 0.419754, 0.425336, 0.425547, 0.426015, 0.425387, 0.424584, 0.428162, 0.418963, 0.418361, 0.403551, 0.403088, 0.401745, 0.401668, 0.544938, 0.571966, 0.54905, 0.475798, 0.460714, 0.839461, 0.839156, 0.459653, 0.462481, 0.453714, 0.452012, 0.781733, 0.447506, 0.449425, 0.45175, 0.456477, 0.455816, 0.45585, 0.469992, 0.472635, 0.750302, 0.476664, 0.484486, 0.484317, 0.483696, 0.486564, 0.825482, 0.826426, 0.480374, 0.481401, 0.481491, 0.4817, 0.481546, 0.515132, 0.981078, 0.972569, 0.93618, 0.895406, 0.895605, 0.880136, 0.498326, 0.8661, 0.856707, 0.862882, 0.857121, 0.51195, 0.51169, 0.513538, 0.513578, 0.832875, 0.935278, 0.541482, 0.547696, 0.649285, 0.563114, 0.575956, 0.998943, 1.04238, 1.0424, 0.960323, 0.877996, 0.945864, 0.846808, 0.932654, 0.68546, 0.850153, 0.883817, 0.942024, 0.939671, 0.887547, 0.845585, 0.845623, 0.718751, 0.827805, 0.826648, 0.873331, 0.945487, 0.862196, 0.843661, 0.843499, 0.659922, 0.746071, 0.737713, 0.739457, 1.0684, 1.0691, 0.626024, 0.625239, 1.12613, 0.620861, 0.621031, 0.628733, 0.632555, 0.629032, 0.610645, 0.610498, 0.603211, 0.59985, 0.60039, 0.615284, 0.615376, 0.615463, 0.615424, 0.615184, 0.617459, 0.617704, 0.620077, 0.6254, 0.626549, 0.628218, 1.55416, 1.55662, 0.653891, 0.655955, 0.660026, 0.660652, 0.662266, 0.665901, 0.722824, 0.707561, 0.66511, 0.677517, 0.683313, 0.655724, 0.656036, 0.656634, 0.849364, 0.665797, 0.666031, 0.672908, 0.680727, 0.681095, 0.682894, 0.683837, 0.684994, 0.685028, 1.01217, 0.680768, 0.680536, 0.842491, 0.681473, 0.686831, 0.789315, 0.695035, 0.696517, 0.700688, 0.703482, 0.697955, 0.699096, 0.700365, 0.700485, 0.698416, 0.69789, 0.69858, 0.699855, 0.698113, 0.697069, 0.759601, 0.708034, 0.710555, 0.760625, 0.711804, 0.71513, 0.715769, 0.714297, 0.715974, 0.717502, 0.71722, 0.718332
0.498101, 0.479462, 0.482565, 0.47173, 0.370801, 0.370444, 0.371907, 0.371381, 0.384478, 0.384408, 0.385887, 0.382809, 0.389557, 0.389593, 0.388871, 0.749787, 0.401686, 0.727967, 0.414555, 0.41191, 0.411387, 0.41037, 0.410145, 0.409687, 0.408224, 0.408559, 0.409243, 0.404623, 0.40623, 0.408174, 0.926238, 0.410566, 0.925993, 0.421623, 0.422924, 0.421514, 0.741574, 0.64584, 0.989911, 0.798466, 0.399359, 0.39817, 0.396412, 1.1186, 0.768257, 0.391351, 0.391841, 0.39086, 0.393018, 0.392741, 0.632516, 0.66641, 0.411471, 0.414426, 0.414802, 0.414046, 0.424909, 0.425419, 0.42498, 0.427611, 0.427517, 0.427643, 0.427603, 0.425546, 0.424557, 0.421086, 0.419367, 0.404862, 0.404505, 0.404115, 0.402616, 0.532436, 0.425157, 0.844652, 0.843857, 0.844325, 0.462188, 0.461361, 0.811829, 0.80603, 0.80145, 0.451619, 0.446801, 0.445506, 0.446243, 0.451724, 0.456921, 0.456403, 0.456829, 0.459995, 0.474034, 0.470797, 0.478341, 0.478068, 0.479554, 0.48118, 0.480647, 0.480464, 0.481028, 0.481788, 0.48147, 0.482779, 0.482941, 0.481717, 0.482826, 0.483263, 0.483331, 0.880749, 0.479219, 0.478029, 0.476974, 0.494506, 0.496035, 0.83178, 0.8387, 0.518135, 0.510543, 0.512016, 0.514074, 0.51448, 0.515531, 0.826241, 0.542338, 0.545796, 1.17389, 0.566595, 1.08133, 0.577841, 0.739549, 1.01505, 0.982, 0.970907, 1.09807, 0.861289, 0.871396, 0.912996, 0.911659, 0.941377, 0.856345, 0.887297, 0.930536, 0.843758, 0.900863, 0.902186, 0.896277, 0.964869, 0.9643, 0.92505, 0.846967, 0.754537, 0.704212, 0.707547, 0.739577, 0.757102, 0.624788, 1.12751, 0.628507, 0.625537, 0.620561, 0.619333, 0.619953, 0.622236, 0.620974, 0.625494, 0.61775, 0.634939, 0.604354, 0.605243, 0.601472, 0.602012, 0.613763, 0.614054, 0.614099, 0.614633, 0.614564, 0.667982, 0.618637, 0.619074, 0.62417, 0.628604, 0.629513, 0.629572, 0.629132, 0.650754, 0.654191, 0.659283, 0.661322, 0.63157, 1.03879, 0.702265, 0.700983, 0.673239, 0.814714, 0.653196, 0.656376, 0.657025, 0.657239, 0.93948, 0.666029, 0.666623, 0.669392, 0.673835, 0.674718, 0.919848, 0.681515, 0.683504, 0.665827, 0.664595, 0.66604, 0.926842, 0.678019, 0.678567, 0.681082, 1.04636, 0.693059, 0.691512, 0.737534, 0.733069, 0.698794, 0.700242, 0.701757, 0.701429, 0.700264, 0.697532, 0.697486, 0.700831, 0.686679, 0.686968, 0.686838, 0.770203, 0.774204, 0.755889, 0.7497, 0.711985, 0.714342, 0.714013, 0.713641, 0.714596, 0.715519, 0.716322
0.587351, 0.557384, 0.474888, 0.371202, 0.372238, 0.372119, 0.371276, 0.37198, 0.375221, 0.391212, 0.379118, 0.378624, 0.379272, 0.388582, 0.489866, 0.400963, 0.4022, 0.405648, 0.413165, 0.411349, 0.401341, 0.401109, 0.40962, 0.410323, 0.408695, 0.406514, 0.40517, 0.404053, 0.405903, 0.407719, 0.410536, 0.410812, 0.420287, 0.420959, 0.421635, 0.420552, 0.726099, 0.5458, 0.643558, 0.392763, 0.392264, 0.389956, 0.390384, 0.397016, 0.396337, 0.396692, 0.390942, 0.398488, 0.399753, 0.403464, 0.407464, 0.407478, 0.413891, 0.415653, 0.415057, 0.414142, 0.424876, 0.424842, 0.424628, 0.427926, 0.428089, 0.428704, 0.42807, 0.427914, 0.425227, 0.420243, 0.419533, 0.404863, 0.404953, 0.404665, 0.411232, 0.862242, 0.715348, 0.852157, 0.845561, 0.844176, 0.833187, 0.834718, 0.821872, 0.809828, 0.7857, 0.447677, 0.447692, 0.44808, 0.44785, 0.44826, 0.449646, 0.456851, 0.457002, 0.459907, 0.461758, 0.722187, 0.722985, 0.479752, 0.474609, 0.474916, 0.475044, 0.474592, 0.481798, 0.482453, 0.482651, 0.48306, 0.482991, 0.483505, 0.483451, 0.484551, 0.483593, 0.478702, 0.479467, 0.479779, 0.4785, 0.495188, 0.496498, 0.496479, 0.742598, 0.502966, 0.570807, 0.626341, 0.514268, 0.51573, 0.619306, 0.843141, 0.678582, 0.554695, 0.601026, 1.0123, 0.968989, 1.02962, 0.990191, 0.989024, 0.829586, 0.783384, 0.934912, 0.863271, 0.949304, 0.947233, 0.866871, 0.700252, 0.688011, 0.690211, 0.718126, 0.74291, 0.900703, 0.901115, 0.963748, 0.964383, 0.964304, 0.824655, 0.776076, 0.996545, 0.993274, 0.994938, 0.612122, 0.616897, 0.614133, 0.6215, 0.621662, 0.623109, 0.622511, 0.620526, 0.619597, 0.619903, 0.620881, 0.628103, 0.614075, 0.614029, 0.604425, 0.604444, 0.603183, 0.603291, 0.607695, 0.608203, 0.609744, 0.667176, 0.645718, 0.669579, 0.618934, 0.617781, 0.617995, 0.630756, 0.629583, 0.630079, 0.628621, 0.627676, 0.625282, 0.653423, 1.13128, 0.659238, 0.658842, 0.714756, 0.691868, 0.674699, 1.06068, 0.646243, 0.652893, 0.656501, 0.656438, 0.95407, 0.943256, 0.943256, 0.673289, 0.671373, 0.674902, 0.672594, 0.661608, 0.663216, 0.665625, 0.666593, 0.667092, 0.672841, 0.67512, 0.67517, 0.673949, 0.902414, 0.690453, 0.690024, 0.74036, 0.70512, 0.698092, 0.700356, 0.700993, 0.700662, 0.701782, 0.696803, 0.696826, 0.690595, 0.686344, 0.688152, 0.687964, 0.694586, 0.696733, 1.44424, 0.878932, 0.754487, 0.721567, 0.713285, 0.713644, 0.713749, 0.714955, 0.716702
0.484514, 0.460304, 0.670127, 0.579398, 0.372921, 0.370745, 0.37216, 0.371602, 0.497425, 0.380878, 0.380945, 0.379724, 0.3782, 0.393857, 0.394017, 0.439213, 0.407175, 0.406286, 0.406763, 0.406561, 0.404918, 0.403907, 0.402639, 0.404296, 0.403938, 0.403604, 0.404516, 0.404302, 0.404318, 0.407818, 0.449931, 0.745601, 0.420725, 0.421038, 0.420335, 0.673377, 0.614924, 0.399452, 0.399894, 0.393264, 0.392189, 0.389673, 0.391222, 0.396821, 0.397257, 0.398338, 0.40116, 0.399803, 0.40269, 0.402933, 0.403254, 0.409624, 0.408391, 0.412333, 0.415013, 0.735886, 0.423794, 0.425124, 0.426484, 0.427212, 0.427431, 0.427295, 0.429036, 0.428605, 0.428762, 0.425429, 0.42142, 0.417334, 0.417814, 0.413332, 0.412415, 0.414864, 0.415898, 0.417222, 0.427127, 0.835566, 0.83479, 0.834352, 0.45317, 0.800143, 0.794385, 0.447262, 0.446808, 0.446375, 0.446746, 0.77344, 0.450743, 0.45186, 0.46962, 0.462078, 0.629528, 0.734821, 0.721275, 0.491474, 0.475642, 0.476374, 0.475824, 0.475331, 0.474112, 0.474214, 0.481783, 0.481335, 0.482997, 0.483453, 0.483285, 0.483231, 0.483076, 0.478972, 0.479068, 0.479197, 0.478978, 0.536902, 0.49509, 0.49437, 0.55308, 0.504034, 0.767821, 0.511537, 0.570191, 0.623005, 0.619541, 0.621063, 0.62589, 1.0943, 1.0971, 0.797438, 0.959535, 1.01261, 0.990835, 0.890373, 0.938851, 0.91919, 0.88452, 0.597728, 0.600859, 0.928387, 0.928188, 0.655336, 0.679593, 0.652223, 0.652524, 0.746751, 0.794958, 0.885681, 0.716089, 0.713796, 0.712106, 0.606648, 0.989879, 0.608278, 0.993817, 0.611658, 0.613369, 0.61411, 0.614388, 0.614909, 0.624125, 0.624144, 0.622882, 0.620622, 0.619721, 0.618796, 1.2407, 0.614005, 0.610527, 0.607369, 1.08148, 0.601538, 0.601684, 0.597377, 0.596586, 0.707937, 0.610135, 0.63187, 0.628508, 0.62479, 0.618375, 0.618465, 0.619159, 0.619865, 0.629547, 0.629544, 0.628464, 0.626211, 0.625108, 0.625296, 0.624958, 0.623528, 0.659191, 0.694643, 0.701232, 0.70127, 0.634233, 0.635178, 0.63662, 0.955419, 0.951577, 0.950873, 0.674727, 0.705797, 0.68003, 0.679484, 0.671282, 0.660373, 0.661052, 0.663236, 0.664813, 0.666923, 0.668584, 0.670915, 0.674357, 0.674637, 0.675034, 0.689589, 0.68472, 0.686045, 0.699279, 0.696117, 0.697685, 0.699541, 0.69755, 0.693091, 0.700055, 0.695312, 0.693808, 0.688428, 0.688906, 0.690322, 0.689428, 0.693851, 0.694735, 1.40977, 1.40923, 0.718031, 0.707956, 0.707535, 0.708873, 0.710228, 0.703954, 0.703863
0.398151, 0.379537, 0.386811, 0.371811, 0.370998, 0.371909, 0.369733, 0.459479, 0.52588, 0.381211, 0.381163, 0.380116, 0.378856, 0.469392, 0.470018, 0.747201, 0.402986, 0.400565, 0.407457, 0.406899, 0.406284, 0.405091, 0.403868, 0.4051, 0.405008, 0.404264, 0.405137, 0.406329, 0.406972, 0.408299, 0.586792, 0.595272, 0.420229, 0.421224, 0.419493, 0.638713, 0.636406, 0.400258, 0.399544, 0.390651, 0.390427, 0.390036, 0.387695, 0.396115, 0.880514, 0.399669, 0.401274, 0.401762, 0.400902, 0.402946, 0.405801, 0.406707, 0.411543, 0.413102, 0.41395, 0.417497, 0.644708, 0.422633, 0.425533, 0.4263, 0.425962, 0.427536, 0.430566, 0.429843, 0.42971, 0.429462, 0.420732, 0.419798, 0.417957, 0.415627, 0.414462, 0.414794, 0.415313, 0.416209, 0.41629, 0.450404, 0.452349, 0.835364, 0.455338, 0.793802, 0.441858, 0.44043, 0.44137, 0.439524, 0.438429, 0.438609, 0.448918, 0.448338, 0.448758, 0.721067, 0.718768, 0.719905, 0.72123, 0.492946, 0.475652, 0.475713, 0.475688, 0.475513, 0.474329, 0.473008, 0.479692, 0.538542, 0.676621, 0.482491, 0.675777, 0.547617, 0.4775, 0.47711, 0.477961, 0.47949, 0.543959, 0.54206, 0.542688, 0.66615, 0.6604, 0.544655, 0.770839, 1.06013, 1.05954, 0.632888, 1.03557, 0.740898, 0.712004, 0.701787, 0.846268, 1.0392, 0.553877, 0.899167, 0.859651, 0.944979, 0.583956, 0.88471, 0.707703, 0.596381, 0.598357, 0.652023, 0.653886, 0.838911, 0.645953, 0.761778, 0.760927, 0.800292, 0.799949, 0.795855, 0.838286, 0.803819, 0.80249, 0.607697, 0.607148, 0.609325, 0.609715, 0.610679, 0.612752, 0.614408, 0.613941, 0.614986, 0.621148, 0.622245, 0.628599, 1.15268, 1.14449, 0.893773, 0.606365, 0.604044, 0.606062, 0.607281, 1.45436, 0.594766, 0.597359, 0.598444, 0.594383, 0.595056, 0.591209, 0.606522, 0.00428544, 0.607996, 0.610283, 0.610572, 0.611052, 0.624766, 1.15994, 0.627892, 0.62751, 0.62587, 0.625248, 0.625022, 0.624186, 0.624284, 0.62484, 0.624971, 0.628887, 0.63271, 0.634913, 0.636079, 0.633454, 0.942804, 0.646267, 0.648367, 0.648945, 0.649224, 0.901974, 0.904983, 0.991902, 0.661537, 0.66211, 0.662659, 0.665926, 0.668404, 0.669298, 0.671291, 0.673068, 0.675667, 0.676614, 0.676782, 0.898552, 0.68645, 0.697725, 0.691717, 0.692474, 0.693593, 0.693487, 0.69313, 0.693424, 0.693697, 0.68848, 0.689403, 0.690909, 0.690602, 0.681899, 0.682861, 0.683662, 0.685544, 0.714885, 0.714227, 0.713961, 0.704138, 0.704624, 0.704959, 0.705928, 0.707306
0.391495, 0.45589, 0.455506, 0.369893, 0.371447, 0.370134, 0.36929, 0.509924, 0.380791, 0.381332, 0.381752, 0.380622, 0.379996, 0.37931, 1.26376, 1.05396, 0.401591, 0.401006, 0.406375, 0.406254, 0.405718, 0.405635, 0.405465, 0.405126, 0.404019, 0.411145, 0.410274, 0.407891, 0.407493, 0.407018, 0.431703, 0.724534, 0.420117, 0.418079, 0.415557, 0.63221, 0.732583, 0.400163, 1.00563, 0.386404, 0.389266, 0.388641, 0.388355, 0.514848, 0.391425, 0.392086, 0.4006, 0.401175, 0.401555, 0.401258, 0.401911, 0.406203, 0.405553, 0.454565, 0.418242, 0.41796, 0.422854, 0.42426, 0.424868, 0.425407, 0.424923, 0.426337, 0.429361, 0.430978, 0.430954, 0.430632, 0.422073, 0.421138, 0.419147, 0.41748, 0.414623, 0.413906, 0.415963, 0.416968, 0.421317, 0.714574, 0.80794, 0.459106, 0.434963, 0.435462, 0.440021, 0.442316, 0.442232, 0.440794, 0.439806, 0.438464, 0.449213, 0.450448, 0.44986, 0.450288, 0.454958, 0.719243, 0.565301, 0.565323, 0.470451, 0.475199, 0.474144, 0.562465, 0.463997, 0.471469, 0.6837, 0.683955, 0.678194, 0.752797, 0.911702, 0.468998, 0.910103, 0.856975, 0.908291, 0.86862, 0.663873, 0.842748, 0.518647, 0.556403, 0.496603, 0.543401, 0.545654, 1.1118, 0.547056, 1.10634, 1.03568, 0.529537, 0.531211, 0.986009, 0.985437, 1.00446, 0.646073, 0.781045, 0.949291, 0.944879, 0.677847, 0.928518, 0.94313, 0.597811, 0.59826, 0.664903, 0.668767, 0.726608, 0.726271, 0.759913, 0.759882, 0.756534, 0.797751, 0.804744, 0.806691, 0.805549, 0.805193, 0.602451, 0.653765, 0.763155, 0.839742, 0.608448, 0.612582, 0.613602, 0.797208, 0.936333, 0.609402, 0.610311, 0.610086, 1.15274, 1.15266, 0.60807, 0.606842, 0.606093, 0.605653, 0.606299, 1.01318, 0.595448, 0.596, 0.595279, 0.59627, 0.595167, 0.58354, 0.583341, 0.639892, 0.637027, 0.61056, 0.610121, 0.612454, 1.65386, 0.621365, 0.623841, 0.625825, 0.626808, 0.627779, 0.626131, 0.624345, 0.624151, 0.624193, 0.622877, 0.62213, 0.629184, 0.63368, 0.63535, 0.629788, 0.634336, 0.647314, 0.648692, 0.6495, 0.649413, 0.646652, 0.659992, 0.660375, 0.662518, 0.662256, 0.662726, 0.663834, 0.668019, 0.670008, 0.716109, 0.932541, 1.29517, 0.689927, 0.690478, 0.680406, 0.69761, 0.68872, 0.692697, 0.69345, 0.693569, 0.69362, 0.693734, 0.693549, 0.695044, 0.690222, 0.690704, 0.6906, 0.693172, 0.683742, 0.68521, 0.684474, 0.685875, 0.68625, 0.694484, 0.695089, 0.703781, 0.70414, 0.705836, 0.705881, 0.706425
0.582579, 0.541239, 0.366828, 0.365728, 0.36879, 0.369933, 0.367256, 0.378708, 0.378005, 0.382475, 0.382929, 0.382784, 0.380989, 0.380074, 0.378301, 0.825852, 0.400402, 0.402298, 0.405112, 0.40618, 0.405147, 0.403474, 0.40361, 0.404633, 0.41069, 0.410786, 0.41149, 0.408913, 0.408141, 0.407121, 0.427766, 0.423377, 0.418591, 0.414331, 0.597969, 0.604036, 0.602907, 0.487377, 0.387261, 0.386406, 0.385694, 0.385721, 0.909427, 0.675022, 0.393669, 0.393501, 0.399785, 0.400731, 0.402654, 0.402687, 0.404323, 0.403721, 0.00454593, 0.606157, 1.03012, 0.418518, 0.00430332, 0.425116, 0.426316, 0.426434, 0.425382, 0.425066, 0.750961, 0.431341, 0.431578, 0.430645, 0.425312, 0.4222, 0.419999, 0.419577, 0.417738, 0.415175, 0.416056, 0.812094, 0.820682, 0.717568, 0.715996, 0.429803, 0.436988, 0.435308, 0.441005, 0.44169, 0.44148, 0.441479, 0.441814, 0.442982, 0.448207, 0.448704, 0.451403, 0.455102, 0.720512, 0.566034, 0.447349, 0.447407, 0.566057, 0.521487, 0.459903, 0.459529, 0.468596, 0.466262, 0.466327, 0.685396, 1.00798, 0.467642, 0.467263, 0.469446, 0.465976, 0.916625, 0.460107, 0.905291, 0.921556, 0.483236, 1.10766, 0.515712, 0.515684, 0.521157, 1.11241, 1.10858, 0.549538, 1.03616, 0.526262, 0.53198, 0.529747, 0.987963, 0.986676, 0.570618, 0.621706, 0.548166, 0.95374, 0.875347, 0.82946, 0.828612, 0.839858, 0.613112, 0.665997, 0.703691, 0.704523, 0.656138, 0.619257, 0.872829, 0.741399, 0.742931, 0.71238, 0.598063, 0.598421, 0.597045, 0.592245, 0.593073, 0.590408, 0.667463, 0.671273, 1.20328, 1.26427, 0.97053, 0.601988, 0.602296, 0.610253, 0.61053, 0.610626, 0.609186, 0.616312, 0.610796, 0.612498, 0.604256, 0.604412, 0.618026, 0.618891, 0.595605, 0.596279, 0.59516, 0.594153, 0.588167, 0.588075, 0.586999, 0.59505, 0.599502, 0.60783, 0.606277, 0.608823, 0.60949, 0.610274, 0.610822, 0.615833, 0.625927, 0.624637, 0.625395, 0.624529, 0.62316, 0.624648, 0.624291, 0.623448, 0.623301, 0.623204, 0.641555, 0.916223, 0.912135, 0.813745, 0.647705, 0.649511, 0.649159, 0.647626, 0.648466, 0.847843, 0.660167, 0.662045, 0.662452, 0.656808, 0.66445, 0.664004, 0.797612, 1.41289, 0.688796, 0.674355, 0.675419, 0.680306, 0.684519, 0.688116, 0.691657, 0.692238, 0.691203, 0.687145, 0.687769, 0.68977, 0.684572, 0.686432, 0.68863, 0.690333, 0.690544, 0.684983, 0.686998, 0.686738, 0.686742, 0.708127, 0.707359, 0.69641, 0.69811, 0.704443, 0.708051, 0.707883, 0.709233
0.555662, 0.359373, 0.355272, 0.356626, 0.364115, 0.362722, 0.376091, 0.369801, 0.373404, 0.38069, 0.380583, 0.382382, 0.38331, 0.381388, 0.387685, 0.386688, 0.665342, 0.398443, 0.399045, 0.405987, 0.405656, 0.404856, 0.40435, 0.405397, 0.412145, 0.412556, 0.410686, 0.408701, 0.407059, 0.406563, 0.609104, 0.421003, 0.643571, 0.641861, 0.511446, 0.512209, 0.593428, 0.505906, 0.78439, 0.385598, 0.384659, 0.615704, 0.512085, 0.493486, 0.812024, 0.392167, 0.389338, 0.399593, 0.400098, 0.400095, 0.401881, 0.404549, 0.409505, 0.878868, 0.416051, 0.785043, 1.00687, 0.771175, 0.425998, 0.42598, 0.425262, 0.424718, 0.748873, 0.754918, 0.431813, 0.43146, 0.425324, 0.422981, 0.421578, 0.42158, 0.42033, 0.424052, 0.417869, 0.418399, 0.955231, 0.680846, 0.4299, 0.431369, 0.432012, 0.43285, 0.432305, 0.436182, 0.441504, 0.440783, 0.441968, 0.445178, 0.446258, 0.44653, 0.448715, 0.442584, 0.525205, 0.526051, 0.448427, 0.448591, 0.745934, 0.745416, 0.460729, 0.460614, 0.466152, 0.468428, 0.468269, 0.466551, 0.468844, 0.468934, 0.46812, 0.465459, 0.452546, 0.736066, 0.462337, 1.01571, 0.723393, 1.11066, 1.10978, 0.902473, 0.931978, 0.51899, 1.24856, 1.14005, 0.54163, 1.03682, 0.528546, 0.528761, 0.528479, 0.528103, 0.556101, 0.583059, 0.624437, 0.956629, 0.879953, 0.939603, 0.829701, 0.828683, 0.832646, 0.835337, 0.835981, 0.666985, 0.840626, 0.751973, 0.753598, 0.817584, 0.817598, 0.81097, 0.804069, 0.738301, 1.19914, 0.730369, 0.711554, 0.593363, 0.591512, 0.669342, 0.673643, 0.615281, 1.20442, 0.601806, 0.602527, 0.602811, 0.607447, 0.606194, 0.604461, 0.603768, 0.616289, 0.615345, 0.615929, 0.618205, 0.618315, 0.961953, 0.954527, 0.595796, 0.593772, 0.593315, 0.583804, 0.586094, 0.588477, 0.592985, 0.592354, 0.59833, 0.600361, 0.601933, 0.607521, 0.609028, 0.610656, 0.610438, 0.613223, 0.622471, 0.622461, 0.618418, 0.624248, 0.624989, 0.624135, 0.623798, 0.62359, 0.622769, 0.62095, 0.614485, 0.616517, 0.617544, 0.836187, 0.646653, 0.647286, 0.639393, 0.647416, 0.64873, 0.649602, 0.648208, 0.649819, 1.11269, 0.656884, 1.02403, 0.664435, 0.669537, 0.669909, 1.1474, 0.961601, 0.690957, 0.682357, 0.686586, 0.683518, 0.683886, 0.683508, 0.683044, 0.687598, 0.688885, 0.690619, 0.690135, 0.686637, 0.689695, 0.689897, 0.689889, 0.687424, 0.683593, 0.684342, 0.68619, 1.15687, 0.698882, 0.697207, 0.701921, 0.705504, 0.70734, 0.707992, 0.710865
0.353609, 0.355406, 0.354734, 0.355973, 0.355388, 0.365192, 0.36462, 0.532516, 0.370005, 0.373913, 0.830167, 0.383, 0.381979, 0.388877, 0.388016, 0.387037, 0.385065, 0.399724, 0.400369, 0.402359, 0.404378, 0.404335, 0.404831, 0.410616, 0.412201, 0.412206, 0.411725, 0.408438, 0.40646, 0.933124, 0.931904, 0.93226, 0.711609, 0.513792, 0.606794, 0.719064, 0.594372, 0.606137, 0.698718, 0.69718, 0.507482, 0.506809, 0.504948, 0.741745, 0.579446, 0.580673, 0.399345, 0.673346, 0.399512, 0.399661, 0.398507, 0.401754, 0.833128, 0.832526, 0.40633, 0.789063, 0.415013, 0.416818, 0.417807, 0.424026, 0.424124, 0.732954, 0.867495, 0.841537, 0.430956, 0.430383, 0.428922, 0.423712, 0.423754, 0.423856, 0.422819, 0.424228, 0.42115, 0.420419, 0.778379, 0.777963, 0.431547, 0.432138, 0.433211, 0.433817, 0.434082, 0.43353, 0.932866, 0.972944, 0.74273, 0.545513, 0.745597, 0.745472, 0.438921, 0.438181, 0.752708, 0.752781, 0.448085, 0.448069, 0.908863, 0.445333, 0.459523, 0.459247, 0.953321, 0.467727, 0.467074, 0.461082, 0.460671, 0.453715, 0.453329, 0.453448, 0.453862, 0.453276, 0.731831, 0.560329, 1.11178, 1.11231, 1.23339, 1.24412, 1.15056, 0.519937, 1.13217, 1.01815, 1.12692, 0.528034, 0.529011, 0.529291, 0.528829, 0.528093, 0.850528, 0.935431, 0.527171, 0.527573, 0.877772, 0.642176, 0.936082, 0.644648, 0.777694, 0.830081, 0.829145, 0.793534, 0.840117, 0.838814, 0.815256, 0.81829, 0.819981, 0.57912, 0.577187, 0.734785, 0.70051, 0.942877, 0.693209, 0.589239, 0.589603, 1.18241, 0.880036, 0.650232, 0.614914, 0.601444, 0.602993, 0.603526, 0.603627, 0.594764, 0.59576, 0.60332, 0.600813, 1.00208, 1.00132, 0.619684, 0.603935, 0.603828, 0.60392, 0.601219, 0.601062, 0.584166, 0.585972, 0.585692, 0.587696, 0.592545, 0.592313, 0.598175, 0.601289, 0.601057, 0.606163, 0.609461, 0.610674, 0.60744, 0.60833, 0.615549, 0.619224, 0.6193, 0.619317, 0.619478, 0.623235, 0.623199, 0.614103, 0.615538, 0.610711, 0.611344, 0.618082, 0.618256, 0.635807, 0.891899, 0.63809, 0.637798, 0.637926, 0.639297, 0.642884, 0.643395, 0.646609, 0.647265, 0.64849, 0.655466, 0.656097, 1.59384, 0.773049, 1.59756, 0.676285, 0.678031, 0.679734, 0.683584, 0.681017, 0.678696, 0.679909, 0.681117, 0.684548, 0.690786, 0.69089, 0.692175, 0.692143, 0.6885, 0.689488, 0.683966, 0.683119, 0.683281, 0.683488, 0.786939, 0.920928, 0.69147, 0.69499, 0.701787, 0.701713, 0.704687, 0.708592, 0.710817
0.35529, 0.355671, 0.356064, 0.35532, 0.355785, 0.361984, 0.365074, 0.362797, 0.517003, 0.516762, 0.831832, 0.615596, 0.373002, 0.386964, 0.388996, 0.385555, 0.383968, 0.399819, 0.400467, 0.402841, 0.403839, 0.403491, 0.402279, 0.402703, 0.411877, 0.411522, 0.410124, 0.409243, 0.407741, 0.562802, 0.580473, 0.631361, 0.631606, 0.364354, 0.364216, 0.363641, 0.737022, 0.60726, 0.606717, 0.588481, 0.598556, 0.853321, 0.586628, 0.62186, 0.737047, 0.385902, 0.559623, 0.58072, 0.398065, 0.397309, 0.399811, 0.52622, 0.555643, 0.407421, 0.409627, 0.409207, 0.416877, 0.415839, 0.414517, 0.421185, 0.687599, 0.734382, 0.858724, 0.840713, 0.427491, 0.427189, 0.431003, 0.424404, 0.423792, 0.422255, 0.42407, 0.425491, 0.424634, 0.421877, 0.421552, 0.913618, 0.427308, 0.431099, 0.4317, 0.432316, 0.433181, 1.0478, 0.740982, 0.740469, 0.78345, 0.750787, 0.934934, 0.792431, 0.439718, 0.439915, 0.439297, 0.430558, 0.430901, 0.676645, 0.740141, 0.740869, 0.445138, 0.732892, 0.460247, 0.460326, 0.462056, 0.461924, 0.461682, 0.459162, 0.45442, 0.454319, 0.45418, 0.636215, 0.466365, 0.00460161, 0.55659, 0.473278, 0.813479, 0.940522, 1.09598, 0.732533, 0.51071, 0.511366, 0.519844, 0.525355, 0.525894, 0.52984, 0.528119, 0.520468, 0.522567, 0.524446, 0.527748, 0.528456, 0.97173, 0.658756, 0.707242, 0.936215, 0.835951, 0.811634, 0.644751, 0.60049, 0.604526, 0.732453, 0.580912, 0.567648, 0.567995, 0.569269, 0.569909, 0.570455, 0.570979, 0.569228, 0.570563, 0.615198, 1.26955, 1.29272, 0.764003, 0.588013, 0.590698, 0.688015, 0.594874, 0.597202, 0.593761, 0.595861, 0.597146, 0.595975, 0.595909, 0.765174, 0.584877, 0.580786, 0.580371, 0.578699, 0.579239, 0.957768, 0.582829, 0.585992, 0.585594, 0.586253, 0.580547, 0.881727, 0.59429, 0.597424, 0.600301, 0.604178, 0.607608, 0.610423, 0.610841, 0.609438, 0.609069, 0.643349, 0.617235, 0.61819, 0.617256, 0.653014, 0.641145, 0.715291, 0.61399, 0.613869, 0.613208, 0.613114, 0.612797, 0.615674, 0.680121, 0.678198, 0.636842, 0.638097, 0.638621, 0.641863, 0.64419, 0.644279, 0.647445, 0.649143, 0.64949, 0.96112, 0.665505, 0.665645, 0.669161, 0.670439, 0.675461, 0.6782, 0.679339, 0.680123, 0.680416, 0.680318, 0.681264, 0.682087, 0.686987, 0.68876, 0.690903, 0.691309, 0.694031, 0.695525, 0.68451, 0.683328, 0.685032, 0.685106, 0.686105, 0.686656, 1.12677, 0.692409, 0.697093, 0.69984, 0.700355, 0.705554, 0.70554, 0.707885
0.355209, 0.355803, 0.355036, 0.358666, 0.358935, 0.362224, 0.361813, 0.363349, 0.362688, 0.369228, 0.369399, 0.373379, 0.373529, 0.61036, 0.386951, 0.383923, 0.382339, 0.541639, 0.398328, 0.403019, 0.403016, 0.401575, 0.659749, 0.657434, 0.405277, 0.410206, 0.409881, 0.635659, 0.913659, 0.631856, 0.64188, 0.631311, 0.631663, 0.365962, 0.366622, 0.365291, 0.363323, 0.617239, 0.617332, 0.615535, 0.608435, 0.855188, 0.600643, 0.381165, 0.60852, 0.606864, 0.386735, 0.386176, 0.547148, 0.393918, 0.39289, 0.392723, 0.552535, 0.408184, 0.406506, 0.409775, 0.416933, 0.416207, 0.415096, 0.841438, 0.677048, 0.609135, 0.511073, 0.699046, 0.651797, 0.787371, 0.418718, 0.419857, 0.42154, 0.421434, 0.424637, 0.425, 0.424706, 0.423348, 0.422162, 0.422718, 0.42579, 0.428805, 0.430826, 0.430843, 0.743803, 0.935105, 0.93421, 0.933484, 0.932046, 0.922701, 0.982324, 0.547829, 0.742317, 0.439336, 0.534766, 0.428351, 0.427773, 0.42671, 0.426674, 0.659071, 0.656003, 0.734752, 0.455615, 0.461461, 0.461967, 0.462339, 0.463105, 0.463812, 0.453363, 0.466888, 0.515553, 0.725891, 0.467713, 0.466832, 0.71257, 0.475494, 0.474861, 0.705398, 0.957626, 0.568743, 1.02954, 0.782002, 0.520476, 0.518692, 0.525647, 0.525115, 0.521568, 0.521228, 0.520929, 0.524844, 0.838364, 0.535081, 0.669226, 0.540307, 0.708517, 0.59799, 0.703681, 0.703386, 0.600619, 0.601093, 0.835722, 0.70522, 0.574185, 0.568374, 0.569232, 0.570435, 0.571506, 0.571726, 0.571447, 0.571759, 0.572582, 0.573607, 0.575064, 0.576014, 0.575819, 0.576165, 0.708261, 0.59317, 0.592613, 0.592983, 0.594451, 0.595654, 0.594474, 1.04729, 0.595834, 0.592175, 0.582134, 0.581285, 0.580522, 0.579539, 0.579376, 0.579203, 0.580108, 0.583081, 0.581561, 0.579433, 0.582235, 0.581892, 0.597594, 0.594612, 0.595146, 0.59598, 0.603845, 0.611112, 0.611833, 0.609415, 0.609366, 0.608415, 0.63185, 0.650504, 0.632505, 0.638332, 0.635432, 0.637301, 0.642937, 0.635043, 0.612509, 0.612861, 0.710499, 0.672297, 0.65902, 0.683575, 0.635749, 0.637083, 0.63819, 0.659004, 0.651705, 0.652776, 0.654462, 0.657561, 0.65888, 0.66056, 0.663001, 0.663139, 0.669567, 0.672433, 0.672458, 0.732424, 0.787214, 0.747993, 0.679199, 0.679283, 0.680166, 0.704953, 0.686502, 0.690156, 0.690418, 0.692344, 0.694111, 0.696957, 0.696522, 0.684479, 0.684893, 0.685677, 0.686447, 0.68863, 0.690449, 0.69262, 0.694291, 0.69833, 0.700672, 0.703192, 0.703034, 0.706666
0.352741, 0.355368, 0.35619, 0.356498, 0.359618, 0.361855, 0.362952, 0.364266, 0.363734, 0.366736, 0.412295, 0.526133, 0.471568, 0.463345, 0.384536, 0.383213, 0.567084, 0.648412, 0.684303, 0.760686, 0.668507, 0.666546, 0.811346, 0.659623, 0.570202, 0.621804, 0.687043, 0.6353, 0.635438, 0.654096, 0.629119, 0.633331, 0.63646, 0.35596, 0.355935, 0.366441, 0.362315, 0.613194, 0.628602, 0.617826, 0.348388, 0.855246, 0.445101, 0.854623, 0.677009, 0.386703, 0.386192, 0.717921, 0.385948, 0.392763, 0.394261, 0.393662, 0.68045, 0.407003, 0.40464, 0.410121, 0.414806, 0.414479, 0.631663, 0.63051, 0.629321, 0.393071, 0.393186, 0.652022, 0.652142, 0.787667, 0.805368, 0.772112, 0.405637, 0.411083, 0.412198, 0.412648, 0.414778, 0.41548, 0.419516, 0.423904, 0.42749, 0.428736, 0.749303, 0.745211, 0.746009, 0.935267, 0.935253, 0.473589, 0.746351, 0.667403, 0.664513, 0.74466, 0.424753, 0.425411, 0.426129, 0.429456, 0.429736, 0.428165, 0.427329, 0.640007, 0.508392, 0.456475, 0.457554, 0.457615, 0.462284, 0.462169, 1.00596, 1.15858, 0.46795, 0.469042, 0.47021, 0.470827, 0.722382, 1.09118, 0.908639, 0.476379, 0.476362, 0.521535, 0.66661, 0.53625, 0.681036, 0.557171, 0.514282, 0.514594, 0.515185, 0.516399, 0.516062, 0.515828, 0.522309, 0.523389, 0.52457, 0.679152, 0.850635, 0.541436, 0.679246, 0.679898, 0.704511, 0.70467, 0.603203, 0.603395, 0.604272, 0.897131, 0.569449, 0.570642, 0.571216, 0.572682, 0.573173, 0.574198, 0.573694, 0.572888, 0.573468, 0.574805, 0.577537, 0.579112, 0.578594, 0.577558, 0.584164, 0.589935, 0.591528, 0.591649, 0.586661, 0.590249, 0.590799, 0.588489, 0.575068, 0.575906, 0.577946, 0.582123, 0.582797, 0.579942, 0.579818, 0.576542, 0.57671, 0.578604, 0.580315, 0.577681, 0.578425, 0.607622, 0.596882, 0.593696, 0.595503, 0.598697, 0.600723, 0.610608, 0.611287, 0.609273, 0.607894, 0.607257, 0.634802, 0.756896, 0.641497, 0.642831, 0.635787, 0.637403, 0.640605, 0.642423, 0.637848, 0.642715, 0.662528, 0.670318, 0.732007, 0.669274, 0.664736, 0.665761, 0.682171, 0.680138, 0.650905, 0.652477, 0.65334, 0.657524, 0.659428, 0.66212, 0.663402, 0.665763, 0.667072, 0.672529, 0.672603, 0.67068, 0.735539, 0.698558, 0.6738, 0.676706, 0.701343, 1.01268, 0.686985, 0.689315, 0.689958, 0.693254, 0.694102, 0.692109, 0.693395, 0.685476, 0.683256, 0.687753, 0.689818, 0.689969, 0.691088, 0.693325, 0.694582, 0.700158, 0.702431, 0.703966, 0.708015, 0.708128
0.363362, 0.356094, 0.357121, 0.355952, 0.356045, 0.358279, 0.359831, 0.365304, 0.365098, 0.534358, 0.35163, 1.00899, 0.444374, 0.745739, 0.611711, 0.666241, 0.604643, 0.680852, 0.686912, 0.417816, 0.88963, 0.90361, 0.940613, 0.661481, 0.611189, 0.67441, 0.808939, 0.637202, 0.576645, 0.654214, 0.653271, 0.353359, 0.920142, 0.356875, 0.358097, 0.356404, 0.514765, 0.34632, 0.346454, 0.334871, 0.335677, 0.350049, 0.712958, 0.776036, 0.00412152, 0.674608, 0.720856, 0.721505, 0.386153, 0.386352, 0.392807, 0.393253, 0.714517, 0.406231, 0.395996, 0.39652, 0.411774, 0.631711, 0.631532, 0.631661, 0.393322, 0.393741, 0.393393, 0.393585, 0.682749, 0.670148, 0.804364, 0.406864, 0.409007, 0.407522, 0.411024, 0.411393, 0.416196, 0.418223, 0.420926, 0.421262, 0.424454, 0.745214, 0.749533, 0.744544, 0.411796, 0.411683, 0.411822, 0.473193, 0.742117, 0.766517, 0.727924, 0.730141, 0.427058, 0.425704, 0.425423, 0.426359, 0.427288, 0.428365, 0.731924, 0.656402, 0.454911, 0.456361, 0.456913, 0.717072, 0.465375, 0.718455, 0.468305, 0.469531, 0.469749, 0.470825, 0.470839, 0.470658, 0.472326, 1.09384, 1.09203, 1.09107, 0.595243, 0.665868, 0.667257, 0.614122, 0.577011, 0.549084, 0.516599, 0.517243, 0.517084, 0.517981, 0.517541, 0.516709, 0.523727, 0.523675, 0.525801, 0.534625, 0.854194, 0.541916, 0.686306, 0.686179, 0.705074, 0.704903, 0.697293, 0.773776, 0.798865, 0.57584, 0.571256, 0.571336, 0.572187, 0.572674, 0.573107, 0.573797, 0.57361, 0.572821, 0.7094, 0.659782, 0.575864, 0.578054, 0.579261, 0.580305, 0.581818, 0.583838, 0.590918, 0.589548, 0.586746, 0.587792, 0.574508, 0.573658, 0.575321, 0.576811, 0.578872, 0.57869, 0.577108, 0.574602, 0.569035, 0.577317, 0.577757, 0.578649, 0.580267, 0.579604, 0.579394, 0.582155, 0.589775, 0.593118, 0.596584, 0.597342, 0.59636, 0.607687, 0.609237, 0.609828, 0.608644, 0.602302, 0.602617, 0.603039, 0.600034, 0.642714, 0.643721, 0.641933, 0.640486, 0.645596, 0.646253, 0.603636, 0.607126, 0.610508, 0.611145, 0.654549, 0.662204, 0.660093, 0.666958, 0.676629, 0.652001, 0.653321, 0.654676, 0.65838, 0.659395, 0.662678, 0.664799, 0.666116, 0.665849, 0.671076, 0.671015, 0.670462, 0.670498, 0.989082, 0.674226, 0.677467, 0.679523, 0.680594, 0.686325, 0.686697, 0.685365, 0.687152, 0.694123, 0.68986, 0.691918, 0.687522, 0.687075, 0.688608, 0.6911, 0.690896, 0.693712, 0.696367, 0.695842, 0.697209, 0.70099, 0.70427, 0.707458, 0.709596
0.349578, 0.357371, 0.358327, 0.358169, 0.357066, 0.360494, 0.359045, 0.663628, 0.432175, 0.352659, 0.351746, 0.539942, 0.584495, 0.582766, 0.605979, 0.579999, 0.601601, 0.685092, 0.75652, 0.943731, 1.10152, 1.09905, 1.09223, 1.09891, 0.615632, 0.671677, 0.807682, 0.559058, 0.559706, 0.353321, 0.35413, 0.354045, 0.354031, 0.35591, 0.358294, 0.355682, 0.35461, 0.635245, 0.345899, 0.335811, 0.337512, 0.335787, 0.780509, 0.749215, 0.739782, 0.388151, 0.722166, 0.707831, 0.387125, 0.386404, 0.833055, 0.681395, 0.692028, 0.681311, 0.403288, 0.403544, 0.391213, 0.633666, 0.632409, 0.389389, 0.394815, 0.394741, 0.390067, 0.389576, 0.794043, 0.627462, 0.77477, 0.772382, 0.409421, 0.409072, 0.410733, 0.413272, 0.413937, 0.414288, 0.41924, 0.423802, 0.42448, 0.749488, 0.414671, 0.413614, 0.412948, 0.412814, 0.41385, 0.413722, 0.417459, 0.421573, 0.420322, 0.420545, 0.423796, 0.426985, 0.427329, 0.426652, 0.431284, 0.431284, 0.72965, 0.448143, 0.447382, 0.72431, 0.725912, 0.467801, 0.472275, 0.759177, 0.471274, 0.4714, 0.470333, 0.472312, 0.471701, 0.470734, 0.668185, 0.669675, 0.670469, 0.663644, 0.607547, 0.678066, 0.631184, 0.629735, 0.576626, 0.515399, 0.517838, 0.519251, 0.517764, 0.517335, 0.515858, 0.91854, 0.525057, 0.524877, 0.534804, 0.535231, 0.801949, 0.656245, 1.00262, 1.00309, 0.596587, 0.698622, 0.773982, 0.798445, 0.569569, 0.571998, 0.57193, 0.572078, 0.572187, 0.572398, 0.572408, 0.572456, 0.572439, 0.571762, 0.563296, 0.707507, 0.575676, 0.577181, 0.577372, 0.579852, 0.58041, 0.579033, 0.58027, 0.58407, 0.585546, 0.576181, 0.575499, 0.575761, 0.576173, 0.576895, 0.578703, 0.57926, 0.575065, 0.569929, 0.569859, 0.576351, 0.577761, 0.578509, 0.578937, 0.580141, 0.579484, 0.578173, 0.582814, 0.584832, 0.587701, 0.597022, 0.597205, 0.613693, 0.609504, 0.610243, 0.604119, 0.605023, 0.604432, 0.603585, 0.601531, 0.598291, 0.598585, 0.597962, 0.596843, 0.639921, 0.643022, 0.60311, 0.607742, 0.858318, 0.648335, 0.721372, 0.655971, 1.35991, 0.815189, 0.870829, 0.648547, 0.652679, 0.654454, 0.654854, 0.672803, 0.736284, 0.665262, 0.665887, 0.665972, 0.666142, 0.666232, 0.670433, 0.670017, 0.693131, 0.676499, 0.678249, 0.680404, 0.67576, 0.684714, 0.68628, 0.687501, 0.686584, 0.686365, 0.68621, 0.686307, 0.687837, 0.687789, 0.690377, 0.690822, 0.690199, 0.692581, 0.696758, 0.696864, 0.696875, 0.703908, 0.703411, 0.709673, 0.710579
