1.21169, 0.490746, 0.490095, 0.926087, 0.509544, 0.508509, 0.507796, 0.510733, 0.513888, 0.513914, 1.00139, 0.615668, 0.604722, 0.96361, 0.529423, 0.531495, 0.533557, 0.533732, 0.538741, 0.541777, 0.542085, 0.543869, 0.545037, 0.550676, 0.566409, 0.567728, 0.568844, 0.708718, 0.582087, 0.582244, 0.697697, 0.798032, 0.707279, 0.698736, 0.773655, 0.687643, 0.633371, 0.619656, 0.653121, 0.762168, 0.672594, 0.672783, 0.690365, 0.690466, 0.829488, 0.91029, 0.975671, 1.0203, 0.999164, 0.96602, 0.988455, 0.998548, 1.03267, 1.1084, 1.0916, 1.07821, 1.10573, 1.09808, 1.13302, 1.15351, 1.13639, 1.13713, 1.14541, 1.16889, 1.20893, 1.21709, 1.23244, 1.2323, 1.30848, 1.30562, 1.31198, 1.29954, 1.27363, 1.31623, 1.28621, 1.27733, 1.27648, 1.38504, 1.31502, 1.31216, 1.3127, 1.31542, 1.38984, 1.36747, 1.33859, 1.31957, 1.30196, 1.30492, 1.52007, 1.47333, 1.45137, 1.22284, 1.22414, 1.23526, 1.27239, 1.24013, 1.18857, 1.15733, 1.18178, 1.17155, 1.14387, 1.12122, 1.08132, 1.02323, 0.988643, 0.979921, 0.906153, 0.911164, 0.865429, 0.845465, 0.829401, 0.832113, 0.885165, 0.84171, 0.835942, 0.82455, 0.818876, 0.818356, 0.823535, 0.852939, 0.855958, 0.893387, 0.877502, 0.876679, 0.869672, 0.833668, 0.831894, 0.831644, 0.830538, 0.823818, 0.823371, 0.821145, 0.816516, 0.802413, 0.801935, 0.802186, 0.812233, 0.813281, 0.812365, 0.813402, 0.823068, 0.822716, 0.823738, 0.824766, 0.825484, 0.827559, 0.829527, 0.831795, 0.834999, 0.833896
0.48695, 0.487308, 0.491153, 0.493965, 0.62303, 0.49869, 0.504733, 0.511851, 0.514166, 0.514641, 0.520616, 0.519747, 0.5478, 0.525034, 0.524765, 0.529375, 0.532171, 0.526867, 0.539608, 0.539071, 0.541353, 0.54691, 0.546291, 0.545452, 0.566526, 0.567293, 0.572566, 0.582896, 0.582891, 0.58098, 0.579552, 0.578329, 0.795346, 0.721818, 0.777407, 0.776699, 0.621025, 0.619061, 0.762888, 0.763542, 0.674117, 0.673113, 0.690482, 0.731089, 0.825307, 0.869606, 0.897822, 0.95615, 0.942759, 0.947416, 0.963999, 0.995349, 1.027, 1.0562, 1.07554, 1.0753, 1.08072, 1.11511, 1.11984, 1.1358, 1.24346, 1.13654, 1.22576, 1.17002, 1.17053, 1.21316, 1.25588, 1.28426, 1.26197, 1.30655, 1.3099, 1.29186, 1.27461, 1.29899, 1.28853, 1.28317, 1.29242, 1.34658, 1.32071, 1.31131, 1.31878, 1.31534, 1.31711, 1.31923, 1.39762, 1.31595, 1.28873, 1.29967, 1.34038, 1.33863, 1.45049, 1.24764, 1.22249, 1.23953, 1.24408, 1.17374, 1.18402, 1.15482, 1.18251, 1.14691, 1.08175, 1.1515, 1.01924, 1.01634, 0.980815, 0.920931, 0.904916, 0.863061, 0.84973, 0.847594, 0.828611, 0.828243, 0.852764, 0.841961, 0.83735, 0.898235, 0.819483, 0.857456, 0.848912, 0.852462, 0.85479, 0.925808, 0.952826, 0.950369, 0.866666, 0.857314, 0.832364, 0.832282, 0.827846, 0.824129, 0.822087, 0.815845, 0.814927, 0.802396, 0.801633, 0.801936, 0.814208, 0.814301, 0.81405, 0.813104, 0.813932, 0.815516, 0.82408, 0.824904, 0.825695, 0.824853, 0.828426, 0.831977, 0.829558, 0.831809
0.488456, 0.487225, 0.49006, 0.494517, 0.497181, 0.499166, 0.498673, 0.511942, 0.516071, 0.514536, 0.520937, 0.519022, 0.548985, 0.524959, 0.525019, 0.523187, 0.523478, 0.52854, 0.534869, 0.536895, 0.545028, 0.546698, 0.545436, 0.552315, 0.615097, 0.587338, 0.580536, 0.583635, 0.583227, 0.581176, 0.57961, 0.579261, 0.578319, 0.786448, 0.930304, 0.809597, 0.787322, 0.767512, 0.761689, 0.874638, 0.764433, 0.749139, 0.751025, 0.748081, 0.793752, 0.888414, 0.89128, 1.00159, 0.984073, 0.967459, 0.961673, 0.967519, 1.00932, 1.04795, 1.06679, 1.07126, 1.07391, 1.1013, 1.12449, 1.12509, 1.12166, 1.19579, 1.16209, 1.17029, 1.17101, 1.2538, 1.20839, 1.20823, 1.30992, 1.28934, 1.31083, 1.2997, 1.272, 1.30601, 1.28942, 1.28181, 1.33035, 1.31547, 1.31544, 1.30815, 1.3185, 1.3189, 1.32235, 1.38556, 1.31713, 1.32309, 1.38877, 1.3185, 1.34631, 1.34353, 1.36939, 1.25907, 1.22355, 1.23029, 1.22953, 1.15371, 1.13573, 1.14302, 1.12537, 1.10433, 1.08095, 1.08388, 1.00852, 1.02601, 1.02294, 0.923617, 0.901248, 0.863075, 0.848598, 0.847237, 0.83012, 0.830356, 0.821768, 0.875618, 0.832031, 0.843885, 0.839053, 0.839001, 0.852711, 0.850642, 0.974643, 0.889981, 0.890911, 0.936253, 0.96133, 0.848151, 0.834923, 0.831888, 0.824805, 0.819781, 0.815862, 0.814618, 0.815956, 0.80855, 0.807606, 0.81114, 0.813808, 0.815022, 0.816357, 0.817103, 0.814216, 0.813698, 0.821553, 0.823551, 0.825249, 0.82327, 0.827076, 0.83881, 0.826779, 0.828692
0.487983, 0.486891, 0.488848, 0.495286, 0.497631, 0.498724, 0.504317, 0.511488, 0.515901, 0.514679, 0.517255, 0.519491, 0.518988, 0.524218, 0.524232, 0.522544, 0.521188, 0.526859, 0.535637, 0.536471, 0.539826, 0.545467, 0.548504, 0.553166, 0.563491, 0.58748, 0.58402, 0.58621, 0.586224, 0.580186, 0.579841, 0.579728, 0.57923, 0.777855, 0.979942, 0.915167, 0.914783, 0.846207, 0.792501, 0.618564, 0.765948, 0.848925, 0.690211, 0.732149, 0.763435, 0.887394, 0.899053, 0.994842, 0.927415, 0.946129, 0.970342, 0.980986, 0.999565, 1.08931, 1.04149, 1.0571, 1.08503, 1.08304, 1.10609, 1.09789, 1.11186, 1.18405, 1.19051, 1.16395, 1.16956, 1.24609, 1.24004, 1.2053, 1.28052, 1.27119, 1.29527, 1.2539, 1.25348, 1.27161, 1.31578, 1.28323, 1.2906, 1.31611, 1.31565, 1.31941, 1.31863, 1.35045, 1.33504, 1.388, 1.31792, 1.36417, 1.35157, 1.3179, 1.34304, 1.3398, 1.34024, 1.2774, 1.22743, 1.22928, 1.22334, 1.16678, 1.13867, 1.12442, 1.09099, 1.05538, 1.03219, 1.01951, 0.997445, 0.97307, 1.02457, 0.897374, 0.9331, 0.889358, 0.850174, 0.839021, 0.885403, 0.831352, 0.822212, 0.826125, 0.83213, 0.842146, 0.839231, 0.848966, 0.85043, 0.85158, 0.952775, 0.890449, 0.890781, 0.905207, 0.960113, 0.842147, 0.83162, 0.824879, 0.825139, 0.816484, 0.815332, 0.815231, 0.814401, 0.813809, 0.809268, 0.811712, 0.812552, 0.815622, 0.818241, 0.81716, 0.815303, 0.812365, 0.814887, 0.813996, 0.81444, 0.828967, 0.835764, 0.843727, 0.842583, 0.874105
0.486546, 0.486662, 0.69734, 0.528813, 0.495317, 0.49869, 0.643241, 0.503574, 0.503732, 0.503635, 0.51396, 0.51819, 0.512673, 0.512755, 0.522075, 0.52175, 0.520474, 0.525613, 0.534579, 0.532648, 0.705523, 0.546982, 0.56698, 0.549755, 0.553198, 0.589524, 0.584574, 0.586965, 0.586471, 0.583203, 0.583329, 0.580193, 0.580344, 1.07522, 1.05273, 0.914804, 0.822455, 0.760383, 0.618189, 0.619022, 0.762279, 0.762632, 0.78468, 0.778472, 0.764331, 0.980119, 0.908887, 0.990455, 0.931533, 0.933034, 0.953717, 0.956419, 0.996881, 1.09113, 1.08813, 1.05983, 1.08151, 1.11962, 1.09202, 1.08854, 1.14006, 1.17926, 1.17823, 1.22217, 1.16802, 1.24984, 1.2406, 1.20711, 1.23307, 1.24335, 1.25979, 1.25432, 1.25304, 1.33158, 1.34168, 1.29203, 1.27043, 1.31157, 1.33077, 1.31952, 1.33805, 1.27939, 1.27868, 1.39195, 1.32335, 1.32216, 1.34978, 1.32306, 1.32331, 1.33422, 1.33965, 1.28379, 1.22566, 1.22735, 1.22367, 1.1782, 1.13227, 1.11512, 1.08549, 1.04946, 1.07785, 1.05033, 1.00933, 0.977105, 0.913257, 0.910201, 0.936901, 0.87454, 0.84935, 0.877609, 0.846216, 0.83395, 0.821284, 0.820798, 0.816062, 0.840371, 0.837209, 0.849802, 0.848312, 0.956788, 0.888566, 0.888985, 1.0368, 0.902603, 0.850712, 0.832047, 0.833038, 0.821627, 0.819224, 0.810647, 0.812926, 0.814366, 0.814357, 0.814199, 0.808506, 0.811706, 0.81241, 0.817789, 0.81989, 0.82048, 0.818461, 0.818067, 0.81276, 0.814102, 0.815519, 0.830869, 0.839154, 0.839909, 0.843366, 0.843853
0.484659, 1.08891, 0.887449, 0.895877, 0.494607, 0.682948, 0.680291, 0.503948, 0.503908, 0.504075, 0.514215, 0.51169, 0.513494, 0.512939, 0.520736, 0.520408, 0.524315, 0.526515, 0.525261, 0.534409, 0.533216, 0.566762, 0.551517, 0.549162, 0.921794, 0.916367, 0.586215, 0.586772, 0.586059, 0.582415, 0.583052, 0.581445, 0.581658, 0.580886, 0.583077, 0.87819, 0.914938, 0.833345, 0.618113, 0.611078, 0.827963, 0.791438, 0.788055, 0.781572, 0.803286, 0.793455, 0.976491, 0.991061, 0.951, 0.961305, 0.954636, 0.956803, 1.01338, 1.02163, 1.08566, 1.02874, 1.06538, 1.08474, 1.08756, 1.11302, 1.13236, 1.19116, 1.19583, 1.21565, 1.48887, 1.35298, 1.33284, 1.2082, 1.20629, 1.21961, 1.26549, 1.26163, 1.26095, 1.26857, 1.27889, 1.30721, 1.26914, 1.27492, 1.32128, 1.36531, 1.29146, 1.27842, 1.27844, 1.31364, 1.31247, 1.33317, 1.33307, 1.47378, 1.39931, 1.3381, 1.25177, 1.23671, 1.21985, 1.22748, 1.27538, 1.20545, 1.12645, 1.10547, 1.04141, 1.0401, 1.02282, 1.05115, 0.981632, 0.94437, 0.910317, 0.9611, 0.882865, 0.860976, 0.861487, 0.838408, 0.836568, 0.835928, 0.835309, 0.834434, 0.814229, 0.815476, 0.853505, 0.847628, 0.848096, 0.935771, 0.890751, 0.871093, 1.0076, 0.859639, 0.849879, 0.833004, 0.835216, 0.822039, 0.821647, 0.811036, 0.80924, 0.814395, 0.812501, 0.807799, 0.808323, 0.809152, 0.811462, 0.817483, 0.819947, 0.818414, 0.819435, 0.818925, 0.817401, 0.815487, 0.814651, 0.816433, 0.839305, 0.840925, 0.842862, 0.844586
0.478023, 1.0883, 0.791494, 0.888706, 0.495071, 0.494958, 0.498011, 0.504164, 0.503824, 0.503888, 0.51351, 0.51013, 0.513332, 0.517271, 0.517499, 0.523603, 0.524484, 0.525405, 0.530726, 0.533322, 0.538471, 0.853417, 0.780575, 0.552936, 0.949539, 1.12816, 0.791225, 0.585936, 0.58346, 0.583603, 0.582811, 0.581602, 0.581601, 0.577539, 0.577374, 0.763642, 0.91539, 0.76064, 0.769482, 0.611046, 0.74753, 0.736718, 0.755414, 0.746911, 0.754194, 0.803063, 0.924331, 0.953104, 0.953833, 0.956029, 0.949283, 0.951402, 0.998666, 1.07489, 1.02465, 1.02893, 1.06343, 1.08119, 1.08172, 1.07692, 1.10289, 1.14124, 1.19859, 1.21457, 1.42785, 1.34055, 1.31918, 1.2057, 1.23349, 1.21288, 1.23847, 1.2481, 1.24801, 1.24927, 1.26151, 1.3013, 1.29562, 1.29415, 1.30152, 1.3217, 1.29124, 1.27891, 1.27743, 1.27447, 1.30601, 1.31249, 1.31875, 1.40854, 1.43051, 1.25217, 1.25255, 1.21609, 1.22082, 1.22704, 1.27485, 1.2067, 1.10518, 1.10465, 1.03618, 1.01252, 0.996565, 0.997321, 0.994164, 0.960808, 0.930511, 0.931623, 0.883172, 0.860151, 0.855437, 0.827889, 0.89932, 0.820005, 0.818725, 0.837009, 0.817861, 0.815852, 0.823637, 0.847233, 0.968541, 0.91312, 0.889598, 0.871826, 1.04015, 0.86188, 0.899241, 0.831502, 0.831158, 0.821531, 0.821483, 0.811417, 0.80748, 0.804939, 0.80482, 0.805685, 0.806965, 0.800909, 0.800628, 0.812811, 0.816936, 0.817561, 0.816091, 0.8176, 0.818273, 0.814905, 0.813526, 0.816869, 0.817321, 0.842954, 0.84322, 0.846146
0.7909, 0.475863, 0.714284, 0.698284, 0.496525, 0.495408, 0.498194, 0.503058, 0.502944, 0.533538, 0.814613, 0.809276, 0.80425, 0.52907, 0.530144, 0.529894, 0.524188, 0.528704, 0.534247, 0.581994, 0.532721, 0.532496, 0.534171, 0.994647, 0.53809, 0.989037, 0.93275, 0.582023, 0.58293, 0.582931, 0.5828, 0.581103, 0.58004, 0.57742, 0.57678, 0.839103, 0.673895, 0.76115, 0.764028, 0.610838, 0.76419, 0.763116, 0.743786, 0.746489, 0.766049, 0.767293, 0.919715, 0.918546, 0.931479, 0.931674, 0.973677, 0.946623, 0.964954, 0.984604, 1.06143, 1.02849, 1.07808, 1.07755, 1.07498, 1.069, 1.12012, 1.16603, 1.14377, 1.21118, 1.38153, 1.54102, 1.31888, 1.20974, 1.17601, 1.20212, 1.24334, 1.25332, 1.23811, 1.25653, 1.29699, 1.27109, 1.25778, 1.30418, 1.29516, 1.29551, 1.322, 1.26662, 1.27915, 1.28053, 1.28742, 1.31713, 1.29854, 1.28181, 1.28197, 1.33284, 1.23692, 1.23347, 1.21963, 1.20261, 1.17028, 1.17833, 1.10669, 1.0973, 1.08086, 1.00883, 1.03152, 1.0259, 1.00161, 0.942866, 0.927875, 0.930382, 0.871653, 0.863741, 0.859899, 0.823203, 0.82583, 0.827801, 0.817821, 0.821125, 0.82021, 0.824382, 0.824741, 0.843693, 0.939162, 0.923571, 0.928656, 0.956793, 0.912959, 0.922365, 0.842162, 0.900952, 0.8212, 0.818897, 0.815941, 0.814874, 0.80246, 0.804827, 0.803778, 0.802629, 0.805409, 0.800649, 0.801743, 0.808858, 0.813549, 0.817247, 0.815251, 0.817452, 0.819086, 0.817078, 0.81756, 0.817616, 0.816761, 0.863941, 0.842002, 0.849751
0.477712, 0.477252, 0.484391, 0.484602, 0.495648, 0.493009, 0.493173, 0.498169, 0.546545, 0.513518, 0.529502, 0.529441, 0.531319, 0.530674, 0.531191, 0.530975, 0.53105, 0.531604, 0.593993, 0.534402, 0.533408, 0.532313, 0.532415, 0.538429, 0.538527, 0.868488, 0.939642, 0.608807, 0.582603, 0.583974, 0.582858, 0.578936, 0.578348, 0.576775, 0.572535, 0.818999, 0.648148, 0.760756, 0.764504, 0.766053, 0.764714, 0.762725, 0.743595, 0.728356, 0.756454, 0.817405, 0.912767, 0.923526, 1.01832, 0.934461, 0.963692, 0.945605, 0.953251, 0.977418, 1.0299, 1.03887, 1.08775, 1.07841, 1.07488, 1.0747, 1.09877, 1.14856, 1.20825, 1.20661, 1.44893, 1.53981, 1.21646, 1.19831, 1.17787, 1.18153, 1.23216, 1.23339, 1.23561, 1.26834, 1.27231, 1.28988, 1.30688, 1.23341, 1.23428, 1.38794, 1.31588, 1.26621, 1.27476, 1.27595, 1.25936, 1.29409, 1.29675, 1.26273, 1.25804, 1.24122, 1.23335, 1.213, 1.19053, 1.13575, 1.12908, 1.12515, 1.12737, 1.11585, 1.09651, 1.01242, 1.00971, 1.03099, 0.983589, 0.936109, 0.907594, 0.896423, 0.888286, 0.872952, 0.850042, 0.822791, 0.828157, 0.819059, 0.812271, 0.816759, 0.819779, 0.824587, 0.839029, 0.841209, 0.838494, 0.853272, 0.917269, 0.911012, 0.914983, 0.840935, 0.84217, 0.841253, 0.82016, 0.814415, 0.814684, 0.86738, 0.801036, 0.803271, 0.79966, 0.797535, 0.803869, 0.800312, 0.801184, 0.805786, 0.811103, 0.815163, 0.815405, 0.817836, 0.818821, 0.817693, 0.818826, 0.82112, 0.814736, 0.0044233, 0.839102, 1.17062
0.475665, 0.475874, 0.485931, 0.485476, 0.484439, 0.493629, 0.492838, 0.674676, 0.915283, 0.514094, 0.528806, 0.528131, 0.533465, 0.531805, 0.531901, 0.532449, 0.532172, 0.533356, 0.535148, 0.534882, 0.532115, 0.531247, 0.854755, 0.539069, 0.538219, 0.834669, 0.614345, 0.887485, 0.875085, 0.88045, 0.579408, 0.57775, 0.565973, 0.565394, 0.572188, 0.648463, 0.838823, 0.587939, 0.585585, 0.765889, 0.763556, 0.762211, 0.769667, 0.829184, 0.770415, 0.768444, 0.916491, 0.92233, 0.959737, 0.995454, 0.924994, 0.940262, 0.939997, 0.987098, 0.995733, 1.02983, 1.08809, 1.08346, 1.12468, 1.10107, 1.10816, 1.19467, 1.22385, 1.1549, 1.15555, 1.4479, 1.19848, 1.18154, 1.18106, 1.1805, 1.17682, 1.2213, 1.22066, 1.23975, 1.23718, 1.26191, 1.26838, 1.22433, 1.24472, 1.30279, 1.3168, 1.32303, 1.30732, 1.25254, 1.25186, 1.26137, 1.25369, 1.20721, 1.21568, 1.22988, 1.23239, 1.19854, 1.18854, 1.16156, 1.16012, 1.12726, 1.14394, 1.11494, 1.08927, 1.00992, 1.0109, 1.0747, 1.03602, 1.00342, 0.901154, 0.881173, 0.88268, 0.849916, 0.857368, 0.880109, 0.904228, 0.817911, 0.811508, 0.831789, 0.821184, 0.824522, 0.839921, 0.840436, 0.837514, 0.850633, 0.86674, 0.912461, 0.856831, 0.841857, 0.842091, 0.884109, 0.812646, 0.814761, 0.815541, 0.984673, 1.10537, 0.803373, 0.798126, 0.797663, 0.797523, 0.799108, 0.801834, 0.806936, 0.80898, 0.81138, 0.81459, 0.816587, 0.814491, 0.815958, 0.817946, 0.820304, 0.812979, 0.836027, 0.801579, 1.17202
0.469536, 0.489785, 0.486838, 0.485211, 0.483766, 0.484414, 0.489884, 0.567181, 0.559182, 0.994873, 0.528736, 0.528828, 0.533937, 0.532281, 0.531871, 0.532382, 0.53236, 0.533194, 0.533994, 0.533522, 0.532091, 0.530095, 1.20201, 0.538296, 0.536727, 1.04455, 0.544899, 0.911884, 1.05682, 0.875247, 0.578588, 0.574181, 0.566851, 0.565938, 0.567778, 0.776863, 0.850006, 0.588811, 0.5868, 0.766026, 0.764252, 0.761432, 0.780358, 0.717264, 0.721083, 0.815206, 0.800557, 0.89313, 1.03779, 0.959852, 0.92815, 0.943038, 0.942035, 0.946165, 1.0039, 1.01285, 1.05452, 1.08347, 1.08356, 1.065, 1.10922, 1.11013, 1.20225, 1.22914, 1.16961, 1.20027, 1.22865, 1.1851, 1.33008, 1.17677, 1.1754, 1.2052, 1.23677, 1.2363, 1.23628, 1.24358, 1.2414, 1.20644, 1.23364, 1.2464, 1.29041, 1.3089, 1.28453, 1.26716, 1.2559, 1.23626, 1.19892, 1.19127, 1.20584, 1.20328, 1.22469, 1.16654, 1.15895, 1.18461, 1.15033, 1.1739, 1.1235, 1.1518, 1.13094, 1.09567, 1.02539, 1.03951, 1.00526, 0.941154, 0.907695, 0.88267, 0.881942, 0.850547, 0.882199, 0.906084, 0.903995, 0.838684, 0.853181, 0.795484, 0.81523, 0.814097, 0.83948, 0.836253, 0.836355, 1.08685, 0.828558, 0.911859, 0.85707, 0.880834, 0.902122, 0.881229, 0.812945, 0.814634, 0.814694, 1.07698, 1.06345, 1.06306, 0.797939, 0.796988, 0.794469, 0.797204, 0.801301, 0.806266, 0.808738, 0.809876, 0.809815, 0.809677, 0.813986, 0.815456, 0.817993, 0.820285, 0.812541, 0.804853, 0.803844, 0.802452
0.555189, 0.487355, 0.48757, 0.486251, 0.484857, 0.484849, 0.48387, 1.02037, 0.532499, 0.916649, 0.00456005, 0.528188, 0.532761, 0.531129, 0.531186, 0.531627, 0.53193, 0.532016, 0.532341, 0.678415, 0.694547, 0.852678, 0.521026, 0.566301, 0.830455, 0.545111, 0.545789, 0.833612, 0.842734, 0.812115, 0.770284, 0.807881, 0.56709, 0.568015, 0.568223, 0.808111, 0.853574, 0.587708, 0.765437, 0.764379, 0.760161, 0.759571, 0.787281, 0.786797, 0.760076, 0.775472, 0.816087, 0.892323, 0.956637, 0.967923, 0.923609, 0.936179, 0.946084, 0.945581, 0.974257, 1.03202, 1.01624, 1.02963, 1.08575, 1.04431, 1.123, 1.11298, 1.24347, 1.23995, 1.15097, 1.16903, 1.21653, 1.19791, 1.19885, 1.18495, 1.17364, 1.17942, 1.18774, 1.2093, 1.25627, 1.2505, 1.26493, 1.2056, 1.25063, 1.25132, 1.2748, 1.22243, 1.23888, 1.24421, 1.24519, 1.22666, 1.19621, 1.20923, 1.21995, 1.17644, 1.18626, 1.19256, 1.15048, 1.18375, 1.10856, 1.10166, 1.13048, 1.08188, 1.09101, 1.11192, 1.20176, 1.02203, 0.951918, 0.934758, 0.931851, 0.969829, 0.887023, 0.854212, 0.846455, 0.896896, 0.829829, 0.841223, 0.853713, 0.866708, 0.816756, 0.823487, 0.82476, 0.838292, 0.832381, 1.0846, 1.08332, 1.08648, 0.883303, 0.883658, 0.898811, 0.877533, 0.995717, 0.818936, 0.80497, 0.806011, 1.06507, 1.0606, 1.05259, 0.79333, 0.793918, 0.793543, 0.794118, 0.804503, 0.80801, 0.809764, 0.809942, 0.807149, 0.809088, 0.812277, 0.816113, 0.819113, 0.814047, 0.803118, 0.804686, 0.80608
0.546707, 0.48955, 0.489693, 0.487035, 0.484554, 0.48604, 0.484368, 0.483435, 0.531815, 0.68716, 0.524914, 0.528845, 0.530968, 0.529391, 0.529979, 0.530751, 0.530927, 0.530953, 0.529136, 0.528929, 0.673856, 0.521798, 0.52114, 0.587103, 0.656454, 0.546059, 0.545139, 1.04239, 0.839829, 1.04283, 0.814306, 0.814277, 0.566562, 0.568766, 0.568152, 0.791745, 0.851757, 0.741703, 0.742244, 0.752203, 0.752967, 0.855919, 0.778206, 0.776823, 0.75879, 0.739704, 0.867161, 0.874643, 0.984332, 0.91515, 0.923287, 0.918117, 0.946205, 0.947046, 0.97026, 0.984617, 1.00577, 1.00954, 1.05635, 1.1235, 1.12333, 1.05319, 1.05373, 1.10856, 1.13351, 1.21227, 1.16923, 1.19409, 1.1947, 1.1698, 1.1805, 1.18041, 1.18624, 1.18782, 1.25037, 1.25112, 1.25156, 1.21565, 1.26568, 1.26299, 1.22263, 1.22216, 1.25172, 1.25709, 1.25141, 1.23677, 1.19627, 1.19824, 1.20895, 1.17751, 1.16072, 1.19423, 1.13911, 1.13308, 1.1205, 1.13659, 1.11524, 1.08493, 1.08142, 1.10196, 1.10281, 0.988093, 0.939666, 0.923126, 0.931938, 0.884397, 0.871794, 0.835497, 0.85329, 0.878152, 0.831527, 0.86588, 0.811649, 0.865048, 0.803202, 0.823547, 0.824451, 0.839013, 0.816188, 0.816439, 1.08341, 1.11571, 0.981334, 0.898449, 1.00955, 1.08238, 0.862534, 0.83923, 0.80477, 0.80457, 0.800361, 1.05332, 0.788284, 0.793279, 0.793682, 0.793454, 0.795887, 0.798399, 0.807096, 0.808005, 0.808236, 0.807459, 0.808279, 0.803191, 0.809393, 0.811943, 0.812492, 0.802608, 0.80369, 0.804371
0.869573, 0.489444, 0.489415, 0.489681, 0.490556, 0.486131, 0.48086, 0.483534, 0.589853, 0.771228, 0.623251, 0.754577, 0.740635, 0.628639, 0.526878, 0.528326, 0.519279, 0.595916, 0.825838, 0.568669, 0.666384, 0.819813, 0.520645, 0.662878, 0.793873, 0.544393, 1.41922, 0.539887, 0.540292, 0.539705, 0.550548, 0.818647, 0.761988, 0.567969, 0.567983, 0.717457, 0.853023, 0.627343, 0.739143, 0.764518, 0.752488, 0.760766, 0.741744, 0.749506, 0.763161, 0.763543, 0.787172, 0.903951, 0.881167, 0.905701, 0.911734, 0.915887, 0.926594, 0.948691, 0.970812, 0.974351, 0.990549, 1.00162, 1.08202, 1.08463, 1.05235, 1.05263, 1.05063, 1.11673, 1.13028, 1.14293, 1.21519, 1.19544, 1.19296, 1.21452, 1.18014, 1.17981, 1.17412, 1.21037, 1.22664, 1.2499, 1.25178, 1.20954, 1.27446, 1.23428, 1.21183, 1.22245, 1.30569, 1.30268, 1.32628, 1.24102, 1.20614, 1.19599, 1.2045, 1.19357, 1.1503, 1.1431, 1.14232, 1.13798, 1.10872, 1.11179, 1.05786, 1.08467, 1.08244, 1.0823, 1.09134, 0.989103, 0.947577, 0.92236, 0.92943, 0.884681, 0.8446, 0.837389, 0.855934, 0.818874, 0.821305, 0.81594, 0.869242, 0.834842, 0.80587, 0.829753, 0.830447, 0.827026, 0.819459, 0.818854, 1.08423, 0.864318, 0.957315, 0.908361, 1.04078, 1.14113, 1.15626, 0.839625, 0.823238, 0.803957, 0.794638, 0.790197, 0.787741, 0.791237, 0.79055, 0.791089, 0.797045, 0.797743, 0.805528, 0.807394, 0.808449, 0.806693, 0.80713, 0.807259, 0.81128, 0.812443, 0.808344, 0.803519, 0.802728, 0.803896
0.496114, 0.693098, 0.489971, 0.490983, 0.488557, 0.486062, 0.480867, 0.485677, 0.488565, 0.494862, 0.87955, 0.726239, 0.629844, 0.62446, 0.690368, 0.794234, 0.520098, 0.525256, 0.576845, 0.825325, 0.831451, 0.830841, 0.528231, 0.798318, 0.795751, 0.533112, 0.535219, 0.537191, 0.541154, 0.539989, 0.551436, 0.765965, 0.558912, 0.566836, 0.766675, 0.766324, 0.62675, 0.62741, 0.738569, 0.735932, 0.760092, 0.75354, 0.786704, 0.756253, 0.738047, 0.738252, 0.819417, 0.867581, 0.897964, 0.975458, 0.902429, 0.892241, 0.924733, 0.947465, 0.944298, 0.957491, 0.970063, 0.98149, 1.0022, 1.08422, 1.03495, 1.02639, 1.03779, 1.11965, 1.1156, 1.19437, 1.20659, 1.19406, 1.19426, 1.18495, 1.18124, 1.1832, 1.17774, 1.21869, 1.28843, 1.22965, 1.21222, 1.22668, 1.2504, 1.21244, 1.21408, 1.22388, 1.3216, 1.25599, 1.25605, 1.25069, 1.2167, 1.20555, 1.20297, 1.1483, 1.1501, 1.14838, 1.14036, 1.13091, 1.20585, 1.05093, 1.04964, 1.09109, 1.07937, 1.08147, 1.10598, 0.953697, 0.930015, 0.923363, 0.893877, 0.897247, 0.843686, 0.84186, 0.88496, 0.839853, 0.817907, 0.831209, 0.851862, 0.839339, 0.805983, 0.835549, 0.829297, 0.825277, 0.825223, 0.926614, 1.08474, 1.07806, 0.897752, 0.910298, 0.911273, 0.00460011, 1.16457, 1.08144, 0.825218, 0.794033, 0.794276, 0.791213, 0.783354, 0.788087, 0.790454, 0.791, 0.796853, 0.799088, 0.805126, 0.806426, 0.808063, 0.807321, 0.804457, 0.804211, 0.809633, 0.810798, 0.807122, 0.807575, 0.802402, 0.800605
0.496592, 0.497297, 0.495216, 0.491066, 0.488701, 0.485924, 0.48879, 0.487477, 0.496632, 0.49528, 0.495042, 0.494087, 0.746085, 0.719213, 0.676457, 0.715267, 0.519165, 0.660137, 0.674653, 0.641357, 0.832404, 0.831771, 0.821029, 0.82617, 0.756928, 0.535317, 0.536515, 0.537881, 0.538805, 0.548972, 0.549908, 0.558575, 0.55999, 0.559023, 0.767195, 0.765613, 0.723894, 0.682837, 0.00435706, 0.85685, 0.772384, 0.767342, 0.780867, 0.808824, 0.73912, 0.739529, 0.818158, 0.814899, 0.860822, 0.905412, 0.895428, 0.882178, 0.923838, 0.937669, 0.926967, 0.957621, 0.958263, 0.984542, 0.987211, 1.08744, 1.0385, 1.02062, 1.01671, 1.11272, 1.14733, 1.19165, 1.18606, 1.25777, 1.15261, 1.15289, 1.30584, 1.21143, 1.20154, 1.1918, 1.14542, 1.14375, 1.19128, 1.19875, 1.20091, 1.20123, 1.24213, 1.21943, 1.25035, 1.25492, 1.25669, 1.22577, 1.21965, 1.25993, 1.20243, 1.19945, 1.14953, 1.14967, 1.16076, 1.21579, 1.0644, 1.03785, 1.05675, 1.06416, 1.16774, 1.17024, 0.976213, 0.9449, 0.929087, 0.909638, 0.893592, 0.938274, 0.919184, 0.865196, 0.863667, 0.822062, 0.82003, 0.867298, 0.831709, 0.840007, 0.805484, 0.834279, 0.830168, 0.824733, 0.824578, 0.901767, 0.849947, 1.03362, 0.973616, 0.911164, 0.91119, 1.16471, 1.15131, 1.03638, 0.819624, 0.812479, 0.792081, 0.790851, 0.783232, 0.788986, 0.789882, 0.795352, 0.797491, 0.79765, 0.802457, 0.805168, 0.80632, 0.807403, 0.806958, 0.808344, 0.807496, 0.809732, 0.805227, 0.807584, 0.804712, 0.800635
0.497781, 0.498527, 0.494755, 0.490389, 0.487693, 0.485721, 0.488934, 0.488407, 0.496763, 0.495965, 0.494874, 0.492765, 0.494343, 0.718577, 0.500693, 0.499824, 0.853124, 0.688488, 0.672638, 1.63284, 0.832611, 0.5275, 0.526399, 0.529271, 0.552546, 0.71151, 0.53489, 0.53619, 0.54068, 0.549431, 0.55024, 0.55581, 0.556281, 0.559079, 0.7661, 0.765352, 0.711676, 0.704695, 0.61156, 0.897504, 0.766527, 0.770476, 0.736793, 0.782727, 0.746127, 0.712949, 0.737321, 0.71726, 0.84282, 0.856578, 0.886835, 0.924965, 0.884278, 0.923883, 0.920715, 0.945833, 0.954026, 0.980456, 0.991286, 0.9856, 1.04453, 1.04726, 1.01574, 1.04212, 1.11173, 1.10756, 1.1876, 1.21038, 1.20846, 1.30526, 1.18394, 1.32976, 1.17399, 1.17343, 1.14477, 1.14485, 1.20603, 1.20834, 1.20216, 1.23775, 1.18112, 1.17544, 1.23276, 1.25718, 1.24505, 1.17509, 1.19947, 1.22267, 1.19523, 1.16825, 1.1477, 1.15093, 1.14944, 1.05286, 1.04364, 1.01014, 1.01128, 1.01329, 0.99068, 0.981542, 0.981482, 0.949476, 0.931255, 0.930385, 0.888688, 0.925508, 0.860018, 0.8608, 0.863411, 0.822593, 0.873025, 0.853338, 0.829498, 0.776831, 0.85819, 0.831847, 0.826949, 0.818359, 0.81947, 0.844983, 0.846168, 1.00882, 0.951527, 0.91002, 0.913242, 0.895536, 1.02045, 0.984963, 0.818739, 0.822297, 1.02042, 0.786758, 0.783924, 0.788132, 0.791361, 0.794345, 0.794824, 0.794681, 0.802066, 0.804586, 0.806735, 0.806079, 0.80796, 0.810366, 0.807606, 0.808204, 0.805778, 0.807495, 0.800919, 0.802204
0.4985, 0.498792, 0.496364, 0.741758, 0.770038, 0.754247, 0.488067, 0.741676, 0.497389, 0.497305, 0.495213, 0.49347, 0.493992, 0.489791, 0.497461, 0.498509, 0.690117, 1.66212, 0.6825, 0.689989, 0.832091, 0.83147, 0.525824, 0.552398, 0.529301, 0.52826, 0.797939, 0.748511, 1.07455, 0.550233, 0.550963, 0.557298, 0.556555, 0.558841, 0.560871, 0.759423, 0.680804, 0.72196, 0.611705, 0.90876, 0.822167, 0.780419, 0.726565, 0.796235, 0.686944, 0.695856, 0.698313, 0.710259, 0.847638, 0.839629, 0.88499, 0.88303, 0.884967, 0.918818, 0.915019, 0.944497, 0.951694, 0.974998, 0.984539, 0.989374, 1.04099, 1.04237, 0.980634, 1.0093, 1.10225, 1.14051, 1.18638, 1.12987, 1.20495, 1.17603, 1.13927, 1.17507, 1.17258, 1.17352, 1.2189, 1.13815, 1.21669, 1.20742, 1.19784, 1.18754, 1.23006, 1.18479, 1.15418, 1.17716, 1.24421, 1.17521, 1.15312, 1.19192, 1.19112, 1.13715, 1.17445, 1.1368, 1.14643, 1.07184, 1.06714, 1.02859, 1.04983, 1.00243, 0.97115, 1.00793, 0.958218, 0.937152, 0.928817, 0.909046, 0.884112, 0.925355, 0.861079, 0.888693, 0.846632, 0.821789, 0.813302, 0.85109, 0.787481, 0.794275, 0.831653, 0.832783, 0.828031, 0.81611, 0.820684, 0.848317, 0.842374, 0.842893, 0.00440958, 0.901347, 0.956435, 0.908666, 0.898442, 1.19284, 0.821616, 0.958936, 0.885042, 0.786005, 0.775253, 0.78414, 0.790139, 0.794031, 0.793941, 0.795042, 0.802927, 0.804783, 0.807109, 0.808214, 0.810821, 0.808861, 0.806914, 0.807566, 0.803649, 0.804786, 0.799808, 0.802091
0.499395, 0.497217, 0.496739, 0.86049, 0.507084, 0.504122, 0.746752, 0.808415, 0.500588, 0.500671, 0.495331, 0.492951, 0.494102, 0.489982, 0.497231, 0.701022, 0.952455, 1.00923, 0.681095, 0.480964, 0.674682, 0.671364, 0.500887, 0.859799, 0.950029, 0.801615, 0.796885, 0.768065, 0.795073, 0.551648, 0.55184, 0.557789, 0.557024, 0.56059, 0.562032, 0.577565, 0.593979, 0.772631, 0.695078, 0.00457231, 0.955836, 0.74527, 0.808765, 0.64441, 0.645012, 0.640059, 0.693919, 0.741957, 0.876241, 0.830464, 0.88388, 0.883889, 0.893998, 0.91106, 0.930327, 0.962939, 0.949704, 0.950565, 0.98741, 1.06662, 1.06779, 1.02289, 0.981076, 1.00944, 1.05573, 1.12897, 1.13068, 1.17768, 1.17495, 1.17532, 1.13602, 1.16031, 1.20217, 1.17141, 1.172, 1.16739, 1.20544, 1.22611, 1.19686, 1.18865, 1.19562, 1.19532, 1.14983, 1.13563, 1.17152, 1.17074, 1.1706, 1.18926, 1.22361, 1.16787, 1.18503, 1.13904, 1.06609, 1.04982, 1.03606, 1.01269, 0.999709, 1.00199, 0.970397, 1.03666, 0.946238, 0.926476, 0.914903, 0.878751, 0.885961, 0.860481, 0.861913, 0.879473, 0.824223, 0.822002, 0.816596, 0.820763, 0.785734, 0.850302, 0.819551, 0.831777, 0.819779, 0.817104, 0.895954, 0.849071, 0.8491, 0.842718, 0.874, 0.90304, 0.964768, 0.90178, 0.945957, 0.960195, 0.82337, 0.820372, 0.872887, 0.858273, 0.776112, 0.780027, 0.781683, 0.789989, 0.811587, 0.802416, 0.803797, 0.804861, 0.806771, 0.809218, 0.811592, 0.806635, 0.806933, 0.806141, 0.803672, 0.802023, 0.800164, 0.801179
0.497597, 0.513767, 0.734359, 0.510953, 0.507438, 0.506491, 0.501942, 0.719501, 0.850523, 0.723272, 0.587439, 0.506689, 0.505948, 0.497819, 0.49757, 0.494303, 0.693731, 0.484432, 0.486865, 0.481752, 0.483062, 0.672836, 1.01575, 0.520441, 0.950361, 0.526107, 0.79619, 0.796264, 0.797101, 0.550785, 0.553054, 0.558928, 0.56005, 0.562898, 0.562409, 0.793895, 0.594293, 0.603677, 0.955586, 0.956742, 0.9514, 0.740231, 0.674019, 0.645148, 0.645094, 0.639963, 0.689849, 0.680753, 0.806989, 0.804976, 0.870687, 0.905865, 0.898294, 0.935969, 0.938332, 1.05164, 0.954038, 0.967291, 0.970483, 0.97174, 0.971182, 1.00428, 1.08319, 1.00786, 1.01715, 1.13056, 1.12907, 1.10867, 1.17391, 1.17541, 1.31336, 1.13628, 1.21296, 1.17003, 1.1708, 1.15541, 1.15813, 1.19841, 1.23774, 1.1999, 1.23936, 1.19712, 1.13455, 1.12911, 1.16715, 1.17518, 1.16759, 1.14395, 1.15021, 1.15126, 1.12417, 1.06761, 1.01693, 1.04932, 1.04988, 1.02367, 0.96861, 0.967485, 0.961949, 0.945956, 0.945913, 0.917889, 0.898498, 0.879486, 0.944586, 0.868067, 0.87036, 0.906128, 0.8212, 0.823255, 0.818561, 0.862679, 0.804271, 0.849458, 0.81722, 0.830242, 0.821579, 0.818062, 0.843184, 0.850115, 0.844518, 0.846163, 0.856805, 0.00438599, 0.879749, 0.888067, 0.877364, 0.844765, 0.824091, 0.824054, 0.839225, 0.860385, 0.775193, 0.77987, 0.781143, 0.790645, 0.791436, 0.80486, 0.804417, 0.804889, 0.80693, 0.810531, 0.811059, 0.807062, 0.806948, 0.805936, 0.802691, 0.798475, 0.796727, 0.799561
0.510661, 0.513928, 0.514189, 0.512625, 0.508657, 0.506594, 0.855973, 1.05094, 1.13355, 0.722113, 0.51029, 0.507689, 0.506667, 0.503972, 0.496823, 0.4948, 0.693431, 0.484566, 0.486534, 0.484528, 0.483597, 1.03759, 1.02255, 1.23835, 1.01154, 0.931707, 0.76792, 0.818792, 0.833855, 0.7292, 0.558257, 0.561007, 0.561923, 0.564158, 0.56601, 0.699477, 0.59457, 0.617671, 0.94874, 0.920007, 0.75587, 0.719827, 0.671137, 0.643962, 0.643209, 0.63035, 0.681376, 0.681562, 0.677799, 0.849133, 0.85362, 0.867824, 0.912156, 0.93685, 0.991779, 0.952003, 0.937128, 0.970518, 0.976517, 0.978196, 1.03553, 0.976408, 1.01271, 1.04339, 0.987343, 1.01548, 1.07813, 1.07511, 1.09979, 1.17925, 1.11311, 1.12579, 1.11661, 1.3752, 1.16696, 1.16182, 1.13096, 1.20904, 1.21333, 1.19988, 1.20527, 1.21201, 1.18304, 1.13462, 1.16845, 1.18061, 1.17824, 1.13914, 1.14974, 1.19906, 1.07501, 1.04029, 1.00233, 1.0406, 0.993456, 0.98591, 0.97045, 0.970502, 0.97388, 0.976899, 0.90765, 0.894892, 0.888268, 0.877694, 0.883969, 0.902302, 0.889516, 0.884825, 0.821374, 0.864799, 0.821385, 0.819095, 0.805007, 0.811717, 0.847009, 0.830028, 0.918554, 0.90952, 0.871164, 0.8531, 0.84496, 0.847575, 0.848198, 0.931847, 0.880237, 0.868739, 0.926874, 0.824419, 0.822203, 0.924688, 0.840748, 0.851845, 0.854521, 0.779542, 0.779833, 0.791001, 0.793577, 0.805491, 0.80514, 0.805622, 0.809552, 0.809873, 0.806093, 0.807512, 0.807114, 0.807269, 0.804563, 0.794341, 0.792128, 0.808848
0.511512, 0.514839, 0.514897, 0.513723, 0.514429, 0.515544, 0.514851, 0.513857, 0.513484, 0.512513, 0.510669, 0.509441, 0.508242, 0.507235, 0.499644, 0.496952, 0.491401, 0.485975, 0.486709, 0.486104, 0.484047, 1.14226, 1.19142, 1.56317, 1.01162, 0.547848, 0.839843, 0.990623, 0.971584, 0.909133, 0.657162, 0.562449, 0.565212, 0.565575, 0.566341, 0.71287, 0.593782, 0.588851, 0.935246, 0.941789, 0.696546, 0.694336, 0.673296, 0.64024, 0.629996, 0.631339, 0.680522, 0.682247, 0.712432, 0.850969, 0.836802, 0.863886, 0.907601, 0.938788, 0.951362, 0.952641, 0.938259, 0.970361, 0.975184, 0.978085, 0.980744, 1.01838, 1.01477, 0.940775, 1.01668, 0.995277, 1.07588, 1.07679, 1.08649, 1.0756, 1.10889, 1.12087, 1.08801, 1.09146, 1.1795, 1.19281, 1.16326, 1.20237, 1.21376, 1.23233, 1.20479, 1.21713, 1.20884, 1.10387, 1.10256, 1.13373, 1.13927, 1.13939, 1.21888, 1.09167, 1.04683, 1.00208, 1.00279, 0.980849, 1.02594, 0.977254, 0.958394, 0.994236, 0.964133, 0.940761, 0.905246, 0.870873, 0.884421, 0.874563, 0.870496, 0.856733, 0.88832, 0.890883, 0.884074, 0.817857, 0.8766, 0.90938, 0.8206, 0.811691, 0.847742, 0.909771, 0.911258, 0.860459, 0.905704, 0.894517, 0.846412, 0.84669, 0.838812, 0.820081, 0.821494, 0.831681, 0.00420779, 0.853119, 0.822056, 0.919324, 0.83948, 0.8466, 0.00442282, 0.778457, 0.780123, 0.791088, 0.793463, 0.802893, 0.804903, 0.806569, 0.808284, 0.806052, 0.807414, 0.806846, 0.807814, 0.807993, 0.80615, 0.792168, 0.791435, 0.813031
0.512432, 0.514849, 0.515083, 0.514222, 0.515165, 0.517144, 0.516003, 0.514874, 0.514685, 0.513722, 0.511442, 0.509604, 0.508683, 0.507819, 0.500223, 0.499544, 0.690735, 0.486529, 0.486936, 0.485573, 0.482695, 0.481512, 0.518232, 1.01863, 0.749421, 0.52458, 0.742364, 0.991803, 0.591197, 0.91493, 0.752209, 0.562609, 0.565852, 0.562269, 0.567105, 0.0042077, 0.66709, 0.589503, 0.589894, 0.928613, 0.693984, 0.697761, 0.68736, 0.674501, 0.63186, 0.633126, 0.681324, 0.682269, 0.67924, 0.775951, 0.825778, 0.839394, 0.911871, 0.938093, 0.938527, 0.937725, 0.938315, 0.925909, 0.935797, 0.95417, 0.944384, 0.949074, 0.917956, 0.95029, 0.97423, 0.954122, 1.06795, 1.02636, 1.10116, 1.06919, 1.10775, 1.08035, 1.06221, 1.07802, 1.10658, 1.27753, 1.09188, 1.10635, 1.20644, 1.27058, 1.26891, 1.37163, 1.09112, 1.072, 1.07675, 1.11493, 1.1421, 1.14271, 1.22013, 1.07863, 1.06381, 1.06505, 1.01802, 0.998797, 0.955473, 0.957134, 0.950651, 0.996103, 0.973931, 0.930105, 0.895913, 0.871922, 0.876811, 0.872706, 0.936044, 0.93606, 0.927985, 0.874774, 0.840879, 0.830155, 0.864164, 0.866151, 0.821913, 0.827841, 0.904441, 0.905165, 0.86294, 0.863088, 0.861049, 0.861964, 0.853716, 0.83716, 0.819281, 0.818785, 0.818683, 0.814631, 0.808057, 0.992067, 0.807903, 0.878386, 0.847295, 0.845916, 1.08782, 0.794942, 0.779955, 0.788176, 0.79479, 0.802765, 0.806386, 0.80681, 0.808167, 0.805404, 0.807324, 0.80825, 0.810455, 0.808334, 0.806724, 0.796218, 0.797111, 0.811289
0.512553, 0.513764, 0.513869, 0.514779, 0.51711, 0.517141, 0.516885, 0.51684, 0.515967, 0.513849, 0.511952, 0.511886, 0.510204, 0.501749, 0.50102, 0.498746, 0.498885, 0.486331, 0.487466, 0.980752, 0.480206, 0.476516, 0.488239, 0.521771, 0.866738, 0.556644, 1.0148, 0.979094, 0.621701, 0.746905, 0.748274, 0.562282, 0.562846, 0.562177, 0.566779, 0.719177, 0.590041, 0.590377, 0.589813, 0.938975, 0.700375, 0.713629, 0.691439, 0.623819, 0.631112, 0.633631, 0.62639, 0.724519, 0.642029, 0.777115, 0.819327, 0.863914, 0.833318, 0.943436, 1.02582, 0.932739, 0.919889, 0.92404, 0.928356, 0.945793, 0.925116, 0.923341, 0.916958, 0.918323, 0.935159, 0.978013, 0.984854, 1.01135, 1.05962, 1.06049, 1.06781, 1.06947, 1.10877, 1.10248, 1.10323, 1.07968, 1.07833, 1.06238, 1.11744, 1.20001, 1.40671, 1.20675, 1.08464, 1.07822, 1.10332, 1.19741, 1.19448, 1.14324, 1.0709, 1.04894, 1.05677, 1.01897, 0.975909, 0.981143, 0.95687, 0.956204, 0.93962, 0.939838, 0.922898, 0.922689, 0.897781, 0.936516, 0.944648, 0.856363, 0.935884, 0.85902, 0.927936, 0.823944, 0.826474, 0.828792, 0.843679, 0.821583, 0.829217, 0.825907, 0.839066, 0.873513, 0.857937, 0.861476, 0.862576, 0.862566, 0.867421, 0.847192, 0.817923, 0.812285, 0.808836, 1.22839, 0.904235, 0.907422, 0.902798, 0.871643, 0.86128, 0.845161, 0.795218, 0.801671, 0.780032, 0.781088, 0.794002, 1.25349, 0.801663, 0.800621, 0.803598, 0.804935, 0.808296, 0.811253, 0.808262, 0.806658, 0.804947, 0.795504, 0.797463, 0.800719
0.512022, 0.511124, 0.513758, 0.512337, 0.516578, 0.516049, 0.516219, 0.515576, 0.514848, 0.503924, 0.511601, 0.511787, 0.511333, 0.51127, 0.500656, 0.500108, 0.499555, 0.949732, 0.486883, 0.475609, 0.47757, 0.476709, 0.49281, 0.798959, 0.850596, 0.804547, 0.534595, 0.665013, 0.662032, 0.640277, 0.669813, 1.08825, 1.08788, 0.56172, 0.560429, 0.584959, 0.589677, 0.589838, 0.588845, 0.00448619, 0.716421, 0.726754, 0.645901, 0.624505, 0.624826, 0.633804, 0.627487, 0.724612, 0.667846, 0.795605, 0.83259, 0.8054, 0.829072, 0.84675, 0.85099, 0.855726, 0.899248, 0.929159, 0.92927, 0.93559, 1.01955, 0.915906, 0.910625, 0.914331, 0.936184, 0.943063, 0.978409, 0.970651, 0.997533, 1.07004, 1.07177, 1.07233, 1.05158, 1.04223, 1.03945, 1.06273, 1.0594, 1.06112, 1.05247, 1.06743, 1.21252, 1.08003, 1.08484, 1.07625, 1.14327, 1.14265, 1.13616, 1.1658, 1.05443, 1.04936, 1.00819, 0.988889, 0.960622, 0.999073, 0.943599, 0.956874, 0.928842, 0.940825, 0.915931, 0.966947, 0.890254, 0.935114, 0.946488, 0.864396, 0.847989, 0.829837, 0.837239, 0.930516, 0.829164, 0.827114, 0.845274, 0.845574, 0.825966, 0.841743, 0.841179, 0.873521, 0.896726, 0.862458, 0.861756, 0.858107, 0.85959, 0.834238, 0.82992, 0.804066, 0.80002, 1.23775, 0.898441, 0.899367, 0.789792, 0.859102, 0.859456, 0.790534, 0.794022, 0.794173, 0.781216, 0.781653, 0.789171, 0.790062, 0.799257, 0.80078, 0.80419, 0.806823, 0.809063, 0.810641, 0.808081, 0.805043, 0.805046, 0.797055, 0.798051, 0.804104
0.511, 0.51117, 0.511968, 0.513163, 0.514077, 0.514194, 0.514519, 0.514496, 0.505137, 0.505066, 0.50451, 0.511607, 0.511604, 0.51305, 1.12607, 0.501391, 0.499383, 0.495709, 1.04245, 0.476566, 0.477147, 0.477115, 0.492454, 0.997654, 1.00447, 0.866536, 0.761185, 0.667482, 0.662355, 0.526629, 0.52744, 0.777987, 0.545462, 0.546736, 0.555496, 0.580998, 0.790418, 0.681216, 0.667847, 0.664634, 0.833417, 0.653194, 0.628015, 0.625379, 0.625005, 0.621655, 0.724575, 0.631379, 0.676384, 0.733496, 0.772616, 0.836269, 0.828184, 0.848725, 0.849258, 0.852682, 0.897942, 0.898575, 0.915901, 0.904372, 0.90222, 0.909771, 0.907985, 0.916495, 0.932916, 0.924383, 0.950388, 0.991532, 0.998687, 1.07246, 1.06859, 1.07352, 1.04726, 1.02734, 1.02887, 1.04579, 1.0913, 1.06107, 1.04767, 1.08694, 1.05493, 1.05557, 1.08796, 1.07376, 1.17598, 1.18085, 1.15745, 1.15117, 1.02084, 1.02219, 1.00799, 0.990053, 0.942931, 0.93984, 0.925019, 0.928362, 0.922348, 0.938815, 0.937891, 0.900444, 0.886512, 0.857108, 0.848698, 0.862819, 0.845741, 0.860329, 0.822148, 0.915357, 0.827798, 0.824746, 0.878359, 0.825442, 0.906036, 0.843282, 0.842422, 0.843002, 0.893269, 0.858753, 0.861485, 0.990668, 0.987927, 0.821174, 0.808554, 0.801623, 0.789142, 0.791658, 0.888831, 0.801032, 0.794153, 0.783364, 0.953004, 0.78571, 0.793428, 0.79355, 0.774705, 0.774055, 0.785259, 0.787693, 0.90805, 1.03066, 0.800844, 0.803149, 0.811354, 0.8092, 0.80903, 0.807014, 0.805292, 0.794923, 0.798921, 0.804867
0.58814, 0.60487, 0.532124, 0.632221, 0.509629, 0.574939, 0.641451, 0.505753, 0.507, 0.506897, 0.505275, 0.510639, 0.513672, 0.513797, 0.509252, 0.506446, 0.499309, 0.496369, 0.92627, 0.476224, 0.477504, 0.478517, 0.539326, 0.95541, 0.954038, 0.916567, 0.51238, 0.515312, 0.528301, 0.527541, 0.527507, 0.778324, 0.546382, 0.54811, 0.54783, 0.785636, 0.795637, 0.795826, 0.669898, 0.659683, 0.662762, 0.627784, 0.6283, 0.626265, 0.639463, 0.622907, 0.63128, 0.679007, 0.69749, 0.726282, 0.738465, 0.813938, 0.81533, 0.849068, 0.857671, 0.857424, 0.941949, 0.87755, 0.88564, 0.906383, 0.89671, 0.916568, 0.908707, 0.922276, 0.921992, 0.925293, 0.925078, 0.972251, 0.990504, 1.06833, 1.07013, 1.1509, 1.02507, 1.01948, 1.0111, 1.02329, 1.0869, 1.0611, 1.05317, 1.03768, 1.05409, 1.12998, 1.04247, 1.06783, 1.08143, 1.15039, 1.10279, 1.07708, 1.05055, 1.03896, 0.988589, 0.954612, 0.95886, 0.941679, 0.924018, 0.938625, 0.932697, 0.938429, 0.883441, 0.884349, 0.831944, 0.847135, 0.817885, 0.91474, 0.852343, 0.830068, 0.821967, 0.813585, 0.818935, 0.820004, 0.886971, 0.82879, 0.900887, 0.856126, 0.829501, 0.830811, 0.847263, 0.992457, 1.04308, 0.970243, 0.821476, 0.818485, 0.828588, 0.78805, 0.787785, 0.783535, 0.892749, 0.887888, 0.774725, 1.17237, 1.17262, 0.786384, 0.791157, 0.79324, 0.773427, 0.774665, 0.78443, 0.788302, 1.02664, 0.806739, 0.800737, 0.805777, 0.807943, 0.808669, 0.809664, 0.8026, 0.791807, 0.792805, 0.794958, 0.803617
0.555842, 0.607594, 0.564849, 0.64673, 0.00437217, 0.496224, 0.500726, 0.505299, 0.506748, 0.50688, 0.506738, 0.509292, 0.514713, 0.513753, 0.510465, 0.507118, 0.504755, 0.496864, 0.490536, 0.475236, 0.483356, 1.01501, 0.493633, 1.01468, 0.894543, 0.511356, 0.515283, 0.51572, 0.529457, 0.528172, 0.526673, 0.544771, 0.544795, 0.54692, 0.548199, 0.795054, 0.797355, 0.86098, 0.878155, 1.01921, 0.915407, 0.626059, 0.627155, 0.625305, 0.624834, 0.625192, 0.630811, 0.632485, 0.608522, 0.694269, 0.685088, 0.726803, 0.739586, 0.82874, 0.882627, 0.863237, 0.935263, 0.855959, 0.891146, 0.90443, 0.901557, 0.900458, 0.981712, 0.925615, 0.925615, 0.933256, 0.925454, 0.971988, 0.986461, 0.978585, 1.00652, 0.997919, 1.01251, 1.02021, 1.01644, 1.01157, 1.05397, 1.46102, 1.02684, 1.02152, 1.02557, 1.03675, 1.03185, 1.04572, 1.03799, 1.03903, 1.06422, 1.05945, 1.03633, 1.03042, 1.03969, 0.957345, 0.977352, 0.938675, 0.943486, 0.942138, 0.950555, 0.878303, 0.883674, 0.885311, 0.868062, 0.839156, 0.818904, 0.839378, 0.801928, 0.80103, 0.999647, 0.814657, 0.96923, 0.976316, 0.819205, 0.852127, 0.884408, 0.854749, 0.831677, 0.83138, 0.858971, 0.854154, 1.1336, 0.00423818, 0.922086, 0.989032, 0.822439, 0.782325, 0.777298, 0.776823, 1.10237, 0.87439, 0.965296, 1.19488, 1.17393, 0.878047, 0.791595, 0.792554, 0.786448, 0.776731, 0.777913, 0.787225, 1.2774, 0.805146, 0.807295, 0.806533, 0.806444, 0.806633, 0.811843, 0.791046, 0.793746, 0.793674, 0.795506, 0.801733
0.473656, 0.834415, 0.5505, 0.656864, 0.491986, 0.497694, 0.497269, 0.505099, 0.506613, 0.506323, 0.502591, 0.506425, 0.514146, 0.513371, 0.509564, 0.507186, 0.504925, 0.49305, 0.491802, 0.489848, 0.486605, 0.483847, 0.912174, 1.00601, 0.913064, 0.511155, 0.516775, 0.5158, 0.528471, 0.527523, 0.780056, 0.545165, 0.544982, 0.54417, 0.81464, 1.00245, 0.646433, 0.656476, 0.655371, 1.0395, 0.913976, 0.915617, 0.623916, 0.62565, 0.626236, 0.625506, 0.609106, 0.610565, 0.609213, 0.698507, 0.699085, 0.727898, 0.714913, 0.827562, 0.811693, 0.828848, 0.897079, 0.908859, 0.848375, 0.890048, 0.959478, 0.889148, 0.933019, 0.931987, 0.920236, 1.00348, 0.935907, 0.979839, 0.978306, 0.99201, 0.960473, 0.990274, 1.01543, 1.00603, 1.02572, 1.00595, 1.05632, 1.20471, 1.00475, 1.02291, 0.993585, 1.00083, 1.02877, 1.03327, 1.03936, 1.0393, 1.05539, 1.05822, 1.04869, 1.00939, 0.976994, 0.963129, 0.929932, 0.926448, 0.925008, 1.02704, 1.03305, 0.912197, 0.900785, 0.849646, 0.866779, 0.808087, 0.824733, 0.827663, 0.801893, 0.791949, 0.92084, 0.925499, 0.998321, 0.813177, 0.811938, 0.881042, 0.884643, 0.839385, 0.834227, 0.835085, 0.859956, 0.852427, 0.948502, 0.990759, 1.09583, 1.09225, 0.781709, 0.783015, 0.778426, 0.77594, 0.772456, 0.770378, 1.15022, 1.17543, 1.17362, 0.856167, 1.15571, 0.790422, 0.781168, 0.775707, 0.779586, 0.779821, 0.790346, 0.79227, 0.808153, 0.998975, 0.966613, 0.800817, 0.815958, 0.791697, 0.793692, 0.79389, 0.796661, 0.798633
0.472507, 0.835139, 0.47983, 0.555779, 0.49313, 0.496304, 0.504703, 0.505699, 0.504269, 0.504633, 0.504307, 0.973497, 0.513546, 0.51258, 0.508104, 0.494475, 0.494755, 0.492711, 0.491967, 0.489959, 0.488004, 0.487508, 1.01829, 0.995587, 0.502178, 0.512284, 0.514511, 0.516128, 0.528077, 0.766886, 0.542446, 0.543554, 0.544143, 0.544574, 0.86769, 0.596464, 0.648216, 0.610263, 0.701227, 0.928627, 0.765461, 0.914427, 0.623015, 0.624418, 0.623347, 0.62519, 0.609067, 0.609724, 0.643198, 0.626198, 0.698773, 0.683054, 0.715453, 0.743792, 0.836264, 0.824367, 0.827359, 0.905444, 0.840541, 0.8501, 0.871095, 0.899399, 0.959759, 0.915412, 0.997912, 1.00459, 0.934143, 1.01968, 0.963816, 0.955971, 0.960303, 0.961247, 0.971929, 0.971908, 1.02127, 0.957304, 1.00961, 1.18114, 1.0095, 0.990247, 0.985145, 0.994386, 1.00155, 1.00941, 1.05194, 1.10199, 1.04676, 1.0078, 1.04274, 1.0042, 0.967078, 0.946297, 0.923697, 0.922898, 0.917663, 1.02694, 1.02548, 0.872234, 0.869235, 0.849836, 0.840128, 0.808934, 0.788285, 0.797402, 0.790065, 0.79152, 0.798159, 0.80454, 0.812775, 0.814462, 0.812349, 0.884238, 0.900968, 0.838199, 0.835297, 0.835532, 0.834463, 0.844282, 0.839378, 1.09177, 1.08602, 0.776189, 0.780309, 0.782606, 0.777386, 0.769204, 0.766883, 0.766888, 1.17652, 0.750523, 0.751228, 0.769169, 0.79525, 0.784924, 0.864065, 0.776487, 0.777934, 0.784354, 0.79234, 0.793463, 0.793743, 0.794036, 0.798044, 0.801199, 0.800669, 0.791077, 0.792565, 0.797799, 0.797718, 0.798142
0.471915, 0.479365, 0.479132, 0.629289, 0.493192, 0.495037, 0.50498, 0.504914, 0.503376, 0.502324, 0.493303, 0.494195, 0.49838, 0.498313, 0.497445, 0.494252, 0.493485, 0.49282, 0.491582, 0.490824, 0.488665, 0.487378, 0.497047, 0.497565, 0.503273, 0.50229, 0.516847, 0.516354, 0.552872, 0.598329, 0.541598, 0.541907, 0.544985, 0.549941, 0.625373, 0.606693, 1.00533, 0.594329, 0.590039, 0.59069, 0.807697, 0.697812, 0.61901, 0.653019, 0.824734, 0.646674, 0.60923, 0.61063, 0.605554, 0.626711, 0.6395, 0.625029, 0.716613, 0.724193, 0.770647, 0.853798, 0.834187, 0.907821, 0.848287, 0.846468, 0.858804, 0.8845, 0.917667, 0.967902, 0.913219, 1.00558, 0.941792, 1.01992, 0.956588, 0.955581, 0.961001, 1.02149, 0.96879, 0.970806, 0.964143, 0.957605, 1.00765, 0.966263, 0.965346, 1.00108, 0.966132, 0.984495, 1.00056, 1.01109, 1.1044, 1.09778, 1.0438, 0.977286, 1.00418, 0.97869, 0.987572, 0.946502, 0.922796, 0.922246, 0.911782, 1.02362, 1.06042, 0.875315, 0.85169, 0.92525, 0.837178, 0.822655, 0.78835, 0.79919, 0.788462, 0.792181, 0.91193, 0.793938, 0.812511, 0.813972, 0.880697, 0.926349, 0.833932, 0.83422, 0.834926, 0.835493, 0.830484, 0.842954, 0.904169, 0.777683, 0.768038, 0.768878, 0.776801, 0.786122, 0.773259, 0.76989, 0.767261, 0.762755, 0.764546, 0.751398, 0.755579, 0.763199, 0.834798, 0.784467, 0.78303, 0.782661, 0.78114, 0.783611, 0.794137, 0.79224, 0.792455, 0.794827, 1.11892, 0.79905, 0.797689, 0.793738, 0.790674, 0.797591, 0.798509, 0.797683
0.473039, 0.47423, 0.477775, 0.476656, 0.491944, 0.63877, 0.494067, 0.50396, 0.497288, 0.495636, 0.494994, 0.495722, 0.499874, 0.5, 0.497615, 0.495264, 0.494165, 0.491142, 0.491297, 0.490312, 0.48879, 0.498029, 0.49971, 0.498938, 0.500591, 0.495762, 0.515222, 0.516313, 0.836197, 0.529914, 0.541958, 0.540163, 0.554924, 0.55418, 0.6228, 0.597246, 0.578585, 0.705266, 0.587909, 0.590172, 0.588488, 0.808732, 0.603983, 0.825715, 0.813279, 0.647064, 0.600497, 0.599051, 0.605627, 0.61164, 0.629155, 0.626335, 0.652398, 0.764353, 0.771011, 0.758834, 0.835695, 0.842772, 0.845809, 0.856483, 0.866358, 0.923816, 0.892097, 0.900698, 0.892038, 0.92316, 0.922761, 0.928705, 0.935634, 0.963716, 0.956196, 1.0249, 0.952046, 0.964072, 0.964468, 0.957616, 1.03323, 1.00485, 0.966976, 0.961438, 0.962743, 0.925234, 1.13525, 1.0111, 1.09431, 1.09419, 0.974205, 0.974808, 1.02215, 0.988907, 0.982128, 0.921193, 0.922875, 0.907128, 0.888287, 0.895317, 0.917175, 0.836647, 0.837295, 0.840234, 0.819547, 0.804822, 0.78743, 0.787432, 0.782977, 0.78423, 0.902736, 0.788664, 0.882308, 0.861863, 0.884449, 0.827733, 0.83367, 0.83602, 0.834414, 0.831173, 1.10231, 0.814583, 0.866871, 0.768686, 0.769532, 0.773562, 0.781053, 0.786498, 0.773856, 0.769814, 0.76544, 0.762959, 0.765605, 1.17666, 0.757235, 0.759815, 0.770732, 0.783637, 0.783002, 0.783514, 0.784779, 0.787478, 0.792328, 0.792818, 0.789713, 0.790417, 0.785117, 0.876196, 0.795339, 0.791467, 0.795084, 0.797727, 0.79808, 0.892176
0.474155, 0.477435, 0.477585, 0.479733, 0.628737, 0.627654, 0.496249, 0.497418, 0.496768, 0.496638, 0.4953, 0.499837, 0.499526, 0.499555, 0.498973, 0.496189, 0.493394, 0.49227, 0.489799, 0.489248, 0.488438, 0.497648, 0.497323, 0.500323, 0.49977, 0.49669, 0.514197, 0.514505, 0.526477, 0.529201, 0.535399, 0.538199, 0.605497, 0.555161, 0.627591, 0.739413, 0.724531, 0.584592, 0.587536, 0.58968, 0.589824, 0.594049, 0.608968, 0.825258, 0.596367, 0.596406, 0.597494, 0.598988, 0.608318, 0.611269, 0.62819, 0.62569, 0.665242, 0.704786, 0.771107, 0.750484, 0.835712, 0.843047, 0.837302, 0.852752, 0.876633, 0.920057, 0.893682, 0.899053, 0.893304, 0.923556, 1.08352, 0.928342, 0.919436, 0.939975, 0.939689, 0.949101, 0.960437, 0.991807, 0.993706, 0.963644, 0.950509, 0.998572, 0.935566, 0.937057, 0.974512, 0.925596, 1.13691, 1.10837, 1.00712, 0.96925, 1.01886, 0.993711, 0.938818, 1.01218, 0.958897, 0.939453, 0.949256, 0.898962, 0.888188, 0.862446, 0.878256, 0.849092, 0.83896, 0.850087, 0.81918, 0.842915, 0.800174, 0.787078, 0.781117, 0.781155, 0.785584, 0.779505, 0.877167, 0.905738, 0.923827, 0.922202, 0.834374, 0.835862, 0.83354, 0.838814, 1.0953, 0.812209, 0.804142, 0.773928, 0.769762, 0.799994, 0.780273, 0.00436534, 0.771608, 0.761388, 0.762001, 0.764619, 0.765732, 0.765329, 0.758489, 0.758254, 1.04291, 0.776081, 0.779927, 0.783915, 0.786207, 0.786687, 0.786983, 0.787454, 0.787032, 0.785208, 0.785222, 0.786726, 0.794659, 0.793639, 0.856488, 0.79736, 0.802024, 0.802653
0.474567, 0.474881, 0.478809, 0.477538, 0.584299, 0.587071, 0.495079, 0.497774, 0.49777, 0.499675, 0.501297, 0.503847, 0.503648, 0.502028, 0.501087, 0.501572, 0.493464, 0.708968, 0.485984, 0.486955, 1.00126, 0.498204, 0.498027, 0.498091, 0.495236, 0.498044, 0.794371, 0.800757, 0.529411, 0.530086, 0.528899, 0.537672, 0.552651, 0.553791, 0.753657, 0.738731, 0.72771, 0.585332, 0.587184, 0.588755, 0.588259, 0.582185, 0.584089, 0.585057, 0.596696, 0.597411, 0.596922, 0.60062, 0.609152, 0.611648, 0.636637, 0.634629, 0.663783, 0.676534, 0.701533, 0.744859, 0.744162, 0.850456, 0.781702, 0.780066, 0.852309, 0.917473, 0.919248, 0.86407, 0.893412, 0.894641, 0.900527, 0.937978, 0.92667, 0.940745, 0.926862, 0.944292, 0.973701, 0.943735, 0.965999, 1.00177, 0.950266, 0.960499, 0.976545, 0.938895, 0.975019, 0.970289, 1.14354, 1.14352, 0.960096, 0.956573, 0.96036, 0.921895, 0.950781, 0.914462, 0.915234, 0.922412, 0.974428, 0.943317, 0.873553, 0.850705, 0.850383, 0.825317, 0.843649, 0.827897, 0.828633, 0.860934, 0.881331, 0.881543, 0.77986, 0.77978, 0.784388, 0.784454, 0.885999, 0.807865, 0.808026, 0.919265, 0.835309, 0.836108, 0.833202, 0.821523, 0.822632, 0.807421, 1.04954, 0.767547, 0.752708, 0.794191, 0.983547, 0.764312, 1.00234, 0.761746, 0.762046, 0.763736, 0.765677, 0.788507, 0.764582, 0.768287, 0.771622, 0.774161, 0.776908, 0.779056, 0.785014, 0.786526, 0.785168, 0.787494, 0.781108, 0.785996, 0.785915, 0.786124, 0.794387, 0.793546, 0.794955, 0.796854, 0.800943, 0.804742
0.474526, 0.476733, 0.478642, 0.477374, 0.753167, 0.500485, 0.502718, 0.502259, 0.501794, 0.502378, 0.501465, 0.504699, 0.504598, 0.503446, 0.502565, 0.501969, 0.501484, 0.48738, 0.485759, 0.9011, 0.915498, 0.498069, 0.498084, 0.499099, 0.49672, 0.500763, 0.501396, 0.825678, 0.529562, 0.529557, 0.529113, 0.606307, 0.553646, 0.553437, 0.579508, 0.573654, 0.57357, 0.899934, 0.586874, 0.581587, 0.58198, 0.582584, 0.582066, 0.586228, 0.594626, 0.597534, 0.597789, 0.609162, 0.608902, 0.666178, 0.638217, 0.619057, 0.616124, 0.687209, 0.690149, 0.746089, 0.744461, 0.810262, 0.782083, 0.779805, 0.771368, 0.941909, 0.8653, 0.853893, 0.895848, 0.895207, 0.911816, 0.956664, 0.918448, 0.937589, 0.963138, 0.930421, 0.920545, 0.926526, 0.941171, 0.96336, 0.948235, 0.979424, 0.935294, 0.959182, 0.92288, 0.995084, 0.996686, 1.07884, 1.00985, 0.943111, 0.980138, 0.912104, 0.891554, 0.928968, 0.90535, 0.910521, 0.93014, 0.937254, 0.845253, 0.921718, 0.81146, 0.822106, 0.801636, 0.800778, 0.819038, 0.83183, 0.880751, 0.882425, 0.778922, 0.77734, 0.777736, 0.777369, 0.874013, 0.808529, 0.960645, 0.911549, 0.834717, 0.83529, 0.832117, 0.809472, 0.805546, 1.03159, 0.778236, 0.85839, 0.753907, 0.819961, 0.766921, 0.769345, 0.762619, 0.761041, 0.761779, 0.763774, 0.764937, 0.789707, 0.766411, 0.767669, 0.773271, 0.774717, 0.77698, 0.779665, 0.78082, 0.786876, 0.784706, 0.774562, 0.779667, 0.784371, 0.786857, 0.788789, 0.792559, 0.792322, 0.794911, 0.795382, 0.797137, 0.804516
0.474184, 0.476428, 0.478258, 0.689183, 0.758393, 0.49727, 0.503236, 0.503865, 0.502617, 0.501613, 0.503618, 0.504054, 0.504998, 0.505124, 0.503507, 0.50245, 0.500666, 0.486093, 0.469591, 0.626411, 0.496913, 0.496495, 0.498002, 0.498546, 0.495977, 0.501791, 0.501418, 0.518877, 0.522488, 0.527768, 0.63596, 0.551745, 0.553233, 0.553292, 0.747853, 0.652733, 0.573088, 0.641884, 0.641928, 0.581905, 0.580955, 0.583059, 0.582886, 0.584486, 0.585087, 0.59694, 0.603653, 0.609708, 0.60728, 0.687111, 0.637718, 0.611154, 0.611113, 0.628442, 0.69019, 0.739322, 0.815014, 0.811718, 0.7852, 0.773219, 0.777155, 0.898817, 0.8494, 0.835106, 0.873002, 0.925135, 0.918455, 0.898375, 0.914925, 0.912833, 0.925655, 0.919799, 0.920676, 0.93535, 0.939694, 0.93966, 0.946124, 0.980207, 0.936445, 0.960404, 0.988561, 0.996396, 0.998755, 0.991047, 0.93573, 0.937318, 0.929329, 0.887631, 0.880781, 0.874222, 0.88684, 0.896045, 0.898029, 0.843829, 0.857383, 0.821223, 0.822474, 0.787836, 0.801147, 0.796006, 0.79509, 0.797662, 0.792337, 0.769761, 0.776569, 0.777619, 0.778597, 0.783483, 0.859304, 0.86649, 0.956175, 0.89794, 0.86686, 0.839973, 1.06154, 0.8081, 0.798085, 0.78397, 0.775042, 0.757045, 0.757555, 0.765568, 0.763549, 0.754496, 0.756822, 0.759752, 0.760878, 0.763077, 0.762871, 0.767076, 0.76778, 0.768361, 0.773268, 0.776343, 0.77783, 0.780391, 0.781863, 0.782864, 0.782667, 0.77394, 0.774882, 0.784419, 0.78576, 0.788922, 0.790559, 0.791924, 0.79314, 0.794445, 0.794524, 0.801363
0.474588, 0.483876, 0.486114, 0.487376, 0.493831, 0.498068, 0.498026, 0.504002, 0.503233, 0.496859, 0.497239, 0.50402, 0.504651, 0.506585, 0.504159, 0.501436, 0.683301, 0.671753, 0.470642, 0.469247, 0.497541, 0.497013, 0.497238, 0.497944, 0.497888, 0.500495, 0.500725, 0.520852, 0.521239, 0.648723, 0.633727, 0.631612, 0.55179, 0.554754, 0.663911, 0.637786, 0.714472, 0.731907, 0.573829, 0.58036, 0.580255, 0.581224, 0.581077, 0.581569, 0.588946, 0.58947, 0.601781, 0.607798, 0.606989, 0.695188, 0.648826, 0.610936, 0.611902, 0.646137, 0.732073, 0.67427, 0.808059, 0.76993, 0.790702, 0.805796, 0.833192, 0.796041, 0.814301, 0.857339, 0.839002, 0.91858, 0.879973, 0.874331, 0.984434, 0.869263, 0.921481, 0.906499, 0.946436, 0.974565, 0.93909, 0.939098, 0.948131, 0.949418, 0.936139, 0.91951, 0.91359, 0.929443, 1.00352, 0.992385, 0.933639, 0.938022, 0.881206, 0.884915, 0.866298, 0.873659, 0.924617, 0.893752, 1.00652, 0.852682, 0.819179, 0.788478, 0.800665, 0.787681, 0.788102, 0.796056, 0.787183, 0.78838, 0.767339, 0.770548, 0.954329, 0.776613, 1.00515, 0.784248, 0.7873, 0.91954, 0.924679, 0.894313, 0.824813, 0.833827, 0.808091, 0.800511, 0.79398, 0.78187, 1.17024, 1.17105, 0.755934, 0.755788, 0.763487, 0.755197, 0.756574, 0.759153, 0.761161, 0.76147, 0.760984, 0.76979, 0.767234, 0.767612, 0.774373, 0.775768, 0.777084, 0.779959, 0.781162, 0.781708, 0.776361, 0.774058, 0.776786, 0.816941, 0.850026, 0.789667, 0.789315, 0.791177, 0.79295, 0.792611, 0.795129, 0.800193
0.807133, 0.486465, 0.487572, 0.494401, 0.495514, 0.495043, 0.498435, 0.50322, 0.496627, 0.497656, 0.496937, 0.502671, 0.505394, 0.506913, 0.503039, 0.688263, 0.68223, 0.47138, 0.470369, 0.470274, 0.494636, 0.496049, 0.496593, 0.602094, 0.521794, 0.522408, 0.522197, 0.522001, 0.521579, 0.70803, 0.603702, 0.577645, 0.675527, 0.749329, 0.663093, 0.659696, 0.659307, 0.560488, 0.567598, 0.575764, 0.578254, 0.579824, 0.579578, 0.582118, 0.590639, 0.58927, 0.601487, 0.600627, 0.604586, 0.612318, 0.681259, 0.612163, 0.611937, 0.609541, 0.659989, 0.675399, 0.808695, 0.767857, 0.752225, 0.748461, 0.832044, 0.801609, 0.790995, 0.81188, 0.84663, 0.839265, 0.880542, 0.878696, 0.86935, 0.869236, 0.850626, 0.86726, 0.942877, 0.967405, 0.937094, 0.938597, 0.935388, 0.970026, 0.948009, 0.913742, 0.906209, 0.914114, 0.926252, 0.931567, 0.962656, 0.925615, 0.876228, 0.870036, 0.842645, 0.840082, 0.856558, 0.866113, 0.863238, 0.860978, 0.78687, 0.788831, 0.785555, 0.782499, 0.78223, 0.779768, 0.788112, 0.787735, 0.768247, 0.761497, 0.766436, 0.775786, 1.00881, 0.783875, 0.787094, 0.945183, 0.887239, 1.07778, 0.831135, 0.818617, 0.806957, 0.999502, 1.16548, 0.776747, 0.764005, 0.955966, 0.737288, 1.13789, 0.752867, 1.09741, 0.755336, 0.759202, 0.760371, 0.761139, 0.762449, 0.766401, 0.772339, 0.766087, 0.915087, 0.773724, 0.771889, 0.777115, 0.779797, 0.774934, 0.77628, 0.77591, 0.776862, 0.830765, 0.844088, 0.787794, 0.788849, 0.788828, 0.788526, 0.792375, 0.79857, 0.800647
0.479799, 0.485832, 0.490033, 0.494109, 0.496294, 0.496163, 0.49758, 0.497153, 0.49709, 0.495435, 0.497039, 0.498821, 0.500911, 0.504636, 0.501388, 1.09962, 0.670663, 0.472358, 0.471863, 0.482467, 0.494599, 0.494576, 0.493347, 0.579624, 0.522354, 0.523759, 0.523934, 0.52286, 0.52173, 0.707283, 0.605022, 0.578922, 0.674109, 0.710744, 0.701896, 0.678257, 0.999305, 0.555302, 0.566127, 0.566786, 0.56916, 0.575809, 0.578166, 0.581769, 0.58977, 0.588517, 0.601179, 0.601425, 0.598904, 0.613882, 0.61756, 0.609945, 0.637055, 0.611658, 0.654575, 0.670386, 0.698539, 0.739776, 0.739347, 0.752291, 0.753877, 0.753384, 0.75755, 0.771886, 0.819487, 0.831723, 0.856607, 0.877981, 0.868316, 0.853772, 0.859231, 0.840261, 0.981611, 0.963448, 0.964533, 0.938521, 0.933765, 0.948036, 0.919775, 0.912471, 0.909226, 0.905382, 0.902966, 0.916642, 0.913425, 0.880553, 0.835553, 0.839023, 0.841205, 0.843796, 0.832713, 0.82294, 0.808113, 0.816106, 0.805983, 0.758847, 0.801572, 0.781237, 0.784527, 0.781103, 0.78189, 0.78905, 0.752774, 0.761312, 0.765901, 0.765721, 0.989003, 0.857604, 0.814623, 0.886579, 0.861217, 0.818641, 0.819497, 0.887243, 0.988547, 0.998519, 0.781555, 0.766393, 0.760283, 0.738243, 0.73726, 0.737576, 0.749092, 0.750104, 0.756095, 0.756483, 0.757973, 0.760124, 0.763292, 0.764634, 0.77115, 0.754324, 1.19625, 0.771057, 0.772912, 0.774579, 0.775986, 0.775439, 0.775128, 0.775483, 0.776919, 0.826082, 0.845003, 0.786748, 0.788266, 0.784781, 0.789667, 0.792193, 0.796352, 0.79894
0.480859, 0.480466, 0.492606, 0.491996, 0.493369, 0.492315, 0.493677, 0.497282, 0.498179, 0.496777, 0.497907, 0.497583, 0.501211, 0.502351, 0.500477, 0.518336, 0.478864, 0.476911, 0.477691, 0.507986, 0.495253, 0.495011, 0.494138, 0.614439, 0.52371, 0.524083, 0.524153, 0.522477, 0.521141, 0.605063, 0.552394, 0.671382, 0.932764, 0.732726, 0.693547, 0.654463, 0.555746, 0.55987, 0.567474, 0.566594, 0.569905, 0.573508, 0.57337, 0.74947, 0.590921, 0.607894, 0.600276, 0.599722, 0.599563, 0.612807, 0.619947, 0.611269, 0.615279, 0.591825, 0.652484, 0.738377, 0.663536, 0.740795, 0.700556, 0.736256, 0.756096, 0.755589, 0.770939, 0.777234, 0.760656, 0.83314, 0.814802, 0.869024, 0.852686, 0.860409, 0.835462, 0.825713, 0.840328, 0.922594, 0.958098, 0.933825, 0.920431, 0.922438, 0.916532, 0.902102, 0.907785, 0.892482, 0.89835, 0.900286, 0.894372, 0.87443, 0.835848, 0.864264, 0.808693, 0.844688, 0.846316, 0.818085, 0.814231, 0.76381, 0.789931, 0.773284, 0.778915, 0.837056, 0.85324, 0.780154, 0.781743, 0.755347, 0.740945, 0.914939, 0.767571, 0.767222, 0.932947, 0.781061, 0.781545, 0.898774, 0.836921, 0.848601, 0.826169, 0.808049, 0.988807, 0.776805, 0.778208, 1.15722, 0.76333, 0.74049, 0.739952, 0.73862, 0.749129, 0.750109, 0.750939, 0.757214, 0.757888, 0.757478, 0.762859, 0.763987, 0.770705, 0.751657, 1.4089, 0.768464, 0.772509, 0.773353, 0.774903, 0.775297, 0.773107, 0.773606, 0.77609, 0.778483, 0.838716, 1.19316, 0.787996, 0.785982, 0.787768, 0.791262, 0.794073, 0.797171
0.483749, 0.482813, 0.492711, 0.491561, 0.493584, 0.494549, 0.494482, 0.498309, 0.498401, 0.497722, 0.498177, 0.498352, 0.500569, 0.501792, 0.524486, 1.27235, 0.479619, 0.47905, 0.478173, 1.05044, 0.494138, 0.495068, 0.494178, 0.616356, 0.523589, 0.524057, 0.523593, 0.62912, 0.510932, 0.514856, 0.594437, 0.607035, 0.932588, 0.718226, 0.701093, 0.693706, 0.866779, 0.866331, 0.560883, 0.781676, 0.568624, 0.572497, 0.57327, 0.573245, 0.592048, 0.592502, 0.599452, 0.597557, 0.609064, 0.608254, 0.618378, 0.612138, 0.616742, 0.593311, 0.583821, 0.741486, 0.665814, 0.676285, 0.683349, 0.69545, 0.702864, 0.726225, 0.769993, 0.751501, 0.745567, 0.749671, 0.774199, 0.881611, 0.854104, 0.86677, 0.825331, 0.828939, 0.868318, 0.951344, 1.00449, 0.939426, 0.953352, 0.95363, 0.907334, 0.89131, 0.87955, 0.879203, 0.878854, 0.885466, 0.901698, 0.836298, 0.838621, 0.81026, 0.79456, 0.851953, 0.759937, 0.760658, 0.763997, 0.764068, 0.824712, 0.80532, 0.732395, 0.837322, 0.843073, 0.882965, 0.75625, 0.757031, 0.74184, 0.741738, 0.766258, 0.888223, 0.859501, 0.782209, 0.782425, 0.81137, 0.854267, 0.8099, 0.817435, 0.91328, 0.986522, 0.778225, 0.771063, 0.760781, 0.74631, 0.742681, 0.741771, 0.740953, 0.747103, 0.749544, 0.74969, 0.754317, 0.755604, 0.756277, 0.756414, 0.762989, 0.768336, 0.7502, 0.752108, 0.767244, 0.769386, 0.88802, 0.773606, 0.769279, 0.770743, 0.765119, 0.981819, 0.771498, 0.850732, 0.78349, 0.787472, 0.787064, 0.788791, 0.791419, 0.794818, 0.797202
0.485274, 0.484384, 0.493031, 0.492563, 0.492894, 0.493597, 0.494512, 0.498024, 0.497224, 0.496873, 0.498331, 0.498328, 0.494296, 0.493259, 0.524489, 1.21664, 0.479601, 0.479282, 0.479092, 0.49834, 0.495184, 0.494983, 0.493896, 0.516157, 0.522812, 0.52278, 0.522218, 0.511068, 0.510846, 0.515965, 0.634856, 0.712705, 0.702233, 0.714073, 0.514654, 0.704804, 0.701799, 0.56283, 0.560374, 0.560449, 0.568911, 0.573439, 0.573133, 0.584896, 0.591354, 0.591402, 0.594956, 0.596964, 0.609525, 0.609203, 0.626021, 0.612728, 0.617005, 0.592675, 0.5864, 0.584262, 0.665286, 0.653304, 0.677516, 0.675797, 0.700867, 0.735614, 0.748834, 0.750821, 0.738879, 0.725695, 0.743399, 0.777025, 0.868611, 0.863769, 0.800949, 0.871175, 0.869446, 0.920233, 0.919841, 0.912556, 0.922882, 0.940899, 0.906762, 0.890656, 0.867635, 0.872131, 0.860067, 0.873434, 0.871749, 0.827764, 0.822094, 0.812516, 0.79417, 0.756976, 0.75201, 0.761452, 0.763173, 0.764562, 0.72857, 0.794487, 0.932618, 0.733555, 0.844169, 0.873603, 0.758677, 0.743417, 0.742521, 1.00888, 0.914411, 0.888221, 0.836404, 0.82311, 0.782108, 0.859527, 0.857092, 0.832498, 0.793202, 0.784321, 0.78357, 0.770586, 0.769863, 0.757635, 0.745999, 0.745486, 0.742035, 0.741872, 0.744442, 0.748757, 0.748147, 0.752452, 0.752957, 0.755521, 0.755373, 0.752739, 0.860096, 0.755808, 0.752928, 0.766999, 0.768194, 0.76245, 0.765246, 0.766192, 0.750181, 0.764626, 0.767948, 0.772545, 0.777148, 0.811287, 0.786427, 0.786903, 0.789753, 0.790777, 0.793908, 0.804675
0.48606, 0.485921, 0.491934, 0.492083, 0.494312, 0.495054, 0.494073, 0.829681, 0.495563, 0.494443, 0.795083, 0.608756, 0.493571, 0.493042, 0.491227, 0.479579, 0.479772, 0.47944, 0.479441, 0.49086, 0.494153, 0.494927, 0.881241, 0.516474, 0.520646, 0.503863, 0.504897, 0.510252, 0.509918, 0.517533, 0.722246, 0.702078, 0.742198, 0.511255, 0.515701, 0.694532, 0.656364, 0.860839, 0.558838, 0.560936, 0.565662, 0.572726, 0.584679, 0.585404, 0.585505, 0.593638, 0.593557, 1.11131, 0.609844, 0.626982, 0.625932, 0.617257, 0.611027, 0.583997, 0.586033, 0.57763, 0.715751, 0.655935, 0.674137, 0.675413, 0.702132, 0.727838, 0.752986, 0.728019, 0.731612, 0.730051, 0.745302, 0.749595, 0.773591, 0.773362, 0.824266, 0.853256, 0.874082, 0.921932, 0.933553, 0.902367, 0.899272, 0.897613, 0.863603, 0.881224, 0.834268, 0.839012, 0.833305, 0.869571, 0.815076, 0.799183, 0.810833, 0.807165, 0.794096, 0.7496, 0.751237, 0.761254, 0.765417, 0.776997, 0.728532, 0.932554, 0.932686, 0.720244, 0.836618, 0.882927, 0.971401, 0.742858, 0.744739, 0.891422, 0.978156, 0.894588, 0.845894, 0.807295, 0.870042, 0.851662, 0.844888, 0.811548, 0.791741, 0.782259, 0.782749, 0.769577, 0.763559, 1.1853, 0.746488, 0.746751, 0.744528, 0.739946, 0.73976, 0.745177, 0.747159, 0.749596, 0.748781, 0.753294, 0.75538, 0.753827, 0.755979, 0.755896, 0.755724, 0.863939, 0.762399, 0.762601, 0.764565, 0.749346, 0.749711, 0.770864, 0.769937, 0.771513, 0.772441, 0.775482, 0.777178, 0.781891, 0.788787, 0.791785, 0.888557, 0.8023
0.486037, 0.485306, 0.49179, 0.491373, 0.493398, 0.493226, 1.00321, 0.830146, 0.770356, 0.546086, 0.606424, 0.857355, 0.672693, 0.490986, 0.772758, 0.479907, 0.479923, 0.479623, 0.479964, 0.941255, 0.492404, 0.605319, 0.656038, 0.515373, 0.652548, 0.504236, 0.504754, 0.50303, 0.502406, 0.518108, 0.711477, 0.519723, 0.71623, 0.512293, 0.515403, 0.686954, 0.683496, 0.654017, 0.556294, 0.560295, 0.565538, 0.569897, 0.585866, 0.586696, 0.589232, 0.590877, 0.698232, 1.0094, 0.610206, 0.631009, 0.625382, 0.616881, 0.611299, 0.585425, 0.589739, 0.579235, 0.714795, 0.666033, 0.662934, 0.662443, 0.677335, 0.730065, 0.734894, 0.728356, 0.73039, 0.728409, 0.746676, 0.761477, 0.77407, 0.775607, 0.749632, 0.852625, 0.832416, 0.842538, 0.841275, 0.845307, 0.846776, 0.912896, 0.863315, 0.864363, 0.831908, 0.807987, 0.785633, 0.867998, 0.890237, 0.793333, 0.773473, 0.810864, 0.783973, 0.749513, 0.750449, 0.790451, 0.777657, 0.764705, 0.793812, 0.716578, 0.935164, 0.720943, 0.721608, 0.839708, 0.722098, 0.819355, 0.741539, 0.892009, 1.00589, 0.994738, 0.850121, 0.81161, 0.863612, 0.845854, 0.850471, 0.835645, 0.79039, 0.780333, 0.775243, 0.772874, 0.762598, 0.750489, 0.745779, 0.743721, 0.738665, 0.738803, 0.739511, 0.744143, 0.748006, 0.745959, 0.747773, 0.747258, 0.752626, 0.755848, 0.755848, 0.755156, 0.765634, 0.753654, 0.757752, 0.759143, 0.76215, 0.750076, 0.750318, 0.751209, 0.767674, 0.76822, 0.773136, 0.774615, 0.777132, 0.781152, 0.791673, 0.79505, 0.798211, 0.800835
0.483772, 0.485214, 0.489715, 0.501372, 0.490613, 0.48823, 0.795331, 1.03397, 0.831716, 0.686573, 0.642987, 0.65602, 0.525217, 0.660361, 0.470873, 0.480109, 0.479647, 0.480107, 0.479167, 0.470038, 0.615162, 0.491551, 0.67715, 0.00483217, 0.494673, 0.494059, 0.501404, 0.503732, 0.503172, 0.511216, 0.718313, 0.521416, 0.520552, 0.51143, 0.706783, 0.753815, 0.643801, 0.652293, 0.639815, 0.561517, 0.564649, 0.590981, 0.585092, 0.586441, 0.589181, 0.593523, 0.763356, 0.667018, 0.631313, 0.631997, 0.628537, 0.65933, 0.589705, 0.586795, 0.590656, 0.617199, 0.608157, 0.607589, 0.70737, 0.723311, 0.647079, 0.722521, 0.729665, 0.734612, 0.728603, 0.727919, 0.725285, 0.750537, 0.847888, 0.756339, 0.737476, 0.751882, 0.832865, 0.86698, 0.829257, 0.824224, 0.821978, 0.829959, 0.889967, 0.86451, 0.782085, 0.785602, 0.787765, 0.788991, 0.819517, 0.849077, 0.847043, 0.826845, 0.767407, 0.745677, 0.735725, 0.791777, 0.779574, 0.760352, 0.711245, 0.714502, 0.713887, 0.72146, 0.721569, 0.720489, 0.72105, 0.724463, 0.840537, 0.89237, 0.999904, 0.979093, 0.907494, 0.869359, 0.860573, 0.843834, 0.791872, 0.811516, 0.799467, 0.776658, 0.759409, 0.759626, 0.757433, 0.744817, 0.741866, 0.741785, 0.739906, 0.738881, 1.07358, 0.742172, 0.746437, 0.743735, 0.746281, 0.747381, 0.75153, 0.75547, 0.755434, 0.753429, 0.754471, 0.753825, 0.756199, 0.75739, 0.757338, 0.75056, 0.752208, 0.752173, 0.766751, 0.768896, 0.771104, 0.773662, 0.779238, 0.780957, 0.793206, 0.795552, 0.797775, 0.876888
0.483352, 1.1006, 0.821253, 0.730948, 0.529862, 0.710284, 0.833423, 0.664195, 0.666622, 0.688383, 0.685238, 0.656409, 0.814393, 0.728853, 0.472189, 0.471438, 0.479614, 0.478916, 0.469929, 0.470701, 0.490754, 0.493587, 0.503635, 0.505941, 0.49644, 0.495824, 0.502707, 0.503723, 0.511219, 0.512683, 0.67757, 0.521981, 0.521743, 0.523044, 0.524352, 0.755244, 0.65703, 0.648849, 0.724852, 0.559898, 0.565101, 0.577142, 0.580674, 0.58291, 0.590213, 0.659327, 0.680195, 0.888765, 0.630621, 0.631694, 1.11975, 0.661172, 0.59126, 0.590069, 0.595344, 0.617271, 0.608196, 0.607786, 0.617642, 0.620828, 0.653031, 0.666783, 0.714856, 0.738646, 0.726518, 0.735037, 0.719005, 0.743319, 0.828283, 0.774195, 0.830242, 0.73869, 0.796198, 0.792504, 0.862924, 0.819336, 0.816728, 0.808203, 0.89692, 0.881625, 0.775811, 0.789649, 0.810312, 0.789044, 0.771135, 0.847371, 0.752289, 0.770652, 0.761765, 0.720374, 0.746761, 0.777058, 0.752892, 0.793254, 0.710277, 0.710961, 0.714054, 0.729187, 0.720919, 0.719442, 0.720178, 0.721524, 0.784874, 0.782691, 0.991903, 0.819695, 0.812611, 0.76662, 0.8464, 0.809699, 0.814147, 0.798544, 0.86734, 0.773848, 0.759668, 0.750594, 0.744005, 0.742733, 0.73987, 0.741332, 0.7439, 1.11274, 0.755929, 0.73993, 0.741146, 0.740748, 0.745115, 0.746796, 0.749305, 0.753527, 0.743136, 0.740518, 0.741058, 0.755784, 0.755725, 0.756668, 0.755531, 0.750904, 0.752003, 0.75985, 0.763091, 0.768967, 0.769228, 0.774041, 0.777119, 1.04037, 0.790586, 0.951911, 0.796235, 0.877369
0.539025, 0.450666, 0.673065, 0.731419, 1.10163, 0.711872, 0.45586, 0.662443, 0.657103, 0.664871, 0.680566, 0.747386, 1.38591, 0.804757, 0.471275, 0.471807, 1.05519, 0.470292, 0.471182, 0.469414, 0.60745, 0.492671, 0.567213, 0.52297, 0.497555, 0.496627, 0.502435, 0.511512, 0.512216, 0.512477, 0.512497, 0.521512, 0.52107, 0.522908, 0.717942, 0.752782, 0.666703, 0.645355, 0.726071, 0.72528, 0.604828, 1.21581, 0.779074, 0.583368, 0.670693, 0.659119, 1.00349, 0.639514, 0.672236, 0.842381, 0.925754, 0.660285, 0.589266, 0.589525, 0.58615, 0.617299, 0.608264, 0.62683, 0.618069, 0.622062, 0.645996, 0.667765, 0.727934, 0.72895, 0.736874, 0.741197, 0.721211, 0.721538, 0.731964, 0.732611, 0.829434, 0.732725, 0.73927, 0.784155, 0.804329, 0.826038, 0.839262, 0.802983, 0.897337, 0.816185, 0.77966, 0.749734, 0.813555, 0.78907, 0.750241, 0.729075, 0.763808, 0.769951, 0.767633, 0.721058, 0.71222, 0.70068, 0.704207, 0.695606, 0.696043, 0.712968, 0.71413, 0.715883, 0.720948, 0.7213, 0.721071, 0.738272, 0.740743, 0.839675, 0.835958, 1.27072, 0.779974, 0.7659, 0.820273, 0.797481, 0.792576, 0.795646, 0.859852, 0.849129, 0.78022, 0.752558, 0.743697, 0.744795, 0.739886, 0.746286, 0.748196, 0.749522, 0.750206, 0.754103, 0.73904, 0.739341, 0.742847, 0.745774, 0.766755, 0.74335, 0.743161, 0.740823, 0.741598, 0.749236, 0.749971, 0.751319, 0.754536, 0.752381, 0.753332, 0.76211, 0.7643, 0.767109, 0.767752, 0.775866, 0.775755, 0.779077, 0.803426, 0.803566, 0.894234, 0.808205
0.79046, 0.451525, 0.445691, 0.445301, 1.07284, 0.70166, 0.455206, 0.454308, 0.446082, 0.441686, 0.441908, 0.646218, 0.572541, 0.46803, 0.47228, 0.471355, 0.468838, 0.469402, 0.467293, 0.468839, 0.469353, 0.773412, 0.493862, 0.48375, 0.496895, 0.496623, 0.51219, 0.513321, 0.513565, 0.512761, 0.514213, 0.520671, 0.518524, 0.522448, 0.529313, 0.532381, 0.533744, 0.535195, 0.559616, 0.726077, 0.608222, 0.597583, 0.579155, 0.580889, 0.680008, 0.64426, 0.98188, 0.625819, 1.10199, 0.680444, 0.788487, 0.665397, 0.582133, 0.580395, 0.582453, 0.569586, 0.608328, 0.603233, 0.656139, 0.652708, 0.64505, 0.666973, 0.690619, 0.694861, 0.695566, 0.719784, 0.721013, 0.715601, 0.731489, 0.733322, 0.719109, 0.732819, 0.729949, 0.784636, 0.824122, 0.744073, 0.764715, 0.81204, 0.811939, 0.817351, 0.746503, 0.739706, 0.813449, 0.735265, 0.744635, 0.728533, 0.71751, 0.766036, 0.714462, 0.803419, 0.732902, 0.698257, 0.691501, 0.693893, 0.697926, 1.04925, 0.714342, 0.716721, 0.720658, 0.721605, 0.721018, 0.738865, 0.743371, 0.82907, 0.953239, 0.829193, 0.774223, 0.763952, 0.818425, 0.813329, 0.801768, 0.789557, 1.01589, 0.758308, 0.745697, 0.742237, 0.74484, 0.744278, 0.74081, 0.746161, 0.746653, 1.36946, 1.27914, 0.991602, 0.738662, 0.736082, 0.723444, 0.725287, 0.737595, 0.742151, 0.740777, 0.73973, 0.740319, 0.74228, 0.752481, 0.751487, 0.752491, 0.752366, 0.753815, 0.759676, 0.762589, 0.767117, 0.769587, 0.7746, 0.776402, 0.819048, 0.899649, 0.778682, 0.779714, 1.42782
0.55638, 0.448692, 0.446815, 0.44513, 0.445583, 0.455251, 0.456088, 0.454623, 0.447376, 0.446422, 0.443564, 0.44566, 0.577935, 0.471675, 0.471968, 0.470601, 0.469242, 0.469652, 0.469284, 0.470201, 0.469097, 0.773799, 0.485324, 0.486121, 0.488281, 0.495134, 0.513055, 0.513299, 0.514132, 0.512444, 0.509121, 0.518208, 0.517522, 0.525272, 0.52562, 0.534941, 0.534732, 0.535461, 0.554145, 0.552708, 0.562426, 0.562786, 0.68722, 0.00416618, 0.648847, 1.0198, 0.67961, 0.618495, 0.857582, 0.677133, 0.592864, 0.641917, 0.582506, 0.581778, 0.583961, 0.58335, 0.60883, 0.603576, 0.655873, 0.594522, 0.677416, 0.708628, 0.627294, 0.676221, 0.698939, 0.719131, 0.718553, 0.717462, 0.729235, 0.728947, 0.732365, 0.734975, 0.729585, 0.725649, 0.729284, 0.729227, 0.746586, 0.747113, 0.81151, 0.817391, 0.748286, 0.707901, 0.75085, 0.752504, 0.700397, 0.709139, 0.718549, 0.718566, 0.737046, 0.681025, 0.679914, 0.684115, 0.690232, 0.694119, 0.697748, 0.714448, 0.715651, 0.718242, 0.828872, 0.928566, 0.731218, 0.74492, 0.745215, 0.944264, 0.977208, 0.893457, 0.838804, 0.822821, 0.814142, 0.802246, 0.791166, 0.794959, 0.762976, 0.749792, 0.744902, 0.743025, 0.7417, 0.740185, 0.72312, 0.722357, 0.72381, 0.743975, 1.01814, 0.750778, 0.727352, 0.725133, 0.725011, 0.72473, 0.730865, 0.737932, 0.738816, 0.739402, 0.740859, 0.742449, 0.747915, 0.747997, 0.750922, 0.751648, 0.750062, 0.758147, 0.761722, 0.767566, 0.77009, 0.772805, 0.771294, 0.883179, 0.791058, 0.778183, 1.50237, 1.49938
0.895133, 0.448104, 0.446933, 0.445612, 0.445482, 0.454757, 0.455739, 0.455072, 0.448143, 0.448178, 0.444794, 0.445033, 0.448575, 0.471603, 0.470479, 0.470113, 0.468857, 0.469318, 0.467035, 0.469024, 0.694383, 0.488963, 0.48775, 0.48697, 0.488493, 0.491368, 0.513565, 0.513426, 0.51385, 0.511563, 0.508585, 0.507918, 0.704822, 0.526524, 0.527355, 0.534896, 0.535247, 0.535457, 0.534492, 0.548808, 0.558333, 0.563728, 0.675988, 0.573529, 0.63559, 0.631878, 0.594508, 0.677516, 0.867498, 0.711334, 0.941302, 0.643478, 0.582251, 0.582505, 0.583387, 0.581187, 0.60703, 0.604819, 0.604312, 0.595374, 0.673978, 0.692012, 0.683972, 0.621231, 0.660466, 0.714513, 0.722617, 0.729054, 0.726711, 0.722449, 0.719977, 0.734821, 0.72664, 0.728936, 0.717334, 0.730115, 0.719186, 0.724744, 0.728617, 0.738622, 0.748364, 0.721661, 0.752948, 0.691168, 0.694284, 0.696519, 0.697671, 0.720692, 0.694834, 0.704789, 0.679561, 0.791379, 0.693467, 0.901494, 0.703772, 0.714371, 0.715864, 0.717974, 0.828439, 0.94362, 0.731462, 0.995068, 0.862778, 0.922343, 0.819869, 0.77192, 0.83567, 0.819098, 0.811922, 0.808456, 0.787082, 0.773727, 0.746902, 0.746586, 0.746283, 0.73881, 0.737624, 0.740302, 0.72366, 0.723327, 0.723995, 0.75709, 1.01857, 1.01724, 0.723032, 0.724386, 0.72556, 0.725053, 0.730095, 0.735598, 0.739245, 0.74042, 0.741622, 0.743339, 0.746521, 0.747126, 0.749784, 0.746747, 0.750199, 0.754854, 0.761083, 0.767313, 0.767357, 0.771401, 0.770169, 0.847377, 0.829523, 0.772796, 0.773242, 1.21284
0.449566, 0.446018, 0.445136, 0.445976, 1.10069, 0.455653, 0.455359, 0.449409, 0.448538, 0.448561, 0.446168, 0.448824, 0.448948, 0.473665, 0.470318, 0.469151, 0.468644, 0.467568, 0.466905, 0.467062, 0.578982, 0.484013, 0.476444, 0.486877, 0.489823, 0.490076, 0.512977, 0.513487, 0.511762, 0.510087, 0.509577, 0.509039, 0.508557, 0.790686, 0.527432, 0.53456, 0.53475, 0.533464, 0.548114, 0.549707, 1.12658, 0.564049, 0.56344, 0.636562, 0.722768, 0.728792, 0.59407, 0.822712, 0.678397, 0.673743, 0.666563, 0.580053, 0.581387, 0.582127, 0.584756, 0.580655, 0.667487, 0.60505, 0.602554, 0.672532, 0.607022, 0.647648, 0.613432, 0.65487, 0.69243, 0.720803, 0.707906, 0.73172, 0.715218, 0.708, 0.704574, 0.767364, 0.726452, 0.721707, 0.71549, 0.697892, 0.71172, 0.763766, 0.770684, 0.721522, 0.682787, 0.680125, 0.752278, 0.679457, 0.690645, 0.711799, 0.753951, 0.718392, 0.687137, 0.709034, 0.678551, 0.791096, 0.788483, 0.903109, 0.704419, 0.70466, 0.716608, 0.722334, 0.860205, 0.925282, 0.799044, 0.801885, 0.807303, 0.921874, 0.894598, 0.781988, 0.838281, 0.76807, 0.776921, 0.774593, 0.764389, 0.767431, 0.755696, 0.744057, 0.724908, 0.734406, 0.736836, 0.723421, 0.722747, 0.723779, 0.723743, 0.730748, 1.02966, 0.748308, 0.725984, 0.724715, 0.724595, 0.724679, 0.728716, 0.731678, 0.740148, 0.74109, 0.741432, 0.741126, 0.73793, 0.741208, 0.746358, 0.738958, 0.748985, 0.753766, 0.959371, 0.766107, 0.767141, 0.764848, 0.762029, 0.762691, 0.76616, 0.771203, 0.772786, 0.774682
0.437925, 0.445107, 0.443884, 0.445585, 0.438276, 0.510857, 0.45306, 0.449371, 0.449403, 0.450697, 0.45075, 0.451221, 0.45017, 0.907541, 0.467851, 0.468014, 0.467058, 0.466936, 0.466803, 0.46786, 0.587777, 0.477688, 0.476646, 0.476678, 0.49093, 0.489995, 0.511586, 0.683814, 0.510653, 0.508247, 0.509245, 0.509847, 0.508465, 0.663387, 0.519282, 0.519198, 0.534326, 0.534134, 0.548235, 0.549517, 0.552519, 0.564007, 0.564187, 0.566033, 0.574364, 0.710463, 0.577538, 1.24843, 1.24388, 0.951115, 0.667454, 0.667719, 0.618497, 0.584405, 0.584653, 0.57545, 0.633037, 0.605112, 0.604283, 0.611042, 0.66162, 0.647197, 0.613746, 0.618361, 0.653779, 0.668861, 0.70518, 0.716679, 0.700966, 0.680634, 0.721994, 0.732226, 0.722656, 0.704309, 0.707083, 0.657573, 0.670156, 0.761218, 0.770612, 0.727787, 0.68734, 0.711441, 0.667753, 0.668164, 0.685212, 0.689779, 0.709646, 0.697524, 0.649685, 0.770494, 0.791327, 0.791725, 0.787993, 0.768801, 0.705864, 0.706965, 0.721649, 0.723451, 0.723909, 0.788785, 1.01913, 0.882037, 0.830207, 0.829219, 0.844042, 0.850301, 0.840712, 0.784424, 0.774176, 0.748549, 0.746183, 0.759719, 0.738078, 0.731537, 0.725677, 0.726354, 0.739827, 0.712158, 0.71325, 0.722786, 0.720348, 0.731578, 0.731751, 0.740228, 0.725128, 0.722755, 0.725108, 0.72529, 0.731263, 0.732813, 0.737821, 0.739515, 0.741068, 0.73964, 0.737383, 0.741264, 0.739387, 0.740253, 1.01144, 0.953648, 0.960533, 0.962215, 0.761763, 0.760074, 0.761491, 0.761523, 0.764101, 0.770026, 0.771304, 0.773917
0.438502, 0.438092, 0.437978, 0.438186, 1.10215, 1.09868, 1.1009, 0.44874, 0.451412, 0.45189, 0.451758, 0.451513, 0.448727, 0.888554, 0.614932, 0.874082, 0.465789, 0.465677, 0.468062, 0.466682, 0.471355, 0.476483, 0.477012, 0.477442, 0.490396, 0.811541, 0.674084, 0.663142, 0.650576, 0.504854, 0.508148, 0.509106, 0.50785, 0.671105, 0.596579, 0.521856, 0.534386, 0.533429, 0.546191, 0.558939, 0.847593, 0.563669, 0.565374, 0.603339, 0.822084, 0.751976, 0.789935, 0.671787, 0.66749, 0.78806, 0.563402, 0.568721, 0.569708, 0.583013, 0.578241, 0.576698, 0.583741, 0.724463, 0.601412, 0.610771, 0.610757, 0.614052, 0.612074, 0.612665, 0.638409, 0.650282, 0.698449, 0.715591, 0.69865, 0.680709, 0.704678, 0.742995, 0.738158, 0.671886, 0.683935, 0.647721, 0.653968, 0.756318, 0.770413, 0.769976, 0.68857, 0.664923, 0.665454, 0.668293, 0.687886, 0.703688, 0.685523, 0.650485, 0.649763, 0.74106, 0.768016, 0.791681, 0.789551, 0.76776, 0.704116, 0.713228, 0.721227, 0.723423, 0.72419, 0.91029, 0.891713, 0.887343, 0.861171, 0.7783, 0.737838, 0.738956, 0.799193, 0.803458, 0.74761, 0.7486, 0.745711, 0.74311, 0.739059, 0.725815, 0.72601, 0.725288, 0.706231, 0.714474, 0.714469, 0.711833, 0.712556, 0.711824, 0.721914, 1.1714, 0.720511, 0.722119, 0.724565, 0.724782, 0.732518, 0.731707, 0.730288, 0.730673, 0.739258, 0.738839, 0.738107, 0.733015, 0.735537, 0.744849, 0.74575, 1.20143, 0.958411, 0.96332, 0.760475, 0.761038, 0.761444, 0.762055, 0.763173, 0.761163, 0.90466, 0.898733
0.43915, 0.438849, 0.437703, 0.437972, 0.438636, 1.10084, 1.10072, 0.4477, 0.451894, 0.452163, 0.451554, 0.447061, 0.443814, 0.444066, 0.45198, 0.452719, 0.464323, 0.464672, 0.468467, 0.468577, 0.476759, 0.477495, 0.477287, 0.659432, 0.490434, 0.504715, 0.591697, 0.665888, 0.659996, 0.497126, 0.494899, 0.4987, 0.506889, 0.507136, 0.514578, 0.524641, 0.531596, 1.29875, 0.54159, 0.56048, 0.560716, 0.563034, 0.562101, 0.560746, 0.802558, 0.674222, 0.639235, 0.664819, 0.963656, 1.0442, 0.564065, 0.563972, 0.565084, 0.580941, 0.577519, 0.577504, 0.584693, 0.586591, 0.594051, 0.622871, 0.623558, 0.623501, 0.611903, 0.611479, 0.636218, 0.65267, 0.637411, 0.715406, 0.712952, 0.644072, 0.707991, 0.88712, 0.697413, 0.644166, 0.655133, 0.648737, 0.648383, 0.644618, 0.669604, 0.668908, 0.689009, 0.665789, 0.663544, 0.659274, 0.79037, 0.644499, 0.646245, 0.650472, 0.628716, 0.629626, 0.760015, 0.645483, 0.790334, 0.745539, 0.895761, 0.916907, 0.720156, 0.721778, 0.79104, 0.908138, 0.86934, 0.906704, 0.902646, 0.773658, 0.738863, 0.739861, 0.74275, 0.795276, 0.746679, 0.748473, 0.74599, 0.742572, 0.726442, 0.727425, 0.725429, 0.725011, 0.707098, 0.707823, 0.712036, 0.711783, 0.71398, 0.712641, 0.710929, 0.721465, 0.713245, 0.721594, 0.722506, 1.20585, 0.726704, 0.728189, 0.728717, 0.731413, 0.733435, 0.736435, 0.733823, 0.734689, 0.743316, 0.746266, 0.746936, 0.836207, 0.784984, 1.25563, 0.758231, 0.75991, 0.759398, 0.758128, 0.75657, 0.758676, 1.3011, 0.783881
0.439261, 0.439563, 0.438709, 0.438208, 0.437758, 0.438195, 1.09783, 0.446347, 0.45249, 0.450456, 0.451384, 0.446729, 0.444583, 0.444592, 0.453074, 0.452739, 0.442786, 0.442406, 0.467636, 0.467976, 0.452876, 0.476677, 0.476431, 0.497239, 0.700769, 0.633696, 0.624263, 0.672699, 0.656483, 0.497197, 0.496132, 0.499817, 0.507396, 0.508417, 0.510448, 0.509777, 0.684086, 0.659291, 0.655687, 0.621319, 0.58013, 0.581175, 0.5669, 0.558777, 0.572544, 0.673913, 0.531866, 0.667464, 0.569887, 0.944213, 0.647982, 0.69531, 0.563929, 0.567523, 0.577639, 0.577905, 0.578111, 0.586849, 0.593814, 0.715927, 0.624677, 0.625875, 0.710791, 0.602157, 0.675201, 0.638425, 0.633969, 0.632027, 0.627471, 0.628121, 0.670715, 0.712111, 0.707391, 0.644858, 0.649191, 0.64696, 0.657062, 0.663505, 0.670927, 0.642693, 0.665242, 0.665867, 0.660899, 0.660069, 0.676421, 0.646588, 0.648384, 0.623972, 0.624671, 0.630997, 0.628839, 0.645825, 0.646211, 0.797707, 0.748875, 0.700363, 0.718786, 0.767627, 0.918712, 0.979799, 0.870972, 0.966603, 0.909543, 0.732931, 0.738612, 0.739805, 0.74275, 0.743545, 0.742439, 0.747163, 0.746713, 0.73514, 0.727001, 0.721017, 0.724434, 0.724766, 0.707744, 0.704731, 0.708233, 0.710956, 0.712717, 0.71189, 0.710305, 0.710514, 0.7141, 0.713052, 0.708024, 0.732762, 0.72436, 0.726813, 0.727659, 0.730572, 0.72774, 0.729152, 0.732495, 0.734084, 0.742661, 0.745366, 0.745625, 0.825042, 1.14798, 1.1475, 0.75921, 0.759138, 0.759183, 0.756011, 0.749332, 0.750386, 1.30112, 1.13893
0.438543, 0.439047, 0.438869, 0.438881, 0.438257, 0.437703, 0.767465, 0.473994, 0.45181, 0.449954, 0.450889, 0.445904, 0.445001, 0.445603, 0.452623, 0.447063, 0.443176, 0.442426, 0.640726, 0.493888, 0.452496, 0.467185, 0.466668, 0.496693, 0.465177, 0.466123, 0.601595, 0.479005, 0.660569, 0.496143, 0.49643, 0.496443, 0.50615, 0.514998, 0.512829, 0.510456, 0.89645, 0.697181, 0.653557, 0.618382, 0.542539, 0.544583, 0.566179, 0.813209, 0.685502, 0.677022, 0.785465, 0.542567, 0.662353, 1.01562, 1.02952, 0.559759, 0.563275, 0.775585, 0.576492, 0.577134, 0.585714, 0.586228, 0.728697, 0.614409, 0.704921, 0.712808, 0.709251, 0.603154, 0.683137, 0.636218, 0.630011, 0.629216, 0.628966, 0.628528, 0.680195, 0.735094, 0.71032, 0.645088, 0.630175, 0.632108, 0.655696, 0.646559, 0.645704, 0.644919, 0.697432, 0.635421, 0.659819, 0.635456, 0.647926, 0.648452, 0.648325, 0.622804, 0.624841, 0.627726, 0.629679, 0.75729, 0.648499, 0.733463, 0.735429, 0.701606, 0.802317, 0.908942, 0.891806, 0.981441, 0.976434, 0.956972, 0.766565, 0.730931, 0.732676, 0.741319, 0.742539, 0.743982, 0.742705, 0.745678, 0.746209, 0.735912, 0.731339, 0.720889, 0.719795, 0.724277, 0.706453, 0.70536, 0.702764, 0.709796, 0.700802, 0.705083, 0.708788, 0.711697, 0.714178, 0.715005, 0.707677, 0.715597, 0.71805, 0.719358, 0.720803, 0.726305, 0.729133, 0.730511, 0.735375, 0.73676, 0.742153, 0.741784, 0.746418, 0.788654, 0.749154, 0.756498, 0.757417, 0.759357, 0.755962, 0.754263, 0.749622, 0.750957, 0.760195, 0.758329
0.439226, 0.439513, 0.439872, 0.438695, 0.4395, 0.437599, 0.441417, 0.44017, 0.441143, 0.440607, 0.880658, 0.445267, 0.446954, 0.446036, 0.439872, 0.445799, 0.445972, 0.442659, 0.678183, 0.00420221, 0.521926, 0.467534, 0.466191, 0.465836, 0.466276, 0.694317, 0.615468, 0.479826, 0.479746, 0.494922, 0.496267, 0.495782, 0.497716, 0.513984, 0.514, 0.510868, 0.513823, 0.739403, 0.646033, 0.542418, 0.812825, 0.533094, 0.824658, 0.703299, 0.687932, 0.684695, 0.790822, 0.522654, 0.991195, 0.552211, 1.21259, 0.74197, 0.559164, 0.559459, 0.749157, 0.576419, 1.14514, 0.583322, 0.585242, 0.613355, 0.618028, 0.616463, 1.0145, 0.602334, 0.603872, 0.630922, 0.630492, 0.628107, 0.672864, 0.67619, 0.608325, 0.666237, 0.721583, 0.669819, 0.631066, 0.689869, 0.616313, 0.614914, 0.644763, 0.645364, 0.679237, 0.63691, 0.64059, 0.636277, 0.636624, 0.648604, 0.648494, 0.624997, 0.62539, 0.626525, 0.632039, 0.779703, 0.776994, 0.735069, 0.753166, 0.700747, 0.797186, 0.909081, 0.773647, 0.977353, 0.960004, 0.939628, 0.733123, 0.733371, 0.732504, 0.740959, 0.742868, 0.743187, 0.73066, 0.800743, 0.905273, 0.776515, 0.727967, 0.719647, 0.721216, 0.720794, 0.717967, 0.704612, 0.697921, 0.699904, 0.700096, 0.704295, 0.707292, 0.705291, 0.712241, 0.710627, 0.708576, 0.708906, 0.709472, 0.720385, 0.722015, 0.723381, 0.734473, 0.735824, 0.738251, 0.738148, 0.738023, 0.741892, 0.74383, 0.746987, 0.74898, 1.49302, 0.756746, 0.751389, 0.752114, 1.41509, 0.747565, 1.49062, 0.763005, 0.762029
0.906498, 0.438246, 0.438682, 0.440886, 0.438944, 0.438337, 0.442147, 0.87786, 0.441184, 0.441217, 0.438932, 0.432442, 0.433087, 0.439313, 0.441617, 0.445631, 0.445429, 0.443342, 0.677586, 0.521079, 0.522906, 0.590589, 0.4908, 0.465453, 0.465606, 0.466625, 0.567122, 0.480392, 0.479857, 0.494205, 0.495367, 0.49662, 0.780162, 0.511989, 0.511377, 0.514195, 0.50912, 0.507926, 0.642652, 0.722418, 0.542841, 0.532107, 0.693256, 0.707682, 0.517781, 0.5164, 0.953906, 0.964318, 0.529549, 0.529577, 0.55211, 1.15354, 0.559064, 0.559773, 1.15132, 0.742104, 0.728023, 0.584773, 0.783438, 0.783792, 0.617239, 0.617574, 0.616536, 0.68614, 0.606551, 0.633276, 0.631752, 0.631461, 0.675975, 0.674916, 0.662633, 0.665714, 0.649434, 0.649019, 0.617536, 0.617816, 0.61788, 0.617038, 0.614875, 0.629086, 0.666146, 0.63419, 0.640613, 0.638785, 0.638771, 0.641768, 0.634364, 0.626432, 0.62733, 0.63105, 0.632939, 0.632981, 0.778101, 0.748527, 0.748872, 0.747704, 0.748959, 0.904615, 0.764341, 0.984624, 0.961755, 0.778128, 0.732611, 0.73403, 0.736348, 0.74084, 0.742564, 0.742305, 0.728466, 0.728493, 0.733381, 0.959843, 0.725674, 0.721136, 0.721602, 0.719552, 0.719509, 0.705352, 0.698901, 0.700904, 0.701355, 0.698621, 0.697628, 0.705264, 0.690496, 0.697138, 0.706897, 0.709665, 0.71098, 0.712133, 0.721051, 0.734112, 0.735704, 0.735916, 0.738401, 0.734149, 0.736598, 0.740623, 0.745188, 0.747525, 0.747933, 1.47443, 0.748423, 0.750284, 0.751897, 0.747606, 0.742578, 0.74598, 0.748879, 0.751351
0.923739, 0.926019, 0.803715, 0.439749, 0.438906, 0.43831, 0.441537, 0.86684, 0.440988, 0.439172, 0.429332, 0.431213, 0.432029, 0.440861, 0.441189, 0.445042, 0.445821, 0.443713, 0.442582, 0.423584, 0.423646, 0.592189, 0.593151, 0.46433, 0.464533, 0.61522, 0.547803, 0.479356, 0.480136, 0.594158, 0.576405, 0.797865, 0.671057, 0.528097, 0.509353, 0.50857, 0.508679, 0.591434, 0.732205, 0.800898, 1.21328, 0.705895, 0.700763, 0.826497, 0.808508, 0.516541, 0.670658, 0.82734, 0.530612, 0.531085, 0.788086, 0.83973, 0.548207, 0.558394, 0.777637, 0.563915, 0.58011, 0.75716, 0.747223, 0.784297, 0.621675, 0.566643, 0.619929, 0.591934, 0.603661, 0.635693, 0.632338, 0.598156, 0.629277, 0.662284, 0.662264, 0.608319, 0.611002, 0.608229, 0.620431, 0.620837, 0.617922, 0.616851, 0.610839, 0.681205, 0.667624, 0.623931, 0.639796, 0.640546, 0.636984, 0.641155, 0.630303, 0.628156, 0.62932, 0.672809, 0.633078, 0.625195, 0.780764, 0.75161, 0.749635, 0.735849, 0.748103, 0.897772, 0.754173, 0.745286, 0.742066, 0.940319, 0.733706, 0.733862, 0.735048, 0.739719, 0.741678, 0.735983, 0.728048, 0.728311, 0.718772, 0.714087, 0.722496, 0.722419, 0.720716, 0.719893, 0.719441, 0.71761, 0.699267, 0.700406, 0.700163, 0.698714, 0.697559, 0.694736, 0.691414, 0.696656, 0.710076, 0.709751, 0.710029, 0.714701, 0.756887, 0.7353, 0.735971, 0.735102, 0.736051, 0.732448, 0.737733, 0.740952, 0.745781, 0.747893, 0.747862, 0.751688, 0.748927, 0.749012, 0.739575, 0.738945, 0.737575, 0.742229, 0.745539, 0.752256
1.08139, 0.42105, 0.419678, 0.683412, 0.435049, 0.434898, 0.891853, 0.871071, 0.431545, 0.430877, 0.430667, 0.430835, 0.432687, 0.445434, 0.445741, 0.445372, 0.446749, 0.444077, 0.596967, 0.425328, 0.424329, 0.591289, 0.497843, 0.462563, 0.59777, 0.518026, 0.590739, 0.47802, 0.674972, 0.561859, 0.590048, 0.912521, 0.711538, 0.915357, 0.508829, 0.508924, 0.506811, 0.50615, 0.763186, 0.728794, 0.491354, 0.496604, 0.496809, 0.842811, 0.516735, 0.670743, 0.831303, 1.01846, 0.529554, 0.530113, 0.763405, 0.547602, 0.942941, 0.769377, 0.546775, 0.547509, 0.569846, 0.752958, 0.705668, 0.74227, 0.567382, 0.56695, 0.567671, 0.653273, 0.600597, 0.627726, 0.629302, 0.59879, 0.598798, 0.629214, 0.585302, 0.58621, 0.604524, 0.619108, 0.621833, 0.620936, 0.618473, 0.618481, 0.611418, 0.680305, 0.667142, 0.62497, 0.624198, 0.652718, 0.635936, 0.637412, 0.636091, 0.630118, 0.630117, 0.634567, 0.634028, 0.632482, 0.776439, 0.753168, 0.749546, 0.76044, 0.74929, 0.750533, 0.849096, 0.82453, 0.764591, 0.926743, 0.732322, 0.73265, 0.803123, 0.792217, 0.764099, 0.735546, 0.721881, 0.722173, 0.716597, 0.715122, 0.723582, 0.720714, 0.718918, 0.718783, 0.724578, 0.742503, 0.698613, 0.698804, 0.699168, 0.700505, 0.696699, 0.696609, 0.692253, 0.692218, 0.71944, 0.718871, 0.7224, 0.786741, 0.80517, 0.735769, 0.735249, 0.734624, 0.732649, 0.734876, 0.738756, 0.740182, 0.745141, 0.746298, 0.746639, 1.07778, 0.748241, 0.742589, 0.742055, 0.741954, 0.738725, 0.739535, 0.7453, 0.748613
1.08462, 0.418954, 0.420027, 0.43237, 0.434207, 0.433244, 0.506747, 0.422801, 0.43283, 0.432383, 0.430537, 0.428652, 0.431911, 0.448051, 0.447915, 0.44627, 0.445523, 0.442859, 0.50094, 0.425583, 0.424697, 0.589947, 0.593632, 0.501104, 0.579267, 0.479418, 0.590855, 0.846666, 0.573662, 0.830544, 0.700632, 0.848568, 0.689369, 0.69098, 0.506896, 0.759761, 0.590685, 0.504067, 0.76313, 0.651599, 0.493035, 0.496466, 0.498652, 0.499207, 0.507888, 0.716007, 0.835032, 0.513957, 0.798112, 0.966175, 0.857074, 0.781419, 0.901529, 0.544889, 0.547249, 0.548223, 0.565985, 0.753629, 0.704718, 0.573442, 0.567717, 0.568429, 0.566707, 0.657594, 0.577951, 0.578489, 0.57801, 0.597769, 0.630688, 0.591979, 0.570393, 0.586482, 0.60512, 0.619463, 0.621537, 0.608139, 0.619939, 0.619447, 0.615523, 0.632175, 0.620615, 0.624195, 0.645241, 0.654294, 0.637261, 0.637881, 0.637151, 0.630235, 0.631572, 0.667384, 0.771491, 0.626748, 0.666597, 0.669796, 0.762254, 0.879414, 0.874962, 0.882347, 0.872645, 0.838376, 0.766284, 0.899504, 0.803814, 0.803906, 0.812406, 0.794264, 0.784957, 0.753948, 0.721908, 0.722796, 0.717684, 0.715245, 0.71526, 0.749419, 0.71707, 0.717482, 0.729834, 0.716318, 0.683501, 0.683992, 0.698842, 0.697233, 0.69606, 0.697012, 0.692839, 0.723046, 0.73173, 0.722258, 0.723798, 0.726228, 0.740947, 0.735073, 0.733528, 0.731485, 0.731859, 0.731333, 0.738787, 0.740881, 0.746172, 0.747025, 0.839991, 0.79959, 0.819377, 0.742311, 0.743746, 0.743199, 0.739654, 0.740587, 0.746822, 0.75057
0.411518, 0.41606, 0.420157, 0.622316, 0.43296, 0.877587, 0.421325, 0.421214, 0.430365, 0.43129, 0.430137, 0.427797, 0.432774, 0.448069, 0.448132, 0.446423, 0.445309, 0.419228, 0.419526, 0.416833, 0.422269, 0.421028, 0.58377, 0.573236, 0.446207, 0.567017, 0.732459, 1.35368, 0.827932, 0.563809, 0.00425668, 0.694702, 0.692253, 0.690891, 0.494224, 0.498228, 0.493483, 0.493065, 0.492562, 0.490072, 0.493198, 0.491002, 0.499159, 0.499974, 0.500923, 0.488536, 0.497498, 0.628906, 0.652632, 0.966408, 0.966224, 0.941845, 0.901649, 0.549665, 0.545452, 0.548136, 0.659797, 0.635925, 0.573072, 0.555672, 0.568865, 0.568163, 0.565647, 0.84029, 0.591632, 0.579648, 0.71949, 0.722703, 0.77381, 0.56969, 0.571789, 0.586593, 0.663427, 0.619762, 0.641965, 0.610938, 0.619779, 0.619223, 0.600986, 0.633593, 0.678002, 0.644338, 0.6457, 0.673049, 0.638553, 0.638415, 0.638156, 0.628557, 0.76735, 0.668075, 0.853518, 0.652865, 0.664606, 0.669733, 0.753687, 0.880312, 0.881683, 0.875734, 0.836888, 0.81868, 0.802457, 0.888156, 0.804993, 0.804058, 0.79608, 0.789534, 0.785377, 0.758239, 0.721751, 0.721824, 0.717183, 0.716399, 0.715652, 0.755408, 0.715525, 0.742355, 0.710707, 0.737291, 0.685269, 0.685841, 0.69694, 0.696787, 0.695733, 0.706098, 0.702056, 0.725852, 0.736258, 0.72355, 0.725023, 0.725783, 0.964031, 0.731365, 0.731059, 0.729973, 0.732841, 0.731498, 0.740637, 0.741747, 0.743837, 0.747373, 0.843025, 0.819329, 0.766939, 0.741033, 0.743903, 0.743329, 0.741294, 0.74144, 0.743713, 0.749529
0.409909, 0.417406, 0.417619, 0.415337, 0.893593, 0.905216, 0.422756, 0.421749, 0.421247, 0.430944, 0.427721, 0.427204, 0.445552, 0.448087, 0.447907, 0.446256, 0.418642, 0.418737, 0.420512, 0.419351, 0.420684, 0.420411, 0.583403, 0.444001, 0.445352, 0.446399, 0.448339, 0.449914, 0.626176, 0.831792, 0.486628, 0.680206, 0.673203, 0.500276, 0.495808, 0.494144, 0.493893, 0.493092, 0.492663, 0.490558, 0.487825, 0.487411, 0.499948, 0.500543, 0.499781, 0.489608, 0.489358, 0.607761, 0.65305, 0.9665, 0.824807, 0.938678, 0.866925, 0.73311, 0.544115, 0.644309, 0.870737, 0.846553, 0.697945, 0.556217, 0.557897, 0.567018, 0.981289, 0.594084, 0.811583, 0.579423, 0.618619, 0.571868, 0.571036, 0.573622, 0.575994, 0.574324, 0.599863, 0.601426, 0.597192, 0.609364, 0.618715, 0.610564, 0.607236, 0.6371, 0.677541, 0.645263, 0.672586, 0.672963, 0.636665, 0.639048, 0.638808, 0.755765, 0.860083, 0.867172, 0.681236, 0.65219, 0.739342, 0.96686, 0.794067, 0.875244, 0.874109, 0.891088, 0.845575, 0.813337, 0.901423, 0.881576, 0.811264, 0.81545, 0.814599, 0.781578, 0.782496, 0.779513, 0.755073, 0.754752, 0.756275, 0.715159, 0.760832, 0.792186, 0.765574, 0.753783, 0.708025, 0.742581, 0.685153, 0.686387, 0.701813, 0.707368, 0.708711, 0.730682, 0.725022, 0.734813, 0.735808, 0.723676, 0.724545, 0.725067, 1.2397, 0.730698, 0.731465, 0.731676, 0.734688, 0.733422, 0.74016, 0.74262, 0.743544, 0.748747, 0.738392, 1.65643, 0.753396, 1.64709, 0.74183, 0.741999, 0.741126, 0.740316, 0.739107, 0.740318
0.407468, 0.783737, 0.416996, 0.925588, 0.894673, 0.421269, 0.423773, 0.423778, 0.42183, 0.517306, 0.418847, 0.518113, 0.436181, 0.447666, 0.44668, 0.419161, 0.41965, 0.419076, 0.421471, 0.420205, 0.4215, 0.421042, 0.456527, 0.445861, 0.445676, 0.447601, 0.448083, 0.447776, 0.739397, 0.460633, 0.770679, 0.501544, 0.500125, 0.501038, 0.494477, 0.493866, 0.49483, 0.494094, 0.493716, 0.491493, 0.488442, 0.488865, 0.50014, 0.500834, 0.490036, 0.490746, 0.489537, 0.563999, 0.507781, 0.556686, 0.551904, 0.541826, 0.543014, 0.605354, 0.536319, 0.539786, 0.663524, 0.854605, 0.854593, 0.556852, 0.558914, 0.942845, 0.953718, 0.902476, 0.899238, 0.75627, 0.610495, 0.571477, 0.570455, 0.571621, 0.576827, 0.576636, 0.581785, 0.602814, 0.599075, 0.597942, 0.611348, 0.609328, 0.607466, 0.660097, 0.644965, 0.642995, 0.673011, 0.672682, 0.754894, 0.64234, 0.866651, 0.812238, 0.901888, 0.84001, 0.808884, 0.807021, 0.884514, 0.892492, 0.909888, 0.908272, 0.763618, 0.870476, 0.818831, 0.819501, 0.84654, 0.846963, 0.812553, 0.797014, 0.815141, 0.810864, 0.779683, 0.776265, 0.756471, 0.754783, 0.757222, 0.714066, 0.7854, 0.763678, 0.723788, 0.724684, 0.707553, 0.707502, 0.707864, 0.748594, 0.707648, 0.709534, 0.709078, 0.731349, 0.716091, 0.784514, 0.740091, 0.722556, 0.722431, 0.71309, 1.26596, 0.7287, 0.729508, 0.731313, 0.734494, 0.734921, 0.739761, 0.741831, 0.744607, 0.765639, 1.31674, 1.62348, 1.66104, 0.988065, 0.740094, 0.739839, 0.734367, 0.73254, 0.735752, 0.740455
0.407935, 0.409422, 0.416075, 0.411774, 0.412182, 0.420567, 0.422262, 0.424011, 0.421871, 0.4112, 0.412236, 0.625755, 0.432798, 0.423506, 0.636074, 0.41608, 0.419687, 0.419515, 0.42117, 0.419519, 0.421516, 0.42135, 0.458533, 0.445881, 0.448136, 0.44831, 0.448166, 0.444328, 0.445164, 0.455498, 0.76075, 0.774144, 0.501523, 0.504292, 0.50763, 0.493245, 0.493596, 0.494874, 0.494184, 0.492992, 0.490887, 0.490613, 0.49485, 0.494566, 0.491243, 0.491404, 0.491422, 0.980632, 0.508419, 0.562765, 0.569118, 0.538236, 0.608149, 0.60554, 0.615672, 0.542802, 0.540865, 0.541368, 0.857212, 0.556125, 0.55583, 0.917786, 0.618295, 0.690081, 0.886543, 0.608223, 0.609318, 0.841256, 0.570833, 0.564376, 0.577429, 0.578342, 0.580733, 0.601731, 0.598443, 0.601749, 0.60276, 0.850272, 0.826052, 0.628061, 0.632203, 0.635857, 0.641375, 0.655583, 1.15701, 0.757832, 0.867455, 0.863978, 0.779978, 0.809277, 0.811843, 0.805555, 0.916529, 0.914877, 0.936997, 0.860512, 0.806267, 0.864076, 0.859833, 0.880702, 0.876872, 0.848925, 0.846114, 0.832719, 0.817865, 0.814578, 0.798549, 0.780966, 0.779753, 0.755613, 0.775395, 0.782727, 0.784742, 0.791627, 0.722878, 0.764228, 0.707698, 0.70792, 0.706949, 0.707999, 0.708753, 0.710712, 0.710862, 0.713383, 0.777921, 0.715129, 0.76283, 0.735411, 0.713611, 0.714899, 0.71445, 0.712281, 0.71518, 0.732054, 0.733371, 0.73472, 0.736564, 0.740537, 0.737342, 0.750025, 1.62701, 1.32212, 0.722824, 0.728134, 0.736707, 0.733636, 0.73268, 0.735166, 0.735331, 0.737995
