0.44486407457747,0.423467263009173,0.422152937024857,0.421984095671305,0.422493307878765,0.442083629266467,0.442132680221098,0.440270559983742,0.437504613697712,0.436097364749873,0.436371443533737,0.438400183095968,0.44093335661331,0.443770338559655,0.446000877672442,0.447090008306721,0.447561020875481,0.447194404758536,0.447342922081947,0.447544774001733,0.448188321837268,0.49472274165586,0.521204600855837,0.616702429884025,0.631681471817512,0.635677941193644,0.637462141309567,0.638553120387822,0.649130710248435,0.664853603247621,0.682670274554286,0.700955077113309,0.717921680081472,0.735184158320538,0.546360240842065,0.577096408824385,0.551074194694204,0.499619128715007,0.500340974559412,0.500972090417358,0.555510675745985,0.505334925743521,0.505652268553082,0.505559541012498,0.505117461618889,0.504787359446831,0.545790653596162,0.572252159046859,0.63092558173844,0.604599740943102,0.620334526934003,0.635387277390033,0.651140643099192,0.661831142325273,0.778672573753048,0.804942245534404,0.658675431631386,0.574444607580014,0.539269134255837,0.539147443051707,0.539259928032221,0.539318790238882,0.527701410134622,0.52803660482778,0.528513126504916,0.628078440948417,0.602939830605433,0.526539251724445,0.526997040805215,0.580079256627219,0.636085307289334,0.610940705978744,0.583694243946338,0.543006999556954,0.541949118926891,0.542355275992121,0.543564482457441,0.545122300408528,0.546510759452727,0.548265482179057,0.547181708964807,0.54777782937801,0.544641003093018,0.54411579405367,0.541598714529749,0.542223659178275,0.541473495049464,0.541907410996159,0.541137757590921,0.539930970179234,0.539057775052964,0.539444371843792,0.538965793389374,0.539634619496428,0.540144301516801,0.542512489993829,0.544162694942953,0.545384580299589,0.545531049554872,0.545812369617556,0.544495755126836,0.544526898466659,0.54388754307224,0.546486160164914,0.549135390898163,0.551032622408022,0.552466509047984,0.553696422560052,0.556652261986284,0.559575991088023,0.561504468095803,0.562708334181703,0.564766633660192,0.566948424559131,0.567949775916694,0.568728852253983,0.568157109890624,0.568002108113656,0.566945575963357,0.566314574854006,0.565916718463998,0.565869293001698,0.565925029845649,0.566312819790182,0.566818724318277,0.567685829456165,0.568386477467243,0.569004559202819,0.569922695297687,0.570396870438014,0.60766696629329,0.609120743372339,0.609021324191473,0.606634921124634,0.606303096944697,0.606958063331819,0.607981957838708,0.609502945525548,0.612169003869989,0.612410849978357,0.612838396055228,0.612946164695552,0.6165085007972,0.621820126176312,0.630430949520049,0.630253612753071,0.629857088576052,0.628689675027156,0.628362507618618,0.628326048997092,0.628522271619455,0.628736124474803,0.856390963752554,0.884903362221299,0.657235293793857,0.664990951766239,0.65630444341714,0.653128552146147,0.630734690838113,0.633562211672455,0.634488194126572,0.638836278275328,0.642879315455349,0.642270393490657,0.642949869182276,0.642608202674141,0.642748219793081,0.642398769758201
0.422906411440735,0.423187606683131,0.422792700956562,0.42202783706706,0.421662581586398,0.696695694780417,0.7011521684609,0.712351228175394,0.7121172065671,0.43742278851299,0.438967357696338,0.441174796991824,0.442686695087245,0.444875836395143,0.446443179869743,0.44744294782833,0.447848737272744,0.447345035839214,0.447398393150995,0.448814416270202,0.448584563702211,0.449222733989775,0.48773684116827,0.620874205334261,0.499993865637363,0.461476573911581,0.514856060723382,0.461939093660667,0.732148968811791,0.596222702285765,0.595326144949859,0.677611717297984,0.677714403671465,0.776860121640486,0.493790716957597,0.698449123003879,0.571461457391067,0.49963797131045,0.500545304138055,0.502225001012116,0.713402064759501,0.505182284517994,0.505865096755261,0.505856503091046,0.49954597126591,0.500368097852768,0.501820138695207,0.5004279499672,0.685650892864943,0.513349350675617,0.656986920416409,0.625831091040189,0.597174922400735,0.597134389677072,0.877288163978798,1.02326416810184,0.635101820957336,0.520990430990105,0.521563198229042,0.520781522321828,0.520061448923482,0.767209436226082,0.528208678068978,0.528521642508882,0.529061384790616,1.13319150885932,0.628078503016322,0.526917193739583,0.526930648599664,0.527130590721061,0.695516331265109,0.706854605145803,0.705669989444668,0.537707739240774,0.53800193982518,0.540665663700759,0.542063928374747,0.542990492377375,0.547140359783604,0.54729266592494,0.549199747369882,0.54594908245238,0.546384733158174,0.54079533231073,0.541117054291365,0.539342003424658,0.540669084269537,0.542121171774149,0.541732026220035,0.536840312915995,0.537131876059814,0.570242976643173,0.528791767479039,0.52906813535477,0.555664623722468,0.756939272876165,0.573063989132438,0.604232590188494,0.532605868340584,0.544715783094173,0.544803382627652,0.54250466810608,0.543133425465429,0.541576141145805,0.549242218564335,0.549574713839027,0.550929795613809,0.550705251880978,0.551140867647248,0.55134346165896,0.553064713397335,0.558793389966402,0.563231767767128,0.565051286906971,0.567994867685543,0.568068657350133,0.568026507200546,0.567713749843299,0.567795866316837,0.56696339430912,0.566873204087062,0.566836043044848,0.567293673600253,0.568083008370972,0.568437065947135,0.56961578113926,0.569415645312135,0.569551953844931,0.570363497038679,0.571011378837223,1.05542692418862,0.59419459723047,1.03680540355507,0.603362046974194,0.604560918828269,0.60547586619478,0.605742732693513,0.603161974858878,1.06095141912339,1.06042494859783,1.05982948411465,0.607139781716657,0.607813706595733,0.608886896118808,0.989784129085565,0.98763561116043,0.697199386537905,0.973185744532699,0.60593777868588,1.08717174124202,1.05160045684274,0.612483638197243,0.840071126924598,1.27380488661094,0.630459674573839,1.2735634105329,0.992690725074858,1.03614598811118,0.630221152937553,0.632921359119416,0.634223118777344,0.635209621130846,0.643331927507827,0.639526910942243,0.638918813422947,0.641077723443194,0.640472959124791,0.63992131109664
0.423933738897245,0.424006306586514,0.423580150698668,0.423148409665667,0.422716654102677,0.473997985965587,0.706322943571402,0.710543699614569,0.710465787795292,0.440494756030822,0.441165492518494,0.442567197900504,0.44382278891976,0.445524456797308,0.446984978769913,0.448044272557329,0.448771220530166,0.448608708169462,0.448855232604909,0.448969789062398,0.44918400353775,0.449055581555022,0.472261616769486,0.50598891775074,0.534908078541969,0.557864991514837,0.581751833864453,0.606896640651091,0.698649216873102,0.694952649752428,0.682247454232396,0.680626371472908,0.596912611523603,0.570921994951394,0.54531849260171,0.616635443549571,0.592162973234567,0.546613494300677,0.570009255273787,0.594227494919732,0.6194944173916,0.553579400610463,0.505932420098888,0.505354184299461,0.503504870306558,0.502919354353164,0.503528059127113,0.503061274190564,0.671735087205666,0.669385620455747,0.655794000338004,0.612260261098042,0.602428379254819,0.599817229615744,0.826237112052874,0.800069220463913,0.613730145705329,0.521071727502354,0.521269228162324,0.520902775779964,0.520564648744473,0.655882887471982,0.668494759103191,0.684381372972308,0.703806861892053,0.726624298032257,0.702038664317582,0.700078548284088,0.697379801383612,0.696021788871269,0.695269426737939,0.694449295800945,0.693976358236838,0.537783209641459,0.538247779269811,0.539439455117207,0.540875734903587,0.54285268071943,0.545130222687628,0.549549179120102,0.549120850908533,0.547251193504156,0.544799171020412,0.541937327722387,0.538828304928305,0.538638247352381,0.537194298264361,0.53523131366534,0.534117872663458,0.533594689457311,0.531539197581096,0.53014410958671,0.528932944808717,0.528108021512929,0.526999851919568,0.52702474509132,0.527939854442935,0.529347103397913,0.531200297453625,0.532658804028214,0.535566669639085,0.540146175277159,0.541078059626527,0.541979496273338,0.548189742577627,0.54883509513375,0.549665639769145,0.550287984568587,0.550343125757642,0.551742125331227,0.552355957449032,0.558920837948412,0.562824973595728,0.564849647813242,0.566632391833132,0.567170952081163,0.567331084002251,0.567633842505932,0.567735113897188,0.567692671623404,0.567005492270463,0.56681306705693,0.567944497892867,0.568714627148533,0.569012171567977,0.569746205979495,0.570177939765023,0.570527222369717,0.571095644812929,0.571487460936283,0.997556128421054,0.99755613021769,0.997556128349893,0.676900755573957,0.649817570227748,0.606205425227564,0.605674558100466,0.603591190615701,0.601280280553553,0.601609614590784,0.603676792626834,0.605975265530793,0.607984725420305,0.609170181563222,0.633917394901633,0.65473402233428,0.673187429842863,0.695523720047982,0.720125644624118,0.801132998910601,0.797726289885229,0.665111967458101,0.686067492513412,0.707214341508857,0.72857820478837,0.981119570343215,0.988025547009688,0.992690726296276,0.708227951671949,0.680494043975205,0.634002751937046,0.63443979764961,0.634941586930505,0.636871563796285,0.638743338220339,0.638569994775967,0.639192286638988,0.639269973724545
0.42462435135495,0.424843853500318,0.424217640688164,0.423957576922026,0.423153789525994,0.423979899502577,0.711843801094194,0.71835789741975,1.12959723031309,0.441225536093077,0.44253107706854,0.443545244828546,0.444027918236661,0.744638853031798,0.838038084932121,0.448346845227905,0.449478242271603,0.449652537189083,0.449011777349987,0.449861772377969,0.44910593145635,0.44897010653459,0.447754468941782,0.452128198123744,0.648167608438308,0.647414919418256,0.647649927937086,0.810867382381766,0.735253127614161,0.740618941888363,0.685883442885945,0.685398219396817,0.486421026507432,0.489300057821441,0.489667207999622,0.698451911106922,0.616635447090374,0.498147502354583,0.848061973675602,0.847177180558883,0.658697952323779,0.659123320437958,0.506096099132568,0.505676829042169,0.504690603109339,0.503585900021555,0.504310690742821,0.503709965347506,0.682521692844608,0.785320142079164,0.657521135796449,0.604546496848717,0.605203219277068,0.582089784539561,1.0102801851364,0.774231746393972,0.594363717286391,0.520878784803569,0.521453862540864,0.520906588619458,0.5206334815829,0.63583548946243,0.704431228886307,1.18392006040026,1.2929279344835,1.23761133759855,0.703219639083631,0.700959345467749,1.22886247347091,0.696775030550706,0.696432892194267,0.696243374731588,0.696132833737418,0.537370993850516,0.536996034957949,0.537235755156163,0.538608047084419,0.537739031069396,0.537993516843378,0.66772593591327,0.737154023297282,0.532597566891629,0.534601528023493,0.536018183873805,0.537109409450487,0.536554864390451,0.53440871724132,0.531066653434981,0.531990199190563,0.531361571060688,0.532444743923674,0.529549412093449,0.523984233683685,0.523526479284751,0.521021969814098,0.520786951344873,0.522149179914652,0.52304696743236,0.531353460758082,0.532112338950139,0.533353984884133,0.539462171421949,0.540744090451546,0.54093724419946,0.547082023472569,0.547049784989118,0.548892590742406,0.548564683504803,0.550225851897431,0.550768855503141,0.55258062961115,0.557305560736316,0.561088864376658,0.564193225572067,0.554552981495056,0.5654814086821,0.566603571849786,0.567038665865191,0.568705848288476,0.567735869440532,0.567409348122368,0.565193396347313,0.568979032489278,0.569385137074067,0.569477020544755,0.570118396435122,0.570896894873052,0.571221333700916,0.571897098925739,0.572287834592818,1.14213967712563,1.1325278276475,1.03836571065965,1.12363462869377,0.812325526460865,0.594452667278321,0.595434153719941,0.596585082704993,0.597689631936648,0.596582598714686,0.598480128480144,0.594564810904908,0.595859045226183,0.596425889554229,0.597277409777021,0.59995626087408,0.601462648544424,0.602312458503552,1.01648426283376,0.804998443534817,0.79272045917053,0.628381179962362,0.617817281840612,0.618550397729352,0.760748094942577,0.96480315599897,0.981119589956279,1.01401377680457,0.960285349509816,0.932710638905815,0.633140983788346,0.633930296953451,0.633868277770119,0.635367987716761,0.639372172436596,0.635977534450736,0.637752114495597,0.639896221756248
0.423792684251156,0.423477498028583,0.423387014909765,0.423338761643102,0.475480503575385,0.502779632435133,0.716581370481029,0.745210153788381,0.771407002207756,0.586411832383871,0.562082472619421,0.540000038989176,0.519871740988444,0.500733885374405,0.4818760681621,0.450415759600659,0.450751735320336,0.450546976112066,0.450443292982781,0.450168569138938,0.449979009445059,0.449459703168818,0.448920987846298,0.503523883928571,0.647705327453379,0.646871867790841,0.647241302136257,0.687110082531754,0.708451153353107,0.69654336207423,0.684253040904789,0.684246655137764,0.63090514839506,0.639694468122371,0.653472233405674,0.672475070973789,0.672744793053594,0.672180396294292,0.670331737365628,0.667019692717266,0.662086391903686,0.660712461359416,0.505890651536048,0.505261536248603,0.504761898498188,0.504542745497436,0.504882630601873,0.504431817181515,0.681592307286058,0.681262182757203,0.638877943777688,0.60618121452671,0.605975807725056,0.574516449632398,0.569654936644002,0.566260394848848,0.564606031977803,0.562082922170353,0.554684420997625,0.541151215250192,0.579505482081599,0.655356993107053,0.668457052284537,0.681187242943037,0.707356121306122,0.707188157740563,0.705397658732631,0.703971102437384,0.682958719693448,0.669823270119047,0.631016760959877,0.605439322768856,0.580129512412795,0.538510730986614,0.5383897177933,0.538271690653656,0.537537322450924,0.535381537720113,0.533979594745559,0.533313682210021,0.532857830577331,0.533026443925609,0.534302196290913,0.536047231584398,0.535965082422454,0.534632666804615,0.532813634952602,0.530861287044581,0.530257935440259,0.530920234815529,0.530079845566526,0.529992231009096,0.523426326163148,0.522123301149925,0.520962995831613,0.521057468954103,0.522036204036063,0.522939872623802,0.529429777556181,0.530557528337632,0.532286415802025,0.543048398820578,0.543441754921613,0.544739628702544,0.547168885654608,0.5480634774605,0.548797298817539,0.549461640024087,0.549740693295873,0.55146882877787,0.552011112337365,0.554293832260048,0.55382235150327,0.554090381709288,0.55452999436284,0.556125591623157,0.558371752500446,0.560493459550086,0.561489019312361,0.562237664908233,0.563788252374377,0.564744920411607,0.566119071201154,0.567952683485,0.569606486640555,0.570717528336433,0.571758819827235,0.572400186631658,0.57275015286884,0.630374897926942,0.708883936177479,0.6862009909579,0.665679442873095,0.646576295412183,0.625729383448139,0.595549187489885,0.594988637564005,0.59521324263797,0.595943065837202,0.596477682911616,0.596405729157958,0.595625349445689,0.59540245433783,0.595871533406943,0.596882186062791,0.598652674722913,0.601240141339907,0.602370294338365,0.644326483800013,0.670788340134149,0.765575537315229,0.745817183317208,0.726903674359289,0.715137822063906,0.729203619304396,0.824677222796125,0.805877639523076,0.796211738740376,0.775480498703092,0.753957829194673,0.670095587753425,0.633617741442606,0.634348676164937,0.635170357573759,0.636228674432937,0.635895783509118,0.636400484237051,0.636584562000418
0.42292240623216,0.421769506012509,0.42245991874471,0.419560791584055,1.13307231877857,1.13159250383878,0.719312726386471,1.13136186319108,0.902041319486303,0.726679572114539,0.734362150462272,0.832092200887432,0.7448273901235,0.449859398691084,0.450940985613133,0.451457092362995,0.451404087952582,0.451333243566,0.45070789497969,0.4510975230445,0.450244578911661,0.450396538386489,0.449499548795685,0.692372376455311,0.772701159493224,0.644738691499146,0.646451535540743,0.63894382127314,0.744473537336714,0.469014342747271,0.658049792999163,0.919987635786099,0.615411844577149,0.647920548757906,0.698924643757174,0.699173555642198,0.673163727985319,0.747123270303794,0.574995403494848,0.608369298944029,0.515773398997491,0.738223948073833,0.506001029657228,0.504330714636492,0.503821003725758,0.503897846982305,0.504440114058255,0.503251268588898,0.801909548640588,0.68153136358109,0.608076259170302,0.607539191352095,1.09306932973864,0.572638382953162,0.513142211423112,0.512942838867457,0.562033699755018,0.701551161887255,0.70154744687067,0.51602108840305,0.706424178066469,0.705665700861897,0.512828317527377,0.587489936528626,0.706611393960896,0.609855265195355,0.649544137823956,1.28003682693269,0.672363205279379,0.653898643474382,0.523560310313093,0.522200355594503,0.524914915291362,0.525995828743319,0.657922007075412,0.527716562691274,0.5290595324647,0.528280239961662,0.528433568864655,0.529966100858318,0.532025975003657,0.532441008760184,0.532913672114263,0.584309883978644,0.526120990681537,0.526119908696038,0.526611916178492,0.527133801545107,0.529466034157766,0.528789495533501,0.529525689299824,0.528817654289436,0.519353294835066,0.519467417976205,0.519972490584447,0.519597238196894,0.521862203376294,0.522914422857201,0.527068368603076,0.528212467329407,0.533276312537632,1.08729085670841,1.07547106097559,0.866617707661209,1.0105309487559,0.547877005024526,0.548615054326652,0.548786605559232,0.550474417192823,0.549654433504708,0.552301748619178,0.551001643221671,0.554741990877843,0.553179797020798,0.555567271976122,0.555189382728355,0.557010036394699,0.556161872780254,0.558650195901831,0.559902745620802,0.562643832139774,0.562873743317924,0.561639132743657,0.560675451838149,0.560877586747366,0.570561277788031,0.572132545362211,0.573214226403704,0.573532870148241,1.47959823035073,0.745168243188951,0.578425826313984,0.581788647824674,0.583738130373165,0.590459440012773,0.590479270092862,0.592171113080212,0.592757946672788,0.594168563610585,0.595079103502987,0.595852703339847,0.595078367670509,0.594174644109028,0.594172956426456,0.595642909261108,0.595410887400576,0.594775003336334,0.594090974028753,0.594293774915312,0.596210482324425,0.819454797902711,0.818979895304434,0.874232562768043,0.699655813711675,0.609572922916415,0.849908493875656,0.794395811024189,0.779323175065317,0.724915402489156,0.740384657330691,0.698918574602597,0.632636699278009,0.634107938806873,0.634696734945825,0.635010627140176,0.634614872011068,0.634756260067686,0.635399947952964
0.421338464368782,0.421803632385484,0.422224159761231,0.42141325172468,0.479343007586903,0.647740970942267,0.625168725811575,0.578220521589109,0.554521330343681,0.533575318285781,0.514977034263092,0.49813546503029,0.482261362749291,0.450718364123776,0.450890425674055,0.450614430906194,0.451330657184598,0.451396351389816,0.450676330290531,0.450177481275335,0.449914688354352,0.500664983142813,0.530854671095571,0.691971163739858,0.706506516024408,0.705640168253922,0.704669331824531,0.704233488250683,0.70938176863058,0.521931273639059,0.663918586350073,0.669518673677261,0.639067011659718,0.652604208416775,0.654425550262785,0.642773415419883,0.634711084997652,0.622827308151803,0.606080216945503,0.606629267764804,0.606440602436487,0.607431403314136,0.607214591152672,0.606493469829977,0.605967840970091,0.605853879332463,0.606222216787124,0.606979537456583,0.607792929542203,0.608038349525373,0.608026435870357,0.607834728169987,0.635680789698657,0.609185430823714,0.539443289373512,0.511146225357256,0.510609037049091,0.512132351719039,0.513881728274845,0.51533205751265,0.656494472571933,0.672130166181235,0.538717657752037,0.55395162767252,0.567008186948472,0.578984212593168,0.590822451090444,0.603426534348296,0.618951487097092,0.635371218607614,0.59923001145339,0.572520502499603,0.526461725770509,0.527260012680986,0.528552690972229,0.529175401010689,0.529752025207866,0.529659854902285,0.529981606695147,0.530660199900997,0.53171142295645,0.531496629829298,0.529439620857793,0.527488831537622,0.525616572721864,0.525247883392086,0.526266026229891,0.528357748900998,0.52952395953807,0.52956961174369,0.529088136854403,0.525512036139765,0.520562840596509,0.519983256082444,0.519807952644069,0.520529508212708,0.521718833472464,0.523283223540964,0.525379230025535,0.527239285009635,0.529724581702475,0.56554349012092,0.590742614561015,0.614761457793384,0.639796474521134,0.548417529832862,0.548328031933665,0.54908193693517,0.550009358879819,0.550997560604969,0.55127097828714,0.552881492865368,0.553540839922873,0.554870738416106,0.554927273975592,0.556194181287163,0.55674996754685,0.55748771796677,0.558506214037375,0.560210490924958,0.561577474479333,0.562344015648184,0.561920628727573,0.561270079083262,0.560788679499542,0.562844102928803,0.565946134877432,0.569506159911328,0.572066229923795,0.611093949250514,0.654534436195395,0.62788395318635,0.584493864205616,0.585560092644489,0.586747790510942,0.588533013413245,0.590066408391351,0.590920665931218,0.591638422045031,0.592162230769549,0.592324585711911,0.592968927485591,0.59308489963329,0.594290507672835,0.594689875255875,0.594229917875001,0.594164317095396,0.593596828002531,0.593767318156814,0.595270453300424,0.776930354434658,0.782548715620878,0.78508745988784,0.674023319511384,0.651353414431851,0.65603045071188,0.659860351766219,0.661215934473933,0.668361791247219,0.67021066999239,0.673527417218983,0.669772275861602,0.657896091935966,0.63566193019753,0.635111107827508,0.633201738996986,0.632789820711112,0.633718102391834
0.420964337280535,0.422716071023189,0.422026771836142,0.422726838298114,0.422098108976709,1.13334939706419,0.609194670370723,0.440553273192632,0.441428020193223,0.442377502110236,0.448048266846491,0.448440717496595,0.448740468382415,0.450930132578518,0.450991297164677,0.447711531996871,0.450381629494074,0.841832045619805,0.449454293818424,0.449123455130897,0.448844331715256,0.891000290160253,0.891379221851948,0.69401431838483,0.706270935823283,0.705404815430972,0.704771270899484,0.704875905940287,0.866544335944873,0.468067013518033,0.86952656550868,0.67755324827786,0.593783173285597,0.941143726484938,0.658515584400192,0.613548377682952,0.610335924538245,0.607147813567584,0.606058482829625,0.605763905494466,0.604568863647288,0.595725092022635,0.657218322472268,0.658475232661937,0.677502003041045,0.796405751569543,0.623201866205814,0.666702449666423,0.608218499981012,0.501091632629405,0.501345176958887,0.507388485424841,1.08883421083146,0.76147809445858,0.55679166316519,0.512086071712261,0.511296226584937,0.513174365013304,0.514159091904673,0.511433605200493,0.642985781839835,0.857071043652491,0.50081979501645,0.500872927762123,0.501386037107113,0.502882680890315,0.503568679245647,0.503496091350354,0.512772780034132,0.687526561139387,0.698873918977043,0.699207044301612,0.525952935045879,0.527819478219365,0.528105500100292,0.529326616958185,0.530021948866959,0.529571924748272,0.53031877615217,0.530796574078169,0.531949530140355,0.532301970349134,0.522404287271288,0.522992136750619,0.52411001079857,0.521421854126422,0.520251094974367,0.518944442226573,0.514664753917698,0.529013717368743,0.528664881833768,0.506317623641091,0.505901845121044,0.518271895309408,0.519160026079707,0.520016907017505,0.52099195327204,0.522426938805895,0.52443462897165,0.525763681488683,0.526981527970909,0.527386397067277,0.528860975822613,0.530428514516207,0.871755575459829,0.540053161323723,0.541978956583242,0.542349415264404,0.550596059349016,0.550739447925653,0.551095131636743,0.551754263150772,0.554706105328839,0.554272269758112,0.555741411460836,0.555925931227087,0.55692910334571,0.557323101421531,0.558775718011033,0.560152476098065,0.56095188146994,0.55251201507865,0.552159625390487,0.554041216075533,0.556153634624691,0.557400230228195,0.557984120810295,0.559194258646702,0.563426730171431,0.564646265648624,0.732781448845834,1.12859417583507,0.57589096431112,0.585265955171039,0.585099694934805,0.586052646462516,0.588175133242726,0.588816535181847,0.587427611828289,0.587744612839305,0.589881141090431,0.590457255467064,0.590371264165587,0.635465663918868,0.594121487111153,0.591665898971395,0.593050009159989,0.591359542532132,0.591010603580035,0.590785382960912,0.766456969758849,0.712569900936896,0.798655057162313,0.602178957418421,0.602676150471414,0.651956917582393,0.660391627845838,0.660402679600271,0.66748457644215,0.666185560282199,0.678244891770608,0.831965890392923,1.03922945187694,0.624331177961078,0.626913259157886,0.628698547362974,0.629314197089431,0.626818386993337
0.421275437628549,0.421777925622504,0.422539152156825,0.42170863746436,0.421432582049448,0.605960156082733,0.605790604006889,0.567604104846876,0.547242079015283,0.528597201067619,0.511436671171676,0.495317943345146,0.480286106937048,0.451481242858613,0.450807331126939,0.449155360157088,0.450137248486071,0.450107265453498,0.450354895027641,0.450256930652532,0.500564783730821,0.76602459733219,0.739094246098906,0.710098580109245,0.707843774536273,0.705265335331667,0.704481915663283,0.704437708006597,0.72582691128239,0.7489291452095,0.773487098119062,0.709105442056271,0.631489081940766,0.646188579666192,0.621903262868492,0.598688533659701,0.591771159225676,0.592810962196405,0.59440214359318,0.595759243340068,0.59641410981047,0.596208538709408,0.595087119404587,0.593160280076841,0.590940279760953,0.589105043163328,0.587702565457947,0.5926690019299,0.599320496728828,0.541827606037076,0.53371844948677,0.520902843733048,0.531379153324218,0.542647409794354,0.550487453690607,0.547043456568739,0.542509123506627,0.536728651310279,0.532125420294356,0.528148093732818,0.525640710437284,0.521463919368692,0.50117542970547,0.501653464215407,0.502360197724438,0.503181293504982,0.503853716875653,0.503736933240595,0.513084444548377,0.514704016002988,0.516204498864551,0.519126407183698,0.519142080187682,0.530386817726097,0.530233858340971,0.529666424591929,0.529961001168802,0.529876634606962,0.53189655696296,0.53301610004386,0.534040833194767,0.534654027404894,0.523910951640261,0.521392781026176,0.521584623944899,0.520378859123894,0.519084631029872,0.517580768632844,0.515738105424488,0.514470479370528,0.514204170799458,0.515090552817727,0.515840134117412,0.516508433877003,0.516935016773215,0.518402381879904,0.519417238233713,0.521110373049389,0.5247644994273,0.525885729614725,0.526859294298178,0.527989879863209,0.529556763967255,0.530677460212149,0.535922095067373,0.541498414311001,0.542414292754568,0.543152472456554,0.546355630840709,0.549295080981907,0.551361614023294,0.552563378169242,0.555196580746405,0.555783394141306,0.555848770946154,0.556164435027251,0.556478814150882,0.557281913621216,0.555808483600716,0.554680515774529,0.553485075586818,0.552630539326681,0.553245873486605,0.554572961982402,0.556425223389605,0.557594829210727,0.558463906845749,0.5596257656231,0.561570191102416,0.563375205664738,0.567118098682123,0.567818116132435,0.581703447267582,0.58479640960751,0.585607273818332,0.586407575217616,0.587155696403889,0.587563956510751,0.587522170000702,0.588082657457758,0.589898115584119,0.590485149422069,0.589996233208816,0.588890658295842,0.587527038458977,0.586729545996022,0.587492399785001,0.589538979505725,0.591199624716886,0.591595990001479,0.643889104896656,0.676889733956982,0.719015063470954,0.692839214637259,0.657631227522452,0.658894090736922,0.660087363647269,0.660406448797697,0.660670841926661,0.662705886645819,0.671328291336098,0.694039524911243,0.668579385714191,0.625158130206481,0.626085325378977,0.627358095583514,0.62921430575391,0.635311223325343
0.420501734329583,0.423352282763141,0.422234748045489,0.421284317344601,0.41993351954879,0.606322550102516,0.605962882061297,0.605929995185902,0.955910234467078,0.953975694390509,0.953513502621227,0.952117639594315,0.855968612550208,0.441632197623496,0.44362686898251,0.446251130685853,0.44902812607746,0.448111517029454,0.450784473042411,0.450764295217624,0.902795003441341,0.902945461613043,0.707174898182692,0.709529170943951,0.694354467142845,0.700479462376664,0.703050296080141,0.673406351248625,0.675431803696744,0.871737929165743,0.871288412158928,0.791548367453721,0.455561198493598,0.683395877287454,0.459528511665572,0.46570047665997,0.47344416504647,0.473553262818182,0.466487238365459,0.466129445162664,0.476168881775385,0.477279607799512,0.477671579708828,0.477881295545481,0.477471246475292,0.477845351284179,0.576247114079344,0.577057642312397,0.635009644076583,0.554273117351351,0.553771963073507,0.497149607244361,0.498056910550698,0.499473491297317,0.561632791982586,0.57466283530832,0.577830676732473,0.592326586323684,0.604015831625492,0.878081319950359,0.49870036933616,0.50021097477866,0.500762176591727,0.501788711744669,0.502837540636824,0.503163053582956,0.504290770288147,0.504689311388757,0.510192228041777,0.512239231141587,0.512386456291727,0.511688019554697,0.511052194088194,0.750113858724307,0.81680955140987,0.527662456900126,0.528558954373643,0.52694984055612,0.66849680178532,0.58723725001831,0.7347318324837,0.59091309072602,0.62527906169043,0.51863070290495,0.516371765686993,0.516389729216677,0.518182675086667,0.51718569964194,0.517467991361829,0.515322151721761,0.515406167411421,0.514713619941178,0.515573715663846,0.513466163032478,0.514641393927858,0.516581075536423,0.517174691073245,0.516630841080773,0.52538241850181,0.526125569306222,0.526713710284831,0.527515723308065,0.530882370355336,0.531716914549448,0.493759829920063,0.541376006353686,0.542084001487635,0.542221425932524,0.537495458170074,0.537533802853468,0.537469668956565,0.538467526597057,0.554870524547007,0.55548001309792,0.556692123247106,0.555201862588944,0.555947182888752,0.558287218350957,0.5530185146861,0.54896351420948,0.550562395490663,0.551311384658887,0.55437705244339,0.555016837459339,0.557301670917685,0.557751417428381,0.558598824209482,0.559125302280525,0.559802915302277,0.563441333384875,0.565122852180101,0.565244774631427,0.974931802327766,0.572106193420678,0.585514198123169,0.586083279693915,0.586262363227466,0.585762479648906,0.587208577998327,0.58701855386235,0.915606702477946,0.579332724955482,0.579719509684439,0.57959537772804,0.579918150583729,0.579956637367619,0.580832837799627,0.580446771706268,0.582505644722453,0.581959391738534,0.585286664281967,0.648297328867262,0.787973853098236,0.811622697849496,0.657272103926971,0.673578849172219,0.645827896159876,0.629642626648807,0.629571878016692,0.650941708878247,0.615435218624851,0.735703311538021,0.623078397948301,0.624718644567985,0.625574639452552,0.625663094133663,0.630719825750254,0.644295773824361
0.421837772397178,0.421206435527986,0.421954291249487,0.419643189563217,0.419782844158583,0.587763757171824,0.593490008851221,0.618776278549003,0.630047599269363,0.559358480573164,0.533890724914058,0.509359555946345,0.485451017656369,0.442660965726822,0.443706360567724,0.447582267234635,0.449625418350586,0.450214483167937,0.451067090002552,0.451543948699567,0.488561069016053,0.510018947404248,0.531862497502124,0.555072793590499,0.579886936636616,0.702863656895326,0.703558251841467,0.672712652729016,0.673240113505774,0.68893044642502,0.69475569095208,0.515285877188141,0.457621596535139,0.459362904315581,0.45974747701109,0.469867571615829,0.472304965237599,0.472136127626401,0.469518093894291,0.472186194645644,0.475197022435492,0.475204734078334,0.475677927520293,0.476192092828059,0.476334890519309,0.526033851920674,0.575896202378613,0.576191910854541,0.570727635280835,0.55455297238337,0.530437859930953,0.497731906950799,0.497977815772274,0.543468711932657,0.56567273168497,0.567089165956279,0.580780847103825,0.603315492889301,0.609434350785918,0.617069784929781,0.55274338062062,0.500504248264266,0.501125057459223,0.502300920324487,0.503410541834796,0.504339142559685,0.505626452375961,0.506440842224264,0.510557717676479,0.511388412609839,0.512041794495002,0.511623628636804,0.511279854012618,0.559179925462419,0.640252590892364,0.61525859934666,0.593697629120371,0.593844543204762,0.615319551634117,0.594835153334928,0.60182040563408,0.609499743100961,0.616844808847343,0.517872715266766,0.516789341325998,0.517733477267087,0.51859133528404,0.518194715097473,0.517057156668746,0.514327601126797,0.513343864939878,0.51388097055434,0.514222732055274,0.513164987770979,0.5131297481925,0.514720064432182,0.515999292714883,0.515846828627616,0.523304067940025,0.517777793256707,0.51334657415274,0.510068886970032,0.507693772197725,0.501248797162874,0.500200111080223,0.522564802221924,0.537060115914883,0.541738834923147,0.539285019689369,0.537995866619413,0.53777902239508,0.538766445901038,0.544177907057329,0.546233544562609,0.549093499950381,0.552725922448303,0.552987792224272,0.55141031795191,0.551535233051921,0.549722558991312,0.550392871118067,0.552123703210445,0.554856319697927,0.556402862964927,0.55703823754256,0.55740756007239,0.558210550265675,0.558924897957061,0.559814465223088,0.561998315284282,0.56307199628202,0.563548036058175,0.58833336401806,0.588037166318121,0.585062653734505,0.584900841508208,0.585053774464023,0.585156625024264,0.58450949451753,0.583765947033717,0.580731480287769,0.57992797813272,0.578589998314316,0.579811856471232,0.579650447656255,0.580827778057211,0.58101796851155,0.581693507540867,0.582120325144054,0.582469944214382,0.583541048326837,0.629562602634013,0.799637841882416,0.80645656009683,0.727182351456999,0.70033291497332,0.638880259393383,0.63076326819443,0.630739772852905,0.667209399220005,0.68366244641495,0.699006773388866,0.63757850992149,0.63497453056594,0.63344834302454,0.632691081398506,0.631910266619914,0.637089436586196
0.419899582708233,0.422721052371207,0.420696494405638,0.417370763785412,0.418846794043783,0.575559474614681,0.58714580924369,0.641113059714817,0.647866674831321,0.433338414591926,0.434366076830297,0.435602273162624,0.439524075554011,0.441702898850988,0.441920140678741,0.953746920250391,0.502422701179417,0.450653191436909,0.451071383257717,0.452271596832722,0.451383977889984,0.449121665470177,0.448288207510126,0.448385879337496,0.466907000578811,0.930193715099921,0.719391207827715,0.669897700513443,0.455952822502421,0.455893739742457,0.699651396653853,0.454103264606402,0.455268162515468,0.458937125109709,0.459160595444542,0.657405016627117,0.6522074186328,0.859414290363636,0.466400846100139,0.637705449807021,0.638157445379491,0.472259037259069,0.473217863221074,0.474594469460932,0.475167557963695,0.648788601944975,0.658458911577621,0.69709685779403,0.505770716039073,0.554961473528142,0.492377118526169,0.497556224871221,0.498035678746747,0.625702296379268,0.603284502457234,0.554512186069093,0.586742154343815,0.622088816443583,0.660626540880642,0.62487936093028,0.638195547407434,0.49991446809204,0.500624918194137,0.582982226358454,0.50361671123904,0.504721530429942,0.505932869756288,0.506641032110429,0.510505532673536,0.51118558241344,0.511418758483217,0.511417978058571,0.510596646189616,0.510758064915476,0.684943954603342,0.6833607377235,0.593838089017529,0.594215455447731,0.651863745362419,0.580896864132751,0.582156874397238,0.624977859114366,0.627608087880615,0.513880265617321,0.515298364161171,0.517765781081878,0.519391957618848,0.518903426265083,0.518609663856432,0.510796366023037,0.509657409547139,0.508445422200473,0.515541069289631,0.511089424691935,0.50943630861446,0.50966541304775,0.509449734805787,0.500586276385923,0.526976336331677,0.489662471462014,0.510343355464855,0.510040894306515,0.506782992496886,0.50070963783536,0.498842970355164,0.505942356271657,0.530258590356559,0.545935076701109,0.546438275479167,0.518349301911517,0.518676575928856,0.541122438512889,0.542744701797619,0.543436202020582,0.544624675263762,0.553707132124441,0.552393968785444,0.550666310614247,0.55261542923952,0.548109245363302,0.550397820095088,0.551023010059931,0.557382623426983,0.557558879264545,0.557434832257235,0.555979970563804,0.557607266478741,0.557706023499346,0.558732360346826,0.560619317018918,0.561289551983615,0.562010537781528,0.586296526481317,0.705661827704137,0.580709338188104,0.582306175356556,0.584031266889822,0.582743066488751,0.584808011640246,0.580876769718483,0.581891594053613,0.576593293787844,0.579761121702569,0.577372783814807,0.581377177021683,0.580154239187131,0.581470003817704,0.58189049022418,0.582748168428325,0.582099233680404,0.582864705209786,0.59958511387042,0.82138459455188,0.857192819111785,0.864737826337917,0.784104402971031,0.634036647004957,0.614459197632489,0.608542939197676,1.01101544887026,1.01079873956945,0.875075871602283,0.640908738112591,0.686393894663384,0.831188523103071,0.670539134561962,0.627561770275686,0.586607101017853
0.421761346502435,0.420766013517262,0.419288503955856,0.417156737663202,0.462649272494487,0.489278464880719,0.514841650467738,0.624960442320719,0.614493866525171,0.434267334531633,0.43467748221847,0.435054998352666,0.480763928080071,0.50726982600273,0.533360237900853,0.582797302362193,0.55783000148954,0.534364348869264,0.512126165556392,0.490240097088939,0.449880713838887,0.448961866308883,0.448241846003885,0.496702577403462,0.523406103266871,0.765169777351191,0.741224311016583,0.706659918138099,0.457763896859844,0.45858942835719,0.460282229442676,0.458527762725032,0.458142653331094,0.457956457009495,0.458159091603199,0.640339972364573,0.645429494298812,0.648154518724613,0.513745278945385,0.619133567703654,0.60524812822679,0.600046570541217,0.593015510856409,0.574345800612242,0.575581361677116,0.658311651267641,0.66106685044,0.666076673041838,0.629334219338809,0.6061810960616,0.583649220827408,0.561796557027817,0.540574533899846,0.614425545353218,0.611306570344002,0.610611454856345,0.61172022536223,0.611028098882233,0.60988969927556,0.608935395518694,0.612373985333295,0.601909323861113,0.59141793298508,0.591116947537745,0.503750020797861,0.505222905159686,0.506501967187246,0.511270839404925,0.512972024243802,0.513145563784664,0.513086845000158,0.512551084805223,0.511832214167139,0.511246241358741,0.510242258552218,0.508195615003477,0.505639644283298,0.50358025893808,0.502950471205693,0.504116037192835,0.506743888552813,0.510009752302567,0.512944027072772,0.514640874876895,0.515894678157242,0.520090952503644,0.520814634843726,0.520658660566213,0.519667716588612,0.509857245352258,0.508703515236941,0.508720103734711,0.512036023485711,0.51204797911294,0.510712366936218,0.50984334371974,0.509236274157523,0.508564903265967,0.508754480925148,0.490305866201304,0.49101738928723,0.493515618336501,0.497810927249493,0.500091046313016,0.500769328110092,0.516170154154709,0.523287947876926,0.52115216695246,0.520053621900937,0.519324803026815,0.519270139401049,0.541308818093401,0.541172255932202,0.54091339135576,0.540637423206241,0.540779770376868,0.541594950331154,0.543025610588388,0.544829250875966,0.546486923303722,0.547439339244037,0.548816398200997,0.55113894632772,0.551509086156281,0.552500709812863,0.555390919129694,0.557879423425415,0.559421530856055,0.560228818160316,0.56007778283804,0.560230974005446,0.560247862730332,0.585687221042067,0.584258303062541,0.582174124187903,0.583070565526345,0.583746270730518,0.584165911033068,0.58299852517227,0.583658372138848,0.580801802775744,0.581962563536397,0.579548297078869,0.581101987575289,0.57982634470158,0.58103641175224,0.58072190514572,0.581339773195442,0.582066514627289,0.582464943291296,0.582911060936313,0.61775020571959,0.64968888143735,0.858322193896948,0.860918609596986,0.666536225538895,0.629715647821242,0.613620235878504,0.611420048158943,0.642913449461066,0.663372925499608,0.684212270095881,0.70631388529823,0.729829937473456,0.754807232488112,0.641262198533802,0.614587635667626,0.588153349883493
0.422432152722849,0.420709831917748,0.415715029779176,0.416048420988775,0.625317164014986,0.418099227618423,0.477067860850772,1.04395681048167,0.602538336536329,0.429413377459125,0.42955384834169,0.435243052936788,0.959940161323917,0.960194022960732,1.10423361842689,1.109424026475,0.587892723636935,0.55460426533994,0.57022388247122,0.570643257294763,0.449145000525375,0.44845784407549,0.447337157999088,0.75746401903822,0.932560490284134,0.931848445438628,0.827189382428605,0.928884171753621,0.443852787827469,0.443921658360219,0.443705104672915,0.744526318953043,0.746550383822572,0.454680999329987,0.455842483687852,0.628959839620082,0.640535959787815,0.687404380021045,0.46128035038424,0.670703521636957,0.579297541358478,0.617868268052529,0.618673611900003,0.57499828443396,0.578940914103636,0.664484023574709,0.665305346444702,0.680290085155843,0.680002184358629,0.668401788173051,0.667414263758659,0.641020539892852,0.494799343394392,0.617257049129427,0.612634334407195,0.612926063916447,0.613049080024295,0.484703334520605,0.485425727803422,0.48552509451492,0.622444721838198,0.603173677725473,0.593793738394907,0.619786435015158,0.500419261180593,0.494099131291097,0.496684298200047,0.606747653683015,0.685562764539797,0.693986354084244,0.584915429965661,0.493293088997395,0.49529505298709,0.493014495783691,0.492189150857044,0.492038489928354,0.492559218904878,0.49118227602285,0.491244577990193,0.491906026562764,0.493674073469213,0.494459520057122,0.495255304700253,0.495979897358917,0.502141040687361,0.86136003030016,0.57126143644247,0.857457405377357,0.51755880829793,0.504752726188359,0.505964189857529,0.50683708588285,0.512043648202255,0.513422012679695,0.512098853539447,0.509302607049897,0.509051002865006,0.508593486455333,0.509086675729995,0.490785324635747,0.486586954763288,0.485424681354968,0.500438869649676,0.491455362544211,0.491896232880288,0.550261900921419,0.526423182967171,0.518884460754379,0.519717467433621,0.51970101897688,0.519722954880149,0.541526705367511,0.516343542047244,0.516616613345355,0.514916799571276,0.511132949753172,0.510801672112221,0.510229581486717,0.502390293150136,0.506042955058146,0.506957900909361,0.51588683845122,0.516762809778017,0.551287973136846,0.551502943181123,0.521412587811061,0.54478864580088,0.548495705452685,0.548658479194301,0.558110846312203,0.558800101957465,0.558054145484821,0.699311006851657,0.577896266155914,0.580275215262632,0.582845490466593,0.584221052603453,0.582746041069655,0.585759596974554,0.58109461713347,0.585704659937958,0.58026909631999,0.585379660417247,0.579107687032713,0.581863742132413,0.579875656255317,0.580156277512484,0.579712404325976,0.997714141536797,0.600754268158866,0.577449161932766,0.647387151628934,0.586522046853194,1.09441137951476,1.09435565426598,0.599171446682878,0.598865200556539,0.598797985586113,0.599522885640201,0.600034905753775,0.602970333655211,0.611340938012066,0.812621377860202,0.824049085068493,0.824614398655931,0.590503383989395,0.591530052225189,0.588862319618618
0.415012196162961,0.414357232531871,0.415562205777224,0.415651797217668,0.416984869194563,0.418056133683262,0.420799066965586,0.422228856858104,0.424480307878813,0.431089574786802,0.431174328944352,0.43245291363814,0.978055757222114,1.00171707373497,1.0260748987327,0.692780099033328,0.614351825205053,0.587893236619812,0.569988130511658,0.570135138614355,0.501401997042321,0.519949401466033,0.539899079133156,0.561730286068434,0.585786084715293,0.816414295329398,0.815762275007314,0.7812635547411,0.44483261526329,0.444962939875886,0.44512707238059,0.450736091117413,0.451463584717817,0.452636247281817,0.453199661195351,0.454394308807964,0.454896597925876,0.45700790458092,0.459120747732417,0.522748430144829,0.600246176077712,0.620086879684331,0.62035754324049,0.602313369742202,0.621415547159303,0.665524382195481,0.666921562739623,0.669744286079768,0.670955782031057,0.670251706934939,0.6476984679097,0.623750769002311,0.622142824024829,0.613648381911408,0.611784728202779,0.611404847965353,0.612675924091851,0.48499667167101,0.485144910083599,0.485705542066328,0.486886619367925,0.485971530064892,0.486697452972489,0.486793016463323,0.487170016257906,0.488166682037814,0.48775056653944,0.48789410815416,0.488448178965899,0.489618282671486,0.491950082033149,0.493492327879125,0.494325271316712,0.494001105981873,0.49351014098201,0.492870386702933,0.493042708045775,0.492335820572245,0.492213015088542,0.492830062586957,0.493735035165817,0.49507201321414,0.496295931285214,0.498647973292332,0.502500611592803,0.503794498108084,0.503980218742261,0.503222592422632,0.503176910071502,0.503681154875753,0.506064993380484,0.507291123389147,0.509439473034495,0.510463463077293,0.510252683510901,0.509755487969974,0.508636474950805,0.5080167617251,0.508436086938113,0.509832721839683,0.513803512087416,0.515104879126476,0.517577909202947,0.522840112864316,0.526411578471519,0.529971834627165,0.529181361177052,0.51802148746907,0.518968799642591,0.519864049949851,0.519484488109336,0.518504921009832,0.51659151835934,0.514210802847176,0.512048302887241,0.509670590719131,0.506180980601392,0.504133272262111,0.503420523688338,0.504730078896393,0.506700493602618,0.509348827651185,0.512229008121989,0.533248873762633,0.533667825602564,0.533849786006515,0.539123569429403,0.542840556717101,0.546223949637236,0.559488821242119,0.559039650021114,0.558300035193011,0.561545961898179,0.566811943431341,0.574452661274733,0.584296743010844,0.584750842170819,0.585355482900861,0.584645612451744,0.586052011650568,0.584072662254913,0.585735346880818,0.583325189297752,0.583427495330321,0.580042667432657,0.580182895015154,0.578564585980118,0.578854888589835,0.579007148493507,0.578490039471994,0.577552967531804,0.579409111194574,0.586611593630209,0.588966499846975,0.593977008056218,0.595831963609573,0.597568807771521,0.598201326832199,0.598621091751444,0.599157141597614,0.602682552709225,0.608490444452208,0.651534608319689,0.731910749138346,0.705516433137375,0.592922370861471,0.592987634496081,0.591911259187177
0.411923906110281,0.415716831868374,0.411700212608266,0.417696109568186,0.413795688189553,0.416603187640302,0.418714302470429,0.41846368450661,0.4175088257539,0.430839950342051,0.430469212192504,0.43070511584524,1.07017262008936,1.07012379575018,1.06953363894446,0.639821517795637,0.692788959839061,0.988296574493194,0.461718050173845,0.644860937585215,0.459429598858723,0.78886034238533,0.889032260089523,0.425997856036078,0.425989187746349,0.834933039121606,0.813801339909989,0.754627074860215,0.445019443831725,0.445346583261888,0.445813759100165,0.448227018467791,0.449347178444715,0.450041371909566,0.638599277061393,0.458106225075059,0.456967347769405,0.459446149229266,0.460754343500045,0.461223102923268,0.808409898910625,0.76038108119703,0.760874558878233,0.565124606683444,0.669030442205378,0.669384590731386,0.56498613777383,0.529833809054016,0.46822954385598,0.670556142719271,0.632649546991107,0.488499604736895,0.674157558307091,0.483452849445549,0.483575701612224,0.610052368479545,0.611883053097821,0.484932614877152,0.484413111431775,0.483738451431334,0.476481711731727,0.482131876046834,0.485489785072469,0.486642709664112,0.48634862695828,0.484144657693647,0.485252585855866,0.485878828788425,0.4870169136269,0.486421947900087,0.491869656587388,0.493599706658968,0.493817186523787,0.80895787147426,0.808369914524529,0.491429825247319,0.492546152762735,0.491646186543076,0.491593956432922,0.685642532080384,0.493151786380407,0.495280627789542,0.496388107843233,0.501032997594325,0.502776436358168,0.503611918206209,0.503700152462582,0.501570256154929,0.501364495317733,0.502221554202658,0.506489313058775,0.507335594452302,0.508256856789096,0.508362464889095,0.509974683627275,0.50960269069026,0.507995681895921,0.505991913506141,0.506101063589189,0.506608632109125,0.726946086475168,0.52586214809949,0.526917369957818,0.52763379501937,0.531128062137936,0.531467596629538,0.530931180441247,0.501266429273081,0.535738372480717,0.521641268651303,0.502775293904403,0.501183987759275,0.501285538920234,0.502077479552689,0.50308364373791,0.502967373806873,0.503310438101234,0.502287845063468,0.501842549178404,0.501902789178498,0.500939596011065,0.501324825302289,0.502404847849795,0.532057242154871,0.533223272665492,0.533615157804956,0.533726717497047,0.534800326930909,0.535760901546347,0.560847206627431,0.530000706759107,0.557223855109377,0.559440504176831,0.560098245217293,0.559192835525711,0.584420122456382,0.585256994069213,0.585076349004269,0.587761733181079,0.585249136629553,0.588991222592822,0.584934698669604,0.5877151543015,0.584994533665165,0.577797179585568,0.572318718873118,0.573514062191086,0.5715448623294,0.571974896155679,0.573027060523262,0.574208557648384,0.574435683630721,0.584799179097152,0.586111617200906,0.59114493783068,0.594848412080055,0.596836412198383,0.597317473121795,0.59702770709519,0.597985380596261,0.604047143714044,0.605256147850126,0.605155429723104,0.856219376100323,0.679195120919751,0.593937808776295,0.594539922939353,0.593463176665455
0.414005653361576,0.412372894170128,0.413726137059407,0.41425149714344,0.415499424404561,0.415854544286728,0.418526460370555,0.419230279753055,0.419083458099919,0.46419779874661,0.48406440012259,0.512398296880968,0.969275904625722,0.995017699297493,0.99482994710997,0.945174239890474,0.930372811675178,0.929320910464614,0.81460642624868,0.812305383303105,0.807795233321522,0.801112102203929,0.498527763715675,0.472122028657417,0.498527763749873,0.809719889402193,0.809474179010055,0.778962556199429,0.498335656516213,0.446462128643679,0.446772424451013,0.447284100651327,0.496694582038301,0.523296803224741,0.570686599342446,0.545120915741039,0.520353376007635,0.460037116105807,0.460481759918963,0.515186934752078,0.678831423028485,0.678702918282724,0.641530350895178,0.615149589745717,0.589352624144764,0.563957813948916,0.539382563775715,0.517114289073767,0.503146493143003,0.531181404040855,0.600961786195874,0.586845525284667,0.596981584300185,0.483652923080774,0.482928912326121,0.611140225546875,0.612230290778779,0.536267714187456,0.48511240449216,0.483798497163962,0.48012693306862,0.481061187436509,0.482968500575692,0.484285366054532,0.485791450698395,0.485192881227227,0.485082123077268,0.484990006889402,0.485219212567166,0.485389652520134,0.53154078794831,0.558098961579848,0.584015211512764,0.808112250508633,0.807627728770777,0.550217910196899,0.506844689089672,0.493751416496774,0.493544745364233,0.539031150793581,0.495206974531347,0.496154840711224,0.496437509777654,0.499785554593973,0.502448154265947,0.503965067436169,0.504393685882767,0.504119969928578,0.504296244626786,0.504553372347282,0.506545684096914,0.507393288222603,0.50798608458821,0.508669351564129,0.508576696211799,0.507681466988552,0.506984505475836,0.506353310310277,0.506472213527813,0.506716893042556,0.521208362732631,0.526343277137377,0.528119233475838,0.529680052798109,0.531535236312366,0.53255950024432,0.533280730519887,0.534810652074346,0.535860488700487,0.5286638280801,0.505590204296574,0.50272668217685,0.5015749465249,0.501774129500063,0.502500257171845,0.502512969315329,0.502431316197323,0.501823646571572,0.501660293690762,0.501462293642609,0.501721919138917,0.501848360634512,0.502331675979832,0.506565765732758,0.513218847699495,0.520996736883104,0.528250373842784,0.532527118786412,0.533318100286494,0.544165809651855,0.544557065562116,0.550762612035594,0.552895148492687,0.555359856707888,0.557657819725173,0.576361117892161,0.578874146090051,0.587359421143082,0.587280764496891,0.588144606820783,0.587196592272523,0.587267531541753,0.58526422204991,0.582335475428719,0.575771218533888,0.573763812551817,0.573869883201783,0.573306159692011,0.573466003649158,0.574071440185378,0.57536440384615,0.577443331192286,0.588676611487704,0.589555156368987,0.592103933961897,0.594590545796484,0.596184263931199,0.597036338491514,0.597817898866927,0.598449447328807,0.603289083773859,0.60387160072207,0.603841377657014,0.602357752962214,0.602106154078984,0.596855082272739,0.596371811526055,0.594903892346827
0.410306349460775,0.414944260691984,0.408550217012361,0.408492408249096,0.413040711683488,0.415178862768892,0.417183764478957,0.680649549789811,0.419320930073478,0.621876129958229,0.491354595265486,1.12685740558147,0.921955513747343,0.995105469095738,0.994542615800461,1.08874133541683,0.930597110160451,0.926673267409984,0.836664460020817,0.817092145095415,0.812991763779362,0.802440168356295,0.425465277002115,0.425616878441786,0.840205798323484,0.809720426856835,0.805924642441297,0.801530223423844,0.675938908910916,0.446872213743092,0.446994071214214,0.446438896875731,0.757398077823077,0.801512970770595,0.757727168113606,0.757888148758597,0.546149520506588,0.460121145241671,0.460671762931455,0.812051543918314,0.679616823766518,0.679231207594096,0.520426457264218,0.729757425276054,0.461298969484165,0.461833521091754,0.462679280221605,0.462371870577636,0.470910459628872,0.471001459103926,0.645259373879886,0.564959410611976,0.634155190688842,0.47840506135947,0.480093847614557,0.760902266818478,0.61311631352731,0.75838348557368,0.471235059637154,0.471332302239423,0.477906543580877,0.479097542079739,0.479796064114233,0.482144409978694,0.486827560483069,0.731461689134536,0.483993555956211,0.483336444964903,0.483429452926137,0.484499442421969,0.71360360447864,0.94972541479686,0.87222088135652,0.80861492711295,1.06624690999315,0.602760512132898,0.514679698791104,0.483652188275979,0.483155762599995,0.924780007181069,0.486829198894849,0.48725235275224,0.495143393078334,0.497213222127877,0.503066732775503,0.504712897094712,0.505050619723347,0.505932683217545,0.506198821905745,0.506547960420359,0.506543524790758,0.50780122188385,0.508326526024401,0.508816674706521,0.508671214899905,0.50502017429154,0.505868535763954,0.505549261336397,0.506698094691891,0.506772434196143,0.515772373367002,0.524406822809,0.528947740129395,0.530985551218264,0.532813187660459,0.53455304988596,0.534734431112871,0.535274114799086,0.53630261994535,0.537621580111108,0.509501709512629,0.513230595071461,0.501099924839641,0.501608681962775,0.502624668705892,0.503046802650824,0.502002366182444,0.501661065377476,0.500632530530406,0.501572876747153,0.501891141616507,0.502991846906642,0.502928728593786,0.503189524480994,0.502672651068637,0.500131347424054,0.501310099251215,0.500655680749682,0.506253335264091,0.542992842539458,0.544342065586903,0.549187261186189,0.548256326896308,0.54919576418156,0.552771299544548,0.570618389383873,0.576519842009419,0.628373695061424,0.55789239901394,0.588239697523137,0.589211655881018,0.586813418547094,0.584924270953397,0.577852502246978,0.575871103142508,0.573631499911917,0.574326834185411,0.574268165160417,0.574057158185027,0.574344508321998,0.623957471860563,0.580033016712058,0.622544198512258,0.589912833875668,0.592394480982998,0.593712438364113,0.595383009411238,0.596707061400269,0.59724137564685,0.597978634732137,0.602827973685624,0.604158048378536,0.602482927597094,0.601283015052212,0.600208553887749,0.599365142959612,0.598294808692437,0.595888084726623
0.41422297107098,0.411100207958872,0.411471265215521,0.410137504879599,0.414022829450718,0.415147916390022,0.417278791589243,0.417721851618099,0.418856431158656,0.63498263541464,0.661383698351457,0.969369165615229,0.937712862833632,0.938859430540162,0.939215870619759,0.937529392375084,0.93350541446222,0.93063335807717,0.829607139357309,0.818711205067653,0.681067555904442,0.477655637028376,0.425226713682514,0.42586091302921,0.477401873492577,0.511879033469749,0.679602589984098,0.75586529096415,0.756094421696278,0.756648022053787,0.755355070816967,0.752254781563765,0.753674804018894,0.754092261676075,0.754137427744341,0.600112772667256,0.580305456224193,0.583894931289173,0.600192761805638,0.622145479916845,0.652040622529459,0.654546596595933,0.573288434648872,0.599721197433552,0.472776619197976,0.46307109154735,0.463487860730395,0.464117987166018,0.466838465188123,0.469426269771165,0.514340691568353,0.540967991498816,0.592972359800107,0.573705057914931,0.561263816270944,0.547732418627029,0.536047259484418,0.524578981976554,0.512152067355321,0.499170344195174,0.476939407383344,0.476908361213352,0.520736982124957,0.545598136143964,0.570491022976551,0.595945964809172,0.482371557340636,0.482369489036968,0.483003970314493,0.483729898867028,0.523496330021931,0.550388141704182,0.575435970534587,0.608243239635101,0.582889293264954,0.558530428794322,0.525611975554084,0.517159211948895,0.484745351509894,0.485098586266645,0.486007311260269,0.486432014476477,0.495541233560592,0.496527147726441,0.503316490640947,0.504290153170469,0.50519115257641,0.506027570500665,0.507041828825919,0.506847337404091,0.507789124908154,0.507870816684299,0.508583316880596,0.50804642841141,0.507036370158725,0.505639706759205,0.505723340367679,0.505704949134147,0.506238168723626,0.506497342599184,0.521045194663048,0.52391137912118,0.52557868504061,0.533709451921036,0.534650983736245,0.535501630376291,0.53610050655724,0.536268929737921,0.536651015935207,0.537124736624206,0.511389640125557,0.512526057801357,0.511311178465476,0.50954634395135,0.506783637500355,0.503733728378926,0.501955387484146,0.501271744116215,0.501297664132923,0.50152254521046,0.50243798882334,0.50269985055099,0.503393325100602,0.503686630958443,0.5040224214592,0.504741132465472,0.503799450732563,0.504809093682155,0.506136011460087,0.513279695308463,0.519697221205884,0.526871900345431,0.533210256395419,0.538317387961802,0.541723548497886,0.544528861989548,0.547135879533948,0.549894554195571,0.553099560194724,0.579426459950793,0.584350465342114,0.584860881207408,0.58349097626889,0.581071392863201,0.575686660577719,0.574972054777332,0.57510096072781,0.574934480242038,0.574641645789121,0.574956981401959,0.576288798491445,0.577681098142487,0.604135962875545,0.597125337368651,0.59211169122251,0.592936572895329,0.594436611811955,0.595458329412243,0.597050784485145,0.597156973457523,0.600914540930157,0.601329017772195,0.60185591679086,0.600772867642807,0.600951867258296,0.600763393916032,0.601850781618146,0.604326329867492
0.409750769807741,0.415087512866644,0.407553036250833,0.410430375803231,0.414316742898769,0.41638893068646,0.416437908262257,0.416429686765472,0.418821331403298,0.96312733719753,1.04124545343259,1.05482262900475,0.935477565365598,0.538814860613343,0.836852823292579,0.837548151665955,0.864862408643071,1.11775561494761,0.413575014013277,0.820897930840859,0.654607283666007,0.423764699200212,0.423827596865157,0.422445994883217,0.422726361561683,0.483769460446455,0.678597522104305,0.753808077107867,0.753905349883734,0.819054040631485,0.819089952458475,0.746350494662068,0.574353638021968,0.713870802423808,0.757728099541874,0.441686680746189,0.578000360712881,0.587798070285422,0.811770131411981,0.538838079467,0.650652072000087,0.657761343525525,0.487229069062032,0.667238339917067,0.492557373630533,0.463380578137804,0.463574673548582,0.463384734848749,0.463631815416004,0.463949161818778,0.462832645472599,0.466569766046219,0.777281777462162,0.751141558829183,0.582744932628144,0.47150191516466,0.472079461621074,0.469805845224879,0.756443472989086,0.755192131569289,0.475015881226346,0.47514385326047,0.798081223781564,0.823815391250763,0.830268809659052,0.91097964932102,0.479749792544589,0.480053541537172,0.479182003235517,0.477450102168288,0.475134235238905,0.475437515171189,0.475581607952128,1.00266440113664,0.469729770267074,0.47139875560245,0.538731559549455,0.568625514709661,0.479994263901533,0.483663437088382,0.486097266643713,0.486813404946262,0.494481546915491,0.496578608042606,0.501498274505382,0.504485330111565,0.504805580198709,0.507373034623538,0.506867015323703,0.508776261084001,0.507069437123083,0.509897625317161,0.508025210264064,0.509065028782614,0.504690184122336,0.50531494528203,0.50514249259768,0.505102487470698,0.50598571958306,0.5063704601235,1.1032020374749,0.522651976608407,0.523417132143573,0.564878235121359,0.535395589795073,0.536151975220475,0.53739019226161,0.536739805391111,0.536861018951344,0.537109069908707,0.511541224311457,0.513746881918982,0.515709599718854,0.538650061046169,0.534871886120071,0.512878679138817,0.521054461640709,0.528506040043603,0.501283296391262,0.501635432590425,0.502644227375347,0.502252046284675,0.541935581317167,0.541924411908566,0.541613514887962,0.505971083410679,0.504806525171854,0.506055505433985,0.507944797811197,0.506594224580631,0.505583109205889,0.507029673079011,0.514850835274614,0.515112391510275,0.519998694033654,0.521465496697486,0.532593161101359,0.534784411199942,0.539617009838863,0.571956403446296,0.583734359744363,0.583978437987108,0.583667899429186,0.582741871429157,0.575275295897612,0.57471319830157,0.575638461285694,0.575412822272562,0.573727043853154,0.574409732670824,0.575037399002731,0.576276365648961,1.10005356091891,1.03209662010265,0.590464429654108,0.591543528217712,0.592724546454275,0.593397148458643,0.777244624776982,0.593888962622213,0.599848423629414,0.600852657643349,0.600178732947566,0.600937245835451,0.60021804334132,0.601378975153219,0.602478259695256,0.603528135620693
0.415157170084722,0.411752571710547,0.413675304585385,0.412606965553595,0.415402454063045,0.415463977398741,0.416734485126211,0.416718537070269,0.424340368252185,0.472912096440802,0.499797666808717,0.828068007830631,0.831046860162905,0.83343258896481,0.834710504491993,0.521141290841074,0.49549566858487,0.469713782496299,0.416264827581744,0.418176805821645,0.419613263459402,0.421002358037247,0.421818873131428,0.422581201296456,0.422856949632826,0.46394640079774,0.676970804227559,0.752578043099954,0.752873852307618,0.753003607840695,0.752784405804554,0.750653450271508,0.731135133326518,0.723137867071518,0.720733038755948,0.574223531210322,0.577317195502344,0.583377514921528,0.650863142212295,0.626831231772027,0.626905088331029,0.566569773663357,0.540122362395957,0.513169229993945,0.473709960394439,0.463878572590196,0.46320330379664,0.463333517152614,0.463973799084051,0.464015123334104,0.462403645730758,0.468114185493916,0.750794070426587,0.750060151599362,0.518736945983934,0.473460086296188,0.473488225356313,0.472612066651443,0.517663957595007,0.555352855108413,0.528880519850877,0.473315470437813,0.472645137480844,0.47273108609053,0.473152469606526,0.474369933471856,0.476401471367675,0.478442801568158,0.478859420412207,0.478298085317964,0.476547803612845,0.474774868950656,0.472737036384542,0.471422450198108,0.470314459127248,0.470919128179825,0.549292823003053,0.557340809778204,0.521804428743458,0.484480313644378,0.484915592246187,0.485068142726882,0.496031740431359,0.496357584611675,0.501471000287802,0.502433725879341,0.504017250115212,0.505367280798633,0.50754403119041,0.507700960524986,0.50947934420181,0.508595439605327,0.508567789529656,0.506973154516197,0.505747439364965,0.50472950257731,0.504683885118894,0.504293917287053,0.547445567782675,0.5741300786593,0.59893368819522,0.525179497892282,0.52543479131911,0.546872322538146,0.540647622811901,0.538878643864057,0.539193208855222,0.538666397519759,0.537990660974237,0.538772379790389,0.539906234264765,0.539176451448485,0.536828654315732,0.536778612802106,0.536103964486299,0.536470124788024,0.53589032522491,0.532099940858168,0.5304737108658,0.527969843939528,0.52561560659818,0.524611290085253,0.523427620059012,0.521944649555121,0.520727176323555,0.515618522429913,0.511508595074834,0.505226251034923,0.506459804608426,0.507769939632707,0.511363836323046,0.51405341164695,0.515808378413395,0.517107328412239,0.518557290777054,0.51905693038656,0.531756682422644,0.531545239022927,0.532616286626294,0.555385740163907,0.572461849858234,0.578857589369021,0.581144926003356,0.58093512879919,0.578393906667696,0.576073615196551,0.576664122972153,0.576541176633942,0.576459425605424,0.575770249868349,0.576288173212622,0.576351358116987,0.581491008477791,0.583433856383287,0.585673922561181,0.58900143234485,0.590824437313476,0.644267063577227,0.671665028164165,0.644311593031526,0.599768772598694,0.598824284565417,0.599052479363738,0.599266709943269,0.600665866703416,0.601470174283942,0.603257116436388,0.60496727976354
0.412033222329765,0.417089654662797,0.410823061814138,0.41721838636204,0.414034938288435,0.416783604351443,0.416358998716329,0.416993395939302,0.442168805469044,0.419807066791936,0.41964121218623,0.824775564520605,0.800465839409164,0.859396644842399,1.14447587173701,0.411400007536691,0.459375967061212,0.414810737848038,0.415348277993664,0.416298191121879,0.41706844597733,0.417973653226478,0.419304967579405,0.422650310843627,0.422975744189789,0.422765996093311,0.674880763629824,0.764306152310284,0.423867216357607,0.577226274388344,0.41976636198926,0.817266498449855,0.770666259228044,0.725202480162366,0.718096822142787,0.56666732019965,0.574223531210328,0.436337985617579,0.711134975888354,0.627535011118867,0.627746692246386,0.489869516202494,0.596154284721004,0.450159783043015,0.450644495909443,0.450696142336638,0.460861283066406,0.456661169916484,0.453903392089021,0.452932471266483,0.460442519400961,0.468252333378438,0.7533434951608,1.0934315438557,0.471242495321375,0.459568868825174,0.460697415397926,0.460410639164134,0.460775486587089,0.747264754682097,0.737687743252736,0.473936385826367,0.474044964099458,0.474285715404237,0.474029826347238,0.4750245957593,0.474649029556818,0.622042376895091,0.466288099504056,0.465801905938849,0.465644726300863,0.466714603318696,0.465891598222651,0.466776152222358,0.469035643543686,0.471129804495186,0.559163309281302,0.997779154327039,0.572908496360705,0.484427042751985,0.484752066392364,0.484375333759439,0.494966925996401,0.4957350144981,0.499808614428554,0.501406016284548,0.502653163372608,0.505212385837342,0.506024652448165,0.510248905879245,0.509430970960072,0.511254003301793,0.506132098219709,0.507521514899676,0.503842649543612,0.504006497588189,0.503886514774658,0.503100773987223,0.711624428361456,0.920401860135354,0.755787617804127,0.507374732656808,0.514069843522479,1.16257729004863,0.876717908932962,0.517891300581977,0.51547349254098,0.519072765665586,0.536315730990528,0.816357992552847,0.827209286265827,0.824264370743305,0.53330138389186,0.535472193554569,0.535831661789002,0.536912616916717,0.537192208567284,0.536452646144459,0.533723270413965,0.533266132530836,0.525242591859257,0.525195178155557,0.5251628385373,0.521686971953469,0.520817276961296,0.521135233925747,0.515672057305353,0.50445539809748,0.505794763676152,0.506516349961925,0.514852757416161,0.516526590288427,0.516618832230241,0.520270990618845,0.517771755803003,0.51784116003601,0.528919373115125,0.528252812355233,0.527459991139972,0.540221899080752,0.565592305271727,0.564757818705253,0.59158031588942,0.592671813241547,0.657723253605164,0.575328615335206,0.577428737395398,0.577762907710834,0.577941955223668,0.577017268788494,0.575902023768472,0.57706984336485,0.578537261771584,0.579316789654541,0.584279665478433,0.585512056366745,0.588207822171353,0.687182406524358,1.06767488180828,1.06210697614018,0.593410350168679,0.594675941365655,0.595889473499138,0.598766616245335,0.599233195123199,0.601201127321595,0.602956708922927,0.773793374369287
0.41554497046121,0.413209816268377,0.415352611073332,0.414046814630122,0.416213724715085,0.415740748539941,0.416743387899384,0.416877133446313,0.417187576423259,0.417891234286024,0.470214313886044,0.772479431654542,0.772492053469458,0.772492070340006,0.772479472383608,0.507973650979085,0.482347560226708,0.414758203965114,0.415018824609201,0.415540730923551,0.417688567270582,0.419198305809305,0.420276011293723,0.421474339423356,0.472217130902601,0.499049943549979,0.67198879891574,0.667970222387917,0.424307585270749,0.424175224670891,0.422992525202211,0.475009682315461,0.500762319122747,0.526804903938604,0.637018781173803,0.628327224018082,0.620018374616306,0.620328019815916,0.63080219091133,0.629590907044419,0.629653448879456,0.533498036546471,0.552525771024699,0.520815742228584,0.515990512998458,0.51214553822824,0.508598126646955,0.504042957215117,0.498276461137997,0.487709014558535,0.489147491803455,0.489496973744225,0.488151317704874,0.48839305719251,0.478586085998436,0.460997378001073,0.461563124708685,0.461483162579513,0.461401903002147,0.546193936592282,0.519373253145751,0.472736161245526,0.472741662668528,0.47275952354194,0.471563122414923,0.470804540485024,0.4706336330956,0.469314088485406,0.46677941643409,0.466338151248727,0.466133883794797,0.466199927575031,0.466298391291299,0.466331907423586,0.511811645235225,0.538574872844534,0.583183658140361,0.608418677455033,0.532890731130928,0.484267149314551,0.484293137567384,0.48425011462001,0.496693313712538,0.496858078207877,0.498797217179482,0.500142010760108,0.50157598631808,0.504350475142692,0.50602579783498,0.506363944307882,0.506868099193245,0.507376459675953,0.507820434342844,0.507442900727536,0.506753104594489,0.505387201919491,0.504106298527112,0.503272164989641,0.726720824317265,0.744085415004137,0.558640386248652,0.509500251147342,0.512257678882456,0.513857367623665,0.514357171375295,0.513905331220114,0.511868039559845,0.520693023377824,0.533362061613967,0.530591355263412,0.528055949356774,0.526600808913448,0.526178764247265,0.526867687893028,0.527905284152277,0.528597687847034,0.528344317463286,0.527062763975806,0.52482788037877,0.522931855525275,0.523110031897988,0.524939755362598,0.524003276870256,0.521161163744005,0.520388436479917,0.520569684802227,0.519574726483005,0.519021973288336,0.518949993924472,0.51866472566699,0.51741557698208,0.516991153287101,0.517236734820775,0.519947491371264,0.520359584267596,0.521564278548187,0.525300989922599,0.52567605692507,0.525837428583923,0.531685752984162,0.547332102219626,0.555874321769163,0.581163480815305,0.594869640014284,0.595812966283682,0.580266927454113,0.579619688693776,0.579221669265552,0.578955996793688,0.577084530887307,0.577144324980927,0.576634133129624,0.578410946374544,0.579315105583526,0.582589387067549,0.584043327055614,0.586383510112547,0.633838846207936,0.658252344330788,0.683212414981325,0.594437760476846,0.59511111855412,0.596804684679003,0.597869456283836,0.600318053477852,0.601959620676139,0.603812287062255,0.611272950328055
0.412158362374815,0.416287918714724,0.412378498551509,0.416377616514828,0.414007251280324,0.416884629926908,0.416487702051852,0.416690539570594,0.416571419297035,0.416611556330018,0.857658945096496,0.914122553352139,0.406337059564001,0.405641113123698,0.978708735890795,0.978287700677801,0.506901544478947,0.414032292404381,0.413819766566748,0.412340116627096,0.567494857748288,0.419872748978163,0.420746017735695,0.421003304180743,0.765882246551002,0.702622247351363,0.674781017520221,0.66304141973295,0.423282016295115,0.42352390506626,0.422423262074701,0.419572534607764,0.420185920842946,0.425448474137201,0.66920049156074,0.669693344486272,0.620262962878406,0.620970892565075,0.632548257381488,0.630737579209085,0.631917360843646,0.478608371277878,0.631856521959169,0.526778991114481,0.532662505571521,0.52693450019833,0.527079248586262,0.526541199007516,0.525683053013085,0.487245121030467,0.520761708832342,0.520769140844971,0.485873927658619,0.48877255082641,0.489335662736405,0.460649057365064,0.461722132341861,0.461714285604136,0.461272528203713,0.789471673113178,0.470047300721372,0.46831717384593,0.490427526401691,0.489714900982312,0.461746389586184,0.462487118477218,0.463097157588937,0.463393907038432,0.464948154793385,0.466515119148042,0.466527911189886,0.466091047520687,0.466517346545897,0.466322096392903,0.64356532518595,0.714032517119011,0.710710614248454,0.726153861514408,0.484135449771185,0.484049534989635,0.484583277050024,0.485065928708655,0.495829309101698,0.496980602677372,0.497014088832852,0.499232412460407,0.498131190908482,0.494883286774586,0.503612617324362,0.504762433878877,0.504897766077218,0.506314983159157,0.506691308330027,0.490772541033391,0.491518830280489,0.492612536828632,0.496642306868295,0.496907397121896,0.780016335016774,0.779393455176435,0.505211940352084,0.507276339599371,0.509362047385647,0.501700376419154,0.502489865552608,0.504306887278547,0.507182795598526,0.692263310839421,0.691010111911331,0.51718854416988,0.516308330110861,0.515787826750244,0.516198566916999,0.517453404665884,0.516747427530009,0.517200449797953,0.517376695727121,0.518320711635236,0.520412792938714,0.521577835142145,0.521203543907437,0.526676633055963,0.526041078412478,0.518057441944463,0.544964197022988,0.546055210323873,0.546974074110752,0.545751981059735,0.519633990615296,0.52016141692978,0.529108909070429,0.52971573265558,0.5155265675223,0.523107675633832,0.521712826474444,0.52262138290205,0.523695644052146,0.523630752968746,0.524812765521725,0.525687532006858,0.531962174364096,0.532604372183447,0.57020711672769,0.593611787653539,0.593233025977635,0.721915025264596,0.580773868656962,0.580272302417905,0.579649891415439,0.577044649548873,0.575510499519051,0.576809485727076,0.575878106937025,0.578927127501036,0.579781013521546,0.581793602211362,0.583369830575348,0.582245977119457,0.583321763207408,0.923088745880635,0.594380805070512,0.595726828834181,0.595601168803712,0.59761565936422,0.599815843951385,0.602944358070334,0.605828612217096,0.608942102918192
0.415237966284604,0.414189411128201,0.415855244839977,0.414956047972894,0.416131471439788,0.415842786684431,0.452413762941247,0.477104811850217,0.501485747943915,0.525725448187083,0.584946226308117,0.611365633467393,0.552479692850182,0.552527820079558,0.558974163077341,0.558955812752805,0.532354854896322,0.482759320705526,0.456352493758093,0.482759319331407,0.566680825039613,0.566500596621299,0.589671304673561,0.615409590797666,0.710128780056031,0.702051469536269,0.68539059556781,0.675371114322208,0.42337838908297,0.423238962962262,0.422259658414412,0.420485319588024,0.419964450143868,0.425741269378911,0.47265745384451,0.5962965870047,0.60314743280729,0.615423384618192,0.615506223612943,0.564992668421394,0.538758412245359,0.50395695807273,0.523325696346124,0.525070964315695,0.526124699837466,0.526855364085684,0.527398804676675,0.527040991478855,0.526528438087212,0.511203848442258,0.508605709143656,0.503052559705471,0.484623026405687,0.486035830259705,0.487573840346951,0.483386455844388,0.479218241249455,0.473280401132816,0.470951816780421,0.470465353903229,0.468674832908892,0.466949444227771,0.464969757308379,0.46362369630314,0.462695618973094,0.463070685539729,0.463633750358666,0.46417795112631,0.46508218430496,0.466338862391064,0.466698659855302,0.467153560297419,0.467081590463708,0.46719047214312,0.665540847627789,0.713047007831596,0.710930329324573,0.710559598882448,0.485634171676865,0.485680915954142,0.485922525877061,0.486518535732144,0.49056327851572,0.494204665268674,0.496123926814701,0.497457172774969,0.496514258676341,0.494600815345178,0.492924586550612,0.491327771591116,0.490425879547846,0.490347858923636,0.490423382727826,0.491290528751203,0.492335899377529,0.493783139398324,0.495969968135571,0.497095128028568,0.498509168980539,0.499911505943316,0.501311245167235,0.50164345370743,0.501772637732609,0.50241797141552,0.503250069768303,0.504030545597905,0.505466420571855,0.544884840357996,0.531778803603621,0.517021001583777,0.516647474298583,0.51647511855784,0.516775454321045,0.517364895151392,0.517408595246828,0.517610580996994,0.517812994592434,0.518892543409169,0.521051756699969,0.524952319614566,0.528491888372086,0.529761113882078,0.532420565397221,0.535039349186433,0.546248268211662,0.547352099897074,0.547990424672693,0.547327215324872,0.534008666944302,0.52519954038298,0.527458159059666,0.527848842047556,0.525160510545202,0.521929078836726,0.521527859070538,0.522551532311615,0.52335394765201,0.523732422484881,0.524477613559877,0.525962332385822,0.52893656691794,0.529964199078095,0.542861922898838,0.544826387570621,0.548689531480889,0.554652860849188,0.561883633554747,0.568326897619859,0.575081541219644,0.575481318431257,0.575196563454848,0.574639477414013,0.576528702929607,0.577675174617114,0.580399699963733,0.581613163668443,0.583022139002691,0.582711554981459,0.58294435032054,0.591909763027092,0.592971270333646,0.593790222939983,0.596169163058454,0.597103954431586,0.598973559222294,0.606056241794929,0.607575322512627,0.6091921860384
0.413799620108524,0.416645259780188,0.414710993553091,0.416870804158821,0.415212750445309,0.415747952456635,0.473338699970659,0.911098529851748,0.655432017278539,0.549725320665671,0.551073454334267,0.8881313685676,0.551834977799007,0.552920534927992,0.557521778941141,0.558377245253127,0.59903187597907,0.80686445225039,0.403605903220655,0.735534256616979,0.566337274935047,0.566732643281383,1.04089192179884,0.795820637798855,0.718876072568434,0.702584284904085,0.698956764262098,0.710986991685791,0.422894853176216,0.423186909854242,0.422087508697455,0.420029458409367,0.419146189996638,0.425579304500338,0.425047380343926,0.583713768884135,0.59646787055757,0.615535007754849,0.615768723445673,0.435519109845384,0.435781731951554,0.435710006026747,0.520955939575396,0.520424703258886,0.434770248618604,0.586613806451179,0.540174073108483,0.493317154851126,0.552362586131917,0.553595718694724,0.44822970459851,0.448549736184837,0.449004523361317,0.515414312192358,0.490907074080445,0.491325802547719,0.501021865219913,0.51650982994074,1.20904285998861,0.465520669005808,0.465917712842187,0.465138485736545,0.463491876990363,0.462143504775354,0.461765939972076,0.462914548486996,0.463758711724673,0.46415706207569,0.465037540921391,0.465861715473763,0.467580294231015,0.467389472242707,0.467995980557037,0.467679295845389,0.717505905541617,0.71651072188589,0.712941732857841,0.713713221550444,0.48671651561804,0.486602181074733,0.486482985348614,0.48700141662387,0.487830610521078,0.488382295014263,0.495033277743847,0.671023013063288,0.495348738806316,0.495263276763464,0.493475038367514,0.492083189613815,0.490944152181586,0.491133882153441,0.484314490081558,0.485159960613642,0.492655745952307,0.493646597584479,0.495467200544677,0.496688979871515,0.497367912406119,0.498445133762367,0.500051339399734,0.500737249738299,0.501193616602456,0.502620937562218,0.503833000079927,0.503984129733107,0.50561043827872,0.570476404447213,0.510200258382664,0.516369525687822,0.516993064200319,0.516749259527892,0.516824701565317,0.517384445488017,0.518015832173661,0.518302492977835,0.517981338555188,0.519012420946611,0.520586252383702,0.527544402419423,0.529538153099107,0.530978272584422,0.53710372851123,0.537753614319101,0.545681339330522,0.547936368775364,0.548523720409427,0.547086887145371,0.546554480269178,0.522616093508624,0.574178096023989,0.573505791640093,0.531624900297705,0.519117011891756,0.519465408543984,0.57053573687754,0.539664696891229,0.523632832861553,0.523469713918914,0.525459071901715,0.52729446707651,0.527967700578475,0.529125880412177,0.53457723422202,0.544463235779711,0.544297479657275,0.544253195973068,0.544677153463043,0.574724862457195,0.575589004737913,0.572442975261866,0.573558999109738,0.57440579406032,0.577120680237076,0.580232112358917,0.581890205629724,0.582975237623547,0.582435873219824,0.583958505615099,0.589113980935792,0.590091530396944,0.591941021657058,0.59571623073762,0.597340767947495,0.599210733909647,1.17206915742393,0.608656449996766,0.607475146498624
0.414964139255327,0.414888557555229,0.41577412670611,0.415731267741127,0.416722210255142,0.416846619589378,0.493986506569187,0.544079992803073,0.546548168970975,0.549924472784973,0.550983399952913,0.552193371355977,0.552751768003267,0.553804236433123,0.556104358153352,0.599073145538005,0.626369729820821,0.756144453402385,0.725386909004222,0.736472201055673,0.735811618797446,0.735143963882668,0.745659105758356,0.769108182905785,0.749684458492141,0.72892586955919,0.69851654387275,0.696542517917781,0.422080147506711,0.421275100244787,0.420795719844515,0.419965864766386,0.419531943633112,0.469777723556064,0.496298882185925,0.585541944201708,0.587327158752644,0.50960079848667,0.483184178458089,0.434767298832578,0.434853340901621,0.43523746159825,0.505860510846555,0.509898670092558,0.536775313448169,0.57405371265128,0.571569583982476,0.567731144717989,0.561536354419507,0.498974217759344,0.44807217609113,0.448300956009991,0.448493661702275,0.466015525400955,0.482010706398036,0.496862611462008,0.509127209013844,0.522496321516494,0.557292509260475,0.523821116358683,0.466182017505282,0.465796207131402,0.465004543525946,0.461676998767383,0.461419958750223,0.462082884897829,0.463350141054145,0.464684872523288,0.465221707480284,0.466514553354216,0.468254675760449,0.469033382081803,0.468607752586823,0.467688657552508,0.467242533683702,0.4681034892602,0.469142111427627,0.47205012625074,0.480630890270224,0.488666901802267,0.488211120329511,0.488686277477536,0.489736970568545,0.491172514847221,0.493596992360866,0.493973724643292,0.494065446413343,0.492769634426579,0.491991142777424,0.48999274087561,0.489004638551487,0.486818924600011,0.486038679906224,0.486737698916307,0.48992353009986,0.493345503434011,0.494962144970828,0.495963674592459,0.497200840186909,0.498555886191057,0.4993553387305,0.500430109181498,0.501244236067717,0.503381605054349,0.504776410455385,0.50624130094995,0.506728115492638,0.508212065529809,0.508817458883541,0.510167161685693,0.512949962200692,0.515287876922563,0.515636465720443,0.515928054070738,0.516168817213036,0.516714806487604,0.517800755182193,0.520537575969978,0.52439525784776,0.528156291251911,0.530243474196328,0.531251635933638,0.53818607787879,0.538373665243562,0.543266099025083,0.550846006351013,0.551924624201092,0.552257875998642,0.55344706361592,0.559861202834399,0.570981461768938,0.566523007348206,0.557692245736263,0.556974507545308,0.557431685755697,0.558244904309094,0.552316640988499,0.544989954562773,0.539090777100633,0.532643994382025,0.535546964373228,0.538123344773552,0.539946023887975,0.541275672291768,0.542283935643468,0.543770741521518,0.543945672151176,0.544338569960168,0.56808887087266,0.570237818394841,0.572058187560706,0.5723087955785,0.573729952518343,0.574301647622874,0.58202149088763,0.582771792229004,0.584521406736296,0.584832748892149,0.586211469158461,0.588895302182374,0.590809245348093,0.591710291673758,0.593976447337094,0.594559606052842,0.600527788423476,0.608425592055638,0.608710061699315,0.609363409571719
0.414194135510061,0.414827053099824,0.414741347020007,0.414932529688038,0.546460538471631,0.401301662614631,0.514465923639726,0.542104513998825,0.45478397171748,0.552855611729164,0.491174409460384,0.552935424532135,0.452237325758931,0.626190192951802,0.394691720942806,0.844163219600241,0.801926796245013,0.988528763029772,0.717969229774912,0.989132453224875,0.735355508674215,0.734949475078567,0.572067974067893,0.92900437899017,0.929373758178302,0.929918273070141,0.696717609089176,0.690288936003434,0.41772224572028,0.418927630383009,0.419539422698135,0.419478579077733,0.419260264029827,0.666659383098116,0.666416786910614,0.666580723152448,0.589853769519667,0.427732184825078,0.429122826097426,0.432638347552268,0.433675929880334,0.43511897067179,0.491898024437861,0.50319217089952,0.592082277037375,0.578557790841793,0.579095617325471,0.580957014826823,0.673045839593956,0.446225446246134,0.447593840630147,0.447982997565025,0.445507785701278,0.447169219186557,0.446105427972107,0.503231289412916,0.518854074948286,0.536591231532851,0.983337026076924,1.00637941906624,0.465964652859801,0.56524525563793,0.559724929182837,0.46010843371989,0.459431919252387,0.459486049982865,0.461585927157717,0.55809393890493,0.463925914906394,0.464810645077803,0.454862686998768,0.456007272391462,0.45640732412629,0.462806620315666,0.464143089413214,0.464526128410606,0.465148200403427,0.464050536952099,0.463277024348862,0.489788149097274,0.487966550221865,0.493303836174312,0.520194522162439,0.551764482367649,0.493225966417167,0.493311866589177,0.492284811375852,0.491333382839398,0.489089735873622,0.489457818753307,0.484903445384132,0.485960128081673,0.484721565113374,0.487323625819531,0.48713111286178,0.49355120994536,0.494664293593422,0.494585072645056,0.496308891527238,0.868571806246271,0.497868980229062,0.499431124358407,0.499821642893342,0.541853745289637,0.573209413445344,0.508493782298967,0.50654247014882,0.5054681987782,0.507209907184574,0.508324177131096,0.5092185725142,0.508898255396679,0.556106584862313,0.555207583850087,0.548746327697677,0.60098357896551,0.611970525324675,0.632232668074136,0.940586473997151,0.529872825367422,0.531554848198436,0.531760425767854,0.538791927924076,0.539558325615275,0.540387062164272,0.87570463998868,0.852426978222633,1.01185906718513,0.584503993523385,0.563385427299832,0.576573911834067,0.561166756585335,0.559962113997308,0.556603955724863,0.557817837809471,0.55867730950124,0.5606990670777,0.561122559878718,0.573826369956449,0.53023628995683,0.546569866923965,0.547074803209032,0.547700509443186,0.548783841286903,0.540195504075133,0.544137858211733,0.544205304555049,0.544721112982376,0.565927914735527,0.570828179339308,0.571340494396224,0.572145424328174,0.571878308139681,0.573311300216868,0.858691719637805,0.58848353276255,0.586465099021465,0.586331068338492,0.586680088141434,0.590104701747157,0.590054825056223,0.592315376723439,0.59228061081233,0.593633737934005,0.601559195499246,0.605600157103776,0.608418948455279,0.60753274909116
0.47744231480455,0.492404467313499,0.508123644961693,0.52487682237291,0.547155763292752,0.5479422155832,0.548797898562831,0.549607063263055,0.550382552555356,0.55141802819632,0.480685720223177,0.475217045827522,0.472686538580488,0.639156651671788,0.665492212498362,0.761145371400422,0.789305851295933,0.800790060628774,0.717761154350284,0.718170002913315,0.719131963064459,0.720541008460438,0.646453137104496,0.62469692247423,0.610159747527148,0.604652533938983,0.601966834476229,0.596262227297362,0.417918207108245,0.418393912344817,0.418634886022828,0.468816803084515,0.495304868301919,0.661243958672255,0.661330169378366,0.623536996966076,0.592155004719155,0.54643971232376,0.545904680675906,0.545063267375013,0.543848320166108,0.543211272299166,0.542421639343472,0.542094515335655,0.554335773707216,0.577858055381548,0.579043191017804,0.57889156635231,0.578421052257941,0.557615500841931,0.55659516499212,0.554103397919203,0.550158185732458,0.55028686330381,0.551071826073746,0.549907969682005,0.54550293593302,0.541149929568693,0.542092724024463,0.54656958911005,0.551719051197735,0.562688651875477,0.560625497211886,0.459892081912665,0.459895635555364,0.460423365372825,0.459934336946651,0.458365819696758,0.455504702538544,0.45381890484544,0.454208504706911,0.455685218015952,0.457517168573035,0.460917606316899,0.463804258664422,0.465046205209888,0.465750734333803,0.465789550112321,0.465661401390513,0.473957272839048,0.491965797980047,0.495759405483494,0.503183624911794,0.499820814503594,0.493236586026966,0.492243762127321,0.490849496786448,0.489767075805495,0.490452141511682,0.488993769079441,0.487231827020969,0.484609692614878,0.485188859296513,0.485075172709157,0.486956777615671,0.490141204289252,0.49425302506947,0.494696972752801,0.495353755328687,0.495852177183391,0.496740108358194,0.497676031836842,0.498597606414754,0.49953569102425,0.50095141147256,0.50270659353282,0.504633803478877,0.505023357357729,0.505857589744482,0.506663102186792,0.507395985217424,0.54382839916905,0.561411905814023,0.565635093751868,0.569041267123186,0.586973900960886,0.634798717331026,0.660274903996175,0.686285522230668,0.58374401257851,0.532019677633504,0.531923936907258,0.539852920970498,0.539989604104865,0.540143806941468,0.805623680676952,0.84329855233268,0.854006501005795,0.62065350156137,0.561889883616155,0.561180900945186,0.560955109674622,0.560238496972423,0.558816462757476,0.558766766099732,0.559841590408061,0.562024840249908,0.564239611705389,0.56676552842618,0.561262061404538,0.554716567810457,0.549099792578124,0.549734370262668,0.550487793634174,0.550632251162493,0.54958071886373,0.555186775961567,0.560988695966577,0.567792315042334,0.569926017102155,0.5712078759714,0.571780323084199,0.572542270828184,0.573124137735667,0.631043501475145,0.587023162138364,0.586556419479293,0.586389063382081,0.587659224549104,0.5890841397886,0.590777161024012,0.591452532757832,0.593360679911258,0.593599035668253,0.605236986001795,0.607101714913517,0.607991644383359,0.608952723238354
0.658290722540887,0.557016027136704,0.557574765234898,0.556209125534388,0.714079126532162,0.575039987268601,0.615970613122972,0.714105132171022,0.713759634837836,0.598883892326192,0.379744245654412,0.379699240485914,0.379533232712513,0.940122096923995,0.723050425415884,0.723163734828874,0.775683716479903,0.830355432418228,0.393949342780644,0.717580665804599,0.715789518427545,0.722134324200032,0.753762935264247,0.405081064620512,0.406681899093606,0.406668817360465,0.52480846142571,0.585878780820292,0.417655655092716,0.417718057102984,0.417681337951316,0.6187807437986,0.636420205024144,0.661621785179096,0.661897192647806,0.593325767113677,0.593322177977759,0.546552457591843,0.591055123638459,0.54557470747285,0.629636800400417,0.543873999585576,0.698755611872162,0.542005356752955,0.514597593620826,0.590260653977981,0.581811054909855,0.578466668955341,0.578796614996505,0.600492069453949,0.565510270685095,0.559381464779636,0.559109027629454,0.575042764970816,0.60650216119038,0.601410406429338,0.544460368620231,0.481544696747802,0.466148799437299,0.483277024720352,0.57754873561272,0.587119287984128,0.57724645783919,0.459171593895163,0.458490044171545,0.532386024334258,0.457034191206602,0.452869826876275,0.452184529774999,0.452793232712707,0.453653511686758,0.455377870394145,0.457747003230265,0.459357746367014,0.463803814272333,0.465267628657581,0.466335267055928,0.467117080764171,0.467545862267022,0.468198795391802,0.780151970134948,0.780119915245211,0.778731347792749,0.483021901131677,0.484981975835458,0.486518716711402,0.487443779050588,0.4867973016586,0.478417146435487,0.479031956823663,0.70503677616367,0.482872294568641,0.483262558521326,0.483671568434018,0.482277130298809,0.483658703608174,0.495631407618753,0.494061253440027,0.49423515848774,0.495043261988096,0.495481770548602,0.495263287339294,0.496973329323692,0.498060117201449,0.499263230233837,0.502403863259418,0.503610300513544,0.503529033776319,0.503948259236001,0.504500472052621,0.506137467038669,0.767256802687544,0.592944510006592,0.568024661593105,0.576521273033371,0.576484309698205,0.659550292761599,0.865571930423073,1.01691148974106,0.728377296956726,0.532410807043499,0.531754689467886,0.843367276223659,0.539796370539668,0.539816712011602,0.767875352404694,0.832795416194528,0.901050339298255,0.741400287393089,0.552735837836535,0.56124372779093,0.561556725373169,0.562056030777518,0.559048233442327,0.55933067272462,0.559956640632427,0.563257183380701,0.569653127996987,0.568868677697468,0.568737434898919,0.577293490649109,0.580271181690055,0.535237380216291,0.535304269153489,0.566190752890495,0.565314556183486,0.565757608961066,0.565241622198864,0.567125141937358,0.569108886582459,0.570203929259403,0.572184428897097,0.572243135929352,0.573912335055288,0.850783378081959,0.583474833057766,0.585218755653488,0.585422665002753,0.586741170619717,0.589353400164112,0.590316891410939,0.591477055888693,0.595026675371681,0.594927699577073,0.709125152511151,0.606884864790107,0.607755147564912,0.606537164141594
0.567504874376736,0.570539510905967,0.576149700496248,0.626159410783531,0.652260886619025,0.622329345871397,0.645439948478711,0.669853695991679,0.520320320418242,0.493870514396332,0.428794830290658,0.453340128474514,0.47839545667536,0.504111347886122,0.741320387209608,0.749460075729061,0.75219010680359,0.753424219497288,0.391682747017931,0.391309086256814,0.392445640668656,0.39484619916746,0.399321997572602,0.401966413033782,0.449876092914373,0.472835101763642,0.488593356338318,0.48605623007527,0.460973010779392,0.487090516570767,0.513371857437518,0.630363642807553,0.634325706131477,0.640784807513347,0.641760230508272,0.626953977278344,0.615196128249644,0.597751543819678,0.581308543401118,0.565879319982822,0.585499244283795,0.55222963837717,0.559058909904509,0.571003681236105,0.57967416451481,0.588232106423742,0.585197199460194,0.573126580724486,0.571823010951118,0.569425599453689,0.565068830836202,0.561526830518172,0.560015384407417,0.568088901389619,0.569313985290452,0.569901624583898,0.554014445932491,0.521133498627542,0.534995470876369,0.547366710207344,0.559906068495287,0.531942768930493,0.507204869280567,0.462341899867899,0.458392922797658,0.457792324093332,0.455741931929319,0.45362773866535,0.453220283572362,0.453474984736262,0.454420785048676,0.455944546284689,0.45792769122859,0.459615108269934,0.464544694410676,0.465498210985962,0.466761116516323,0.467617580306517,0.468196599949667,0.469422166018674,0.514464993897869,0.541185828100842,0.568080212645546,0.483390061217352,0.484258798078831,0.485201394271064,0.485499345235109,0.482850373568974,0.479921354820006,0.478645764556336,0.478696878036283,0.480284017281577,0.48241995524229,0.482577160254545,0.483044773604813,0.483238945543768,0.49689316007242,0.49567463633552,0.494583198620814,0.494764982950481,0.495406408029856,0.495915008972338,0.497413994387737,0.498827778982035,0.500086270464985,0.501837894949472,0.503060207904123,0.503457039535194,0.503727844180109,0.503934109540231,0.557458297282583,0.617491789366583,0.608604800302535,0.599650747760023,0.586012927550589,0.628237520405976,0.685074863212767,0.743688945826679,0.717514210864514,0.691552094633071,0.651653145268105,0.625723434834118,0.60023353773687,0.54000554166855,0.5403820859116,0.800989861800077,0.820774195063556,0.809295306340326,0.767905547868202,0.637116985519754,0.609488263362768,0.560342412543606,0.560118905466453,0.559515398367162,0.559548462739973,0.560259712186251,0.565258511963252,0.567812487445416,0.56798854694716,0.567821504047377,0.573311454547524,0.569539908350569,0.559250113682503,0.560035475992295,0.562307694836639,0.563994885122848,0.565036042077369,0.565379816447688,0.566125499240047,0.567184060476098,0.568746976107254,0.571513109435219,0.57267048574392,0.573453070561334,0.580375436778032,0.583633590624137,0.584729146399328,0.585105700532915,0.586088357353136,0.593959363530026,0.601431824973909,0.607141946987357,0.622344359135865,0.632367943669969,0.662376448062002,0.607730459508697,0.607297990181204,0.608180502385743
