0.750025,0.765086,0.780447,0.781438,0.78403,0.785887,0.807955,0.815624,0.819033,0.82026,0.820259,0.822303,0.824323,0.826375,0.828073,0.839112,0.858729,0.86042,0.876097,0.877706,0.880534,0.887623,0.88992,0.917405,0.92237,0.931532,0.940864,0.94758,0.950991,0.958692,0.969098,0.973866,0.974977,0.976233,0.96241,0.967271,0.968962,0.97421,0.981423,0.993795,1.00133,1.01122,1.01389,1.02511,1.02932,1.02923,1.02188,1.03342,1.03324,1.03421,1.05348,1.05393,1.04898,1.05068,1.04918,1.04918,1.04986,1.0511,1.09375,1.09708,1.09735,1.09879,1.10247,1.10691,1.11014,1.11411,1.11604,1.12246,1.12351,1.12479,1.12523,1.12588,1.1262,1.13834,1.15212,1.15407,1.15521,1.15331,1.15587,1.14917,1.14792,1.1484,1.15303,1.15687,1.16458,1.16922,1.17786,1.18285,1.18704,1.19643,1.2034,1.20471,1.21129,1.21235,1.22198,1.22494,1.22861,1.23003,1.23191,1.23952,1.24576,1.2499,1.25479,1.25809,1.26223,1.26426,1.27092,1.27577,1.28081,1.29226,1.29903,1.30414,1.30823,1.30892,1.3202,1.32625,1.33179,2.07065,1.35358,1.35286,1.37252,1.3763,1.38112,1.38755,1.38694,1.39172,1.40562,1.40574,1.41722,1.42283,1.42982,1.42871,1.43067,1.4361,1.4595,1.46002,1.44797,1.45166,1.46495,1.46519,1.47056,1.4782,1.47839,1.48387,1.48741,1.49265,1.49676,1.51003,1.50916,1.51365,1.52535,1.5267,1.52998,1.53704,1.54425,1.55712,1.55511,1.56514,1.56261,1.56813,1.57516,1.57916,1.58493,1.58668,1.59309,1.59588,1.59506,1.60309,1.60709,1.61792,1.62433,1.63382,1.64832,1.65444,1.65836,1.65707,1.67659,1.67512,1.67469,1.68906,1.69485,1.70049,1.70079,1.70245,1.70141,1.70608,1.71983,1.73118,1.7365,1.73889,1.74464,1.76073,1.75849,1.77275,1.77364,1.77469,1.78653,1.78937,1.79359,1.82308,1.81604,1.81398,1.82327,1.83068,0.00450066,2.08283,1.8824,1.87848,1.87564,0.00432521,1.91549,1.91283,0.0279759,1.94498,1.94516,1.95393,1.9589,1.95701,1.97073,1.96783,1.98273,1.98581,1.9911,0.004471,2.0096,2.02853,2.02536,2.03181,2.05154,2.04849,2.04456,2.0597,2.08613,2.08449,2.09478,0.0046395,2.109,2.13066,2.12819,2.12622,2.12739,2.12527,2.14177,2.14024,2.14533,2.14865,0.00469448,2.16861,2.1653,2.18024,2.26256,0.00469949,2.2391,0.00478558,0.004965,2.17071,2.16878,2.15782,2.16295,2.17897,2.17561,2.17446,2.18679,2.18417,2.19213,2.19097,2.19127,2.19708,2.18667,2.2009,2.1999,2.21824,0.00412543,2.21587,2.23015,2.22755,2.22453,2.23576,2.23442,2.2433,2.25756,2.25644,2.25673,2.25294,2.27669,2.27277,2.27011,2.26893,2.28755,2.28112,2.28007,2.30422,2.29887,2.31846,2.32899,2.32872,2.32841,0.00427572,2.34334,2.35779
0.747074,0.766016,0.771484,0.787257,0.793875,0.796844,0.804138,0.803131,0.804992,0.80654,0.805029,0.821117,0.821942,0.821863,0.821274,0.84453,0.857589,0.870868,0.881302,0.888993,0.888201,0.902058,0.911349,0.925735,0.930875,0.931951,1.11058,1.11252,0.95447,0.961245,1.09794,0.978959,0.986663,0.983366,0.98034,0.969951,0.978525,0.989127,0.999348,0.999387,1.0024,1.00743,1.01812,1.01631,1.0192,1.01411,1.01468,1.04826,1.04958,1.05466,1.05564,1.04988,1.04965,1.05038,1.05074,1.05052,1.07828,1.08494,1.09006,1.09165,1.09533,1.09947,1.10478,1.10914,1.11074,1.11171,1.10861,1.11345,1.1138,1.11509,1.11757,1.12783,1.12946,1.13314,1.13942,1.13844,1.14276,1.14267,1.13899,1.13977,1.14459,1.1458,1.15288,1.15463,1.16045,1.16332,1.17094,1.17478,1.18385,1.18741,1.19289,1.20356,1.20704,1.21481,1.21956,1.22056,1.22116,1.22766,1.23316,1.23816,1.24842,1.24908,1.25415,1.25699,1.25959,1.26734,1.27204,1.27768,1.28263,1.28526,1.28886,1.30133,1.30351,1.30845,1.31297,1.31845,1.32752,1.34402,1.35496,1.35967,1.36117,1.36834,1.37411,1.37619,1.38571,1.38667,1.39297,1.39533,1.40092,1.413,1.41697,1.41719,1.42252,1.4262,1.42816,1.44657,1.44486,1.44829,1.4479,1.45322,1.45561,1.4658,1.47101,1.47825,1.48003,1.48251,1.50008,1.50973,1.51385,1.5129,1.51558,1.52457,1.52449,1.52986,1.53969,1.54355,1.55072,1.55417,1.55761,1.56793,1.56944,1.56774,1.57227,1.57624,1.58048,1.5885,1.59064,1.60649,1.60873,1.62367,1.63035,1.63032,1.63158,1.65129,1.65267,1.65634,1.66179,1.67197,1.67322,1.67043,1.68202,1.69106,1.6996,1.69742,1.71033,1.7159,1.72037,1.7214,1.73377,1.74075,1.73751,1.75307,1.76173,1.76101,1.87667,1.7793,1.77766,1.7884,1.81011,1.82574,1.82429,1.81987,1.82782,1.85935,0.00499488,0.00414234,0.00457384,1.89021,2.05504,2.05526,0.00464049,0.00464317,1.93451,1.9312,1.94792,1.94189,1.96831,1.96342,1.96882,1.983,1.99351,1.98986,1.98898,0.00460541,2.01738,2.01465,2.03016,2.02746,0.00413176,2.05008,2.04842,2.04651,0.0584843,0.0043239,2.09097,2.09966,2.0974,0.00422496,2.12085,2.12293,2.13112,2.1255,2.11881,2.12864,2.13226,2.1381,2.13508,2.15089,0.279376,0.00473415,2.12721,0.00427132,2.14209,2.13877,2.15092,2.14954,2.15338,0.00453788,2.15606,2.14206,2.17588,2.17246,2.16904,2.17545,2.18786,2.19376,2.19191,2.19405,2.18622,2.20045,2.19378,2.1991,2.20282,2.20518,2.20337,2.22989,2.22731,2.22548,2.23315,2.22889,2.23441,2.23229,2.25203,2.25752,2.25464,2.27334,2.26993,2.26704,2.27709,2.27985,2.2855,2.28037,2.30105,2.31757,2.31572,2.32213,2.32201,2.3351,2.3284,2.35958
0.758887,0.759887,0.766627,0.773281,0.777518,0.776539,0.77496,0.802822,0.804118,0.806877,0.805501,0.807161,0.818145,0.820109,0.826984,0.860197,0.860007,0.879016,0.884757,0.885876,0.891541,0.903999,0.915536,0.921784,0.922975,0.938002,0.940192,1.1066,1.11304,0.968991,0.983847,0.991863,0.993171,0.994002,0.991947,1.00267,1.14071,1.01079,1.01934,1.01743,1.01963,1.01356,1.01453,1.01376,1.04314,1.04967,1.05233,1.05165,1.05293,1.0518,1.05427,1.05658,1.05988,1.0632,1.06669,1.06908,1.07702,1.08052,1.09331,1.09515,1.09724,1.099,1.09864,1.10018,1.09915,1.10132,1.10264,1.10262,1.10336,1.11202,1.11771,1.11692,1.11823,1.12438,1.12637,1.13047,1.13268,1.13171,1.13454,1.13698,1.14158,1.14512,1.14611,1.15368,1.15812,1.16495,1.16771,1.17413,1.17775,1.1856,1.18801,1.19766,1.20621,1.20946,1.21149,1.21084,1.22142,1.22753,1.23108,1.23683,1.23977,1.24862,1.25276,1.25472,1.26149,1.26436,1.27264,1.27395,1.28181,1.28725,1.28789,1.2956,1.2993,1.31191,1.31248,1.32997,1.33147,1.33241,1.3357,1.34113,1.34356,1.35729,1.35585,1.36094,1.37151,1.38059,1.38679,1.39081,1.39401,1.40429,1.41047,1.41808,1.41922,1.42043,1.42966,1.43463,1.43445,1.44522,1.44981,1.44859,1.45444,1.45518,1.46592,1.46443,1.46422,1.47028,1.47869,1.49926,1.50211,1.51109,1.51502,1.52267,1.5254,1.53381,1.54231,1.54247,1.55139,1.56077,1.5613,1.56892,1.56815,1.56888,1.56835,1.56914,1.58081,1.57846,1.58976,1.59724,1.60669,1.60595,1.62246,1.62948,1.63272,1.63028,1.64059,1.64402,1.65314,1.671,1.66833,1.66618,1.67945,1.69361,1.69238,1.70029,1.70834,1.70623,1.71696,1.73012,1.73101,1.73917,1.73519,1.75902,1.76156,1.76885,1.77666,1.7742,1.80714,1.80417,1.81917,0.00460855,0.00617969,0.00457127,1.85134,1.84939,1.85697,0.00504953,0.00415537,1.89664,0.985022,1.92706,1.93064,1.93159,1.9449,1.94282,1.94927,1.96544,1.9693,1.96871,1.97604,1.97563,1.99613,1.99435,1.99203,2.00389,2.01513,2.01661,2.01315,0.00456349,2.04677,2.04729,2.05429,2.05179,2.05068,0.00426081,2.08451,2.08621,2.08296,2.09458,2.09666,2.10559,0.00570207,0.00413918,2.21388,0.00432691,2.11895,0.0036315,2.13841,0.00366213,2.11397,2.10342,2.11411,0.00409579,2.12946,2.1413,0.00446355,2.13683,2.13414,0.0045121,2.1452,2.14217,2.14054,2.15649,2.15429,2.14945,2.1539,0.00405374,2.19312,0.00440085,2.18625,2.18368,2.18448,2.18494,2.18987,2.19707,2.20033,2.20899,2.22077,2.21652,2.21373,2.22465,2.23725,2.22945,0.00435406,2.25845,2.25399,2.24963,2.26249,2.26014,2.28461,2.28248,2.29545,2.2923,2.31001,2.30576,2.31018,2.30726,2.33228,2.33044,2.32755,2.32873
0.742205,0.74346,0.744544,0.754567,0.765828,0.771426,0.773962,0.774809,0.905131,0.806393,0.814327,0.819891,0.830715,0.844184,0.854055,0.860159,0.873973,0.880062,0.880902,0.884113,0.884668,0.908202,0.912282,0.926588,0.926186,0.935339,1.10098,0.957855,0.970522,0.98343,0.989318,1.00044,1.00267,1.00363,1.01173,1.01539,1.02705,1.03244,1.03448,1.03705,1.03809,1.04081,1.04227,1.04106,1.04365,1.04761,1.04924,1.0514,1.04446,1.04635,1.33996,1.05682,1.05662,1.0612,1.06708,1.06905,1.07155,1.07728,1.08566,1.09313,1.09465,1.09482,1.0926,1.09469,1.09453,1.09948,1.10131,1.09912,1.10216,1.10374,1.11149,1.11212,1.11351,1.11421,1.11626,1.11668,1.11809,1.12218,1.12774,1.13623,1.13897,1.1404,1.1443,1.14852,1.15886,1.15996,1.16721,1.1717,1.17474,1.17908,1.1889,1.1979,1.20162,1.20518,1.20929,1.21472,1.22198,1.22279,1.22761,1.23138,1.23894,1.24541,1.24829,1.25784,1.25933,1.25874,1.26473,1.26828,1.27206,1.27871,1.28998,1.291,1.30654,1.30661,1.31658,1.31793,1.31983,1.32353,1.32674,1.33323,1.33428,1.3437,1.34785,1.36428,1.3645,1.37248,1.38092,1.38107,1.38762,1.39414,1.39527,1.39463,1.40247,1.40742,1.417,1.48344,1.42802,1.4366,1.44056,1.44102,1.44011,1.44003,1.46533,1.46638,1.46838,1.48373,1.49221,1.49176,1.51205,1.51039,1.51154,1.51765,1.52778,1.52747,1.53522,1.54555,1.54498,1.55003,1.55074,1.5503,1.55308,1.56794,1.56581,1.5744,1.5744,1.58548,1.59085,1.59779,1.60725,1.605,1.59827,1.60607,1.61776,1.64352,1.64598,1.64439,1.65151,1.6506,1.67312,1.67217,1.68464,1.68749,1.68598,1.69926,1.71176,1.7114,1.71823,1.7188,1.73732,1.74161,1.76099,1.75996,1.76061,1.77163,1.76777,1.8104,1.80812,1.81354,1.82466,1.82349,0.00474726,0.177641,0.00462219,1.86674,0.00442959,1.89671,1.90268,1.90066,1.92568,1.92392,1.92822,1.92736,1.92743,1.93347,1.95204,1.9654,1.96926,1.96993,1.9696,1.9694,1.97557,1.98712,1.99833,2.00703,2.00597,2.02811,2.02668,2.03522,2.03285,2.03989,2.05523,2.05271,2.04931,2.05311,2.05298,2.07266,2.0847,2.08437,0.00473134,2.09809,2.09707,2.09288,2.10924,2.11049,0.00382007,0.728115,0.00438395,2.0903,2.09156,2.08958,2.10534,2.10741,2.1137,2.11107,0.00369253,2.12264,2.12426,2.12332,2.14907,2.14501,2.14298,2.12976,2.13169,2.12693,2.14207,2.15029,2.15836,2.17216,2.16735,2.16623,2.16236,2.18083,2.18743,2.19418,2.19108,2.20313,0.00462879,2.2155,2.21795,2.22566,2.22298,2.23567,2.23584,2.24553,2.24386,0.0048644,0.00423687,0.00692963,2.27747,2.29367,2.284,2.28291,2.29869,2.29524,2.30523,2.32434,2.32054,2.31566,2.31345,2.3184
0.746252,0.748837,0.749801,0.762141,0.761364,0.771318,0.791277,0.786064,0.824045,0.822642,0.82259,0.836994,0.838578,0.853566,0.859957,0.865186,0.868392,0.881102,0.881778,0.885606,0.894452,1.17117,0.912527,0.92144,0.928783,0.932131,1.16796,1.16821,1.16758,1.17015,0.984282,0.999237,1.00247,1.00663,1.01143,1.02832,1.0372,1.03765,1.03869,1.03623,1.03428,1.03364,1.0395,1.04002,1.04247,1.0427,1.04481,1.04167,1.04782,1.05031,1.05257,1.05468,1.05917,1.06499,1.06655,1.06664,1.07309,1.0738,1.08127,1.08082,1.08279,1.08444,1.08541,1.0863,1.09083,1.09368,1.09375,1.09069,1.09231,1.09455,1.09852,1.10713,1.10994,1.11026,1.11109,1.11205,1.10983,1.1107,1.1259,1.13331,1.13468,1.14193,1.14595,1.14793,1.14874,1.16121,1.16629,1.17821,1.18048,1.18587,1.18951,1.19138,1.19735,1.20399,1.20784,1.21354,1.21553,1.22282,1.22468,1.23176,1.23569,1.24232,1.24732,1.25096,1.25311,1.25335,1.26338,1.26413,1.27898,1.28633,1.29054,1.2945,1.29643,1.30485,1.30445,1.30768,1.31445,1.32369,1.32346,1.32719,1.33656,1.34101,1.34802,1.34996,1.36145,1.36197,1.36397,1.36978,1.37755,1.38345,1.38481,1.39133,1.39906,1.46631,1.42043,1.43988,1.43186,1.43966,1.4407,1.43779,1.44627,1.45285,1.45926,1.46435,1.47085,1.47542,1.48684,1.48514,1.49667,1.49625,1.50625,1.52036,1.52116,1.52314,1.52697,1.64177,1.53775,1.54507,1.54525,1.54485,1.54852,1.55697,1.55848,1.56308,1.5727,1.65827,1.59601,1.60513,1.60323,1.6057,1.60344,1.62896,1.62723,1.63229,1.65424,1.65293,1.65706,1.65447,1.6754,1.67245,1.68298,1.68065,1.68597,1.7002,1.71695,1.72509,1.72725,1.73787,1.7433,1.75204,0.00432669,0.00468308,1.78661,1.80406,1.80091,1.80557,1.8051,0.0044467,0.00526436,2.0537,2.04429,1.95908,1.871,0.00446879,1.88889,1.90648,1.91658,1.91502,1.92677,1.92348,1.93113,1.92888,1.92658,1.93197,1.95202,1.95413,1.96699,1.96465,1.96782,1.98126,1.97857,1.9826,1.99133,2.01138,2.0116,2.01604,2.02284,2.02534,2.02915,2.03813,2.04179,2.0517,2.0497,2.05926,2.05904,2.05691,2.06654,0.00439221,2.07338,0.00423925,2.08408,2.09067,2.09054,2.08715,2.09382,2.08576,2.08411,2.09049,2.09587,2.09593,2.0872,2.09118,2.106,2.10202,2.11436,2.11096,2.11483,2.11205,2.11775,2.12118,2.12167,2.13276,2.13063,2.12812,2.14004,2.13687,0.00402772,2.1602,2.16712,2.16593,2.15977,2.17602,2.18099,2.18613,2.19178,2.18811,2.20468,2.20417,2.20375,2.22256,2.21883,2.21772,2.23191,2.22584,2.25239,2.25225,2.27495,2.27695,2.27738,2.28408,2.28124,2.28762,2.29658,2.29337,2.30479,2.3023,2.31879,2.31619,2.31375,2.31131
0.738571,0.755638,0.755077,0.760804,0.794803,0.81183,0.814532,0.821798,0.823311,0.825059,0.834111,0.84379,0.851425,0.853083,0.854361,0.869719,0.873948,0.876846,0.878647,0.878976,0.898257,0.902355,1.1741,0.929718,0.945902,0.945766,1.16913,0.963688,0.970028,0.973143,0.974149,0.997301,1.00377,1.00504,1.01897,1.02737,1.02832,1.03087,1.02969,1.03003,1.03057,1.03622,1.03717,1.03864,1.03463,1.03596,1.03675,1.04083,1.04116,1.04925,1.0551,1.05587,1.05752,1.06118,1.06392,1.06457,1.06889,1.0702,1.07289,1.07561,1.07693,1.08068,1.0847,1.08699,1.09024,1.08702,1.08717,1.08863,1.09036,1.09453,1.10405,1.10373,1.10891,1.108,1.10627,1.10397,1.11235,1.11862,1.12706,1.13077,1.13591,1.14006,1.14477,1.14555,1.14812,1.15162,1.16428,1.17204,1.17466,1.1814,1.18687,1.19193,1.19688,1.20517,1.2037,1.20741,1.21328,1.21621,1.22402,1.22505,1.23576,1.23949,1.24496,1.2474,1.25363,1.25721,1.2659,1.27165,1.27681,1.28411,1.29153,1.29221,1.2955,1.29614,1.30601,1.3076,1.31027,1.31655,1.32288,1.32953,1.33271,1.33856,1.345,1.34468,1.35399,1.35432,1.36255,1.36396,1.37419,1.37611,1.3917,1.4019,1.41507,1.41738,1.43183,1.44028,1.4387,1.43876,1.44516,1.45173,1.45149,1.45339,1.45385,1.46086,1.46428,1.47079,1.47811,1.47698,1.48504,1.48836,1.49604,1.5008,1.51935,1.51868,1.52459,1.52883,1.54142,1.541,1.54156,1.54007,1.54745,1.55601,1.55524,1.57393,1.57174,1.58355,1.58255,1.59657,1.59986,1.60576,1.61011,1.62086,1.62418,1.64114,1.64132,1.64709,1.6555,1.65501,1.66155,1.66816,1.67642,1.69174,1.68955,1.68955,1.69326,1.72876,1.72622,1.73829,1.94734,1.7631,0.00425484,1.80238,1.80596,1.80303,1.81141,1.81329,0.00409798,1.95302,0.00473465,1.85956,0.00434794,1.8755,1.87874,1.87755,0.0065415,1.90415,1.90259,1.89871,1.97052,1.92656,1.93207,1.93145,1.93228,1.92989,1.94527,1.94323,1.96593,1.96697,1.96646,1.96368,1.98735,1.99992,0.00432843,2.00473,2.00527,2.01865,2.03099,2.02648,2.0237,2.04134,2.03621,2.04812,2.04635,2.04883,2.04526,2.0525,2.06238,2.06129,2.06999,2.07908,2.07704,2.0811,2.08041,2.07949,2.08541,2.08081,2.07958,2.07495,2.07399,2.07604,2.08868,2.08618,2.09368,2.09701,2.09182,2.09048,2.118,2.11597,2.11823,2.11352,2.11836,2.11927,2.12181,2.12443,2.12494,2.14021,2.13834,2.14042,2.15103,2.16642,2.1644,2.16249,2.16493,2.17743,2.18346,2.18452,2.19572,2.19338,2.20728,2.20407,2.22045,2.2265,2.22691,2.24555,2.25029,2.25545,2.26338,2.26278,2.25982,2.28418,2.28466,2.28452,2.28542,2.28538,2.2845,2.30079,2.2979,2.29957,2.31556,2.31254
0.741578,0.789253,0.790732,0.792216,0.80167,0.815298,0.816434,0.824256,0.827494,0.831918,0.844302,0.849119,0.857971,0.866103,0.868206,0.872979,0.881243,0.888191,0.896233,1.16324,1.16292,1.16325,0.930512,0.973567,1.17697,1.10286,0.969903,0.973616,0.970524,0.97312,0.974167,0.994011,0.996444,1.01408,1.0151,1.01685,1.01837,1.02284,1.02744,1.0307,1.03225,1.03018,1.02738,1.02774,1.02,1.02423,1.02982,1.03309,1.04368,1.04927,1.0501,1.05338,1.05473,1.05343,1.17535,1.06631,1.06782,1.07013,1.06977,1.07329,1.07359,1.07706,1.07875,1.08103,1.08228,1.0813,1.08344,1.08474,1.09146,1.09762,1.0998,1.10298,1.09926,1.1033,1.10421,1.11126,1.11313,1.1167,1.12351,1.13031,1.13359,1.1374,1.14144,1.14427,1.14632,1.15092,1.15543,1.1635,1.17234,1.17773,1.1874,1.19002,1.1912,1.19496,1.19947,1.20518,1.21334,1.21594,1.22451,1.22752,1.23102,1.23903,1.24139,1.24333,1.24859,1.25721,1.2641,1.2741,1.27855,1.28136,1.28439,1.28674,1.29348,1.30066,1.30267,1.30599,1.30867,1.31557,1.32527,1.32921,1.33017,1.33625,1.33947,1.34665,1.34862,1.35033,1.35898,1.36545,1.37036,1.37264,1.4097,1.41516,1.42609,1.42958,1.42258,1.4212,1.42912,1.43029,1.43416,1.44323,1.44348,1.44681,1.45313,1.46071,1.46187,1.46737,1.46827,1.47232,1.48397,1.49352,1.4986,1.50112,1.5026,1.5902,1.52632,1.53035,1.52993,1.53213,1.53542,1.54597,1.54673,1.56042,1.56164,1.57607,1.57439,1.58521,1.58384,1.59352,1.59361,1.60835,1.60918,1.61217,1.62124,1.62778,1.62773,1.64351,1.64166,1.67219,1.67829,1.67839,1.68488,1.68215,1.69173,1.69272,1.72198,1.7511,1.74765,1.74516,1.89255,1.89955,1.81497,1.8142,1.81538,1.81421,1.82056,1.81965,1.83404,1.84135,1.84588,1.8483,1.87168,1.87719,1.87503,1.87219,1.87317,1.88862,1.89786,1.90295,1.96205,1.93032,1.92608,1.93815,1.93709,1.9353,1.942,1.9486,1.94619,1.97124,1.96962,1.96616,1.98269,1.99464,1.99394,2.00091,2.00106,2.0099,2.00796,2.02718,2.02684,2.02389,2.02442,0.00361432,2.04359,2.05206,2.04941,2.049,2.04919,2.05653,2.06729,2.06195,2.05138,0.00361934,2.05527,2.05622,2.05391,2.06498,2.05661,2.05688,2.05866,2.06992,2.06986,2.0686,2.07781,2.08822,2.08702,2.09992,2.097,2.10868,2.10996,2.10805,2.10293,2.10791,2.10812,2.11114,2.12788,2.13225,2.12792,2.13548,2.13343,0.00424991,2.14732,2.16565,2.16245,2.18,2.177,2.18244,2.18971,2.1983,2.21542,2.2134,2.22348,2.22023,2.22756,2.22524,2.24431,2.24318,2.24109,2.25311,2.26622,2.26335,2.27283,2.27218,2.26715,2.2865,2.2832,2.28996,2.30368,2.30127,2.30132,2.29863
0.774345,0.799017,0.799248,0.811605,0.822682,0.825434,0.82565,0.822142,0.835472,0.837854,0.847918,0.859621,0.879479,0.881027,0.890166,0.891674,1.15236,0.90923,1.16091,0.920528,0.925588,0.933599,0.94223,1.19736,1.19763,0.96624,0.971864,0.971459,0.972396,0.977042,0.980403,0.98142,1.00133,1.00334,1.00045,1.00209,1.00254,1.00239,1.01201,1.01444,1.01939,1.022,1.01486,1.01478,1.01033,1.01153,1.0075,1.00956,1.03593,1.03877,1.03977,1.04125,1.04228,1.04447,1.05896,1.06086,1.064,1.06593,1.06839,1.0681,1.06867,1.06963,1.07339,1.07363,1.07562,1.07931,1.08193,1.08578,1.0872,1.0953,1.09487,1.09686,1.09749,1.09839,1.10428,1.10666,1.11384,1.11677,1.12327,1.12763,1.1314,1.12976,1.13263,1.13815,1.14669,1.153,1.16224,1.16492,1.17415,1.17979,1.18603,1.18876,1.19163,1.19609,1.19921,1.2006,1.21066,1.21292,1.21995,1.22366,1.22983,1.23271,1.24059,1.24387,1.25119,1.25772,1.26058,1.26856,1.26956,1.27527,1.27892,1.2867,1.28927,1.29774,1.2989,1.30772,1.30886,1.31679,1.31679,1.32059,1.32436,1.33223,1.33478,1.34018,1.3432,1.3472,1.35548,1.36847,1.37432,1.39153,1.39109,1.39396,1.40081,1.41032,1.4111,1.41782,1.42048,1.42714,1.42699,1.43748,1.43654,1.44477,1.44582,1.45069,1.45603,1.46062,1.46952,1.47079,1.47221,1.48966,1.49179,1.49424,1.50306,1.50601,1.51632,1.51583,1.51509,1.53341,1.5322,1.54262,1.54962,1.55316,1.55357,1.56833,1.57651,1.57825,1.58533,1.5832,1.59788,1.59888,1.60238,1.61622,1.6171,1.62577,1.63516,1.63563,1.77075,1.67143,1.67663,1.6787,1.67898,1.68376,1.72633,1.72388,1.72873,1.74076,0.00441804,0.00412472,0.00451457,1.80707,1.80194,1.79954,1.81366,1.8192,1.82909,1.82967,1.82943,1.83394,1.84931,1.8484,1.87204,1.86985,1.86805,1.8723,1.87037,2.03795,1.9013,1.91051,1.90885,1.91687,1.92107,1.92468,1.92264,1.94236,1.9425,1.95275,1.95867,1.96945,1.9704,1.97124,1.99363,1.99387,1.99311,2.00278,2.00081,2.00823,2.01462,2.01758,2.01345,2.02465,2.0295,2.03506,2.04507,2.04072,2.04855,2.04534,2.03841,2.03746,2.03033,2.02763,2.04322,2.04732,2.0443,2.04044,2.05515,2.03749,2.0454,2.05602,2.05666,2.05507,2.07017,2.06828,2.07387,2.08281,2.07623,2.08645,2.08282,2.09719,2.09608,2.0933,2.10319,2.10666,2.10244,2.11296,2.10991,2.11387,2.12503,2.13311,2.13314,2.13408,2.14344,2.14129,2.15963,2.1584,2.17862,2.17482,2.18436,2.19625,2.2163,2.21511,2.21126,2.22149,2.23251,2.2238,2.23946,2.23846,2.24264,2.23584,2.27089,2.26817,2.26608,2.26963,2.26947,2.25761,0.00416658,2.28935,2.28181,2.28224,2.30372,2.30297
0.803988,0.812359,0.813705,0.822331,0.822554,0.826735,0.827584,0.842804,0.845467,1.08525,0.867931,0.890747,0.891079,0.897579,0.901677,0.906461,0.907836,0.912403,0.915998,0.918534,0.925601,0.932523,0.942603,1.21509,0.960242,0.962659,0.967887,0.973252,0.978589,0.980539,0.980606,0.987097,0.993548,0.997324,0.994166,0.995162,0.99781,0.998942,1.00194,1.00762,1.00791,1.00257,1.00467,1.00312,1.00442,1.00616,1.00582,1.00692,1.01548,1.01765,1.03575,1.03638,1.03676,1.03958,1.0446,1.05093,1.05024,1.05894,1.05969,1.0632,1.06605,1.06726,1.06836,1.07057,1.07015,1.07081,1.06923,1.07322,1.07508,1.08135,1.08228,1.09193,1.09716,1.09769,1.104,1.10975,1.11206,1.12103,1.1243,1.11748,1.11609,1.11646,1.12727,1.14111,1.14865,1.15646,1.16164,1.16708,1.17122,1.18,1.1817,1.1863,1.18885,1.19408,1.19901,1.20579,1.20855,1.21509,1.21924,1.22111,1.22651,1.23217,1.23344,1.24711,1.24763,1.25341,1.25652,1.26365,1.26397,1.27075,1.28159,1.28771,1.28771,1.2918,1.29603,1.30741,1.30741,1.30818,1.31319,1.31537,1.32156,1.32491,1.32669,1.32728,1.34558,1.34598,1.45125,1.37334,1.37675,1.37899,1.3825,1.38939,1.39396,1.39539,1.40755,1.41319,1.4197,1.42387,1.4239,1.43058,1.43422,1.43892,1.44529,1.45377,1.46152,1.45485,1.46276,1.46189,1.46821,1.47945,1.48349,1.49199,1.49563,1.50952,1.50863,1.51714,1.52856,1.52644,1.5271,1.54286,1.54933,1.54953,1.56368,1.56143,1.56157,1.57901,1.58185,1.58392,1.58729,1.5871,1.6043,1.62775,1.62669,1.63736,1.63539,1.66421,1.66212,1.67488,1.68075,1.70353,1.84565,1.71972,1.83069,1.73552,1.98624,0.00433146,1.77416,1.78608,1.78356,0.00430157,1.80306,1.80036,1.81322,1.80967,1.83057,1.82949,1.83495,1.83837,1.83614,1.84638,1.87461,1.87145,1.86933,1.86528,1.87497,1.89015,1.90489,1.90433,1.90641,1.90468,1.9242,1.93003,1.92724,1.94107,1.94785,1.94901,1.95939,1.96897,1.97617,1.97381,1.97956,1.99633,1.99249,2.00531,2.0059,2.01383,2.02123,2.0166,2.01916,2.01629,2.02862,2.03187,2.04185,2.01048,2.02758,2.02606,2.02201,2.01802,2.03141,2.03057,2.02726,2.02783,2.03747,2.03706,2.04214,2.04056,2.03743,2.04747,2.04398,2.05401,2.04587,2.0585,2.05979,2.06643,2.06188,2.07296,2.07297,2.08344,2.0873,2.08641,2.09808,2.09519,2.09923,2.1103,2.11054,2.10735,2.1142,2.12439,2.12421,2.12799,2.14127,2.13543,2.14145,2.16045,2.15787,0.00427261,0.00424584,2.20435,2.22074,2.21724,2.21437,2.21107,2.21296,2.21134,2.22943,2.22663,2.23335,2.24113,2.23602,2.23279,2.25653,2.25875,2.26317,2.2611,2.25596,2.26924,2.26303,2.25757,2.27482,0.00440559
0.81264,0.816018,0.820424,0.821185,0.823494,0.824355,1.08754,0.863044,1.12917,1.13035,0.87651,0.890596,0.892673,0.896011,0.897381,0.90033,0.905216,0.91144,1.11589,1.25093,0.928912,1.20548,0.95061,0.953033,0.953172,0.957224,0.963588,1.20636,1.1856,1.19533,1.18482,0.976848,0.980524,0.983813,0.984371,0.995914,0.998974,1.00054,1.00151,1.00031,0.999888,1.00133,1.00199,1.00331,1.00589,1.00099,1.00097,1.00194,1.00462,1.02468,1.02521,1.02702,1.03357,1.03982,1.0415,1.04715,1.0497,1.0517,1.05642,1.05671,1.05874,1.05821,1.064,1.06186,1.06463,1.06458,1.06208,1.06345,1.07445,1.07552,1.08519,1.08933,1.09127,1.09736,1.10546,1.10915,1.11116,1.11362,1.11297,1.1138,1.11863,1.11976,1.27353,1.14151,1.14962,1.1587,1.16111,1.16918,1.17046,1.17601,1.17802,1.18549,1.18802,1.19442,1.1978,1.20021,1.20754,1.20833,1.21745,1.22489,1.22874,1.23348,1.23531,1.24002,1.24198,1.24752,1.25688,1.25573,1.26299,1.27254,1.28128,1.283,1.28588,1.2926,1.29463,1.29602,1.30063,1.30153,1.30756,1.31009,1.31576,1.31314,1.3195,1.33424,1.35406,1.35919,1.36413,1.36837,1.3677,1.37545,1.37798,1.3874,1.38817,1.39586,1.39809,1.40604,1.40727,1.41333,1.41965,1.42867,1.43901,1.44178,1.44506,1.44738,1.4542,1.46088,1.45897,1.4579,1.46652,1.48175,1.48591,1.50567,1.50445,1.51189,1.51121,1.52501,1.52549,1.53372,1.53147,1.54237,1.54158,1.54724,1.54681,1.55505,1.56385,1.57253,1.57116,1.57985,1.71548,1.62747,1.62466,1.64396,0.00401635,1.72732,1.6778,1.67731,1.80219,1.70286,1.87786,1.87719,1.71956,0.00466132,1.84837,1.74464,1.75411,1.752,1.76683,1.77254,1.78336,1.7897,1.796,1.80305,1.80125,1.81423,1.82456,1.82958,1.83394,1.8392,1.84075,1.85701,1.86552,1.86377,1.8703,1.86729,1.88534,1.88163,1.89059,1.89977,1.90712,1.90374,1.92238,1.92156,1.93277,1.93406,1.94706,1.95396,1.95266,1.9557,1.97844,1.97877,1.99307,1.99098,1.98781,1.98566,2.00732,2.00407,2.01517,2.01667,2.02084,2.01244,0.00393659,2.00842,2.02349,2.01215,2.00929,2.00984,2.00702,2.01844,2.01845,2.01512,2.01438,2.02638,2.02374,2.02402,2.02451,2.03297,2.03223,2.03537,2.04128,2.04153,2.0412,2.04562,2.05996,2.06558,2.06322,2.06892,2.06329,2.07303,2.08884,2.08683,2.08263,2.10046,2.10328,2.09919,2.11083,2.10758,2.10431,2.11122,2.11907,2.11907,2.12425,2.12767,0.00459548,0.635289,0.00432661,2.18364,0.0042832,0.00486564,0.00365724,2.20281,2.20042,2.21352,2.21351,2.21994,2.21865,2.22434,2.22038,2.22795,2.2253,2.22384,2.23258,2.22969,2.2401,2.23576,2.23281,2.25197,2.24892,2.26701,2.26397,2.27003
0.829028,0.822003,0.818128,0.818204,0.826882,0.841502,0.844317,0.963396,0.874009,0.877864,0.8844,0.888224,0.89051,0.893979,0.89581,0.906648,0.911678,0.919409,0.921466,0.925526,0.929465,0.935997,0.939206,0.941329,0.944076,0.944054,1.19605,1.19926,0.955216,0.961041,0.966665,0.970523,0.972901,0.975824,0.979891,0.97987,0.9869,0.988519,0.993757,0.994668,0.994498,0.994497,1.00071,0.996367,0.998402,0.997698,0.998193,1.00061,1.00308,1.0119,1.01915,1.01889,1.02098,1.0353,1.03771,1.03843,1.04392,1.04763,1.04982,1.04893,1.049,1.04951,1.04962,1.05311,1.05039,1.05324,1.06042,1.06121,1.07227,1.07432,1.08122,1.08302,1.0942,1.0979,1.10379,1.10485,1.1063,1.10873,1.11204,1.11282,1.11574,1.1218,1.13015,1.14114,1.14666,1.15647,1.15642,1.15968,1.16238,1.16834,1.172,1.17521,1.18511,1.1914,1.19211,1.20018,1.20345,1.20955,1.21864,1.21984,1.22279,1.22441,1.2264,1.23624,1.23587,1.2422,1.25067,1.25456,1.26235,1.26853,1.28113,1.28203,1.28161,1.27983,1.28143,1.28777,1.29891,1.2991,1.30369,1.30615,1.31075,1.31275,1.32803,1.33004,1.33488,1.34713,1.35329,1.35995,1.36274,1.36688,1.37743,1.37595,1.38604,1.38564,1.39783,1.39915,1.40486,1.40657,1.41984,1.42633,1.43479,1.43786,1.43645,1.44481,1.44724,1.44907,1.45731,1.45606,1.46154,1.46144,1.48538,1.48913,1.4908,1.50415,1.50381,1.515,1.51767,1.52698,1.53012,1.52817,1.53339,1.53783,1.72998,1.55556,1.56492,1.69116,1.69044,0.00563166,0.00393774,1.80076,1.64893,1.65723,1.6557,2.11198,1.67749,0.00410483,1.71772,1.71666,1.71379,1.73057,1.73417,1.73331,1.74795,1.75663,1.75308,1.75431,1.76399,1.77722,1.77612,1.78676,1.79128,1.80529,1.80636,1.81418,1.82406,1.82379,1.82941,1.83526,1.83152,1.86281,1.86052,1.85696,1.87521,1.87229,1.88219,1.88161,1.88945,1.89998,1.90146,1.90097,1.91121,1.92876,1.92443,1.94224,1.94003,1.95499,1.95243,1.95612,1.96814,1.97502,1.98273,1.98138,1.97998,1.98915,2.00474,2.043,2.00455,0.0175882,2.00024,2.00054,1.99254,2.01024,2.42977,2.42802,2.01445,2.00321,2.00342,0.0044639,1.98559,1.99977,1.99699,2.00416,2.00761,2.01351,2.01148,2.02425,2.02219,2.03114,2.02639,2.04618,2.04609,2.04561,2.04392,2.05581,2.06377,2.0686,2.07633,2.07256,2.06928,2.08535,2.07756,2.07607,2.08649,2.09522,2.09146,2.09692,2.10446,2.11324,2.1079,2.1304,2.12625,2.12716,2.12434,0.00444317,0.00460437,0.00407502,2.17625,2.18037,2.17724,2.1954,2.19482,2.18917,2.18332,2.2129,2.21354,2.20884,2.21398,2.21634,2.22281,2.22363,2.22185,2.21927,2.2194,2.23828,2.23478,2.23177,2.24444,2.24705,2.26377,2.27039
0.828603,0.831436,0.832167,1.09386,1.09484,0.860762,0.863037,0.866069,0.86363,0.879099,0.884146,0.887643,0.893348,0.895964,0.902631,0.908689,0.914623,0.917701,0.918043,0.919829,0.92264,0.922682,0.924255,0.922318,0.930902,0.933385,0.939288,0.940809,0.94242,0.95665,0.957224,0.958581,0.96127,0.963424,0.975773,0.975306,0.974771,0.976124,0.981651,0.988185,0.990906,0.99197,0.983574,0.983719,0.98693,0.991402,0.99491,0.997452,1.01004,1.0121,1.01277,1.01371,1.01744,1.02155,1.03241,1.03678,1.03738,1.03635,1.04026,1.03887,1.04267,1.04588,1.04357,1.04783,1.04993,1.0528,1.05596,1.05756,1.06725,1.07134,1.07672,1.08758,1.08911,1.09064,1.09938,1.10208,1.10505,1.11054,1.11025,1.11182,1.11678,1.12494,1.13008,1.13919,1.13973,1.1458,1.15416,1.15759,1.15862,1.16129,1.16953,1.17119,1.17639,1.18264,1.19228,1.19544,1.20022,1.20798,1.20675,1.2146,1.21342,1.21831,1.22337,1.22691,1.23153,1.23728,1.24669,1.253,1.26097,1.26375,1.26411,1.26743,1.26502,1.27284,1.27449,1.27815,1.28586,1.28965,1.30237,1.30254,1.30405,1.32713,1.32974,1.33064,1.33688,1.34318,1.34354,1.35084,1.36067,1.36149,1.3628,1.37203,1.37816,1.37779,1.39255,1.3918,1.40182,1.4025,1.4111,1.41756,1.42055,1.42918,1.44064,1.4393,1.43968,1.44069,1.44167,1.4432,1.46808,1.46679,1.47783,1.48099,1.49013,1.77927,1.50741,1.50734,1.50647,1.51271,1.52157,1.5206,1.52447,1.60718,0.00394977,1.58866,1.5976,1.60788,1.61694,1.63729,1.64347,1.64327,1.65698,1.65567,1.66226,1.82555,1.82413,1.69921,1.70091,1.71342,1.77662,1.73982,1.73574,1.74453,1.74205,1.74752,1.75509,1.76192,1.76251,1.76358,1.78079,1.79031,1.7935,1.79186,1.80079,1.8103,1.81774,1.82784,1.83408,1.83202,1.84762,1.85407,1.86482,1.86786,1.87028,1.86949,1.88127,1.88151,1.88877,1.89346,1.90018,1.91658,1.91301,1.94371,1.9396,1.93761,1.94581,1.95629,1.95348,1.95052,1.9698,1.96942,1.9678,1.98404,1.98331,1.98114,1.97922,0.00851316,0.00424358,0.00492861,0.00455448,1.97641,0.00412071,0.00463373,1.98027,1.98876,0.00404968,0.00454175,0.00369482,1.97393,1.9885,1.98571,1.99128,1.99038,1.99993,2.01456,2.0119,2.02682,2.02436,2.02314,2.03433,2.03214,2.03414,2.04256,2.04262,2.05349,2.06212,2.05883,2.06581,2.05101,2.06764,2.06658,2.06444,2.07627,2.07664,2.08632,2.08825,2.0886,2.10076,2.09988,2.11326,2.11439,2.12095,2.12161,2.12101,2.13544,2.14135,2.14491,2.1426,0.0110268,2.17664,2.17736,2.1828,2.18434,2.18239,2.18071,2.1888,2.21099,2.20825,2.20522,2.20564,2.22112,2.2213,2.21988,2.22396,2.21996,2.23832,2.23355,2.23963,2.23642,2.25235,2.25227
0.827029,0.828081,0.828403,0.829705,1.01941,1.02009,1.02161,0.874074,0.873754,0.875864,0.886993,0.889064,0.900335,0.902519,0.908969,0.911961,0.913752,0.915735,0.916362,0.917079,0.918504,0.918963,0.9202,0.921943,0.92319,0.925863,0.916807,0.922312,0.922734,1.0661,0.935109,0.953291,0.955027,0.959219,0.962771,0.96865,0.970718,0.974907,0.978408,0.979932,0.982614,0.983283,0.981662,0.983549,0.98362,0.984663,0.995635,0.998955,1.00284,1.01113,1.01382,1.01557,1.01849,1.02076,1.01639,1.02975,1.02654,1.02735,1.03011,1.0288,1.03241,1.03364,1.03878,1.04085,1.04903,1.04819,1.05443,1.05592,1.05806,1.06763,1.07337,1.07594,1.08166,1.08095,1.08683,1.0982,1.09913,1.10338,1.10889,1.1098,1.11799,1.11992,1.13152,1.13366,1.13844,1.14326,1.14514,1.15335,1.15914,1.16297,1.16709,1.16939,1.17365,1.18137,1.18495,1.195,1.19505,1.19758,1.20046,1.20559,1.20842,1.21356,1.21764,1.22601,1.229,1.2359,1.24164,1.24654,1.25134,1.2545,1.26066,1.26065,1.26015,1.26312,1.26653,1.27038,1.2823,1.28856,1.30195,1.30088,1.30266,1.31554,1.31666,1.32686,1.33772,1.34096,1.34203,1.34533,1.35162,1.35213,1.36087,1.36079,1.36787,1.37955,1.38254,1.39039,1.39306,1.40616,1.4094,1.41629,1.41148,1.41912,1.42996,1.43129,1.44021,1.4439,1.4449,1.45292,1.45646,1.4672,1.47138,1.47856,1.4794,1.49203,1.49484,1.49447,1.61731,1.64188,1.5356,1.53773,1.54331,0.00430871,1.58613,0.00406228,0.00449775,1.62394,1.63098,1.64157,1.64731,1.64922,1.6546,0.00433857,1.67569,1.68292,1.68856,1.70252,1.70957,1.70783,1.72345,1.72843,1.73383,1.73795,1.74754,1.74488,1.75623,1.76332,1.76161,1.77614,1.78513,1.78454,1.78271,1.79538,1.81085,1.81086,1.81676,1.83362,1.8331,1.83568,1.85011,1.86121,1.8618,1.86237,1.87285,1.87048,1.89285,1.89179,1.89694,1.89409,1.92092,1.91804,1.92429,1.9352,1.94113,1.94187,1.93923,1.95493,1.95289,1.94962,1.9521,1.95801,1.96867,1.96717,1.96108,2.32744,0.00399831,2.37359,2.32879,2.38877,1.95272,1.95415,1.95131,1.95967,2.0217,1.96174,1.95771,1.95112,1.95923,1.96931,1.97243,1.96983,1.97788,1.98712,1.98957,1.98168,2.00063,2.00163,2.01373,2.02182,2.02761,2.03852,2.03521,2.03203,2.02945,2.0478,2.048,2.05388,2.05509,2.05298,2.05576,2.0689,2.07344,2.07088,2.07448,2.07726,2.0775,2.07633,2.08664,2.09293,2.09078,2.11722,2.1137,2.11796,2.11569,2.12901,2.12591,2.12253,2.14384,2.14242,2.14011,2.14811,2.16604,2.16302,2.18125,0.0045894,2.17724,2.18706,2.19132,2.209,2.20686,2.20785,2.20665,2.21249,2.21877,2.21613,2.22778,2.22738,2.22163,2.24586,2.24236,2.25547
0.823785,0.826598,0.830297,0.832229,1.0352,1.03511,1.19198,0.876656,0.876044,0.876132,0.884763,0.889434,0.89714,0.900858,0.90185,0.90951,0.912526,0.912295,0.910119,0.912777,0.915719,0.915894,0.902064,0.91024,0.911035,0.914504,0.916065,0.920141,0.922242,0.933653,0.934645,0.935447,0.935712,0.936553,1.07387,0.964723,0.96635,0.96678,0.966975,0.974691,0.977151,0.980036,0.98004,0.982068,0.982062,0.990361,0.997213,0.996889,1.00284,1.00325,1.00467,1.008,1.00768,1.00732,1.00887,1.01048,1.01257,1.01851,1.01904,1.01921,1.02238,1.02583,1.02761,1.02897,1.03977,1.03993,1.04279,1.04984,1.05622,1.05978,1.06406,1.06652,1.06753,1.07323,1.07993,1.08787,1.09457,1.1023,1.1039,1.11231,1.11477,1.11976,1.12215,1.12869,1.13141,1.14192,1.14415,1.15063,1.1545,1.15763,1.16452,1.17038,1.17127,1.18075,1.18179,1.18624,1.18736,1.19093,1.1988,1.19926,1.20285,1.20584,1.21252,1.22053,1.22689,1.22733,1.23468,1.2371,1.25351,1.25654,1.25453,1.25502,1.25554,1.25983,1.26012,1.26298,1.26399,1.2818,1.29575,1.29866,1.30315,1.30458,1.31554,1.32303,1.32807,1.33293,1.33946,1.34136,1.34708,1.34721,1.35671,1.36449,1.37223,1.37545,1.37801,1.38173,1.38589,1.3885,1.39879,1.41263,1.41594,1.41676,1.43697,1.4339,1.43643,1.44379,1.44733,1.45133,1.45131,1.46078,1.46599,1.46768,1.46761,1.46817,1.56982,1.51465,1.51385,1.52808,1.54556,0.00365985,1.62369,1.58593,0.00436238,1.61071,1.62317,1.6218,1.71016,1.65144,1.65427,1.66314,1.66259,1.67194,1.68127,1.69184,1.68964,1.7068,1.71342,1.71105,1.71234,1.72409,1.73534,1.73725,1.83502,1.76408,1.76089,1.7586,1.78209,1.78053,1.7864,1.79376,1.79522,1.7997,1.80769,1.82549,1.82298,1.8336,1.83121,1.84707,1.84516,1.85955,1.86443,1.86378,1.86866,1.87738,1.87642,1.89068,1.88752,1.90545,1.92404,1.9193,1.92442,1.93054,1.93139,1.94099,1.94114,1.94147,0.00467242,1.93821,1.93817,1.93471,1.98952,2.32979,0.00425075,1.92693,2.31221,1.9346,1.93658,1.93775,1.94488,1.95176,1.93436,1.938,1.9413,1.93941,1.93863,1.94243,1.95138,1.95909,1.95844,1.97127,1.96264,1.96941,1.97681,1.98309,1.99321,2.00686,2.00393,2.00057,0.00456808,2.01491,2.00716,2.01336,0.00376197,0.00410226,0.00453625,2.03506,2.02879,2.04507,2.04824,2.04538,2.05662,2.0623,2.07408,2.07081,2.06639,2.08027,2.09023,2.09308,2.09176,2.08953,2.10076,2.09718,2.1141,2.11138,2.129,2.12564,2.12487,2.13229,2.14648,2.14477,0.00441057,2.16449,2.16396,2.1623,2.17167,2.17333,2.19841,2.20079,2.20674,2.20033,2.19992,2.19934,2.21089,2.21285,2.20582,2.20761,2.22235,2.22861,2.24465,2.24049
0.82709,0.83184,0.834178,0.834464,0.83554,1.07232,1.15271,0.86038,0.874724,0.878192,0.884275,0.886018,0.885598,0.894214,0.893985,0.894035,0.89468,0.89771,0.892216,0.891866,0.890193,0.890945,0.887795,0.900952,0.900787,0.912312,0.914814,0.916429,0.932426,0.93378,0.935422,0.931824,0.930406,0.929963,0.931833,0.933616,0.943796,0.953877,0.954666,0.960882,0.96786,0.971454,0.974131,0.974527,0.984194,0.986108,0.990913,0.993193,0.992622,0.99603,0.999459,0.999102,0.99433,0.995549,0.990542,0.99241,1.00828,1.00855,1.00822,1.01003,1.01018,1.01154,1.01563,1.01877,1.02411,1.02618,1.03869,1.04111,1.05131,1.05505,1.05816,1.06632,1.06723,1.06932,1.07196,1.08446,1.09054,1.09185,1.10148,1.10499,1.10966,1.11706,1.11943,1.12542,1.12938,1.13416,1.13946,1.14426,1.15304,1.15415,1.16195,1.1647,1.16773,1.1773,1.17621,1.17939,1.18376,1.18736,1.19085,1.19837,1.20375,1.21208,1.21283,1.21568,1.22189,1.22131,1.22414,1.22632,1.23467,1.24783,1.24808,1.24767,1.25086,1.25477,1.25065,1.27371,1.27307,1.27655,1.29088,1.2924,1.30173,1.30399,1.31561,1.31865,1.31881,1.3243,1.33001,1.34019,1.34686,1.35224,1.35671,1.35594,1.36638,1.36751,1.36835,1.37561,1.391,1.396,1.39927,1.40824,1.41224,1.4232,1.42237,1.43062,1.43253,1.44032,1.44461,1.44678,1.45603,1.46048,1.46924,1.46807,1.46523,1.49286,1.50984,1.52219,1.5417,1.54834,0.0109846,0.00450863,1.5891,1.59615,1.65216,0.0037467,1.63008,0.00440355,1.64052,1.64872,1.65918,1.6601,1.67873,1.67997,1.6867,1.68343,1.6998,1.69932,1.7068,1.71404,1.72019,1.72465,1.73141,0.00436391,1.75419,1.7623,1.76949,1.77785,1.78296,1.78519,1.78717,1.79478,1.79213,1.80056,1.8072,1.81763,1.82005,1.84464,1.84174,1.84473,1.85109,1.86129,1.85881,1.87233,1.86885,1.88885,1.88379,1.88191,1.89838,1.89515,1.90655,1.91722,1.92549,1.92221,1.93259,1.93017,1.93137,0.00455419,1.94112,2.22864,1.91437,1.91892,1.91564,2.33309,2.3339,1.92883,1.92154,0.00428328,1.91903,1.92688,1.92531,1.92405,1.9279,1.94047,1.93625,1.94186,1.94179,1.93258,1.94191,1.94636,1.94651,1.9609,1.95758,1.96338,1.96966,1.98015,1.99623,2.00746,2.00421,1.99341,1.98918,1.9995,2.00641,2.00258,2.00185,1.99677,2.01719,2.02382,2.02807,2.0236,2.05081,0.00442262,2.0598,2.05565,2.07614,2.07374,2.07598,2.07726,2.07535,2.08059,2.0879,2.09239,2.10462,2.1011,2.10046,2.1035,2.11029,2.11058,2.12169,2.12921,2.12746,2.14229,2.14066,2.14826,2.16337,2.16318,2.16193,2.17978,2.19255,2.19456,2.1911,2.18758,2.20329,2.19941,2.20215,2.20039,2.19669,2.20842,2.2211,0.0040646,2.23159,0.00399567
0.828788,0.832419,0.835865,0.835871,0.837882,0.842115,0.844179,0.860139,0.860868,0.872626,0.875881,0.877849,0.88052,0.88036,0.87975,0.883521,0.85956,0.863638,0.86577,0.866685,0.877842,0.881797,0.88745,0.889181,0.89151,0.899759,0.90169,0.991248,0.917268,0.918076,0.920331,0.925216,0.92621,0.929054,0.930351,0.930881,0.945887,0.947398,0.94578,0.944805,0.957092,0.961723,0.96945,0.972204,0.974629,0.97882,0.979564,0.981559,0.981893,0.983522,0.987021,0.991684,0.987782,0.987107,0.984433,0.983725,0.982171,0.99057,0.99303,0.994905,0.993947,0.998482,1.00101,1.00181,1.01988,1.02873,1.03434,1.03723,1.04025,1.04407,1.05281,1.05805,1.06348,1.06572,1.07423,1.07939,1.08434,1.09086,1.09437,1.09593,1.10766,1.11214,1.11535,1.11927,1.12328,1.13215,1.1345,1.14408,1.14664,1.15311,1.1583,1.15849,1.1614,1.1666,1.17301,1.17351,1.17959,1.18534,1.18778,1.19795,1.19942,1.20297,1.2067,1.20685,1.21383,1.21523,1.21819,1.21903,1.22072,1.31232,1.24345,1.24479,1.25602,1.25554,1.26179,1.272,1.275,1.28161,1.29312,1.29267,1.29572,1.30142,1.30848,1.3126,1.31316,1.32348,1.32513,1.34024,1.34332,1.34775,1.34871,1.34893,1.37341,1.3738,1.37629,1.38197,1.38096,1.38468,1.39004,1.39967,1.40607,1.41226,1.41724,1.42608,1.43329,1.44141,1.44072,1.44744,1.45315,1.45893,1.46681,1.77832,1.49543,1.51622,1.52617,1.53323,1.55358,1.5543,0.00412332,1.99009,1.99108,1.60555,0.00456253,1.62712,1.64374,1.6409,1.64845,1.64978,1.76776,1.67548,1.67993,1.67768,1.68171,1.69022,1.70215,1.69933,1.71217,1.71199,1.72037,1.72762,1.74203,1.74528,1.75849,1.75664,1.7655,1.77603,1.77534,1.78858,1.79074,1.78819,1.80635,1.80206,1.81842,1.81692,1.84476,1.84204,1.84751,1.84796,1.84623,1.85972,1.87233,1.87054,1.87644,1.87571,1.88003,1.88428,1.88177,1.88813,1.88883,1.91563,1.91599,1.92359,1.92586,2.21081,0.0110544,2.21608,2.30775,1.91374,1.89844,1.90044,1.89888,1.89507,1.905,1.90891,0.00447446,1.89914,1.90797,1.91317,1.91295,1.91517,1.91554,1.91369,1.91853,1.92314,1.92486,1.93072,1.94277,1.94415,1.94318,1.95245,1.9594,1.95663,1.96746,1.95785,1.9541,1.96564,0.00454759,1.99404,1.99018,1.98877,1.99165,1.98995,1.98992,2.00011,2.00165,2.0026,2.00862,2.02066,2.02061,2.0268,2.0276,2.03941,2.05442,2.05575,2.06885,2.06688,2.06931,2.07742,2.07307,2.07096,2.08626,2.08326,2.0995,2.09888,2.10118,2.10729,2.12524,2.13164,2.12818,2.12702,2.13204,2.13928,2.15291,2.15852,2.1546,2.15472,2.17542,2.17867,2.18108,2.1954,2.18304,2.17723,2.18821,2.18463,2.20657,2.20343,2.20086,2.21779,2.21873,2.21598
0.824789,0.827015,0.82954,0.834919,0.838668,0.840305,0.844287,0.850028,0.851581,0.864068,0.862542,0.869086,0.86963,0.863952,0.85363,0.852353,0.855437,0.857013,0.861491,0.864074,0.867213,0.870525,0.87449,0.879322,0.879688,0.881909,0.885265,0.904449,0.906315,0.90824,0.921547,0.924542,0.931704,0.935192,0.926642,0.927988,0.930432,0.939252,0.942258,0.940795,0.941824,0.938217,1.08049,0.950216,0.967315,0.969222,0.96872,0.969291,0.970365,0.973166,0.973416,0.969052,0.980513,0.981031,0.977015,0.97278,0.971441,0.967977,0.981165,0.986607,0.989775,0.995788,0.996601,1.00715,1.01826,1.02135,1.02323,1.03286,1.03779,1.04805,1.05186,1.05342,1.06142,1.06292,1.07057,1.07778,1.08014,1.08764,1.09026,1.09482,1.10249,1.107,1.11005,1.11544,1.11688,1.12855,1.13085,1.14355,1.14471,1.14851,1.15103,1.15665,1.1583,1.16457,1.1705,1.17265,1.17608,1.18539,1.19175,1.18882,1.19255,1.19608,1.19864,1.20586,1.20715,1.21039,1.21348,1.21893,1.21982,1.23579,1.23541,1.24723,1.2506,1.25744,1.26217,1.27582,1.27924,1.28672,1.28941,1.29134,1.29585,1.29456,1.30056,1.30875,1.3112,1.31889,1.32434,1.32765,1.33941,1.33868,1.3502,1.35647,1.36025,1.36779,1.36789,1.37174,1.38098,1.38242,1.39212,1.39631,1.40374,1.40974,1.41117,1.42005,1.42258,1.42803,1.43625,1.44152,1.44252,1.45134,1.45215,1.50388,1.51239,1.52806,1.54882,1.54609,1.68836,0.00423984,1.58191,1.58765,1.59408,1.61127,1.61998,1.61874,1.63788,1.63514,1.64534,1.65262,1.66347,1.66434,1.676,1.67833,1.68932,1.69115,1.70361,1.71056,1.71618,1.72067,0.00434657,1.74085,1.74048,1.75073,1.74882,1.76849,1.77102,1.78739,1.78654,1.78528,1.78633,0.00408122,1.8138,1.82064,1.81786,1.81601,1.83214,1.84006,1.83645,1.85169,1.84897,1.85219,1.87037,1.87336,1.87502,1.87458,1.87073,1.88546,1.88483,1.8907,1.89223,1.91656,1.8962,1.89999,1.89963,1.90073,1.88672,2.31122,1.87722,1.87583,1.89149,1.88841,1.8862,1.89342,1.89181,1.89071,1.88996,1.89206,1.89041,1.88966,1.90979,1.91156,1.9089,1.90809,1.9201,1.91687,1.92184,1.92865,1.93096,1.94314,1.94304,1.94839,1.95141,1.94754,1.94656,1.95581,1.9551,1.96609,1.96414,1.97406,1.97052,1.97566,1.98763,1.98645,1.9876,1.99102,1.99682,1.99738,2.00018,2.00386,2.01854,2.01775,2.01839,2.0451,2.04279,2.04042,2.05768,2.05681,2.05604,2.05398,2.07643,2.07859,2.07629,2.09417,2.0973,2.09327,2.09013,2.09654,2.11824,2.12103,2.12088,2.12083,2.12949,2.13723,2.13281,2.13832,2.13526,0.00444439,2.14105,2.15583,2.15436,0.0043019,2.17862,2.17645,2.17927,2.1746,2.20698,2.2022,2.20327,2.20199,2.21215,2.22582
0.817985,0.822109,0.826884,0.828795,0.821434,0.838689,1.0512,0.839041,0.838776,0.839325,0.854527,0.843092,0.838637,0.840463,0.842115,0.845505,0.848908,0.852729,0.854994,0.858504,0.862401,0.867372,0.867919,0.869592,0.867726,0.869502,0.876098,1.00236,0.902497,1.33591,0.983937,0.927927,0.929495,0.929398,0.924038,0.925075,0.925472,0.927913,0.928171,0.936463,0.936252,0.936996,0.939289,0.940621,0.954816,0.957531,0.964082,0.965531,0.963986,0.964,0.963885,0.962999,0.966223,0.966695,0.968565,0.969313,0.97002,0.973103,0.976813,0.987518,0.987424,0.994606,1.00001,1.00847,1.01219,1.01879,1.02082,1.02749,1.03804,1.04119,1.04639,1.05773,1.06063,1.0661,1.06756,1.0773,1.08313,1.08633,1.08984,1.09443,1.10161,1.109,1.11457,1.11676,1.11886,1.12499,1.12759,1.13062,1.1367,1.14679,1.15339,1.1539,1.15259,1.16038,1.16569,1.17602,1.17781,1.17681,1.17858,1.18252,1.18468,1.19185,1.19697,1.20106,1.20252,1.20679,1.20678,1.21,1.22875,1.22732,1.23227,1.24192,1.24299,1.25493,1.26081,1.2678,1.27529,1.28049,1.28802,1.28846,1.29297,1.29346,1.29506,1.30019,1.30977,1.31406,1.31587,1.31837,1.31935,1.3513,1.34973,1.35055,1.36006,1.36673,1.36914,1.37255,1.3783,1.3787,1.39188,1.39106,1.39242,1.40266,1.40971,1.41287,1.41237,1.42307,1.43013,1.43755,1.755,1.55871,1.49203,1.57292,1.64734,0.00474155,1.55019,1.55387,1.58309,1.58107,1.58341,1.5932,1.59323,1.71277,1.62177,1.61922,1.7383,1.64917,1.64754,1.65531,1.65857,1.6644,1.67902,1.67564,1.68813,1.69651,1.70663,1.71166,1.71659,1.71423,1.73253,1.73678,1.74749,1.7576,1.75947,1.76564,1.77904,1.77411,1.78572,1.7952,1.80012,1.80194,1.8061,1.81661,1.82423,1.82219,1.81857,1.83684,1.84464,1.84578,1.84601,1.85875,1.85499,1.86238,1.87734,1.87459,1.8736,1.87307,1.8795,1.87668,1.87867,1.87629,1.8722,1.87414,1.8738,1.8668,1.87535,1.87444,1.87349,1.87363,1.87632,1.87639,1.87824,1.87033,1.87668,1.88412,1.88679,1.88288,1.88941,1.89605,1.89673,1.89411,1.90397,1.90634,1.90352,1.91993,1.91675,1.91459,1.9309,1.93134,1.92999,1.94458,1.94024,1.93749,1.93883,1.94228,1.95142,1.94943,1.95526,1.97308,1.9698,1.96684,1.98275,1.97789,1.98624,1.97995,1.98086,1.98963,1.99622,1.99152,2.02385,2.0257,2.02079,2.02673,2.03129,2.04309,2.04576,2.05578,2.05642,2.05225,2.06866,2.0673,2.07802,2.0763,2.08643,2.09682,2.09633,2.10421,2.11217,2.11269,2.12138,2.11772,2.12196,2.11745,2.11162,2.13789,2.1343,2.13204,2.14309,2.14795,2.14819,2.15325,2.17893,2.18219,2.18033,2.17936,2.19022,2.19742,2.19775,2.19797,2.2083,2.20941
1.08814,1.07388,1.07455,1.05711,0.806773,0.809666,0.814425,0.824742,0.826808,0.818488,0.820323,0.827807,0.832406,0.83629,0.840397,0.845386,0.846846,0.85177,0.855102,0.857217,0.86096,0.863074,0.862558,0.869381,0.868374,0.87002,0.88019,0.884577,0.887746,0.898437,0.899792,0.914328,0.915878,0.918739,0.918278,0.917293,0.913242,0.915178,0.918613,0.91386,0.921777,0.93037,0.935058,0.935893,0.931763,0.93161,0.932543,0.940664,1.05466,0.934447,1.09671,0.952674,0.954695,0.958829,0.964433,0.968058,0.96618,0.97185,0.970196,0.972368,0.982471,0.990615,0.999973,1.00822,1.00899,1.01943,1.02105,1.02668,1.02938,1.03784,1.05283,1.05253,1.05762,1.06054,1.07317,1.07461,1.07888,1.08407,1.08656,1.09493,1.10532,1.11128,1.11161,1.1143,1.1189,1.11987,1.12431,1.12586,1.13541,1.1402,1.14493,1.14698,1.15478,1.16139,1.16387,1.16355,1.16519,1.17198,1.17379,1.17716,1.179,1.18775,1.18873,1.19814,1.20332,1.20404,1.21763,1.21924,1.21939,1.22883,1.22849,1.2316,1.24162,1.25087,1.25434,1.25845,1.26462,1.27678,1.27734,1.27908,1.28677,1.29063,1.29279,1.29892,1.30876,1.30001,1.30136,1.32381,1.33289,1.33629,1.33706,1.35332,1.35452,1.35669,1.36554,1.36681,1.37044,1.658,1.38204,1.3784,1.39097,1.39613,1.40348,1.41348,1.41428,1.42747,1.45457,1.46781,1.47584,1.54802,0.00488308,0.00468457,1.86687,2.02411,1.59081,1.59002,1.59284,1.57884,1.58899,1.58687,1.60098,1.60609,1.66391,1.63331,1.63438,0.00430544,1.65122,0.004198,1.66751,1.67125,1.68671,1.68454,1.69723,1.69518,1.70597,1.71665,1.71646,1.71432,1.73736,1.74418,1.74571,1.75589,1.76213,1.76507,1.77936,1.78085,1.78206,1.78874,1.80601,1.80132,1.80332,1.80566,1.81992,1.8207,1.821,1.8242,1.83619,1.83436,1.83636,0.00350752,1.85148,1.8509,1.98504,2.10687,1.86587,1.86276,1.86946,1.8631,1.85996,1.87034,1.8686,1.86573,1.86509,1.8586,1.86416,1.8611,1.85879,1.8594,1.85925,1.86496,1.86461,1.86542,1.86404,1.86815,1.86633,1.87104,1.88395,1.88089,1.89011,1.8881,1.89268,1.88989,1.89262,1.90965,1.9079,1.91671,1.92396,1.92588,1.93094,1.92841,1.92485,1.93221,1.94093,1.93769,1.94127,1.95431,1.94667,1.95635,1.95091,1.9594,1.96689,1.96406,1.97313,1.96979,1.98887,1.98646,1.99429,1.99299,1.99102,1.9933,2.00871,2.02084,2.02326,2.02005,2.03134,2.02924,2.04067,0.00414336,2.066,2.06827,2.06587,2.07841,2.09328,2.09235,2.09286,2.09696,2.10401,2.10328,2.10438,2.11042,2.11079,2.11803,2.1149,2.11169,2.1301,2.12876,2.14565,2.14406,2.14163,2.15791,2.15382,2.1687,2.18183,2.18192,2.18005,2.18331,2.18046,2.17596,2.19449,2.20471
0.781562,0.785397,0.784272,0.790296,0.797256,0.799278,0.801788,0.812141,0.813438,0.816788,0.817552,0.822374,0.825557,0.82901,0.834883,0.836192,0.847624,0.848979,0.85665,0.855026,0.85645,0.859921,0.866456,0.866843,0.869507,0.87026,0.883566,0.886934,0.894426,0.898407,0.899074,0.899388,0.901433,0.902983,0.903661,0.904481,0.900358,0.901091,0.902827,0.904301,0.906995,0.910017,0.918646,0.919781,0.912726,0.911045,0.911507,0.916294,0.918781,0.922702,0.924484,0.93866,0.943243,0.945539,0.956938,0.958081,0.95598,0.955981,0.957306,0.960678,0.964504,0.967184,1.1108,0.992841,1.00607,1.01082,1.01855,1.03192,1.03388,1.0423,1.04565,1.05013,1.05437,1.06212,1.06667,1.07265,1.07572,1.08315,1.08761,1.09655,1.10288,1.10658,1.10918,1.1144,1.11728,1.1216,1.12374,1.12485,1.13194,1.13876,1.13923,1.14899,1.15023,1.15462,1.15554,1.16019,1.1636,1.16314,1.16645,1.17063,1.17512,1.18703,1.18609,1.18599,1.18876,1.20224,1.20804,1.21072,1.22209,1.22163,1.22295,1.23239,1.23581,1.24705,1.25076,1.26287,1.27107,1.27232,1.27274,1.28119,1.29008,1.29121,1.28926,1.29097,1.31297,1.3131,1.31613,1.32006,1.33614,1.33686,1.33786,1.34985,1.35551,1.35817,1.36166,1.3682,1.35571,1.3565,1.35776,1.38288,1.38822,1.39512,1.4025,1.65489,1.42124,1.43106,1.46746,1.47038,1.49262,1.49169,0.00374793,1.52166,1.54142,1.54277,1.61838,1.58243,1.58731,1.58416,1.58238,1.58943,0.00417097,1.60744,1.61413,1.69596,1.64102,1.64837,1.66289,1.66214,1.66128,1.78132,1.68911,1.68601,1.69285,1.70403,1.71253,1.71109,1.71372,1.72359,1.7336,1.75169,1.74918,1.76159,1.76271,1.77206,1.77259,1.78332,1.78164,1.77973,1.79418,1.79915,1.80191,1.80485,1.80976,1.81733,1.82088,1.82127,1.81944,1.95193,1.95626,1.95467,1.83381,1.83978,1.83953,1.84642,1.84437,1.86345,1.8555,1.85478,1.84091,1.84173,0.00378923,1.83137,1.84082,1.82356,1.82955,1.84151,1.84853,1.84869,1.84643,1.85476,1.85627,1.85856,1.85602,1.85425,1.86512,1.85915,1.86397,0.00368338,1.87675,1.87913,1.88969,1.8864,1.89152,1.88554,1.90125,1.90177,1.90174,1.90787,1.90926,1.91677,1.92394,1.91987,1.92533,1.92555,1.93262,1.93515,1.94107,1.94093,1.95014,1.95777,1.9656,1.96306,1.97133,1.96981,1.96658,1.98554,1.99449,1.99524,1.9922,2.00354,2.00924,2.01031,2.01103,2.0255,2.02993,2.02866,0.00404154,2.04793,2.05726,2.05568,2.06715,2.07375,2.08385,2.08206,2.09422,2.09298,2.09793,2.09716,2.10007,2.09677,2.11114,2.10867,2.11564,2.1133,2.13514,2.13471,2.13433,2.13603,2.134,2.13427,2.13205,2.15284,2.16788,2.18153,2.17702,2.17412,2.17774,2.17941,2.1815,2.18833
0.761176,0.761254,0.762008,0.766761,0.769396,0.769951,0.781141,0.794026,0.794787,0.812423,0.81287,0.814654,0.821518,0.828121,0.829635,0.838385,0.840809,0.843995,0.847331,0.849288,0.852534,0.855166,0.863453,0.86496,0.866468,0.869424,0.870959,0.878596,0.880164,0.890339,0.890915,0.891371,0.890509,0.886475,0.894901,0.897285,0.893002,0.892991,0.894751,0.896029,0.899498,0.900871,0.90073,0.90264,0.899145,0.90079,0.902367,0.903726,0.90398,0.918646,0.932868,0.933131,0.935071,0.940575,0.945532,0.946834,0.949142,0.952077,0.955235,0.960991,0.968868,0.971719,0.995147,1.00167,1.00549,1.00848,1.01065,1.02572,1.04066,1.04355,1.04945,1.05456,1.05713,1.06538,1.06886,1.0685,1.07567,1.08072,1.08668,1.08992,1.10267,1.108,1.11126,1.11506,1.11524,1.12211,1.12514,1.12612,1.13338,1.13384,1.13912,1.1383,1.13949,1.14481,1.14735,1.14812,1.15659,1.16343,1.16478,1.16528,1.17123,1.17774,1.17699,1.18891,1.19082,1.1949,1.19815,1.20512,1.21008,1.21727,1.22141,1.23077,1.23474,1.24015,1.24686,1.25914,1.27139,1.27142,1.27164,1.27774,1.28959,1.28838,1.30392,1.30761,1.31354,1.31181,1.31984,1.32204,1.32363,1.32995,1.33423,1.34443,1.34871,1.36071,1.35965,1.37188,1.37428,1.37653,1.37799,1.3848,1.39171,1.402,1.40252,0.00389522,1.44599,1.52565,1.52492,0.00357766,1.54268,0.0045152,1.51942,0.00419465,1.55017,1.5488,1.56374,1.56427,1.56886,1.58523,1.58523,1.70396,1.60384,1.68851,1.62949,1.62708,1.63734,1.75209,1.75747,0.00364785,1.66638,1.67164,1.6881,1.68911,1.69503,0.00371221,1.71185,1.71619,1.72135,0.00395242,1.7381,1.74999,1.7527,1.7531,1.75868,1.76976,1.7769,1.77483,1.77558,1.77853,1.7918,1.79231,1.79364,1.79484,1.7985,1.80354,1.80064,1.80624,1.80782,1.80747,1.81954,1.81685,1.87388,1.87204,1.82802,0.00406471,2.21201,1.82759,1.82694,0.00420004,1.83733,1.8211,1.82041,1.8185,1.82965,1.82648,1.8231,1.83256,1.8293,1.83141,1.84388,1.84773,1.84552,1.84768,1.84161,1.83986,1.84244,1.86158,1.85907,1.86117,1.86529,1.87082,1.87834,1.88661,1.88354,1.88487,1.88558,1.88974,1.90327,1.8975,1.9034,1.90864,1.91699,1.92081,1.9173,1.91439,1.92039,1.91607,1.9276,1.93253,1.95021,1.94829,1.94216,1.94872,1.9625,1.97233,1.96819,1.96572,1.96163,1.98052,1.97867,0.00408621,1.98735,1.98692,1.99939,2.00379,2.01061,0.00413855,2.03044,2.02778,2.03564,0.00394598,2.03166,0.00425065,2.06446,0.00349661,2.08097,2.08255,2.08077,2.09763,2.09485,2.10036,2.10345,2.10796,2.11124,2.12375,2.11882,2.11386,2.1187,2.13491,2.13076,2.12722,2.13758,2.14126,0.00410866,2.15107,2.14456,2.16693,2.16496,2.1759,2.17122,2.18328
0.757297,0.758169,0.760789,0.76691,0.767898,0.779857,0.780921,0.787308,0.793908,0.795291,0.799817,0.800794,0.819859,0.820846,0.823178,0.823312,0.839503,0.841701,0.844789,0.847793,0.850269,0.853501,0.860768,0.861804,0.861862,0.862947,0.87088,0.880671,0.881622,0.887182,0.886712,0.882775,0.879873,0.875727,0.879466,0.878882,0.884985,0.884986,0.89364,0.89156,0.891073,0.892606,0.894016,0.894373,0.89421,0.89838,0.900312,0.902548,0.909559,0.91664,0.926668,0.931237,0.934507,0.939549,0.941584,0.949301,0.951521,0.954101,0.960288,0.971683,0.980452,0.983101,1.00476,1.00583,1.00646,1.0195,1.02144,1.02608,1.0321,1.03336,1.04365,1.05015,1.05444,1.05992,1.06261,1.06748,1.07073,1.07633,1.08076,1.0897,1.09172,1.09426,1.10429,1.10618,1.10702,1.11611,1.11803,1.12366,1.1292,1.12891,1.13117,1.13367,1.13421,1.13721,1.1447,1.14688,1.1496,1.16102,1.16152,1.16089,1.16297,1.17815,1.17663,1.17957,1.19122,1.20115,1.19996,1.20245,1.20626,1.21581,1.21634,1.22967,1.23375,1.23962,1.23861,1.24834,1.26497,1.26377,1.26424,1.26253,1.28336,1.2894,1.29522,1.29637,1.30976,1.32112,1.32164,1.31797,1.32518,1.32712,1.3448,1.34348,1.34556,1.35093,1.36356,1.36471,1.36388,1.37176,1.38017,1.38034,1.39653,1.49106,0.00397325,1.44441,0.00371061,1.96132,1.49457,1.49471,0.00439069,1.52719,1.5255,1.5261,1.54088,1.69906,1.55861,1.56805,0.00438666,1.58866,1.59778,1.59548,1.59236,1.61647,1.63142,1.62824,1.62635,1.74452,1.65093,1.6614,1.67507,1.68223,1.68777,1.68526,1.69949,1.70593,1.72,1.72128,1.73344,1.73429,1.73314,1.73841,1.75178,1.7553,1.75403,1.75802,1.77052,1.77382,1.7759,1.77932,1.77728,1.77682,1.78316,1.78695,1.7892,1.79304,1.78998,1.8016,1.80101,1.80286,1.81371,1.81102,0.00462209,0.00472069,0.00395522,1.8174,1.81451,0.00379814,1.8032,1.8117,1.81143,1.80756,1.8137,1.81368,1.81668,1.81548,1.81817,1.8185,1.82066,1.82879,1.82743,1.82839,1.82828,1.8319,1.82979,1.84052,1.83851,1.85075,1.85055,1.85122,1.84826,1.86841,1.87273,1.87828,1.87504,1.8692,1.88534,1.88261,1.88947,1.88387,1.89126,1.88754,1.89613,1.90983,1.90683,1.91338,1.92103,1.92256,1.9304,1.92696,1.93516,1.94286,1.94096,1.95183,1.94897,1.95852,1.95725,1.96627,1.96484,1.98088,1.97806,1.97362,1.99267,1.99425,1.99386,2.00303,2.00057,2.00994,2.01863,2.01305,2.01908,2.03403,2.03498,0.044584,2.05713,2.05995,2.06605,2.08234,2.07932,2.08344,2.0851,2.09237,2.09921,2.10336,2.10327,2.10619,2.10412,2.11172,2.11771,2.12035,2.11345,2.11702,2.13818,2.12284,2.13098,2.14833,2.14487,2.15316,2.15627,2.15428,2.15021,2.18064
0.74336,0.753568,0.755757,0.754217,0.766526,0.763141,0.783093,0.783402,0.784148,0.796628,0.799193,0.800542,0.803469,0.802566,0.813308,0.817857,0.82476,0.832683,0.834913,0.839819,0.844286,0.846181,0.85757,0.862405,0.862963,0.867913,0.869003,0.870279,0.871691,0.874423,0.876281,0.869848,0.871672,0.871249,0.871554,0.875166,0.877613,0.880662,0.88343,0.885347,0.88698,0.888591,0.890529,0.889792,0.893505,0.895529,0.90543,0.90984,0.922369,0.929429,0.932701,0.939837,0.942711,0.944648,0.94951,0.951813,0.96048,0.967143,0.973171,0.974745,0.985807,0.997835,0.999478,1.01141,1.02263,1.02206,1.02356,1.02514,1.03291,1.03846,1.04631,1.04959,1.05295,1.05516,1.05792,1.05995,1.07002,1.07327,1.07858,1.08785,1.08914,1.09655,1.09778,1.10141,1.10934,1.11163,1.11786,1.11495,1.11767,1.12021,1.11936,1.1236,1.12786,1.12777,1.13403,1.13605,1.14885,1.1493,1.14974,1.1587,1.16225,1.16686,1.17365,1.17785,1.18508,1.19076,1.19463,1.20031,1.20628,1.21161,1.21348,1.2195,1.22614,1.23871,1.24355,1.24681,1.24177,1.24197,1.26737,1.27745,1.27754,1.28891,1.29372,1.29466,1.4168,1.30966,1.33076,1.33006,1.33252,1.33672,1.33672,1.33703,1.34,1.34999,1.34474,1.35337,1.35382,1.36853,1.37771,1.44238,1.60672,1.60615,1.87353,1.87381,1.55839,1.55634,1.49354,1.49862,1.51115,1.5224,1.51927,1.53487,1.54623,1.55399,1.68991,1.56771,0.00435576,0.0041574,1.60533,1.60654,1.60665,1.61729,1.61678,1.63529,1.63457,1.65005,1.64779,0.00417932,1.67223,1.68302,1.69198,1.69198,1.69962,1.71019,1.72072,1.72727,1.73073,1.73089,1.7341,1.7322,1.74142,1.7383,1.75311,1.76181,1.76342,1.76257,1.76595,1.76513,1.77171,1.77111,1.76911,1.77777,1.77723,1.78523,1.78903,1.79184,1.7903,1.78702,0.003777,0.00435868,1.78361,1.79858,1.79889,1.78618,1.79236,1.78994,1.79615,1.79585,1.79918,1.80328,1.80267,1.80305,1.8091,1.80844,1.80738,1.8115,1.80986,1.81148,1.81486,1.81191,1.82361,1.82504,1.83016,1.82906,1.83394,1.83098,1.84611,1.84412,1.8508,1.8485,1.85795,1.85935,1.86065,1.87133,1.87062,1.8761,1.87954,1.87917,1.88573,1.89195,1.90008,1.90741,1.90881,1.9091,1.91784,1.91601,1.92385,1.92743,1.924,1.92845,1.93415,1.94003,1.94829,1.94405,1.96156,1.97724,1.97577,1.9725,1.97515,1.96945,1.97975,1.98432,1.99066,1.99631,1.99639,2.01199,2.01095,2.01127,2.00818,2.01647,2.02039,2.04638,2.04458,2.05796,2.0644,2.06598,2.07913,2.07909,2.07711,2.07726,2.07443,0.0042546,2.09884,2.09637,2.10627,2.11496,2.11853,2.11564,2.11138,2.10797,2.11389,2.11078,2.12128,2.12277,2.14758,2.14592,2.14745,2.1455,2.14467,2.17626
0.741791,0.743514,0.744484,0.747313,0.759198,0.759806,0.780421,0.783675,0.786823,0.791229,0.794437,0.798227,0.799251,0.803982,0.811655,0.813622,0.821556,0.824962,0.828379,0.826197,0.832706,0.84494,0.848466,0.855862,0.864069,0.864426,0.866919,0.870473,0.871261,0.878394,0.882786,0.887488,0.888448,0.883781,0.873448,0.877254,0.877138,0.881198,0.886468,0.887239,0.890574,0.896973,0.894203,0.900707,0.907457,0.917735,0.918521,0.925132,0.93073,0.933163,0.939486,0.942017,0.946922,0.948969,0.950923,0.959703,0.961041,0.970699,0.979497,0.983391,0.984402,0.999189,1.00198,1.01605,1.02372,1.02438,1.02701,1.02952,1.03572,1.04084,1.04284,1.0456,1.04789,1.05181,1.05534,1.05868,1.0635,1.06779,1.07822,1.08048,1.08691,1.08813,1.09763,1.10113,1.10524,1.10549,1.10785,1.11133,1.112,1.11648,1.11615,1.1167,1.1236,1.12365,1.12174,1.13091,1.15418,1.152,1.15024,1.15679,1.1602,1.16596,1.17368,1.17504,1.18093,1.18954,1.19217,1.19496,1.20345,1.2078,1.21031,1.22032,1.23398,1.23476,1.23279,1.23428,1.25271,1.25666,1.26158,1.27156,1.27223,1.27956,1.29035,1.29157,1.29423,1.32537,1.33071,1.32112,1.32423,1.32342,1.32356,1.32593,1.33149,1.33707,1.34427,1.35346,1.35851,1.38744,1.38738,1.50961,0.00436513,1.4518,1.45938,1.46055,1.63706,1.4879,0.00420765,1.55624,1.51355,1.51839,1.52611,1.64598,1.54485,1.67952,0.00388475,1.63819,1.58259,1.63563,1.60275,1.60228,1.60643,1.61503,0.00414587,1.64105,1.63858,1.64792,1.65479,1.66931,1.67512,1.68396,1.69305,1.70103,1.70541,1.7054,1.71786,1.71693,1.73002,1.73204,1.73275,1.74174,1.73732,1.73583,1.73867,1.96701,1.74877,1.74865,2.01563,1.75982,1.76531,1.76995,1.76709,1.7633,2.04955,1.77573,1.77632,1.7606,0.00424551,1.77078,0.00388858,1.77574,1.77334,1.76913,1.77731,1.77297,1.77582,1.77952,1.78633,1.78653,1.78603,1.79032,1.79305,1.79135,1.80018,1.80807,1.80592,1.80277,1.80355,1.81212,1.80983,1.81086,1.81574,1.81649,1.81715,1.81688,1.82868,1.82895,1.8368,1.83208,1.85361,1.84921,1.84862,1.84894,1.85654,1.86151,1.85816,1.86631,1.87429,1.88175,1.88952,1.88592,1.88646,1.89783,1.89409,1.90178,1.9081,1.9135,1.90703,1.91011,1.92409,1.92056,1.93283,1.92993,1.94772,1.94472,1.96167,1.96325,1.96404,1.95854,1.96558,1.97368,1.97039,1.98658,1.99218,1.99783,1.99543,2.00332,2.00793,2.01065,2.01086,2.01591,2.02399,2.02557,2.04212,2.03831,2.0394,2.04931,2.05663,2.05629,2.05497,2.06184,2.06708,2.07878,2.07706,2.09017,2.09731,2.10716,0.00408616,2.11155,2.11294,2.10928,2.10968,2.10834,2.10003,2.1086,0.00419476,2.13784,2.13657,2.14527,2.15351,2.15095
0.73521,0.736598,0.741928,0.744484,0.749887,0.75304,0.755539,0.7729,0.783797,0.784181,0.788805,0.794427,0.796979,0.798801,0.807305,0.804069,0.815682,0.817107,0.820696,0.82198,0.830855,0.832229,0.840424,0.842757,0.849354,0.845849,0.856625,0.856481,0.864241,0.87047,0.871943,0.871744,0.881724,0.881013,0.880673,0.883767,0.885317,0.897063,0.899187,0.900628,0.901168,0.901215,0.904794,0.90524,0.913379,0.916496,0.918898,0.931499,0.933078,0.942366,0.94567,0.947712,0.947193,0.953271,0.958177,0.965016,0.966595,0.972348,0.975416,0.986677,0.99118,0.995483,1.00511,1.01677,1.02025,1.02865,1.02761,1.02887,1.03249,1.03808,1.03881,1.04358,1.04759,1.04782,1.04944,1.05377,1.06001,1.06486,1.0688,1.08033,1.0844,1.08621,1.09104,1.0944,1.09777,1.10018,1.10209,1.10849,1.11012,1.11331,1.1154,1.11897,1.13128,1.13104,1.12841,1.13502,1.14266,1.14875,1.15195,1.15683,1.1624,1.16721,1.17709,1.17714,1.18465,1.19124,1.19314,1.19727,1.20151,1.2226,1.22262,1.2286,1.22854,1.24021,1.23982,1.24117,1.25394,1.253,1.25994,1.2636,1.26984,1.37083,1.37491,1.29928,1.31456,1.31536,1.30533,1.30629,1.31173,1.30913,1.32309,1.32799,1.33668,1.33732,1.35145,1.35218,1.36968,1.57864,1.54488,1.43443,1.43334,1.55056,1.55096,1.4724,1.5626,1.49018,1.58026,1.55709,1.52369,1.52407,1.53144,1.53472,1.54654,0.00400075,1.56633,1.58645,1.58507,1.59552,1.60376,1.60942,1.60838,1.61372,1.68395,1.64483,1.64586,1.64531,1.66358,1.67559,1.67293,1.68855,1.68808,1.69897,1.70657,1.70835,1.71237,1.71216,1.71585,1.71383,1.73114,1.72982,1.92415,1.73222,1.73127,1.73423,1.90974,1.74826,1.74803,1.75415,1.7519,1.75926,1.7589,1.75922,1.75236,1.74842,1.74579,1.75545,1.75286,1.74947,1.76145,1.75736,1.74972,1.75136,1.7642,1.76283,1.76868,1.77161,1.77375,1.77473,1.78195,1.78,1.78822,1.7866,1.79313,1.79363,1.79244,1.79218,1.80011,1.80397,1.80098,1.79725,1.79855,1.8032,1.8124,1.80962,1.80997,1.81168,1.81087,1.82469,1.83112,1.83847,1.83708,1.84245,1.8513,1.84954,1.86334,1.86906,1.87047,1.87637,1.87769,1.87654,1.87356,1.89216,1.89897,1.89592,1.89339,1.90351,1.90692,1.90666,1.91647,1.92821,1.93435,1.93147,1.93761,1.93553,1.94311,1.95751,1.96524,1.96006,1.96021,1.96019,1.97376,1.98041,1.99251,1.99338,1.98922,1.99802,1.99646,2.00129,2.01418,2.02562,2.02138,2.02239,2.0238,2.03846,2.04489,2.04196,2.04857,2.04827,2.054,2.06549,2.06287,0.00422146,2.07895,0.00402988,2.07968,2.07449,2.06998,2.09764,2.09519,2.08698,2.08956,2.10554,2.1042,2.10253,2.12297,2.12161,2.12552,0.00387524,2.15504,2.16382
0.721956,0.733382,0.737638,0.744901,0.749265,0.75403,0.759702,0.765477,0.764972,0.776807,0.776387,0.787108,0.790509,0.793903,0.799817,0.80071,0.802359,0.807139,0.809541,0.814488,0.81597,0.826496,0.830469,0.832691,0.835486,0.841069,0.845379,0.846472,0.8537,0.867982,0.868608,0.873391,0.872576,0.876739,0.8833,0.883567,0.885296,0.890461,0.889018,0.893044,0.897669,0.899111,0.903657,0.904475,0.911307,0.917002,0.92207,0.930986,0.936065,0.944883,0.947358,0.947989,0.960067,0.967512,0.975702,0.975299,0.975542,0.97995,0.982319,0.99309,0.994824,1.00738,1.0099,1.0166,1.01872,1.02288,1.02738,1.02764,1.0305,1.03446,1.03832,1.04096,1.04263,1.04612,1.05133,1.05285,1.05951,1.06153,1.06844,1.07254,1.07476,1.07886,1.08409,1.08491,1.09173,1.09403,1.09825,1.09661,1.10898,1.11532,1.12792,1.12825,1.12496,1.12649,1.12751,1.13046,1.1421,1.14662,1.15225,1.15747,1.15891,1.16621,1.16865,1.17781,1.19156,1.19166,1.19307,1.20252,1.20383,1.2224,1.22731,1.23284,1.22781,1.22999,1.23721,1.24565,1.25109,1.25686,1.25959,1.26151,1.26805,1.27812,1.28631,1.28684,1.28024,1.27956,1.28143,1.30933,1.30814,1.31501,1.32598,1.3331,1.33409,1.35073,1.35409,1.66585,0.00385813,1.46758,1.46613,1.42658,1.54446,1.45705,1.456,1.84279,1.82839,1.49172,1.49835,1.63779,1.52687,1.52994,1.52998,1.54383,1.55018,1.55891,1.57182,1.56898,1.57833,1.59396,1.60299,1.61301,1.61186,0.00449129,1.64017,1.63824,1.65461,1.6568,1.66147,1.66373,1.68269,1.67871,1.68328,1.69696,1.69466,1.70276,1.70129,1.70086,1.71289,1.71507,1.71388,1.71329,1.72411,1.72307,1.98349,1.72308,1.7315,1.73303,1.73451,1.73562,1.74111,1.75116,0.00386771,1.80328,1.72253,1.73723,1.73498,1.73464,1.73474,1.73488,1.73769,1.74125,1.75016,1.75002,1.74698,1.7589,1.7598,1.7649,1.76219,1.76773,1.77503,1.77835,1.77992,1.7899,1.78502,1.78184,1.7813,1.79149,1.78831,1.78819,1.79823,1.79728,1.79955,1.80177,1.80711,1.81268,1.80631,1.80621,1.80505,1.80046,1.80726,1.82388,1.84024,1.83774,1.83749,1.84867,1.84655,1.85208,0.00343784,1.87587,1.8733,1.88041,1.88481,1.88862,1.88526,1.88944,1.89439,1.89701,1.89832,1.91097,1.91803,1.91802,1.91408,1.91236,1.92857,1.92768,1.93043,1.93823,1.94046,1.95778,1.95907,1.96271,1.963,1.97256,0.00440755,1.98981,1.99729,1.99082,1.99604,2.00017,1.98867,2.0103,2.01257,2.02141,2.0219,2.02155,2.02362,2.02631,2.03871,2.03859,0.0037424,2.04913,0.00369041,2.06007,2.06108,2.07297,2.06817,2.06321,2.0763,2.0633,2.07518,2.08162,2.08427,2.09268,2.09105,2.09267,2.11058,2.10573,0.00448062,2.13481,0.00446577,2.16203
0.721449,0.721505,0.728464,0.738043,0.745154,0.751475,0.759865,0.762974,0.764046,0.766169,0.776818,0.783211,0.785874,0.78749,0.794041,0.791067,0.79507,0.797264,0.797922,0.807058,0.809055,0.819793,0.820295,0.828506,0.836085,0.839449,0.84238,0.842749,0.852307,0.857553,0.862707,0.873579,0.874376,0.877697,0.879419,0.882493,0.883211,0.884,0.886895,0.891265,0.89303,0.900594,0.903516,0.903811,0.907652,0.917053,0.924402,0.926173,0.937233,0.941872,0.944584,0.953391,0.960657,0.964707,0.966714,0.974787,0.978998,0.984604,0.986729,0.99328,0.997895,1.00434,1.00703,1.01313,1.01678,1.02151,1.02611,1.02875,1.02968,1.03419,1.03547,1.03874,1.03876,1.04111,1.0479,1.05524,1.05709,1.06356,1.0634,1.06708,1.06869,1.07057,1.07781,1.07909,1.08428,1.08397,1.08858,1.09168,1.09281,1.12638,1.12509,1.124,1.12582,1.12627,1.12879,1.13709,1.14615,1.14627,1.15295,1.15317,1.15484,1.16285,1.16798,1.17504,1.34713,1.20143,1.20621,1.20645,1.21812,1.21915,1.22023,1.22199,1.22589,1.22904,1.23584,1.24232,1.24643,1.24814,1.25896,1.26058,1.26409,1.27958,1.27914,1.27877,1.28389,1.28505,1.30511,1.3101,1.30971,1.31208,1.33424,1.34019,1.44782,1.36813,1.3738,1.38979,1.45288,1.46347,1.53623,1.44173,1.44126,0.00420739,1.45868,1.47604,1.47674,1.4895,0.00395051,0.00426855,1.52606,1.53281,1.53173,1.53976,1.55208,1.55201,1.57574,1.57313,1.57953,0.00388864,1.60436,1.61981,1.61907,1.62736,1.6316,1.63772,1.64429,1.65284,1.6506,1.6643,1.66307,1.71477,1.67702,1.68512,1.69255,1.69206,1.69115,1.68957,1.83614,1.69976,1.70334,1.70793,1.70556,1.96841,1.71329,1.71302,1.71738,0.003453,1.84293,1.71708,1.71406,0.00378998,1.7182,1.7237,1.72097,1.718,1.71971,1.72439,1.72218,1.71785,1.72437,1.72136,1.73142,1.73795,1.73925,1.75008,1.74822,1.75067,1.75841,1.76482,1.7624,1.77899,1.77857,1.77293,1.7693,1.77576,1.77972,1.78137,1.78264,1.78614,1.78359,1.78696,1.793,1.78993,1.79742,1.7997,1.79841,1.80376,1.80168,1.80197,1.81751,1.82231,1.82767,1.82697,1.82352,1.84155,1.84059,1.85826,1.85961,1.85718,1.85519,1.87158,1.87057,1.88243,1.88632,1.89052,1.88922,1.89922,1.89618,1.90346,1.91377,1.91192,1.90912,1.91526,1.91303,1.91439,1.92847,1.94406,1.94116,1.93924,1.95856,1.96193,1.96111,1.958,1.95846,1.97202,1.97168,0.00426275,1.99049,1.98667,1.98537,1.98615,1.99774,1.9967,1.99658,2.00625,2.0168,2.01417,2.02451,2.02452,2.02501,2.03469,2.04181,2.04146,2.05195,2.0558,2.0556,2.06289,2.06195,2.06149,2.07976,2.07776,2.08813,2.0865,2.09622,2.09454,2.08952,2.11402,0.00439073,2.13826,2.13501,2.13956
0.714248,0.724107,0.727004,0.728069,0.742819,0.743073,0.752768,0.76059,0.761304,0.763648,0.770157,0.771861,0.775242,0.781041,0.783056,0.784489,0.788639,0.792297,0.793497,0.806255,0.811,0.813229,0.825319,0.826448,0.82815,0.836238,0.842614,0.847444,0.849187,0.856651,0.863613,0.865019,0.86974,0.869766,0.870423,0.871465,0.88042,0.885328,0.89075,0.898172,0.902918,0.904852,0.908691,0.915518,0.922757,0.923815,0.927037,0.928776,0.936349,0.942818,0.946437,0.948707,0.951154,0.964146,0.969574,0.9763,0.984424,0.986711,0.991097,0.99601,0.998761,1.0019,1.00853,1.01034,1.01087,1.01332,1.01633,1.02258,1.02888,1.02953,1.03302,1.03408,1.03573,1.03666,1.04608,1.05248,1.05734,1.05838,1.06109,1.0629,1.06702,1.07468,1.07513,1.07682,1.0688,1.1258,1.07961,1.09264,1.25828,1.11084,1.11305,1.11731,1.12,1.12609,1.13535,1.14277,1.14359,1.14699,1.14975,1.15249,1.15899,1.1663,0.00404248,1.19192,1.19999,1.20125,1.2016,1.21238,1.21283,1.21568,1.22177,1.21863,1.22572,1.23262,1.23344,1.23961,1.245,1.24871,1.25277,1.25347,1.26257,1.26363,1.26928,1.27273,1.27981,1.29672,1.29906,1.30928,1.31853,1.3243,1.33557,1.34423,0.0039223,1.37531,1.38517,1.44286,1.4102,1.41925,1.42657,1.43444,0.00425376,1.45852,1.5383,1.47119,1.55752,1.55883,1.50867,1.51228,1.52728,1.531,1.53204,1.53954,1.55153,1.56247,1.5685,1.5793,1.58721,1.60437,1.60357,1.61999,1.61986,1.6264,1.633,1.63408,1.64454,1.67464,1.65101,1.68786,1.68735,1.70201,1.70018,1.6744,1.8699,1.68088,1.6782,1.90651,1.83788,1.83012,1.84594,1.84423,1.82165,1.69635,1.69829,1.7058,0.00426742,0.0042154,1.69272,1.68968,1.69769,1.69973,1.70703,1.70541,1.70547,1.70964,1.71693,1.7186,1.7176,1.71779,1.71788,1.71816,1.72373,1.72301,1.73367,1.73806,1.74022,1.81167,1.75389,1.75366,1.74924,1.74632,1.75359,1.75146,1.77268,1.76791,1.76701,1.77661,1.77627,1.77646,1.78529,1.78312,1.77995,1.78682,1.78653,1.80006,1.80668,1.80368,1.80722,1.79983,1.80616,1.81245,1.82019,1.82874,1.82819,1.84245,1.8442,1.8443,1.84075,1.85195,1.85584,1.8661,1.87321,1.8727,1.87948,1.88236,1.88998,1.89296,1.89004,1.89426,1.89742,1.89991,1.89781,1.90383,1.90515,1.92062,1.92803,1.93412,1.93507,1.94753,1.94633,1.95403,1.95724,1.95529,1.9606,1.9617,1.96421,1.96062,1.97717,1.97327,1.97978,1.99039,1.99019,1.99786,1.99804,2.00728,2.01659,2.01024,2.01793,2.02179,2.01895,2.01811,2.03804,2.04376,2.04785,2.05132,2.05503,2.05159,2.06231,2.06949,2.06783,2.08433,2.0903,2.08816,2.09744,2.0946,2.09031,2.10826,2.12217,2.13788,2.13594,2.13921
0.711523,0.711514,0.711137,0.727406,0.728694,0.740199,0.740551,0.750153,0.75456,0.758378,0.766067,0.76867,0.768636,0.775136,0.775073,0.778802,0.782767,0.791617,0.792812,0.798434,0.804349,0.810219,0.811984,0.822381,0.830022,0.834107,0.835462,0.856209,0.857986,0.857495,0.857177,0.862655,0.862344,0.86419,0.871149,0.874242,0.877349,0.882868,0.884751,0.885808,0.90167,0.906269,0.911139,0.91861,0.921154,0.922896,0.923747,0.926786,0.935975,0.939628,0.945694,0.949513,0.955251,0.962414,0.964822,0.975671,0.98217,0.988874,0.991612,0.994784,0.995688,0.998799,1.01043,1.01167,1.01108,1.01302,1.01287,1.01706,1.02407,1.02676,1.02783,1.02871,1.0334,1.0362,1.04242,1.04604,1.05102,1.05599,1.05766,1.06123,1.06439,1.07184,1.07342,1.07328,1.08999,1.0911,1.10196,1.09523,1.09606,1.10081,1.1125,1.11592,1.11902,1.12631,1.13411,1.13527,1.13761,1.14751,1.15045,1.15669,1.1736,1.17682,1.18242,1.18765,1.19654,1.19924,1.20031,1.21688,1.21419,1.20959,1.21062,1.21446,1.21507,1.22271,1.33748,1.24957,1.25082,1.24735,1.24946,1.25089,1.25682,1.26313,1.26338,1.27424,1.28418,1.28487,1.29679,1.51404,1.51621,0.004001,1.34081,1.36668,1.37137,1.37806,1.56707,1.40765,1.41085,1.4137,1.5384,0.00393086,1.52595,0.0037268,0.00432931,1.48633,1.48789,1.4939,1.50099,1.58152,1.52152,1.52091,1.53848,1.54339,1.5594,1.56474,1.5708,1.58487,1.59046,1.59342,1.59951,1.60979,1.61832,1.62605,1.81638,1.67536,1.64494,1.62997,1.63263,1.72035,1.72348,1.86303,1.86156,1.84081,1.75753,1.90378,1.76112,1.66303,1.66571,1.92086,1.857,0.00386412,1.91492,1.91314,1.65067,0.00416049,1.92099,1.68132,1.67731,1.67769,1.68515,0.00451094,1.6924,1.71969,1.71796,1.70289,1.71312,1.70703,1.71166,1.70943,1.71701,1.71441,1.71615,1.72319,1.72228,1.72616,1.72071,1.70901,0.00424308,1.72776,1.72471,1.74809,1.74287,1.74758,1.75573,1.75471,1.75536,1.77227,1.76644,1.76885,1.76844,1.78274,1.77957,1.77714,1.78489,1.79291,1.80255,1.80106,1.79509,1.8029,1.81593,1.81693,1.82003,1.82483,1.82528,1.83413,1.83091,1.84269,1.84786,1.84796,1.84363,0.00385151,1.8717,1.869,1.86796,1.87316,1.88053,1.88595,1.88475,1.89571,1.89413,1.89502,1.90156,1.91035,1.90816,1.95514,1.92872,1.92935,1.92975,1.92545,1.94329,1.93918,1.94109,1.94823,1.9479,1.94611,1.95868,1.96253,1.96004,1.96914,1.98162,1.97943,1.98888,1.9884,1.99067,2.00325,1.99975,1.99652,2.01081,2.0115,2.0136,2.02301,2.02075,2.0357,2.03519,2.04682,2.05328,2.05647,2.05864,2.05975,2.07302,2.07242,2.07153,2.0866,2.09894,2.096,2.09205,2.10821,2.13142,2.12959,2.12748,2.1384
0.701207,0.707293,0.713907,0.716541,0.719756,0.719565,0.736267,0.741092,0.747848,0.750982,0.752206,0.760038,0.763145,0.766737,0.775991,0.777675,0.782096,0.790146,0.791526,0.798096,0.800491,0.800558,0.814668,0.815046,0.829616,0.835934,0.83813,0.847489,0.84908,0.850014,0.852236,0.853551,0.860352,0.865048,0.865988,0.873849,0.877398,0.879498,0.891617,0.893708,0.903807,0.906315,0.911282,0.915145,0.918494,0.919778,0.929212,0.931577,0.934579,0.937288,0.94268,0.956193,0.95807,0.960983,0.964785,0.976618,0.978049,0.984504,0.989338,0.98974,0.993891,0.995819,0.998995,1.00706,1.00778,1.007,1.01066,1.0138,1.01866,1.01974,1.02422,1.02919,1.0363,1.03653,1.04085,1.0453,1.04742,1.0512,1.05271,1.05806,1.06746,1.07186,1.08432,1.08348,1.08298,1.08378,1.08774,1.08945,1.09155,1.10197,1.1088,1.11665,1.11909,1.12459,1.1363,1.14229,1.1458,1.14772,1.16739,1.16961,1.18188,1.18713,1.18731,1.19316,1.19481,1.19671,1.20427,1.20528,1.20635,1.20502,1.20517,1.2121,1.23013,1.22785,1.22865,1.23023,1.24418,1.24978,1.25153,1.25043,1.25361,1.26555,1.2693,1.27603,1.29194,1.29661,1.3021,1.68672,1.32978,1.34635,1.34706,1.44071,0.00368385,1.39596,1.39906,1.40362,1.4163,1.42008,1.42766,1.5179,0.00375706,1.46614,0.00386339,1.48328,1.48391,1.5021,1.50251,1.5077,1.52209,1.53108,1.54158,1.54654,1.55042,1.5665,1.57638,1.58244,1.5875,1.5905,1.59774,1.56519,1.56206,1.59624,1.607,1.61254,0.00357151,1.63332,0.00355353,1.69682,1.69636,1.69517,1.62303,1.61282,1.80705,1.81345,1.71914,1.79706,0.00405845,1.9139,0.00386988,1.63532,1.64079,1.63391,1.63575,1.63676,0.00386973,1.65045,1.64526,1.64703,0.00417,1.78216,0.00419124,1.68301,0.00359279,1.6869,1.69461,1.69965,1.69641,1.70963,1.71693,1.71591,1.70368,1.70655,1.69973,1.69841,1.70101,1.70341,0.00395475,1.72719,1.72856,1.7328,1.72905,1.74073,0.00398414,1.75197,1.76196,1.76156,1.76335,1.76293,1.76193,1.76924,1.77632,1.7773,1.78605,1.78552,1.78303,1.79168,1.79673,1.8055,1.81124,1.80922,1.81258,1.81238,1.82333,1.82449,1.82463,1.82283,1.82991,1.82975,1.8416,1.86519,1.86099,1.85862,1.86403,1.86465,1.87184,1.87598,1.87318,1.89236,1.88388,1.88168,1.89736,1.93104,1.92826,1.92305,1.92437,1.92327,1.92147,1.92914,1.9338,1.93809,1.93429,1.94003,1.95032,1.94641,1.94657,1.95403,1.95886,1.96662,1.96618,1.96975,1.98198,1.97711,1.98354,1.98843,1.99392,1.9945,1.99408,1.99653,1.99511,2.00447,2.01411,2.01857,0.00424675,2.04459,0.0040906,2.05452,2.05051,2.05497,2.06207,2.05837,0.00417869,2.07514,0.00404378,0.00472042,0.00366726,2.10773,2.13433,2.12977,2.14084,2.13702
0.703766,0.705313,0.709301,0.714474,0.721738,0.721858,0.728125,0.738518,0.740545,0.744342,0.748914,0.747273,0.757629,0.767676,0.7737,0.778584,0.781955,0.785541,0.791826,0.795844,0.798893,0.811285,0.813997,0.814581,0.828363,0.830028,0.833059,0.835206,0.837632,0.84257,0.845621,0.856036,0.858757,0.861846,0.862673,0.866818,0.883743,0.885577,0.892509,0.89484,0.90221,0.917002,0.919761,0.92057,0.921336,0.92566,0.925963,0.927511,0.930574,0.936338,0.944566,0.951763,0.953463,0.96181,0.967229,0.969759,0.97525,0.981731,0.98366,0.9907,0.991764,0.99432,0.99703,1.001,1.002,1.00453,1.00564,1.01013,1.01616,1.02245,1.02541,1.02652,1.02956,1.03805,1.04345,1.0451,1.04746,1.05206,1.05297,1.06161,1.0653,1.07166,1.07361,1.07213,1.0741,1.07843,1.08181,1.08448,1.09194,1.10273,1.11034,1.11586,1.11949,1.13441,1.13941,1.14079,1.15808,1.16181,1.17117,1.17216,1.18116,1.18285,1.19206,1.19589,1.1985,1.20356,1.20295,1.20464,1.2043,1.20469,1.21668,1.21517,1.21681,1.22442,1.22993,1.23663,1.23822,1.24221,1.24362,1.25122,1.26068,1.27115,1.27779,1.28773,1.30093,1.30307,1.3077,0.00388042,1.34014,1.3443,1.36486,1.52056,1.385,1.39647,1.4025,1.40896,1.41997,1.41935,1.43886,0.00358812,1.46094,1.47147,1.4744,1.48625,1.50164,1.50044,1.50344,1.52005,1.52721,1.53219,1.54305,1.55456,1.55773,1.56613,1.56763,1.57831,1.58356,1.5867,1.57561,1.58994,1.58769,1.58803,1.58805,1.59329,1.59424,1.59959,1.59644,1.59948,1.60066,1.60791,1.61132,1.60975,1.61275,1.60698,1.605,1.84304,1.84187,1.6021,1.61304,1.61252,1.6185,1.61674,1.62345,1.63356,1.64004,1.64136,1.64168,1.64152,1.64945,1.6657,1.6643,1.66959,1.672,1.67207,0.00363828,0.00427717,0.00431067,0.00398066,1.68526,1.68868,1.6852,1.68478,1.68882,1.68753,1.6883,1.69277,1.70068,1.7211,1.7186,1.71645,1.73446,1.73388,1.74159,1.74906,1.74134,1.74385,1.74325,1.75445,1.82847,2.07755,1.76113,1.76933,1.77195,1.77984,1.78686,1.7821,1.79747,1.79585,1.79713,1.80203,1.80108,1.80671,1.81088,1.82112,1.82745,1.82719,1.82906,1.83537,1.83366,1.83096,1.84642,1.85292,1.85828,1.85771,1.87544,1.87582,1.87319,1.88268,1.8827,1.8782,1.88175,1.88774,1.92637,1.89713,1.90834,1.90735,1.9038,1.91842,1.9273,1.92531,1.93043,1.93197,1.93128,1.94591,1.94532,1.94613,1.94627,1.95241,1.96277,0.00397275,1.97256,1.96325,1.97179,1.97653,1.98221,1.97809,1.98709,1.98866,1.98787,1.98902,0.00407071,0.00422647,2.0098,2.02205,2.02725,2.02695,2.04806,2.0422,2.04969,2.05481,2.06323,2.05984,0.00449228,0.00398988,2.09733,0.0033112,2.1127,2.12053,2.14194,2.13863
0.69009,0.690382,0.706289,0.705771,0.709369,0.716764,0.71867,0.732019,0.739249,0.741486,0.747129,0.751883,0.750532,0.766671,0.777851,0.779106,0.780589,0.787139,0.788941,0.789008,0.798129,0.81138,0.814159,0.813819,0.813584,0.823566,0.822357,0.830794,0.835491,0.841199,0.841042,0.848168,0.856374,0.858448,0.863961,0.870915,0.880346,0.880594,0.885388,0.838552,0.839111,0.908988,0.914654,0.915792,0.915848,0.920328,0.928395,0.929584,0.931873,0.941033,0.946101,0.952836,0.956283,0.960345,0.965713,0.967818,0.973323,0.980314,0.983955,0.985144,0.98863,0.989287,0.992224,1.00439,1.00606,1.00531,1.00571,1.00792,1.00996,1.0164,1.02049,1.02625,1.02776,1.0315,1.0397,1.04315,1.04456,1.04623,1.05245,1.0576,1.06365,1.06227,1.0634,1.06767,1.07122,1.07755,1.08771,1.09313,1.095,1.10481,1.11202,1.12092,1.13281,1.13569,1.14837,1.15435,1.16077,1.16296,1.16469,1.1726,1.18141,1.18495,1.23652,1.19732,1.19977,1.19827,1.20118,1.20174,1.20616,1.21977,1.21889,1.2199,1.2268,1.22686,1.23165,1.2358,1.24277,1.25152,1.25239,1.26938,1.2748,1.27562,1.28571,1.28502,1.3036,1.32063,1.33836,1.3393,1.34554,1.43691,1.36897,1.37775,1.38317,1.39749,1.4018,1.40675,0.00440923,1.44292,1.44445,1.45104,1.45386,1.46858,1.46787,1.49637,1.49814,1.50749,1.50893,1.51736,1.52462,1.54084,1.53993,1.55354,1.553,1.55917,1.56727,1.61297,0.00431739,1.58235,1.56732,1.57155,1.57314,1.57023,1.57861,1.58287,1.58122,1.71769,1.71637,1.58585,1.58947,1.58738,1.58463,1.77515,0.00373765,1.59485,1.58609,1.59913,1.59717,1.60188,1.59945,1.59229,1.60017,1.61123,1.6191,1.61802,1.62432,1.63346,1.63072,1.64434,1.64294,1.64373,1.65185,1.65107,1.65477,1.65448,1.6571,1.65883,1.66028,1.674,1.67339,1.66951,1.67515,1.67719,1.67352,1.68352,1.68514,1.6835,1.6848,1.71106,0.00370873,1.7293,1.72779,1.71752,1.71521,1.73013,1.73706,1.74023,1.73791,1.74864,1.74619,1.75915,1.75811,1.75651,0.00428052,1.77193,1.78706,1.78527,1.79435,1.78026,1.79707,1.79662,1.79991,1.79665,1.80042,1.79917,0.00364738,1.81522,1.82727,1.82514,1.82887,1.82983,1.83652,1.84916,1.84992,1.85229,1.87199,1.8737,1.87697,1.87955,1.88064,1.87598,1.87427,1.87261,1.88328,1.88943,1.8961,1.88137,1.90485,1.9003,1.91147,1.92668,1.91846,1.92267,1.92534,1.92372,1.93466,1.94057,1.93824,1.94387,1.94583,1.954,1.95716,1.95706,1.95565,1.9638,1.96518,1.96882,0.00396081,1.9802,1.98255,1.98628,1.98625,1.99133,2.01056,2.00724,0.00393367,2.02484,2.02498,2.04183,2.0498,2.05643,2.06518,2.07658,0.00439114,2.10473,2.10883,2.10591,2.11251,2.11109,2.12749,2.12479
0.683887,0.687517,0.685728,0.690941,0.693517,0.704841,0.706855,0.729295,0.732615,0.73512,0.750593,0.752744,0.753879,0.764219,0.767322,0.77805,0.780518,0.784802,0.78905,0.796116,0.798694,0.797528,0.803525,0.809204,0.813568,0.818051,0.822358,0.823711,0.828732,0.834961,0.836286,0.844221,0.849322,0.852348,0.85552,0.866007,0.866933,0.870161,0.881906,0.883488,0.895588,0.897837,0.905097,0.905815,0.914956,0.918964,0.926837,0.928553,0.930132,0.932336,0.944706,0.946673,0.95146,0.953961,0.962069,0.967478,0.97091,0.976656,0.982529,0.984169,0.987619,0.989146,0.994182,0.996007,0.99585,0.999741,1.00155,1.00469,1.01106,1.01077,1.01337,1.01758,1.02531,1.03359,1.03617,1.04241,1.04373,1.04936,1.05203,1.05349,1.05647,1.05935,1.06078,1.06792,1.07649,1.084,1.08775,1.09481,1.10334,0.00385911,1.12018,1.12913,1.13598,1.14157,1.14463,1.15711,1.15724,1.16213,1.16496,1.17821,1.18418,1.19209,1.19175,1.19294,1.19546,1.19707,1.19824,1.20651,1.21522,1.21927,1.21869,1.2166,1.21769,1.22768,1.24139,1.24577,1.24695,1.26106,1.26491,1.27241,1.27782,1.37675,1.48488,1.31959,1.30323,1.32706,1.34396,1.34513,1.39654,0.00381413,1.37974,1.38115,1.37968,1.40248,1.40196,1.49683,1.43224,1.43726,1.4435,1.57799,1.52317,1.47229,1.47934,1.49691,1.50488,1.5045,1.50662,1.52443,1.52408,1.53571,1.54016,1.54656,1.55126,1.56084,1.58529,1.54873,1.54941,1.55248,1.5581,1.55863,1.55908,1.56364,1.5627,1.56921,1.57183,1.71475,1.57558,1.86683,1.86362,1.57656,1.57484,1.8576,1.90029,1.83794,1.81541,1.5721,1.57762,1.56455,1.56758,1.57429,1.58534,0.00425579,1.60987,1.60562,1.6059,1.61415,1.62842,1.62938,1.62662,1.62604,1.64457,1.6439,1.64814,1.65275,1.65161,1.653,1.65467,0.00425597,1.67176,1.67134,1.66478,1.66285,1.66986,1.67031,1.67529,1.67456,1.78635,1.78508,1.78594,0.00364666,1.77541,0.00374206,0.00447679,1.71975,1.71639,1.73055,1.72734,0.00375765,1.74641,1.74932,1.75512,1.75423,1.75835,1.76144,1.77053,0.0037082,1.77499,1.77873,1.78244,1.78018,1.78319,1.78952,1.78832,1.8029,1.80051,1.80887,1.81844,1.81875,1.832,1.83001,1.83825,1.837,1.85233,1.85538,1.85048,1.86447,1.85468,1.85292,1.85415,1.85303,1.8621,1.86232,1.86011,1.85819,1.88331,1.88316,1.88343,1.88186,1.89403,1.89816,1.90619,1.90465,1.92364,1.92039,1.91816,1.92845,1.92536,1.94223,1.94682,1.95138,1.94859,1.95459,1.95333,1.95203,1.95308,1.9598,1.95654,1.96334,1.9794,1.97639,1.97529,1.97955,2.0118,2.01084,2.01751,2.03172,2.0416,2.04705,2.0522,2.06537,2.06101,2.08673,2.0841,2.08345,2.09708,2.1075,2.10299,0.00385931,2.11434,2.11314
0.676522,0.679452,0.677564,0.691038,0.691387,0.702129,0.702686,0.00370873,0.725995,0.739448,0.74026,0.747458,0.75516,0.762935,0.764506,0.773247,0.777739,0.784288,0.789628,0.793526,0.794554,0.79858,0.8041,0.805225,0.805414,0.812333,0.818324,0.822656,0.825494,0.827852,0.828447,0.833767,0.843029,0.849198,0.849999,0.859683,0.863544,0.871413,0.876924,0.878819,0.888512,0.891627,0.896286,0.905932,0.908015,0.921521,0.924408,0.92589,0.93444,0.936871,0.945629,0.948025,0.956022,0.956756,0.96027,0.962774,0.970247,0.97237,0.980914,0.98238,0.985943,0.987592,0.994328,0.994409,0.994504,0.994071,0.996572,1.00225,1.00531,1.00818,1.01579,1.0196,1.0289,1.03219,1.03719,1.03973,1.04134,1.04315,1.04691,1.05056,1.05456,1.05825,1.06354,1.06865,1.08006,1.08719,1.09263,1.10839,1.11859,1.12285,1.1249,1.13335,1.13989,1.14318,1.15013,1.15116,1.15761,1.16081,1.22097,1.19092,1.19147,1.19292,1.19332,1.19151,1.19439,1.19993,1.20879,1.20976,1.20734,1.20722,1.20854,1.2957,1.23735,1.23964,1.25663,1.25796,1.25928,1.27395,1.27399,1.27788,1.29582,1.29625,1.31046,1.31696,1.32247,1.48402,0.00391347,1.34794,1.36162,1.4194,1.4281,1.39312,1.39148,1.39438,1.41722,1.42191,1.42288,1.43373,1.45311,1.45206,1.45384,1.46929,0.00398407,1.48932,1.49576,1.51334,0.00397446,1.52551,1.52596,1.5332,1.54288,1.53334,1.53128,1.53732,1.53671,1.53648,1.54159,1.54605,1.54307,1.54546,1.54466,1.54695,1.55409,1.55306,1.55448,1.55757,1.54903,1.55176,1.55106,1.89355,1.56391,1.56299,1.54806,0.00378804,1.56208,0.00404343,0.00406358,1.56858,1.56722,1.56556,1.56715,1.59363,1.60514,1.60268,1.60319,1.601,1.60185,1.59939,1.61393,1.61503,1.62389,1.63436,1.63282,1.632,1.63158,1.64463,1.64854,1.65783,1.64556,1.64552,1.64356,1.64396,1.6527,1.65107,1.64844,1.65559,1.66636,1.66389,1.67246,1.67088,1.67582,1.67312,1.67498,1.70933,1.70938,1.71828,1.72518,1.72332,0.00357666,1.75716,1.75275,1.75005,1.74868,0.00386158,0.00378834,0.00384245,1.76349,1.7588,1.76962,1.76893,1.77237,1.78648,1.79255,1.79718,1.79812,1.80053,1.806,1.82014,1.81719,1.8244,1.8219,1.8347,1.83775,1.84518,1.84404,1.84069,1.8409,1.85302,1.85093,1.85176,1.86079,1.85686,1.86286,1.86153,1.87941,1.87916,1.88032,1.88929,1.88741,1.88306,1.88603,1.89334,1.89047,1.9028,1.90026,1.92435,1.93511,1.93248,1.94073,1.938,1.93648,1.94326,1.94434,1.9536,1.94967,1.95167,1.95899,1.95803,0.00405535,1.97541,1.97217,2.00006,1.9955,2.02628,2.02473,2.03135,2.04199,2.03913,2.0524,2.06114,2.05897,2.08867,2.09263,2.09177,2.09138,2.09186,2.09405,2.09259,2.11524,2.11167
0.667994,0.675068,0.676486,0.680118,0.682212,0.689836,0.698182,0.00385591,0.730673,0.733387,0.735357,0.744261,0.754495,0.76733,0.765821,0.771523,0.772641,0.776216,0.783745,0.787271,0.790014,0.794249,0.798396,0.802059,0.807127,0.808372,0.818086,0.819232,0.824562,0.826351,0.826439,0.831761,0.84232,0.844594,0.848021,0.856534,0.856573,0.863035,0.866849,0.873437,0.876036,0.898247,0.899528,0.903464,0.91133,0.911914,0.919681,0.935541,0.935104,0.937157,0.943472,0.946413,0.952265,0.956045,0.956858,0.960041,0.966392,0.968361,0.979014,0.982737,0.985842,0.995915,0.998062,0.997806,0.99785,0.995052,0.996577,1.00087,1.0071,1.00921,1.01148,1.0253,1.02772,1.03192,1.03403,1.03563,1.03859,1.04221,1.04899,1.05287,1.05508,1.06197,1.07713,1.08236,1.09535,1.09564,1.10137,1.12154,1.12598,1.12716,1.12756,1.13057,1.13831,1.13941,1.14944,1.15198,1.15425,1.1776,1.17819,1.18769,1.19228,1.19553,1.1993,1.19149,1.26475,1.21174,1.21213,1.20196,1.20278,1.20542,1.22921,1.2935,1.25022,1.25184,1.26267,1.26313,1.26589,0.00398057,1.28875,1.30181,1.30265,1.30975,1.40734,1.32574,1.33434,1.34668,1.34706,1.40959,1.41716,0.00368856,1.39039,1.39129,1.39282,1.41008,1.41596,1.42939,1.42916,1.44423,1.44378,1.45544,1.45876,1.64122,0.00420433,1.54753,1.50319,1.50213,1.50998,1.52405,1.52666,1.52117,1.51976,1.52196,1.52316,1.52715,1.52958,1.52368,1.5299,1.53271,1.53193,1.53735,1.53624,1.54151,1.54023,1.54395,1.53736,1.53982,1.53637,1.53355,1.53582,1.53555,1.53804,1.53659,1.53412,1.53925,1.53875,1.53192,1.53193,1.53612,1.54787,1.5565,1.54669,1.57204,1.58426,1.58331,1.59271,1.58981,1.58847,1.68431,1.60714,1.60887,1.61683,1.68879,1.63133,1.63672,1.63658,1.63013,1.6283,1.63343,1.63709,1.63621,1.63695,1.63736,1.63678,1.6369,1.63777,1.64453,1.64491,1.66313,1.66181,1.66892,1.66725,1.68649,1.695,1.70285,1.71576,1.71596,1.72133,1.7305,0.00361502,1.7338,1.75491,1.75122,1.73061,1.74773,1.74562,1.75181,1.75061,1.76031,1.7671,1.773,1.77694,1.77849,1.7744,1.786,1.78652,1.79607,1.80374,1.80315,1.81594,1.8158,1.81332,1.8207,1.82401,1.82458,1.83776,1.84407,1.84109,1.8492,1.8453,1.84389,1.85145,1.84817,1.86603,1.86233,1.86612,1.87586,1.87364,1.87494,1.87389,1.88006,1.87666,1.87326,1.88236,1.91562,1.91165,1.92075,1.92516,1.92794,1.94355,1.9404,1.94054,1.93906,1.93193,1.93454,1.93493,1.94568,1.94368,1.95802,1.95475,0.00349351,0.00393694,1.99157,2.00511,0.00423788,2.02117,0.00377372,2.04768,2.04534,2.03974,2.05269,2.05302,2.05897,2.1567,0.00429021,2.08666,2.07708,2.07461,2.08627,2.10791,2.10587
0.674759,0.678128,0.679327,0.683405,0.685804,0.693015,0.703592,0.70569,0.717975,0.72613,0.733972,0.741703,0.747086,0.750655,0.756253,0.75655,0.763862,0.773026,0.781838,0.783925,0.784458,0.790609,0.793813,0.804874,0.80664,0.811306,0.817814,0.820775,0.820497,0.820789,0.825903,0.828545,0.836213,0.847452,0.848083,0.850386,0.850951,0.859397,0.86712,0.870189,0.880272,0.88607,0.898856,0.900616,0.902834,0.909265,0.922041,0.922678,0.928931,0.937374,0.942707,0.943283,0.943333,0.946181,0.948909,0.955225,0.962226,0.966914,0.969834,0.971717,0.974856,0.985791,0.990513,0.99031,0.990821,0.992824,0.999044,1.00163,1.00476,1.01073,1.02018,1.02412,1.02572,1.02797,1.02965,1.03404,1.04055,1.04563,1.05675,1.05898,1.06125,1.07667,1.08734,1.08751,1.08916,1.10846,1.1167,1.12228,1.12296,1.12363,1.12579,1.12974,1.13122,1.13784,1.15317,1.15471,1.25609,1.17002,1.17677,1.17771,1.19356,1.17277,1.1731,1.17372,1.17309,1.17546,1.19737,1.1981,1.20243,1.22881,1.23407,1.24347,1.25744,1.26118,1.26927,1.27151,1.33071,1.3046,1.30597,1.30606,1.43059,1.33833,1.33373,1.34106,1.3419,1.34856,1.35831,1.35665,1.35717,1.38235,1.38231,1.40175,1.4087,1.40772,1.42052,1.42173,1.4354,1.43609,1.44992,1.46452,1.46254,1.47239,1.47831,1.4925,1.49928,1.50744,1.51015,1.50915,1.50272,1.51267,1.51414,1.51374,1.52314,1.52008,1.51623,1.51706,1.52172,1.52224,1.52371,1.52675,1.52678,1.52745,1.52846,1.52688,1.53229,1.52591,1.52389,1.5201,1.52096,1.52122,1.51786,1.523,1.52126,1.52511,1.52245,1.52359,1.53301,1.53806,1.53891,1.54567,1.54924,1.5635,1.57356,1.57215,1.58202,1.57904,1.58212,1.58215,1.60001,1.60193,0.00395337,1.61268,1.6144,1.62129,1.61986,1.61957,1.62088,1.62494,1.61708,1.62459,1.62869,1.62805,1.6333,1.63469,1.63648,1.64403,1.64305,0.00386407,1.66288,1.67029,1.69226,1.69035,1.70148,1.69996,1.71384,1.71327,1.71254,1.71596,1.70923,1.70958,1.72429,1.7385,1.7331,1.72918,1.7336,1.73376,1.75818,1.7647,1.76001,1.75782,1.77585,1.77219,1.77171,1.78134,1.77844,0.00408711,1.80843,1.8127,1.80915,1.80864,1.81695,1.81513,1.81356,1.82164,1.82797,1.8272,1.83234,1.83145,1.84702,1.84265,1.84064,1.83775,1.83519,1.85093,1.84703,1.87177,0.00361123,1.85609,1.86666,1.8774,1.8819,1.89184,1.89104,1.91001,1.90869,1.91325,1.91323,1.91658,1.91205,1.91655,1.93098,1.93057,1.92972,1.92425,1.93177,1.92961,1.94432,1.95515,1.96797,1.97786,1.97527,1.98748,0.00405332,2.01288,0.00409753,0.00450605,2.03835,2.04873,2.04636,2.04261,2.04588,2.04405,2.04653,0.00407033,0.00385582,2.07917,2.08742,2.08625,2.0829,2.10176
0.673448,0.67772,0.678601,0.678567,0.685585,0.686802,0.713284,0.71645,0.718074,0.718553,0.720001,0.732077,0.742039,0.741853,0.741031,0.753003,0.746442,0.00370673,0.775564,0.777882,0.787661,0.793019,0.79458,0.798615,0.805113,0.810527,0.812789,0.814417,0.815886,0.818012,0.822251,0.828023,0.835578,0.835955,0.84112,0.843902,0.852612,0.856065,0.864747,0.86546,0.871455,0.875908,0.881726,0.00395591,0.903048,0.90971,0.916206,0.919348,0.927781,0.929141,0.933319,0.935115,0.937312,0.941131,0.945023,0.948975,0.953276,0.952809,0.961071,0.962529,0.974238,0.972107,0.986851,0.990167,0.990913,0.992922,0.998265,1.00341,1.01368,1.01377,1.01735,1.02255,1.02584,1.03177,1.0345,1.03879,1.04994,1.05454,1.05609,1.05669,1.06314,1.16764,1.08285,1.08432,1.16545,1.10875,1.11189,1.11522,1.11689,1.10902,1.10953,1.11673,1.12229,1.13293,1.13653,1.14081,1.14168,1.14257,1.26326,1.16938,1.1712,1.16523,1.16823,1.1715,1.19991,1.20016,1.19921,1.28777,1.22342,1.28881,1.2504,1.25051,1.25663,1.25955,1.27155,1.39444,1.33996,0.00424801,1.35191,1.40316,1.33694,1.3355,1.33684,1.33838,1.34749,1.40774,1.36595,1.37067,1.38411,1.38353,1.40022,1.40343,1.40649,1.41077,1.43305,1.43255,1.43311,1.44948,1.45086,1.46453,1.47444,1.4792,1.48619,1.491,1.49531,1.49539,1.49687,1.49869,1.50272,1.50527,1.50435,1.50452,1.50579,1.50908,1.50799,1.51383,1.51173,1.51419,1.52015,1.51855,1.62516,1.50713,1.50985,1.51247,1.51996,1.51851,1.51304,1.5116,1.51316,1.52311,1.52205,1.52013,1.51064,1.51482,1.51304,1.52313,1.52283,1.53338,1.53046,1.54041,1.54123,1.55476,1.55357,1.55728,1.57341,1.57142,1.59006,1.58644,1.59042,1.58898,1.60439,1.60437,1.6116,1.61949,1.60205,1.60412,1.6057,1.60654,1.6168,1.61478,1.61741,1.63098,1.62993,1.63271,1.63422,1.64367,0.00367113,1.65936,1.66942,1.6677,1.68389,1.68472,1.69436,1.69121,1.70376,1.69103,1.69675,1.69783,1.69684,1.70501,1.70722,1.71556,1.72029,0.00391295,1.73295,1.74113,1.75068,1.75137,1.75116,1.75961,1.75942,1.7621,1.77147,1.78383,1.78836,1.78426,1.78649,1.78905,1.79452,1.79749,1.79843,1.80435,0.00416734,1.81134,1.80916,1.81369,1.82311,1.82015,1.82031,1.83245,1.83008,1.83448,1.84023,1.844,1.83999,0.00412043,1.84336,0.00348846,1.87327,1.87071,1.89114,1.89153,1.89155,1.88674,1.88127,1.8821,0.00347942,1.89655,1.90726,1.91304,1.91796,1.92334,1.93052,1.92836,1.9384,1.93855,1.94461,1.95566,1.96687,1.96498,1.98011,1.99129,2.00435,0.00403396,0.00425506,0.00376465,2.03808,2.03649,2.03559,2.03427,2.03302,2.03647,2.03857,2.25536,0.00384855,0.00454874,2.0866,2.09561,2.09268,2.08913
