0.764254,0.773762,0.776543,0.77619,0.791462,0.792825,0.795023,0.808464,0.816356,0.821359,0.821805,0.828158,0.832866,0.843482,0.855267,0.876936,0.878966,0.886616,0.888035,0.905537,0.906225,0.914369,0.918269,0.92316,0.929423,0.938981,0.948794,0.950162,0.964034,0.96999,0.970224,0.97205,0.97769,0.978526,0.980587,0.999901,1.00253,0.998657,1.00103,1.00105,1.00367,1.00971,1.01185,1.01952,1.02145,1.01486,1.01358,1.01132,1.01045,1.00861,1.0091,1.03652,1.03923,1.04044,1.04119,1.04303,1.04667,1.05771,1.06304,1.06608,1.06718,1.06914,1.06685,1.07013,1.07033,1.07114,1.07682,1.07758,1.08131,1.08446,1.08804,1.08932,1.09099,1.09286,1.10102,1.10229,1.10356,1.11224,1.11406,1.12063,1.12612,1.13071,1.13306,1.13274,1.13675,1.13895,1.14563,1.1583,1.1623,1.16919,1.17953,1.18451,1.18809,1.19257,1.19603,1.19917,1.20471,1.21062,1.21703,1.21786,1.22439,1.22997,1.23199,1.23933,1.24397,1.2512,1.25961,1.26033,1.26784,1.2718,1.27747,1.28108,1.29075,1.28976,1.29726,1.30004,1.31039,1.31183,1.32023,1.32071,1.32252,1.32699,1.33251,1.33631,1.33685,1.34065,1.35524,1.35408,1.35681,1.38302,1.39263,1.39308,1.39665,1.40057,1.40256,1.41059,1.42012,1.42005,1.42707,1.43571,1.43531,1.44385,1.44311,1.45477,1.45594,1.46089,1.4673,1.46617,1.47467,1.48176,1.48736,1.49171,1.49639,1.50373,1.50992,1.52035,1.519,1.5276,1.53783,1.53606,1.54224,1.55517,1.55946,1.55879,1.57305,1.57086,1.57865,1.58562,1.59109,1.59323,1.59384,1.60239,1.61168,1.63379,1.6344,1.63906,0.00459225,1.67323,1.83471,1.68071,1.6867,1.71712,0.00485768,1.73248,1.73471,1.74386,1.98334,0.00445461,1.7777,1.79156,1.78734,1.80087,1.80435,1.80743,1.81755,1.8201,1.82732,1.83412,1.83217,1.84227,1.84963,1.85013,1.85757,1.87571,1.87299,1.86974,1.87594,1.89713,1.90653,1.90513,1.91103,1.90674,1.92468,1.92335,1.93089,1.94491,1.95212,1.9523,1.95839,1.97155,1.97091,1.99125,1.99473,1.99103,1.99636,2.0074,2.00487,2.0166,2.01948,2.02264,2.02385,2.01924,2.02806,2.03603,2.03462,2.01628,2.02485,2.03113,2.02798,2.02335,2.02753,2.03613,2.03385,2.03555,2.04846,2.04113,2.04813,2.04673,2.04191,2.04781,2.0543,2.05317,2.05426,2.06308,2.06999,2.07394,2.07121,2.07205,2.07177,2.09271,2.09625,2.09401,2.10026,2.10639,2.11012,2.12007,2.11908,2.11379,2.12256,2.12325,2.13247,2.12351,2.13607,2.14608,2.1452,0.00451558,0.00471186,0.00415144,0.00438193,2.21634,2.21546,2.22878,2.22089,2.22266,2.2261,2.23207,2.23561,2.23458,2.23078,2.24857,2.2461,2.24245,2.24143,2.26982,2.25591,2.24476,2.2645,2.26129,2.27345,2.27465
0.773645,0.781836,0.787583,0.800902,0.800536,0.805354,0.816352,0.818338,0.821328,0.822059,0.838673,0.838731,0.857633,0.861521,0.873288,0.887741,0.889027,0.900429,0.901401,0.904903,0.908651,0.9141,0.917842,1.22888,1.19335,0.939654,1.20964,0.958111,0.96074,0.964838,0.970767,0.975531,0.979343,0.979788,0.983952,0.991523,0.995911,0.994908,0.997444,0.997354,0.998584,1.00188,1.008,1.00811,1.00188,1.00244,1.00324,1.00426,1.00661,1.0062,1.00877,1.01543,1.01826,1.03657,1.03795,1.03858,1.0399,1.04993,1.05098,1.05225,1.05821,1.06349,1.06449,1.06525,1.06912,1.07014,1.07196,1.07369,1.07496,1.07085,1.07829,1.07888,1.08622,1.09513,1.09602,1.10123,1.10238,1.11001,1.11896,1.12067,1.12386,1.12104,1.12124,1.12173,1.12257,1.13827,1.15423,1.16075,1.16418,1.17117,1.17406,1.18598,1.18674,1.18934,1.19449,1.20051,1.20252,1.20666,1.21489,1.2198,1.22127,1.22846,1.23043,1.23898,1.24186,1.25031,1.25187,1.26038,1.26039,1.26786,1.27347,1.27753,1.28202,1.29278,1.29384,1.29697,1.30357,1.30729,1.3092,1.31866,1.31881,1.32037,1.32643,1.33664,1.3352,1.33618,1.34315,1.37411,1.37564,1.37678,1.38337,1.38492,1.39131,1.39568,1.40411,1.40652,1.40892,1.42,1.41932,1.42665,1.43417,1.43304,1.4432,1.45166,1.45404,1.45806,1.46429,1.47121,1.46929,1.46891,1.47787,1.49308,1.49629,1.50308,1.51542,1.52314,1.53278,1.53622,1.53442,1.54183,1.5407,1.55188,1.55146,1.55828,1.56535,1.5647,1.5699,1.58059,1.57885,1.58829,1.61278,0.00420826,1.63575,1.64895,1.65179,0.00478175,1.69189,1.68814,1.69824,1.71011,1.70765,0.00465596,1.77631,0.00424726,1.75105,1.75713,1.75682,1.75579,1.77579,1.7769,1.78652,1.79309,0.004726,1.81342,1.81225,1.82017,1.82935,1.83438,1.83287,1.83843,1.84034,1.86119,1.86878,1.86795,1.87287,1.87153,1.88594,1.88428,1.89596,1.90314,1.9101,1.90614,1.91733,1.93078,1.92765,1.93821,1.93514,1.95581,1.95497,1.96943,1.97518,1.98044,1.97927,1.99356,1.99007,1.98783,2.01045,2.00863,2.01867,2.01871,2.0194,0.00426213,2.01489,2.00879,2.00708,2.01923,2.01464,2.01231,2.01102,2.02359,2.02175,2.02442,2.0172,2.02954,2.02596,2.0225,2.02935,2.04246,2.03881,2.0413,2.04775,2.04866,2.0489,2.05082,2.06281,2.07359,2.07075,2.07639,2.07274,2.08195,2.09748,2.09554,2.09038,2.09729,2.11191,2.10754,2.11872,2.11626,2.11377,2.11925,2.12022,2.13431,2.13243,2.13738,2.13173,0.00411153,0.0043246,0.00414023,0.00480848,0.00429841,2.20793,2.20377,2.2029,2.21444,2.22348,2.22786,2.21892,2.22787,2.22546,2.22533,2.23501,2.23399,2.24172,2.24124,2.24941,2.24649,2.24371,2.25979,2.25819,2.2766
0.783715,0.786935,0.797672,0.803647,0.805378,0.812088,0.813887,0.817078,0.818434,1.07733,0.859194,1.13674,0.869342,0.869169,0.886068,0.890962,0.891889,0.894668,0.896402,1.18228,1.17929,1.11053,0.919506,0.926736,0.930292,0.942266,0.95012,0.950432,0.955096,0.957782,0.959556,1.19772,1.19045,0.973504,0.974383,0.979894,0.981482,0.9832,0.992818,0.997618,0.997808,0.99909,1.00113,1.00077,1.00196,1.00131,1.00316,1.00565,1.00094,1.00083,1.00227,1.00537,1.02512,1.02598,1.02874,1.0337,1.04203,1.04422,1.04691,1.05059,1.0522,1.05799,1.05743,1.05744,1.05963,1.06518,1.06608,1.06518,1.06295,1.06517,1.06601,1.07804,1.0811,1.08838,1.0935,1.09534,1.10158,1.11595,1.11471,1.11492,1.11859,1.11925,1.12194,1.1234,1.12606,1.14588,1.14663,1.15,1.16598,1.16558,1.17501,1.17762,1.18407,1.18548,1.18637,1.19298,1.20227,1.20397,1.21068,1.21467,1.22289,1.22736,1.23224,1.23748,1.23858,1.23794,1.24708,1.25466,1.2563,1.25832,1.26875,1.27473,1.2857,1.29205,1.29312,1.29036,1.29517,1.29667,1.3061,1.30951,1.31578,1.31714,1.32081,1.32112,1.33339,1.33813,1.34402,1.35795,1.36617,1.3685,1.37738,1.37801,1.38252,1.3912,1.39904,1.40487,1.40532,1.41228,1.41757,1.42639,1.42963,1.44555,1.44747,1.44676,1.45002,1.4583,1.45741,1.45827,1.46819,1.46814,1.47332,1.47173,1.50003,1.65496,1.50345,1.51952,1.51875,1.52548,1.5312,1.53752,1.53967,1.53934,1.53963,1.54981,1.55531,1.5647,1.69207,1.69743,0.00482869,0.00469604,0.00442659,1.64541,0.00468159,1.66245,1.66919,1.67575,1.68179,1.69353,0.00416991,1.72122,1.71861,1.73685,1.73761,1.7518,1.75163,1.7612,1.75972,1.76727,1.85524,1.78168,1.77998,0.00464456,1.79328,1.80549,1.81153,1.81076,1.82658,1.82749,1.83421,1.83992,0.00455989,1.86569,1.86257,1.85855,1.87703,1.88602,1.88397,1.88233,1.89127,1.89755,1.90372,1.90279,1.90808,1.92824,1.94134,1.93822,1.94956,1.95706,1.95427,1.95164,1.96834,1.97219,1.98388,1.98223,1.98195,1.99313,2.00463,2.00375,2.00851,2.01066,1.98374,1.99265,1.99139,1.99885,1.99605,2.42427,2.01478,2.01642,2.01251,1.99198,1.99249,1.993,2.00316,2.00948,2.01373,2.01852,2.01683,2.03204,2.02924,2.02645,2.03772,2.0534,2.05341,2.05361,2.05177,2.07317,2.07179,2.07272,2.07033,2.08043,2.07791,2.07917,2.08589,2.0836,2.09284,2.10204,2.10114,2.10739,2.11455,2.12197,2.12374,2.12249,2.13111,2.13102,2.1305,0.0044218,0.00432558,0.00483316,2.1727,2.18941,2.18488,2.20542,2.20409,2.19556,2.19204,2.19813,2.22252,2.21756,2.21541,2.22144,2.23209,2.23025,2.23123,2.23148,2.22632,2.24881,2.24522,2.24163,2.25747,2.26546
0.78977,0.793809,0.797261,0.821045,0.809105,0.810442,0.811656,0.818963,0.834861,0.837776,0.845418,0.867831,0.872759,0.875287,0.883039,0.886951,0.889728,0.891681,1.10751,1.18471,0.914892,0.919017,0.920043,0.923214,0.931948,0.938231,0.939061,0.939619,0.940909,0.945836,1.19481,0.953435,0.957656,0.964126,0.967587,0.96986,0.971482,0.976665,0.976976,0.981118,0.985576,0.990576,0.991742,0.992625,0.991904,0.992308,0.997331,0.995207,0.997854,0.999973,0.999961,1.00346,1.01225,1.01794,1.01901,1.02141,1.03635,1.03709,1.03817,1.04414,1.04631,1.04987,1.04796,1.04921,1.05255,1.05357,1.05506,1.05431,1.05675,1.06311,1.06475,1.07614,1.07735,1.08455,1.08831,1.09425,1.10175,1.10621,1.10848,1.11011,1.11236,1.11613,1.11944,1.122,1.12568,1.13914,1.14988,1.15017,1.15702,1.16202,1.16333,1.17025,1.17479,1.17796,1.18105,1.19053,1.19842,1.19899,1.20677,1.21419,1.21955,1.22096,1.22345,1.22598,1.23439,1.23456,1.24009,1.2465,1.25068,1.26206,1.26743,1.27667,1.28436,1.27602,1.279,1.28113,1.28673,1.29247,1.2991,1.29935,1.31176,1.31532,1.31596,1.33884,1.33696,1.33858,1.34764,1.34993,1.35454,1.35697,1.36624,1.37262,1.37615,1.37732,1.39258,1.39553,1.40169,1.40655,1.40929,1.42291,1.42059,1.42739,1.43669,1.43683,1.44965,1.44847,1.45422,1.45431,1.45319,1.45513,1.45916,1.47769,1.48937,1.49512,1.50167,1.50524,1.51608,1.52362,1.52377,1.5287,1.52796,1.52933,1.54349,1.5416,1.58005,1.59011,1.60062,1.59812,0.00478903,1.63159,1.6498,1.65368,1.66194,1.6621,1.66844,1.73458,0.00459436,1.70495,1.70384,1.71672,1.72366,1.73115,1.7376,1.74736,1.74465,1.74857,1.75851,1.76492,1.76911,1.76626,1.78214,1.78905,1.9169,1.79972,1.8101,1.80866,1.82053,1.82535,1.83619,1.83733,1.84046,1.85444,1.8603,1.8598,1.87253,1.8705,1.87087,1.88571,1.89655,1.89477,1.90785,1.91637,1.9156,1.93389,1.94044,1.93944,1.94875,1.95401,1.95261,1.95204,1.96783,1.96876,1.96736,1.98592,1.98331,1.98649,0.00522483,2.32986,2.33787,1.99117,1.98508,2.38129,1.97069,1.97338,1.98383,1.98237,0.00524298,1.97329,1.98272,1.98617,1.99389,1.99112,1.99887,1.99389,2.00522,2.02123,2.01826,2.01411,2.0311,2.03081,2.03593,2.04071,2.04108,2.0502,2.04995,2.05955,2.06541,2.06537,2.06084,2.05832,2.07897,2.07436,2.07888,2.0803,2.08074,2.08743,2.0995,2.09391,2.10047,2.12342,2.12176,2.12513,2.12801,2.12652,2.1306,2.14149,2.13293,2.15371,2.15566,2.15064,0.00579608,0.00470239,2.17285,2.19479,2.19279,2.18725,2.20009,2.20342,2.21865,2.21584,2.2186,2.22634,2.22602,2.23233,2.2277,2.2232,2.23289,2.22941,2.25325,2.25018
0.773984,0.792407,0.815199,0.819297,0.823594,0.82479,0.824319,0.824029,1.13383,0.857659,0.858746,0.857133,0.869316,0.879056,0.88311,0.887308,0.893339,0.892765,0.902202,0.909599,0.912086,0.912983,0.914606,0.917745,0.917767,0.920586,0.918195,0.926558,0.929555,0.932147,0.937492,0.93922,0.952853,0.953876,0.954661,0.95717,0.960786,0.973537,0.972473,0.973263,0.975076,0.978214,0.986728,0.98858,0.990517,0.981649,0.982632,0.987426,0.989302,0.994824,0.996619,1.00961,1.01251,1.01344,1.01384,1.0176,1.02287,1.03314,1.03836,1.03809,1.03871,1.038,1.03933,1.03974,1.04204,1.04606,1.04986,1.05286,1.05501,1.05871,1.06265,1.06715,1.07431,1.08051,1.08271,1.09132,1.0911,1.10405,1.1057,1.10862,1.11578,1.11514,1.1163,1.1225,1.1325,1.13876,1.14323,1.14647,1.15332,1.15929,1.16357,1.16571,1.17443,1.17523,1.17947,1.18473,1.18908,1.20034,1.20568,1.20772,1.20755,1.21313,1.21971,1.22078,1.22237,1.22994,1.23326,1.24362,1.2467,1.26078,1.26624,1.26766,1.26883,1.26976,1.26918,1.27088,1.6652,1.2822,1.29227,1.29293,1.29591,1.30831,1.31174,1.32695,1.3332,1.33752,1.34681,1.35364,1.35506,1.35798,1.36216,1.36321,1.37101,1.37116,1.37602,1.38717,1.39541,1.40259,1.41146,1.41011,1.41954,1.42406,1.42595,1.4276,1.42949,1.44391,1.45117,1.45366,1.45498,1.45683,1.47182,1.47576,1.48191,1.49215,1.49182,1.50259,1.50561,1.50326,1.5212,1.52152,1.5273,1.55062,1.55872,1.5853,1.59399,1.60682,1.96677,0.00478904,0.00434393,1.64774,1.69308,1.65821,1.663,1.67651,1.6821,1.68687,0.00468254,1.70442,1.71292,1.72056,1.73206,1.73662,1.73546,1.74089,1.74911,1.75353,1.75971,1.7682,1.76545,1.78348,1.78395,1.78411,1.79413,1.79912,1.8041,1.82836,1.82546,1.82271,1.82623,1.84758,1.84833,1.86011,1.86174,1.86194,1.87065,1.86991,1.89492,1.89209,1.88921,1.89358,1.92223,1.91939,1.91544,1.92844,1.9293,1.94371,1.93915,1.94193,1.9537,1.95017,1.94674,1.98275,0.0043776,0.0045198,0.00445121,1.9524,1.95417,2.3697,0.00451977,1.96028,1.95642,1.95749,1.95475,1.96132,1.95088,1.95903,1.95536,1.95679,1.9543,1.96643,1.97678,1.97633,1.984,1.98412,1.98653,1.98862,2.01349,2.01063,2.01999,2.01796,2.03573,2.03417,2.04322,2.03897,2.03693,2.04626,2.04642,2.06228,2.06251,2.05637,2.06326,2.06016,2.08296,2.08038,2.08065,2.07734,2.08591,2.09022,2.09728,2.10366,2.10014,2.1105,2.10812,2.12564,2.12555,2.13961,2.13619,2.13296,2.12935,2.1536,2.15104,2.15191,2.17604,2.1735,2.17132,2.1837,2.18047,2.20178,2.202,2.20476,2.21463,2.21222,2.21111,2.21913,2.2184,2.21834,2.22564,2.22483,2.22863,2.24244
0.79143,0.805224,0.81206,0.817896,0.819713,0.821207,0.822461,1.08537,1.01086,1.19829,0.866646,0.868199,0.868118,0.878771,0.881791,0.887335,0.895994,0.90132,0.907182,0.909757,0.911183,0.911459,0.912027,0.914113,0.914472,0.916607,0.918077,0.918808,0.92216,0.914646,0.916333,0.919814,0.92579,0.93594,0.950509,0.951141,0.955967,0.960765,0.964743,0.967616,0.971522,0.976874,0.977011,0.980248,0.981708,0.980919,0.982156,0.982128,0.983776,0.995768,1.00013,1.0036,1.01255,1.01337,1.01594,1.01559,1.01689,1.01705,1.02825,1.02662,1.02762,1.02864,1.03019,1.0356,1.03614,1.04015,1.0432,1.04675,1.04995,1.0566,1.05675,1.06399,1.06978,1.07661,1.07811,1.08267,1.086,1.09093,1.09914,1.10499,1.1128,1.11375,1.11771,1.12395,1.12804,1.13305,1.13899,1.14287,1.14957,1.15662,1.1624,1.16445,1.17025,1.17444,1.1767,1.1817,1.18945,1.19467,1.19634,1.19848,1.20263,1.20749,1.209,1.21617,1.21944,1.22619,1.23068,1.23949,1.24668,1.24631,1.25081,1.26273,1.26264,1.26221,1.26514,1.26742,1.27081,1.27315,1.27244,1.31667,1.32415,1.30814,1.31032,1.31283,1.32947,1.3312,1.33839,1.34437,1.34329,1.35074,1.35704,1.36046,1.3658,1.37104,1.38064,1.38276,1.38553,1.39015,1.40167,1.41149,1.42038,1.42266,1.42561,1.42601,1.44722,1.44338,1.44592,1.45197,1.45798,1.46442,1.46298,1.76965,1.47589,1.48007,1.4769,1.47624,1.57668,1.51767,1.52277,1.54144,1.5542,1.57851,1.5757,1.58858,1.60351,1.61396,1.62686,1.62967,1.64485,1.64458,1.65437,1.66609,1.67048,1.67723,1.68365,1.69669,1.69452,1.71075,1.7095,1.71627,1.72223,1.72934,1.74084,1.739,1.83894,1.76587,1.76319,1.76488,1.7726,1.78539,1.7919,1.78743,1.80304,1.80162,1.81039,1.82042,1.82484,1.83723,1.83382,1.84413,1.85109,1.86229,1.86253,1.8619,1.86633,1.87465,1.88296,1.89275,1.88891,1.90739,1.91239,1.92084,1.9179,1.93138,1.93054,1.93071,1.93659,1.93484,1.94248,1.94418,1.93919,1.93739,1.9904,2.32449,2.34926,1.93041,1.9287,0.00469757,0.00453131,1.93894,1.93843,1.94556,1.94316,1.95139,1.95078,1.94741,1.94643,1.94629,1.95856,1.95543,1.965,1.97276,1.96875,1.97571,1.98471,1.98308,1.99393,2.01501,2.01255,2.00807,2.01274,2.00821,2.0145,2.01012,2.00583,0.00420699,2.03275,2.03934,2.03769,2.04626,2.05879,2.06108,2.06777,2.06457,2.08344,2.08108,2.077,2.08444,2.08148,2.10272,2.1016,2.09854,2.10919,2.10767,2.11497,2.11778,2.13915,2.13668,2.13188,2.14135,2.13903,2.15057,2.15202,2.17029,2.1741,2.17363,2.1802,2.2022,2.2011,2.20128,2.19986,2.21268,2.21076,2.21956,2.21171,2.21096,2.22084,2.23079,2.22663,2.24171
0.798333,0.810766,0.812661,0.81533,0.818247,0.823155,0.825551,1.0259,1.02577,0.853075,0.869677,0.870534,0.870466,0.876517,0.882633,0.88805,0.894856,0.895009,0.902386,0.907217,0.906018,0.904955,0.905993,0.911532,0.908068,0.909697,0.906628,0.908055,0.911565,0.913381,0.91615,0.929251,0.931018,0.933199,0.933242,0.934103,0.934864,1.06904,0.960799,0.957413,0.960262,0.961725,0.970759,0.974271,0.975246,0.975968,0.979916,0.981261,0.987177,0.995953,0.997814,1.00207,1.00362,1.00541,1.00703,1.00884,1.00823,1.00668,1.00814,1.01514,1.02194,1.01595,1.02116,1.02456,1.02702,1.02907,1.03211,1.03365,1.04198,1.04615,1.05087,1.05586,1.06363,1.07066,1.07211,1.07352,1.08191,1.08238,1.09262,1.09326,1.10759,1.11122,1.11666,1.11895,1.12681,1.12809,1.13615,1.13925,1.144,1.15223,1.15454,1.16063,1.17048,1.1707,1.17681,1.17891,1.1836,1.18628,1.18813,1.19812,1.19836,1.20405,1.20824,1.21586,1.22244,1.22457,1.22917,1.23234,1.23396,1.2404,1.24492,1.26267,1.26241,1.25798,1.2597,1.26671,1.26535,1.28315,1.28303,1.28744,1.29821,1.30647,1.3116,1.31189,1.32429,1.32727,1.32841,1.33678,1.34697,1.34953,1.35786,1.35758,1.36631,1.36744,1.37773,1.37931,1.38135,1.38497,1.39172,1.4066,1.41507,1.41991,1.42181,1.43243,1.43168,1.44164,1.44264,1.45008,1.45465,1.4575,1.46508,1.46997,1.47836,1.47656,1.47488,1.47672,1.52002,1.52863,0.00392926,1.5523,1.56551,1.58375,1.59255,1.60043,1.60773,0.00430384,1.63947,1.66776,0.00412944,1.65279,1.66229,1.67207,1.6767,1.684,1.68574,1.68842,1.69431,1.69926,1.76173,1.71482,1.72389,1.73312,1.7411,1.73774,1.75456,1.75901,1.76502,1.77301,1.77996,1.7897,1.79349,1.79725,1.79431,1.80995,1.80739,1.81716,1.83166,1.846,1.84345,1.84483,1.85245,1.86187,1.86065,1.87327,1.87019,1.87614,1.88595,1.88576,1.90131,1.89738,1.913,1.9215,1.92629,1.92355,1.92706,1.93111,1.93858,1.93769,0.00435943,2.22551,1.92449,1.91795,1.91065,2.33382,1.91761,1.93258,1.92988,1.92505,1.92807,1.92398,1.92288,1.93132,1.92754,1.9418,1.9416,1.93937,1.94229,1.93934,1.93833,1.94554,1.96237,1.96954,1.96678,1.97599,1.97762,1.98634,1.98693,0.00460231,2.00371,2.00194,1.99766,2.00206,2.01307,2.01057,2.00684,2.01004,2.02237,2.02829,2.03022,2.03461,0.00438095,2.04784,2.05663,2.05544,2.06031,2.071,2.07675,2.08323,2.08757,2.09095,2.08973,2.10162,2.10214,2.10562,2.10662,2.11244,2.12185,2.11929,2.13524,2.13845,2.13757,2.13564,2.15246,2.15761,2.15724,2.1635,2.17973,2.19173,2.18683,2.19156,2.2022,2.20321,2.20156,2.20747,2.20075,2.20671,2.21506,2.21051,2.20822,2.23111
0.806589,0.808448,0.814116,0.817979,0.822643,0.824718,0.82995,1.02942,1.06325,1.14304,1.26864,0.869129,0.870506,0.877656,0.880578,0.879371,0.8879,0.890199,0.888611,0.888595,0.889809,0.88377,0.886316,0.877571,0.887452,0.883082,0.891994,0.897417,0.909648,0.911708,0.91246,0.919302,0.927627,0.932329,0.928296,0.928248,0.927764,0.928301,0.936528,0.942931,0.952955,0.952747,0.953737,0.965957,0.969612,0.972656,0.97425,0.983399,0.985106,0.990187,0.991428,0.992578,0.994781,0.999488,1.10923,0.995528,0.991064,0.991424,0.990867,0.993275,1.0098,1.00905,1.01109,1.37954,1.01174,1.01987,1.01888,1.03046,1.03575,1.04139,1.05155,1.05285,1.06138,1.06324,1.06878,1.07436,1.07531,1.0746,1.0913,1.09487,1.10165,1.10525,1.11184,1.11544,1.12198,1.12472,1.13323,1.13847,1.14033,1.1478,1.15844,1.16057,1.16799,1.16757,1.17313,1.1733,1.17677,1.18131,1.18483,1.192,1.19558,1.20487,1.20832,1.21304,1.21664,1.2175,1.22042,1.22368,1.23081,1.2307,1.23635,1.24125,1.24893,1.25668,1.25741,1.25489,1.26746,1.27632,1.28028,1.28767,1.2993,1.30585,1.30785,1.30791,1.31962,1.32378,1.32315,1.33334,1.33689,1.34712,1.35895,1.35728,1.3582,1.36005,1.36922,1.38888,1.38944,1.39594,1.39773,1.39445,1.40683,1.41229,1.41548,1.42369,1.43263,1.43363,1.44744,1.4488,1.45424,1.45763,1.4637,1.4791,1.47885,1.49955,1.49833,1.95258,1.53261,1.54996,1.62142,1.57441,1.57042,1.98946,1.59667,1.61271,0.00656746,0.00474554,1.64204,1.64578,1.65522,1.65522,1.65753,1.6786,1.68534,1.67999,1.68579,1.6884,1.7015,1.70211,1.71123,1.71167,1.73161,1.73196,1.74544,1.75133,1.76158,1.76061,1.76966,1.77166,1.77777,1.78672,1.79213,1.79034,1.80628,1.8044,1.82404,1.81998,1.82582,1.84448,1.84312,1.84949,1.84668,1.85579,1.87357,1.87167,1.86853,1.8783,1.88767,1.88823,1.88316,1.89086,1.89207,1.91725,1.91956,1.93408,1.91393,2.04315,0.00682913,2.21679,2.30082,1.89494,1.90264,1.9,1.90141,1.89928,1.90987,1.9063,1.90584,1.90677,1.914,1.91267,1.91765,1.91726,1.92212,1.92025,1.92904,1.93022,1.9257,1.9409,1.93674,1.95011,1.95025,1.95884,1.96745,1.96447,1.97409,1.96578,1.96291,1.97546,1.97229,2.00306,1.99821,1.99156,2.00046,1.99975,2.00032,2.00715,2.01334,2.01133,2.01879,2.01878,2.03082,2.03649,2.04457,0.00452647,0.0043589,2.05992,2.06554,2.07341,2.06376,2.08656,2.08493,2.10031,2.09816,2.1075,2.1046,2.10185,2.09887,2.12181,2.1291,2.14297,2.14071,2.13887,2.14556,2.15143,2.14812,2.16103,2.16071,2.16596,2.18114,2.167,2.1912,2.18941,2.18925,2.18725,2.19079,2.21188,2.21213,2.21154,2.22305,2.2244
0.80685,0.809733,0.811348,0.818662,0.824236,0.826048,0.827129,0.831643,0.834961,0.837067,0.852844,0.863222,0.865072,0.868735,0.872663,0.874105,0.875364,0.874654,0.880075,0.876724,0.85999,0.861368,0.86158,0.874263,0.877794,0.884066,0.886922,0.894906,0.896015,0.89767,0.987059,0.905061,0.915469,0.917704,0.922179,0.924379,0.928001,0.928689,0.93928,0.945456,0.945974,0.943265,0.943012,0.955344,0.960834,0.968724,0.971311,0.973904,0.976779,0.978204,0.980795,0.982357,0.983192,0.985652,0.993553,0.989254,0.984176,0.986758,0.985653,0.982388,0.982808,0.995681,0.995085,0.997066,0.998771,1.00375,1.00547,1.01908,1.03021,1.04108,1.0415,1.04589,1.05618,1.06392,1.06459,1.06737,1.07265,1.07927,1.0853,1.09132,1.09791,1.10019,1.10314,1.1156,1.11862,1.12191,1.1227,1.12916,1.14065,1.1459,1.14861,1.15775,1.1589,1.16327,1.16504,1.17354,1.17394,1.18087,1.18491,1.18951,1.1985,1.19897,1.204,1.20473,1.20847,1.2127,1.21765,1.2193,1.22092,1.22755,1.23803,1.24059,1.24443,1.25541,1.26456,1.26347,1.27398,1.28545,1.28578,1.29202,1.29806,1.29935,1.30568,1.30502,1.31043,1.3172,1.32298,1.33065,1.33482,1.34017,1.35121,1.34916,1.34785,1.36688,1.36845,1.37711,1.37859,1.38268,1.3914,1.39198,1.40077,1.40539,1.41275,1.41888,1.42267,1.42809,1.43728,1.44527,1.44613,1.45387,1.45255,1.46026,1.49102,1.49024,1.51786,1.67772,1.55663,1.55525,0.00471023,1.57645,1.58524,1.59909,1.60659,1.60498,1.62343,1.66178,1.6417,1.64489,1.64695,1.65751,1.67078,1.66893,1.67943,1.68566,1.70009,1.69674,1.70321,1.70704,1.72141,1.72041,1.72869,1.73703,1.7438,1.74889,0.00456581,1.76456,1.76947,1.78396,1.78763,1.78681,1.78971,1.80845,1.80644,1.82151,1.81896,1.818,1.83143,1.83855,1.84577,1.85228,1.84936,1.84859,1.86969,1.87575,1.87615,1.8746,1.87284,1.88508,1.88437,1.87922,1.88762,1.88404,0.00429888,1.95923,1.8989,1.89297,1.90243,1.88795,1.88163,1.87861,1.89253,1.89245,1.88976,1.88482,1.89604,1.89749,1.89299,1.89584,1.89459,1.90018,1.90638,1.91503,1.90776,1.90512,1.92497,1.92388,1.92874,1.9351,1.9475,1.94884,1.94971,1.95159,1.95826,1.95119,1.95308,1.9635,1.96198,1.97468,1.9724,1.98154,1.97982,1.98031,1.98916,1.99614,1.99091,1.99111,2.00619,2.00662,2.00277,2.01382,2.02127,2.03177,2.03826,2.05619,2.05299,2.0616,2.06869,2.06885,2.0664,2.06414,2.07256,2.09043,2.0873,2.10446,2.10635,2.103,2.11085,2.11857,2.13452,2.13125,2.12852,2.12854,2.14184,2.15099,2.1462,2.14815,2.14252,2.13848,2.15207,2.16345,2.16598,2.1928,2.18973,2.18661,2.19138,2.18375,2.2047,2.2149,2.20435,2.20835
0.801934,0.803281,0.809713,0.813938,0.817827,0.818732,0.826876,0.831125,0.83281,0.837354,0.842381,0.853717,0.856882,0.855065,0.860087,0.86152,0.858084,0.847442,0.847729,0.850459,0.851467,0.856131,0.860609,0.863185,0.867203,0.869052,0.87376,0.875887,0.878268,0.881051,0.901452,0.903026,0.905345,0.915402,0.916332,0.929572,0.934621,0.923919,0.925127,0.927084,0.933572,0.936104,0.936001,0.936085,0.936207,0.943638,0.94666,0.966337,0.968162,0.967397,0.969333,0.970308,0.973172,0.968894,0.970077,0.973397,0.974328,0.975238,0.974829,0.973027,0.977911,0.978848,0.986782,0.993501,0.998238,1.00461,1.01143,1.02048,1.02619,1.03203,1.03671,1.0468,1.05034,1.05556,1.06167,1.06515,1.06699,1.075,1.08514,1.08705,1.09498,1.0961,1.10528,1.11043,1.11563,1.11843,1.12199,1.12736,1.12957,1.1394,1.14512,1.15139,1.15424,1.1624,1.16224,1.16333,1.1735,1.17666,1.17956,1.19133,1.19042,1.19298,1.19442,1.19862,1.20483,1.20852,1.21316,1.21395,1.21973,1.22073,1.22565,1.23311,1.23832,1.24651,1.25472,1.26034,1.26989,1.27947,1.28541,1.29454,1.29449,1.2989,1.3028,1.30227,1.30509,1.30621,1.3194,1.32209,1.33046,1.32968,1.34025,1.36037,1.35844,1.36028,1.3695,1.37275,1.38088,1.38493,1.38602,1.39173,1.40213,1.4031,1.40826,1.407,1.42203,1.42137,1.43075,1.43135,1.44464,1.4547,1.4586,1.49311,1.49554,1.5149,0.00471785,1.55161,1.54974,1.55656,1.5746,1.57615,1.93155,1.59414,1.60243,1.6037,1.60889,1.62138,1.78026,1.65202,1.65212,1.65161,1.65805,1.67525,1.67701,1.68274,1.69008,1.69787,1.70166,1.71042,1.71769,1.71534,1.73234,1.733,1.74271,1.75143,1.76365,1.76219,1.77546,1.77315,1.79,1.79379,1.79965,1.79929,1.79101,1.81778,1.82267,1.82146,1.81856,1.83197,1.83198,1.84263,1.85093,1.8568,1.85509,1.85235,1.87586,1.87535,1.87584,1.87299,1.88017,1.87703,1.88216,1.87699,1.8733,1.87693,1.87709,1.86963,1.87216,1.87379,1.87393,1.8711,1.88588,1.88011,1.87893,1.87812,1.87584,1.88843,1.88624,1.88958,1.88872,1.89114,1.90257,1.8999,1.90977,1.91077,1.90977,1.92537,1.92327,1.92156,1.9315,1.94099,1.93581,1.93231,1.94663,1.94487,1.94496,1.94781,1.95932,1.95827,1.95733,1.96894,1.97924,1.97993,1.97576,1.98539,1.98456,1.98746,1.99618,1.99055,1.99376,2.00012,2.01761,2.02654,2.02856,2.03501,2.03067,2.0281,2.05017,2.05661,2.06464,2.06356,2.07671,2.07178,2.08982,2.08605,2.09948,2.09803,2.10078,2.11352,2.11495,2.12185,2.11576,2.12894,2.13014,2.12513,2.12191,2.44112,2.14507,2.13744,2.15473,2.15156,2.16732,2.16567,2.18478,2.18366,2.18145,2.19017,2.19406,2.19168,2.18807,2.20884
0.795701,0.800083,0.800706,0.807894,0.809708,0.813654,0.819368,0.829497,0.828552,0.829289,0.835229,0.831995,0.83189,0.84665,0.83391,0.833143,0.835046,0.835488,0.84028,0.844753,0.847033,0.848823,0.852322,0.853541,0.861546,0.861373,0.865855,0.865672,0.864898,0.867148,0.880812,0.885933,0.897317,0.976582,0.924089,0.924946,0.924738,0.920259,0.921263,0.922103,0.924724,0.925563,0.934157,0.935785,0.935616,0.937744,0.938346,0.953493,0.931872,0.932813,0.962908,0.963291,0.966178,0.962539,0.963678,0.964529,0.966669,0.969657,0.970744,0.972329,0.976856,0.976912,0.98836,0.988526,0.987453,1.00531,1.01235,1.01593,1.02203,1.02344,1.03227,1.03363,1.04354,1.0529,1.05842,1.06399,1.06963,1.08044,1.08196,1.08617,1.08767,1.09444,1.10158,1.10685,1.11478,1.11877,1.12182,1.12509,1.1286,1.12983,1.14116,1.14306,1.15497,1.16071,1.15818,1.16306,1.17007,1.17115,1.17567,1.17858,1.18079,1.18304,1.18996,1.19083,1.20043,1.19979,1.20586,1.20694,1.21282,1.2232,1.22883,1.23,1.23509,1.24033,1.24966,1.25444,1.26095,1.2685,1.27918,1.28238,1.28463,1.29128,1.29493,1.29962,1.30029,1.30529,1.3171,1.31779,1.30964,1.33022,1.33137,1.34267,1.35693,1.35803,1.36205,1.36561,1.37394,1.3753,1.37911,1.66228,1.66843,1.38887,1.39329,1.40522,1.40865,1.4206,1.42046,1.42706,1.46601,1.47252,1.47814,1.56125,0.00428244,1.85902,1.86492,1.55454,1.55388,1.59301,1.58118,1.57903,1.59056,1.58836,1.60467,1.60637,1.62424,1.6348,1.63427,1.64264,1.6491,1.66481,1.66634,1.67268,1.68501,1.68313,1.68299,1.69534,1.69653,1.71406,1.71493,1.71305,0.00409927,1.73581,1.74156,1.74846,1.76124,1.76836,1.7773,1.77929,1.78083,1.78992,1.7946,1.8051,1.80227,1.80224,1.81922,1.81626,1.81863,1.81934,1.83516,1.83408,1.8354,1.84506,2.06229,1.84977,2.06209,2.08705,1.86307,1.86999,1.87163,1.86929,1.85493,1.8715,1.87124,1.8638,1.86537,1.86179,1.85536,1.86781,1.85807,1.85642,1.86203,1.86946,1.86579,1.86393,1.86965,1.87172,1.86989,1.86897,1.88989,1.88619,1.89391,1.89385,1.89172,1.89638,1.89899,1.91441,1.91346,1.9146,1.92574,1.9305,1.93431,1.93716,1.93304,1.93864,1.94897,1.94641,1.94953,1.94818,1.95271,1.94948,1.96163,1.97037,1.96985,1.97211,1.98095,1.98213,1.99926,1.99538,2.00376,2.00242,2.00021,2.01756,2.01724,2.01256,2.02973,2.0289,2.04001,2.0385,2.05104,2.0528,2.06558,2.06282,2.0825,2.08673,2.08039,2.09007,2.10238,2.09797,2.10958,2.11086,2.11073,2.1206,2.11796,2.12562,2.12305,2.14228,2.13983,2.14503,2.14979,2.14506,2.15733,2.15209,2.16109,2.16381,2.19,2.19029,2.18803,2.19462,2.18756,2.18656
0.787883,0.790567,0.791141,0.791052,0.790888,1.06205,1.04611,1.0631,0.80064,0.802045,0.817427,0.81824,0.811891,0.812136,0.820164,0.824571,0.832124,0.833099,0.839338,0.840494,0.844235,0.848115,0.850621,0.855054,0.859371,0.856773,0.862114,0.864325,0.865394,0.874871,0.880102,0.881885,0.894683,0.895799,0.905256,0.908416,0.912638,0.913422,0.911934,0.908828,0.911085,0.915399,0.909428,0.912512,0.910439,0.931005,0.9351,0.92954,0.930332,0.930259,0.930091,0.929125,0.926729,1.09355,0.947357,0.955907,0.956772,0.963428,0.964156,0.967449,0.971492,0.970826,0.967999,0.977392,0.982024,0.995546,1.00483,1.01479,1.01779,1.02529,1.02991,1.03728,1.04926,1.05063,1.05779,1.06029,1.06491,1.07634,1.07922,1.08411,1.08733,1.09181,1.10235,1.10951,1.11114,1.11796,1.11899,1.12217,1.12393,1.12885,1.13556,1.14251,1.14294,1.14635,1.15646,1.16012,1.16387,1.16625,1.16783,1.17021,1.17166,1.17597,1.18136,1.18758,1.19014,1.19405,1.20609,1.21128,1.21689,1.2226,1.2301,1.22937,1.23174,1.24314,1.24596,1.24622,1.25919,1.26041,1.27339,1.27969,1.28159,1.28503,1.29181,1.30159,1.30059,1.29768,1.29607,1.31545,1.32119,1.32778,1.33577,1.34624,1.34697,1.35533,1.361,1.36447,1.37066,1.37132,1.36455,1.36468,1.36613,1.39254,1.39965,1.40451,1.41385,1.4243,1.4299,1.42922,1.4743,1.47084,1.48543,1.50366,1.50446,1.52665,1.54358,1.54732,1.55211,1.58593,1.59249,1.58681,1.58603,1.59414,1.60709,1.60926,1.61668,0.00470756,1.76442,1.65242,1.65201,1.66436,1.66513,1.67944,1.67815,1.6863,1.69308,1.71191,1.71056,1.7105,1.71399,1.72075,1.71903,1.74139,1.74719,1.76708,1.76333,1.76258,1.77051,1.77952,1.78214,1.78029,1.78889,1.80265,1.79972,1.80963,1.8089,1.80842,1.814,1.81375,1.82145,1.95875,1.95442,1.95187,1.83447,1.83367,1.8417,1.84512,1.84624,1.85512,1.86028,1.84508,1.85483,1.84332,1.84172,1.84075,1.8378,1.82823,1.82719,1.84572,1.85682,1.85146,1.85095,1.85861,1.86125,1.86214,1.86274,1.85884,1.85583,1.86341,1.87144,1.88234,1.88029,1.88402,1.88423,1.89386,1.89184,1.88913,1.90078,1.90891,1.90918,1.90966,1.91749,1.92393,1.93143,1.92815,1.93075,1.93467,1.93218,1.93442,1.94957,1.94955,1.95644,1.96536,1.97623,1.97329,1.97182,1.97953,1.9773,1.97603,1.9967,2.00756,2.0066,2.00811,2.00433,2.00296,1.99777,0.00436395,2.03163,2.0448,2.04276,0.004534,2.06749,2.06894,2.05878,0.00430065,2.08066,2.09257,0.00448095,2.08945,2.08858,2.10416,2.10365,2.10816,2.11846,2.12502,2.1347,2.1341,2.14127,2.14813,2.14707,2.14438,2.14298,2.14437,2.14435,2.14358,0.00479534,2.1744,2.17266,2.17823,2.17551,2.18547
0.77015,0.772032,0.773812,0.776268,0.775081,0.774558,0.779709,0.789846,0.792382,0.794507,0.805113,0.809134,0.810147,0.811569,0.814869,0.819651,0.821732,0.828334,0.831245,0.83202,0.842691,0.850941,0.850201,0.851183,0.853006,0.859842,0.860739,0.86591,0.866014,0.867781,0.883663,0.889188,0.893397,0.893722,0.895362,0.898626,0.899471,0.899715,0.900448,0.897673,0.898762,0.900155,0.901507,0.904613,0.902212,0.91696,0.908977,0.909885,0.90223,0.906497,0.906478,0.918653,0.92506,0.925458,0.936515,0.943558,0.945343,0.958796,0.960086,0.960233,0.960184,0.960712,0.963921,0.967654,0.977273,1.16728,1.00457,1.0105,1.01366,1.01839,1.03679,1.04309,1.04821,1.05156,1.05375,1.06155,1.07093,1.07369,1.07661,1.07759,1.0871,1.09617,1.10146,1.10645,1.11481,1.12002,1.12143,1.12341,1.12718,1.13039,1.13294,1.14047,1.14345,1.14646,1.15182,1.15457,1.15726,1.15785,1.16125,1.16911,1.17007,1.17282,1.17465,1.18744,1.18785,1.19724,1.19814,1.20539,1.20981,1.21586,1.21606,1.22409,1.22897,1.23282,1.247,1.24708,1.25459,1.26013,1.2758,1.28005,1.28363,1.28488,1.29889,1.29814,1.29682,1.31551,1.32206,1.32409,1.32921,1.33057,1.33483,1.3366,1.34411,1.35421,1.3613,1.36493,1.36952,1.36823,1.38614,1.38366,1.38709,1.39131,1.40173,1.40366,1.41601,1.43761,0.00431417,1.45984,1.48436,1.48265,1.48113,1.48014,1.46851,1.53624,1.55036,1.5517,1.55979,1.57326,1.57445,1.58913,1.59525,1.60567,1.61267,1.61152,1.63049,1.62847,1.63911,1.64162,1.65788,1.66431,1.66283,1.67882,1.68852,1.68791,1.69582,1.71659,1.71407,1.7158,1.72403,1.7253,1.73167,1.74794,1.74978,1.75188,1.7625,1.76506,1.77242,1.77766,1.77371,1.77892,1.77823,1.79005,1.78978,1.79671,1.79968,1.79808,1.79302,1.80057,1.80653,1.81179,1.95552,1.82072,1.82377,1.83134,1.91383,1.82275,1.81764,1.83069,1.83009,1.82734,1.8332,1.82967,1.82459,1.8242,1.83563,1.8323,1.83131,1.82701,1.83679,1.83552,1.83763,1.84956,1.85135,1.85355,1.8516,1.84754,1.84847,1.85562,1.86574,1.86852,1.86841,1.88203,1.88515,1.88526,1.89373,1.89268,1.89316,1.89065,1.89678,1.90765,1.90692,1.90738,1.91102,1.92785,1.92971,1.92496,1.93077,1.92719,1.9362,1.9449,1.95317,1.95346,1.95276,1.95967,1.96625,1.973,1.98254,1.97683,1.97448,1.99319,1.99104,1.9856,2.00053,1.99728,2.01393,2.01564,2.02112,2.02067,2.03841,2.03591,2.05061,2.04712,0.00383378,2.06378,2.08136,2.08056,2.08931,2.09264,2.09058,2.10112,2.10647,2.10466,2.11201,2.1123,2.11509,2.12415,2.12586,2.12949,2.12917,2.13198,2.13092,2.14104,2.14265,2.14609,2.1603,2.15883,2.15841,2.16945,2.16983,2.17188
0.75684,0.750446,0.753534,0.753332,0.753891,0.755127,0.756563,0.761646,0.764646,0.770272,0.787515,0.78798,0.807432,0.807417,0.809019,0.8171,0.820261,0.823974,0.833676,0.836939,0.838377,0.842077,0.844425,0.848341,0.850792,0.858287,0.859662,0.862587,0.866123,0.867052,0.875072,0.879006,0.885746,0.887946,0.884947,0.887063,0.885257,0.876952,0.890514,0.890185,0.891268,0.893042,0.896819,0.897844,0.898248,0.8993,0.900849,0.900886,0.901788,0.90247,0.903648,0.905647,0.918119,0.932818,0.93517,0.93794,0.940963,0.948524,0.950145,0.952442,0.955937,0.960345,0.966952,0.980342,0.982295,1.00367,1.00687,1.00986,1.01296,1.02585,1.03235,1.04469,1.04966,1.05379,1.05981,1.06347,1.06773,1.07173,1.07426,1.08008,1.087,1.0909,1.09862,1.09876,1.1089,1.11213,1.12179,1.12301,1.12715,1.12962,1.137,1.13825,1.14099,1.14056,1.14253,1.14316,1.15145,1.15346,1.16304,1.16519,1.17126,1.17701,1.17753,1.18569,1.18855,1.19061,1.19948,1.20135,1.20801,1.20959,1.21959,1.22016,1.22538,1.23468,1.24085,1.25075,1.25323,1.25738,1.2794,1.28126,1.28438,1.27411,1.27442,1.29975,1.30368,1.31257,1.32125,1.3313,1.3298,1.3307,1.33353,1.33888,1.35416,1.35361,1.35704,1.36357,1.36482,1.37619,1.37333,1.37663,1.38557,1.39655,1.40349,1.49959,1.5008,1.45397,1.46847,1.46833,1.50257,1.50138,1.5113,1.53278,1.53019,1.53261,1.54858,1.70144,1.66607,1.57172,1.58294,1.58408,1.60302,1.59925,1.59904,1.61796,1.63065,1.63097,1.63088,1.6488,1.65443,1.66412,1.76485,1.68352,1.68593,1.68677,1.70096,1.71027,1.71735,1.72295,1.73313,1.73293,1.73532,1.73281,1.73805,1.75594,1.75481,1.75163,1.76921,1.77495,1.77591,1.77184,1.77953,1.77806,1.77974,1.78788,1.79251,1.79,1.79262,1.80587,1.80414,1.80764,1.81015,1.81688,1.80901,2.15305,2.1556,1.81536,1.82046,1.82064,1.81133,1.81613,1.81515,1.81709,1.81967,1.81692,1.82349,1.81994,1.81868,1.82397,1.82944,1.83488,1.83315,1.83855,1.83552,1.84095,1.83794,1.84835,1.84522,1.8586,1.85603,1.85697,1.869,1.87471,1.8755,1.87187,1.88256,1.8793,1.87782,1.89259,1.89684,1.89018,1.90094,1.89819,1.91696,1.92025,1.91696,1.92466,1.92392,0.0044697,1.93307,1.94391,1.94467,1.94524,1.95274,1.95166,1.9579,1.96139,1.98572,1.98526,1.98625,1.9851,1.98726,1.98583,1.99203,2.00416,2.00426,2.01698,2.01592,2.02344,2.0252,2.02365,2.02108,2.0279,2.03902,0.0046813,2.06378,2.07768,2.076,2.07371,2.09028,2.08624,2.08912,2.10182,2.09941,2.11328,2.11861,2.11913,2.11652,2.1253,2.12901,2.12667,2.1253,2.12957,2.12338,2.1235,2.14196,2.14002,2.16007,2.15895,2.17006,2.16676
0.738833,0.731687,0.73244,0.749902,0.752517,0.753525,0.758642,0.76231,0.772714,0.774557,0.780943,0.787936,0.788868,0.79444,0.794863,0.813629,0.815744,0.817638,0.818168,0.826088,0.835539,0.837578,0.840852,0.842862,0.849313,0.856367,0.856748,0.858015,0.859029,0.865822,0.866681,0.875199,0.884159,0.883071,0.879429,0.877254,0.871367,0.876368,0.875338,0.883399,0.883398,0.88294,0.886991,0.888635,0.890347,0.891555,0.89064,0.892125,0.89505,0.899821,0.904959,0.909918,0.919197,0.929613,0.935695,0.936034,0.943618,0.947399,0.952777,0.955293,0.957402,0.968381,0.977236,0.977499,0.998794,1.01003,1.01132,1.01961,1.02652,1.02782,1.02868,1.03647,1.03968,1.05219,1.05624,1.06315,1.06334,1.06679,1.07242,1.07359,1.08117,1.09058,1.09236,1.09771,1.10242,1.10969,1.10973,1.11582,1.1256,1.1294,1.12946,1.12966,1.13039,1.13519,1.13927,1.14035,1.14155,1.14313,1.15387,1.16358,1.15981,1.15902,1.16338,1.17576,1.1854,1.18595,1.19755,1.20251,1.20556,1.20925,1.21585,1.21834,1.22759,1.23106,1.2367,1.24861,1.24888,1.25811,1.25923,1.26031,1.27506,1.27625,1.28497,1.2946,1.30348,1.30454,1.31231,1.33538,1.33581,1.33163,1.33608,1.34347,1.34375,1.34517,1.35036,1.35671,1.35939,1.36747,1.36617,1.37208,1.38601,1.39126,1.41337,1.41934,0.00472685,1.45541,1.4752,1.47763,1.4991,1.5052,1.52249,1.52092,1.63437,1.54065,1.55368,1.55711,1.56526,1.57491,1.57584,1.60472,1.60274,1.60636,1.60773,1.61613,1.624,1.62726,1.63678,1.64912,1.64741,1.66801,1.6733,1.68165,1.68862,1.69173,1.70629,1.70714,1.71406,1.72244,1.7286,1.72833,1.73403,1.73294,1.7346,1.73927,1.75218,1.75306,1.76169,1.75894,1.76829,1.76844,1.77088,1.77134,1.77102,1.78116,1.77733,1.77848,1.78731,1.78676,1.79207,1.79695,1.80005,1.79841,1.79064,1.79911,1.79466,1.79131,1.80069,1.79608,1.79449,1.79683,1.79778,1.80304,1.80283,1.8104,1.8103,1.81544,1.81565,1.82065,1.81941,1.81811,1.8211,1.82813,1.83156,1.83653,1.83066,1.84049,1.83557,1.83918,1.85365,1.85124,1.85898,1.85673,1.85466,1.86252,1.8701,1.87559,1.87825,1.87873,1.88249,1.88994,1.89639,1.90151,1.90083,1.9096,1.91452,1.91084,1.92522,1.92139,1.93128,1.93768,1.93353,1.93733,1.94849,1.94831,1.94735,1.94988,1.9726,1.9823,1.98674,1.98295,1.98436,1.98368,1.98955,1.998,2.01055,2.0074,2.0134,2.01191,2.02268,2.02062,2.01732,2.0246,2.042,2.05591,2.05138,2.04819,2.06439,2.0602,2.06642,2.07696,2.07083,2.0784,2.07614,2.08871,2.10149,2.11036,2.116,2.11602,2.12192,2.12253,2.12217,2.11932,2.11958,2.12035,2.11674,2.13283,0.0042041,2.14678,2.15883,2.15437
0.727659,0.728475,0.734889,0.733959,0.745605,0.748408,0.747029,0.753647,0.756544,0.775302,0.776556,0.777242,0.790604,0.79253,0.793373,0.797155,0.796837,0.807705,0.80942,0.81811,0.822905,0.830583,0.833756,0.838578,0.841032,0.850023,0.85681,0.85814,0.860131,0.866149,0.866478,0.866698,0.869907,0.87268,0.86509,0.867732,0.868019,0.868416,0.872112,0.874647,0.879959,0.881068,0.884107,0.8848,0.885312,0.889082,0.889016,0.892121,0.900515,0.907976,0.911819,0.921946,0.929206,0.930184,0.941127,0.943627,0.947912,0.951853,0.955642,0.959171,0.973403,0.978033,0.981313,0.988831,1.00049,1.0022,1.01847,1.0239,1.02394,1.02803,1.03005,1.03794,1.03988,1.04733,1.05105,1.05701,1.05991,1.06287,1.06514,1.0734,1.07558,1.08223,1.09266,1.09587,1.10264,1.10354,1.11179,1.11508,1.11588,1.11658,1.1198,1.1228,1.12294,1.12643,1.12707,1.13353,1.14034,1.14219,1.14399,1.14663,1.15954,1.1636,1.1656,1.16733,1.17828,1.18406,1.18673,1.19165,1.1991,1.20487,1.2117,1.21613,1.21943,1.22578,1.23636,1.24664,1.24352,1.24252,1.24277,1.27104,1.27355,1.27415,1.28371,1.2881,1.29823,1.29776,1.30332,1.33252,1.34492,1.34455,1.33172,1.33217,1.33632,1.33761,1.34338,1.34403,1.35731,1.36233,1.37704,1.37716,1.3991,0.00401699,1.44122,1.44183,1.50061,1.47044,1.4785,1.48993,1.48915,1.5139,1.51464,1.52422,1.5253,1.54285,1.55066,1.54898,1.56739,1.58398,1.58527,1.59208,1.60289,1.60568,1.60513,1.61533,1.62134,1.63521,1.63762,1.64469,1.65075,1.67188,1.67252,1.68259,1.69044,1.69848,1.70308,1.70621,1.71975,1.71711,1.7151,1.72967,1.72895,1.74189,1.73814,1.73623,1.73868,1.74207,1.74869,1.75084,1.75838,0.00409393,1.76165,1.77274,1.76985,1.76764,1.77383,1.78077,1.77819,1.76324,1.88619,2.11065,2.17588,1.77869,1.77543,0.00410636,1.77979,1.77872,1.77709,1.78486,1.78542,1.79149,1.78933,1.78915,1.79699,1.79681,1.80401,1.80196,1.81116,1.81285,1.81179,1.81759,1.81665,1.81406,1.81788,1.82428,1.82348,1.82401,1.84066,1.83162,1.84272,1.83768,1.84666,1.8479,1.8551,1.85778,1.86287,1.8633,1.87564,1.87542,1.8882,1.88739,1.89721,1.89441,1.89091,1.90649,1.90277,1.9082,1.92406,1.9174,1.91681,1.91729,1.93401,1.93071,1.93894,1.94308,1.95811,1.95559,1.97097,1.97469,1.97273,1.96954,1.9782,1.97407,1.99337,2.00279,1.99988,1.99969,2.00048,2.01285,2.02137,2.019,2.02119,2.03474,2.0386,2.04079,2.05284,2.04892,2.05575,2.0616,2.0578,2.06536,2.07599,2.0731,2.08572,2.09081,2.08882,0.00395117,2.08918,2.10349,2.10342,2.1072,2.10584,2.10105,2.11479,2.11504,2.11166,2.11817,2.13381,2.13904,2.14808,0.00395036
0.707214,0.719901,0.725237,0.73113,0.728635,0.738582,0.740122,0.751867,0.751693,0.762239,0.77555,0.779092,0.784632,0.786108,0.790834,0.791922,0.79429,0.804379,0.806443,0.814386,0.813285,0.816331,0.819898,0.826414,0.838463,0.84266,0.849484,0.857465,0.856765,0.862829,0.864007,0.865198,0.87187,0.876848,0.883361,0.882616,0.87959,0.877216,0.874848,0.873487,0.882089,0.883039,0.88495,0.894822,0.896544,0.898543,0.904876,0.90596,0.906381,0.916906,0.922392,0.92776,0.938253,0.93927,0.939825,0.947555,0.949276,0.954218,0.960011,0.962025,0.975088,0.981894,0.985016,0.986827,1.00185,1.00446,1.01815,1.02583,1.0265,1.03139,1.03244,1.03407,1.04391,1.04736,1.04741,1.05004,1.05509,1.05814,1.06122,1.06637,1.07591,1.08036,1.08809,1.08972,1.09819,1.10231,1.10398,1.10504,1.11068,1.11388,1.11634,1.11801,1.12189,1.12415,1.12687,1.13308,1.12683,1.14091,1.15141,1.15345,1.15899,1.16259,1.16457,1.17171,1.17982,1.18327,1.19107,1.1926,1.19824,1.20466,1.21111,1.21146,1.22929,1.23342,1.2349,1.2402,1.25006,1.24775,1.25983,1.26284,1.26413,1.27821,1.27832,1.28774,1.30183,1.30305,1.32267,1.32189,1.32827,1.32964,1.33392,1.33493,1.32655,1.3386,1.33807,1.34631,1.35383,1.35491,1.39065,1.38848,1.39688,1.48796,1.45351,1.45359,0.00407758,1.536,1.48325,1.49234,0.00412433,1.55851,1.5282,1.52913,1.53402,1.5401,1.55784,1.5547,1.57156,1.57811,1.58645,1.59704,1.59987,1.6076,1.60888,1.61455,1.62355,1.63386,1.64184,1.64044,1.65606,1.66204,1.67506,1.6854,1.68991,1.69728,1.69897,1.71333,1.71417,1.71598,1.71606,1.71577,1.72353,1.73054,1.73033,1.73458,1.73307,1.7344,1.74152,1.74024,1.74543,1.75179,1.75449,1.75556,1.76112,1.7637,1.76341,1.76084,0.00418951,1.76153,1.75653,1.75465,1.74989,1.76193,1.75915,1.76537,1.76648,1.76696,1.76615,1.77039,1.77768,1.77859,1.77903,1.78393,1.79547,1.79229,1.79299,1.79965,1.79891,1.80102,1.80724,1.8058,1.80848,1.80476,1.80395,1.81161,1.81959,1.81788,1.81597,1.8193,1.81968,1.82082,1.82906,1.84423,1.84567,1.84802,1.85902,1.86298,1.87283,1.87148,1.87697,1.8886,1.88938,1.88656,1.88517,1.89886,1.89518,1.90636,1.90366,1.90281,1.92134,1.91951,1.92805,1.92766,1.94215,1.94052,1.94477,1.94774,1.95591,1.95214,1.96572,1.95868,1.97241,1.96701,1.98354,1.99677,1.99574,2.00102,2.01338,2.00868,2.007,2.00326,2.01729,2.02504,2.03856,2.03808,2.0316,2.04433,0.00397414,2.05284,2.0541,2.05199,2.06688,2.06719,2.07583,2.07507,0.00450841,2.08307,2.08968,2.0864,2.08229,2.09272,2.08986,2.09853,2.10133,2.10401,2.11413,2.11801,2.13319,2.13169,0.00429416,2.15149
0.704494,0.705173,0.71569,0.722659,0.72791,0.726976,0.734739,0.742898,0.745057,0.745681,0.766887,0.770632,0.775802,0.780078,0.78485,0.788932,0.794384,0.791975,0.80128,0.801378,0.809565,0.811265,0.814507,0.81985,0.820471,0.833946,0.835634,0.83989,0.841779,0.841514,0.84659,0.857222,0.866162,0.866096,0.867276,0.866882,0.874076,0.876402,0.878183,0.880723,0.891745,0.89374,0.897092,0.896366,0.896522,0.899802,0.902972,0.912547,0.915166,0.916782,0.929662,0.932249,0.942443,0.943754,0.947754,0.953407,0.958996,0.962731,0.967404,0.969694,0.97466,0.978714,0.987248,0.998026,1.00221,1.01477,1.02161,1.02214,1.02424,1.02908,1.03145,1.03569,1.03764,1.04284,1.04556,1.04687,1.05024,1.05275,1.05669,1.067,1.07059,1.07256,1.08767,1.08509,1.08695,1.09173,1.09687,1.09907,1.10322,1.10913,1.11526,1.10432,1.11963,1.13266,1.13368,1.13257,1.13376,1.13383,1.14462,1.1493,1.1534,1.16389,1.16644,1.17248,1.17434,1.18239,1.18724,1.19575,1.20183,1.20287,1.22423,1.22555,1.23407,1.24295,1.24254,1.2414,1.2494,1.25036,1.25938,1.26216,1.2654,1.27461,1.27457,1.28573,1.28972,1.29599,1.2956,1.29108,1.29366,1.31967,1.31712,1.31719,1.32988,1.34018,1.34533,1.34738,1.35526,1.36319,1.36225,1.41347,1.41378,1.43517,1.54573,1.45942,1.46157,1.4722,1.48833,1.49185,1.62547,1.51984,1.5238,1.52983,1.53094,1.5421,1.55207,1.56427,1.5637,1.57232,1.59236,1.59583,1.61341,1.61134,1.61585,1.61937,1.63028,1.63554,1.63936,1.65024,1.65853,1.66524,1.67892,1.67612,1.68906,1.68888,1.69321,1.69783,1.70095,1.70156,1.70807,1.70968,1.71653,1.71685,1.96223,1.7247,1.72126,1.72901,1.7367,1.73337,1.73772,1.74139,1.92668,1.75458,1.7512,1.75132,1.72936,1.73079,1.73672,1.74165,1.74019,1.73826,1.73943,1.74505,1.74526,1.75621,1.75486,1.75556,1.76532,1.76384,1.7698,1.77225,1.77125,1.78604,1.78673,1.7842,1.7927,1.79,1.78671,1.79373,1.79447,1.7964,1.79568,1.80715,1.81253,1.81175,1.80791,1.81376,1.80727,1.81348,1.81429,1.80821,1.81657,1.83431,1.83467,1.84647,1.84648,1.85227,1.85327,1.86828,1.8761,1.87134,1.87908,1.8758,1.88993,1.89817,1.89587,1.89365,1.90324,1.91054,1.90621,1.92511,1.92301,1.92159,1.92684,1.92349,1.93443,1.94244,1.94439,1.94799,1.95236,1.9695,1.97357,1.97616,1.97386,1.97335,1.99016,1.98838,1.99499,2.00063,2.00318,1.99994,1.99891,2.01464,2.01661,2.03111,2.02869,2.02752,2.02512,2.03507,2.03822,2.03886,2.05007,2.0523,2.05637,2.05389,2.0693,2.0723,2.07685,2.07586,2.0737,2.07903,2.09193,2.09126,2.08899,2.11312,2.11204,2.10778,2.12227,0.00453459,2.14758,2.14813
0.699213,0.703346,0.704253,0.71262,0.71686,0.722241,0.737422,0.740575,0.74416,0.752048,0.756786,0.757552,0.760511,0.768261,0.776665,0.783277,0.783999,0.792056,0.793723,0.795577,0.794594,0.802407,0.809006,0.810087,0.819288,0.824266,0.825309,0.831553,0.83676,0.840363,0.840565,0.847079,0.86019,0.866785,0.869128,0.871468,0.873137,0.876763,0.87897,0.88356,0.886576,0.888039,0.888801,0.890928,0.895462,0.899766,0.901345,0.911356,0.915381,0.919001,0.926708,0.938328,0.946845,0.946544,0.950102,0.964285,0.972997,0.974751,0.976647,0.977877,0.985131,0.989334,0.992845,1.00551,1.00933,1.01241,1.01877,1.02179,1.02823,1.0313,1.03273,1.03567,1.03856,1.04164,1.04464,1.04784,1.05239,1.05535,1.05972,1.06422,1.06773,1.0706,1.07439,1.07591,1.07771,1.08754,1.08967,1.09336,1.09772,1.09716,1.1075,1.10728,1.13773,1.13648,1.13336,1.13488,1.13729,1.13929,1.14549,1.1539,1.15516,1.1613,1.16433,1.17056,1.17108,1.17727,1.42534,1.20211,1.2132,1.21425,1.22178,1.22721,1.22952,1.23056,1.23412,1.23751,1.24449,1.25119,1.25427,1.26044,1.26244,1.27356,1.27396,1.28879,1.29451,1.29068,1.29299,1.29455,1.31949,1.31691,1.31674,1.32266,1.34144,1.34428,1.35329,1.46906,1.5262,1.49014,1.40867,1.42823,1.42633,1.44784,1.44706,1.55916,1.46391,1.48061,1.48394,1.49268,1.56494,1.69994,1.53064,1.53073,1.53596,1.5369,1.55706,1.56052,1.57241,1.57655,1.57956,1.59368,1.60148,1.61083,1.61691,1.62122,1.63748,1.63597,1.64762,1.64572,1.65477,1.66033,1.65871,1.67747,1.67536,1.85184,1.6859,1.69474,1.69665,1.69971,1.6987,1.69859,1.70656,1.84071,1.7108,1.94418,1.89285,1.71872,1.72291,1.72253,1.8485,1.72038,0.00427927,1.71895,1.72359,1.73446,1.7261,1.72634,1.72385,1.72554,1.72831,1.73086,1.73226,1.72852,1.72789,1.73891,1.74574,1.74521,1.7546,1.75621,1.75658,1.76347,1.76994,1.76932,1.77889,1.773,1.77931,1.77952,1.78951,1.78728,1.78834,1.79545,1.79332,1.79461,1.79678,1.79902,1.7978,1.80852,1.81036,1.81392,1.81091,1.80967,1.81739,1.82799,1.82576,1.83761,1.8349,1.85278,1.85476,1.85498,1.87161,1.86874,1.86651,1.88413,1.88101,1.89066,1.89981,1.89875,1.90578,1.90528,1.9179,1.91626,1.91565,1.92399,1.91664,1.92618,1.92343,1.9299,1.94392,1.95557,1.95297,1.95073,1.9621,1.97203,1.97476,1.97206,1.97264,1.98321,1.97944,0.00379952,1.98404,1.99697,1.9944,2.0047,2.00192,2.01086,2.00931,2.01793,2.02895,2.02729,2.02911,2.03449,2.03066,2.02994,2.05627,2.05375,2.05995,2.06973,2.06724,2.06407,2.07743,2.07622,2.0882,2.0998,2.09962,2.10198,2.10999,2.10709,2.12251,2.11685,2.13584,2.14962
0.691954,0.699369,0.700471,0.704482,0.714072,0.718241,0.729898,0.733956,0.745454,0.752159,0.754133,0.756529,0.760961,0.770421,0.771879,0.779298,0.780567,0.784242,0.783769,0.784631,0.791554,0.794157,0.799695,0.807334,0.813708,0.815356,0.821511,0.826654,0.831929,0.837709,0.838619,0.846509,0.850355,0.854506,0.860675,0.868456,0.870717,0.874612,0.876785,0.878235,0.878125,0.883363,0.89055,0.897779,0.904739,0.902491,0.907132,0.908187,0.921525,0.922327,0.92603,0.934571,0.93889,0.947273,0.949939,0.96323,0.967583,0.97194,0.980127,0.986205,0.987187,0.992094,0.999045,1.00493,1.00804,1.01106,1.01792,1.01925,1.02087,1.0265,1.0273,1.03333,1.03882,1.03815,1.04038,1.04145,1.04442,1.0529,1.05613,1.06516,1.06709,1.06878,1.07184,1.07426,1.08133,1.08304,1.08336,1.08432,1.08739,1.0957,1.10085,1.11134,1.12561,1.12591,1.12967,1.10548,1.13809,1.1455,1.15095,1.15273,1.15633,1.15798,1.16298,1.17119,1.17708,1.18789,1.19802,1.20589,1.20612,1.21529,1.22375,1.22638,1.23081,1.23191,1.23388,1.23697,1.24309,1.25027,1.25564,1.25819,1.26524,1.26486,1.27162,1.278,1.28553,1.28627,1.28776,1.30947,1.30917,1.31775,1.32927,1.33665,1.33741,1.35465,1.40343,1.38798,1.38984,1.39995,1.41191,1.42495,1.53832,1.44664,1.45413,0.00406198,1.47484,1.47331,1.50368,1.50293,1.51162,1.51709,1.51958,1.53837,1.537,1.5396,1.55831,1.56619,1.56639,1.58039,1.58289,1.59585,1.60609,1.61781,1.62221,1.61993,1.63703,1.63825,1.6476,1.65099,1.65083,1.65451,1.6613,1.66219,1.66079,1.71655,1.82791,1.68268,1.6822,1.9178,1.68202,1.6891,1.82062,1.84934,1.89651,1.94567,1.70411,1.71139,1.70925,1.71416,1.71048,1.69958,1.70974,1.70478,1.70377,1.71128,1.71197,1.70983,1.71601,1.72757,1.72683,1.72454,1.72549,1.72787,1.72541,1.7288,1.73486,1.74044,1.73748,1.75071,1.76194,1.75939,1.75757,1.75862,1.76308,1.76039,1.76645,1.77144,1.77231,1.78548,1.78387,1.78546,1.78665,1.79283,1.78944,1.79755,1.79802,1.80931,1.80648,1.8127,1.81774,1.81602,1.81957,1.82408,1.83207,1.83175,1.84021,1.85448,1.85453,1.85584,1.85317,1.85498,1.8684,1.86487,1.87664,1.88402,1.88971,1.88536,1.89429,1.90495,1.90275,1.90607,1.90661,1.91474,1.91201,1.91352,1.92983,1.92438,1.94367,1.94421,1.95445,1.94986,1.96133,1.95789,1.96953,1.96276,1.96006,1.95954,1.97567,1.97388,1.9893,1.98646,1.99188,1.99884,1.99813,2.00313,2.01122,2.01384,2.01358,2.01513,2.02214,2.02114,2.03182,2.03279,2.03496,2.05628,2.05625,2.06576,2.06763,2.06807,2.06615,2.0863,2.08302,2.09982,2.09655,2.09381,2.11092,2.1078,2.10528,2.11892,2.13417,2.14777
0.696748,0.694657,0.696955,0.70556,0.709206,0.718209,0.719953,0.723671,0.734999,0.74202,0.746155,0.753863,0.757448,0.762488,0.764439,0.767926,0.774415,0.775403,0.777397,0.781474,0.785983,0.789931,0.794246,0.806105,0.807949,0.808935,0.821307,0.823444,0.836006,0.836497,0.840284,0.844243,0.849623,0.85793,0.86264,0.862526,0.86465,0.866521,0.868839,0.879912,0.881402,0.886924,0.888787,0.90025,0.901423,0.909793,0.918998,0.922336,0.924784,0.926361,0.927015,0.938162,0.941719,0.946175,0.94905,0.95073,0.966475,0.973073,0.977217,0.986711,0.987384,0.994929,0.998972,1.0031,1.00877,1.01223,1.01216,1.01308,1.01595,1.02193,1.02513,1.02887,1.03275,1.03562,1.03762,1.03954,1.04204,1.05216,1.0536,1.05735,1.06598,1.06697,1.07182,1.07805,1.08025,1.08026,1.08048,1.08146,1.28463,1.10702,1.10695,1.10787,1.11832,1.12112,1.12543,1.12939,1.13914,1.14095,1.14605,1.15096,1.15561,1.16528,1.16672,1.18284,1.18896,1.19531,1.20646,1.20969,1.21051,1.22445,1.22347,1.2249,1.22195,1.22312,1.2251,1.23966,1.24242,1.26178,1.26066,1.25973,1.25912,1.26294,1.27178,1.27246,1.27583,1.2883,1.29323,1.58248,1.31204,1.31893,1.52088,1.34015,1.36111,1.36015,1.37618,1.38581,1.77878,1.41519,1.41528,1.42396,0.00422809,1.64511,1.4549,0.0044532,1.47547,1.49263,1.49084,1.50306,1.50438,1.519,1.5238,1.54258,1.54075,1.54353,1.54422,1.56473,1.56433,1.57576,1.6579,1.59968,1.60642,1.61419,1.6238,1.63061,1.63755,1.63318,1.63947,1.6369,1.65149,1.64279,1.64434,1.64631,1.64834,0.00413334,0.00411919,1.73757,1.80024,1.67074,1.66886,1.66741,1.67519,0.00389793,1.67815,1.67594,1.91802,0.00404916,0.00453447,1.68694,1.68373,1.68269,0.00466255,1.69162,0.00423463,1.69414,1.69198,1.71179,1.7152,1.71928,1.72025,1.72033,1.72584,1.72295,1.72205,1.73034,1.72899,1.72994,0.00388945,1.71176,0.0041259,1.73639,1.73393,1.74038,1.74886,1.74947,1.75492,1.77175,1.7688,1.77865,1.7778,1.77702,1.77707,1.78199,1.78856,1.7877,1.79545,1.79526,1.79872,1.80857,1.80577,1.81635,1.82025,1.82777,1.82672,1.83681,1.83823,1.84508,1.84191,1.84177,1.8441,1.85878,1.8562,1.87043,1.88431,1.88145,1.87862,1.8863,1.88781,1.88727,1.89624,1.90826,1.9068,1.89955,1.91219,1.94116,1.93849,1.96655,1.96386,1.96644,1.93333,1.92753,1.95406,1.95582,1.95434,1.95176,1.95986,1.95913,1.9665,1.97072,1.98295,1.98603,1.99573,1.99076,1.99313,1.9993,2.00004,2.01037,2.01007,2.00992,2.01736,2.01092,2.02779,2.029,2.03409,2.04769,0.00367478,2.06075,2.066,2.06582,2.06619,2.06846,2.08319,2.08457,2.10445,2.10015,0.00434501,2.11083,2.10568,2.13074,2.12822,2.1411
0.681302,0.694083,0.695041,0.699065,0.702821,0.702936,0.717872,0.719935,0.732036,0.730309,0.745426,0.746514,0.749444,0.757798,0.761009,0.760633,0.767187,0.767816,0.771146,0.774258,0.785465,0.785905,0.790568,0.79835,0.802831,0.806508,0.816505,0.823648,0.829142,0.830501,0.842673,0.851404,0.852211,0.853409,0.855537,0.856069,0.863082,0.864711,0.871278,0.876776,0.880396,0.881849,0.891757,0.899379,0.902905,0.908108,0.917224,0.916861,0.91887,0.922397,0.930645,0.933051,0.940194,0.944516,0.949454,0.959706,0.963533,0.96637,0.974517,0.985524,0.991876,0.99471,0.996639,0.997334,1.00365,1.00663,1.01464,1.01229,1.01501,1.01618,1.02312,1.02756,1.0285,1.02974,1.03587,1.03583,1.04494,1.04655,1.04959,1.05918,1.05991,1.06028,1.06378,1.07124,1.08135,1.08259,1.09351,1.09561,1.09738,1.09694,1.0967,1.10231,1.11053,1.12181,1.12459,1.13014,1.13877,1.1405,1.14358,1.15414,1.15969,1.17411,1.17911,1.18954,1.19599,1.19939,1.20315,1.20829,1.20979,1.2132,1.21526,1.21572,1.21585,1.22021,1.23069,1.23643,1.23856,1.24064,1.2583,1.25805,1.26157,1.26063,1.2646,1.27406,1.28502,1.28705,1.30235,1.31172,1.31125,1.3175,1.3359,1.35794,1.35546,1.37552,1.39367,1.40596,1.40558,1.40894,1.42473,1.42695,1.44017,1.52036,1.64089,1.47321,1.47371,0.00410677,1.4968,1.49918,1.49809,1.5202,1.52329,1.53205,1.53397,1.54848,1.55397,1.56572,1.57282,0.00412591,1.59491,1.59607,1.59833,1.61876,1.6166,1.62278,1.75905,0.00401832,1.68473,1.62827,1.87376,0.00404634,1.70931,1.80467,1.62851,1.82241,1.76946,0.00364048,1.63547,1.77052,1.79387,0.00421192,1.90392,0.00420469,1.88527,1.64372,1.64161,1.63858,1.65175,0.00449605,1.67447,1.65823,1.78095,0.004216,1.67886,0.00420609,1.69296,1.69407,1.70601,1.70448,1.70375,1.71649,1.72311,1.72144,1.71205,1.71132,1.70785,1.70581,1.70679,1.70578,1.77665,1.7342,1.73237,1.74097,1.73945,0.00410358,1.75787,1.75923,1.76408,1.76646,1.7716,1.77198,1.76755,0.00423035,0.0106165,1.78449,1.79351,1.79528,1.79545,1.80096,1.80441,1.814,1.81784,1.82038,1.82256,1.82259,1.83423,1.83821,1.83576,1.83483,1.8415,1.84716,1.84832,1.85178,1.85984,1.8651,1.86823,1.88683,1.88501,1.88401,1.89369,1.89587,1.89403,1.89142,1.91017,1.94156,1.93972,1.93505,1.93429,1.9345,1.93254,1.92745,1.94808,1.9443,1.94219,1.94045,1.96155,1.96347,1.96175,1.95884,1.96679,1.97569,1.97665,1.98997,1.99004,1.99627,1.99582,1.99809,2.00182,2.00764,2.00456,2.01014,2.01092,2.01821,2.02612,0.00420883,2.04612,2.04866,2.05234,2.05524,2.06547,2.06538,2.06042,2.0733,2.07657,0.00425682,2.09985,0.00425073,2.11699,0.00379775,2.13532,2.15539
0.67089,0.673835,0.683959,0.685563,0.690064,0.705422,0.705784,0.709973,0.726455,0.728365,0.734023,0.739427,0.74243,0.743769,0.744154,0.749988,0.757144,0.766246,0.771651,0.772224,0.782651,0.784938,0.788397,0.793263,0.793333,0.807273,0.808215,0.813688,0.82928,0.831937,0.832197,0.841006,0.842215,0.845459,0.847626,0.856158,0.859247,0.863069,0.869831,0.871268,0.883614,0.888601,0.890831,0.899656,0.902809,0.907929,0.911481,0.916408,0.917776,0.928506,0.929086,0.932088,0.938716,0.946956,0.953549,0.95943,0.962172,0.96618,0.969183,0.982368,0.985414,0.987479,0.989924,0.994913,1.00069,1.00142,1.00308,1.00583,1.00912,1.01141,1.01742,1.02064,1.02605,1.03061,1.03253,1.03937,1.03995,1.04632,1.04919,1.05187,1.05316,1.06265,1.07314,1.07324,1.08024,1.08095,1.08183,1.08404,1.08659,1.09024,1.09413,1.1016,1.11299,1.12038,1.12518,1.13018,1.1432,1.14695,1.12496,1.16763,1.16943,1.18006,1.18601,1.18834,1.1933,1.20244,1.20452,1.21249,1.21307,1.21257,1.21215,1.21188,1.21348,1.22531,1.22717,1.23671,1.23967,1.23896,1.24983,1.25155,1.25396,1.26718,1.26753,1.28134,1.28879,1.29872,1.3082,1.3118,1.30742,1.31036,1.3152,1.35724,1.37521,1.39568,1.39524,1.40606,1.40853,1.42282,1.43297,1.43289,1.44236,0.00385219,1.4711,1.47228,1.47956,1.4823,1.49598,1.50246,1.51445,1.51831,1.52443,1.53805,1.55038,1.54794,1.56148,1.5681,1.57184,1.58123,1.59285,1.59558,1.59772,1.59811,0.00400997,1.60225,1.74377,1.60611,1.60401,1.77689,1.80629,1.81094,1.81375,1.6061,1.60913,1.61031,1.61257,1.61212,1.60917,1.60601,1.83725,1.81738,1.61667,1.61731,1.62752,1.62031,1.63035,1.62943,1.64334,1.6469,1.64532,1.64824,1.653,1.65267,1.66763,1.66217,1.6756,1.67414,1.6792,1.68113,0.00412033,1.6921,1.69269,1.69463,1.69046,1.68904,1.69436,1.6946,1.69287,1.69307,1.70495,1.72185,1.70563,1.73469,1.73535,1.74084,1.74222,1.75073,1.74808,1.75046,1.75177,1.76121,1.76041,1.77194,1.76971,1.77207,1.77647,1.79893,1.79442,1.79196,1.80791,1.8061,1.80833,1.81601,1.81184,1.8167,1.81807,1.83116,1.82969,1.83759,1.8362,1.84669,1.8434,1.84192,1.85126,1.86147,1.8617,1.87641,1.87891,1.88651,1.88702,1.89031,1.89562,1.88873,1.89112,1.89093,1.91297,1.91106,1.9072,1.92087,1.91387,1.94213,1.93959,1.93641,1.93869,1.94143,1.93519,1.94546,1.95224,1.94894,1.95683,1.96519,1.96253,1.97141,1.97137,1.96776,1.98329,1.98047,1.98554,1.99162,1.99632,2.00029,2.00059,2.02061,2.01658,2.02486,2.02414,2.02048,0.00441668,2.03797,2.04866,2.05397,2.06175,2.0729,2.07269,2.08726,2.11204,2.1097,2.12093,2.11702,2.11415,2.14024
0.672064,0.676547,0.676723,0.690995,0.692334,0.697539,0.70373,0.703494,0.711247,0.716178,0.728566,0.72821,0.734612,0.738334,0.73931,0.750991,0.753666,0.763888,0.772963,0.773562,0.778417,0.784429,0.786745,0.791192,0.80469,0.807153,0.807498,0.814574,0.820869,0.827837,0.828657,0.831223,0.835928,0.837967,0.848108,0.850245,0.854684,0.856454,0.869847,0.873553,0.873364,0.881018,0.836703,1.00852,0.913232,0.915449,0.916997,0.917654,0.921709,0.925538,0.925418,0.930855,0.932923,0.949134,0.948594,0.956087,0.956261,0.96652,0.969922,0.971108,0.980886,0.983397,0.988477,0.991502,0.99719,0.997642,1.00004,1.00625,1.00799,1.00833,1.01478,1.02046,1.02335,1.02582,1.02876,1.0326,1.04164,1.04591,1.04891,1.05045,1.05404,1.06021,1.06748,1.06872,1.07392,1.07419,1.07511,1.07963,1.08416,1.0951,1.09987,1.1021,1.1187,1.12294,1.13037,1.13915,1.14804,1.15022,1.16524,1.17091,1.17229,1.17708,1.18489,1.1925,1.19638,1.205,1.20649,1.21055,1.20949,1.21017,1.21561,1.22946,1.22846,1.22761,1.23309,1.23458,1.23624,1.24734,1.25336,1.2544,1.26688,1.26981,1.28208,1.29325,1.29206,1.31003,1.48286,1.50416,1.33377,1.319,1.36249,1.37881,0.00445994,1.39545,1.40268,1.41034,1.41954,1.42035,1.43062,1.44355,1.45745,1.46293,1.46304,1.46884,1.48227,1.49659,1.50127,1.50651,1.51976,1.52059,1.52987,1.53822,1.5507,1.55363,1.55786,1.56108,1.57182,1.57799,1.57919,1.58352,1.58705,1.58034,1.55428,1.56915,1.74451,1.7438,1.77932,1.58815,1.59171,1.58906,1.58871,1.59356,1.71466,1.59173,1.77974,1.59716,1.60211,1.59622,1.60172,1.60055,1.6008,1.59823,1.59632,1.60383,1.61173,1.62077,1.62299,1.62723,1.63491,1.64804,1.6462,1.64467,1.65516,1.65525,1.66244,1.66102,1.66035,1.66468,1.66504,1.6758,1.67669,1.68199,1.68291,1.68211,1.67909,1.68177,1.68663,1.69338,1.69728,1.78946,1.72359,0.0043645,1.73264,1.72607,1.72342,1.73824,1.74407,1.73856,1.73626,1.74583,1.75604,1.7561,1.75893,1.76515,1.77243,1.78556,1.78878,1.79642,1.79601,1.79171,1.7962,1.80675,1.81068,1.80661,1.80697,1.81315,1.81051,1.82525,1.83771,1.83502,1.84114,1.8386,1.84682,1.8453,1.86467,1.87877,1.87667,1.87582,1.88307,1.88116,1.88052,1.87944,1.87759,1.87645,1.87342,1.88659,1.89663,1.89459,1.89563,1.89383,1.9278,1.93479,1.93133,1.93876,1.93573,1.93241,1.93927,1.93873,1.94645,1.95887,1.96269,1.96131,1.97071,1.96828,1.96532,1.97601,1.97805,1.97229,1.98301,1.98587,1.99748,1.99166,1.99473,0.00433328,2.02565,2.0236,2.03428,2.04192,2.05956,2.0593,2.07269,2.06955,2.09381,2.09164,2.10602,2.1027,2.12462,2.12171,2.13089,2.12958
0.658749,0.659539,0.670419,0.673166,0.678361,0.682095,0.691624,0.699499,0.70701,0.711701,0.711355,0.72503,0.732757,0.737983,0.742091,0.745774,0.754763,0.768483,0.770618,0.772444,0.777637,0.780141,0.781033,0.79044,0.802618,0.807402,0.806195,0.807047,0.808345,0.816758,0.821426,0.822887,0.828763,0.831715,0.834871,0.845978,0.854249,0.856226,0.862999,0.863723,0.878664,0.833449,0.867453,0.844153,0.904873,0.906387,0.911794,0.912053,0.917917,0.924178,0.924702,0.929491,0.939918,0.94416,0.947929,0.953451,0.956216,0.964874,0.968194,0.970789,0.981453,0.985206,0.987727,0.988168,0.988233,0.989286,0.99869,1.0029,1.00491,1.00594,1.01197,1.01309,1.01889,1.02409,1.02665,1.03286,1.03749,1.04294,1.04557,1.04758,1.05725,1.05832,1.06103,1.06429,1.06552,1.06699,1.07205,1.08393,1.08898,1.09861,1.10159,1.10637,1.12644,1.13304,1.13628,1.14258,1.15015,1.15311,1.16449,1.16661,1.17088,1.13293,1.19123,1.19353,1.1983,1.20053,1.20371,1.20412,1.20501,1.20952,1.22455,1.22881,1.2267,1.22592,1.22978,1.2394,1.48829,1.25516,1.26274,1.26549,1.28081,1.284,1.28456,1.34876,1.30606,1.32739,1.33026,1.33965,1.35499,1.36245,1.36512,1.37081,1.38481,1.38634,0.00405605,1.40612,1.41691,1.42427,0.00384831,1.44351,1.44705,1.51126,1.46549,1.47318,1.47955,1.57937,1.50407,1.5096,1.50892,1.5185,1.52948,1.54478,1.5428,1.54978,1.55081,1.55014,1.56384,1.56558,0.00413322,1.55841,1.55429,1.56532,1.56765,1.56692,1.56631,1.5678,1.57025,1.5756,1.57523,1.57935,1.58124,1.58159,1.57812,1.57936,1.5817,1.85735,1.56944,1.56954,1.58,1.57941,1.57238,1.57283,1.58619,1.58919,1.60646,1.61083,1.60785,1.62048,1.61848,1.63306,1.63808,1.6325,1.63788,1.63852,1.63598,1.65458,1.65799,1.65983,1.65784,1.66569,1.66932,1.67514,1.66431,1.67144,1.67574,1.6739,1.68487,1.68107,1.67689,1.68128,1.67942,1.69034,1.68906,1.699,1.71254,1.71583,1.72367,1.7349,1.73972,1.74731,1.75326,1.75124,1.76496,1.76484,1.76778,1.77008,1.78245,1.78109,1.77643,1.78454,1.78056,1.79033,1.79766,1.79343,1.79711,1.81269,1.80983,1.80979,1.81418,1.82745,1.82796,1.8418,1.84007,1.84897,1.85411,1.85549,1.86583,1.86584,1.86676,1.86458,1.86817,1.87612,1.87413,1.87309,1.87389,1.89357,1.8933,1.89379,1.89541,1.90435,1.90046,1.90027,1.91227,1.91818,1.91551,1.9069,1.92379,1.9327,1.94792,1.95668,1.95828,1.96602,1.96581,1.96652,1.96265,1.96826,1.96492,1.97208,1.97074,1.96987,1.99266,1.98949,1.98809,2.01196,2.00859,2.02807,2.04098,2.04031,2.06109,2.05783,2.06387,2.07224,0.00440355,2.10135,2.09751,2.10568,2.10341,2.10433,2.10756,2.11537
0.657786,0.658637,0.657991,0.672025,0.667402,0.675165,0.67871,0.683824,0.694223,0.710805,0.718571,0.722929,0.726252,0.739861,0.74385,0.744872,0.755234,0.759164,0.769585,0.770946,0.77611,0.779939,0.787428,0.790685,0.790426,0.792309,0.800222,0.804672,0.810462,0.815406,0.817107,0.819782,0.827146,0.829893,0.835662,0.843215,0.84478,0.849367,0.857888,0.861919,0.865954,0.87669,0.880471,0.887541,0.890716,0.894432,0.910207,0.912269,0.918732,0.9229,0.927374,0.929627,0.936641,0.942687,0.951381,0.953966,0.956518,0.961951,0.963613,0.972955,0.977324,0.983691,0.98457,0.988497,0.989624,0.994962,0.994785,0.996086,0.997527,1.00085,1.0081,1.01031,1.01211,1.01646,1.02251,1.03221,1.03393,1.04357,1.04634,1.04807,1.05139,1.05345,1.05613,1.0595,1.06744,1.0715,1.07743,1.08854,1.09126,1.10843,1.11573,1.12644,1.12976,1.13899,1.14413,1.14572,1.14999,1.16321,1.16308,1.16977,1.17059,1.18458,1.19094,1.28299,1.20065,1.20254,1.20171,1.20649,1.21631,1.22024,1.22234,1.2219,1.22285,1.30331,1.24367,1.24368,1.2602,1.27479,1.27565,1.28354,1.28609,1.2932,1.47911,1.32087,1.32637,1.33663,1.33962,1.35157,1.35533,1.36163,1.50481,1.38084,1.38135,1.38406,1.38801,1.39842,1.41683,1.41427,1.41547,1.4233,1.43986,1.44374,1.45331,1.45715,1.46948,0.00418375,1.59938,1.50545,1.51327,1.51276,1.53092,1.53637,1.54289,1.54064,1.52305,1.52015,1.5265,1.53404,1.53355,1.59374,1.5551,1.5053,1.53307,1.59325,1.55202,1.57111,1.57216,1.57069,1.57706,1.56704,1.56458,1.5698,1.57064,1.56767,0.00440772,1.5665,0.00447093,1.53389,1.56131,0.00376523,1.5678,1.57026,1.56802,0.00417722,1.60058,1.60614,1.60486,1.60292,1.60552,1.61281,1.61638,1.62276,1.6208,1.64409,1.63642,1.63998,1.63831,1.64251,1.65905,1.65784,1.64906,1.65467,1.65186,1.65725,1.65041,1.6564,1.65755,1.66143,1.67478,1.67386,1.68051,1.6804,1.68088,1.68968,1.68453,1.714,1.72893,1.72781,1.73457,1.74194,1.7411,1.76694,1.76369,1.75968,1.75634,0.00411795,1.76842,1.76524,1.77437,1.77066,1.78,1.7803,1.78627,1.79267,1.80436,1.79904,1.79908,1.81619,1.81606,1.82448,1.82366,1.82364,1.83492,1.84554,1.84416,1.85071,1.8572,1.85571,1.86299,1.86675,1.86526,1.87377,1.87332,1.87147,1.87622,1.87608,1.8904,1.89258,1.88975,1.89104,1.90031,1.89556,1.89043,1.89779,1.9049,1.91116,1.93791,1.93886,1.9482,1.94584,1.95535,1.95344,1.95807,1.951,1.95214,1.94922,1.96075,1.95965,1.96933,1.96631,1.9814,1.99293,1.99591,2.01958,2.01742,2.03614,2.0335,2.04705,2.05692,2.06221,2.05955,2.06616,2.06621,2.07369,2.16761,2.10134,2.10475,2.10563,2.10296,2.12278
0.649727,0.650162,0.656028,0.657614,0.667313,0.666093,0.678483,0.680258,0.67982,0.694053,0.691962,0.715451,0.724085,0.728407,0.738375,0.744373,0.753766,0.755508,0.76346,0.76511,0.77379,0.780372,0.784074,0.784603,0.78743,0.794871,0.797965,0.799177,0.801224,0.807694,0.814074,0.819535,0.822155,0.824294,0.825026,0.836616,0.840997,0.846374,0.85281,0.856718,0.865764,0.866685,0.874671,0.879012,0.890448,0.896907,0.901832,0.907479,0.911638,0.921118,0.923457,0.93404,0.937555,0.942603,0.949219,0.953979,0.956102,0.957624,0.960405,0.966431,0.974029,0.979054,0.986763,0.987076,0.999299,1.00187,1.00272,1.00173,1.00007,1.00099,1.00172,1.00976,1.01164,1.01314,1.02316,1.03393,1.03812,1.03927,1.04237,1.04421,1.04714,1.05297,1.05925,1.06196,1.06398,1.08383,1.08641,1.09365,1.1023,1.1111,1.18899,1.1324,1.13146,1.13475,1.14493,1.14617,1.15625,1.15905,1.16,1.17419,1.18111,1.18242,1.14095,1.20498,1.20569,1.20264,1.20355,1.21759,1.21822,1.21871,1.21905,1.2211,1.23272,1.37212,0.0038032,1.30674,1.27952,1.28048,1.2865,1.28752,1.30055,1.31194,1.31997,1.3283,1.32958,1.34304,1.34014,1.35755,1.35897,1.35932,1.366,1.37836,1.37805,1.3965,1.40801,1.40831,1.41052,1.44372,1.42351,1.44432,1.43007,1.42833,1.45312,1.45292,1.46724,1.47371,1.48595,1.4996,1.50788,1.51964,1.52648,1.52556,1.52598,1.57447,1.69967,1.50628,1.51028,1.51079,1.50997,1.50888,1.50746,1.50657,1.51229,1.52561,1.52343,1.53477,1.53546,1.54525,1.54394,1.54054,1.53613,1.53292,1.53087,1.52873,1.5275,1.53231,1.53352,1.53712,1.53135,1.53847,1.55009,1.56017,1.5581,1.56121,0.00383485,1.58492,1.59636,1.59286,1.59566,1.59828,1.60629,1.61323,1.62062,1.62734,1.62661,1.64177,1.64197,1.63165,1.63385,1.63293,1.64522,1.64442,1.64685,1.64541,1.64242,1.64669,1.64514,1.65397,1.65515,1.67287,1.67139,1.6764,1.6768,1.71066,1.70861,1.70994,1.72333,1.72851,1.7303,1.73901,1.73812,1.74237,1.731,1.74439,1.74212,1.7401,1.76504,1.76273,1.76061,1.77919,1.78124,1.78171,1.78066,1.78876,1.78472,1.80126,1.80002,1.7985,1.81822,1.82392,1.82082,1.83085,1.82765,1.82889,1.83781,1.8374,1.83926,1.85134,1.84615,1.86293,1.85938,1.8587,1.85566,1.85815,1.87171,1.86972,1.87935,1.88501,1.88389,1.88896,1.87963,1.8962,1.89128,1.89336,0.00389722,1.92844,1.92655,1.927,1.94023,1.92857,1.95746,1.95331,1.95269,1.94226,1.94168,1.9373,1.94806,1.95583,1.95575,1.97381,1.98173,1.98774,0.00392707,2.00468,2.03325,2.02872,2.04513,2.05923,2.05582,2.06177,2.05836,2.06673,2.06298,2.073,2.07378,0.00442343,2.09396,2.09078,2.08715,2.09773
0.649204,0.653571,0.655312,0.655269,0.657102,0.666255,0.669886,0.67055,0.677267,0.686446,0.702044,0.709147,0.722359,0.724597,0.73175,0.741384,0.746769,0.755432,0.756957,0.762007,0.764805,0.773537,0.775485,0.780887,0.783037,0.789964,0.791984,0.798339,0.805064,0.810369,0.811209,0.813412,0.818362,0.82019,0.822976,0.836691,0.839418,0.844323,0.846838,0.85393,0.856412,0.863498,0.866736,0.87718,1.17224,0.89263,0.898046,0.906134,0.90937,0.918105,0.918697,0.93211,0.934073,0.94004,0.944707,0.946517,0.949946,0.956288,0.958052,0.966432,0.967982,0.976622,0.97858,0.982117,0.989663,0.991307,0.99386,0.993844,0.994214,1.00111,1.00439,1.00785,1.01111,1.01986,1.02623,1.03027,1.03248,1.03732,1.03953,1.04307,1.04955,1.05443,1.06108,1.06559,1.07675,1.09119,1.09434,1.09784,1.10552,1.12366,1.12644,1.12746,1.13038,1.13311,1.1372,1.14068,1.14929,1.1572,1.1725,1.177,1.18183,1.19578,1.20112,1.20173,1.18291,1.18301,1.18723,1.19962,1.21374,1.21608,1.22194,1.2366,1.25156,1.25778,1.27561,1.27888,1.28107,1.29038,1.29465,1.30703,1.32234,1.32406,1.32692,1.33406,1.34465,1.34565,1.35174,1.35003,1.35766,1.35884,1.35872,1.37138,1.39186,1.43071,1.41967,1.41668,1.41421,1.41238,1.40656,1.40656,1.50404,1.50361,1.50274,1.50353,1.51676,1.47643,1.47546,1.48493,1.49271,1.4991,1.49603,1.48083,1.69159,1.50272,1.49479,1.49747,1.49875,1.49669,1.49722,1.49839,1.50224,1.50143,1.51271,1.678,1.51505,1.77062,1.77621,1.53419,1.52861,1.52783,1.52401,1.52138,1.52434,1.52506,1.52275,1.52214,1.51786,1.51654,1.51922,1.51979,1.53492,1.54107,1.54781,1.55288,0.00447872,1.57893,1.58648,1.58221,1.58302,1.58663,1.60531,1.60682,1.61028,1.61425,1.62189,1.6261,1.62541,1.62481,1.62865,1.62407,1.62866,1.64011,1.63751,1.63631,1.63744,1.63991,1.64657,1.64903,1.65176,1.6716,1.6745,1.67542,1.6952,1.69602,1.70898,1.71351,1.71935,1.72129,1.71789,1.72381,1.7186,1.71716,1.73725,1.73424,1.7422,1.73952,1.74435,1.75601,1.76122,1.76896,1.771,1.76973,1.77069,1.78274,1.78286,1.79201,1.79657,1.80744,1.81787,1.8237,1.82123,1.82339,1.82705,1.82633,1.82656,1.83355,1.83065,1.83911,1.83607,1.83119,1.85071,1.84989,1.85309,1.85118,1.85162,1.85667,1.86627,1.85549,1.85829,1.86907,1.88366,1.89125,1.90863,1.90466,1.90224,1.89667,1.89217,1.92206,1.92581,1.93036,1.92823,1.93207,1.93001,1.93784,1.94272,1.94138,1.94726,1.95494,1.95439,1.96648,1.98019,1.99483,1.99394,2.00161,2.01751,0.00418178,0.00439695,2.05192,2.05013,2.05081,2.04658,2.06307,2.06177,2.05621,0.00409782,0.00371741,0.00462763,0.00390807,2.11052,2.10742
0.649202,0.650278,0.65547,0.657665,0.660199,0.666359,0.672458,0.673634,0.680129,0.679671,0.693462,0.706447,0.714407,0.719861,0.726912,0.738807,0.739926,0.745443,0.743952,0.74751,0.762412,0.771462,0.773849,0.774721,0.781327,0.784356,0.794971,0.797644,0.803712,0.806039,0.811891,0.812705,0.813143,0.813175,0.821336,0.829553,0.839076,0.840104,0.842502,0.844923,0.855216,0.860747,0.861987,0.87086,0.878372,0.893076,0.893933,0.899381,0.905897,0.91846,0.921543,0.927145,0.932715,0.936936,0.937067,0.93966,0.945245,0.946077,0.956098,0.956424,0.96308,0.964575,0.969823,0.9742,0.984994,0.988706,0.990473,0.991377,0.996122,0.998102,1.00222,1.00928,1.01145,1.02225,1.02383,1.03002,1.03217,1.03914,1.04042,1.04936,1.05917,1.05973,1.06187,1.06672,1.0831,1.0869,1.08866,1.26794,1.11648,1.11786,1.12183,1.12904,1.12747,1.19121,1.13207,1.13405,1.143,1.15662,1.15867,1.24891,0.00403846,1.17826,1.18107,1.17975,1.18094,1.18407,1.29667,1.2139,1.21694,1.41686,1.2424,1.24349,1.24972,1.26467,1.26868,1.27629,1.27741,1.44048,1.30454,1.30529,1.31395,1.32153,1.32804,1.33122,1.34414,1.34559,1.35323,1.35241,1.4345,1.36181,1.3956,1.39388,1.40045,1.40159,1.43192,1.43296,1.43349,1.3976,1.39593,1.3971,1.40567,1.41528,1.48139,1.49859,1.51027,1.50947,1.47431,1.47345,1.48356,1.4835,1.48419,1.48132,1.48128,1.58577,1.47521,1.47476,1.48884,1.48809,1.48933,1.49476,1.49246,1.49913,1.49739,1.49667,1.61966,1.50918,1.50818,1.51953,1.51916,1.51818,1.52109,1.51949,1.51921,1.51893,1.51708,1.5158,1.51717,1.51773,1.51997,1.5168,1.51499,1.52247,1.53248,1.53665,1.5377,1.568,1.57281,1.57918,1.58496,1.59296,1.59438,1.59272,1.60078,1.61349,1.61696,0.00422647,1.60919,1.60712,1.60931,1.61499,1.6256,1.622,1.62707,1.63059,1.63195,1.63435,1.64135,1.64883,0.00415398,1.67465,1.68023,1.67885,1.69129,1.6903,1.68959,1.70331,1.71042,1.69921,1.70016,1.70836,1.70611,1.71393,1.71486,1.7248,1.73122,1.74432,1.74473,1.74918,1.76164,1.75837,1.76184,1.76309,1.76805,1.77822,1.78263,1.7922,1.79611,1.79426,1.80265,1.80197,1.80608,1.8075,1.80712,1.81072,1.80708,1.80554,1.81472,1.818,1.8327,1.8348,1.83438,1.84616,1.84265,1.8479,1.85124,1.85524,1.84603,1.85418,0.00403563,1.87075,1.88727,1.88456,1.89229,1.90665,1.90318,1.89988,1.89895,1.89613,1.88616,1.91016,0.00412595,1.91644,1.93147,1.93962,1.93727,1.93771,1.95558,1.95448,1.96131,1.96596,1.98063,0.00419849,1.99777,2.00394,2.00471,2.01934,2.02552,2.03913,2.05293,2.05156,2.04953,2.04914,2.04742,2.04212,2.048,2.1781,2.08173,2.07882,0.00383986,2.10688
0.648963,0.650044,0.655337,0.661161,0.664178,0.665491,0.664844,0.671581,0.674323,0.682347,0.703857,0.706294,0.706727,0.715446,0.717825,0.717558,0.729818,0.727853,0.7255,0.734828,0.740633,0.749313,0.765844,0.776814,0.782842,0.783264,0.787318,0.790901,0.798037,0.803297,0.804852,0.807749,0.808702,0.815344,0.815378,0.81881,0.831943,0.834932,0.836235,0.845849,0.850383,0.856299,0.860896,0.861953,0.868167,1.00176,0.892078,0.89424,0.904612,0.908302,0.921836,0.923639,0.926252,0.930658,0.933411,0.934578,0.937525,0.942845,0.940401,0.946844,0.957423,0.960396,0.961539,0.962889,0.964918,0.971171,0.978968,0.987704,0.988992,0.999612,1.00872,1.01357,1.01582,1.0217,1.0255,1.03515,1.03475,1.03882,1.04065,1.04969,1.05463,1.05896,1.06101,1.07625,1.0762,1.08903,1.09321,1.10198,1.10206,1.0989,1.10105,1.10552,1.10717,1.11283,1.20534,1.13589,1.13734,1.14617,1.14832,0.00386882,1.26227,1.32068,1.32548,1.26786,1.20225,1.19995,1.12182,1.22119,1.22327,1.23767,1.23579,1.24634,1.26084,1.26401,1.26783,1.27125,1.28108,1.31364,1.31485,1.29911,1.30045,1.31485,1.31676,1.43913,1.33583,1.33611,1.33725,1.33411,1.33312,0.0040402,1.39882,1.3977,1.42396,1.42332,1.4445,1.44379,1.39965,1.44088,1.39643,1.45302,1.45424,1.4053,1.48869,1.49588,1.45071,1.44931,1.46117,1.56945,1.47075,1.5692,1.47671,1.44658,1.44611,1.45762,1.47011,1.51527,1.52208,1.48715,1.4857,1.48478,1.49153,1.4894,1.55389,1.56696,1.47366,1.47049,1.47097,1.44073,1.46173,1.4566,1.45354,1.46059,1.45989,1.46933,1.50308,1.50574,1.50744,1.50889,1.50648,1.50676,1.51551,1.51314,1.56486,1.52429,1.54063,1.54027,1.55932,1.55699,1.57263,1.58147,1.58213,1.58606,1.58612,1.58983,1.59194,1.59709,1.59427,1.60024,1.60172,1.59917,1.61061,1.6111,1.61663,1.61624,1.62618,1.63136,1.64766,0.00422575,1.66353,1.66258,1.67231,1.67745,1.67693,1.68309,1.68552,1.68324,1.68257,1.68504,1.69292,1.69683,1.69425,1.69526,1.7077,1.71453,1.72423,1.72868,1.73917,1.74562,1.74517,1.74691,1.75125,1.74952,1.76355,1.77649,1.77969,1.77838,1.781,1.78468,1.78968,1.78688,1.77925,1.78534,1.78228,1.78687,1.7852,1.799,1.80025,2.09612,1.80986,1.81979,1.81553,1.82797,1.84431,1.8409,1.83026,1.82681,1.82442,1.85267,1.86326,1.86271,1.87203,1.88567,1.87023,1.89591,1.89117,1.89197,1.9013,1.89925,1.87781,1.87723,1.90316,1.92455,1.92181,1.92345,1.93782,1.93554,1.94443,1.9631,1.95987,1.96396,1.96941,1.99643,1.9949,1.9975,0.00419129,2.0218,2.02409,2.03197,2.0283,2.03477,2.03898,2.05199,2.04901,2.04505,2.06182,2.05542,2.06891,2.07669,2.09174,2.10779
0.648952,0.646528,0.653686,0.659769,0.659874,0.661757,0.662799,0.667448,0.674866,0.682034,0.690884,0.703258,0.706998,0.709968,0.714811,0.716705,0.716606,0.716846,0.725831,0.739442,0.741487,0.745948,0.75747,0.759501,0.770247,0.770306,0.775114,0.783733,0.790474,0.791151,0.801327,0.804541,0.810778,0.811661,0.813888,0.819626,0.822241,1.10278,0.833247,0.843109,0.849939,0.850388,0.853594,0.862582,0.864181,0.866732,0.881702,0.879145,0.890382,0.98474,0.908664,0.909222,0.915359,0.931778,0.932381,0.930957,0.93168,0.932964,0.9387,0.946582,0.947218,0.949904,0.951644,0.958645,0.974544,0.975513,0.979831,0.985791,0.987963,0.996633,1.01635,1.01846,1.02084,1.02658,1.03043,1.03079,1.03424,1.03738,1.04277,1.04916,1.05582,1.06384,1.07747,1.08127,1.08664,1.08912,1.0918,1.10181,1.10082,1.09734,1.09911,1.10676,1.1112,1.11186,1.1262,1.33958,1.46764,1.16013,0.00390677,1.3052,1.2761,1.19304,1.1977,1.19949,1.20679,1.20872,1.21638,1.21269,1.21492,1.22879,0.0042894,1.24813,1.28205,1.25578,1.26643,1.27325,1.27827,1.29455,1.29485,1.28371,1.27896,1.28195,1.27685,1.3668,1.36604,1.29538,1.29168,1.28457,1.2853,1.31286,1.31955,1.32132,1.43001,1.41601,1.43608,1.43492,1.4002,1.40331,1.41428,1.41963,1.41974,1.41759,1.42324,1.42275,1.45463,1.44417,1.43494,1.43318,1.4336,1.43454,1.44367,1.44178,1.45365,1.45354,1.55076,1.5139,1.45569,1.55713,1.43756,1.43699,1.46622,1.46652,1.47764,1.47138,0.00402123,1.48542,1.46245,1.4639,1.45824,1.45766,1.44798,1.42746,1.43662,1.4436,1.47061,1.45219,1.46885,1.48184,1.47981,1.50098,1.45465,0.0103413,0.00407627,0.00435105,1.5335,1.53058,0.00425998,1.59599,1.56267,1.55967,1.55837,1.56659,1.56545,1.56478,1.58554,1.58391,1.59062,1.58855,1.58985,1.59066,1.59629,1.60303,1.59995,1.61699,1.62158,1.61959,1.63864,1.64167,1.64174,1.64507,1.64683,1.66302,1.66918,1.67079,1.66998,1.679,1.68076,1.68038,1.68141,1.69085,1.69694,1.69643,1.69595,1.70011,0.0038345,1.71059,1.72379,1.73413,1.74073,1.74798,1.74883,1.74909,0.00402318,1.75477,1.76783,1.76654,1.77091,1.77004,1.76196,1.77535,1.77581,1.77362,1.78246,1.77907,1.77975,1.77935,1.79193,1.79957,1.79962,1.80918,0.00426256,1.81173,1.81459,1.8181,1.81754,1.8296,1.82773,1.84918,1.85588,1.85248,1.85168,1.85449,1.86008,1.86171,1.85428,1.87353,0.00359879,1.89371,1.89224,1.89968,1.90677,1.91514,1.91332,1.92578,1.93105,1.94181,1.95022,1.94801,1.95805,1.96462,0.00372253,1.98768,1.98713,2.00209,1.99947,2.00819,2.01297,2.01041,2.03557,2.03362,2.04563,2.0522,2.04917,2.06294,2.06002,2.05893,2.06783,2.06969,2.09982,2.09915
0.639799,0.640557,0.649301,0.652505,0.65341,0.653797,0.66313,0.677876,0.678573,0.680443,0.692892,0.699675,0.703553,0.70556,0.704858,0.711733,0.715855,0.722094,0.732331,0.732673,0.739113,0.73969,0.746813,0.757899,0.759613,0.771742,0.775244,0.78875,0.790993,0.793697,0.793603,0.799001,0.801637,0.807604,0.809956,0.812529,0.818163,0.825631,0.8297,0.836839,0.836473,0.840904,0.843029,0.855077,0.864854,0.865977,0.868672,0.86884,0.882156,0.884127,0.900849,0.903873,0.910029,0.913442,0.916929,0.9188,0.928309,0.929602,0.935192,0.937317,0.938868,0.942314,0.942371,0.967004,0.973123,0.976591,0.977827,0.981925,0.994297,1.00139,1.00872,1.01724,1.02015,1.0242,1.02711,1.03165,1.03203,1.03667,1.04225,1.05451,1.05643,1.06515,1.08266,1.08602,1.08775,1.08487,1.09238,1.09338,1.09463,1.09424,1.10163,1.10585,1.11193,1.11806,1.55794,1.24567,1.15962,0.00408392,1.26374,1.17437,1.18769,1.19177,1.19331,1.20206,1.20912,1.11894,1.12184,1.1082,1.12707,1.09587,1.22995,1.23659,1.17705,1.34204,1.34498,1.31909,1.31271,1.28978,1.28996,1.28505,1.28609,1.27605,1.27744,1.2784,1.27004,1.36628,1.30329,1.30289,1.28797,1.28891,1.29172,1.32979,1.32679,1.35794,1.35986,1.44059,1.41727,1.40445,1.4333,1.43727,1.43805,1.43708,1.49539,1.50913,1.50761,1.43409,1.43512,1.4333,1.43275,1.43828,1.5685,1.49989,1.53234,1.40556,1.41946,1.40671,1.42388,1.43242,1.43082,1.40789,1.40534,1.40769,1.41974,1.43139,1.43199,1.44331,1.44407,1.45549,1.45022,1.49566,1.4943,1.41477,1.40591,1.40747,1.5058,1.51815,1.45545,1.45498,1.4703,1.45329,1.45494,1.45707,1.45944,1.45413,1.54359,0.00401632,1.55098,1.49668,1.46748,1.56972,1.57567,1.57356,1.57279,1.57711,1.5778,1.5782,1.57522,1.57736,1.58218,1.58209,1.59162,1.59566,1.60711,1.61331,1.62007,1.61731,1.62434,1.62792,1.63851,1.63619,1.64128,1.64682,1.65344,1.65925,1.66601,1.67146,1.67663,1.67507,1.67534,1.68167,1.68052,1.67753,1.69114,1.68448,1.70672,1.70395,1.7077,1.72737,1.73617,1.73857,1.74054,0.00389877,1.75058,1.75155,1.75506,1.76164,1.75564,1.75821,1.75615,1.75747,1.76489,1.78284,1.77843,1.77955,1.78085,1.77787,1.77999,1.78435,1.78284,1.7834,1.78595,1.79239,1.79577,1.81757,1.82435,1.82442,1.83269,1.8278,1.8316,1.84066,1.84241,1.83421,1.83079,1.86786,1.86982,1.87693,1.88678,1.90036,1.89666,1.89502,1.89408,1.9088,1.92078,1.92291,1.92802,1.92999,1.93017,1.95141,1.94787,1.94944,1.9756,1.9898,1.98951,1.98732,2.00325,2.01741,2.01535,2.01375,2.01699,0.00411744,0.00422978,0.00416893,2.06086,2.05591,2.06097,2.05998,2.05644,2.08656,2.08422,2.09078
0.638537,0.639697,0.642241,0.646289,0.645524,0.64818,0.662256,0.661935,0.667285,0.665939,0.673504,0.687695,0.691848,0.693661,0.705078,0.711774,0.719622,0.728157,0.724645,0.732749,0.732083,0.739864,0.749808,0.758597,0.760183,0.761306,0.772039,0.781822,0.779033,0.787409,0.789677,0.794418,0.795586,0.803598,0.804918,0.812053,0.813486,0.818381,0.820822,0.822513,0.838651,0.840017,0.841113,0.844818,0.854211,0.855698,0.861347,0.869475,0.978134,0.885566,0.887043,0.897172,0.898988,0.901412,0.901817,0.928575,0.930191,0.932603,0.933125,0.931641,0.934807,0.938545,0.941113,0.960946,0.962019,0.965424,0.965409,0.980969,0.989906,0.998315,1.0024,1.00718,1.01351,1.01536,1.02265,1.02521,1.03013,1.03431,1.04615,1.04962,1.05862,1.0603,1.07027,1.07717,1.07878,1.08469,1.08753,1.08985,1.09109,1.0932,1.0965,1.10017,1.10551,1.2136,1.21968,1.21912,1.15696,1.16324,1.16654,1.17985,1.181,1.18882,1.12989,1.13745,1.1204,1.09875,1.08694,1.07366,1.23125,1.23709,1.23408,1.14312,1.1584,1.15643,1.25073,1.24462,1.2478,1.29086,1.28541,1.28373,1.2869,1.27294,1.27812,1.28098,1.27979,1.26597,1.27593,1.27729,1.33742,1.33637,1.31881,1.31911,1.31195,1.31219,1.32014,1.32139,1.37357,1.3986,1.41547,1.48601,1.48657,1.40532,1.41713,1.41821,1.41982,1.4192,1.41984,1.55737,1.55817,1.41072,1.41271,1.42763,1.40311,1.38009,1.37842,1.37466,1.39808,1.37806,1.39706,1.39489,1.41079,1.41144,1.39798,1.41373,1.41305,1.41361,1.41003,1.41197,1.40713,1.42892,1.44053,1.43743,1.43668,1.37422,1.37137,1.53183,1.38663,1.41664,1.41673,1.41597,1.43731,1.4448,1.43228,1.50001,1.49299,1.45555,1.46511,1.46378,1.4723,1.57228,1.57276,1.57534,1.56939,1.58209,1.54268,1.55307,0.0039179,1.57264,1.57955,1.58675,1.58879,1.596,1.60493,1.61194,0.00417443,1.61493,1.61972,1.62301,1.62052,1.62933,1.63446,1.6438,1.64388,1.6495,0.00390701,1.66388,1.66434,1.66243,1.66621,1.66833,1.67356,1.67558,1.67916,1.68958,1.69712,1.70296,1.70928,1.71728,1.7165,1.71363,1.72304,1.72379,1.70694,1.70793,1.74043,1.74927,1.748,1.75927,1.75496,1.75291,1.75823,1.77187,1.77182,1.77179,1.77642,1.77354,1.77748,1.77679,1.77282,1.77202,1.78076,1.79345,1.79964,1.81035,1.8083,1.80991,1.81982,1.82686,1.82699,1.8385,1.83682,1.83458,1.8568,1.85599,1.85433,1.87687,1.87492,1.89171,1.88977,1.89372,1.90067,1.90268,1.9075,1.91159,1.92097,1.92174,1.92933,1.95202,1.94948,1.95834,1.97877,1.976,1.98513,1.99034,0.00434858,2.00301,1.99963,2.02445,2.02117,2.03224,2.03855,0.00558626,2.05859,2.07005,2.07559,2.07307,2.08497,2.08374,2.08367,2.08241
0.6239,0.628019,0.627096,0.638607,0.632868,0.639875,0.650106,0.65111,0.658775,0.665964,0.672848,0.671016,0.674809,0.698663,0.700306,0.700417,0.710978,0.713109,0.715997,0.728055,0.730722,0.733438,0.744901,0.753359,0.765189,0.766107,0.767199,0.771459,0.777583,0.781139,0.781523,0.784462,0.788309,0.793869,0.800341,0.800922,0.805296,0.805289,0.812142,0.819232,0.823461,0.825318,0.830409,0.835346,0.833861,0.85251,0.854838,0.8568,0.867502,0.867517,0.873667,0.884072,0.886845,0.00398133,0.906991,0.919108,0.92084,0.919306,0.922304,0.93005,0.932633,0.934949,0.942532,0.944606,0.953679,0.00388593,0.966023,0.985275,0.990416,0.996454,0.999255,1.00561,1.0094,1.01191,1.01653,1.02372,1.03187,1.03694,1.04553,1.04848,1.06058,1.06778,1.07172,1.07245,1.0809,1.08234,1.09216,1.09201,1.09258,1.09413,1.09794,0.00383032,1.27895,0.00376737,1.14651,1.14799,1.16412,1.16677,1.16747,1.24983,1.15802,1.15933,1.16066,1.16139,1.09481,1.0815,1.07304,1.077,1.09593,1.0981,1.11217,1.11194,1.10308,1.11322,1.12101,1.17315,1.20087,1.19559,1.32377,1.32356,1.24646,1.24728,1.35017,1.25317,1.29422,1.27253,1.27697,1.28847,1.306,1.28264,1.30145,1.31217,1.31335,1.35714,1.39118,1.3912,1.39627,1.40629,1.40573,1.44706,1.41547,1.41492,1.50101,1.40851,1.4066,1.4102,1.40958,1.41134,1.41578,1.38992,1.40218,1.55187,1.55164,1.52432,1.45745,1.45496,1.45123,1.38102,1.39672,1.38666,1.38677,1.39531,1.39509,1.3986,1.43941,1.44002,1.43169,1.42589,1.41565,1.40873,1.40663,1.4308,1.39778,1.42219,1.39864,1.40558,1.41769,1.41734,1.43554,1.48081,1.47443,1.45208,1.46516,1.46451,1.46746,1.46666,1.45461,1.45273,1.49063,1.50148,1.4896,1.48901,1.49152,1.49827,1.53018,0.00350303,1.56494,1.56544,1.57563,1.58064,1.58028,1.59228,1.5933,1.59118,1.5986,1.59649,1.6081,1.60488,1.61227,1.60884,1.62209,1.6301,1.62842,0.00332705,1.65458,0.0038052,1.65232,1.65381,1.66094,1.66802,1.66968,1.66745,1.67627,0.00413781,1.6722,1.68342,0.00475068,1.7024,1.70102,1.71243,1.71008,1.70985,1.72129,1.72741,1.72695,1.74057,1.73783,1.75155,1.75072,1.75442,1.75237,1.76895,1.7594,1.76468,1.76334,1.76996,1.76961,1.77339,1.77336,1.78492,1.78296,1.79316,1.79121,1.80666,1.8098,1.80869,1.82124,1.82572,1.83277,1.83324,1.8322,1.8301,1.85551,1.85567,1.85228,1.86286,1.8833,1.88576,1.88648,1.89655,1.89894,1.90066,1.91226,1.91272,1.91099,1.92771,1.93475,1.93275,1.9458,0.00363609,1.9631,1.9697,0.00420959,1.99011,1.99015,1.99321,1.99969,2.01759,2.02473,0.00385142,2.035,0.00433285,2.05896,2.06484,2.0657,2.07624,2.07453,2.08028,2.09416,2.093
0.615314,0.623194,0.625107,0.629172,0.632861,0.632138,0.638385,0.650315,0.658451,0.65718,0.667632,0.669264,0.674022,0.687176,0.694314,0.696877,0.710825,0.70856,0.72237,0.72599,0.739153,0.741934,0.752515,0.75299,0.759262,0.759074,0.759198,0.765311,0.770647,0.773896,0.783614,0.791089,0.792217,0.778063,0.785389,0.788229,0.796012,0.801285,0.807996,0.810572,0.812633,0.818547,0.824605,0.825079,0.829907,0.84089,0.841878,0.843445,0.847765,0.850628,0.851085,0.870341,0.872407,0.875352,0.878894,0.900582,0.904961,0.911081,0.913509,0.922774,0.928333,0.934527,0.936266,0.938436,0.957691,0.957695,0.979341,0.981036,0.984458,0.989067,0.99512,1.00271,1.00723,1.00918,1.02141,1.02476,1.02891,1.04598,1.04766,1.05343,1.06132,1.06381,1.06499,1.06981,1.07058,1.07855,1.07859,1.07817,0.00372648,1.13353,1.09473,1.10208,0.00425661,0.0040799,0.0041429,1.09052,1.10582,1.10675,1.07371,1.09434,1.14298,1.17839,0.00403776,0.0036303,1.14081,1.14064,1.07577,1.08935,1.07086,1.09706,1.09176,1.09765,1.10212,1.12682,1.13627,1.17768,1.17083,1.175,1.17869,1.15335,1.17884,1.18105,1.20924,1.22144,1.22526,1.26181,1.27032,1.26944,1.28184,1.3184,1.31922,1.34865,1.40226,1.40409,1.38457,1.46361,1.415,1.4348,1.43479,1.40613,1.4007,1.40202,1.39819,1.48022,1.37511,1.37149,1.51744,1.51611,1.39819,1.41,1.4118,1.52213,1.46794,1.48305,1.45331,1.45304,1.4524,1.37627,1.37308,1.37541,1.39193,1.39516,1.41398,1.41279,1.39571,1.4489,1.51471,1.47436,1.40658,1.39778,1.39938,1.39742,1.39423,1.39592,1.41041,1.4192,1.41919,1.4183,1.43951,1.46126,1.43209,1.43113,1.4363,1.47132,1.45943,1.45689,1.45593,1.47522,1.48339,1.48477,1.48997,1.54578,1.49733,1.49663,1.48006,1.48014,1.48849,1.485,1.49927,1.57536,1.58482,1.58392,1.57675,1.58683,1.59362,1.59481,1.593,1.59421,1.59948,1.59744,0.00424036,1.61383,1.62625,1.62682,0.00396696,1.6419,1.6425,1.64848,1.65039,1.64872,1.65934,1.65635,1.65914,1.65984,1.66788,1.672,1.67585,0.00367879,1.69199,1.68674,1.69635,1.70808,0.00416592,1.72876,1.72632,1.71311,1.72651,2.00012,0.00427672,1.75222,1.75563,1.75429,1.76548,1.7624,1.76253,1.7599,1.75874,1.76751,1.77204,1.77104,1.78907,1.79315,1.7933,1.79218,1.80449,1.81046,1.81812,1.81798,1.82266,1.83069,1.83108,1.84807,1.85313,1.85528,1.86294,1.86183,1.86792,1.87217,1.88227,1.89085,1.88929,1.89759,1.90622,1.91072,1.92488,1.92277,1.9229,1.92448,0.00447445,1.95266,1.95185,1.97724,1.97757,1.97544,1.98434,0.00460209,2.00665,2.01707,2.0324,2.02952,2.03769,2.03499,2.05705,2.05567,2.05802,2.06995,2.06886,2.09704,0.00417032,2.11468
0.60798,0.614617,0.617788,0.625255,0.62825,0.630266,0.635116,0.636106,0.647582,0.649538,0.657687,0.668851,0.669593,0.676408,0.680892,0.7004,0.701693,0.00434521,0.712553,0.73001,0.736673,0.739091,0.742529,0.744365,0.745609,0.74718,0.753711,0.754348,0.763364,0.764825,0.769823,0.768284,0.771066,0.776376,0.779532,0.787418,0.788195,0.797513,0.800344,0.801658,0.8053,0.808581,0.815766,0.822267,0.822577,0.825862,0.825265,0.835007,0.832689,0.83785,0.844005,0.843763,0.847811,0.00366816,0.987793,0.906875,0.909376,0.913005,0.915709,0.918178,0.924423,0.929158,0.947412,0.95121,0.952196,0.968212,0.972224,0.976607,0.978779,0.984876,0.00376942,0.00374488,1.00468,1.01442,1.02051,1.02578,1.03346,1.04043,1.0416,1.05052,1.05133,1.05866,1.05675,1.05542,1.06013,1.06455,1.07049,1.07346,1.07891,1.08627,1.08761,1.09068,1.07619,1.07658,1.09501,0.00372911,1.0819,1.05231,1.05389,1.06371,1.19387,1.21523,1.08186,1.07786,1.1133,1.09647,1.08419,1.098,1.09946,1.09804,1.09542,1.09664,1.08276,1.08513,1.11826,1.19054,1.14392,1.15814,1.15712,1.16745,1.15878,1.15943,1.20018,1.20019,1.21861,1.21991,1.23351,1.23688,1.29557,1.30647,1.30452,1.30441,1.32361,1.43026,1.43958,1.45714,1.45885,1.46112,1.59887,1.35838,1.358,1.37617,1.36599,1.35696,1.35057,1.34936,1.37951,1.3818,1.38259,1.33846,1.35521,1.38469,1.37424,1.37259,1.38194,1.34974,1.36946,1.37298,1.37444,1.36498,1.37682,1.37689,1.37805,1.38426,1.39965,1.41245,1.38429,1.4161,1.39533,1.39388,1.39154,1.38246,1.36359,1.36357,1.39696,1.39715,1.39399,1.39508,1.42587,1.41508,1.42019,1.47291,1.43654,1.43633,1.43789,1.44081,1.46403,1.4985,1.45644,1.48951,1.48356,1.48723,1.49065,1.47232,1.47897,1.56069,1.47321,1.48141,1.48516,1.47826,0.00373993,0.00425462,1.57919,1.57763,1.5795,1.58184,1.58213,1.58355,1.58571,1.5921,1.59906,0.00381365,1.61303,1.61343,1.61255,1.62353,1.63532,1.63192,1.63803,1.63644,1.64296,1.64255,1.64697,1.654,0.00390637,1.66377,1.6648,1.67572,1.67494,1.68575,1.70045,1.70047,1.70675,0.00384106,1.70547,0.0035171,1.71448,0.00372394,1.72927,1.73433,1.73742,1.734,1.74396,1.75194,1.74222,1.74787,1.74918,1.76506,1.76108,1.77133,1.77957,1.79225,1.78873,1.79684,1.7967,1.802,1.80921,1.80957,1.80906,1.81972,1.82658,0.00375447,1.84641,1.84893,1.85596,1.86238,1.85699,1.87253,1.87944,1.87798,1.88949,1.89966,1.89558,1.91273,1.90983,1.91451,1.92413,0.00398773,0.0041822,0.0040316,1.96421,1.9631,0.00472852,1.97733,0.00419165,0.00418046,2.0141,2.02208,2.02425,2.03044,2.04094,2.04072,0.00439487,0.00403664,2.08419,2.08846,2.08742,2.09107,2.08704,2.11316
0.605762,0.605011,0.613445,0.615087,0.624837,0.631808,0.636766,0.644212,0.644571,0.648322,0.656192,0.663488,0.664383,0.677592,0.677686,0.685618,0.704152,0.706902,0.709333,0.70797,0.722372,0.723465,0.724309,0.737903,0.738442,0.740314,0.738772,0.747296,0.74953,0.748895,0.766013,0.766538,0.769336,0.768349,0.780319,0.780024,0.782709,0.786629,0.797599,0.799616,0.803724,0.806154,0.806994,0.808987,0.817044,0.821703,0.82288,0.82463,0.827858,0.831866,0.831478,0.83998,0.881458,0.884143,0.883788,0.896877,0.903512,0.906701,0.918937,0.922107,0.932622,0.939019,0.946361,0.955108,0.957872,0.96211,0.973387,0.976477,0.979216,0.981338,0.996275,1.00305,1.01024,1.01477,1.01716,1.02018,1.02727,1.03506,1.0366,1.03749,1.03983,1.04273,1.04503,1.0524,1.05432,1.05778,1.0638,1.06798,0.00408708,1.08461,1.08738,1.07531,1.09899,1.10069,1.05634,1.05833,1.07252,1.03762,1.0427,1.04365,1.0311,1.04423,1.06653,1.06037,1.033,1.03363,1.04647,1.06801,1.06289,1.0739,1.09502,1.09873,1.10499,1.12631,1.13371,1.15533,1.13179,1.13418,1.13348,1.13935,1.1697,1.15135,1.1871,1.18864,1.20162,1.22199,1.22078,1.22154,1.25003,1.27526,1.27438,1.27263,1.32306,1.31174,1.30742,1.31011,1.34342,1.34948,1.35001,1.35034,1.35081,1.36575,1.33728,1.34664,1.34474,1.33637,1.33748,1.34253,1.3379,1.3579,1.35643,1.35138,1.379,1.37892,1.35441,1.33909,1.33641,1.38412,1.38357,1.38532,1.38065,1.36315,1.3583,1.36725,1.36388,1.39311,1.38487,1.38472,1.36243,1.49149,1.39228,1.38428,1.38533,1.40987,1.4174,1.38351,1.4023,1.40259,1.40242,1.40383,1.41961,1.40498,1.43563,1.43435,1.44795,1.44488,1.46514,1.44398,1.47782,1.49572,1.48279,1.46103,1.46479,1.46408,1.4648,1.47959,1.47166,1.46098,1.47421,1.51982,1.51612,1.46891,1.46832,0.00360004,0.00427608,0.0104549,0.00394482,1.66255,1.56553,1.57182,1.5838,1.59868,1.59341,1.59433,1.60365,1.62009,1.6186,1.62251,1.63022,1.62505,1.63245,1.62549,1.64245,1.6422,1.64199,1.66038,1.65583,1.66758,0.0042495,0.0112424,0.00372253,1.6889,1.68249,1.68202,0.00376985,1.68654,0.00413335,1.71572,1.72064,1.7216,1.73348,1.7255,1.73128,1.73827,1.73583,1.73889,1.7494,1.75764,1.76654,1.76544,1.77772,1.78254,1.78211,1.79305,1.79547,1.79093,1.80139,1.7993,1.81003,1.81693,1.82426,1.82243,1.83761,1.83781,1.85211,1.85245,1.86882,1.87371,1.87944,1.87786,0.00338675,1.88952,1.90877,1.91573,1.91642,1.91748,1.91695,1.95127,1.94571,1.9605,1.96142,1.95825,0.00404928,1.97997,0.00417687,0.00390858,0.00403619,2.02445,2.03074,2.04246,2.03964,2.04721,0.00367221,0.00434094,2.08656,2.09021,2.08385,2.08392,2.08958,0.00428363
