0.577936029438832,0.57829248534405,0.577452058091479,0.580294567299684,0.581761821384303,0.58563393480785,0.589197917515662,0.591857075763246,0.594101767464946,0.597172468638638,0.599874654017028,0.602410890628138,0.613712612441426,0.613108760187689,0.623154527729417,0.624076326957689,0.637451724800364,0.637688663366075,0.638806835820064,0.64133538562676,0.647626227663531,0.648062151238452,0.647523213522065,0.64848165697808,0.647666058821428,0.635925707107706,0.577508000002283,0.660482356364275,0.661558244408864,0.662035375241388,0.662471559336789,0.665406168007809,0.668619307159874,0.668641716110465,0.669367423167445,0.669150455032764,0.6692114404705,0.669062315655587,0.669198615582493,0.669694190108594,0.671697105365521,0.669089862249386,1.40627999999999,0.664550426326548,0.00402151999999703,0.677662190495899,0.685571654217142,0.973303851340117,1.45088999999999,0.973735498658043,0.00372452999999697,0.17351604554831,0.716908089301043,0.716061269761878,0.71705528663504,0.173914525030557,0.00382532999999698,0.759691786195438,1.67319999999999,0.768334096977775,0.768374694014529,0.768474076851138,0.76954062520554,0.770980677515646,0.771452376261907,0.776878734581122,0.780270092427063,0.780981621508951,0.783016104340247,0.785780404593294,0.787202156347277,0.79389783432823,0.796504562723372,0.798628932024219,0.801004778070626,0.803157446275458,0.804985065953488,0.807936562582707,0.810678258766935,0.811958813443752,0.812916272457897,0.814912019345698,0.815833288310783,0.819635402938293,0.822342277113533,0.823706271353944,0.823464165091831,0.831570975791586,0.833993763128417,0.836917773374419,0.840926638044237,0.841385476217154,0.842869316153924,0.844789486112953,0.846613869151711,0.849256047917027,0.852007439858065,0.853566416894183,0.856596922998032,0.858310597709887,0.85985371501243,0.863518039599678,0.866930247377021,0.86790458453941,0.868875487723992,0.870289534584535,0.87079690922733,0.874289573133655,0.877531116548906,0.881661773118429,0.883967271916301,0.886592927969127,0.887100753597299,0.890551891860147,0.892212173944131,0.894783177527956,0.896282946428915,0.898435951823091,0.900104119950226,0.901329769749485,0.901782706760548,0.905137449885025,0.907597026758931,0.909087713684815,0.909715245820351,0.912177597915298,0.914150771985671,0.915288745145557,0.916279161311377,0.918258372434789,0.91971088298915,0.92083623143443,0.921627447677766,0.921885004017196,0.920360538956429,0.924865337674631,0.92784523416365,0.92879179100046,0.930056247108208,0.930694431033007,0.931412890723293,0.932575251515025,0.933426581622869,0.935173610858063,0.937118259114057,0.938630338909584,0.941303976455607,0.941599333988239,0.942252316573526,0.944870526865636,0.947740243688449,0.949383648158401,0.951367867854045,0.954022598431269,0.955698933014298,0.959524798491424,0.963168176620033,0.964213271836525,0.965312219816075,0.967850503710976,0.970422093478675,0.971467196349992,0.972281452228644,0.97528804100683,0.979004526683282,0.978555922963402,0.980121096492189,0.979137583497031,0.978262218619736
0.567250575081841,0.56963053071612,0.574658502351951,0.580929414442893,0.583130569206448,0.585325571442004,0.5876646605584,0.589737679032854,0.593003692986224,0.595020572276728,0.596517924300995,0.600868944203039,0.613331204095018,0.614658074172061,0.618117886687298,0.625007572336896,0.63629907876194,0.636476613676803,0.63684583482803,0.636999407404971,0.634965168610485,0.633968321295949,0.627814506947374,0.621807738661527,0.613792399102105,0.606794437671864,0.604312585600559,0.659847104519116,0.660430973403925,0.661191466944663,0.662025644574163,0.664805785823224,0.667327325601675,0.668413441242846,0.668894224486836,0.669191414208931,0.669125813549188,0.669178174864976,0.669099599919247,0.66926467871644,0.66918260289279,0.667536064404133,0.66575749975597,0.665627999603525,0.668467158619196,0.67318266840555,0.678915287042322,0.973149306436306,0.973425524804683,0.973541893172823,0.088734640239289,0.131121817570883,0.17351604554831,0.714936720234686,0.740532173469004,0.746942315004562,0.752403352297128,0.758515632242463,0.75923649800383,0.760636901306822,0.76370740121353,0.765535790786279,0.767197866567418,0.769332842773205,0.772017837329373,0.774771174237674,0.77714684160674,0.77877113597361,0.780685202700823,0.784797075502519,0.787549613531475,0.79070706965632,0.792929750034581,0.796035723311852,0.79867934503553,0.800988216406134,0.803319564971024,0.805933386334522,0.808580116218301,0.810232024894105,0.811811662564924,0.813374349659823,0.814991070638749,0.818092308391719,0.820997922554808,0.822732692485706,0.824638301417972,0.828886279250653,0.832247609005866,0.835155842761835,0.837941735122752,0.839733807640728,0.841380766455032,0.843747609526317,0.845894602471825,0.848336946535416,0.850369227975166,0.852281821951871,0.854138260037906,0.856679103517339,0.859043414790895,0.861493289598315,0.86374141852995,0.865756170253396,0.867551555457383,0.868625132605139,0.869704532158965,0.872258264740561,0.876775856404367,0.880073003303286,0.88279419783372,0.884640126575209,0.886449101032763,0.888114388491099,0.890098967159434,0.89179693474618,0.894078968308571,0.895422457346796,0.897461790383646,0.898647029532466,0.900574940642025,0.902410006691479,0.904799430825644,0.906100783527102,0.907750037928174,0.909056170623277,0.911072860391865,0.912221950767068,0.914094844633864,0.915331169867033,0.916848289341278,0.917661835090958,0.91865931761988,0.919436049576608,0.920366152633526,0.9224134076236,0.924430678620124,0.925695024359485,0.926761580819067,0.928057236907793,0.92911726570123,0.930537726791564,0.931708416621394,0.933387797743914,0.934923410913733,0.93669385682368,0.938327231579329,0.93951450256968,0.940503190731307,0.942228913572285,0.944016220900339,0.946944482492859,0.950902770838432,0.952788086599511,0.954583986830339,0.957139388635364,0.959594095461457,0.961106257117703,0.962518574774912,0.964617561173016,0.966833123813703,0.968533846875517,0.970390675050727,0.971809995474665,0.97250605510499,0.974248506919583,0.974756579355233,0.975482005551642,0.975989434008854
0.559518411486648,0.566920300311321,0.567188981423048,0.582391863825371,0.584440711872278,0.585182800716105,0.585998136610038,0.586737652526885,0.584198226695438,0.59379170388706,0.594900157803129,0.599723092071769,0.611881477104621,0.614301502756435,0.600881566871382,0.625763060806098,0.634860815562561,0.635058546545275,0.635089597971555,0.635352594436976,0.635118673005026,0.634570484571803,0.597416000032182,0.616715206716712,0.597093015064982,0.602152328580776,0.596390990789699,0.658448386759099,0.659326187638671,0.659923827381319,0.660179290807168,0.664050376032931,0.66817015310368,0.668236807210905,0.669510834105964,0.66905466767252,0.669662907969322,0.669109550269129,0.669330910873351,0.669107890198467,0.668897199406763,0.668541206442413,0.00332866999999694,0.665727661402001,1.12287999999999,0.669095108815661,0.00379371999999698,0.972678821450844,1.38536999999999,0.973277372707728,0.00396134999999701,0.0887244332502723,0.00325685999999691,0.715280618560257,1.38266999999999,0.869326294912851,1.39591999999999,0.757185816106635,0.00416004999999702,0.759373557962642,0.761370120370878,0.762731520927333,0.764350524559934,0.766966334927746,0.772405219676794,0.773304577310499,0.775086785764725,0.77635303094261,0.776027693707718,0.784804955472655,0.787409075996335,0.788526332851807,0.788719545253785,0.794199984551593,0.796585114579025,0.799019814031971,0.801034249700401,0.80417060790579,0.807014966875005,0.808914452897169,0.810188445309549,0.812047833137899,0.812413138769383,0.817045852076474,0.82042253132935,0.821800819650882,0.823384088312788,0.827236563281672,0.831078683669602,0.833441527104049,0.836213515794434,0.837918381415105,0.839646373589486,0.842562660474597,0.84560221116597,0.847320277896983,0.849704260024446,0.8505311135828,0.85174269274675,0.854773652628239,0.858625225028018,0.859460719989931,0.860876719971031,0.863929170010998,0.866676057041982,0.867180376209339,0.866612711512019,0.86835404254589,0.865352190135308,0.87922956538896,0.881649972316302,0.883292401708432,0.884677411521367,0.886367486526342,0.88635177675433,0.889585002661107,0.890869341370195,0.893035871713065,0.893392646375128,0.896514969223389,0.897588143997104,0.90042465061359,0.901262107148975,0.903960697047502,0.904547412813039,0.906251407517437,0.905526609059871,0.909369305366919,0.911264611695393,0.913014590610799,0.913470246529495,0.915058336639008,0.914978944110985,0.917256257248879,0.918842289151628,0.920129551822678,0.921725261104448,0.922738539285528,0.923510531014153,0.925370047396141,0.926981440782091,0.928338306513124,0.930118260474279,0.931297830048406,0.933131051902956,0.934454132151829,0.936394152929414,0.937202865589519,0.938514965507273,0.939257882694063,0.939714657763043,0.943784447250808,0.9527777468474,0.951708889874541,0.952954490415703,0.954762385151056,0.956999117458026,0.958155645585941,0.958820192061161,0.961517851987269,0.963292258633685,0.965820261038511,0.968435377267692,0.968909682154058,0.970344029808621,0.970695875201762,0.971154008437891,0.972048016787795,0.972704811630434
0.559300131616844,0.563671182555918,0.564676917155879,0.583662515627417,0.583778877179235,0.584488596594859,0.584806021100884,0.587045008882101,0.588216170483919,0.591754406112871,0.593444244837191,0.598464245955424,0.613770999605877,0.616033033256343,0.617800553932156,0.626072913729195,0.633390917285417,0.633607461572497,0.633989220006781,0.634347648981579,0.634989188626904,0.635931559799914,0.638622576184641,0.641013695395936,0.644259162382075,0.646637080864432,0.648072563528662,0.656741209528122,0.65780908318362,0.659376181566582,0.660903329719891,0.663856438921942,0.666454564770806,0.667715538772478,0.668292649027935,0.668829338643817,0.668927487065259,0.66906332097888,0.668898807707872,0.669548412549812,0.669843636065246,0.669729614894346,0.669474496885918,0.667445508744479,0.665973689194348,0.666678043719309,0.739868074328681,0.972311293854389,0.972530533598382,0.9728909604154,0.173495675599933,0.13110375612118,0.0885721249155182,0.717216097783612,0.869326294912851,0.827851987293761,0.78741514106987,0.756115808341963,0.755215931709728,0.756455494950964,0.757884785903672,0.759820258296335,0.761870149424385,0.764699092329453,0.767889942476375,0.771096508122957,0.773541730867207,0.775748838828871,0.778000713722924,0.782176172717895,0.785168002593127,0.787361170291898,0.789693745429252,0.792597582326761,0.795065103416212,0.797255311310706,0.799574155883305,0.802334651680452,0.805368925526316,0.80763784461076,0.810737911568692,0.811996077460014,0.813434318264427,0.8158794307916,0.818407403860565,0.820249547936472,0.822380848494768,0.825473619222146,0.828669409616792,0.831388252858804,0.833848213402412,0.836227540757364,0.839224420700342,0.841824388648652,0.844552447044867,0.846458003002733,0.847966850994917,0.849338119555383,0.850397328811959,0.852828679843096,0.854948094666983,0.857225805530411,0.859179225879754,0.862529929171576,0.86498955294674,0.866558450438411,0.867742481506067,0.868653908135722,0.86896099691666,0.87691864854012,0.879450307865885,0.881267326222914,0.883495124790209,0.88469126276735,0.886419405245933,0.887560134671503,0.88927446149361,0.890776605459959,0.892777333213282,0.894744162773148,0.897194419416288,0.898590963560845,0.900496942413178,0.902105094356641,0.90416765006007,0.904823537041166,0.90583873756699,0.90733584255719,0.909233039000686,0.910441057410191,0.912112236530827,0.912801446227277,0.913924400751664,0.914743800721311,0.91599119147389,0.917068193698453,0.918541697418277,0.919979813211184,0.921602455952777,0.923045457562162,0.924531676018457,0.926047460479729,0.927616635820578,0.928990710621745,0.930379578079872,0.932051971889254,0.93365169500032,0.9347940386161,0.935822832369145,0.936817180040813,0.938023209324983,0.94198271410081,0.944648642115401,0.947991621374966,0.949906038372411,0.952094669260623,0.954183132329619,0.955603571838722,0.956942297237459,0.959048088953021,0.961258267674293,0.962727588003899,0.96412549251533,0.96493339723939,0.965609941069204,0.966379010644011,0.967574296718129,0.968328170152664,0.969492720887967
0.556106510467792,0.563612297501757,0.563496413977889,0.584140387343861,0.581796251255361,0.583693475962976,0.58168434623924,0.588715229568828,0.590027797196735,0.591977014713988,0.593785385136051,0.596923285933334,0.620408767333565,0.618341551382963,0.619709618143274,0.626309302595127,0.631349278415781,0.631916664359567,0.63266434563787,0.633387590902038,0.634754400024092,0.636306194247605,0.639209192848338,0.640248662488726,0.647443485730527,0.647665349726282,0.649832205021982,0.653743515951272,0.656179448892722,0.658369869435453,0.660872060687678,0.663479416805793,0.666978530143175,0.667160892803566,0.668285572689378,0.668284081534954,0.669179852188985,0.668715386762366,0.66844714990744,0.669974327002636,0.671763721504579,0.671096018230896,0.671767272984357,0.669668805871969,0.00365857999999697,0.66689447322294,1.82490999999999,0.971951280406085,1.44643999999999,0.972874941224117,1.44834999999999,0.173495675599931,0.00376088999999697,0.720363220009959,1.46097999999999,0.786048802533846,0.735950368765846,0.747662587441993,0.753079709163286,0.753646601649395,0.754219386026528,0.756736019292243,0.758590226978555,0.761840467355809,0.763603306393837,0.770013084788165,0.772742337457769,0.775059539819267,0.778168738866569,0.780453517681553,0.78360968514472,0.785977249000322,0.790143333897745,0.791524964311015,0.793823394102881,0.795452061584944,0.797422432826092,0.800423662513369,0.80402563851586,0.805575919027549,0.812588229027347,0.812104298692888,0.813248852136374,0.81498129670908,0.81660492481088,0.818770081252977,0.820045518920753,0.823763328783077,0.82665668984051,0.829396558760878,0.831508299636352,0.833442258216409,0.817916761646764,0.840793367803615,0.844873508500027,0.845461431611924,0.847336724779364,0.847752678940542,0.848692375960269,0.850554574452006,0.851770724674161,0.854964451189733,0.856358490077025,0.862159940383809,0.864290641999217,0.866452353620827,0.868768477182368,0.869351919961983,0.870386942106285,0.874497031868832,0.877655003826983,0.879653475424244,0.882080511194646,0.883404735637977,0.885871137523072,0.886003915381409,0.886281016156661,0.889111719957311,0.890643278738626,0.893621012010354,0.8961102871331,0.897481005499665,0.898231060816819,0.901074385926237,0.903337411777259,0.903979780983093,0.904384920685678,0.905839791973225,0.906088815438048,0.908627014812937,0.910060574945574,0.911188354701383,0.911737909142133,0.91268033577414,0.91228149271174,0.914116285817255,0.913825789287099,0.917275207497076,0.919601058194674,0.920811181658757,0.921983575099258,0.923676774177251,0.92542192534164,0.926550600862653,0.927541037492886,0.929558852209237,0.931581852130642,0.932329648326679,0.933316714266811,0.934038710086129,0.933631128841215,0.94145618034865,0.94399869488907,0.945356920918671,0.946475999477519,0.949436648899981,0.952037562431884,0.953212304615533,0.95413949769093,0.956651228487122,0.959798313530899,0.959853228573489,0.961313965752141,0.96105695850822,0.960986713839673,0.962270716075461,0.962952408655208,0.964592803113315,0.965229394684836
0.556968023914349,0.563885714937384,0.568945115013211,0.585872493493897,0.585511511099599,0.586544018960328,0.588004106510888,0.589365224177039,0.590790742812036,0.592261414482295,0.593977934876254,0.595216669040303,0.607351212124878,0.617251341523824,0.624339723900181,0.626194309578651,0.628640503331156,0.629649771222742,0.63064570205439,0.631542820951035,0.633056557852149,0.635354367984458,0.638220717219837,0.640688881149529,0.644368954396316,0.646935209350259,0.649780366865985,0.652634335429824,0.65486226728201,0.657815733173137,0.660290394215823,0.663283242903391,0.665662462356749,0.666935511204268,0.667399276676403,0.668067289059002,0.668125664482694,0.669210231198842,0.669877387443021,0.670904383088601,0.671550198600378,0.671667318353907,0.671456641435543,0.670450226414709,0.669082258142199,0.668706650178679,0.740845835655219,0.780380649580382,0.830582550462913,0.796560195548503,0.780836308379442,0.776002904947202,0.761355413084498,0.724274808282993,0.727792805247462,0.731993604431202,0.736717034196026,0.741933851696329,0.746736350135542,0.750910559085197,0.752658803463195,0.754569481227539,0.756419243162483,0.760382001210518,0.763384079542495,0.767347734306485,0.771623383395141,0.773982929550789,0.776087301608495,0.778056017407631,0.780223831032304,0.782645630881781,0.786503657397274,0.78930994981908,0.791410531658141,0.793158284721687,0.795198668986685,0.797839222275183,0.801345188136639,0.804865990136207,0.8083795246097,0.810164732124095,0.812156113298634,0.813621901589032,0.815419502169586,0.817660100344234,0.820067099780351,0.822648118120584,0.82523905811976,0.827948577568264,0.830352157315456,0.832155275215914,0.83287062464769,0.840019735701702,0.841971492772254,0.843857627079426,0.845411359839521,0.846729084136486,0.847634520734612,0.849812524187698,0.851690982763405,0.854918898687192,0.858719550129079,0.86189589652964,0.864388709293033,0.866222529503206,0.868136322006727,0.869228961585473,0.870736060664084,0.872721090726675,0.874869136420642,0.876757302258311,0.878800411872357,0.880140525206397,0.881733091878935,0.883328498668224,0.885341870716432,0.887296013302496,0.889774081212,0.891413923133429,0.89373273131227,0.895289709780863,0.897580813704432,0.898832497484548,0.900789399380572,0.90146990985093,0.902997284773019,0.903608080087775,0.905109004726842,0.906005333216446,0.907702588251393,0.908353643850044,0.909753983728199,0.910420117189293,0.911714897956832,0.91252236967303,0.913754681894739,0.915281910856746,0.917069877414476,0.918085745950039,0.919376455030563,0.920969100007666,0.922784603156276,0.924119351738587,0.925607142281753,0.927012750868213,0.928538291273331,0.929606002177396,0.930759637317114,0.932408559875618,0.934391501996449,0.937999413478397,0.940565116110743,0.942681322563055,0.944625662729335,0.947170212183185,0.949635949832753,0.950963968932057,0.952225332890373,0.953426485151364,0.954182886002393,0.955549623675523,0.956786247166332,0.957015540548891,0.957835594856244,0.958771710162878,0.96002794033239,0.961461446129961,0.96318722514468
0.558916956533446,0.564422433791872,0.586992627819587,0.587122858702768,0.587010208921291,0.588801797035264,0.591030206471528,0.590867046537854,0.591347318706118,0.592965340931094,0.594444982512231,0.59498536590558,0.594609070127697,0.615752609330835,0.627082754799763,0.625379481054064,0.627175801571075,0.627460747817371,0.628163395406091,0.62935540048248,0.630254315159979,0.634051580855912,0.637519443335755,0.64006651214831,0.642483597482739,0.646069234336119,0.650081703610369,0.651932853927654,0.653439650331826,0.657188144877023,0.660196347250496,0.662894492954728,0.666727319940656,0.666606718337541,0.667659477283932,0.667560012516206,0.667295045304152,0.669338079128373,0.671964375947786,0.671624601004099,0.672602013376823,0.672321522891828,0.672519304321773,0.672039325866229,1.37652999999999,0.67133510642585,0.00353179999999696,0.739443266816391,1.39635999999999,0.764169157665633,0.00383159999999698,0.781237065111718,1.07142999999999,0.725119995456246,0.721020858466884,0.419616632548391,0.00418075808680219,0.00387593862009812,0.00365339225343112,0.750569496892654,0.751203913278057,0.752406614649063,0.752218461699304,0.759685404924333,0.762196396047095,0.764720029023804,0.772813044374118,0.77312108089313,0.774549070373835,0.775320962132699,0.775017437981983,0.77729259730988,0.774747016482437,0.787341697484877,0.7891444586262,0.790599040065874,0.792420247051426,0.794622405345203,0.79524494545216,0.804162520437767,0.805505264096699,0.808481282515486,0.811003232312408,0.81241620933667,0.813153501092042,0.816760687409102,0.819517804772211,0.821663500709541,0.823588866839931,0.826534080171884,0.829682185002847,0.831232643344785,0.833341958476791,0.836958491860681,0.839775819577499,0.841903938169279,0.844799063495569,0.845261169103196,0.846380823358937,0.848756128002361,0.850585749838045,0.854273467724002,0.861888156466042,0.862401819525847,0.865521574366353,0.865873837278859,0.868385356798488,0.868681169937236,0.870419421960427,0.871147295738988,0.871850457829531,0.874174259170905,0.87543964211483,0.876943600363744,0.877208325347872,0.880668851273304,0.883393150167032,0.885795233772507,0.888442507000107,0.88950075480456,0.890753447039398,0.893467992150143,0.896325302256757,0.897100823708624,0.897711532326068,0.8994600248222,0.900555111132153,0.901908493637234,0.902680831418,0.904008968486598,0.904395990052241,0.906136591047386,0.906615594675637,0.908749655784781,0.909998808429404,0.911359800927517,0.912426964462548,0.913659034658346,0.914318642663174,0.9156654253815,0.915757278363872,0.918448002735877,0.920124342716945,0.921825864570138,0.923386060525992,0.924555496505372,0.92566999416882,0.926957507425068,0.92749349722628,0.930530378139147,0.933449229581812,0.935581107482239,0.937495158319077,0.940066299464265,0.942183132598281,0.945029390161802,0.948307867118459,0.948874417826616,0.95008383751405,0.950627250712448,0.951071876963531,0.951468143652809,0.950717824568921,0.952716748637285,0.953647030737367,0.955151052342684,0.955993750622858,0.958338686043443,0.96164211198523
0.562572862159601,0.565144639704894,0.587024356657389,0.587938032492754,0.58927626396869,0.590043133038895,0.591123319470441,0.591340131644939,0.592075739987559,0.59320748644841,0.594695554755238,0.595492044190384,0.595950738081631,0.613784496254316,0.617037035675332,0.620389808701876,0.622713779633975,0.624305958796414,0.625744901468678,0.626950678544378,0.628529946793362,0.632778692374737,0.636955690740228,0.639470393034314,0.641950309830813,0.645027663638518,0.648208678001681,0.652026176481439,0.655767235872086,0.658122710609481,0.6601839166295,0.662531634014784,0.66450585832795,0.666470707793768,0.667736575596558,0.668598565821289,0.668870888989484,0.670119139177833,0.670985299582679,0.672002769162771,0.67259651899013,0.673193096643642,0.673463898323152,0.673671735283151,0.674463703515849,0.674858116599439,0.677522872552056,0.704430759400591,0.722615373983594,0.746098121947077,0.764905034159546,0.788875803278423,0.823198426127812,0.721743297297085,0.716322681978959,0.419234039196033,0.00389711362009575,0.0038151797504842,0.00374719862009435,0.749715414376833,0.750411492835902,0.751813261810679,0.753397292717312,0.75647106052628,0.757731726902296,0.765102341720893,0.770388235701623,0.771470140433091,0.772479838644648,0.773961356692359,0.775136856712703,0.776970743334622,0.778623655798558,0.783304968776682,0.785696103659019,0.787841710318288,0.791277239308132,0.79352580749658,0.797358295641814,0.801717800166691,0.804666374843232,0.806791848355824,0.809013512201783,0.811199799727848,0.813880373317518,0.816208147623184,0.818755066804521,0.820680088997045,0.82271156431081,0.824969228525159,0.827178561376481,0.829857616634659,0.83238178954468,0.83537331074537,0.837739298925095,0.840210822705788,0.842144691801008,0.844335160236053,0.846061327229222,0.848832763554976,0.852677325669576,0.855441398013997,0.858893125140095,0.860630389061949,0.86224479091383,0.863745226294718,0.865270109466815,0.866771998915331,0.868232037186004,0.869406336474353,0.870460159929738,0.872158278650773,0.873659679031733,0.874773923478959,0.875774579384988,0.878386394939086,0.881061583408934,0.883072649690287,0.88513493483343,0.886469753580045,0.888638942390566,0.890448152386594,0.89297432192006,0.893919898194794,0.895257382339422,0.89623165973163,0.897901474760414,0.898697667655269,0.900230072498367,0.900886246236843,0.902374192645945,0.903167137647338,0.904764727819951,0.905989395702966,0.907917175246257,0.90875108465647,0.910342144148679,0.911159329951322,0.912643479119852,0.913345234146368,0.914644532515507,0.916029887177314,0.917855831534168,0.918940940317665,0.920333928878477,0.921555079986371,0.92313181196203,0.924580215025613,0.926433215037564,0.928400041830779,0.930891991777853,0.933220575406766,0.935787101419054,0.937839062278294,0.939978889457554,0.942385011581648,0.944853886461466,0.945952805934322,0.946984734225327,0.947467881527033,0.947928887123115,0.948217001608719,0.948386469519994,0.949367325671127,0.95055318157369,0.951564666555443,0.952875972771028,0.953714857206672,0.953577391646965
0.566082957100788,0.566079099982723,0.585835804307448,0.587996597196918,0.591657989653138,0.591224255054567,0.59135856095514,0.592001889336341,0.591479676432125,0.593905746806575,0.594971191987484,0.596849327808611,0.597723894588417,0.611400433664497,0.613429035406814,0.616785392912739,0.619389510293688,0.621452169047333,0.622890311331907,0.624419677837437,0.62371161658604,0.631697579316477,0.637887838656172,0.638938724136546,0.640820931996493,0.643957710839458,0.645925098502473,0.652089102481855,0.659948460567601,0.658914045250148,0.660819864460878,0.661773245242769,0.663567811682677,0.666089612296469,0.669638000929355,0.669264290885045,0.670851135934789,0.670406503604567,0.671050297262319,0.672114445313594,0.673503418954051,0.67399952856258,0.675101001519084,0.674760896379248,0.67527412472895,0.676542611004618,0.680488493896528,0.682605506763652,0.684711283854189,0.710971646201902,1.38598999999999,0.823200467415091,1.37435999999999,0.717490927468512,0.711773611977958,0.418646286235698,0.00371691725344142,0.00376837362009206,0.00379453808673375,0.748136248251052,0.749015915676783,0.750890191205536,0.753031921641092,0.754598114219594,0.754465176785956,0.763181738534713,0.769803333772345,0.769854110607507,0.770476934399967,0.772606849692739,0.774888928566871,0.776574275601196,0.779637362996722,0.781285714934777,0.782737117309263,0.783947862550467,0.782439444930459,0.791137552754665,0.79912627790436,0.800662002474084,0.804302977822357,0.805310709814724,0.806413057612974,0.809799741794736,0.814524495350464,0.815739073544351,0.818272819228646,0.819728997747964,0.821592179483831,0.823237354360775,0.824516330624312,0.828049680556468,0.831541707429803,0.833695108925356,0.836582175460008,0.83819357201263,0.840457249277124,0.843091807198721,0.845855457526365,0.84750939489944,0.856120960990617,0.85581459321146,0.858027434501355,0.858598341858575,0.859760367706002,0.861205278008505,0.862626006062276,0.864710434856183,0.866491261597063,0.867764885323519,0.868325628033691,0.870474416942227,0.871971474544732,0.872790696891734,0.87266084363036,0.87622883569179,0.878776836047003,0.880798113766004,0.881856085911915,0.883232005812699,0.882708797579251,0.887555433245086,0.890263800588676,0.891330646473971,0.891264188720779,0.893525643226434,0.894165396339703,0.896184656424844,0.896578787832133,0.898371274568472,0.898207194697872,0.900783790074748,0.901278691622614,0.903930986914809,0.904897480030392,0.906720320071911,0.907206466533666,0.909155840916774,0.910203598298885,0.911398286159395,0.912214554351355,0.91398025339211,0.915253867353031,0.916432734935894,0.916533859743368,0.918777888422374,0.919946675813372,0.922272294765949,0.924709923617614,0.926082608115038,0.928197441125549,0.93086346149525,0.934435295128055,0.93559949379289,0.937400949526964,0.939788363110127,0.942607625158903,0.943274513382795,0.944123573183132,0.944560033077041,0.944350942722311,0.94520866328633,0.944718684577202,0.945972597047222,0.945657820723101,0.948139730335943,0.949319020198018,0.950521509206825,0.950577096025833
0.567654504710815,0.56739969193463,0.585739638511273,0.587850889465335,0.59042693686736,0.591324488801209,0.592300133967772,0.592826774613481,0.593899978897572,0.594921259152507,0.596674626518375,0.598585323468365,0.60154685722252,0.607868148394242,0.610824536655935,0.613434496258117,0.616053522322278,0.618533313136084,0.621882608549085,0.623474196713713,0.624499958216668,0.631083908926141,0.634902906941031,0.637498536731736,0.640319389852963,0.644189496359078,0.64841792637841,0.652172992327302,0.655813433021006,0.657288402148615,0.658522299995912,0.661260491532413,0.663385689155233,0.666022452023188,0.668168686690316,0.66939298351217,0.670112772604719,0.670946306157372,0.671350191593828,0.673016896792267,0.674061338234104,0.675015706086276,0.675236797508161,0.675478508703399,0.67542677089255,0.675865075969185,0.676304367796414,0.675237926511824,0.418009196267907,0.420552677551466,0.420421214534967,0.419338147874818,0.418208449139561,0.41750769852191,0.417494313739191,0.418134410229759,0.418598316220545,0.419195586909138,0.419429195289529,0.745702606779509,0.746455263511838,0.749787905464875,0.752068581400604,0.75400482087673,0.755405932137175,0.762124842828335,0.766506902647779,0.768262750515517,0.769914966598825,0.771679982558721,0.773360169361088,0.775309568513664,0.777350245027666,0.779772043358051,0.781872358180962,0.783226287989162,0.784580125247375,0.788884433878909,0.793991162123559,0.798136284872933,0.80097834706599,0.803308398590989,0.805870543841412,0.808256995602625,0.811098761646925,0.813684270453227,0.816635175621044,0.818242123427645,0.819949509920069,0.822105805690596,0.82425956562167,0.826893687699629,0.829417241971342,0.832226851945996,0.834598225950738,0.836746726969382,0.838598742498845,0.842768571167788,0.84551734433845,0.848476051486708,0.852465494400838,0.854266217821467,0.855528268285467,0.856867257029337,0.857663174774623,0.859485501079436,0.860913317192777,0.863474276032619,0.865700388180377,0.86712617149715,0.868310340732394,0.8695344050675,0.870665502262662,0.871684424467369,0.872717498626445,0.874847168772981,0.87700686580443,0.879014501735255,0.880902343179335,0.881899156048293,0.882824325153799,0.88523464573987,0.887500435889568,0.888800448737942,0.890338047326395,0.89095258715529,0.892186738398696,0.893345727695785,0.895179874058373,0.896033280155007,0.897501328607414,0.898723832337036,0.900636540019599,0.901526911770118,0.903166258790098,0.9039209347736,0.905488454853818,0.906147165492178,0.907603215384347,0.908264293156592,0.909817751979039,0.911081981165004,0.912974729905827,0.913768552356886,0.914896294471023,0.9159928500173,0.917482680823084,0.919086358509849,0.921160505637098,0.922659757462806,0.924833938641105,0.927399095248795,0.92996010887936,0.932448874369813,0.93433130614518,0.936559403870438,0.93870872366805,0.940135479011272,0.941347843936725,0.941843841454733,0.942326051971697,0.942756962097368,0.943367748828623,0.943631295865002,0.944153372962852,0.945367422766781,0.946784051351311,0.947693715806501,0.948645030816393
0.569785634781005,0.569026869200833,0.583177327085089,0.586840877848107,0.590602035043012,0.591638515095904,0.592812776384312,0.593917541774075,0.595122993014026,0.596185042038361,0.596932813874248,0.599932356246048,0.603422070831743,0.605919625213263,0.607992041285097,0.610287097274475,0.611555827290519,0.614966146407706,0.622138271875909,0.622936807040506,0.623644457318971,0.63046782318603,0.632863253227276,0.635917145446271,0.638936736955835,0.644319306279204,0.651557223487818,0.652359735848853,0.65408074557869,0.655649849810473,0.655162487858972,0.661101528339956,0.663891511146594,0.665625336565277,0.668973236200615,0.669072128049267,0.670662072327069,0.671003584081205,0.671657194913388,0.673798175269767,0.675706535568951,0.676202347316698,0.675752342480364,0.675953008197851,0.675323302160665,0.675329641647405,0.674700248465202,0.674651589719691,0.0109933999999981,0.0928219816681687,0.00391798045016884,0.00408411870019636,0.00410368123838786,0.00392778532300586,0.00360911517902334,0.138332572905516,1.38805999999999,0.419429195289513,0.739832317419968,0.742444532423912,0.741353162299631,0.749515381874397,0.751437802100999,0.753370158311294,0.756060036460046,0.758694805681749,0.765410063407751,0.766789502526726,0.769896404438701,0.770400859766641,0.772225659723973,0.773554116779484,0.775236075250133,0.778275945346593,0.782021757240554,0.782212263294247,0.783826090175384,0.785319410498403,0.784716652409289,0.79633142548509,0.797512381377805,0.801295849072173,0.804894686395486,0.806481043384555,0.8075518344058,0.811403092759114,0.81618535738565,0.816707443284175,0.817943412646448,0.820785018150815,0.824005690214384,0.825348769493208,0.827821567300147,0.830529591513248,0.833983594566286,0.834980724275046,0.83514933692399,0.843203608830699,0.845854655383327,0.84798867516246,0.85187136371095,0.852549624334457,0.853992547479052,0.854883855062024,0.855588328423151,0.857508936642556,0.858921827091895,0.862078661680646,0.866272734914768,0.866384116283761,0.868722148340157,0.868428452620715,0.869774072854244,0.870422231682206,0.871810650087419,0.873423710483837,0.875310594304736,0.877512015997132,0.880437400315379,0.880635468644503,0.88139740388547,0.883316324613061,0.884912585359169,0.886787492154657,0.889585925365419,0.888724835113469,0.888890496119662,0.890953130727231,0.893622883339022,0.894217657681884,0.895426154349032,0.897097606492333,0.899801263519148,0.899627191144886,0.90032875078717,0.901755237869709,0.90275585963469,0.903730205798895,0.903980548744563,0.905395710702301,0.905696694459942,0.908533242096558,0.910339161356665,0.911736626161915,0.911962243400252,0.913681670960454,0.913804996685165,0.916050974213107,0.916559591469421,0.918897133065478,0.919853646667376,0.920885702733296,0.920003220015409,0.929798395534527,0.930630663072524,0.933569495116143,0.935244184282314,0.937469868435637,0.93888099759976,0.939493595631732,0.939739233794056,0.940653594898404,0.941448230248431,0.941527284494885,0.941249099108944,0.942992980130099,0.943443183325504,0.945438699213395,0.945830119651291
0.570760329509394,0.570493331021276,0.58453509158643,0.586587132081397,0.590149282415558,0.591306570978489,0.592857893299204,0.593722446085509,0.595474984723854,0.596290894022567,0.598130903178482,0.599449628318121,0.601872128035671,0.603308067594286,0.605528200778982,0.607598792493756,0.610243932802305,0.613316741930545,0.617714497001158,0.622218691145583,0.625283470371546,0.62882267388526,0.631399276769821,0.634149342288726,0.642536408623269,0.644970165699201,0.649419386880306,0.651881381520927,0.654290972663079,0.65614550995845,0.657638432652603,0.660580653984615,0.662678181273728,0.664724330390844,0.666180844795465,0.668611057039666,0.670220096743496,0.672076270579226,0.673485959037524,0.675889984827961,0.67798222604445,0.67872245249496,0.677265604629985,0.67680473241482,0.676194221561184,0.675482112898791,0.674722581301805,0.674454539371641,0.175085955309054,0.133048380029174,0.00404951913017611,0.00413306429626692,0.00410625180947183,0.00398279052165335,0.00377004559755582,0.0947483987717661,0.138336889814577,0.213347410897395,0.741394732822097,0.742990292533485,0.74419665832001,0.747264889842595,0.749567603889848,0.751969348018547,0.754663479543249,0.757415583665357,0.760976766262935,0.763822710433473,0.766946962494776,0.768419704138678,0.769853776859213,0.772087921578397,0.774414644179089,0.776565424578974,0.778668437397826,0.779998169966906,0.781478130427158,0.783843487425432,0.788042091542458,0.792767909414085,0.795598663818343,0.798871067379999,0.802738826796719,0.804714216671449,0.806890997368803,0.809219183188238,0.812049939530258,0.814491178981762,0.817069186921054,0.819374586415992,0.821549149977902,0.823285212849336,0.825187795724355,0.828962647483784,0.832324488082276,0.834853193937279,0.837575528082525,0.841683978187496,0.844643214016312,0.846870428824466,0.848892740105663,0.851168037780685,0.853319177258846,0.854408533674711,0.855476169858146,0.857153313211431,0.858725571547671,0.86087088409933,0.862815073569525,0.86416614935527,0.865335421401191,0.866351815773174,0.867281632347077,0.868921678230965,0.87045422492779,0.872019013494989,0.873500352062521,0.875311267208876,0.87709128596649,0.878444883919472,0.87994331678643,0.881136910017899,0.882571938534033,0.883240492814721,0.883216178143928,0.884781302006504,0.886108367166999,0.887460567660292,0.890028061080703,0.890894277319027,0.892688844316412,0.89348053076706,0.895032201321136,0.895841031699954,0.897529469488974,0.898251193639677,0.899828936925781,0.900317206070741,0.901571291261725,0.902279159593841,0.903687598080573,0.905864154333403,0.908249648678478,0.909312214957834,0.910608339084742,0.911565911970779,0.912908586371354,0.913924587943076,0.91512716268271,0.916334421440698,0.917524046974879,0.91915818965652,0.92116642892812,0.925843910094482,0.9290222732138,0.931573934273216,0.933890521750472,0.935228418588852,0.936515823107676,0.936941502691954,0.937555066721503,0.937879680698706,0.938579327258159,0.938719185162699,0.939453244537864,0.94073064788223,0.942545061258187,0.943511478756552,0.944858861127358
0.57233287729219,0.571964634273947,0.583691700015334,0.584556355191075,0.591759357572214,0.591010012899278,0.592800809579654,0.593527213850518,0.595338519984032,0.596501745356425,0.598161424523338,0.598989922921526,0.599760198870983,0.600949975657837,0.601182361925846,0.604833163054151,0.608182594584641,0.610695104501889,0.61299483615965,0.622726668104564,0.626517511346755,0.628528978656033,0.629652005856394,0.634958821420882,0.643751949762967,0.644866143258547,0.64907720552412,0.651446963758818,0.655361621471728,0.656823860346472,0.658989909056836,0.660756966725472,0.662489096838109,0.663838442765144,0.663062452545505,0.668592961202237,0.670809658022648,0.672775205094571,0.675437122564168,0.677612756690757,0.682144611868439,0.682599033537289,0.686616560534869,0.688396284007544,0.692028955904006,0.684505477468895,0.00379448999999697,0.692483785164765,0.696899664821068,0.173973125677404,0.00399035836900801,0.0041457205398013,0.00408050472731487,0.00399529680689794,0.00362600678744453,0.00375469573650966,0.00366527564513515,0.171145866402717,1.02579999999999,0.744006466657506,0.745130712408328,0.74568877228395,0.747869680817067,0.749916487020165,0.753224783084548,0.754876165472912,0.75731897215245,0.760480762032651,0.765871733089118,0.766142203913952,0.767256615863451,0.770203965692679,0.774204941402651,0.77465198090188,0.776430661422577,0.777585220330164,0.778634479411788,0.780862946039875,0.790861271964351,0.791273946471845,0.79267737779145,0.795719757884874,0.802013067516021,0.803138254222588,0.805581549550468,0.806801666763854,0.808181949854675,0.812205493870977,0.816566035580394,0.817899386253332,0.819922286067249,0.820738638926507,0.821129776870931,0.827276764194995,0.832167123810316,0.834440736110082,0.838879420142336,0.840809598159889,0.844795609700351,0.845326282523973,0.8467652604788,0.849505903570874,0.854403347625038,0.853710821524597,0.855830234285439,0.85613625659055,0.859132141838832,0.859072371046604,0.860955385027808,0.861454152338085,0.863103350773216,0.863733329898241,0.864924445700062,0.867014857452113,0.869723068349916,0.870335943909458,0.87175593587177,0.872983720987421,0.87423231127406,0.876217935194171,0.878441789009051,0.879082323334533,0.880302630545082,0.880375573933819,0.87968276554192,0.881214670871346,0.88086296640883,0.882918084100742,0.882405248313617,0.887082453727995,0.889801404198885,0.889982674382483,0.889005407060674,0.892050414837556,0.893558808516327,0.89505456587298,0.895594694221549,0.897263901922385,0.897334077961463,0.89923669891127,0.898929731053282,0.903773346095444,0.906147603743618,0.907716711370622,0.908042192381575,0.910079637343172,0.910951628135866,0.912348449094484,0.91283221265401,0.914158835806642,0.914160557994684,0.91706481190359,0.91932374497735,0.923421110295891,0.927908358621592,0.930078976071817,0.933145030108907,0.933400458332915,0.934487132999095,0.934636991728496,0.934928173570359,0.935305927174547,0.935305413783151,0.936050557767453,0.936000497876502,0.938631357872372,0.941822314120329,0.941947864511264,0.943254557456057
0.572248846744733,0.572272846261126,0.582279301569725,0.583393620733819,0.585156222275176,0.58770755942558,0.590749604861235,0.591589251262943,0.593727799555609,0.594695850949924,0.596376271883965,0.596759772559769,0.597973409298523,0.598264895551317,0.599439319778547,0.601605614299971,0.606061879264927,0.608108567360522,0.609322198794136,0.622663909384124,0.625500505278483,0.629053259847328,0.631552178819118,0.634873374622637,0.638859421030916,0.642555410839775,0.645835043414869,0.649591099078403,0.65537516078622,0.657208422000318,0.659944382762748,0.66180668656897,0.663575077310754,0.665478445839757,0.66689512695691,0.669311266808468,0.671165178703843,0.673812297033122,0.676576432983376,0.678746741765515,0.681196702888169,0.683029595169357,0.685306287017156,0.687106614085037,0.688840298781325,0.689260784271814,0.690163474408888,0.692233031859051,0.694483328865733,0.215331910382539,0.00402181626128939,0.00421204400516198,0.0042250205492433,0.00414264669264865,0.00399229501085739,0.00390337108508511,0.00380339070145261,0.12912389864557,0.171362088248289,0.738448807171448,0.739737950798107,0.742410532185594,0.744576007564457,0.746948295119986,0.749373929202803,0.751682968160219,0.753983897292131,0.756881114052077,0.759952906826511,0.763083943501221,0.765750426246217,0.767946966955704,0.770157886470416,0.771632253432726,0.773015279919088,0.775509298241173,0.77822205310972,0.780492520158911,0.784076540206562,0.788495027974912,0.791309031513457,0.794220422489729,0.797768777621075,0.799943886495456,0.802197440780044,0.803973465031939,0.806805357577266,0.810037544145044,0.814215671304962,0.815968828447163,0.817600416568633,0.818812257080378,0.820060157861996,0.82297958009764,0.832620499762003,0.83369416019476,0.836419023660193,0.83895521206891,0.841961129381588,0.843950128333776,0.845715767325581,0.84764197784601,0.848667687205746,0.850420480794049,0.851799070936717,0.853457185112508,0.85550857643432,0.856650784100197,0.857516032079388,0.858838444999683,0.859774477090231,0.861717208836969,0.863362202011042,0.865485164117896,0.867352202822583,0.868605511033215,0.869646668994079,0.871068538730169,0.87228418320178,0.873781034894262,0.875153304542727,0.876063846722535,0.877093377500656,0.877679532910237,0.878431797409559,0.879177373715828,0.879944219741182,0.880863001462325,0.881862418576229,0.884077818401042,0.886167388551866,0.886802099427442,0.887476981623209,0.888852714220236,0.890742274679827,0.891631029619974,0.893214910303196,0.894630780823248,0.896516133038768,0.897817346921434,0.899397072757512,0.901960220580676,0.904618483847441,0.905824575496391,0.907457654089938,0.908255598268218,0.909620159929655,0.910346059463469,0.911515810926555,0.912223974925482,0.913269607292201,0.914923900870134,0.917154218799186,0.921442888940837,0.925582012644093,0.927514843666204,0.92949080259116,0.930225555102621,0.931176096587118,0.931500089988355,0.932056116458605,0.932213704385655,0.932646079370513,0.933098662538469,0.93396382138346,0.935369910588685,0.936797321453031,0.938518670643834,0.940217870475827
0.57079445126186,0.571434019397519,0.579322286792189,0.581607146766019,0.583030693565939,0.583917543147157,0.582463530496794,0.589264765618047,0.593133575918164,0.593066172797955,0.594881745314651,0.594872026795003,0.595343530629415,0.59575882384241,0.595112381599327,0.596902173051087,0.596775209232369,0.606927655931198,0.607021353636725,0.620874304707123,0.62183603764223,0.630409083211703,0.632285495476475,0.633885817077277,0.634616735651756,0.641231855187541,0.642355128948225,0.6481534382995,0.65666718578706,0.656746404992176,0.662067565837666,0.662690745602236,0.665325789863639,0.667120425974715,0.670221250402897,0.67032784613332,0.671702771026441,0.674097648270262,0.678875130647721,0.679146154986627,0.681553559141954,0.682912088164646,0.685326454982004,0.686767407706766,0.688023239591496,0.689365508051175,0.701818532227534,0.70212262966972,0.702266020784857,0.257192963651181,0.00371037321652898,0.119829627173575,1.67264999999999,0.115554665893935,0.00417993938760354,0.00397638376482188,0.00378808614363596,0.0874085160485065,0.00357669999999702,0.7369103685409,0.737301494392485,0.739505479988214,0.741243723446913,0.743790573258927,0.74594726794997,0.74831233778777,0.750327708828429,0.751178848424513,0.750411929766072,0.760249927792497,0.764554892479105,0.765757024984702,0.767374113993847,0.768525470542653,0.768650920209243,0.773190732214786,0.778213300666093,0.778723383858669,0.778867426425159,0.787510973403404,0.789267046673418,0.792135053498307,0.794339669497397,0.797252956879848,0.798810132151065,0.800599358365215,0.799891952814206,0.807255703180932,0.814395129145117,0.814154176504425,0.815938113408331,0.816472046256853,0.817174196291084,0.821184717314113,0.832374161529765,0.832037847876958,0.83466341678525,0.836505495288334,0.840980536130356,0.842957559283865,0.845464069080069,0.846576332974916,0.846749830924644,0.847297198124092,0.847417513253497,0.850218775344941,0.853653594680896,0.853771352166854,0.855030911746662,0.855647178515046,0.8567742579369,0.859106331479348,0.86258542063467,0.863529386942244,0.866407435601448,0.866565813682752,0.867948250301911,0.868948935975332,0.870460979966444,0.871344548820279,0.872278403300666,0.873182393867431,0.873935124320742,0.875194252185143,0.876553295474014,0.877451438903096,0.878158269225609,0.879177014296588,0.879329363863255,0.881863332231787,0.883075031981588,0.884235207043375,0.883714183803886,0.885918751864885,0.88642131369201,0.888423952329232,0.888597998129331,0.892492267517343,0.894763950598301,0.896815588760095,0.898191709843052,0.900830288275286,0.903131442679069,0.904581405754317,0.906175227782761,0.90686190903867,0.907526906577952,0.908755676724203,0.909447601918612,0.910645768579877,0.91091412614738,0.912667613676476,0.912464352658365,0.919479482902258,0.925267094340967,0.92524752803444,0.926796802427931,0.927272312970998,0.927817495861959,0.928659712403583,0.928736611859951,0.929490015909506,0.928931066417668,0.930477561567196,0.930286289766903,0.932405780004438,0.932575820460591,0.935475731717315,0.936283811002236
0.562313887131984,0.570122565480854,0.579733701236166,0.580276719025614,0.580716158340993,0.582298297437532,0.583447372520903,0.586422701429434,0.588367568224711,0.58962164534855,0.590480850932698,0.5915149486898,0.592746955169943,0.593030473888096,0.593634162321209,0.594084909529274,0.594174218438954,0.605939485419128,0.610224237781022,0.617886860229904,0.62691927307042,0.62983986699313,0.631901020786657,0.633617920927112,0.635576234692664,0.639172672440699,0.641600581331315,0.646091030390413,0.651695258573225,0.654399048712448,0.658100366626601,0.661919858032142,0.666102639431072,0.668227603880879,0.670017547952397,0.671050255937825,0.672183341858418,0.674041779528719,0.676187951990488,0.678011584762894,0.679855765550228,0.682593230869799,0.685249481377367,0.687468138627112,0.689775608899218,0.691330950128494,0.701041071258463,0.702257310397954,0.703594823074524,0.70461850217022,0.705390255079062,0.706431127912412,0.707785613396163,0.710373347382366,0.714272840272982,0.716236256744728,0.717877808549326,0.719540732512449,0.720985170990934,0.734896489186853,0.735601944036647,0.737120010430241,0.738797064019695,0.741300189520677,0.743799570846202,0.745535831666463,0.747208517898497,0.749054385497038,0.751298426183848,0.755689938194375,0.759546456641372,0.762987901657092,0.765063103120436,0.766650278035752,0.768086619423508,0.771066345583027,0.774115105273219,0.777570763578866,0.779998818718346,0.784236986894303,0.787327716874695,0.789877650305252,0.792671670352363,0.795141412538625,0.797802624554164,0.799597897364529,0.801484286367608,0.804410121717285,0.805962523328262,0.810085143777699,0.812688143966723,0.814061787856036,0.815417061107787,0.818370465746729,0.825371858949152,0.827883456829496,0.829786747259383,0.831788202939098,0.832613906534119,0.833449149336031,0.835627933570237,0.839108693516674,0.841702287650141,0.844434911655562,0.845119492505347,0.846524367412195,0.848570403766281,0.850658833527119,0.85227270552656,0.853438238222445,0.854340935103923,0.856762411993152,0.858797779900567,0.860646747209989,0.862018206316129,0.864081817417886,0.865773144302696,0.867080332983594,0.868159240818179,0.869187775746014,0.870040874002212,0.870495364616732,0.871651985688377,0.872251965635797,0.873798798564182,0.874968220615935,0.876491364611921,0.877088937700795,0.878247779206299,0.87948188671189,0.881148126691964,0.881645946801994,0.882473839727863,0.88328317022954,0.884548510460778,0.886165375037595,0.888153616288803,0.890348862475372,0.893038541267292,0.894819116620981,0.897192690344529,0.898581214677746,0.90049239536865,0.901700998520902,0.903426687911663,0.904093975937162,0.905396614531138,0.906486183122053,0.908039789264937,0.908941282899215,0.910156528421202,0.91181436817353,0.91400807004748,0.916919130455418,0.919049585646758,0.921135808179456,0.922630469549116,0.923754545184189,0.924993554219844,0.925754334154604,0.926761061469124,0.927090766976544,0.927754676783682,0.928460864588164,0.929581103314907,0.930634870645398,0.931973440878571,0.933719019925441,0.935698310641502
0.555061351816242,0.567423060364734,0.579323393707975,0.578907108959929,0.576548796069849,0.580592757330002,0.582432700539529,0.584475895177803,0.585652320697106,0.586457837697765,0.586048793196437,0.588486727597059,0.589626433443247,0.59107235984847,0.591525629122979,0.592311216293934,0.591946926940463,0.605063631313214,0.613236854306792,0.615018503897285,0.628698738137624,0.629800074431183,0.63130075241718,0.633074878983374,0.634929536464977,0.63867680812485,0.640482956889203,0.645061326172759,0.648047679980473,0.651277199009197,0.654062939449134,0.660805315327746,0.669395812103447,0.669177104972304,0.671391683921048,0.671048227550254,0.672803258644503,0.673104611543982,0.674396255689809,0.67636543230479,0.678009441449416,0.681949270103006,0.686026953064818,0.68780078222932,0.692249481807054,0.691481191252835,0.702733615973828,0.702293950955431,0.705176600694197,0.704705728044454,0.70514733428602,0.706196525305547,0.706878481396757,0.709391983258919,0.716408414811062,0.716579476166585,0.717943367443884,0.719896167705873,0.722641819266478,0.732210379609271,0.733163807571787,0.734579620080722,0.73575216452529,0.738844551844991,0.742555396323046,0.742890967758948,0.744162212756334,0.746596723450954,0.749666534210213,0.751045981746952,0.750880291137431,0.761641864264056,0.763389128506625,0.764878171645549,0.766020261040976,0.768791877527193,0.769321157551,0.777412875606958,0.779436793982583,0.782592463520639,0.785208228999488,0.788136151214095,0.790336701601253,0.793556260737111,0.796766098705719,0.798613879427781,0.801860205572196,0.802474138344147,0.803337095190109,0.807138765775186,0.810653669221782,0.811359933088243,0.811765115377685,0.817576326019355,0.823551192825932,0.824765204613611,0.82664361068534,0.8277947940534,0.828491993944907,0.830478434116063,0.832536238943166,0.831695010735026,0.832768989703887,0.834839193670733,0.838285269395098,0.842251099911467,0.845697503290203,0.84779262194886,0.851062213316977,0.850865749510312,0.851831217962224,0.853818754117996,0.85654957905157,0.857396296830918,0.858880649959708,0.861333698674841,0.864807599531929,0.864932484511765,0.866577817863753,0.86693100151616,0.868518631795185,0.867278570745516,0.865684747469369,0.868834042395598,0.870874938912432,0.872743451348174,0.874730829977208,0.875258754529379,0.875765209358406,0.877694052892912,0.878798818287554,0.879880468703336,0.87963800343262,0.881231903451881,0.880580736765995,0.88433055465368,0.886369756562355,0.888704060756403,0.890866402828681,0.893384916168447,0.895758915654539,0.896774711229685,0.897218032666419,0.899214004545069,0.900450724233456,0.901505472187037,0.902504060621685,0.904650660063532,0.906448357135206,0.907450690062866,0.908107276667149,0.910832393726522,0.914146465258622,0.914873330591309,0.916218768637375,0.917657015189031,0.91849663044405,0.920512387324977,0.921832066767815,0.92322893222522,0.924499260854792,0.925059541659312,0.925447700133424,0.926814590235232,0.927764237869408,0.929193584125942,0.930146064566818,0.932360895753727,0.934338300177003
0.55579985377155,0.564174922734584,0.578929360597002,0.579035218482449,0.578985603283954,0.580316978147338,0.581495203501099,0.582586113936483,0.583321083110501,0.584055756981598,0.584496323505459,0.585951734825545,0.587671640975405,0.588916376242073,0.59041111616774,0.591320143531227,0.593291235423373,0.604341591170184,0.612343380711454,0.614109426696981,0.628191338397857,0.628804810009403,0.630000043890492,0.631914039077007,0.638063626662649,0.640244870308618,0.642289192687273,0.644502093663284,0.646588097393442,0.648832201388607,0.651252611407424,0.659928312187183,0.667747147628531,0.668024787660453,0.668755861233212,0.669785157411154,0.670873907486158,0.672053760402979,0.67321095485747,0.675757170968023,0.678573173676547,0.681579529682943,0.684810438883322,0.686660027899016,0.688944420754674,0.690653590093037,0.69490429618359,0.699131631314753,0.702828050156633,0.703933775175887,0.705052586207051,0.706489590488022,0.70941295013327,0.711327581729698,0.71450133725148,0.71578029202685,0.71715736552362,0.719626640041272,0.724018189584425,0.728527294128718,0.73097353202407,0.732427696189004,0.733765303628132,0.735742957779159,0.737213654144618,0.739489802986731,0.742328116692874,0.743983825602439,0.746110997906973,0.747782349113706,0.749298845958967,0.758937426848411,0.761895483794551,0.763521198335288,0.766902051588681,0.768782013241536,0.770763990104761,0.774742309253182,0.777950792348566,0.780703240399084,0.78383094045404,0.786015234439475,0.788704670787772,0.790903744959771,0.793562546773583,0.795504965508471,0.798624581480075,0.799953520772463,0.801660593068254,0.804179602517167,0.806582302782578,0.809115971573877,0.811582765720245,0.815293429241402,0.818492753892492,0.821125750547604,0.82309639916457,0.824928022217113,0.826254855140052,0.827511972760787,0.828707378842582,0.829519134724309,0.831709720010348,0.832913466005548,0.83558183878958,0.838360302873452,0.84081667914753,0.843498272616902,0.844958017555258,0.84797613448317,0.849592263510442,0.85146826604726,0.853010914447036,0.854758231796798,0.855884921465363,0.85849133146653,0.860655726463495,0.862012620156176,0.863014542873458,0.863965392455554,0.864622283235498,0.864776351354091,0.864705413352965,0.866446273155518,0.868167824699573,0.869659459681027,0.871211964518279,0.872394428316393,0.873896243182387,0.875393437133753,0.87720261666292,0.877930777592343,0.878951641175452,0.879987508013571,0.881362958794444,0.882803612100947,0.884506902840904,0.886203046425901,0.889549311412096,0.891332067268566,0.893480962178011,0.894355948821901,0.895504223877864,0.89636607407562,0.897497141892166,0.898203914109116,0.899816727115877,0.90295990246243,0.904827672268796,0.90562888300861,0.907079747634939,0.908541362103415,0.91036313087664,0.911521672384982,0.912964278152861,0.914235655046169,0.915756312812754,0.91721528528712,0.918831815627196,0.91986169639368,0.921237711912586,0.922139714317904,0.923512461979277,0.924455017152006,0.925898369569956,0.927067780626301,0.928751650064604,0.930074009517721,0.931856335146763
0.558268881717944,0.560730177757335,0.578154366294329,0.579013775875201,0.579598113500111,0.580079035821378,0.579995601357557,0.581112407844152,0.580461309642097,0.582208418841391,0.581810834409749,0.583824582927861,0.585225961310168,0.587285587588631,0.589081425867033,0.589875579769151,0.596646665744369,0.603774898799688,0.611203277621243,0.61340846841413,0.626740264005495,0.626959941203622,0.627510359631473,0.628510594664952,0.643282106064958,0.642154161716117,0.644023305193235,0.644202870509433,0.645162434155565,0.646604104127567,0.00388519999999699,0.659178971788113,0.665818785638632,0.666002585002935,0.666302998714117,0.667962533592402,0.66967443755556,0.670460085795961,0.671337419653048,0.674427465515259,0.679118869801338,0.68095590266895,0.684982221013712,0.685057442613399,0.686330849452277,0.687135329884718,0.686284301344339,0.696506018342839,0.70289975963298,0.703071517270935,0.704789017911689,0.705306107288129,0.712998073454407,0.712304901090633,0.714787687431902,0.71485603583647,0.715346874091615,0.717418605730998,0.725281535323176,0.727021867980479,0.729873505919663,0.73046744503031,0.731124742952507,0.73314228736924,0.733800330342198,0.735630646384766,0.734894377628198,0.741510105677327,0.743342380825469,0.744577900756208,0.743567104532699,0.755584041829328,0.76031977383418,0.760591540754192,0.769240548105409,0.768737759168096,0.770068441182188,0.77329786582023,0.776147228004922,0.779224622701377,0.782306350631862,0.78429224078909,0.786288440541514,0.788609205801473,0.789865210675209,0.791219579066591,0.789395127212349,0.797078026475036,0.799174877609431,0.801287974248397,0.802480840539019,0.806869228025437,0.810262840650142,0.812778307808287,0.815699777626229,0.81789197259181,0.820631157616702,0.822010887824821,0.824510733797887,0.824430355150016,0.824697903904198,0.825629964570364,0.825161092910523,0.829125853926122,0.831493513458682,0.834664442102652,0.837672811267789,0.840064750197675,0.842450437843051,0.845766301474761,0.847837774774358,0.848874385189288,0.850423287249079,0.851870094451894,0.852518652638851,0.855487493788079,0.858554707094064,0.859000677073519,0.860262000334513,0.860918845881794,0.861561188585708,0.862314369844476,0.861995563793966,0.864153488447357,0.865239727929407,0.866903092907267,0.867349983841303,0.869798359420704,0.871046420323113,0.873540874225107,0.875482941152968,0.876557615039848,0.87694014172284,0.879256180814937,0.880893992622885,0.881870179519943,0.881656415000501,0.882919780184672,0.88094342650697,0.890015838758846,0.891988385884215,0.892360783685709,0.893196319344051,0.893858917456572,0.894246176000373,0.894683275264557,0.893869173066004,0.892157134178408,0.889709478467351,0.90358096986782,0.905311039528754,0.906233126753137,0.906786440676482,0.908146227488278,0.907995497854784,0.910940361237575,0.912384174693086,0.914373814605529,0.915445132242107,0.916850178619317,0.917409614315935,0.919482100365718,0.920916574383341,0.92234095517045,0.923241946029543,0.925190036414012,0.926649872738594,0.928064006487751,0.929106396416387
0.558602311688155,0.559598215231608,0.560257544435729,0.562173566009904,0.564280392620892,0.566661983871956,0.569373242795939,0.572384464902332,0.575277801976662,0.577202349022701,0.578298061286534,0.582176848866682,0.584243892445779,0.585382332749122,0.587443643265837,0.589360587134403,0.592207248288967,0.603360865692631,0.611360585349086,0.613054129632604,0.624167902074994,0.624401446014153,0.624761756672128,0.626118537791847,0.639382544149965,0.64069984265316,0.642558362605199,0.643088914929666,0.644393876993942,0.646140534175491,0.649332007721961,0.658055656893354,0.663043312969402,0.664172889922767,0.664875489528843,0.666702649080374,0.668184746618506,0.669414208324896,0.670394115368628,0.673022442253687,0.675725878946859,0.678082712054658,0.67989805536892,0.68222417393628,0.683920219488645,0.685080904502473,0.685494637796173,0.694515972631728,0.69839063815379,0.700719581074425,0.703380133684849,0.704946329394609,0.708035124904708,0.710209610695398,0.712948302511383,0.713784403353408,0.715045658705957,0.717650542053883,0.721691893835309,0.724410847204976,0.726965786778641,0.728486289347441,0.730048781836548,0.731679301841609,0.73320545129095,0.734553370336314,0.735634639794106,0.739299798104438,0.742071571218832,0.743301315375548,0.743261667020499,0.754064838460082,0.756739678557779,0.758463098780504,0.762465708879438,0.766484982545601,0.769002817024631,0.771604123063056,0.774574178573374,0.776770380877584,0.77932173262597,0.78135043202096,0.783972939427057,0.786061888326726,0.788478714354573,0.789452866065813,0.790462770469566,0.793503342282058,0.796570137116567,0.799507305175167,0.802747963924537,0.805427772065245,0.807806909735042,0.810124079029126,0.813469029828326,0.814908464998907,0.816608705361229,0.81875587005675,0.820029537540855,0.8213852761951,0.821956299033313,0.823575368277405,0.82486174778046,0.827194772569086,0.829034359592678,0.831617796510417,0.833649613146346,0.836948413999641,0.8412047539734,0.844070899311644,0.845278659794299,0.846655077094051,0.848703594194023,0.850656008846384,0.851694089161943,0.852991713260534,0.854285861480134,0.85570177668572,0.856692055239301,0.858517913886584,0.859987428079591,0.861104647692687,0.861740224850221,0.862805045418534,0.863879812712192,0.864981638468528,0.866115306431076,0.867767273092796,0.869543779169402,0.87139733243603,0.873454015499737,0.874883894921018,0.876686115556576,0.878168365512612,0.880058434799902,0.881132543589684,0.882288689677622,0.88286953217534,0.883418397467987,0.886567947031983,0.88837676720631,0.889374310751332,0.89037858670857,0.891055532495612,0.89172713578525,0.892156331303815,0.892320144531502,0.892937415571706,0.894406801806802,0.899435791700041,0.902231016540859,0.903547173190041,0.904826325084603,0.905945819372009,0.907159742482288,0.908754484110228,0.910472208382021,0.911481426205364,0.912774859426293,0.913647246661242,0.914918438439435,0.916395408326811,0.91833332822259,0.919795720003782,0.921715785756291,0.922914676167656,0.924443826422262,0.925535865574508,0.926690115239631
0.557917248811818,0.558853175455024,0.559092696343625,0.558808579249591,0.55862768432552,0.55886119163275,0.559070820896402,0.560348453441202,0.562882271007939,0.567584913390069,0.572972571483357,0.572676256041323,0.572448637507616,0.583081810846653,0.585622186317438,0.588160422228158,0.590588316629554,0.603161401706911,0.611268841592424,0.61270691367629,0.620964811505656,0.621595343285586,0.620917129910638,0.625424634515532,0.636897269077087,0.638429755535609,0.64210057124241,0.641292597328261,0.643237602870742,0.64453417635331,0.652768346512808,0.654371309617292,0.660941086899285,0.662727494714622,0.662829195735548,0.665509214693513,0.667524983414107,0.668221969117707,0.66822897312315,0.671263972565651,0.672698915319092,0.675599095024526,0.676379650780819,0.679755007880725,0.681977277154959,0.683136353980429,0.683904008932783,0.692979984525555,0.695140935619075,0.698294624057906,0.703009479262791,0.703176436311646,0.704543472791832,0.707737104486868,0.713000207257265,0.712469879004367,0.713654629502985,0.716395676566994,0.719437517359546,0.722108279971728,0.725169476527162,0.726590604850593,0.728832469357488,0.730417803941727,0.732420429982497,0.733514097677345,0.733932977923648,0.738115441789531,0.741912718620342,0.74267421247769,0.742956442390294,0.751878715243368,0.753706673850859,0.754323909113534,0.753930266652708,0.765850942992683,0.767529873420952,0.770009677659234,0.772989207409467,0.774674007570773,0.774979540127245,0.778706439606092,0.780805609623872,0.784198693304539,0.787226991417812,0.788157216814469,0.789480523968109,0.790504114993568,0.789822541712086,0.797717437092095,0.803729391575535,0.804088009330762,0.805764548559778,0.806064731701077,0.804454606278111,0.811508552652307,0.814094632613686,0.8155116001386,0.817846152274537,0.818044107549157,0.819304136602394,0.82102705375468,0.824403069780027,0.824883350727659,0.827115861479567,0.828222976246024,0.830173830283868,0.83038191775345,0.829499839144087,0.82904393235845,0.829741191586854,0.840405868582836,0.847707388008384,0.849872515582275,0.851085675510415,0.850029871125312,0.851340168904594,0.852401948688761,0.852864104455857,0.856146160922021,0.859119891408464,0.860187756892915,0.861112730596539,0.861514588811596,0.862385215676063,0.863216014065018,0.864032737036801,0.865911662465041,0.867466831188333,0.869451702541565,0.871404239998157,0.873295029295425,0.876020664389599,0.877122764168238,0.879335720435258,0.880742852359221,0.882804630572763,0.882710831926545,0.88355253636268,0.884562102051314,0.885415773337158,0.88664633484267,0.887612655323176,0.888480033736975,0.88916244057738,0.889800098040823,0.889943273059223,0.892286551027336,0.894927966007286,0.897514883172391,0.900063629217003,0.901232591923841,0.902290598044666,0.903966666343104,0.905528306040345,0.906886044308403,0.908368288878909,0.909026187705964,0.909557660742766,0.910771075607114,0.911187158428247,0.913542217217749,0.91541298414939,0.917389900016188,0.920437268096986,0.920838502374332,0.921986100119005,0.923420594676605,0.923596249195011
0.540449133099579,0.542414443953772,0.544540323963357,0.547148482168407,0.550224362657863,0.553604971041297,0.557310481836209,0.559719642046863,0.562612443287391,0.566303429419121,0.569500919072216,0.572709165548954,0.575239423939667,0.580894522746278,0.584480059430319,0.587060681402982,0.588735500414232,0.603203379731493,0.612892944839149,0.61396230638652,0.617006550107297,0.61985966113452,0.622445984288108,0.624922483186828,0.627501581358757,0.632644561948992,0.634625745022513,0.636643958408858,0.643990107944866,0.644498174120497,0.649221566924511,0.650413685633185,0.662327413013495,0.663030565290512,0.663663312849521,0.66536135954644,0.666979536699514,0.668151409371701,0.669015057399169,0.671443561153793,0.673646059256291,0.675433041651321,0.676815097526062,0.678520917105341,0.679913530879844,0.681405955577276,0.683041357761769,0.689909194874828,0.692877426875088,0.695264666034975,0.697760885665317,0.700215706587092,0.702150685896232,0.70452393482901,0.706307835610924,0.709228530923053,0.713013439537968,0.715067774806645,0.717512195985508,0.71957770719007,0.721758995821652,0.723818249144521,0.726005788010418,0.72854242812112,0.730980849717945,0.732719897339982,0.734592665163889,0.736993635340936,0.739725417251879,0.741916429689074,0.745231370126936,0.74849475833869,0.75021506811868,0.75120848324138,0.75255221622363,0.764719846032479,0.765522920883015,0.767744145985371,0.771811420425466,0.77334957568173,0.775117739089124,0.776729328225395,0.778950798039626,0.781246128521961,0.784080616121766,0.785284993447287,0.787152662062903,0.789122064004644,0.791998951023766,0.796100710483065,0.799870054346946,0.801584319526619,0.802974579333676,0.803969439293847,0.804745819064017,0.808151444910879,0.81070806044051,0.812714321378761,0.814171101547415,0.815355585114738,0.816120531598762,0.818297074559154,0.819878258191306,0.822333569774225,0.824072958963302,0.82564692839973,0.826589449855319,0.827330046602412,0.827409653719801,0.828298683772597,0.829970042613113,0.832895600817193,0.835704666883705,0.838026264525726,0.840428766527107,0.84520746599271,0.848069826799727,0.850191783939316,0.851614499562014,0.854416956306422,0.857715703596411,0.859493653692017,0.860170303463341,0.85974529833143,0.860251711865382,0.861361124405917,0.862677368768256,0.864177320020935,0.865888624669984,0.867237761768398,0.868919504581266,0.87047051948201,0.872402502390145,0.874442297310658,0.878239505585471,0.879334844535366,0.880727129808539,0.881402488630844,0.882532819352554,0.882783808441369,0.883281475081802,0.884199502923871,0.885081391759872,0.886103165493735,0.886954951615807,0.887893806491753,0.888827642525613,0.890956885762146,0.893419885344977,0.895292337771762,0.897244007087431,0.898484321850393,0.899990257718389,0.901393993389421,0.903273075676683,0.904058887122203,0.905216851511781,0.905841590723397,0.906705816449321,0.907767581939098,0.909122557337919,0.910424834602405,0.912143600812941,0.913677940886758,0.915680871875368,0.917699760571195,0.920167275199015,0.921944229786239,0.923017555025888
0.539322235266459,0.536098402944657,0.535209423252339,0.535229229722694,0.535757463282616,0.542815434464804,0.545245055696511,0.55380693421747,0.561865166485291,0.553743642628506,0.00383008999999698,0.573018609116151,0.574690169296462,0.172571232850679,0.0036205439117446,0.00350978387816593,0.00336582766165678,0.603424983481847,0.613052539541111,0.612960767609899,0.613093944120184,0.618467334437129,0.623839218293481,0.624191842118024,0.624928233358652,0.626648738719875,0.627326789974421,0.633179888060396,0.967966999999993,0.640450325356957,0.00361236999999692,0.647472026443651,0.662853777186442,0.663252587443731,0.663590252071977,0.665094477001974,0.66714925766063,0.66816808733546,0.668507805495708,0.671619405310194,0.67528349471431,0.675498192577271,0.677084694417652,0.677487474240389,0.677833103323338,0.679132569343746,0.679031414460974,0.689022011206917,0.69130479090013,0.691962947163978,0.69044903596111,0.697974601944533,0.699522661419089,0.701527288925293,0.702126090413534,0.704798351291691,0.714030238330719,0.713473838615284,0.716042894494323,0.717036434127975,0.71851201823224,0.721004921252023,0.722688843017852,0.726901988306933,0.729953900731357,0.73199176084095,0.734337685331791,0.735757122922632,0.737661784675128,0.739798812596686,0.747332576619243,0.747146135627372,0.747430022585839,0.747949581760364,0.746768039705257,0.76252406712135,0.762368749685267,0.764267589217131,0.772945588822631,0.772291967620719,0.775071446513906,0.774828086624121,0.775776426130349,0.778746319581235,0.781278196930041,0.782652627443812,0.783720200612578,0.786716503149417,0.792988965509475,0.79474021467041,0.798135449272834,0.799138535587124,0.800938641001686,0.80169708967199,0.802926940738549,0.805562699272492,0.809080931919535,0.809902125879114,0.812128001597686,0.812104154643894,0.813419201145123,0.814824159155084,0.81734947842206,0.819360622537909,0.822750044703361,0.822784302392526,0.824387881079596,0.824329509174432,0.825494945552331,0.826458002407775,0.829242030566519,0.829688012066179,0.829113812751775,0.835297658619537,0.838666951587337,0.842801076289175,0.846235238251601,0.848590329787838,0.849293340773703,0.851875551363615,1.07008999999999,0.851208345881875,0.00326548999999691,0.856879398661329,0.857449370050486,0.859262089858277,0.861074631669772,0.862347746280563,0.86449214831834,0.864902037860288,0.866451338453712,0.867362829606946,0.868375838792002,0.870003872905351,0.879448780345495,0.877752630913796,0.879465105377444,0.879797360308984,0.882366434905127,0.880858833120281,0.881104678503845,0.881623290741177,0.882717074405264,0.883742054138655,0.884903253993134,0.885885435946667,0.886637692365792,0.88919617454635,0.892450044123204,0.893057880729177,0.894835155779947,0.89568253186097,0.897384997320109,0.898639145426746,0.901634619975181,0.901227455415926,0.901842252879623,0.902931276722422,0.902528309340992,0.905114769855268,0.906341850868944,0.907414782048045,0.907152635887406,0.909666802409985,0.910412340877867,0.91414998120541,0.918546663934036,0.921112113533213,0.922472925640592
0.532905908732894,0.533671966478859,0.533929415049453,0.534917625281251,0.536694751726532,0.540532092960795,0.543472690200943,0.545562749190211,0.546971131626579,0.547009112144951,0.546634253701699,0.546083608709178,0.172571232850679,0.130244562909392,0.00366151887815859,0.0035651432270772,0.00348314137816731,0.603748145345756,0.610562946921602,0.61154487908025,0.612937712076415,0.61756984214336,0.621201196855519,0.622609074940209,0.623740651586786,0.62499439577287,0.626562447497805,0.630953157285079,0.633403865264436,0.636855249095771,0.640646390824557,0.644223714716742,0.648732602112085,0.655184399875707,0.662776850084272,0.66447192723269,0.66777642321092,0.668973174122784,0.669790714900008,0.671397460374797,0.673070804492133,0.674412321444667,0.676208672863374,0.676643519182131,0.677341513980351,0.678064007061052,0.679010232053924,0.686967952329908,0.689732038455139,0.690871096042213,0.691598617916047,0.695489159948414,0.698267788611103,0.699947609164087,0.701131804587424,0.703076336996113,0.705937211726144,0.708679960849768,0.711583454448672,0.714025053609077,0.716341994469003,0.718898812025279,0.72295243170789,0.726205918649658,0.728792731522284,0.730608941737938,0.732376033019522,0.733816503463217,0.736090461051933,0.739768289483269,0.743814087520279,0.745065466437708,0.745974723456632,0.746317591396887,0.746016097382854,0.760246632132188,0.761240157272981,0.762748742036572,0.764573043839552,0.76749692169697,0.76857042466421,0.771067144750464,0.774343313433968,0.775785044867367,0.77787011406341,0.779604186505614,0.782806851487243,0.78593361346272,0.789576176652096,0.791865711922308,0.793931661704309,0.796116824195018,0.798001367233239,0.799620359695386,0.801021412098289,0.802962582731231,0.804433156515077,0.806177804991964,0.807718274638142,0.808665405418988,0.81015066514898,0.812075172218923,0.813958022732175,0.816449865320258,0.818032019447689,0.819274254051663,0.8198182641799,0.821146151562212,0.822219456769827,0.823933108544233,0.825724179202615,0.827678828178905,0.829420097888884,0.832031169721534,0.833794964100533,0.834061568890403,0.834944844671258,0.836564896558591,0.839044772765858,0.841429111134565,0.843316907659342,0.844591221802469,0.849342481696724,0.853265342253791,0.854951397391909,0.857012346369428,0.85845899141049,0.859656045244455,0.860373317274146,0.861472576299366,0.863348176398723,0.864295170810538,0.865877310119767,0.867475855830582,0.869172195887663,0.872998767312907,0.875369506557106,0.876025516128668,0.875652168704543,0.877320357271158,0.87803852386047,0.879077021583587,0.88007751643475,0.881776703262244,0.883308007916554,0.884509753606369,0.8855933796161,0.886948952047422,0.888372871783037,0.889623857426359,0.89092484659163,0.891910898156949,0.893076449845186,0.893961586864652,0.895211468294475,0.896966193008426,0.899963875357465,0.900938330887879,0.901978963679172,0.903170785275985,0.904596794015517,0.905398333656605,0.90630186659968,0.90756408253175,0.908764029157632,0.910108339995844,0.909478631362665,0.910763902663976,0.911383163737568
0.531379875064314,0.531622068393155,0.532290733705521,0.533770687785432,0.53588007059251,0.53901542594024,0.542289457550484,0.545086714183608,0.547348588040886,0.54695798652893,0.54670918403796,0.545996710587945,0.00360991999999698,0.0880543411374878,0.00382103266180611,0.00363487637815999,0.00354061641171843,0.604131546648021,0.606897709127655,0.609428744872245,0.609492336187096,0.617643463942628,0.620564229326789,0.621197644314323,0.622071786525858,0.62289827249966,0.622859250759901,0.622318868295544,0.621986607457537,0.6314332823619,1.17491999999999,0.637532108635736,0.00372834999999699,0.647744584542479,0.660111757596788,0.662249788948195,0.67059398003864,0.669985672388302,0.670369074256882,0.671072761207395,0.671228509345683,0.672862102848541,0.676734575943871,0.675588136298043,0.676835470247806,0.676582759253639,0.676455205982442,0.684913470975704,0.689589070956865,0.690288591664433,0.690034336729803,0.694405197686581,0.6983890353384,0.698812205350749,0.699309842075229,0.700167930874653,0.699722970573255,0.703713632154302,0.706504486341806,0.711254308483088,0.713879246841708,0.715291486851864,0.723765962928968,0.726312775043202,0.728139411659999,0.729529672479869,0.730487412407651,0.731244893608401,0.730297028730626,0.739009828142028,0.742798112842378,0.743553157724635,0.744608179015734,0.745352475100232,0.745131964843898,0.75689081278918,0.759510037274678,0.760970299316225,0.762705862293304,0.764387936646188,0.764868426215134,0.766493849750011,0.765078313921955,0.773240361376805,0.774566087649489,0.775959176522854,0.77513707118495,0.784608364798655,0.787534427658293,0.789232489220255,0.789615703822787,0.79320473632152,0.795822032210006,0.797311367419822,0.799450125087917,0.800161791375399,0.801650513057425,0.802344624325416,0.802257035747538,0.804629109171992,0.805357660717807,0.808623859468876,0.811927727422712,0.813352738892639,0.816007111308806,0.81589951672201,0.816455487938958,0.817604920320467,0.819345889687161,0.820652120718114,0.822851420615757,0.825259710455907,0.829075671376229,0.829523629924035,0.831016122910822,0.831851649441119,0.83331428580882,0.833216996570045,0.834661349634109,0.834972844716333,0.836543700238625,0.840613355340345,0.849683761091157,0.851691230364974,0.851821350809457,0.855044080652181,0.856109316856625,0.857664865180572,0.856891960264164,0.857610937519949,0.857703674364257,0.860822654772799,0.863464701429846,0.864974611149919,0.867422994789686,0.870025472790697,0.873192203864093,0.873096231989135,0.872547442703568,0.87426551608003,0.875244198266189,0.87618318391826,0.877473173974237,0.879576987691885,0.882673403516873,0.882949676268274,0.884704624788806,0.884438000053591,0.884721852785371,0.886051747656176,0.887374643480567,0.887991592591915,0.888408020387909,0.889549137887716,0.889367259234633,0.891334032436085,0.889794050371199,0.899158495631181,0.90081997583729,0.901486341500017,0.902837758115005,0.903567211921186,0.90480498763646,0.905573543357945,0.907063387448011,0.90832284365357,0.907734792492222,0.902291086691952,0.896753295971939
0.52756494725556,0.528913532934347,0.531082135400655,0.532597462131437,0.535064336676513,0.537702720304624,0.54260615254373,0.544835338016949,0.546119156949919,0.546501705673462,0.545914088163851,0.545707138641971,0.172765131565313,0.130423942610161,0.0881626845064578,0.130354678827048,0.172681977234738,0.601728252950393,0.60788020496951,0.609482595378806,0.61228497856433,0.615651661046316,0.617974594067415,0.619393200857273,0.620720989455988,0.621308729814354,0.621759990152207,0.622078147452822,0.623029721146538,0.625696814664242,0.626943249330902,0.629095830373371,0.633062325878033,0.638921430807078,0.640098132880774,0.642160895456549,0.645409863586072,0.649930764489202,0.65392348930644,0.65883243222599,0.664038982521681,0.668477216988483,0.669639474094692,0.671907311267679,0.673290507864792,0.674879025642449,0.678558672092197,0.68213162464134,0.68970470210223,0.690735021593753,0.691757047499386,0.694266758412525,0.696637363538752,0.697589956308265,0.698004533013793,0.698432010127959,0.698504542055405,0.700070918101925,0.708641744615145,0.710813912850876,0.712664796464106,0.713276985980491,0.725382419834121,0.726892819371337,0.728166125402474,0.728870192901041,0.729565640446683,0.730365659412175,0.731825785330781,0.736322389530356,0.73990977538367,0.741521535212373,0.743024916603387,0.744849492573029,0.748327700325432,0.753301071797427,0.756577427588219,0.758159952478811,0.759995248069461,0.761427174463407,0.763211860072575,0.764475397973597,0.76551662630587,0.769712404725218,0.772656142410556,0.774183226020616,0.775848726531058,0.780240314579032,0.786305633225668,0.787972637562098,0.789881440288401,0.791595761817512,0.793505882979546,0.79510563604885,0.796789271722185,0.797603280167538,0.798219521243427,0.799694648448389,0.800659837151347,0.802448345617684,0.803701604262866,0.806431404878174,0.808470988852579,0.810279040543891,0.81099826811377,0.812313055205564,0.813154048465232,0.814163258471227,0.815268892039697,0.817412539802829,0.820500319547695,0.821804909321834,0.823840320583094,0.826028915202173,0.827266317827075,0.8288351357094,0.830287190965253,0.831131223983004,0.832290893741777,0.833618470802944,0.836084399929801,0.840324624422827,0.843319302503382,0.845209111199919,0.846439860977423,0.847506424529045,0.848665919060072,0.849994381800504,0.851965362890046,0.854468233809121,0.856042984583536,0.85807061146018,0.85973213615828,0.86189574171783,0.864003447450511,0.866450136867085,0.867431953733281,0.870282649240044,0.871322190517541,0.872320603765971,0.872709188217224,0.873827051469224,0.874985272727314,0.877202801433554,0.879323142687045,0.880721434393078,0.881638980001104,0.881946274050051,0.882127714289879,0.88276707104688,0.883548655753762,0.884438849111094,0.88518850485814,0.88679258575258,0.888181399339202,0.890006148202502,0.891815059861499,0.895394589018342,0.897659561570871,0.89874643714537,0.89994842108788,0.900787595697512,0.901867722994228,0.902479527347607,0.902736935580796,0.900978076335028,0.900280350065282,0.899870863123068,0.899880552471227
0.515825228885535,0.524688460800926,0.530142613902362,0.53103890874111,0.534546077566618,0.534341815092976,0.545742307888855,0.545371843709754,0.545750567420677,0.546919773621351,0.545112255211917,0.549756090621561,0.572752138656627,0.172765131565313,0.00385121999999702,0.172681977234738,0.596956092776444,0.599087816327354,0.607040665247629,0.608083840676924,0.614192248221652,0.614619378736889,0.616117615987996,0.617821197496352,0.619836009819506,0.619976428276695,0.620310257639897,0.620927030171058,0.621782359163893,0.623751811471382,0.62585003756037,0.627465798657875,0.637200734360366,0.638280513566157,0.638744052407737,0.64076658572807,0.644262256526962,0.651548488106064,0.653183374257409,0.65492727569969,0.655486270772422,0.666542307830527,0.667970815143561,0.668854825719327,0.668943319071492,0.671041799287944,0.680364740004379,0.679694551551062,0.691186659800103,0.691284716810217,0.692031885033243,0.694213429811056,0.696278720351776,0.696870597833481,0.69674216086754,0.696948683955177,0.695672736684329,0.697992399455928,0.978646999999993,0.55833681007325,0.00328551999999691,0.711834046548664,1.03363999999999,0.727887839310895,0.729011823565569,0.728792787748018,0.728700834340066,0.728937054112513,0.730136904516697,0.734030388231139,0.738844525859119,0.739755102135627,0.740402715494249,0.742641680017726,0.749938999402211,0.751565078492212,0.755343810150707,0.755555227771268,0.75611862712928,0.758820734777314,0.760917110140176,0.762645788163285,0.762821979347562,0.768553533669057,0.771691185143913,0.772655337312396,0.773529445982713,0.776330852172652,0.786987968130836,0.786561512127591,0.790394339590921,0.789773838260982,0.791756298186369,0.792689947466335,0.795624765644968,0.794672333382355,0.795156379840571,0.796738639327093,0.798987241663222,0.79982447931374,0.801670771515151,0.803675711601615,0.807034609568995,0.807151303086978,0.808330495568133,0.808665476836537,0.808433824820842,0.810409642197029,0.811403890717267,0.812740396326899,0.812852305005655,0.817332580450645,0.821944298309959,0.823449966042964,0.823624149989792,0.825790686021813,0.827713272130047,0.828493992738748,0.82982875202263,0.830836839038133,0.833366320970755,0.82942360202882,0.819046690214376,0.829274710544454,0.831799523017739,0.836109819440684,0.84181366296768,0.84565280854807,0.848996367168551,0.852688294417378,0.854388611307799,0.856124061774235,0.85616402332364,0.859560334680251,0.861017405569517,0.864399910516734,0.865334792589593,0.868671331841809,0.870004574227819,0.870754829799952,0.869807313536907,0.871256148206637,0.872154893051702,0.874842297376818,0.877415402217467,0.879319953217848,0.880082334217259,0.879830743294617,0.87942323202555,0.879358651103579,0.879877637339822,0.88087267091585,0.881253958703305,0.884112539530521,0.886657413595151,0.888651097740292,0.892292741234139,0.893425335524556,0.895674709854662,0.896423127669663,0.897152492479956,0.898126855695634,0.899139705163502,0.899820059529504,0.900001838278606,0.899893764734732,0.890673049801526,0.893755598622865,0.892095145125723
0.515170932913553,0.519718933897133,0.522114003453623,0.527444217764675,0.530822229072607,0.531248429654567,0.544440022841946,0.545207717129289,0.547176902280221,0.55070865828658,0.554013536915829,0.554973369809662,0.559817468783853,0.561353320225048,0.576538498623826,0.580053824444618,0.596961628929025,0.597739184383634,0.606272752834829,0.607650461170429,0.611546825993679,0.612560267690524,0.614098608617655,0.615977859401296,0.617793577152699,0.618267280691681,0.6184598387722,0.619007143445426,0.620010089786657,0.621441436279538,0.62417629599177,0.62773746151137,0.631439780023286,0.63472534826278,0.637687464446921,0.639442820669023,0.64177668575807,0.651591272507128,0.653867088314515,0.655710646272569,0.658165197236728,0.66225600889345,0.664334073418852,0.66613693229381,0.667759992062555,0.669481599499722,0.672795278691407,0.676042929195146,0.677783053122043,0.679395711468724,0.680969701434666,0.679396752377521,0.554398370505514,0.554206173692361,0.553975070310155,0.553947098650541,0.554342370328913,0.555241563623611,0.556515083526743,0.557843030001104,0.55833681007325,0.710530208921655,0.710683676434417,0.712984999957286,0.716670608715055,0.720404392813608,0.725038450629608,0.726634073440586,0.729034671972994,0.732109384873236,0.736385736168248,0.737925373522146,0.739477326754231,0.741543513172214,0.745003088636955,0.747841984827564,0.750167159688908,0.752067813939208,0.753793909230238,0.755621520127186,0.758104173027083,0.76130344067882,0.764272049450385,0.766838497417168,0.769225646090138,0.770383903511773,0.771843952415689,0.774331360745333,0.776818781667608,0.780880435107317,0.782050680169222,0.78520543102583,0.787723802467808,0.788352044300502,0.789418988024623,0.791086235798379,0.792624120743024,0.794603266885233,0.796450025218366,0.797909785486495,0.799172509340865,0.801359595851199,0.80309282105449,0.804488237656978,0.805273819598863,0.8064742555239,0.807213879886826,0.808175448630501,0.808753136510241,0.809980801533969,0.810796383703818,0.812904369004767,0.813803521847765,0.817210197241171,0.821054477667761,0.82291604603549,0.823788771708927,0.825526227658146,0.826642218841591,0.82654826137395,0.825073477649927,0.825366482948218,0.823664208493973,0.826891119178612,0.829593499365784,0.832254583041993,0.834606049210495,0.836966472401275,0.83887889014037,0.841682450988889,0.845065649892184,0.848014699347208,0.85067794385224,0.851694809221041,0.852052578650536,0.85270758060181,0.854011287486904,0.856041641289737,0.858543333433125,0.861527285996634,0.864868056953301,0.868864507079567,0.870975422944687,0.872286820063404,0.871366166002333,0.871923239905295,0.873200458844818,0.874259567111674,0.874581916834482,0.875557112471151,0.876838824044196,0.878236642907778,0.879915156714311,0.881851809424743,0.883819831779284,0.88578791448156,0.888594275181199,0.890517640871983,0.893368588231799,0.894129230944109,0.894525223578227,0.895376501092531,0.896304009717056,0.897473656546372,0.898450407487917,0.897937444387851,0.895130161106093,0.896389247318505,0.897284252552889
0.509603610320986,0.517116300268971,0.51844845607367,0.519696141402739,0.520503586725297,0.529208535245174,0.542390305693299,0.543829197641531,0.557217522426023,0.55508629472477,0.55732276078129,0.557367060094381,0.558042159573886,0.562449998757742,0.590828790677877,0.588898584234863,0.595438657642247,0.59656225936974,0.603467396564853,0.604655233437104,0.611573301432355,0.610604980731228,0.612254715590806,0.614847796437904,0.617466541112706,0.617315188569782,0.616162753078686,0.616923643102663,0.617488614616277,0.617961477998051,0.617923101915377,0.616718833277558,0.617007718639141,0.620968878175438,0.624007010461598,0.637377157605789,0.636403671340174,0.649419520908049,0.654974852699998,0.655955446030248,0.658708312889165,0.659910694709708,0.660305405396146,0.663708096245097,0.666142303885552,0.666308353497606,0.666328040289943,0.673426577015113,0.678069002874489,0.680040835443028,0.682930969603323,0.677950920736623,0.00374516999999701,0.0878917882618825,0.0103293410463624,0.00804659457672519,0.00388348318106758,0.00400079429109443,0.00390452495740089,0.151662679962733,0.708816660229217,0.709322908893506,0.708775111537823,0.711676580025957,0.716152424756112,0.715215103077565,0.715657194897137,0.723669138274778,0.7270768365221,0.728710697789523,0.736578838641567,0.736581069775004,0.737258570434414,0.739002758099141,0.740508149957362,0.744543702823783,0.747411304147462,0.749082819890692,0.749462747495681,0.752534296620901,0.753743737736533,0.760496253291558,0.76570074049302,0.766071155611056,0.76697866853299,0.768514657150977,0.768616705748735,0.772738813994642,0.775288960928874,0.778189985957576,0.780062243795933,0.781276839872188,0.780873261617955,0.783404842831436,0.783999105122856,0.787486307103036,0.790610768486412,0.792176819853466,0.795497493398374,0.795402907270605,0.797444370039946,0.798567011174522,0.801202765365122,0.801533646240043,0.803289480038719,0.803939382870353,0.806247171182099,0.805615848359187,0.806400950607644,0.806957218289747,0.808093982336664,0.809534478110226,0.810711540554374,0.811153112107096,0.811949844747266,0.815675592219244,0.820341565744628,0.823562334441266,0.825039000989932,0.82350081075486,0.82353639195662,0.82312365344416,0.823452579378019,0.82504044830895,0.827736608181144,0.828874077664157,0.829751039279735,0.832790917935484,0.837750405201441,0.839379138469763,0.841359741769235,0.84354640067728,0.845338013589342,0.846846045770778,0.848435500743484,0.850052310701558,0.852599403222416,0.852853458415467,0.853811491582152,0.854480006068043,0.856870924581823,0.855705081470117,0.855633286998642,0.862018006351351,0.869410780007583,0.868674300961882,0.866319767386742,0.86751659513736,0.870631524696764,0.871640837036271,0.871839653720353,0.875329336456221,0.87864115019494,0.879454619206302,0.881232144436685,0.88229414872704,0.883642767649478,0.887073717149448,0.908894152215426,0.892681203369284,0.89163675446634,0.892974760575731,0.893278681561307,0.895327432162793,0.909803592484075,0.897896790271071,0.878939460818344,0.898904530033665,0.899421338843343
0.510442811632389,0.513635077896901,0.516649907092655,0.519333484718946,0.520672056053092,0.527188804975781,0.535592725287463,0.543848781562357,0.553576552740864,0.555306374067457,0.558877693926875,0.559829863310974,0.561347812386956,0.563961478129207,0.579616075808763,0.587014588736765,0.593682363394246,0.595806562190387,0.59957114868689,0.602027669526116,0.603695849496807,0.606197799226988,0.606872051837273,0.607418142603696,0.610127038133827,0.612127833156418,0.61438739249734,0.614864125868983,0.614736829525306,0.614886012587296,0.615058972670147,0.615535672892882,0.616615234525263,0.618678174419896,0.620347809646197,0.636028975916949,0.63712592653114,0.64713396079581,0.65321070641284,0.654030342764386,0.655837399776455,0.657663240695257,0.659965630523357,0.661672749742682,0.663349077277392,0.663379227366774,0.662657125685709,0.660130699621367,0.658451875659569,0.655405842224838,0.652786776297705,0.652100403233226,0.172120457205378,0.12982996290003,0.00747601180578972,0.00609779858419457,0.00457247299109937,0.00422725450164299,0.00405415260816562,0.109258124932435,0.151662679956748,0.204559360154393,0.707853783522372,0.709008627565035,0.709886721420787,0.712232885036807,0.714665961890657,0.719234170750375,0.72363944848275,0.726337661262786,0.735114053433328,0.734677367162941,0.735251728421591,0.736362220755023,0.738320864398486,0.74163597132994,0.744722072974696,0.746362428671878,0.747947305367361,0.750853046679564,0.75574310251889,0.759174470727134,0.762306063506142,0.763910249621861,0.76584714059345,0.766932740667358,0.768713905872125,0.77118356791109,0.774213181229781,0.776017015899271,0.777834691470947,0.778812777182419,0.779451472236015,0.780935515716085,0.782119145300247,0.784524967826239,0.787626510123241,0.788313117590731,0.789438534506444,0.791646954339274,0.793268671582509,0.795070860593901,0.796265711381501,0.797988931045376,0.799315701833343,0.800552508312477,0.801314110694935,0.802371274080679,0.802940217709966,0.804363183513049,0.805499366043061,0.806956655323102,0.808007381320909,0.808939679956315,0.810001785082586,0.812919931937473,0.814567045913415,0.81572032549023,0.816676976496417,0.819036937416403,0.819928385864721,0.820329910456838,0.820914758063022,0.822398962788851,0.825368726036047,0.825942525674282,0.827785709723991,0.830559452816423,0.833844970267756,0.836919522853021,0.84086494267557,0.843424971769135,0.844880041469651,0.845713193171499,0.845511795594371,0.845612799029333,0.847922725331953,0.850246173806946,0.852287460838297,0.852902210139522,0.854514023304625,0.854766892630088,0.854743032559503,0.854924426695466,0.857170744947854,0.85959337711431,0.863102296128203,0.864337144381493,0.866306036376905,0.868410616600158,0.870358059785893,0.87288785651147,0.875006390757579,0.876380308499114,0.877656999062509,0.878876060746748,0.87966293554069,0.879682839652937,0.882730794876911,0.886145265427048,0.889781969147662,0.891713264673232,0.893105655043412,0.895035043021438,0.89647324751352,0.897857203632871,0.899158175732081,0.900736665071672,0.901703365853599
0.509378492830223,0.510830723196902,0.509692246054677,0.520465972297193,0.52202167303828,0.524757174330143,0.00393269999999699,0.543547924595535,0.548016107328484,0.554143144389669,0.562817780366988,0.5624774821002,0.573813520074705,0.569024227643583,0.00366929999999696,0.585431145667232,0.589368404813354,0.592840834829985,0.59653403616068,0.599984247667321,0.603359590662932,0.60380025181131,0.602415172953486,0.602696157473795,0.603255977544084,0.602167469065141,0.00343225999999693,0.609343138206597,0.611334223401973,0.612076248396505,0.611730141768585,0.614272477589252,0.615420902755515,0.617650920337832,0.618871264271942,0.632862955093853,0.638671224521673,0.645423435431713,0.65027466522115,0.651272481553205,0.652352599003036,0.655131372832985,0.659915802841388,0.660103805955996,0.662296115767996,0.661783155242451,0.66156523320385,0.660517286453624,0.661056182173156,0.65655305680601,0.00370344999999697,0.653306584007946,0.656022011043016,0.171974749966291,0.00365696089857248,0.0046152933206385,0.00424360272475183,0.00421334031030376,0.00398075207814071,0.00393494090710471,0.00345568432448579,0.162383349310249,0.706091382154712,0.707087292624003,0.706511273001881,0.708978866607559,0.7117566067111,0.715257845765474,0.716049989387356,0.723967927771073,0.734583064459212,0.733086084854623,0.732545262146334,0.733037155801152,0.733151765467137,0.739500886649047,0.743065771189524,0.744247921502038,0.744544212443154,0.74760423318128,0.758960043186819,0.758527765253654,0.759841616391891,0.761989625651823,0.764776053252559,0.765304369942572,0.767470161313515,0.769484454335494,0.773859270047533,0.773974048031483,0.776016925795396,0.776571195231688,0.77725475253281,0.778493146421686,0.779245490844235,0.780513016050495,0.779618182801637,0.783556634519754,0.784627690513268,0.787991916855422,0.790694345962141,0.791484234686007,0.79262839109344,0.794396157106497,0.796598968924347,0.797138041735115,0.798327890351456,0.798960876717571,0.799581002561351,0.80139267654706,0.803333744565518,0.804287059279091,0.805615339784903,0.80608789676906,0.80596344866209,0.806073683246259,0.804663553985518,0.812798287328776,0.814824632075927,0.815727492079153,0.817087255348366,0.817134528643535,0.817798700446436,0.818290644538899,0.817914348135722,0.821756125447908,0.824696757356843,0.827512412818665,0.831514729863926,0.830679941435904,0.83000661973477,0.829342148540978,0.830276899462916,0.837888293385581,0.842085772390282,0.841849415545701,0.841778609400458,0.841598110626895,0.843946177142981,0.850258203553975,0.853619423168181,0.853940313456217,0.853358560420256,0.852680997771364,0.853201346478623,0.854035999554267,0.856707268486926,0.860076263488767,0.862938872617288,0.865347779347421,0.868358848079677,0.870911418958575,0.872555116524176,0.873412051342944,0.874510545722058,0.875882996914434,0.876892522236916,0.876628550053367,0.876499748012328,0.876456340410415,0.878006882196463,0.884187940399285,0.902932458623734,0.885007193773995,0.878015993194465,0.88769553338959,0.904949620108381,0.903197907738555,0.903909943469942
