1.06673905142483,1.0697759714396,1.07236710503018,1.07058395933343,1.07107618184347,1.06799282574286,1.06689693411673,1.06795567687417,1.0641014817484,1.06860578207611,1.07069540593948,1.07647205501955,1.08038197344835,1.08356748893784,1.09142447466412,1.09439638415869,1.0995600769055,1.09900284387527,1.10925593163154,1.11565482426204,1.11426174168646,1.11382524247945,1.11502329349444,1.11575698365092,1.11780945864561,1.1193232750444,1.12199799358952,1.12457983996293,1.12840617343719,1.13365345113854,1.13786056051679,1.13723831696636,1.13504653371412,1.13086728598738,1.10943238875778,1.11309155232297,1.13236252795183,1.07415953794409,1.07219993512111,1.07180987199994,1.08255518226625,1.15431750934298,1.11637922720134,1.12388329867514,1.1409160549659,1.18177981051625,1.1791793897085,1.21369997593138,1.24011282156438,1.29922595885484,1.29115536713364,1.29865015139026,1.28668821567462,1.3054483943591,1.3149677919589,1.32179389657924,1.33815797323372,1.34447328090968,1.41591055538544,1.40040090271065,1.49111844003243,1.51756843453412,1.50120435787964,1.50046138050599,1.45578057869855,1.43438283033764,1.43153165466628,1.47889646223601,1.46658161226788,1.56552762400276,1.60067974099324,1.65465704718839,1.7064704317828,1.60829525907308,1.58304331558639,1.5864145754193,1.60550909392192,1.60458037220486,1.62380491174787,1.60471039324525,1.56540689017954,1.57218655871404,1.56906605374474,1.57962561966763,1.61078423327478,1.58891283683817,1.58801197677263,1.57879905733946,1.61907771820807,1.5246360068009,1.48829512601259,1.45807452133967,1.40218404840739,1.34977628191406,1.32913079814396,1.33251134519404,1.36074448539246,1.31097428857556,1.28623314203326,1.24166378683186,1.22258784276358,1.18579188833392,1.16863839821994,1.20201665673085,1.12686449538688,1.12839688622002,1.08825753360896,1.09381128947694,1.06864293094479,1.06743559271262,1.06540169215228,1.06956236544468,1.05766544024922,1.0553714976081,1.04262943565012,1.04435685804384,1.05575227351209,1.04454260238725,1.03329578239374,1.02637680560169,1.0233770344556,1.02700833636928,1.02390640583432,1.02216969622343,1.02751913331366,1.03366727108056,1.03936962242327,1.04855468020493,1.05076503789151,1.04104132151396,1.03727071134272,1.32589884656861,1.15159635471201,0.967551572043518,0.95752137749934,0.961552029751352,0.962443602599724,0.944872187713071,0.940367887385361,1.05425703154763,0.980033591920717,0.984835083197884,0.985085838061488,1.05926284160255,1.00930690044224,1.01050495145724,1.00859178472011,1.08479340160435,0.966975764578945,0.966130627816426
1.06187254962747,1.0682621550408,1.06782565583379,1.06825286782363,1.0716334148737,1.07157769157068,1.06886582415689,1.0737787620401,1.07392735751483,1.07583123703479,1.07879385931219,1.08082775987253,1.08127354629672,1.08876833055334,1.08903765985129,1.09661602906244,1.09760047408252,1.10231838040515,1.11551551600448,1.11552480322165,1.11453107098441,1.11433603942383,1.11549694157014,1.11634207833266,1.11781874586278,1.11952759382215,1.12475629708917,1.12484916926087,1.13054223338641,1.13610527647156,1.13907718596613,1.13775840112791,1.13578951108776,1.32327985132652,1.30797451742948,1.11904465852929,1.06094382791042,1.0593742882086,1.06892154745991,1.08301025590761,1.08197937480168,1.13302192037094,1.11224641556045,1.15727084440321,1.13474934276466,1.17524160962819,1.17671827715831,1.22502109366226,1.2496879424672,1.27635154296381,1.30334948327856,1.29886375738519,1.29680199517333,1.32071657938746,1.32293622429121,1.35080716301999,1.33963464076384,1.33971822571837,1.41684856431967,1.42010837754652,1.49428538108759,1.5112066907723,1.46860622561106,1.46343324564707,1.4534309127544,1.46186370594525,1.48647483144717,1.46745461068191,1.48101394775089,1.56428313690191,1.6088246304518,1.68148781759406,1.71030605247423,1.74973028936315,1.72672585243174,1.60493328645734,1.60757085613377,1.60719008022978,1.61377471720369,1.63816294949352,1.56613129311885,1.56194275817493,1.56842523575997,1.58529082214166,1.74768710158564,1.58983227133805,1.58923788943914,1.58073079851093,1.62386992226806,1.5987387126046,1.53297592782004,1.48144115974074,1.44093031844286,1.40032660497328,1.35294322296921,1.34175212627872,1.32749624792195,1.31128076674219,1.29980176631941,1.26490969140971,1.22272715102114,1.203985546771,1.17784203043594,1.19961126748368,1.17056085217424,1.12857334334626,1.08161717333203,1.08311241529649,1.0681042723489,1.06821571895495,1.0677885069651,1.06749131601565,1.0684200377327,1.37351440900195,1.04588924887698,1.04803459604338,1.04811818099791,1.04364174232171,1.03243207119688,1.02648825220773,1.02590315752599,1.02917225797002,1.02602389134921,1.02425932008681,1.02685045367738,1.03483746044404,1.0397689727616,1.04662293903345,1.04021475918578,1.03627697910548,1.0368063504842,1.12679948486668,1.00033544865551,0.963065846150149,0.963465196488482,0.966093478947744,0.963140143887514,0.959360246499106,0.966065617296232,0.968424570457548,0.984138541910093,0.984537892248426,0.990258818025476,1.00864750802314,1.01077428075519,1.01523214499705,1.00439396255903,1.00461685577112,0.963019410064296,1.00384601674597
1.06742630549545,1.06854077155592,1.06939519553561,1.07120620288386,1.07342584778762,1.07286861475739,1.07350943274215,1.07515327018134,1.07610056633273,1.07965757050905,1.08334459572575,1.08403184979637,1.15832029994348,1.09925359873888,1.09864992962279,1.09926288595605,1.09966223629438,1.10409223888472,1.1161098979034,1.11640708885285,1.11658354597909,1.1161098979034,1.11715935344367,1.11804163907487,1.11873818036266,1.12136646282192,1.12598220975568,1.1286847899523,1.13355129174966,1.13990374829431,1.14188192555163,1.13696898766842,1.13593810656249,1.32148741841261,1.33769361237519,1.1040365155817,1.10776068966709,1.06349781263232,1.06947878049014,1.08385539267013,1.08451478508924,1.10468662078364,1.15454968977224,1.15488402959038,1.13493508710807,1.18864306400528,1.18946962633345,1.19592424226698,1.25776782140557,1.28008500426637,1.31626800236277,1.29917023555181,1.29842725817817,1.33172193173454,1.38112063986462,1.36739413288657,1.35440131606499,1.37884527165784,1.41669996884494,1.41434101568362,1.43407635217101,1.50776113320203,1.46951637289377,1.47105805094408,1.47941654639756,1.48899166730038,1.46288529983401,1.48617764049771,1.51701120150389,1.57848329195566,1.61031987241625,1.60317800241211,1.6025836205132,1.59590611136758,1.60164561157897,1.61735958303152,1.61930989863733,1.61800968823346,1.60293653476568,1.74327567342963,1.56624273972489,1.56328940466466,1.56614058033602,1.7070369520302,1.60304798137172,1.6022028446092,1.58602451229813,1.67784722846321,1.62774269182818,1.55313847629727,1.49493548628952,1.47225610195908,1.45503760132491,1.41574338547637,1.38230011644527,1.35624947228192,1.33488887278969,1.31233022228246,1.30533694775305,1.29798147175399,1.25736847106724,1.21024513114394,1.20951144098747,1.17111808520448,1.14603331162686,1.16791399528064,1.0728964764089,1.0813106951654,1.0853134857659,1.07548760999948,1.06723127393487,1.06902370684878,1.07049108716173,1.06174252858708,1.05488856231523,1.04861040350795,1.04535059028109,1.04311237094299,1.03021242629312,1.02684116646021,1.0248908508544,1.0349767687016,1.02695261306626,1.0256802643139,1.0295251722225,1.03194913590401,1.04300092433694,1.04172857558458,1.03568259720656,1.0397039622414,1.04534130306392,1.02319129011219,1.00464471742263,0.9778325214513,0.970142705634097,0.977368160592773,0.990881061575902,0.962322868776507,0.964783981326698,0.975324972815256,0.977015246340293,0.993082132045319,0.991698336686909,1.00988270790682,1.00848033811407,1.00805312612422,1.00476545124585,1.00629784207899,1.09435923529,0.978612647693625
1.06830859112665,1.0694602060558,1.07102974575762,1.08016836745343,1.07571979042874,1.07667637379731,1.07713144743866,1.07786513759513,1.08227656575114,1.08204438532187,1.09018927478043,1.09020784921477,1.10048879862256,1.10007087384988,1.10009873550139,1.10532743876841,1.10804859339937,1.11358377483301,1.12153363273099,1.12090210196339,1.12031700728165,1.12043774110487,1.12230447175614,1.12289885365506,1.12237876949351,1.12497919030126,1.12881481099269,1.13225108134579,1.13917005813784,1.14424087871295,1.14284779613737,1.14259704127376,1.14118538426384,1.14229056310714,1.10297777282426,1.1029963472586,1.10590324623298,1.11299868015127,1.10340498481411,1.14194693607183,1.09230676029532,1.09351409852749,1.15286870346438,1.22336796900591,1.15407604169654,1.18063748280428,1.18250421345555,1.21168464980537,1.26284792919785,1.27747529624144,1.32871287337129,1.31564575881234,1.31845049839785,1.34326594267752,1.39035213373213,1.39433634989829,1.3956551347365,1.37619841476423,1.40874082372979,1.40070738087727,1.48928885824984,1.51743841349373,1.51813495478152,1.48112539435694,1.48586187511391,1.48332646482636,1.48164547851849,1.51160604111063,1.52659560962388,1.63329644769616,1.60471039324525,1.60373523544234,1.60349376779591,1.60384668204839,1.60222141904355,1.60588058260874,1.61978354671303,1.61925417533431,1.6035587783161,1.6036237888363,1.56556477287144,1.55850648782184,1.55825573295823,1.5748148411733,1.60376309709385,1.60315942797777,1.59825577731173,1.6341973077617,1.65261385941087,1.52881525452764,1.53652364477918,1.48427376097775,1.50589440255076,1.46266240662191,1.44050310645302,1.36857360946722,1.36054945383188,1.34536485375806,1.32615888864939,1.35397410407514,1.26501185079859,1.26476109593498,1.23832967586764,1.16611227514956,1.15775377969608,1.20668812696763,1.11661140763061,1.11265505311596,1.08419901970544,1.08396683927618,1.07088115028289,1.07056538489909,1.34184499845042,1.05333759704775,1.05307755496698,1.12853619447757,1.0429823499026,1.0349767687016,1.03029601124765,1.02606104021789,1.02579171091994,1.03369513273207,1.02724051679855,1.02272692925367,1.02894007754075,1.02721265514704,1.03256209223726,1.03395517481284,1.03423379132796,1.04039121631202,1.04263872286729,1.04558277071035,1.11326800944921,0.989348670742764,0.990946072096096,0.994020140979543,0.994029428196713,1.11904465852929,0.967904486295998,0.975380696118279,0.974869899173899,0.996982763256943,1.01188874681565,1.01093216344709,1.008313168205,1.00939977261395,1.00850819976558,1.00964124026038,0.998078654883067,1.00316804989252
1.07160555322219,1.0740295169037,1.07423383568145,1.08145929064013,1.08186792819563,1.07781870150928,1.08453335952358,1.14961817745469,1.08155216281184,1.08391111597315,1.0901985619976,1.08810893813423,1.0997829701176,1.102745592395,1.10502096060178,1.1062747349198,1.10660907473794,1.11394597630266,1.12061419823111,1.1196390404282,1.11623063172661,1.11772587369107,1.11940685999894,1.12072564483715,1.12104141022095,1.12457055274575,1.12887982151288,1.13100659424494,1.14346075247062,1.14450092079372,1.14482597339469,1.1360309787342,1.13418282251726,1.1234839483368,1.14861515800027,1.15674147302449,1.11102050289394,1.09397845938601,1.10061881966294,1.0917123783964,1.09838060032485,1.16724531564436,1.1582831510748,1.22075826098099,1.17365349549203,1.19070482621714,1.24126443649353,1.24093009667539,1.24782121181593,1.28099515154908,1.31271099818645,1.3223418423923,1.33453595853721,1.37064465889625,1.41689500040552,1.62421354930337,1.39488429571135,1.37748005073377,1.3765234673652,1.40595465857863,1.41760082891048,1.41753581839028,1.52387445499291,1.52941892364372,1.48896380564887,1.48802579671465,1.48987395293158,1.49740588605689,1.55333350785785,1.60139485671537,1.60978121382036,1.6103663085021,1.61320819695629,1.58202172169763,1.6038745436999,1.60686502762881,1.62110233155124,1.6194770685464,1.60493328645734,1.62955369917643,1.57146215577473,1.55872009381676,1.55833931791277,1.57839041978395,1.64354953545243,1.59373290254968,1.57035697693144,1.58872709249476,1.66586671831322,1.56082829211447,1.49699724850138,1.48394870837678,1.48141329808923,1.50810476023734,1.42712951372745,1.38206793601601,1.37966254676884,1.35926781786235,1.36001079523599,1.34758449866181,1.31317535904498,1.2591144678953,1.22578264547025,1.16377189642258,1.16433841666999,1.1550047634136,1.12053061327657,1.12197013193801,1.08410614753373,1.08391111597315,1.3514015449189,1.06879152641952,1.34437112152081,1.05070002737132,1.05037497477035,1.32464507225059,1.04228580861481,1.03149406226265,1.03610980919641,1.01827835222898,1.01662522757263,1.20791403963414,1.20314041000848,1.01685740800189,1.02148244215282,1.01956927541568,1.02615391238959,1.0293672895306,1.0326456771918,1.03622125580245,1.04176572445326,1.11282222302503,0.999852513362639,0.990713891666832,0.987463365657145,0.994725969484504,1.00686436232639,0.997177794817525,0.979188455158198,0.980488665562073,0.986237452990634,0.987435504005633,1.01197233177019,1.01093216344709,1.01134080100259,1.00965981469472,1.01160084308337,1.01343042486596,1.00097626664027,1.00251794469058
1.07369517708556,1.07319366735835,1.07535758895909,1.08413400918524,1.08419901970544,1.08290809651873,1.08450549787207,1.09002210487136,1.08088348317556,1.08583356992745,1.09179596335094,1.08027981405947,1.0813757056856,1.09671818845132,1.09799053720368,1.10335854872825,1.09832487702182,1.11432675220665,1.12040059223618,1.12062348544828,1.11598916408018,1.11691788579723,1.11950901938781,1.12050275162506,1.12098568691793,1.12871265160381,1.12685520816971,1.12669732547781,1.14416658097558,1.14543892972795,1.14384152837462,1.13687611549671,1.13485150215354,1.14959960302035,1.10751922202065,1.09095082658842,1.15742872709511,1.109553122581,1.10805788061654,1.10384148402112,1.12680877208385,1.11806021350921,1.17414571800207,1.17195393474982,1.18716639647516,1.18727784308121,1.23122495473218,1.23651866851938,1.25175899189623,1.32150599284695,1.32703188706342,1.33890095060736,1.35415984841855,1.47524658588799,1.39495859344871,1.43573876404453,1.53688584624883,1.40171968754886,1.37985757832942,1.42020124971823,1.42058202562222,1.51293411316602,1.51734554132203,1.51421574913556,1.50059140154638,1.55979741100854,1.53114634603744,1.52105114097307,1.55995529370044,1.63053814419651,1.61109999865858,1.61014341529001,1.59899875468537,1.62372132679333,1.60748727117924,1.60838813124478,1.60724580353281,1.61132289187067,1.61371899390067,1.58989728185825,1.58867136919173,1.55876652990261,1.55891512537734,1.57972777905651,1.57904052498589,1.60231429121525,1.63546965651406,1.59027805776224,1.69970933768265,1.55996458091761,1.55892441259451,1.49122059942131,1.47996449221062,1.45334732779987,1.43772622851903,1.39087221789368,1.38028479031927,1.37399734429482,1.37008742586602,1.36653970890688,1.29888233181953,1.2668042837125,1.22099044141025,1.17475867433533,1.17144313780545,1.155571283661,1.13947653630446,1.08277807547835,1.08338174459443,1.0802705268423,1.08086490874122,1.30686005136902,1.05592873063833,1.05502787057279,1.0409020132564,1.0336208349947,1.03030529846482,1.22372088325839,1.03548756564598,1.01699671625945,1.01300321287612,1.0128824790529,1.01097859953294,1.01590082463332,1.01569650585557,1.01638375992619,1.01721032225437,1.02471439372816,1.02925584292455,1.03116900966168,1.02989666090932,1.14034953471849,1.00532268427608,0.992729217792839,0.984064244172729,0.992246282499971,1.00785809456364,1.00550842861949,0.981770301531607,0.989014330924624,0.992246282499971,0.992822089964544,1.01277103244685,1.01252027758325,1.01366260529522,1.01489780517891,1.01289176627007,1.00488618506907,1.0053505459276,1.00374385735709
1.07440100559052,1.07419668681277,1.07404809133804,1.08640937739203,1.08487698655889,1.08800677874536,1.08473767830133,1.08067916439781,1.08035411179684,1.08521132637703,1.08737524797776,1.07846880671122,1.07751222334265,1.089947807134,1.09645814637054,1.09713611322399,1.10340498481411,1.0978605161633,1.11130840662623,1.12045631553921,1.12272239652882,1.123548958857,1.12193298306932,1.12407833023572,1.12409690467006,1.12893554481591,1.12904699142195,1.25694125907739,1.14520674929868,1.14783503175795,1.1462747792733,1.14550394024814,1.13852924015307,1.12350252277114,1.1147539641965,1.09231604751249,1.11480040028235,1.11297081849976,1.11111337506565,1.12902841698761,1.12461698883161,1.133950642088,1.17810207251672,1.1786128694611,1.17770272217839,1.22584765599044,1.22656277171257,1.25107173782561,1.28722687427051,1.31687167147885,1.31737318120606,1.36088379365002,1.36656757055839,1.40497021355855,1.40350283324561,1.43354698079229,1.43405777773667,1.43403920330233,1.40185899580642,1.43323121540849,1.52314076483644,1.50462205379839,1.63545108207972,1.50509570187409,1.50495639361653,1.55004583297948,1.62452931468717,1.63957460650344,1.58624740551023,1.61562287342063,1.6125116556685,1.78853228270165,1.63262776805988,1.61878981447578,1.60804450420947,1.60817452524986,1.59951883884692,1.61145291291106,1.61128574300199,1.64512836237142,1.64523052176029,1.55948164562474,1.55933305015001,1.57997853392011,1.57996924670294,1.86459459132833,1.76196155437675,1.67812584497833,1.56297363928086,1.55269268987308,1.51723409471598,1.51819067808454,1.52428309254842,1.46001554972831,1.43778195182205,1.41234426399196,1.3931661605348,1.40109744399844,1.37950466407694,1.35518144230731,1.28807201103303,1.26253216381405,1.20915852673499,1.17157315884583,1.18003381368819,1.16723602842719,1.15804168342836,1.08290809651873,1.10832720991449,1.06439867269786,1.0786638382718,1.0609809767791,1.05956931976918,1.05605875167872,1.22768652499021,1.03266425162614,1.03089968036374,1.0233770344556,1.02907009858114,1.01628160053732,1.01343971208313,1.01302178731046,1.01107147170465,1.01494424126476,1.01365331807805,1.01349543538615,1.01669952530999,1.01897489351677,1.02226256839514,1.02904223692963,1.03099255253544,1.01643948322921,1.00715226605868,0.98754695061168,0.985652358308891,0.993035695959466,0.994010853762372,1.00358597466519,0.979773549839942,0.981668142142731,0.992636345621133,0.992339154671676,1.01872413865317,1.01650449374941,1.0135140098205,1.01597512237069,1.01201876785604,1.00187712670582,1.00265725294814,1.00863822080596
1.07402022968653,1.07302649744928,1.07448459054506,1.08736596076059,1.0873009502404,1.09017070034609,1.07981545320095,1.08129212073106,1.08457050839226,1.08480268882152,1.08622363304862,1.08685516381621,1.07886815704955,1.08768172614439,1.09364411956787,1.09750760191082,1.10189116841531,1.09365340678504,1.11035182325767,1.11377880639359,1.12496990308409,1.12757032389184,1.1248398820437,1.12638156009401,1.12758889832618,1.13241825125486,1.13917005813784,1.14562467407136,1.14711062881864,1.14790004227814,1.14895878503558,1.39678817523131,1.13887286718838,1.13206533700238,1.1113176938434,1.11296153128259,1.12349323555397,1.12282455591769,1.15744730152945,1.12465413770029,1.13134093406307,1.15793023682232,1.17087661755804,1.20520217222034,1.20872202752797,1.23506057542361,1.24178452065508,1.2668042837125,1.31861766830692,1.3166673527011,1.33221415424458,1.34801171065166,1.37926319643051,1.43627742264042,1.44430157827577,1.43464287241841,1.43487505284767,1.43423423486291,1.42545781463675,1.42402758319249,1.42828112865659,1.42824397978791,1.63624978275639,1.51085377651982,1.50598727472246,1.70078665487444,1.66275550056109,1.69738753339002,1.639713914761,1.65559505612261,1.61398832319861,1.7911327035094,1.83890614863463,1.62005287601097,1.61020842581021,1.60682787876013,1.59903590355405,1.61229804967358,1.61163865725447,1.61395117432993,1.5768951778195,1.57602217940547,1.58894998570685,1.6299716239491,1.6053883600987,1.60488685037149,1.68804459291646,1.56926108530532,1.67884096070046,1.56672567501776,1.51917512310462,1.56210064086683,1.57421117205721,1.50784471815657,1.48242560476081,1.42435263579346,1.40893585529037,1.41969973999102,1.43441997920632,1.38283877504117,1.3161008324537,1.28735689531089,1.18915386094966,1.18788151219729,1.19127134646454,1.15539482653476,1.14866159408612,1.09226032420946,1.08743097128079,1.0480903193464,1.04848966968473,1.06226261274863,1.05864059805213,1.05808336502189,1.04783956448279,1.28851779745721,1.03098326531827,1.02468653207665,1.023126279592,1.02185393083964,1.01708030121398,1.01325396773972,1.01122935439654,1.02680401759153,1.02963661882854,1.01572436750708,1.0131982444367,1.01332826547709,1.02238330221836,1.02797420695502,1.0292094068387,1.02972949100025,1.01163799195205,0.991103954787995,0.988475672328733,0.991967665984855,0.99448450183807,0.981454536147809,0.980980888072112,0.997809325585121,0.994159449237101,1.00145920193314,1.0220861112689,1.01684812078472,1.01627231332015,1.01602155845654,1.0125667136691,0.998125090968919,1.01788828910782,1.01434985936584
1.07766081881738,1.07487465366622,1.0721720734696,1.08986422217947,1.09017070034609,1.09533439309291,1.07878457209502,1.08026123962513,1.08713378033133,1.08773744944741,1.08905623428563,1.08981778609361,1.08221155523094,1.09017070034609,1.09330049253256,1.09668103958264,1.09298472714876,1.09310546097198,1.10748207315197,1.11244144712104,1.12076279370584,1.12806254640188,1.12609365636172,1.12784894040695,1.13014288304808,1.13507439536563,1.14034953471849,1.27105782917661,1.27180080655025,1.15577560243875,1.15137346149992,1.15224645991395,1.13938366413276,1.11301725458561,1.11401098682286,1.13680181775935,1.13563162839586,1.12408761745289,1.13135950849742,1.13461932172427,1.14267133901113,1.15425249882278,1.1688427169977,1.2118982558003,1.24185881839244,1.23660225347392,1.25623543057243,1.26694359197006,1.32519301806365,1.31738246842323,1.33121113479016,1.34171497741004,1.38861542412124,1.41446174950684,1.48500745113422,1.43122517649965,1.4326275462924,1.43986228846825,1.42831827752528,1.4363795820293,1.49379315857755,1.49457328481987,1.59852510660967,1.51433648295877,1.54416702451053,1.56257428894253,1.65567864107715,1.64918687627494,1.64897327028002,1.64253722878084,1.62019218426853,1.63002734725213,1.63481026409495,1.61360754729462,1.65521428021862,1.60400456474029,1.59951883884692,1.61329178191082,1.61456413066319,1.63934242607417,1.57655155078419,1.6168302116528,1.59479164530712,1.63958389372061,1.60814666359835,1.60565768939664,1.60426460682106,1.58264396524806,1.55692766090285,1.53744307927906,1.5188965065895,1.5576056277563,1.5359199756631,1.51124383964098,1.45117411898196,1.43063079460074,1.43422494764574,1.43030574199977,1.43035217808562,1.35233026663596,1.30669288145995,1.26843883393451,1.20665097809894,1.19401107552985,1.20240671985201,1.141956223289,1.14408299602105,1.09060719955311,1.09030072138648,1.05630950654232,1.10093458504674,1.07136408557576,1.06481659747053,1.06352567428383,1.19735447371124,1.04653935407892,1.0362398302368,1.02909796023265,1.02853143998525,1.02306126907181,1.02033082722367,1.0193742438551,1.02985951204064,1.02589387030882,1.03050961724258,1.01572436750708,1.01116434387635,1.01191660846716,1.02110166624882,1.02069302869332,1.03004525638405,1.026720432637,1.01234382045701,0.996369806923688,0.991048231484972,0.996527689615587,0.996146913711595,0.988141332510594,0.981575269971026,0.993305025257411,1.00027043813531,1.00660432024562,1.02257833377894,1.0453784519326,1.02320057732936,1.016318749406,0.99656483848427,0.994893139393573,0.995441085206635,1.02119453842053
1.07731719178207,1.07649991667106,1.07422454846428,1.09018927478043,1.08984564774512,1.09127587918939,1.08764457727571,1.07328653953006,1.0743452822875,1.08989208383098,1.08920482976036,1.08702233372528,1.08722665250303,1.08769101336156,1.09076508224501,1.09531581865857,1.10010802271857,1.09332835418407,1.10468662078364,1.10614471387941,1.12035415615033,1.12601935862436,1.12624225183645,1.12867550273513,1.1313316468459,1.13839921911268,1.14518817486434,1.14900522112143,1.15408532891372,1.15479115741868,1.23187505993412,1.11901679687777,1.1162027700751,1.1266044533061,1.14017307759225,1.11004534509104,1.12182153646328,1.11876604201417,1.14665555517729,1.14209553154655,1.15593348513065,1.15745658874662,1.17464722772928,1.21443366608785,1.21970880544072,1.23322170642385,1.25083027017918,1.28223035143276,1.37019887247207,1.36329847011436,1.34030332040011,1.34544843871259,1.43873853519062,1.41447103672401,1.47923080205415,1.43232106812578,1.45518619679963,1.45708078910242,1.44735707272487,1.42809538431318,1.44061455305906,1.49283657520898,1.59733634281184,1.5768951778195,1.55644472560998,1.6686807451159,1.65565077942563,1.64898255749719,1.65264172106238,1.62370275235899,1.62937724205019,1.63587829406956,1.63594330458976,1.64608494573998,1.65568792829432,1.60349376779591,1.60366093770498,1.6034659061444,1.72719950050744,1.64968838600215,1.69034782277475,1.60228642956374,1.59417868897386,1.59427156114557,1.5929992123932,1.61070064832024,1.59847867052382,1.60307584302324,1.59279489361545,1.52784009672473,1.52144120409423,1.5211347259276,1.52126474696799,1.48572256685635,1.45400672021898,1.43374201235287,1.42490058160652,1.43226534482275,1.46707383477792,1.39463354084775,1.34405535613701,1.26090690080921,1.24119942597333,1.22252283224339,1.20203523116519,1.19905403445345,1.15328662823705,1.11213496895441,1.09050504016423,1.05075575067434,1.04218364922594,1.09966223629438,1.06443582156654,1.07052823603041,1.06196542179918,1.05087648449756,1.03871023000416,1.03058391497994,1.03028672403048,1.03120615853037,1.03109471192432,1.0339366003785,1.031131860793,1.0264975394249,1.03079752097486,1.02675758150568,1.01938353107227,1.01685740800189,1.0180833206684,1.01773969363309,1.02195609022851,1.02754699496517,1.0162537388858,1.00066978847365,0.998152952620431,1.0006512140393,1.00123630872105,0.99033311576284,0.991429007388964,1.00100412829179,1.0020721582664,1.00790453064949,1.04032620579183,1.03580333102978,1.02821567460145,1.02882863093471,1.07878457209502,0.997010624908455,0.998245824792136,1.02604246578355
1.08134784403408,1.07670423544882,1.07905390139296,1.08851757568974,1.08887048994222,1.08992923269966,1.08534134741741,1.07172628704541,1.06751917766716,1.08371608441257,1.08748669458381,1.08648367512939,1.08719879085152,1.08773744944741,1.09253894072458,1.09290114219423,1.09405275712338,1.09903999274395,1.10287561343538,1.10773282801557,1.11878461644851,1.12462627604878,1.12614937966475,1.12743101563428,1.13253898507807,1.16595439245766,1.14779788288926,1.14893092338407,1.15165207801503,1.15247864034321,1.23349103572179,1.11818094733243,1.1113176938434,1.10047951140539,1.10136179703659,1.10846651817205,1.12073493205432,1.12535067898808,1.1277096321494,1.1413246925214,1.17332844289106,1.17232542343665,1.16559219098801,1.18802082045485,1.20673456305348,1.30256935703623,1.31437341005998,1.31787469093327,1.33474027731496,1.35226525611576,1.41531617348653,1.38681370399015,1.39385341460542,1.41477751489064,1.42439907187931,1.4411717860893,1.45185208583541,1.4586967648901,1.45979265651622,1.44502598121507,1.50461276658122,1.50421341624289,1.55991814483176,1.55971382605401,1.60874104549726,1.71390020551923,1.65634732071342,1.65508425917823,1.65334754956734,1.78887590973696,1.79692792702381,1.64135775220018,1.6518801692544,1.62969300743399,1.60243502503847,1.60693003814901,1.60497972254319,1.60329873623533,1.62157597962694,1.68456188647751,1.69202880908262,1.61077494605761,1.61096997761819,1.5941043912365,1.60366093770498,1.6077194516085,1.56946540408307,1.56601055929563,1.52813728767419,1.52690208779051,1.51767988114016,1.52437596472012,1.52315933927078,1.49533483662786,1.47663966846357,1.43989015011976,1.43333337479736,1.43325907706,1.41529759905219,1.46629370853559,1.34458472751573,1.2633680133594,1.25220477832042,1.23712233763547,1.2484898914522,1.18726855586404,1.13229751743164,1.12324248069037,1.09929074760756,1.06340494046061,1.06095311512759,1.09088581606822,1.06568959588456,1.06621896726328,1.06590320187948,1.05605875167872,1.04442186856404,1.04526700532656,1.04724518258388,1.04661365181628,1.03240420954536,1.03213488024742,1.02773273930859,1.02736125062176,1.02752842053083,1.02377638479394,1.02341418332429,1.0256802643139,1.02603317856638,1.01886344691072,1.02114810233468,1.0208880602539,1.02092520912258,1.00389245283182,1.00165423349372,1.00021471483229,1.0048118873317,0.99795792105985,0.993982992110861,0.995515382943999,1.0032051987612,1.01177730020961,1.03554328894901,1.03198628477269,1.03002668194971,1.02101808129429,1.02236472778402,1.08378109493276,1.02713835740967,1.02623749734413
1.08144071620579,1.07763295716587,1.08108780195331,1.08770030057873,1.08916768089168,1.08733809910908,1.08079989822102,1.07788371202947,1.07534830174192,1.08844327795237,1.08779317275044,1.0864186646092,1.08587071879613,1.08764457727571,1.09216745203776,1.09217673925493,1.09437780972435,1.09973653403174,1.10116676547601,1.11271077641898,1.11719650231235,1.12285241756921,1.12580575262944,1.12990141540164,1.13538087353226,1.14537391920775,1.14758427689434,1.14760285132868,1.14826224374779,1.15262723581794,1.15228360878263,1.0965045824564,1.09163808065904,1.07396450638351,1.10326567655655,1.10615400109658,1.12005696520087,1.12872193882098,1.13061653112377,1.14909809329314,1.18953463685365,1.171582446063,1.1676446659827,1.19065839013128,1.2084619854472,1.30263436755642,1.24809982833104,1.30615422286406,1.36646541116951,1.36595461422513,1.36884293876517,1.40141320938224,1.4502175356134,1.43929576822085,1.4986317987234,1.43471717015577,1.46600580480331,1.45972764599603,1.48536965260387,1.46994358488361,1.50178016534421,1.50613587019719,1.57930985428384,1.5617012905285,1.60990194764358,1.68448758874015,1.65606870419831,1.78331286665181,1.61239092184528,1.61119287083028,1.6623747246571,1.64073550864975,1.64866679211339,1.58788195573224,1.59845080887231,1.60783089821455,1.60666070885106,1.60437605342711,1.69169446926448,1.69748969277889,1.64980911982537,1.6132360586078,1.61179653994637,1.58988799464108,1.57550209524392,1.58035930982411,1.56938181912853,1.56663280284606,1.58134375484418,1.61600364932462,1.52078181167512,1.52291787162435,1.51710407367559,1.50173372925836,1.49187999184042,1.45673716206711,1.4615943766473,1.44548105485642,1.40998531083064,1.3895720074898,1.36567599771002,1.32127381241769,1.31145722386843,1.29989463849112,1.2386268668171,1.20637236158383,1.17382995261827,1.12708738859897,1.0913037408409,1.10703628672778,1.06468657643014,1.06416649226859,1.09294757828008,1.07072326759099,1.06560601093003,1.05834340710267,1.0503285386845,1.04739377805861,1.047143023195,1.04576851505376,1.04649291799307,1.03228347572215,1.02582885978863,1.02777917539444,1.02099021964278,1.01796258684518,1.02062801817313,1.02660898603095,1.02685974089456,1.01942996715813,1.02383210809696,1.02546665831897,1.02002434905704,1.12280598148335,1.00453327081659,1.00754232917984,1.00567559852856,0.996555551267099,0.995394649120782,0.990435275151716,1.00522981210438,1.02339560888995,1.0354504167773,1.03238563511102,1.03187483816664,1.03046318115672,1.03082538262637,1.03077894654052,1.02451936216758,1.02246688717289
1.08429189187714,1.08171933272091,1.08704090815962,1.08753313066966,1.09170309117923,1.0842733174428,1.08110637638765,1.08098564256443,1.0804284095342,1.0890655215028,1.08694803598792,1.08662298338695,1.08489556099323,1.08580570827594,1.08687373825055,1.09125730475505,1.09388558721431,1.10074884070333,1.10284775178387,1.10903303841945,1.11493970853991,1.11996409302917,1.12585218871529,1.12824829074529,1.18410161480888,1.14738924533376,1.14763071298019,1.14767714906605,1.14921882711635,1.1502125593536,1.14321928482419,1.14828081818213,1.07455888828242,1.09246464298721,1.10012659715291,1.09772120790574,1.10827148661147,1.11531119722673,1.13245540012354,1.14423159149578,1.21010582288638,1.17051441608839,1.17740553122893,1.18621910032377,1.21949519944579,1.21874293485498,1.23908194045845,1.28190529883179,1.41078401150731,1.39810696006953,1.41643992676416,1.40836933504297,1.45159204375464,1.44511885338677,1.45482399532998,1.46658161226788,1.48491457896252,1.5176055834028,1.49774022587503,1.50491924474785,1.53675582520844,1.5344061592643,1.54947002551491,1.58885711353515,1.60680930432579,1.69101650241103,1.68784027413871,1.69444348554696,1.63032453820158,1.61124859413331,1.66358206288927,1.66703690767671,1.62504011163155,1.58891283683817,1.58854134815135,1.60637280511877,1.60851815228517,1.60968834164866,1.64303873850805,1.63611047449883,1.62293191333384,1.63059386749953,1.62539302588403,1.59160612981762,1.57644010417814,1.58152021197042,1.57285523835031,1.57220513314838,1.54943287664622,1.54894994135336,1.52306646709908,1.52210988373051,1.5178563382664,1.5159338843121,1.51748484957958,1.47914721709961,1.45608705686518,1.54029425495042,1.42881978725248,1.38557850410647,1.3672269629775,1.36406930913951,1.30903326018692,1.28805343659868,1.28579664282624,1.19811602551922,1.14834582870232,1.12901912977044,1.0901985619976,1.0835489145035,1.07564549269138,1.0684200377327,1.06562458536437,1.06853148433875,1.06218831501127,1.06204900675371,1.24863848692693,1.05231600315899,1.04792314943733,1.04574994061942,1.0460099827002,1.03374156881792,1.02725909123289,1.02750984609649,1.02076732643068,1.01892845743092,1.01949497767832,1.02401785244037,1.0237578103596,1.02242045108704,1.02602389134921,1.03561758668637,1.02752842053083,1.0131332339165,1.0084710508969,1.01955998819851,0.999499599110159,0.996824880565044,0.997122071514501,0.990946072096096,1.15154991862616,1.01955998819851,1.02918154518719,1.03802297593354,1.03804155036788,1.02859645050545,1.03041674507087,1.02721265514704,1.02407357574339,1.02361850210204
1.08996638156834,1.08620505861427,1.09066292285613,1.09292900384574,1.09271539785082,1.0886568839473,1.08652082399807,1.09033787025516,1.08690159990206,1.09179596335094,1.09066292285613,1.08727308858889,1.0854713684578,1.08509987977098,1.08466338056397,1.08841541630086,1.0924367813357,1.10122248877903,1.10585681014713,1.10844794373771,1.11581270695394,1.12121786734719,1.1234839483368,1.13543659683528,1.14535534477341,1.14624691762178,1.14606117327837,1.14770501071756,1.14820652044477,1.14815079714174,1.13879856945101,1.11393668908549,1.08535063463458,1.09092296493691,1.08854543734125,1.10392506897566,1.11288723354522,1.10805788061654,1.15163350358069,1.16095786961991,1.15958336147867,1.17735909514308,1.19328667259054,1.18339578630392,1.20359548364984,1.22192845034447,1.26995265033331,1.30471470420262,1.39925857499867,1.39557154978197,1.42730597085369,1.42429691249043,1.42747314076276,1.46413907415203,1.47954656743795,1.50434343728328,1.73530724109731,1.71263714398404,1.61424836527939,1.5008700180615,1.54217027281887,1.55907300806924,1.61582719219838,1.60677215545711,1.60329873623533,1.60214712130618,1.69580870647103,1.69443419832979,1.60201710026579,1.60227714234657,1.60517475410378,1.61065421223439,1.61831616640008,1.62013646096551,1.58998086681278,1.60578771043703,1.60799806812362,1.65803759423846,1.64565773375014,1.63670485639774,1.62364702905597,1.6383579810541,1.68495194959867,1.62664680020205,1.60379095874537,1.58151092475325,1.58028501208674,1.57905909942023,1.55495877086269,1.54582014916689,1.52294573327586,1.52155265070028,1.519685920049,1.51209826362067,1.5077704204192,1.48040099141764,1.46308961861176,1.45059831151739,1.41799089203164,1.39667672862526,1.52090254549834,1.39630523993844,1.3630012791649,1.27654657452439,1.28234179803881,1.21674618316332,1.16962284324002,1.16755179381099,1.13439642851218,1.11934184947874,1.09981083176911,1.06654401986425,1.07218136068677,1.07071398037382,1.06379500358177,1.0641014817484,1.06260623978394,1.05470281797182,1.04874971176551,1.04781170283128,1.04499767602861,1.03856163452943,1.03880310217586,1.03223703963629,1.02458437268777,1.02071160312766,1.02043298661254,1.02055372043576,1.029116534667,1.02461223433929,1.03520894913087,1.03521823634804,1.03323077187354,1.03254351780292,1.01187945959848,1.01358830755786,0.997753602282098,0.99761429402454,0.998626600696128,1.0006512140393,1.02076732643068,1.02423145843529,1.02967376769723,1.04110633203416,1.03556186338335,1.03455884392893,1.03014741577292,1.02698047471777,1.02863359937413,1.02821567460145
1.09047717851272,1.08900051098261,1.08736596076059,1.0954644141333,1.09608665768372,1.09429422476981,1.08854543734125,1.09003139208853,1.08929770193206,1.09104369876012,1.09201885656303,1.08672514277582,1.08524847524571,1.08486769934172,1.08552709176083,1.08808107648272,1.09309617375481,1.10288490065256,1.10430584487965,1.11070473751015,1.11738224665576,1.12349323555397,1.1290005553361,1.13803701764303,1.13914219648632,1.14034024750132,1.14478882452601,1.14958102858601,1.17430360069397,1.17230684900231,1.16081856136235,1.09196313326001,1.09089510328539,1.08481197603869,1.09621667872411,1.11324943501487,1.1292513101997,1.12890768316439,1.13942081300144,1.17088590477521,1.17017078905308,1.18461241175326,1.18064677002145,1.20425487606895,1.21372783758289,1.22491893427339,1.26180776087475,1.32240685291249,1.32673469611396,1.4461497344927,1.43847849310984,1.42108353534943,1.43858993971589,1.46289458705118,1.46353540503595,1.50523501013165,1.55198686136812,1.69488927197115,1.62683254454546,1.63358435142844,1.63306426726689,1.64119058229111,1.63978821249836,1.66113023755625,1.60313156632626,1.60295510920002,1.62115805485427,1.60776588769436,1.60457108498769,1.6032430129323,1.60539764731587,1.60637280511877,1.63712278117042,1.61072850997176,1.59988104031657,1.632525608671,1.63438305210511,1.66082375938962,1.65520499300145,1.73073793024941,1.62497510111136,1.64400460909378,1.68667008477522,1.610524191194,1.61395117432993,1.58465000415689,1.58216102995519,1.61807469875365,1.54986937585324,1.54652597767185,1.59828363896324,1.51239545457013,1.51212612527218,1.51255333726203,1.50041494442014,1.52715284265411,1.46456628614187,1.44923309059332,1.44394866402329,1.40239765440231,1.4738256416609,1.40208188901851,1.35488425135785,1.31318464626215,1.2440784632962,1.2390355043726,1.19680652789818,1.16161726203902,1.14401798550086,1.11609132346906,1.11245073433821,1.06440795991503,1.073936644732,1.06601464848553,1.06534596884925,1.06438938548069,1.06231833605166,1.06464014034429,1.05691317565841,1.05080218676019,1.046325748084,1.2139785924465,1.04175643723609,1.03253423058575,1.0256152537937,1.02420359678378,1.02320057732936,1.02326558784956,1.03098326531827,1.03038888341936,1.03450312062591,1.03541326790862,1.05178663178027,1.03237634789385,1.01659736592111,1.01468419918398,0.997493560201323,0.996629849004463,1.00188641392299,1.1386128251076,1.02195609022851,1.02573598761692,1.02673900707134,1.03919316529703,1.03563616112071,1.03233919902517,1.01949497767832,1.02444506443022,1.02664613489963,1.02723122958138
1.09151734683582,1.08861044786144,1.09838988754202,1.09903070552678,1.09760976129969,1.09716397487551,1.09339336470427,1.09343051357295,1.09191669717415,1.09255751515892,1.09321690757803,1.08923269141187,1.0868273021647,1.08605646313955,1.08666013225563,1.0901985619976,1.0932261947952,1.09862206797128,1.10293133673841,1.10949739927798,1.11920254122119,1.31431768675696,1.13789770938547,1.14134326695574,1.14057242793059,1.1410739376578,1.1413246925214,1.33121113479016,1.15845960820104,1.12236948227634,1.13111804085098,1.14109251209214,1.08107851473614,1.09068149729047,1.10047022418822,1.11925826452421,1.13176814605292,1.15445681760054,1.15012897439907,1.16059566815026,1.18130616244055,1.1904633585707,1.19075126230299,1.21284555195169,1.21257622265375,1.25763780036518,1.26381379978359,1.31932349681188,1.37999688658698,1.45426676229975,1.42033127075862,1.4194211234759,1.42869905342927,1.46529068908118,1.49521410280464,1.49498192237538,1.54930285560584,1.68079127630627,1.68386534518972,1.63400227620112,1.63341718151937,1.64250936712933,1.64081909360429,1.60119053793762,1.60169204766483,1.60331731066967,1.62173386231884,1.64105127403355,1.61936562194035,1.61850191074349,1.60588058260874,1.92604810734576,1.8551494914659,1.8449985630985,1.60128341010932,1.63238630041344,1.63577613468069,1.64949335444157,1.65610585306699,1.66611747317683,1.65844623179397,1.67317575822643,1.69023637616871,1.61666304174373,1.7032570546418,1.69564153656196,1.74137179390967,1.61302245261288,1.58843918876247,1.59340784994871,1.59241411771146,1.51285981542866,1.51198681701463,1.51012008636335,1.50246741941483,1.52013170647319,1.46925633081299,1.45357022101196,1.42516062368729,1.4174057973499,1.4788686005845,1.61560429898629,1.38509556881361,1.34119489324849,1.28217462812974,1.22934893686373,1.2251975507885,1.1655643293365,1.14988750675263,1.14150114964764,1.11597987686301,1.07219064790394,1.09076508224501,1.06534596884925,1.06878223920235,1.06756561375301,1.06682263637937,1.06763991149037,1.06564315979871,1.05843627927437,1.0586498852693,1.05746112147147,1.0386637939183,1.03873809165567,1.02475154259684,1.02360921488487,1.02211397292041,1.02387854418281,1.03204200807571,1.03310075083315,1.03780936993862,1.0504864213764,1.05157302578535,1.03432666349967,1.16760751711401,1.15477258298433,1.00093911777159,0.99605404153989,1.00323306041271,1.01352329703767,1.02831783399033,1.0357011716409,1.02460294712211,1.04325167920055,1.03797653984769,1.03083466984354,1.02783489869746,1.03062106384862,1.02876362041451,1.02845714224789
1.09457284128493,1.08774673666458,1.08810893813423,1.09601235994636,1.09294757828008,1.09064434842179,1.08882405385637,1.08952988236133,1.09005925374005,1.08901908541695,1.08851757568974,1.08862902229578,1.0866694194728,1.08644652626071,1.08762600284137,1.08873118168466,1.08992923269966,1.10168684963756,1.10494666286441,1.10967385640422,1.11742868274161,1.1266694638263,1.14046098132454,1.1423648608445,1.14250416910206,1.14169618120822,1.14134326695574,1.13762838008753,1.23417828979241,1.12640013452835,1.11835740445867,1.10445444035438,1.09427565033547,1.10910733615681,1.09746116582496,1.11778159699409,1.12577789097792,1.13280831437602,1.16184015525111,1.17699689367343,1.19579422122659,1.1909370066464,1.2242223929856,1.22649776119238,1.237586698494,1.2491214222198,1.27629581966079,1.33120184757299,1.39254391698437,1.40597323301297,1.47512585206477,1.53893832124352,1.448452964351,1.45396957135029,1.45748942665793,1.51024082018657,1.55988099596308,1.57670014625892,1.63426231828189,1.70390715984373,1.63199623729228,1.66796562939376,1.63976035084685,1.60158988827595,1.6016363243618,1.60221213182638,1.62932151874717,1.62840208424728,1.62042436469779,1.61976497227869,1.64924259957796,1.81345917358737,1.81787988896054,1.70515164694459,1.89362643220343,1.6342901799334,1.63890592686716,1.65069140545657,1.65318037965827,1.64872251541642,1.66812351208566,1.6676405767928,1.73643099437495,1.62919149770678,1.63809793897332,1.69246530828964,1.74139036834401,1.61481488552679,1.58756619034844,1.57401614049663,1.57040341301729,1.52147835296291,1.51951875013993,1.51877577276629,1.50491924474785,1.53132280316368,1.47941654639756,1.45994125199095,1.42471483726311,1.41813948750637,1.42804894822733,1.51476369494862,1.36267622656393,1.33976466180422,1.2969041545622,1.24087437337237,1.25198188510833,1.20238814541767,1.15809740673139,1.12302887469545,1.0693023233639,1.072738593717,1.09037501912384,1.06998957743452,1.06980383309111,1.07095544802026,1.06937662110126,1.07112261792933,1.06282913299604,1.05914210777934,1.05909567169348,1.05094149501775,1.04023333362013,1.03950893068082,1.02342347054146,1.02458437268777,1.026720432637,1.02571741318258,1.03389016429265,1.03468886496932,1.03787438045881,1.05571512464341,1.03422450411079,1.03395517481284,1.0460099827002,1.02283837585971,1.01336541434577,1.00426394151864,1.21696907637541,1.02879148206603,1.0297759270861,1.03958322841819,1.01683883356755,1.01793472519367,1.03586834154997,1.0265625499451,1.03271068771199,1.03087181871223,1.03151263669699,1.0337787176866
1.09622596594128,1.09702466661795,1.08965061618454,1.0953994036131,1.09007782817439,1.08844327795237,1.08756099232117,1.09017998756326,1.08685516381621,1.08652082399807,1.08582428271028,1.08798820431102,1.08673442999299,1.08661369616978,1.08653939843241,1.08771887501307,1.09020784921477,1.09228818586097,1.10365573967771,1.11140127879794,1.11545979270146,1.13204676256804,1.13969014229939,1.14303354048078,1.14559681241985,1.1461168965814,1.14242987136469,1.13772125225923,1.1297899687956,1.1357152133504,1.32145026954393,1.10051666027407,1.10323781490504,1.10400865393019,1.0975447507795,1.11011035561123,1.13454502398691,1.14328429534438,1.17080231982068,1.17265976325479,1.19194931331799,1.20551793760414,1.22805801367703,1.24920500717434,1.26626562511661,1.26243000442518,1.29621690049158,1.30629353112162,1.39760545034232,1.39631452715561,1.47793987886744,1.44929810111351,1.44884302747216,1.44814648618437,1.48713422386627,1.52573189842702,1.59235839440844,1.57488913891066,1.6350795933929,1.6390823839934,1.63249774701949,1.63967676589231,1.6392402666853,1.67596192337759,1.60089334698816,1.60157131384161,1.62892216840883,1.62934009318151,1.61255809175435,1.63670485639774,1.64857391994169,1.65783327546071,1.81595743500624,1.70552313563141,1.70460370113152,1.63519103999895,1.6766213157967,1.66377709444985,1.65486136596614,1.72634507652775,1.6679842038281,1.66780774670186,1.68112561612441,1.65319895409261,1.65254884889068,1.63858087426619,1.61303173983005,1.61534425690551,1.64643785999246,1.64184068749305,1.60343804449289,1.53552991254193,1.57408115101682,1.52748718247225,1.492075023401,1.50061926319789,1.50300607801072,1.47519086258497,1.42540209133373,1.4227645216573,1.42843901134849,1.47662109402923,1.40310348290727,1.36692977202804,1.31515353630231,1.30521621392983,1.21608679074421,1.1955713280145,1.17390425035564,1.12665088939195,1.11275721250483,1.07723360682754,1.06529024554623,1.07422454846428,1.06974810978809,1.07058395933343,1.07014746012642,1.07175414869692,1.08283379878137,1.05783261015829,1.05536221039093,1.04982702895729,1.03946249459497,1.03887739991323,1.02950659778816,1.02709192132382,1.029116534667,1.02748198444498,1.03309146361598,1.03703853091346,1.03994542988784,1.03749360455482,1.03670419109532,1.03781865715579,1.04640933303853,1.04562920679621,1.02633036951583,1.02522519067254,1.11348161544414,1.07558976938835,1.03589620320149,1.03751217898916,1.01889130856224,1.01791615075933,1.02781632426312,1.02333988558692,1.11670427980231,1.14550394024814,1.06923731284371,1.03682492491854
1.09752617634516,1.09315189705783,1.08804392761404,1.09295686549725,1.08921411697753,1.08789533213931,1.08892621324524,1.08539707072044,1.08704090815962,1.08372537162974,1.08405971144788,1.08796034265951,1.08748669458381,1.08602860148803,1.08663227060412,1.08871260725032,1.09000353043702,1.09311474818915,1.10475163130383,1.11076046081317,1.12886124707854,1.13033791460866,1.13764695452187,1.14166831955671,1.14729637316205,1.22844807679819,1.14182620224861,1.14151972408198,1.13325410080021,1.13385776991629,1.15689006849922,1.10009873550139,1.09869636570864,1.11160559757569,1.09411776764357,1.10759351975802,1.13743334852695,1.15243220425736,1.1584410337667,1.19722445267085,1.21377427366874,1.20831338997247,1.2415894890945,1.26642350780851,1.27660229782741,1.2703984367575,1.29651409144104,1.32527660301819,1.38913550828279,1.38160357515748,1.4536538059665,1.44962315371448,1.44937239885088,1.4687176722171,1.49777737474371,1.59174543807518,1.53645863425899,1.5696139995578,1.61720170033962,1.60099550637704,1.60339160840703,1.62428784704074,1.67616624215535,1.64862035602754,1.60223999347789,1.60140414393254,1.62828135042407,1.62652606637884,1.63041741037329,1.65157369108777,1.65853910396567,1.65828834910207,1.7194260997357,1.70521665746478,1.81315269542074,1.81240043082993,1.7324746398603,1.66414858313667,1.68572278862383,1.68552775706325,1.68394893014425,1.6816642747203,1.68193360401825,1.66258833065202,1.66582956944454,1.66624749421721,1.6484438989013,1.66182677884404,1.60217498295769,1.57697876277403,1.59831150061475,1.60046613499831,1.59057524871169,1.5198438027409,1.49085839795166,1.50842981283831,1.51010151192901,1.46636800627296,1.43378844843872,1.43327765149434,1.48336361369504,1.42112997143528,1.39926786221584,1.35087217354018,1.35038923824732,1.30526265001569,1.28358628513966,1.20257388976108,1.19034262474748,1.12745887728579,1.09664389071396,1.08062344109478,1.08320528746819,1.07844094505971,1.06989670526281,1.07398308081785,1.07433599507033,1.07407595298956,1.07050966159607,1.06111099781949,1.0503285386845,1.05117367544702,1.04093916212509,1.04136637411493,1.03249708171707,1.02970162934874,1.03049104280823,1.03204200807571,1.03876595330718,1.03843161348904,1.05199095055802,1.0528175128862,1.03684349935288,1.05309612940132,1.05184235508329,1.04872185011399,1.12288956643789,1.02267120595064,1.03611909641358,1.04882400950287,1.046325748084,1.04211863870574,1.02200252631437,1.03245993284839,1.0330543147473,1.01734963051193,1.00933476209376,1.00851748698275,1.07816232854459,1.0384130390547
1.0945171179819,1.09583590282012,1.08670656834148,1.09226961142663,1.09060719955311,1.08708734424547,1.08694803598792,1.08522990081137,1.08554566619517,1.08708734424547,1.08980849887644,1.09362554513353,1.09237177081551,1.09213030316908,1.09205600543171,1.09434066085566,1.09296615271442,1.09761904851686,1.10919092111135,1.11055614203542,1.11229285164631,1.11662069484778,1.14459379296543,1.13969942951656,1.23751240075663,1.23723378424152,1.3023278893898,1.23762384736268,1.13481435328486,1.23819965482725,1.11599845129735,1.09127587918939,1.09747045304213,1.10355358028883,1.10078598957201,1.1168343008427,1.12685520816971,1.15424321160561,1.1711738085075,1.19611927382756,1.2032611438317,1.22024746403661,1.25105316339127,1.27399258980249,1.31432697397413,1.31423410180242,1.33099752879524,1.33427591645644,1.35710389626161,1.38712018215678,1.4287826383838,1.51087235095416,1.60126483567498,1.59857154269553,1.52313147761927,1.59075170583793,1.55253480718118,1.56086544098315,1.6013855694982,1.60103265524572,1.60168276044765,1.62393493278826,1.64725513510347,1.64649358329549,1.65578080046602,1.60845314176497,1.62278331785911,1.62663751298488,1.73580875082452,1.64732014562366,1.67410447994349,1.66040583461695,1.66064730226338,1.71927750426097,0.00392442506201566,1.6775036014279,1.68420897222503,1.66402784931346,1.68676295694693,1.68719945615394,1.67616624215535,1.68167356193747,1.68076341465476,1.68724589223979,1.65449916449649,1.65078427762827,1.64726442232064,1.61735029581435,1.64914972740626,1.5802664376524,1.5775545702386,1.61592006437009,1.55194971249944,1.48545323755841,1.49278085190596,1.50034064668278,1.53118349490612,1.53328240598666,1.53565993358232,1.51233044404994,1.51504231146373,1.43810700442302,1.42855974517171,1.38274590286946,1.38684156564167,1.36229545065994,1.25853866043072,1.17059800104293,1.15986197799379,1.09350481131031,1.09353267296183,1.06684121081371,1.08418973248827,1.07535758895909,1.07003601352037,1.07489322810056,1.0738716342118,1.07476320706017,1.06642328604103,1.05304040609829,1.05155445135101,1.06011726558224,1.04891688167458,1.04252727626125,1.03250636893424,1.03055605332843,1.03054676611126,1.03338865456544,1.03873809165567,1.05140585587628,1.0520931099469,1.05279893845186,1.05183306786612,1.05015208155826,1.05145229196213,1.04972486956841,1.01819476727445,1.02003363627421,1.03956465398385,1.0501706559926,1.04787671335148,1.0419421815795,1.02036797609235,1.02751913331366,1.02357206601619,1.01474920970418,1.00810884942724,1.00844318924538,1.02047013548123,1.03349081395432
1.09383915112845,1.0949907660576,1.08715235476567,1.08749598180098,1.0901056898259,1.08982707331078,1.0884339907352,1.08375323328125,1.08479340160435,1.08650224956373,1.08778388553327,1.09317047149218,1.09316118427501,1.09220460090644,1.0916195062247,1.09655101854225,1.09973653403174,1.10457517417759,1.10920949554569,1.10888444294472,1.10931165493457,1.11262719146445,1.13193531596199,1.28595452551814,1.24216529655907,1.24373483626089,1.30573629809138,1.25331924438088,1.13516726753734,1.27041701119184,1.15501405063077,1.09955078968833,1.09060719955311,1.08397612649335,1.09304973766896,1.11037039769201,1.12999428757335,1.14897735946992,1.17435003677982,1.18471457114214,1.20476567301333,1.24232317925097,1.24110655380163,1.27507919421145,1.32246257621552,1.32362347836183,1.33243704745667,1.38670225738411,1.35662096096874,1.37773080559737,1.41531617348653,1.5460058935103,1.60713435692676,1.59901732911971,1.53668152747108,1.53605928392065,1.55844147730164,1.59469877313541,1.59739206611487,1.60190565365975,1.60168276044765,1.66438076356594,1.64818385682052,1.64712511406308,1.61453626901168,1.66191965101575,1.62382348618221,1.64025257335689,1.7300785378303,1.68496123681584,1.67880381183178,1.72372608128566,1.72484983456329,1.66905223380272,1.67826515323589,1.67107684714589,1.67651915640783,1.66200323597028,1.67208915381748,1.68576922470968,1.67627768876139,1.67567401964531,1.68119991386178,1.6781351321955,1.65549289673374,1.65152725500192,1.61968138732415,1.61930989863733,1.62834636094426,1.61004125590114,1.5832290599298,1.59389078524158,1.54442706659131,1.54383268469239,1.50113934735944,1.50013632790502,1.5327994706938,1.5323258226181,1.53761024918813,1.51201467866614,1.51727124358466,1.42934915863121,1.44317782499813,1.39583159186274,1.37088612654269,1.28735689531089,1.26126910227886,1.19885900289286,1.15506977393379,1.14290351944039,1.10056309635992,1.06533668163208,1.07915606078184,1.07402022968653,1.07530186565607,1.07600769416103,1.07108546906064,1.06682263637937,1.06535525606642,1.06319133446569,1.0578604718098,1.05687602678972,1.05343975643663,1.04989203947748,1.03706639256497,1.03090896758091,1.03253423058575,1.10622829883395,1.05498143448694,1.05279893845186,1.05402485111837,1.05189807838632,1.04975273121992,1.05004992216938,1.04974344400275,1.05235315202767,1.07441029280769,1.04952055079066,1.05124797318438,1.05201881220953,1.05202809942671,1.0485639674221,1.04957627409368,1.03309146361598,1.0216124631932,1.0164116215777,1.00637213981635,1.00781165847779,1.01858483039561,1.02985951204064
1.08679015329602,1.09047717851272,1.08857329899276,1.08653939843241,1.0917123783964,1.0937927150426,1.08790461935648,1.08461694447811,1.08428260465997,1.08660440895261,1.08734738632625,1.09210244151756,1.09310546097198,1.09248321742156,1.09246464298721,1.09821343041578,1.10375789906659,1.10301492169294,1.10452873809174,1.10545745980879,1.10512311999065,1.11904465852929,1.12105069743812,1.12294528974091,1.37060751002757,1.10932094215174,1.30541124549041,1.30307086676344,1.12900984255327,1.12281526870052,1.10357215472317,1.09397845938601,1.07824591349913,1.0864186646092,1.09695036888058,1.11981549755444,1.14528104703605,1.16392977911448,1.17487940815854,1.19079769838884,1.21043087548735,1.24165449961469,1.25100672730542,1.27344464398943,1.30920043009599,1.3986827675341,1.38545777028326,1.3575496826858,1.35784687363526,1.38596856722764,1.40280629195782,1.49292944738069,1.56075399437711,1.60126483567498,1.56263001224555,1.6166723289609,1.62672109793942,1.75221926356486,1.5945780393122,1.64072622143258,1.62990661342891,1.62384206061655,1.62557877022744,1.63348219203957,1.63366793638298,1.66273692612675,1.65936566629385,1.67291571614566,1.73015283556767,1.68943767549204,1.69420201790053,1.69790761755157,1.67090967723682,1.67073322011058,1.66875504285326,1.64546270218956,1.64539769166936,1.66739910914636,1.66611747317683,1.71393735438791,1.69201952186545,1.68202647618995,1.68264871974038,1.674132341595,1.67380728899403,1.66352633958625,1.62341484862671,1.62024790757155,1.61997857827361,1.62889430675732,1.58734329713635,1.59119749226212,1.58465000415689,1.52204487321032,1.53039408144663,1.50728748512634,1.50245813219766,1.52178483112954,1.53937482045053,1.52094898158419,1.46930276689885,1.42328460581885,1.41837166793563,1.39293398010554,1.36991096873978,1.27411332362571,1.21822285069343,1.19362101240868,1.19347241693395,1.13121091302269,1.08477482717001,1.07523685513587,1.08673442999299,1.10972957970724,1.07805088193854,1.28686467280086,1.07499538748944,1.28397634826082,1.32335414906389,1.0711319051465,1.05825053493096,1.05719179217352,1.05598445394135,1.0513687070076,1.08765386449288,1.15338878762593,1.07774440377192,1.05154516413384,1.05861273640061,1.05624449602213,1.05982007463278,1.05869632135515,1.05280822566903,1.05303111888112,1.05229742872465,1.11011035561123,1.09635598698167,1.04943696583613,1.05289181062356,1.05726608991089,1.05850128979457,1.04857325463927,1.04693870441725,1.03546899121164,1.01851053265824,1.01551076151216,1.01330040382557,1.01083929127538,1.05532506152224,1.03323077187354
1.08637222852334,1.08894478767958,1.08887048994222,1.08431975352866,1.09636527419884,1.09392273608299,1.08640937739203,1.08417115805393,1.08418973248827,1.08584285714462,1.08731952467474,1.0928175572397,1.09349552409314,1.09266896176497,1.09413634207791,1.10014517158725,1.10631188378848,1.10320995325352,1.10204905110721,1.10516955607651,1.10622829883395,1.11079760968185,1.11863602097378,1.11808807516072,1.11884962696871,1.10945096319212,1.10933951658608,1.11021251500011,1.36685547429067,1.1088287196417,1.05526005100205,1.06201185788503,1.06924660006088,1.08015908023626,1.09014283869458,1.10985960074763,1.16155225151883,1.16544359551328,1.19388105448946,1.19394606500965,1.23439189578733,1.20958573872483,1.25060737696709,1.28986444394694,1.30045187152135,1.35936069003405,1.39962077646832,1.39869205475127,1.36354922497796,1.38148284133427,1.4087686853813,1.49430395552193,1.55293415751952,1.55232120118626,1.61038488293645,1.70282984265195,1.77394206452674,1.6854163104572,1.68364245197763,1.61541855464288,1.61829759196574,1.62496581389419,1.63319428830728,1.66278336221261,1.63421588219604,1.62961870969662,1.67425307541822,1.67363083186779,1.73114656780491,1.69419273068335,1.6995050189049,1.69345904052688,1.6781351321955,1.68833249664875,1.67470814905957,1.64592706304808,1.65184302038571,1.69390482695107,1.66525376197997,1.697331810087,1.69370050817332,1.68370746249782,1.68341955876553,1.67538611591302,1.67468028740806,1.66818852260586,1.63175476964585,1.62629388594957,1.621306650329,1.6005961560387,1.59907305242273,1.58826273163623,1.52341009413438,1.52302931823039,1.51758700896846,1.50593155141944,1.51348205897908,1.57484270282481,1.56997620102745,1.56905676652756,1.487282819341,1.43372343791853,1.39968578698852,1.39583159186274,1.42879192560097,1.27089994648471,1.27081636153017,1.18542968686427,1.20853628318456,1.13752622069865,1.10335854872825,1.09133160249241,1.07569192877723,1.11041683377786,1.08367893554389,1.27290598539354,1.08102279143312,1.36427362791727,1.14322857204136,1.11408528456022,1.25840863939034,1.06261552700112,1.06172395415274,1.1239575964125,1.07195846747467,1.05135941979043,1.0523438648105,1.05679244183519,1.06765848592472,1.06032158435999,1.05832483266833,1.05678315461802,1.05485141344655,1.05457279693143,1.05395984059818,1.04643719469004,1.0464836307759,1.05101579275512,1.0560959005474,1.05649525088573,1.05755399364317,1.04900046662911,1.045127697069,1.02580099813711,1.02056300765293,1.01847338378956,1.01413625337092,1.01298463844178,1.02904223692963,1.03135475400509
1.08368822276106,1.08045627118571,1.08831325691199,1.08498843316493,1.09737758087043,1.09064434842179,1.08971562670474,1.08503486925079,1.0849048482104,1.08510916698815,1.08732881189191,1.09291971662857,1.09103441154295,1.08846185238671,1.0880253531797,1.10017303323876,1.09957865133984,1.09889139726923,1.09917930100151,1.09955078968833,1.1028384645667,1.10894945346491,1.11266434033313,1.1168343008427,1.11821809620111,1.10968314362139,1.11257146816142,1.11689931136289,1.11781874586278,1.10293133673841,1.02912582188417,1.0364905851004,1.05965290472371,1.06704552959146,1.10601469283903,1.11835740445867,1.12344679946812,1.16251812210456,1.19328667259054,1.19981558626143,1.22274572545548,1.24449638806887,1.2392862592362,1.28227678751861,1.32888004328036,1.38303380660175,1.37353298343629,1.36745914340676,1.39870134196844,1.3903614209493,1.42874548951512,1.45550196218343,1.50787257980808,1.60975335216885,1.60578771043703,1.61414620589051,1.68485907742697,1.61722027477396,1.60797020647211,1.62267187125306,1.62007145044531,1.62304335993989,1.62335912532368,1.6210837571169,1.67463385132221,1.6871808817196,1.65593868315792,1.66673042951008,1.68034548988209,1.71534901139783,1.72374465572,1.70550456119707,1.70036873010176,1.72466409021988,1.69797262807176,1.69484283588529,1.68930765445165,1.66364707340947,1.68024333049321,1.70742701515137,1.70685120768679,1.71904532383171,1.68460832256336,1.68443186543712,1.6772528465643,1.67084466671663,1.63854372539751,1.62980445404004,1.62996233673193,1.60029896508924,1.60621492242688,1.63050099532783,1.55893369981168,1.52355868960911,1.51706692480691,1.55667690603924,1.58917287891894,1.52132047027101,1.5749727238652,1.55883154042281,1.45071904534061,1.4499946424013,1.40739417724006,1.38674869346996,1.35724320451917,1.26682285814684,1.25541815546142,1.19171713288872,1.18196555485966,1.1258800503668,1.1288426726442,1.10617257553092,1.08043769675137,1.10669265969247,1.09463785180512,1.29272490683546,1.32592670822013,1.32508157145761,1.11293366963107,1.11285008467654,1.10181687067794,1.08376252049842,1.1769411703704,1.07693641587808,1.07240425389886,1.06540169215228,1.06468657643014,1.06516951172301,1.06509521398565,1.06460299147561,1.04606570600322,1.05605875167872,1.05429418041632,1.05208382272973,1.05266891741147,1.04904690271496,1.04816461708376,1.04932551923008,1.05290109784074,1.05795334398151,1.05319828879019,1.04499767602861,1.0448119316852,1.02564311544521,1.02277336533952,1.0164116215777,1.01861269204712,1.02631179508149,1.03317504857052,1.03095540366676
1.08716164198284,1.08679944051319,1.08826682082613,1.08727308858889,1.09887282283488,1.08905623428563,1.08788604492214,1.08628864356881,1.08539707072044,1.08536920906893,1.08710591867982,1.0929104294114,1.08727308858889,1.08743097128079,1.08819252308877,1.1019561789355,1.09729399591589,1.09625382759279,1.09793481390066,1.09855705745109,1.09977368290043,1.10900517676794,1.11114123671716,1.11502329349444,1.11089048185356,1.11142914044945,1.11273863807049,1.12366969268021,1.34823460386375,1.0458521000083,1.02965519326289,1.02506730798064,1.04365102953888,1.08023337797362,1.12153363273099,1.10822505052561,1.16135721995824,1.16201661237735,1.1966114963376,1.2055922353415,1.21265980760828,1.24463569632643,1.26989692703029,1.29253916249205,1.36135744172572,1.36065161322076,1.36129243120552,1.44423656775557,1.44292707013453,1.40100457182673,1.43063079460074,1.46924704359582,1.51090949982284,1.52478460227562,1.60655854946219,1.6074686967449,1.6209908849452,1.61985784445039,1.61970924897566,1.61343109016838,1.63114181331259,1.62298763663686,1.62361916740446,1.60926112965881,1.69392340138541,1.6843761421341,1.66534663415167,1.66587600553039,1.66647038742931,1.95420694980683,1.70636827239393,1.70583890101521,0.0039805477153772,1.7414275172127,1.73053361147166,1.72942843262837,1.68693941407317,1.66458508234369,1.71029676525706,1.70767777001497,1.70696265429284,1.70355424559125,1.69094220467367,1.69041283329495,1.71636131806942,1.67073322011058,1.65901275204137,1.62983231569155,1.63018522994403,1.61552071403175,1.63142042982771,1.59950955162975,1.56213778973552,1.54681388140413,1.55211688240851,1.54645167993448,1.53301307668872,1.53064483631023,1.58134375484418,1.48588044954825,1.45707150188525,1.47269260116609,1.45651426885502,1.45547410053192,1.36726411184618,1.31827404127161,1.25560389980483,1.20989221689146,1.17800920034501,1.1641433851094,1.13635603133516,1.11527404835805,1.07084400141421,1.12012197572107,1.11265505311596,1.11553409043882,1.11203280956553,1.11015679169708,1.11036111047484,1.11259004259576,1.11272006363615,1.08318671303385,1.08096706813009,1.08463551891245,1.08050270727157,1.0702496195153,1.07123406453537,1.05843627927437,1.06178896467294,1.0455363346245,1.04620501426078,1.05757256807751,1.05496286005259,1.05434990371934,1.05392269172949,1.05220455655295,1.05053285746225,1.05103436718946,1.05124797318438,1.05163803630554,1.04384606109946,1.04645576912438,1.04909333880082,1.01803688458255,1.02046084826406,1.01678311026452,1.02907009858114,1.03006383081839,1.03410377028757,1.03348152673715
1.08484912490738,1.0849977203821,1.08867545838164,1.08813679978575,1.09506506379496,1.08763529005854,1.08729166302323,1.08696661042226,1.08407828588222,1.08486769934172,1.08862902229578,1.09040288077536,1.08768172614439,1.09226032420946,1.095557286305,1.09757261243101,1.09408990599206,1.09437780972435,1.09540869083027,1.09791623946632,1.09969938516306,1.09777693120876,1.11220926669177,1.10959955866685,1.11037039769201,1.27160577498967,1.11662998206495,1.11611918512057,1.11591486634282,1.3318612399921,1.0336858455149,1.02689688976324,1.04692941720008,1.09775835677442,1.09380200225977,1.11757727821634,1.16081856136235,1.16670665704847,1.19357457632283,1.21285483916886,1.27661158504458,1.2838556144376,1.26983191651009,1.32523945414951,1.35967645541785,1.35959287046332,1.43772622851903,1.38464049517225,1.40645616830584,1.40975313040138,1.42034055797579,1.47670467898376,1.4818312228619,1.50187303751591,1.55670476769075,1.60471039324525,1.62131593754617,1.62013646096551,1.61953279184942,1.6145919923147,1.64806312299731,1.63273921466592,1.62328482758632,1.60952117173959,1.61019913859304,1.70330349072765,1.6917501925675,1.68096773343251,1.67966752302864,1.73349623374906,1.73657030263251,1.72322457155845,1.72253731748783,1.73461998702669,1.73136017379984,1.74175256981367,1.71598054216543,1.70365640498013,1.70767777001497,1.70706481368172,1.70608036866164,1.67169909069632,1.66913581875725,1.69052427990099,1.68736662606301,1.6798068312862,1.65166656325947,1.62111161876841,1.61737815746586,1.61613367036501,1.60221213182638,1.59413225288801,1.6036237888363,1.56261143781121,1.55165252154998,1.5789105039455,1.55018514123704,1.54939572777754,1.53349601198159,1.44326140995267,1.44359574977081,1.4375776330443,1.45575271704704,1.4515734693203,1.36965092665901,1.34633072434379,1.2504773559267,1.2560868350977,1.20608445785154,1.16145937934712,1.14191907442031,1.09766548460271,1.07193989304033,1.06763991149037,1.13214892195691,1.11414100786324,1.11107622619697,1.11040754656069,1.10915377224267,1.10348856976864,1.10136179703659,1.0936348323507,1.09317047149218,1.0842733174428,1.07848738114556,1.07082542697987,1.07159626600502,1.0535419158255,1.05045855972488,1.04811818099791,1.04817390430093,1.06182611354162,1.05829697101682,1.05646738923422,1.05526933821922,1.05203738664388,1.04952983800783,1.0503285386845,1.04573136618508,1.04250870182691,1.04070698169582,1.0411249064685,1.05226956707314,1.02404571409188,1.02012650844592,1.02845714224789,1.02910724744982,1.03329578239374,1.03647201066606,1.03584976711563
1.08050270727157,1.08630721800315,1.08819252308877,1.09110870928032,1.09078365667935,1.08660440895261,1.08494199707908,1.08495128429625,1.08415258361959,1.08413400918524,1.08660440895261,1.08884262829071,1.09419206538093,1.09741472973911,1.09270611063365,1.09160093179036,1.09296615271442,1.09345837522446,1.09179596335094,1.09515793596667,1.09573374343124,1.0973218575674,1.18987826388896,1.11016607891425,1.11597058964584,1.11747511882747,1.11698289631743,1.11497685740859,1.10989674961631,1.06718483784902,1.06800211296003,1.05392269172949,1.05275250236601,1.08491413542757,1.10605184170771,1.12353038442265,1.15643499485786,1.17194464753265,1.20064214858961,1.20693888183123,1.28892643501271,1.26293151415239,1.28679037506349,1.32384637157393,1.37930034529919,1.40523025563933,1.37597552155214,1.38428758091977,1.40461729930607,1.41174059487587,1.46411121250052,1.48865732748224,1.48209126494267,1.50204020742498,1.53421112770372,1.62059153460686,1.62287619003082,1.62146453302089,1.62035006696043,1.60863888610839,1.63198695007511,1.63232128989325,1.61514922534493,1.61501920430454,1.61345895181989,1.70444581843963,1.69387696529956,1.69214025568867,1.73267895863805,1.73212172560782,1.73173166248666,1.72643794869945,1.72602931114395,1.73467571032972,1.74621043405552,1.72348461363922,1.71629630754923,1.70608036866164,1.71089114715598,1.70915443754509,1.70632183630807,1.68164570028596,1.66903365936837,1.68767310422964,1.68568563975514,1.68496123681584,1.68499838568452,1.62146453302089,1.61985784445039,1.61631941470842,1.59552533546359,1.5953024422515,1.58299687950054,1.55377929428203,1.55326849733766,1.55283199813064,1.51654684064536,1.54740826330305,1.52723642760865,1.45296655189588,1.44291778291736,1.44023377715507,1.45658856659239,1.45700649136506,1.36881507711366,1.35382550860041,1.27615651140323,1.25083027017918,1.2077375825079,1.1847888688795,1.13266900611846,1.09016141312892,1.09072793337632,1.11054685481825,1.12145004777646,1.12094853804925,1.11256218094425,1.11009178117689,1.10740777541461,1.1037207501979,1.1040365155817,1.10608899057639,1.10640475596019,1.08661369616978,1.08680872773036,1.08326101077121,1.08207224697339,1.05201881220953,1.05248317306806,1.04910262601799,1.05956931976918,1.05898422508744,1.05710820721899,1.05708963278465,1.05580799681511,1.05539935925961,1.05228814150748,1.05431275485066,1.04900975384628,1.04242511687237,1.03365798386339,1.0461028548719,1.0331193252675,1.02827139790448,1.03291500648974,1.03047246837389,1.03382515377246,1.03650915953474,1.04749593744748,1.04347457241264
1.07911891191316,1.08053056892308,1.09330977974973,1.09373699173958,1.08909338315431,1.08653939843241,1.08465409334679,1.0847469655185,1.08302883034195,1.08368822276106,1.08748669458381,1.08533206020024,1.0882761080433,1.09024499808346,1.0873009502404,1.08824824639179,1.08764457727571,1.08712449311416,1.09213959038625,1.09300330158311,1.08918625532602,1.09043074242687,1.20868487865929,1.11237643660084,1.11797662855467,1.11738224665576,1.11871960592832,1.1100267706567,1.1324368256892,1.09129445362373,1.09341193913861,1.07550618443382,1.08084633430688,1.09829701537031,1.12894483203308,1.14126896921838,1.14862444521744,1.19285017338353,1.2014965725693,1.21728484175921,1.23555279793365,1.28358628513966,1.36327989568002,1.32578739996257,1.38231869087962,1.38857827525256,1.3755483095623,1.37974613172338,1.40120889060448,1.46603366645482,1.4698228510604,1.49702511015289,1.49834389499111,1.4977495130922,1.52422736924539,1.5845849936367,1.59103960957022,1.60553695557343,1.59814433070568,1.60823953577005,1.63152258921658,1.62318266819744,1.61623582975388,1.63607332563015,1.6279562978231,1.65904990091005,1.6583719340566,1.69954216777358,1.69969076324831,1.7343970938146,1.73266038420371,1.71723431648345,1.71758723073593,1.73181524744119,1.75009249083281,1.71770796455915,1.71894316444283,1.726958032861,1.71046393516613,1.71014816978233,1.68195217845259,1.68203576340712,1.66459436956086,1.71034320134292,1.70701837759586,1.6919730857796,1.65218664742102,1.65489851483482,1.61365398338047,1.60999481981528,1.5950795490394,1.59474520922127,1.60334517232118,1.57452693744101,1.55361212437297,1.55358426272145,1.53325454433515,1.50753823998994,1.52108828984175,1.47333341915086,1.45996911364246,1.44360503698798,1.41878959270831,1.42054487675354,1.41881745435982,1.36438507452331,1.33910526938512,1.28570377065454,1.26775157986389,1.15179138627259,1.13566877726454,1.08743097128079,1.09884496118337,1.10433370653116,1.14135255417291,1.11706648127196,1.11171704418173,1.11064901420712,1.10833649713166,1.10480735460686,1.1045101636574,1.10239267814252,1.10007087384988,1.08353962728633,1.08125497186238,1.08104136586746,1.07783727594362,1.07656492719126,1.05459137136577,1.05302183166395,1.06237405935468,1.06295915403642,1.06107384895081,1.0609809767791,1.06081380687003,1.06102741286495,1.05472139240616,1.05184235508329,1.05054214467942,1.05176805734593,1.03906314425664,1.03912815477683,1.04176572445326,1.03918387807986,1.03209773137874,1.03348152673715,1.03566402277222,1.04699442772028,1.04664151346779,1.04442186856404
1.08666013225563,1.08880547942202,1.09681106062303,1.09737758087043,1.08809036369989,1.0868273021647,1.08373465884691,1.08573141053858,1.08145929064013,1.08451478508924,1.08457979560943,1.08512774142249,1.08679015329602,1.08717092920001,1.08541564515478,1.08599145261935,1.08599145261935,1.08504415646796,1.18205842703137,1.08661369616978,1.09063506120462,1.09156378292167,1.10994318570216,1.11218140504026,1.1193232750444,1.37023602134075,1.10253198640007,1.10049808583973,1.10895874068209,1.08599145261935,1.11009178117689,1.07767010603455,1.11064901420712,1.10386005845546,1.13308693089114,1.14210481876373,1.1513177381969,1.18495603878857,1.19604497609019,1.24139445753392,1.26054469933956,1.27000837363633,1.29928168215786,1.33772147402671,1.39996440350363,1.38926552932318,1.39027783599476,1.37300361205757,1.4078863997501,1.44658623369972,1.48025239594291,1.49490762463801,1.49918903175363,1.49795383186995,1.54636809497995,1.58202172169763,1.60167347323048,1.58174310518252,1.58201243448046,1.67450383028182,1.6374756954229,1.62401851774279,1.64416249178568,1.66499371989919,1.66210539535916,1.62965585856531,1.65766610555164,1.6932640089663,1.70483588156079,1.81139741137551,1.73224245943104,1.71692783831682,1.72213796714949,1.73246535264313,1.73935646778367,1.73979296699068,1.72551851419957,1.72767314858313,1.71229351694873,1.70983240439854,1.65474991936009,1.65466633440556,1.65006916190614,1.66164103450063,1.77129520763314,1.73357981870359,1.65195446699176,1.65110933022924,1.62885715788864,1.6102734363304,1.60391169256858,1.60139485671537,1.55603608805447,1.55994600648327,1.53722018606697,1.53484265847131,1.51587816100908,1.51739197740788,1.51541380015055,1.47290620716101,1.47124379528749,1.46255096001587,1.43476360624163,1.41969045277385,1.41878959270831,1.45625422677425,1.33873378069829,1.29179618511841,1.23294308990873,1.17039368226517,1.1190725201808,1.11894249914041,1.0996250874257,1.10025661819329,1.14009877985489,1.11700147075177,1.11649996102456,1.11113194949999,1.11118767280301,1.10442657870286,1.10730561602573,1.09980154455194,1.10041450088519,1.08412472196807,1.07774440377192,1.07726146847905,1.07791157368099,1.07216278625243,1.06247621874356,1.06131531659724,1.06109242338515,1.06043303096604,1.06010797836507,1.06047946705189,1.06108313616798,1.05695032452709,1.05502787057279,1.05128512205306,1.0493812425331,1.05106222884097,1.05161017465403,1.03307288918164,1.037939390979,1.03615624528226,1.03528324686823,1.0381622841911,1.04248084017539,1.04317738146319,1.04552704740733,1.05122939875004
1.0860378887052,1.08687373825055,1.08956703123001,1.09469357510814,1.08669728112431,1.08418973248827,1.08437547683168,1.08664155782129,1.08041912231703,1.08026123962513,1.08351176563482,1.08400398814486,1.08918625532602,1.08814608700292,1.08444977456904,1.08517417750834,1.07485607923188,1.19822747212527,1.19990845843314,1.20494213013957,1.09325405644671,1.10365573967771,1.10905161285379,1.1138716785653,1.12496061586692,1.12421763849327,1.10144538199112,1.09886353561771,1.10289418786973,1.08719879085152,1.07885886983238,1.09969938516306,1.09621667872411,1.11415029508041,1.12848047117455,1.14786289340946,1.16234166497832,1.19618428434775,1.1960728377417,1.24874993353298,1.25846436269336,1.28424567755876,1.29792574845096,1.32654895177055,1.35008276008069,1.37943965355675,1.37434097133013,1.37341224961307,1.38247657357151,1.46168724881901,1.48478455792213,1.49195428957778,1.4914434926334,1.49852035211735,1.54781690085855,1.54703677461623,1.56852739514884,1.57842756865263,1.58491933345484,1.60666999606823,1.6708539539338,1.68472905638658,1.686930126856,1.65817690249602,1.66426931695989,1.74048950827847,1.6650215815507,1.67169909069632,1.68795172074476,1.71055680733784,1.86702784222701,1.7850495762627,1.79431821899889,1.74282988700545,1.74039663610677,1.74048950827847,1.7279982011841,1.72769172301748,1.72871331690623,1.72927054993647,1.65552075838525,1.65552075838525,1.65146224448172,1.64209144235665,1.6618082044097,1.66182677884404,1.66507730485373,1.64258366486669,1.63708563230173,1.62263472238438,1.6031501407606,1.62786342565139,1.54040570155646,1.54940501499471,1.53656079364786,1.53532559376418,1.52829517036609,1.50750109112126,1.5345640419562,1.4981581506477,1.4763146158626,1.45828812733459,1.4309279855502,1.42027554745559,1.39832985328162,1.35050068485336,1.31710385190812,1.27799538040299,1.18671132283381,1.14470523957147,1.11767015038805,1.10774211523275,1.07160555322219,1.15212572609073,1.11972262538274,1.11962975321103,1.11657425876192,1.11741939552444,1.11824595785262,1.10567106580372,1.10016374602159,1.09966223629438,1.08683658938187,1.08076274935234,1.07757723386285,1.07761438273153,1.0711319051465,1.0708161397627,1.06417577948576,1.06101812564778,1.05963433028937,1.05838055597135,1.05778617407244,1.05799049285019,1.05798120563302,1.05476782849201,1.04989203947748,1.05067216571981,1.04846180803322,1.04975273121992,1.05172162126008,1.03587762876714,1.03952750511516,1.03285928318672,1.03819014584261,1.0412177786402,1.04829463812415,1.04514627150334,1.04789528778582,1.04902832828062
1.0871430675485,1.08489556099323,1.08384610545296,1.08991065826532,1.07779083985777,1.07927679460506,1.08331673407424,1.0814685778573,1.07531115287324,1.07623058737312,1.07869169992331,1.08052128170591,1.0816264605492,1.09007782817439,1.09013355147741,1.09096940102276,1.18707352430346,1.09614238098675,1.06642328604103,1.06752846488433,1.1816683639102,1.10383219680395,1.11041683377786,1.22322866074835,1.12522065794769,1.12680877208385,1.10332139985957,1.0966624651483,1.1041943982736,1.08431046631149,1.07566406712572,1.11085333298487,1.11050970594956,1.11401098682286,1.13433141799199,1.16808116518971,1.16845265387653,1.19730803762539,1.20951144098747,1.2455272691748,1.2590494573751,1.29316140604248,1.319221337423,1.33788864393578,1.35064928032809,1.37975541894055,1.37920747312749,1.38816963769705,1.44395795124046,1.47881287728148,1.50120435787964,1.55155036216111,1.48472883461911,1.5568162142968,1.56936324469419,1.5724187391433,1.68763595536096,1.58346124035906,1.58511436501542,1.61175010386051,1.7595190162609,1.65566935385998,1.67143904861554,1.67087252836814,1.66598745213644,1.67274854623659,1.67068678402473,1.67130902757516,1.70852290677749,1.93206622407227,1.83524698506944,1.79603635417544,1.80591795324489,1.78444590714661,1.73996942411692,1.73957936099576,1.7393471805665,1.72715306442158,1.66157602398044,1.67570188129682,1.65836264683943,1.66433432748008,1.64641928555812,1.65458274945102,1.66183606606121,1.66161317284912,1.70661902725753,1.64288085581615,1.6426115265182,1.61686736052148,1.61508421482474,1.6419521340991,1.54161303978863,1.54793763468177,1.53744307927906,1.52997615667395,1.53086772952232,1.50230953672293,1.48808152001767,1.47372348227202,1.46530926351552,1.46314534191478,1.55541384450405,1.44842510269948,1.40090241243786,1.35462420927708,1.3361797959764,1.26216067512723,1.19074197508582,1.16586152028595,1.08548994289214,1.08716164198284,1.07392735751483,1.07397379360068,1.13831563415815,1.11737295943859,1.11693646023158,1.11612847233774,1.11019394056577,1.10215121049608,1.09817628154709,1.09241820690136,1.0860378887052,1.08170075828656,1.07666708658013,1.07551547165099,1.07524614235304,1.06460299147561,1.063534961501,1.05882634239554,1.05900279952178,1.05773973798658,1.05767472746639,1.05711749443616,1.05665313357763,1.05636522984534,1.05832483266833,1.04926050870989,1.04744021414446,1.05391340451232,1.05211168438124,1.04833178699283,1.02626535899564,1.02658112437944,1.02953445943967,1.03915601642834,1.04235081913501,1.04375318892776,1.04102274707962,1.04318666868036
1.08705948259396,1.08485841212455,1.08360463780652,1.07976901711509,1.07728933013056,1.07713144743866,1.07982474041812,1.07504182357529,1.07343513500479,1.07382519812595,1.07485607923188,1.07983402763529,1.08084633430688,1.08494199707908,1.08691088711924,1.09158235735601,1.05236243924484,1.05199095055802,1.06526238389472,1.17744268009761,1.16856410048258,1.15843174654953,1.11607274903472,1.12335392729641,1.12526709403354,1.12823900352812,1.26773300542955,1.10927450606588,1.08746812014947,1.07528329122172,1.09018927478043,1.10732419046007,1.10593110788449,1.11354662596433,1.13513011866865,1.14957174136884,1.17704332975928,1.1977445368324,1.22884742713652,1.25123890773468,1.26722220848517,1.29426658488577,1.31799542475649,1.33981109789008,1.34960911200499,1.37096971149722,1.39118798327748,1.39157804639864,1.41775871160238,1.53697871842054,1.46906129925241,1.55172681928735,1.53758238753662,1.52092111993268,1.58289472011166,1.58113943606643,1.59798644801378,1.60769158995699,1.61925417533431,1.61738744468303,1.6541183885925,1.65820476414753,1.6694051480552,1.67119758096911,1.66256046900051,1.67181053730237,1.67181982451954,1.67151334635291,1.70078665487444,1.86419524099,1.79702079919552,1.79650071503397,1.80363329782094,1.78450163044964,1.74105602852587,1.73347765931472,1.77870640693522,1.72734809598217,1.68126492438197,1.66780774670186,1.64483117142196,1.65466633440556,1.65200090307761,1.65253027445633,1.66331273359133,1.65918920916761,1.6423607716546,1.64768234709332,1.65669094774873,1.61625440418822,1.6158829155014,1.57168504898683,1.5733938969462,1.56315938362427,1.56567621947749,1.55960237944796,1.53423898935523,1.52393946551311,1.49114630168395,1.47945369526624,1.45848315889517,1.45429462395126,1.46139005786955,1.48843443427015,1.42874548951512,1.34803957230317,1.33383941724942,1.18540182521276,1.1759010020473,1.16270386644797,1.11766086317088,1.07946253894847,1.05906781004197,1.07328653953006,1.13472148111315,1.11621205729227,1.11602631294886,1.11481897471669,1.11038897212635,1.10076741513767,1.09713611322399,1.09211172873473,1.08526704968005,1.08160788611486,1.07636989563068,1.07669494823165,1.07176343591409,1.06516951172301,1.064733012516,1.05929070325406,1.05987579793581,1.05906781004197,1.06130602938007,1.06063734974379,1.05730323877957,1.05682959070387,1.05102507997229,1.04987346504314,1.05069074015415,1.05465638188597,1.05024495372996,1.049539125225,1.02613533795525,1.02256904656177,1.02812280242975,1.03878452774152,1.03959251563536,1.04246226574105,1.0382551563628,1.0428244672107
1.08408757309939,1.08453335952358,1.08256446948342,1.0814685778573,1.07870098714048,1.07819947741327,1.07565477990855,1.07378804925727,1.07336083726742,1.0732122417927,1.07525542957021,1.07528329122172,1.07982474041812,1.08289880930156,1.08706876981113,1.05501858335562,1.05158231300252,1.05172162126008,1.06292200516774,1.1757431193554,1.14112037374365,1.10717559498534,1.11575698365092,1.11936971113025,1.12176581316025,1.3671619524573,1.3421050405312,1.08997566878551,1.09594734942617,1.08656726008393,1.08877761777051,1.10321924047069,1.10707343559647,1.1312387746742,1.12856405612908,1.18039601515784,1.19653719860023,1.19504195663578,1.23196793210582,1.24100439441275,1.28392991217497,1.29405297889085,1.35377907251456,1.34686009572251,1.36030798618545,1.37865024009725,1.36997597925997,1.39081649459066,1.41868743331943,1.4684669173535,1.46915417142412,1.55244193500948,1.5422538577734,1.58495648232352,1.58777050912619,1.67207057938314,1.63635194214526,1.61092354153234,1.60669785771974,1.62070298121291,1.65435985623893,1.69696960861734,1.65957927228877,1.66443648686896,1.66273692612675,1.67143904861554,1.68076341465476,1.68031762823058,1.68361459032612,1.71194060269625,1.75183848766087,1.79639855564509,1.80415338198249,1.78501242739402,1.73967223316747,1.74357286437909,1.91244233419093,1.68113490334158,1.63882234191262,1.63670485639774,1.65161083995645,1.65229809402707,1.65248383837048,1.67108613436306,1.67052890133283,1.69404413520863,1.64277869642727,1.64830459064374,1.68499838568452,1.63630550605941,1.61571574559233,1.58387916513174,1.58867136919173,1.62222608482888,1.62800273390895,1.6314854403479,1.57120211369396,1.55254409439835,1.54972078037851,1.48141329808923,1.45428533673409,1.45593846139045,1.46178012099071,1.50547647777808,1.37366300447668,1.33708994325911,1.30067476473344,1.24155234022581,1.16180300638243,1.13527871414338,1.12072564483715,1.07789299924665,1.04552704740733,1.07160555322219,1.10135250981942,1.26751011221746,1.11691788579723,1.1158870046913,1.31660234218091,1.10646047926321,1.09951364081965,1.0906722100733,1.08679944051319,1.08448692343773,1.07754937221134,1.07783727594362,1.07181915921712,1.07207920129789,1.07091829915157,1.06944163162146,1.06571745753607,1.05933713933992,1.05762829138054,1.0578604718098,1.05747040868864,1.0584269920572,1.0517773445631,1.04978988008861,1.05043069807337,1.05013350712392,1.04550847297299,1.0422579469633,1.02745412279347,1.02231829169816,1.02424074565246,1.03701066926195,1.03934176077175,1.04168213949873,1.04116205533718,1.15659287754976
1.08348390398331,1.07812517967591,1.08189578984715,1.08375323328125,1.07879385931219,1.08559210228102,1.08389254153881,1.08177505602393,1.07519970626719,1.07451245219657,1.07587767312064,1.07645348058521,1.08082775987253,1.0821001086249,1.065550287627,1.05540864647678,1.05425703154763,1.05648596366856,1.05906781004197,1.16403193850336,1.09213959038625,1.10632117100565,1.10966456918705,1.11821809620111,1.11896107357475,1.27222801854009,1.38185433002109,1.09652315689074,1.09990370394081,1.07537616339343,1.07545974834797,1.14073959783966,1.10355358028883,1.11870103149398,1.14820652044477,1.15942547878677,1.18031243020331,1.21526022841603,1.23189363436846,1.26334015170789,1.2936907774212,1.35734536390805,1.34517910941465,1.34686009572251,1.36466369103843,1.36548096614944,1.39252534255003,1.40514667068479,1.41916108139513,1.52408806098783,1.48161761686698,1.47866428180675,1.5499436735906,1.55607323692316,1.59481950695863,1.67285070562547,1.6202014714857,1.61358897286028,1.62960942247945,1.61761033789512,1.63677915413511,1.64214716565968,1.64883396202246,1.66451078460632,1.66418573200536,1.69239101055227,1.68155282811426,1.68168284915464,1.68548132097739,1.71478249115043,1.87011119832763,1.77075654903725,1.83716943902374,1.83321308450909,1.77781483408685,1.73522365614278,1.70655401673734,1.684534024826,1.6747638723626,1.63897093738735,1.63588758128674,1.65792614763242,1.67403946942329,1.67433666037275,1.67004596603996,1.6454812766239,1.63846942766014,1.639333138857,1.63931456442266,1.68503553455321,1.60316871519494,1.58755690313127,1.58822558276755,1.58851348649984,1.58127874432399,1.55661189551905,1.54425989668224,1.54332188774801,1.55763348940781,1.46511423195494,1.46609867697501,1.4568671831075,1.52060535454888,1.40833218617428,1.34697154232856,1.33401587437566,1.33016167924989,1.26359090657149,1.17304982637595,1.13937437691559,1.11682501362553,1.09604022159787,1.08173790715525,1.08170075828656,1.11936042391308,1.12181224924611,1.12208157854405,1.12275025818033,1.31949066672095,1.10587538458147,1.107157020551,1.10277345404651,1.09427565033547,1.07693641587808,1.07703857526696,1.07456817549959,1.07184702086863,1.07205133964638,1.07218136068677,1.06567102145022,1.06126888051139,1.05860344918344,1.05805550337038,1.05603089002721,1.05901208673895,1.0657731808391,1.05183306786612,1.04834107421,1.04837822307868,1.04699442772028,1.04534130306392,1.04287090329656,1.10328425099089,1.02433361782417,1.025522381622,1.03987113215047,1.03936962242327,1.04203505375121,1.0432981152864,1.01793472519367
1.08000119754436,1.07964828329188,1.08172861993808,1.08181220489261,1.07878457209502,1.08452407230641,1.08560138949819,1.08663227060412,1.08542493237195,1.07830163680215,1.07686211814072,1.07836664732234,1.08632579243749,1.07664851214579,1.06558743649569,1.06103670008212,1.06007082949639,1.06166823084972,1.06312632394549,1.09080223111369,1.0932261947952,1.10765853027821,1.11566411147921,1.11873818036266,1.12044702832204,1.21343993385061,1.21648614108254,1.0972289853957,1.05877990630968,1.06865221816196,1.07057467211626,1.08848042682106,1.11009178117689,1.12032629449882,1.14359077351101,1.17206538135587,1.18445452906137,1.21381142253743,1.23574782949423,1.26710147466196,1.28771909678054,1.36673474046746,1.34060051134957,1.36653970890688,1.37354227065346,1.38335885920272,1.40882440868432,1.43046362469167,1.4501525250932,1.48154331912961,1.51887793215516,1.52336365804853,1.57511203212275,1.5815573608391,1.58922860222197,1.59076099305511,1.62995304951476,1.61446197127431,1.61741530633454,1.61675591391543,1.61629155305691,1.6181861453597,1.64913115297192,1.64689293363382,1.66426931695989,1.69649596054165,1.68896402741634,1.68875042142142,1.6793331832105,1.68095844621534,1.79377027318583,1.77404422391562,1.83708585406921,1.83472690090789,1.72821180717902,1.71634274363508,1.70127887738447,1.68410681283615,1.66449221017198,1.66765915122714,1.62996233673193,1.66543021910621,1.67859949305403,1.67243278085279,1.63907309677623,1.64635427503793,1.64271368590708,1.64158064541227,1.63988108467007,1.61318033530478,1.59312923343359,1.58746403095957,1.58626597994457,1.59415082732235,1.59294348909018,1.60353091666459,1.54940501499471,1.54948859994925,1.52659560962388,1.49467544420875,1.46610796419218,1.43585021065058,1.43371415070136,1.42996211496446,1.32332628741238,1.31643517227184,1.31117860735332,1.2331102598178,1.18770505507105,1.14803006331853,1.10755637088933,1.10974815414158,1.06744487992979,1.07713144743866,1.14667412961163,1.38438974030864,1.12175652594308,1.12237876949351,1.3482810399496,1.10314494273333,1.11162417201003,1.10281060291519,1.0788217209637,1.07791157368099,1.09158235735601,1.08616790974559,1.08066058996346,1.07472605819149,1.0733051139644,1.07109475627781,1.0624297826577,1.06293129238491,1.05810193945624,1.05941143707728,1.05809265223906,1.06770492201057,1.05143371752779,1.05202809942671,1.0492883703614,1.04876828619985,1.04718945928086,1.04644648190721,1.04246226574105,1.03524609799955,1.0404933757009,1.04041907796354,1.0450626865488,1.03861735783245,1.04197004323102,1.01676453583018
1.08567568723555,1.08476553995284,1.08116209969067,1.08210939584207,1.07871027435765,1.08252732061474,1.08435690239734,1.08509059255381,1.08401327536203,1.08577784662443,1.08654868564958,1.08665084503846,1.08687373825055,1.07376947482293,1.06488160799073,1.24259250854891,1.06557814927852,1.06445439600088,1.15790237517081,1.09307759932047,1.10172399850624,1.10711058446515,1.11327729666638,1.12192369585215,1.34473332299046,1.32223968300342,1.20660454201309,1.13901217544594,1.14389725167764,1.07162412765653,1.07709429856998,1.10089743617806,1.09570588177973,1.13728475305222,1.14242987136469,1.17783274321877,1.19019402927276,1.21582674866343,1.30096266846573,1.30214214504639,1.28885213727535,1.34587565070244,1.37902172878408,1.37592908546629,1.37400663151199,1.39825555554425,1.39798622624631,1.43761478191298,1.45649569442068,1.48129256426601,1.50144582552607,1.53114634603744,1.61960708958679,1.63469881748891,1.63656554814018,1.59405795515065,1.63168975912565,1.70165965328847,1.61710882816791,1.61798182658194,1.61638442522861,1.61631012749125,1.63033382541876,1.65130436178982,1.69662598158204,1.69680243870828,1.69000419573944,1.68988346191623,1.67915672608426,1.6804662237053,1.68679081859844,1.71030605247423,1.83758736379642,1.71686282779663,1.70491946651532,1.71591553164524,1.68574136305817,1.70417648914168,1.66858787294419,1.66548594240923,1.65889201821815,1.65673738383459,1.65627302297606,1.65721103191028,1.65517713134994,1.63937028772569,1.63608261284732,1.64279727086161,1.64093982742751,1.62057296017252,1.59463376261522,1.59407652958499,1.58686036184348,1.59396508297894,1.59377933863553,1.57263234513822,1.54871776092409,1.54693461522735,1.52466386845241,1.50728748512634,1.47082587051482,1.4626345449704,1.43552515804961,1.38581068453574,1.32626104803827,1.32497012485156,1.35657452488289,1.34765879639918,1.17115523407316,1.14296852996058,1.11531119722673,1.10193760450116,1.07077899089402,1.07136408557576,1.07919320965052,1.12226732288746,1.12148719664514,1.1220351424582,1.31861766830692,1.10303349612728,1.10948811206081,1.08438476404885,1.08039126066552,1.08642795182637,1.09069078450764,1.07960184720602,1.07899817808994,1.07712216022149,1.07427098455014,1.06666475368747,1.06571745753607,1.06328420663739,1.12627011348796,1.04295448825109,1.05839913040569,1.06808569791456,1.05236243924484,1.05307755496698,1.05761900416337,1.05070002737132,1.04630717364966,1.04509054820032,1.0438646355338,1.0369642331761,1.03765148724672,1.04021475918578,1.03897027208493,1.03905385703947,1.03869165556982,1.01889130856224
1.09070935894198,1.08752384345249,1.07795800976684,1.07900746530711,1.0813106951654,1.08197008758451,1.08228585296831,1.08465409334679,1.0828245115642,1.08353962728633,1.08779317275044,1.09282684445687,1.07394593194917,1.07219064790394,1.07745650003963,1.09735900643609,1.19684367676686,1.17447077060304,1.08534134741741,1.09705252826946,1.10005229941554,1.10485379069271,1.11347232822697,1.1196390404282,1.11246002155538,1.10596825675317,1.19356528910566,1.08699447207377,1.04052123735241,1.06267125030414,1.08092063204424,1.10102745721845,1.11454964541875,1.13057009503792,1.15438251986317,1.16065139145328,1.17639322455734,1.20955787707332,1.23832967586764,1.28751477800279,1.30819741064157,1.3225925972559,1.35683456696367,1.40498878799289,1.39491215736286,1.3969181962717,1.41566908773901,1.4382091638119,1.46728744077284,1.49199143844646,1.49231649104743,1.52746860803791,1.59686269473615,1.63346361760523,1.59472663478692,1.65549289673374,1.63723422777646,1.63429946715057,1.64198928296778,1.61782394389004,1.61623582975388,1.61636585079427,1.63082604792879,1.65208448803215,1.6825465603515,1.68204505062429,1.68444115265429,1.68461760978053,1.67760576081678,1.68111632890724,1.69184306473921,1.71674209397341,2.02955414271138,1.6986227332737,1.70646114456563,1.68971629200716,1.71202418765078,1.67611051885232,1.67204271773163,1.6399646696246,1.6562915974104,1.65633803349625,1.65608727863265,1.64690222085099,1.64879681315378,1.63672343083208,1.6383579810541,1.64361454597262,1.64303873850805,1.64629855173491,1.6086667477599,1.65029205511824,1.58797482790394,1.59014803672185,1.67442953254446,1.57573427567318,1.56203563034664,1.55741059619571,1.52789582002775,1.47860855850372,1.4783949525088,1.43988086290259,1.43956509751879,1.36952090561862,1.31601724749917,1.32371635053354,1.30816026177289,1.23890548333221,1.18301501039993,1.14934884815674,1.10175186015775,1.07060253376778,1.06262481421829,1.09706181548663,1.11576627086809,1.12093925083208,1.12018698624126,1.11984335920595,1.10644190482887,1.10571750188957,1.10474234408666,1.16515569178099,1.07990832537265,1.08560138949819,1.08148715229164,1.07793014811533,1.07727075569622,1.07696427752959,1.07303578466646,1.07144767053029,1.06833645277816,1.05622592158779,1.04240654243803,1.04079056665036,1.0526596301943,1.07087186306572,1.05476782849201,1.05554795473434,1.05732181321391,1.05843627927437,1.05265034297713,1.04609356765473,1.0428244672107,1.04278731834202,1.03981540884745,1.03946249459497,1.0350417792218,1.03157764721719,1.03085324427788,1.02487227642006
