0.864643318587563,0,0.866549778940174,0.862403227673245,0.899158194554627,0.872165893395574,0,0.868972572304951,0.865326466880582,0.865231143862952,0.86793990628062,0,0.867558614210098,0.874620461099561,0.874985866000478,0.87570873221751,0,0.877535756722096,0.877670797663739,0.88079262649114,0.876693736733026,0,0.87991883216286,0.881912671948299,0.882834127785394,0.885741479823126,0,0.886154546232859,0.886019505291215,0.887274591690018,0.888251652620731,0,0.888339032053559,0.888569396012833,0.887806811871788,0.891000132962412,0,0.892008968232335,1.02058383184635,0.890785656172743,1.00465694431724,0,0.906315364461721,0.905322416361403,0.904933180706078,0.904742534670817,0,0.905505118811861,0.907427466334078,0.912789386075796,0.912376319666064,0,0.915966819996815,0.921773580487476,0.921980113692343,0.927135500229195,0,0.926976628533144,0.926801869667488,0.926841587591501,0.931996974128353,0,0.931599794888226,0.931607738473029,0.932958147889462,0.932211450918022,0,0.930718056975143,0.934967874844506,0.936453325202582,0.935897274266404,0,0.944722596982033,0.944945017356504,0.943721705296912,0.945675827158338,0,0.940719030241549,0.94128302476253,0.932823106947818,0.930749831314354,0,0.93145681036178,0.932211450918022,0.937152360665206,0.940488666282275,0,0.941918511546734,0.954969821377317,0.954080139879432,0.954985708546922,0,0.957519712098935,0.960013997726934,0.968092623471124,0.969268274021901,0,0.969379484209136,0.969085571571442,0.968910812705786,0.964732487099647,0,0.965137609924577,1.04825928129842,0.980484615763096,0.981406071600192,0,0.98289946554307,0.985203105135809,0.986378755686586,0.986632950400267,0,0.986323150592968,0.98710956548842,0.987689447179006,0.987832431705452,0,0.987554406237362,0.987911867553477,0.988158118682356,0.988547354337681,0,0.991486480714623,0.984353141561936,0.989087518104254,0.987474970389337,0,0.986323150592968,0.985473187019095,0.987451139634929,1.08712724173728,0,1.08628522174821,1.14623545625303,0.976997382034778,1.07358342964894,0,0.974709629611645,0.971556026445034,0.970912596076028,0.96826738233678,0,0.967608064798169,0.965264707281417,0.964255872011494,0.964343251444322,0,0.965415635392666,0.965860476141608,0.966559511604232,0.966996408768373,0,0.96486752804129,0.963104052215125,0.961547109593826,0.960951340733635,0,0.963429739192029,0.965487127655889,0.96567777369115,0.963644215981698,0,0.96099900224245,0.960006054142132,0.959886900370094,0.961205535447316,0,0.96018875659259,0.958337901333597,0.960315853949431,1.05303337576475,0,0.959791577352463,0.958393506427215,0.958464998690438,0.95531933910863,0,0.957043097010782,0.958131368128731,0.954906272698897,0.955859502875203,0,0.95457264213719,0.954064252709827,0.944794089245256,0.942975008325472,0,0.940703143071944,0.943610495109676,0.935905217851206,0.934967874844506,0,0.932521250725321,0.931258220741717,0.928676555680889,0.92883542737694,0,0.928327037949577,0.928112561159908,0.931996974128353,0.927334089849259,0,0.928215827762341,0.92930409888029,0.930344708489424,0.931782497338685,0,0.927318202679654,0.924339358378699
0.864730698020391,0,0.864579769909143,0.875653127123892,0.875216229959752,0.872459806033269,0,0.872372426600441,0.872475693202874,0.872014965284326,0.872555129050899,0,0.872753718670963,0.875065301848504,0.874636348269166,0.875502199012644,0,0.877313336347625,0.878719350857675,0.878973545571357,0.878592253500834,0,0.877543700306898,0.87914036085221,0.882818240615789,0.883588768341636,0,0.885527003033457,0.88634519226812,0.888307257714349,0.889101616194603,0,0.892437921811673,0.891889814460297,0.893160788028704,0.893486475005609,0,0.901541269995391,0.894693899895596,0.891341707108921,0.999040829861845,0,0.995331175759055,0.995529765379119,0.904734591086014,0.904329468261085,0,0.904655155237989,0.905441570133441,0.908039122363874,0.909421306119517,0,0.916443435084968,0.918866228449744,0.919962443152496,0.921106319364062,0,0.921455837095374,0.92415665592824,0.928017238142278,0.927326146264456,0,0.930590959618303,0.932481532801309,0.934983762014111,0.935134690125359,0,0.934801059563652,0.937223852928429,0.937072924817181,0.9433721875656,0,0.943364243980797,0.943324526056785,0.94340396190481,0.943014726249485,0,0.942474562482912,0.943117992851918,0.94427775623309,0.937724298770989,0,0.934753398054837,0.934237065042672,0.934292670136289,0.940893789107205,0,0.950990085391242,1.10770112637588,0.962325580904475,0.958496773029648,0,0.959068711135431,0.95965653641082,0.963969902958602,0.970499529666296,0,0.969435089302754,0.969816381373277,0.970642514192741,0.96477220502366,0,0.964438574461953,1.07591884358089,1.13589290884011,0.981549056126637,0,0.982518173472548,0.986092786633694,0.986625006815465,0.987284324354076,0,0.987149283412432,0.98620399682093,0.98717311416684,0.987427308880522,0,0.985520848527911,0.986871257944344,0.988523523583273,0.988348764717617,0,0.988730056788139,0.983955962321809,0.987490857558942,0.985528792112713,0,0.984813869480484,0.982597609320573,0.984504069673185,0.98973094847326,0,0.989047800180241,0.989913650923719,1.13101554777135,1.14807836792722,0,1.05884807984022,0.974479265652371,0.971468647012206,0.97219945681404,0,0.97129388814655,1.1233658756065,0.965630112182335,0.966591285943443,0,0.96695669084436,0.966456245001799,0.966289429720946,0.965217045772602,0,0.965121722754972,0.964208210502679,0.964414743707545,0.964676882006029,0,0.962945180519074,0.963517118624857,0.962126991284412,0.959799520937266,0,0.960013997726934,0.96096722790324,1.08788982587833,0.961737755629087,0,0.962452678261316,0.964446518046755,1.01492799946694,0.966424470662589,0,0.961181704692909,0.960053715650947,0.960442951306272,0.958870121515368,0,0.959608874902005,0.958385562842412,0.956836563805916,0.95632023079375,0,0.955502041559088,0.952237228205241,0.949337819752312,0.944420740759536,0,0.942585772670148,0.94218859343002,0.940599876469511,0.936500986711397,0,0.934276782966684,0.930900759425602,0.931369430928952,0.929733052459628,0,0.929470914161144,0.930694226220736,0.930996082443233,0.930503580185475,0,0.930201723962978,0.935555700119894,0.93226705601164,0.932052579221971,0,0.928390586627997,0.929733052459628
0.867884301187002,0,0.868321198351142,0.874652235438771,0.874715784117192,0.874572799590746,0,0.874906430152453,0.874652235438771,0.873969087145752,0.874247112613842,0,0.87446158940351,0.875248004298962,0.875867603913561,0.877194182575586,0,0.877416602950058,0.88041927800542,0.880443108759828,0.880586093286274,0,0.868329141935945,0.869401525884288,0.884081270599394,0.884033609090579,0,0.887036284145941,0.887266648105215,0.888831534311317,0.893526192929622,0,0.89411401820501,0.892382316718055,0.894447648766717,0.898506820600818,0,0.900302070766194,0.895122853474933,0.895218176492564,0.954787118926859,0,0.986839483605133,1.03285667036628,1.25902641686438,1.81638804453505,0,0.907538676521313,0.907816701989402,0.907991460855058,0.913250113994344,0,0.914060359644204,0.916062143014446,0.91682472715549,0.918532597888037,0,0.918731187508101,0.919025100145795,0.92449823007475,0.925721542134342,0,0.927230823246826,0.928732160774507,0.932171732994009,0.935778120494365,0,0.936032315208047,0.936723407085869,0.939654589878008,0.9455566733863,0,0.944126828121842,0.94434130491151,0.938185026689537,0.943419849074415,0,0.942585772670148,0.942800249459816,0.943205372284746,1.08170177331714,0,1.0834334748041,0.935619248798314,0.934840777487665,0.938185026689537,0,0.939320959316301,1.01819281282078,0.963096108630322,0.959799520937266,0,0.959704197919635,0.96059387941752,0.971810221158716,0.972263005492461,0,0.972771394919824,0.973454543212843,0.970833160228002,0.967520685365341,0,1.06672017237954,1.07612537678575,1.12487515671898,0.977561376555759,0,0.982224260834854,1.16958165198771,1.18805843023843,0.988658564524916,0,0.987212832090853,0.987157226997235,0.988229610945579,0.988412313396037,0,0.986259601914547,0.985822704750407,0.985727381732777,0.988444087735248,0,0.987673560009401,0.987292267938878,0.986601176061057,0.985814761165605,0,0.984512013257987,0.979634652189224,0.979515498417186,0.987196944921248,0,0.98795158547749,0.989929538093324,0.990874824684827,0.988031021325515,0,0.984369028731541,1.03999000951897,0.97509886526697,0.973796117359352,0,0.970777555134385,0.969816381373277,0.969292104776309,0.968338874600003,0,0.967901977435863,0.967965526114283,0.967854315927048,0.966678665376271,0,0.966019347837659,0.967044070277188,0.96786225951185,0.967091731786003,0,0.967965526114283,0.96389841069538,0.963540949379265,0.961864852985927,0,0.961364407143367,0.982311640267682,0.972008810778779,0.972239174738053,0,0.969657509677226,0.971595744369047,0.974169465845072,1.03201465037721,0,0.96527265086622,1.02910729833948,1.02175948239713,0.962254088641252,0,0.962953124103876,0.962826026747036,0.959068711135431,0.956963661162757,0,0.956915999653941,0.950934480297624,0.950982141806439,0.952038638585178,0,0.988769774712152,0.987800657366241,0.984392859485949,0.979110375592256,0,0.978760857860944,0.935333279745423,0.931671287151449,0.932592742988545,0,0.960848074131202,0.933625409012875,0.932457702046901,0.932513307140519,0,0.93348242448643,0.935174408049372,0.934292670136289,0.932004917713156,0,0.932402096953283,0.930527410939882
0.871848150003473,0,0.987189001336445,0.880983272526401,0.8756769578783,0.876812890505064,0,0.878909996892936,0.879974437256478,0.881118313468044,0.878592253500834,0,0.880943554602388,0.880284237063777,0.877519869552491,0.878409551050376,0,0.878314228032745,0.880053873104503,0.88076085215193,0.876097967872835,0,0.879616975940363,0.871562180950581,0.888299314129546,0.88802923224626,0,0.887544673573304,0.887997457907049,0.888489960164807,0.894590633293163,0,0.895313499510194,0.897966656834245,0.899777794169226,0.898721297390487,0,0.895853663276768,0.896052252896831,0.899833399262843,0.932719840345385,0,0.91850876713363,0.916610250365821,0.918699413168891,0.918643808075273,0,0.918929777128165,0.912574909286128,0.914171569831439,0.916292506973719,0,0.918564372227248,0.917134526962789,0.917722352238178,0.917690577898967,0,0.917992434121464,0.918564372227248,0.923695928009692,0.924053389325807,0,0.92671449023466,0.928096673990303,0.933363270714391,0.935960822944824,0,0.93785139612783,0.93822474461355,0.940274189492607,0.950696172753547,0,0.943213315869549,0.943276864547969,0.941576937400224,0.944349248496313,0,0.94546135036867,0.946716436767472,0.948575235611268,0.948908866172975,0,0.949131286547446,0.979857072563695,1.01528546078305,0.940496609867078,0,0.940758748165562,0.941576937400224,1.04209505949165,1.10835250032968,0,1.07566464886721,1.14212862291011,1.14409068835634,1.09740624047178,0,0.971278000976945,0.982645270829389,0.975988546764855,0.975496044507097,0,0.97126211380734,0.971357436824971,0.97634600808097,0.978220694094371,0,0.978919729556995,0.980039775014154,0.979880903318103,0.98068320538316,0,1.13664754939635,1.06250212884939,0.98973094847326,0.989897763754114,0,0.990286999409438,0.987189001336445,0.986068955879286,0.985592340791134,0,0.98542552551028,0.988595015846496,0.989802440736483,0.988102513588738,0,0.986084843048891,0.982557891396561,0.982573778566166,0.983169547426357,0,0.986974524546777,0.991025752796075,0.99004074828056,0.989993086771744,0,1.01032072028146,1.00415649847468,1.00024031116703,1.00099495172327,0,0.977172140900434,0.977291294672473,0.978776745030549,0.973120912651136,0,0.972564861714958,0.967028183107583,0.968156172149544,0.969411258548347,0,0.963254980326373,0.966766044809099,0.967576290458958,0.966305316890551,0,0.966297373305748,0.962436791091711,0.964112887485048,0.966376809153774,0,0.968283269506385,0.972366272094894,0.971992923609174,0.973978819809811,0,0.97478906545967,0.974368055465135,0.974105917166652,0.97347837396725,0,0.971524252105824,0.968497746296054,0.968052905547111,0.965924024820029,0,0.964621276912411,0.96362038522729,0.962444734676513,0.958171086052744,0,0.956995435501967,0.951712951608274,0.94558844772551,0.95419929365147,0,0.956733297203483,0.95635200513296,0.955780067027177,0.950862988034401,0,0.952253115374847,0.94546135036867,0.9468038162003,0.96190457090994,0,0.946343088281752,0.938772851964925,0.936953771045142,0.935484207856671,0,0.93832006763118,0.936151468980085,0.933776337124124,0.93404641900741,0,0.932195563748417,0.930098457360545
0.891667394085826,0,0.883048604575063,0.879990324426083,0.87991883216286,0.879759960466809,0,0.880228631970159,0.880458995929433,0.87948193499872,0.880276293478974,0,0.8800459295197,0.878417494635178,0.880729077812719,0.882222471755598,0,0.881753800252248,0.881952389872312,0.880466939514235,0.879156248021815,0,0.879084755758592,0.878195074260707,0.879219796700236,0.888482016580005,0,0.888775929217699,0.888704436954476,0.889451133925915,0.896457375721761,0,0.896727457605048,0.89760919551813,0.903813135248919,0.902581879604524,0,0.900429168123034,0.898649805127264,0.90481402693404,0.913059467959083,0,1.00426770866192,0.985854479089617,1.0587845311618,0.919549376742763,0,0.91978768428684,0.907570450860523,0.915728512452739,0.917333116582853,0,0.917444326770089,0.919517602403553,0.920510550503871,0.918890059204152,0,0.921384344832152,0.919922725228483,0.921964226522737,0.924982788747705,0,0.925109886104546,0.926921023439526,0.933760449954519,0.935206182388582,0,0.938701359701703,0.940329794586224,0.943594607940071,0.947089785253191,0,0.946009457720045,0.944603443209995,0.992034588065999,0.947526682417332,0,0.94808273335351,0.949282214658694,0.950950367467229,0.95201480783077,0,1.10929778692119,0.958766854912935,1.01710454170284,0.94256194191574,0,0.941513388721804,0.940830240428785,0.939344790070709,0.942403070219689,0,1.16326650206969,1.10920246390356,1.10942488427803,1.13688585694043,0,1.09345033524011,0.976949720525963,0.976854397508333,0.977863232778256,0,0.977434279198918,0.972556918130155,0.973541922645671,0.980476672178294,0,0.978800575784956,0.979213642194689,0.978927673141797,0.979579047095606,0,0.980699092552765,0.982502286302943,0.985449356264688,0.987737108687821,0,1.20412035870918,0.992558864662967,0.992709792774215,0.987053960394802,0,0.991160793737718,0.991033696380878,0.993377053897629,0.995680693490367,0,1.14809425509682,1.1115061034963,0.976520766946626,0.984011567415427,0,0.986140448142509,0.986656781154675,0.987435252465324,0.98804690849512,0,0.98748291397414,0.942164762675613,1.01851849979769,0.996268518765756,0,0.99615730857852,0.976981494865173,1.04980033675012,0.982677045168599,0,0.991001922041668,0.956002487401648,0.978824406539364,0.970999975508856,0,0.971556026445034,0.969323879115519,0.968585125728882,0.967218829142844,0,0.966972578013965,0.962905462595061,0.967846372342245,0.967202941973239,0,0.967703387815799,0.972850830767849,0.973549866230473,0.9751941882846,0,0.975901167332027,0.975273624132626,0.973986763394613,0.974145635090664,0,0.97344659962804,0.972024697948384,0.971285944561748,0.967679557061392,0,0.966019347837659,0.962818083162233,0.962730703729405,0.999509501365195,0,0.953436709510426,0.948805599570542,0.946644944504249,0.955509985143891,0,0.955645026085534,0.956129584758489,0.955049257225343,0.952928320083063,0,0.951347546707356,0.949353706921917,0.948074789768707,0.948559348441663,0,0.948670558628898,0.947733215622198,0.947995353920682,0.940647537978327,0,0.939281241392288,0.936334171430544,0.935372997669436,0.934459485417143,0,0.935158520879767,0.924450568565934
0.883676147774464,0,0.885121880208528,0.885527003033457,0.880117421782923,0.880061816689305,0,0.880435165175025,0.880117421782923,0.880514601023051,0.879211853115433,0,0.880244519139764,0.878711407272873,0.880800570075942,0.880030042350095,0,0.879442217074707,0.880101534613318,0.877440433704465,0.879910888578057,0,0.880149196122134,0.881158031392057,0.886488176794565,0.889038067516183,0,0.890396420517418,0.890626784476692,0.891953363138717,0.895901324785583,0,0.896973708733927,0.898260569471939,0.902565992434919,0.903058494692677,0,0.902073490177161,0.895512089130258,0.897696574950958,1.0144911023028,0,0.907308312562039,0.90830920424716,0.908539568206434,0.912280996648433,0,0.902264136212423,0.901946392820321,0.901994054329136,0.902558048850117,0,0.907546620106116,1.00668255844189,0.915823835470369,0.917579367711732,0,0.919334899953095,0.920613817106305,0.924537947998762,0.926921023439526,0,0.923203425751935,0.923886574044954,0.934801059563652,0.936461268787384,0,0.936651914822646,0.940385399679842,0.942720813611791,0.947526682417332,0,0.947200995440427,0.95747205059012,0.953873606674566,0.955088975149356,0,0.956034261740859,0.957710358134196,0.957821568321432,0.961134043184093,0,0.961785417137902,0.962317637319673,0.960236418101406,1.11638346456506,0,1.10875762315461,0.94078257891997,0.93832006763118,0.939320959316301,0,0.933688957691296,0.931711005075462,0.935690741061538,1.09191722337322,0,1.1473872760494,1.07500533132859,0.978419283714434,0.978149201831148,0,0.976536654116231,0.975273624132626,0.972707846241403,0.973748455850537,0,0.979571103510804,0.978856180878574,0.978101540322332,0.977307181842078,0,0.978260412018383,1.16343331735054,0.983924187982599,0.986982468131579,0,0.987467026804535,0.989103405273859,0.997952558743896,0.973994706979416,0,0.974010594149021,0.982295753098077,1.00005760871657,0.998437117416851,0,0.9992155887275,1.00677788145952,0.990533250538317,0.976600202794651,0,0.977767909760625,0.982009784045185,0.987316098693286,0.987022186055592,0,0.940321851001422,0.983860639304179,0.93011434453015,0.98458350552121,0,0.971278000976945,0.971405098333786,0.9673935880085,0.998524496849679,0,0.982684988753402,0.949186891641064,0.993106972014342,0.971595744369047,0,0.972668128317391,0.975448382998282,0.97603620827367,1.10409473887552,0,1.03870314878096,0.961022832996858,0.960808356207189,0.966067009346475,0,0.965264707281417,0.96530442520543,0.972247118322856,0.974121804336257,0,0.976171249215314,0.97678290524511,0.976322177326562,0.976171249215314,0,0.974558701500397,0.97341482528883,0.972421877188512,0.970491586081493,0,0.965828701802398,0.965375917468653,0.963223205987163,0.953563806867267,0,0.954119857803445,0.949266327489089,0.954350221762719,0.954207237236273,0,0.954842724020477,0.955994543816846,0.953929211768184,0.952880658574248,0,0.951530249157815,0.946676718843459,0.946819703369905,0.948630840704885,0,0.947391641475688,0.947351923551676,0.942959121155867,0.94346751058323,0,0.941568993815422,0.937152360665206,0.935277674651805,0.934316500890697,0,0.928136391914316,0.924641214601196
0.884208367956235,0,0.884502280593929,0.883842963055318,0.880458995929433,0.880737021397522,0,0.880578149701471,0.882460779299675,0.881658477234617,0.880037985934898,0,0.878870278968924,0.877567531061306,0.878592253500834,0.879251571039446,0,0.878655802179255,0.88001415518049,0.880125365367726,0.880562262531866,0,0.882707030428553,0.884470506254719,0.887544673573304,0.885685874729508,0,0.888434355071189,0.888982462422565,0.891730942764246,0.894336438579481,0,0.897497985330895,0.9009455011352,0.901302962451314,0.905012616554103,0,0.9056242725839,0.893843936321723,0.894797166498029,0.89798254400385,0,0.905195319004562,0.90559249824469,0.907419522749275,0.904591606559569,0,0.902176756779595,0.900294127181391,0.902017885083544,0.901573044334601,0,0.955081031564553,0.915220123025376,0.915148630762153,0.915895327733592,0,0.919017156560993,0.91938256146191,0.926722433819463,0.929010186242596,0,0.923449676880814,0.922798302927005,0.9327675018542,0.935508038611079,0,0.934928156920493,0.936222961243308,0.94037745609504,0.942490449652517,0,0.944945017356504,0.947558456756542,0.949711168238032,0.952332551222872,0,0.953619411960885,0.959338793018718,0.959434116036349,0.960077546405355,0,0.960435007721469,0.96090367922482,0.960228474516603,0.958226691146361,0,1.15485424576379,1.06100079132171,0.939980276854912,0.940369512510237,0,0.932648348082162,0.932346491859665,1.06958780649326,1.06517911692785,0,1.17708039604132,1.05157969974589,1.07757905280462,1.17167081479078,0,1.18178299824442,0.974558701500397,0.971992923609174,0.974963824325326,0,0.976052095443276,0.977418392029313,0.977831458439046,0.976830566753925,0,0.976163305630511,1.07049337516075,0.977481940707734,1.13141272701148,0,1.06012699699343,1.17819249791367,1.17739813943342,0.984623223445223,0,0.97119856512892,0.988722113203337,0.998834296656978,1.01444344079398,0,0.97762492523418,1.01068612518238,0.955613251746324,0.95787717341505,0,0.978371622205619,0.977601094479772,0.979015052574625,0.938089703671906,0,0.984599392690815,0.984837700234892,0.926301423824928,0.93314085033992,0,0.948313097312784,0.958234634731164,0.966464188586602,0.991391157696992,0,0.999954342114137,0.949115399377841,0.997475943655743,1.05640145572103,0,1.12883900553545,0.976020321104065,1.12396164446669,1.09818471178243,0,0.968926699875391,0.969117345910652,1.22987346063904,0.969220612513085,0,0.967941695359876,0.965518901995099,0.971285944561748,0.976115644121696,0,0.975869392992817,0.977879119947861,0.978387509375224,0.979285134457912,0,0.979046826913835,0.976044151858473,0.974447491313161,0.970737837210372,0,0.970968201169646,0.962500339770131,0.962555944863749,0.955843615705598,0,0.953857719504961,0.957487937759725,0.955001595716528,0.954906272698897,0,0.954810949681266,0.954278729499496,0.951117182748083,0.950338711437433,0,0.949266327489089,0.94902007636021,0.948400476745612,0.951569967081828,0,0.947097728837994,0.940726973826352,0.941553106645817,0.942363352295676,0,0.940552214960696,0.937557483490136,0.935905217851206,0.936159412564888,0,0.927095782305182,0.92708783872038
0.884113044938604,0,0.883660260604859,0.882834127785394,0.88219864100119,0.881809405345866,0,0.878218905015115,0.873023800554249,0.873420979794377,0.873357431115956,0,0.874739614871599,0.882754691937369,0.883294855703942,0.880609924040681,0,0.881380451766528,0.883255137779929,0.882206584585993,0.883509332493611,0,0.884764418892413,0.888736211293686,0.888235765451126,0.89105573805603,0,0.889927749014068,0.891238440506488,0.893653290286462,0.896679796096232,0,0.897156411184385,0.902001997913939,0.90316176129511,0.904758421840422,0,0.903439786763199,0.892064573325953,0.895178458568551,0.901747803200257,0,0.904170596565034,0.904678985992397,0.904726647501212,0.90397200694497,0,0.90303466393827,0.90440890410911,1.03144271227143,0.958186973222349,0,0.913496365123223,0.91507713849893,0.916054199429643,0.91635605565214,0,0.919215746181057,0.921432006340967,0.926055172696049,0.928207884177539,0,0.921344626908139,0.921328739738534,0.934109967685831,0.934983762014111,0,0.935190295218977,0.935794007663971,0.939694307802021,0.941616655324237,0,0.946787929030695,0.947963579581472,0.951760613117089,0.954453488365152,0,0.955637082500731,0.958226691146361,0.959521495469177,0.959124316229049,0,0.959354680188323,0.959680367165227,0.959910731124501,0.959410285281941,0,0.961165817523303,0.963286754665584,0.941036773633651,0.940298020247014,0,1.0700326472422,1.06740332067256,0.949059794284223,0.948718220137714,0,1.10099674080253,1.06985788837655,0.967242659897252,0.968934643460194,0,0.969466863641965,1.09410170919392,0.971182677959314,0.971142960035302,0,0.9755039880919,0.976060039028078,0.978943560311402,0.977362786935696,0,0.976711412981887,1.04616217491055,1.14345520157214,1.00734981956531,0,0.961753642798692,1.0463210466066,0.965526845579901,0.966789875563506,0,0.982454624794128,1.00986793594772,0.980524333687109,0.984821813065287,0,0.996761021023514,0.941759639850683,0.952554971597343,0.94424598189388,0,0.946088893568071,0.985266653814229,0.97809359673753,0.936667801992251,0,0.984376972316344,0.925491178175068,0.93189370752592,0.995919001034444,0,0.950378429361446,0.982120994232421,0.974423660558753,0.956367892302566,0,0.957019266256374,0.949202778810669,0.990596799216738,0.988086626419133,0,0.987339929447694,0.970292996461429,0.964287646350704,0.965034343322144,0,0.963270867495978,1.02894048305863,1.16378283508185,1.02050439599832,0,1.13841102522252,0.96530442520543,0.965280594451023,0.97388349679218,0,1.19915561820759,1.12454946974208,1.04899009110026,1.17218714780295,0,0.990406153181477,0.996951667058775,0.993655079365718,1.11202243650846,0,1.12157856902592,0.961960176003558,0.962492396185329,0.997944615159093,0,0.962587719202959,0.962484452600526,0.95759914794696,0.955676800424744,0,0.955803897781585,0.95541466212626,0.950680285583942,0.950426090870261,0,0.948694389383306,0.951379321046567,0.952427874240503,0.953365217247203,0,0.951975089906757,0.951387264631369,0.944905299432491,0.943848802653753,0,0.940512497036683,0.937970549899868,0.935214125973385,0.930837210747182,0,0.931417092437767,0.930249385471793
0.881515492708172,0,0.883509332493611,0.883580824756834,0.883437840230388,0.872205611319587,0,0.870577176435065,0.870783709639931,0.869067895322581,0.87187198075788,0,0.885812972086349,0.88603539246082,0.882985055896643,0.882786466276579,0,0.883342517212757,0.886249869250489,0.887878304135011,0.888323144883954,0,0.890150169388539,0.891603845407405,0.892811270297392,0.893041634256666,0,0.895234063662169,0.894852771591647,0.896512980815379,0.897561534009315,0,0.899547430209952,0.901231470188092,0.904400960524308,0.90740363557967,0,0.89149263522017,0.891309932769711,0.892199614267596,0.905814918619161,0,0.905179431834957,0.906887302567504,0.907856419913415,0.908944691031364,0,0.907602225199734,0.904122935056218,0.974201240184282,0.91554581000228,0,0.916348112067337,0.916681742629044,0.9190409873154,0.921559103697808,0,0.921209585966496,0.923060441225489,0.925912188169603,0.930598903203105,0,0.922988948962266,0.923274918015158,0.935301505406213,0.935913161436009,0,0.937025263308365,0.936691632746658,0.940266245907804,0.941084435142466,0,0.947018292989969,0.971142960035302,0.961038720166463,0.959958392633317,0,1.07900095448428,0.961705981289877,0.961817191477112,0.961300858464947,0,0.961602714687444,0.962182596378029,0.961578883933036,0.960792469037584,0,0.962905462595061,0.962873688255851,1.09410170919392,1.09015374754705,0,1.10919452031875,1.1773584215094,0.949615845220401,1.17935226129484,0,1.08952620434765,1.04980033675012,0.967592177628564,0.968998192138614,0,0.9686407308225,0.968275325921582,0.971786390404308,0.971492477766614,0,1.04018859913903,1.10601708639774,1.10131448419463,1.19848835708418,0,0.966360921984169,0.966281486136143,0.966813706317914,0.965296481620628,0,0.961785417137902,1.00244068415733,0.963247036741571,0.967274434236462,0,0.960585935832718,0.964247928426691,0.996824569701934,1.00216265868925,0,0.997896953650278,0.943642269448886,0.942331577956466,0.946351031866555,0,0.945644052819128,0.945453406783867,0.947749102791803,0.943388074735205,0,0.933347383544786,0.933768393539321,0.933450650147219,0.989301994893923,0,0.979324852381924,0.982708819507809,0.982748537431822,0.959450003205954,0,0.949186891641064,0.948757938061726,0.965415635392666,0.962500339770131,0,0.962381185998093,0.971111185696092,0.970690175701557,0.965113779170169,0,0.963723651829723,1.02904374966106,0.995386780852673,0.995871339525628,0,1.01785123867427,0.967631895552576,0.967385644423697,1.10882117183303,0,0.967647782722181,0.966710439715481,0.967663669891786,1.02151323126825,0,0.986196053236127,0.984472295333975,0.973097081896728,0.971977036439569,0,0.963890467110577,0.963143770139138,0.973255953592779,0.97388349679218,0,0.966678665376271,0.965161440678984,0.962889575425456,0.959608874902005,0,0.959608874902005,0.952634407445369,0.951697064438668,0.959545326223584,0,0.95160968500584,0.952316664053267,0.954096027049037,0.954191350066668,0,0.954826836850872,0.953516145358452,0.949441086354745,0.946732323937077,0,1.03701910880282,0.939606928369193,0.937311232361257,0.93233060469006,0,0.931575964133818,0.929685390950812
0.880292180648579,0,0.884526111348337,0.87570873221751,0.873778441110491,0.869417413053893,0,0.869067895322581,0.86921882343383,0.869441243808301,0.869838423048429,0,0.887155437917979,0.88603539246082,0.888196047527113,0.88559849529668,0,0.884772362477215,0.887481124894884,0.889538513358743,0.888696493369673,0,0.889538513358743,0.893494418590411,0.891953363138717,0.893589741608042,0,0.896338221949723,0.896902216470704,0.897450323822079,0.898753071729697,0,0.902216474703607,0.902200587534002,0.905139713910944,0.908126501796702,0,0.907975573685453,0.894169623298628,0.893994864432972,0.895655073656704,0,0.905822862203963,0.907149440865989,0.908428358019198,0.909762880266026,0,0.909198885745046,0.909866146868459,0.913544026632038,0.915831779055172,0,0.921106319364062,0.921225473136101,0.922313744254049,0.921924508598725,0,0.923259030845552,0.950394316531051,0.937724298770989,0.934737510885232,0,0.988174005851961,0.968664561576907,0.93778784744941,0.938764908380123,0,0.939265354222683,0.939217692713868,0.939829348743664,0.941243306838517,0,0.95288860215905,0.954532924213177,0.964931076719711,0.964446518046755,0,0.963405908437622,0.964295589935507,0.963278811080781,0.968481859126449,0,0.964351195029125,0.964788092193265,0.966710439715481,0.96776693649422,0,1.14996099752542,0.96477220502366,0.977164197315632,1.05675097345234,0,1.07879442127941,1.18823318910409,0.95279327914142,0.953905381013776,0,1.05091243862247,0.963135826554335,0.964740430684449,1.01584945530403,0,0.969522468735582,0.968902869120984,0.951649402929853,1.06393197411385,0,0.954667965154821,0.946065062813663,0.950124234647764,1.04535192926069,0,0.971095298526487,0.966217937457723,0.968751941009735,0.953611468376082,0,0.945755263006364,0.945397801690249,0.954739457418044,0.958957500948196,0,0.96018875659259,0.963350303344004,0.961300858464947,0.960689202435151,0,0.95925141358589,0.962405016752501,0.952110130848401,0.949703224653229,0,0.950569075396707,0.951442869724987,0.950346655022235,0.937231796513231,0,0.939591041199588,0.940139148550963,0.943427792659218,0.94387263340816,0,0.940989112124836,0.941378347780161,1.01654849076666,0.962730703729405,0,0.977990330135097,0.963699821075316,0.964907245965303,0.967496854610933,0,0.978411340129632,1.00302850943272,0.969856099297289,0.96998319665413,0,0.969260330437098,1.02860685249692,0.997380620638112,0.996705415929896,0,1.19199050471569,0.991955152217973,0.971206508713722,0.960943397148832,0,0.961586827517839,0.96826738233678,0.968044961962309,1.0547571336669,0,0.990414096766279,0.992979874657502,0.976997382034778,1.15190717580205,0,0.967957582529481,1.00112204908011,0.974145635090664,0.973843778868168,0,0.970372432309455,0.968513633465659,0.966877254996334,0.968005244038296,0,0.961157873938501,0.957551486438145,0.956868338145126,0.95535111344784,0,0.955287564769419,0.955613251746324,0.955406718541457,0.955581477407114,0,0.95753559926854,0.958600039632081,0.950219557665395,0.949790604086057,0,0.949417255600338,0.946351031866555,0.94468287905802,0.934809003148455,0,0.933657183352086,0.930805436407972
0.884931234173266,0,0.883199532686311,0.873198559419906,0.872173836980377,0.869139387585804,0,0.87093463775118,0.870076730592505,0.871149114540849,0.881396338936133,0,0.882190697416388,0.883278968534337,0.887918022059024,0.886662935660222,0,0.888331088468756,0.889514682604336,0.890841261266361,0.895321443094997,0,0.95672535361868,0.894296720655469,0.894670069141188,0.896949877979519,0,0.901048767737633,0.903543053365633,0.902208531118805,0.902129095270779,0,0.902089377346767,0.980286026143033,1.08400541290988,0.98024630821902,0,0.897474154576487,0.891603845407405,0.891103399564845,0.891532353144182,0,0.994743350483667,0.909564290645963,0.910144172336548,0.911359540811338,0,0.913234226824739,0.914815000200446,1.06301846186155,0.917078921869172,0,0.923783307442521,0.923155764243119,0.919549376742763,0.919295182029082,0,0.920923616913604,1.04854525035131,0.941211532499307,0.940512497036683,0,0.941163870990492,0.94303061341909,0.945342196596631,0.944849694338873,0,0.944118884537039,0.943197428699944,0.942959121155867,0.942339521541269,0,0.950179839741382,0.964811922947672,0.96265126788138,0.961984006757966,0,0.961976063173163,0.961300858464947,0.965097892000564,0.969006135723417,0,0.9686407308225,0.968044961962309,0.969959365899722,0.969744889110054,0,0.969053797232232,0.967711331400602,0.968418310448028,0.972358328510091,0,1.07303532229756,1.11379385591943,0.953111022533522,0.951967146321955,0,1.11469148100212,0.962269975810857,1.1090118178683,0.953047473855101,0,0.952586745936554,0.94683559053951,0.951283998028936,0.976044151858473,0,0.947788820715815,0.943848802653753,0.951450813309789,0.962492396185329,0,0.963445626361634,0.956780958712298,0.958043988695903,0.957273460970056,0,0.943396018320007,0.942307747202059,0.947820595055026,0.998325907229615,0,0.995823678016813,0.964311477105112,0.968148228564742,0.963278811080781,0,0.960172869422985,0.982414906870115,0.975313342056639,0.975932941671237,0,1.0010823311561,0.976060039028078,0.953460540264834,0.960244361686208,0,0.949703224653229,0.938494826496836,0.947852369394236,0.953802114411343,0,0.940599876469511,0.942387183050084,0.965201158602997,0.960832186961597,0,0.999112322125067,0.965566563503914,0.966170275948908,0.951379321046567,0,0.946096837152873,1.00340185791844,0.956201077021712,1.01204447818361,0,0.970745780795175,1.02419021934671,0.995108755384584,0.977116535806817,0,0.976687582227479,0.955263734015012,0.943864689823358,1.04360434060413,0,0.961261140540934,0.97035654513985,0.969824324958079,0.982391076115707,0,0.990866881100024,0.990128127713388,1.11311070762641,0.975456326583085,0,0.99834179439922,1.18229138767179,0.982041558384395,1.13075340947287,0,1.08146346577307,0.963413852022424,0.967679557061392,0.968148228564742,0,0.965224989357405,0.96524087652701,0.958679475480107,0.95750382492933,0,0.955843615705598,0.956201077021712,0.954024534785815,0.95457264213719,0,0.955668856839942,0.955946882308031,0.95635200513296,0.985528792112713,0,1.05612343025294,1.01566675285357,0.943642269448886,0.943205372284746,0,0.93348242448643,0.932473589216506
0.885693818314311,0,0.878052089734261,0.87405646657858,0.874167676765816,0.874874655813243,0,0.869758987200403,0.877472208043675,0.877758177096567,0.880244519139764,0,0.881531379877777,0.880975328941598,0.881563154216987,0.885423736431024,0,0.8869091867891,0.889554400528348,0.896592416663405,0.896783062698666,0,0.89710874967557,0.90141417263855,0.905036447308511,0.905203262589365,0,0.900770742269544,0.905266811267785,0.902947284505441,0.90565604692311,0,0.930273216226201,0.968839320442563,1.00928805425713,0.925864526660788,0,0.96745713668692,0.893851879906526,0.889165164873024,0.891325819939316,0,0.894185510468233,0.989826271490891,0.988213723775974,1.02186274899956,0,0.916840614325095,0.918834454110534,1.01196504233559,0.996355898198584,0,0.925999567602431,0.927167274568405,0.917595254881337,0.918492879964025,0,0.919906838058878,0.921710031809056,0.940425117603855,0.939463943842747,0,0.940321851001422,0.94125125042332,0.945985626965637,0.944905299432491,0,0.946104780737676,0.946001514135243,0.94636691903616,0.947216882610032,0,0.94848785617844,0.950489639548681,0.951260167274528,0.957074871349992,0,1.04784621488869,1.00492702620053,1.04605890830812,0.96951452515078,0,0.968100567055927,0.967417418762908,0.968799602518551,0.96917295100427,0,0.968680448746512,0.968187946488755,0.967878146681455,0.968926699875391,0,1.14691066096124,0.95625668211533,0.95547821080468,0.950306937098223,0,0.946239821679319,1.056925732318,1.0659893625777,1.06571133710962,0,0.947796764300618,0.948734107307319,0.942291860032453,0.940655481563129,0,0.964907245965303,0.961769529968297,0.947296318458058,1.00176547944912,0,0.944230094724275,0.943205372284746,0.936119694640875,0.943705818127307,0,0.941402178534568,0.943761423220925,0.947844425809433,0.977450166368524,0,0.977831458439046,0.963175544478348,0.972596636054168,0.962738647314208,0,0.965622168597532,0.979324852381924,0.976528710531428,0.976314233741759,0,1.00101083889288,1.00020059324302,0.960133151498973,0.960117264329367,0,0.947185108270822,0.947550513171739,0.950839157279993,0.950696172753547,0,0.955494097974286,0.999326798914736,0.978355735036014,0.954461431949954,0,0.954810949681266,0.960212587346998,0.968322987430398,0.946478129223395,0,0.946033288474453,0.951832105380312,0.952205453866031,0.957845399075839,0,0.974415716973951,0.978641704088905,0.977672586742995,1.01239399591492,0,0.960514443569495,0.950489639548681,0.947200995440427,0.939328902901104,0,0.938415390648811,1.06980228328293,0.982097163478013,0.98162054838986,0,0.982256035174064,1.09493578559818,0.973438656043238,0.973144743405544,0,1.06856308405373,0.982986844975898,0.981398128015389,1.1246289055901,0,1.12206312769888,0.965145553509379,0.965868419726411,0.968458028372041,0,0.967806654418232,0.968307100260793,0.962587719202959,0.959878956785291,0,0.955239903260604,0.956272569284935,0.95463619081561,0.953937155352986,0,0.954032478370617,0.954461431949954,0.95628845645454,0.963000785612692,0,0.963946072204195,1.0322767886757,0.945731432251956,0.942260085693243,0,0.935150577294964,0.934912269750888
0.885113936623725,0,0.875295665807778,0.874207394689829,0.873722836016874,0.875160624866135,0,0.87180843207946,0.872237385658797,0.877702572002949,0.880006211595688,0,0.880578149701471,0.88207154364435,0.882111261568363,0.885773254162336,0,0.887973627152642,0.889673554300387,0.89714052401478,0.898077867021481,0,0.898705410220882,0.900325901520601,0.903463617517607,0.904480396372333,0,0.898189077208716,0.899364727759493,0.89838766682878,0.897386775143659,0,0.917777957331796,0.921408175586559,0.922218421236419,0.925411742327042,0,0.907657830293351,0.953118966118324,0.890865092020769,0.893923372169749,0,0.894058413111392,0.965574507088717,0.928327037949577,0.930225554717386,0,0.930241441886991,0.931520359040201,0.93095636451922,0.932759558269398,0,0.932497419970914,0.934673962206812,0.933990813913793,0.921805354826686,0,0.921074545024852,1.02895637022823,0.940433061188658,0.940607820054314,0,0.941290968347333,0.941918511546734,0.94215681909081,0.943427792659218,0,0.9446193303796,0.945667883573536,0.947089785253191,0.947733215622198,0,0.947701441282988,0.949028019945013,0.951387264631369,0.951697064438668,0,0.958679475480107,0.956399666641776,1.06147740640986,1.13278696718232,0,0.967901977435863,0.966265598966538,0.967028183107583,0.967194998388436,0,0.967091731786003,0.966480075756207,0.966781931978704,1.18238671068942,0,1.18094097825535,1.18090920391614,1.17405389023155,0.950132178232567,0,0.941052660803256,0.944150658876249,0.956741240788285,0.956741240788285,0,0.949043907114618,0.942109157581995,0.941759639850683,0.936890222366722,0,0.937843452543028,0.938208857443945,0.947749102791803,0.946057119228861,0,0.927294371925246,0.92967744736601,0.935905217851206,0.93519823880378,0,0.942816136629422,0.949607901635599,1.01460231249003,0.974296563201913,0,0.973827891698562,0.966368865568971,0.963572723718475,0.960728920359164,0,0.960339684703839,1.04779060979507,1.01143282215382,1.00958991047963,0,1.03155392245867,1.04043485026791,1.02428554236434,0.965598337843124,0,0.974034424903429,0.971937318515556,0.964311477105112,0.965423578977468,0,1.00197995623879,1.00071692625518,1.00892264935621,1.05342261142008,0,0.975218019039008,0.98108832820809,1.02380098369138,0.96829915667599,0,0.953508201773649,0.956431440980986,0.957464107005317,0.959775690182858,0,0.979301021627517,0.973184461329556,0.969157063834665,0.990501476199107,0,0.998405343077641,0.941203588914505,0.93657247897462,0.935222069558187,0,0.941076491557664,0.998619819867309,0.985910084183235,0.984130721187465,0,0.976179192800116,0.976123587706498,0.968156172149544,1.18525434480314,0,1.15765833119909,0.985385807586267,0.985139556457388,0.981199538395325,0,0.979205698609886,0.967743105739812,0.968783715348946,0.969395371378742,0,0.96786225951185,0.967941695359876,0.963231149571966,0.96311993938473,0,0.958401450012017,0.958314070579189,0.953087191779114,0.954652077985216,0,0.953643242715292,0.953651186300095,0.952769448387012,0.967512741780538,0,0.970563078344716,1.0338496184666,0.984305480053121,0.934896382581283,0,0.934245008627474,0.933212342603143
0.883453727399993,0,0.875081189018109,0.874120015257001,0.872968195460632,0.870426248323817,0,0.8722453292436,0.878790843120898,0.87945016065951,0.880220688385356,0,0.88431957814347,0.885256921150171,0.885773254162336,0.888482016580005,0,0.889681497885189,0.891913645214705,0.89417756688343,0.895599468563086,0,0.894773335743621,0.903265027897543,0.904686929577199,0.907363917655657,0,0.896632134587417,0.895774227428742,0.896536811569787,0.897974600419047,0,1.00819978313918,0.920415227486241,0.923544999898444,0.923942179138571,0,0.90525092409818,0.905171488250154,0.892485583320488,0.893279941800743,0,0.899714245490805,1.03431828996995,0.928597119832864,0.929629785857195,0,0.930209667547781,0.930265272641398,0.931575964133818,0.932624517327755,0,0.932950204304659,0.934443598247538,0.933768393539321,0.933784280708926,0,0.93270395317578,1.02713728930845,0.941227419668912,0.943157710775931,0,0.944627273964402,0.943848802653753,0.944659048303612,0.945389858105447,0,0.946271596018529,0.946001514135243,0.946128611492083,0.946954744311548,0,0.949147173717051,0.951069521239267,0.952022751415573,0.953643242715292,0,0.955438492880668,0.956892168899534,0.958901895854578,0.96143589940659,0,0.963691877490513,0.966678665376271,0.967314152160474,0.967886090266258,0,0.96702023952278,0.965979629913647,0.964128774654653,0.959704197919635,0,0.959370567357928,0.960164925838183,1.14371733987062,1.12886283628986,0,0.947494908078121,0.942712870026989,0.948749994476924,0.958703306234514,0,0.960673315265546,0.942371295880479,0.942148875506008,0.934324444475499,0,0.938820513473741,0.938653698192887,0.931027856782443,0.930821323577577,0,0.930241441886991,0.934944044090098,0.943960012840988,0.938486882912034,0,1.0017178179403,0.95416751931226,1.00630920995617,0.975313342056639,0,0.975607254694333,0.966448301416997,0.963747482584131,0.960292023195023,0,0.968410366863226,0.996872231210749,0.989603851116419,1.04087174743205,0,1.03953722518523,1.00208322284122,1.02569155687439,1.0079614755951,0,0.971579857199442,0.971015862678461,1.00032769059986,0.982645270829389,0,0.992114023914024,0.993710684459336,1.00937543368996,1.05420902631553,0,0.959878956785291,0.968060849131914,0.973541922645671,0.967147336879621,0,0.966209993872921,1.00716711711485,1.00800119351912,0.967806654418232,0,0.970316827215837,0.974717573196448,0.9767511309059,0.96567777369115,0,0.998508609680074,0.938701359701703,0.938590149514467,0.93778784744941,0,0.93781962178862,1.05730702438852,0.998119374024749,0.971309775316155,0,0.970531304005506,0.974399829804346,0.971166790789709,0.97260457963897,0,1.03407998242588,1.13519387337749,0.987133396242827,0.98155699971144,0,0.982684988753402,0.972652241147786,1.16946249821567,0.971039693432869,0,0.968918756290589,0.968823433272958,0.96695669084436,0.963811031262551,0,0.961602714687444,0.960339684703839,0.959743915843648,0.946406636960173,0,0.945262760748606,0.946859421293918,0.952197510281229,0.987840375290254,0,1.04980033675012,0.984265762129108,0.935214125973385,0.935142633710162,0,0.935150577294964,0.926817756837093
0.880355729327,0,0.875843773159153,0.869901971726849,0.87059306360467,0.87059306360467,0,0.874906430152453,0.877218013329994,0.87782966935979,0.878854391799319,0,0.882023882135534,0.883803245131305,0.884669095874782,0.885844746425559,0,0.889506739019533,0.891063681640832,0.891651506916221,0.892588849922921,0,0.893136957274297,1.68774963224261,0.903169704879913,0.901501552071378,0,0.895988704218411,0.89586160686157,0.896679796096232,0.897394718728462,0,0.933823998632939,1.01407803589306,0.922385236517272,0.923449676880814,0,0.902407120738868,0.900937557550397,0.895599468563086,0.895543863469468,0,0.898816620408117,0.906108831256855,1.00074870059439,0.932187620163615,0,0.931901651110723,0.931726892245067,0.932370322614073,0.932815163363016,0,0.934030531837805,0.93388754731136,0.934022588253003,0.934022588253003,0,0.933863716556952,0.937732242355792,0.94081435325918,0.943348356811192,0,0.944071223028224,0.945080058298147,0.947510795247726,0.94864672787449,0,0.948694389383306,0.947232769779637,0.949321932582707,0.948559348441663,0,0.951260167274528,0.951450813309789,0.954660021570018,0.959013106041814,0,0.957384671157292,0.95747205059012,0.95968831075003,0.960371459043049,0,0.961833078646718,0.963278811080781,0.965082004830959,1.09587312860488,0,0.966281486136143,0.967290321406067,0.964327364274717,0.962023724681979,0,0.95934673660352,0.959076654720234,0.957591204362158,0.956820676636311,0,0.950862988034401,0.949607901635599,0.948797655985739,0.954699739494031,0,0.965153497094182,0.960554161493507,0.935063197862136,0.931885763941118,0,0.944285699817893,0.943213315869549,0.941402178534568,0.935555700119894,0,0.932394153368481,0.951990977076362,0.994044315021043,0.959561213393189,0,0.959330849433915,0.949838265594872,0.966480075756207,0.977156253730829,0,0.996753077438711,0.969999083823735,0.968322987430398,0.979594934265211,0,1.00404528828745,0.993281730879998,0.995736298583985,1.00696058390998,0,1.00355278602969,1.04010121970621,1.00976466934528,1.01297387760551,0,0.997539492334163,0.982216317250051,0.98202567121479,0.983987736661019,0,1.01067818159757,0.999080547785857,0.998087599685539,0.958901895854578,0,0.963318529004794,0.965232932942207,0.97772024825181,0.984504069673185,0,0.983225152519975,0.97725157674846,0.968394479693621,0.98448818250358,0,0.993440602576049,0.977124479391619,0.976616089964256,0.976965607695568,0,0.954755344587649,0.951434926140184,0.94465110471881,0.947717328452593,0,0.948638784289688,0.979015052574625,1.03411175676509,0.980993005190459,0,0.980460785008689,0.967758992909417,0.981485507448217,0.981699984237886,0,0.968823433272958,0.973462486797645,0.973732568680932,0.982359301776497,0,1.17495945889904,0.973804060944155,1.19216526358135,1.17711217038053,0,0.969411258548347,0.969570130244398,0.966821649902717,0.964160548993863,0,0.963207318817558,0.963707764660118,0.960681258850348,0.946041232059255,0,0.944603443209995,0.94552489904709,1.05916582323232,1.05242171973496,0,1.11801189944958,0.924482342905145,0.930876928671194,0.987403478126114,0,0.927683607580571,0.922019831616355
0.87776612068137,0,0.871474801517753,0.870251489458161,0.870044956253295,0.876661962393816,0,0.876852608429077,0.877853500114198,0.879370724811484,0.879942662917267,0,0.880030042350095,0.883326630043152,0.88294533797263,0.88553494661826,0,0.886686766414629,0.888656775445661,0.889125446949011,0.892469696150883,0,0.888744154878489,0.895234063662169,0.899626866057977,0.900182916994155,0,0.895003699702895,0.89629850402571,0.894940151024475,0.89317667519831,0,0.895837776107163,1.01790684376789,0.924180486682648,0.924172543097845,0,0.905862580127976,0.900929613965595,0.899571260964359,0.897013426657939,0,1.02365005558013,0.908293317077555,0.945953852626427,0.931623625642634,0,0.931504471870596,0.931583907718621,0.932084353561181,0.932386209783678,0,0.93229883035085,0.932878712041436,0.933998757498595,0.933744562784914,0,0.936246791997716,0.937907001221448,0.938542488005652,0.942450731728504,0,0.942426900974097,0.944778202075651,0.948289266558376,0.949433142769943,0,0.94589824753281,0.946192160170504,0.951363433876962,0.951569967081828,0,0.955279621184617,0.956836563805916,0.963358246928806,0.964573615403596,0,1.13674287241399,0.964112887485048,1.10938516635402,0.961936345249151,0,0.962389129582896,0.964653051251621,0.964279702765902,0.957273460970056,0,0.956955717577954,0.962690985805393,0.962897519010259,0.960395289797457,0,0.960848074131202,0.959672423580425,0.96274659089901,0.966352978399366,0,0.928906919640163,0.938566318760059,0.94421420755467,0.945858529608797,0,0.996395616122597,0.944071223028224,0.941974116640352,0.941060604388059,0,0.940417174019053,0.939527492521167,0.941378347780161,0.957360840402884,0,0.935984653699232,0.949599958050796,0.970682232116754,0.990128127713388,0,0.993186407862368,0.992622413341387,0.966591285943443,0.961157873938501,0,0.9789356167266,0.974884388477301,0.973700794341722,0.982875634788663,0,0.98929405130912,1.00159866416826,1.00180519737313,1.00418827281389,0,1.03170485056991,1.00418827281389,1.01290238534229,1.00485553393731,0,1.02156089277706,1.0107496738608,1.00258366868378,1.0017019307707,0,0.998103486855144,0.993663022950521,0.995633031981552,0.982883578373465,0,1.03466780770126,0.99999406003815,0.978959447481007,0.979150093516268,0,0.981191594810523,0.97634600808097,0.976330120911365,0.980222477464612,0,0.984249874959503,0.986696499078688,0.989865989414903,0.96524087652701,0,0.963477400700845,0.96826738233678,0.95067234199914,0.994648027466036,0,0.950211614080592,0.956463215320196,1.03660604239309,0.947566400341344,0,0.953190458381547,0.967036126692385,0.97092053966083,0.981731758577096,0,0.971778446819505,0.971111185696092,1.11582741362888,0.985497017773503,0,1.16866813973542,0.980540220856714,1.10894826918988,1.16607853108979,0,0.971381267579378,0.971007919093658,0.968473915541646,0.96449417955557,0,0.962603606372564,0.962841913916641,0.954437601195547,0.942546054746135,0,0.943443679828823,0.943292751717574,0.998500666095271,0.983105998747937,0,1.11626431079302,0.921678257469846,0.927127556644393,0.932402096953283,0,0.927421469282087,0.921265191060113
0.919271351274674,0,0.877543700306898,0.875827885989548,0.875470424673434,0.879910888578057,0,0.878465156143994,0.878369833126363,0.882524327978095,0.882357512697241,0,0.882992999481445,0.882484610054082,0.883406065891178,0.884208367956235,0,0.885368131337406,0.886742371508247,0.886575556227394,0.885415792846222,0,0.883954173242553,0.886615274151406,0.889006293176973,0.896878385716296,0,0.895043417626908,0.896004591388016,0.892032798986743,0.891444973711354,0,0.894598576877965,0.895647130071901,0.980349574821453,0.911589904770612,0,0.908722270656893,0.902685146206958,0.903114099786295,0.906553672005798,0,0.904734591086014,0.906982625585135,0.90824565556874,1.01310097496235,0,0.931949312619538,0.931536246209806,0.93267217883657,0.933530085995245,0,0.933315609205576,0.935531869365487,0.936175299734493,0.938002324239079,0,0.939193861959461,0.939074708187422,0.938653698192887,0.943729648881714,0,0.944079166613026,0.945985626965637,0.946978575065956,0.947598174680554,0,0.942411013804492,0.944579612455587,0.952038638585178,0.952928320083063,0,0.955803897781585,0.959497664714769,1.04804480450875,0.967131449710016,0,1.10144952513627,0.96870427950092,0.968140284979939,1.07802389355356,0,1.11974360093654,1.18188626484686,1.09739829688697,1.09812116310401,0,0.956788902297101,0.950124234647764,0.975488100922295,0.971992923609174,0,0.960991058657648,0.984440520994764,0.942657264933371,0.947081841668389,0,0.927731269089386,0.938002324239079,0.939980276854912,0.942895572477447,0,0.941171814575294,0.940957337785626,0.943237146623956,0.941584880985027,0,0.941839075698708,0.942585772670148,0.953190458381547,0.952094243678796,0,0.954254898745088,0.949282214658694,0.971714898141085,0.971428929088193,0,0.989365543572343,0.961801304307507,0.962095216945202,0.960848074131202,0,0.974677855272435,0.97126211380734,0.977831458439046,0.995855452356023,0,1.03843306689767,1.00133652586978,1.01037632537508,1.00412472413547,0,1.00410883696587,1.00672227636591,1.01225895497328,1.00226592529168,0,1.0017178179403,1.00172576152511,1.01885213035939,1.05385950858422,0,1.01611159360252,1.01472146626207,1.01479295852529,1.01256875478058,0,1.00765961937261,1.04611451340173,1.03693967295479,0.985409638340675,0,0.98498862834614,1.00151922832024,0.999191757973093,1.00156688982905,0,0.997738081954227,0.98932582564833,0.988849210560177,0.998667481376125,0,0.976671695057874,0.962794252407826,0.956272569284935,0.955295508354222,0,0.954143688557853,1.0063886458042,0.947137446762007,0.99097809128726,0,0.9408779019376,0.975742295635976,0.975527818846307,0.965852532556806,0,0.964152605409061,1.13944369124685,0.983161603841554,0.987101621903617,0,0.98583064833521,0.982923296297478,1.10556430206399,1.18556414461043,0,1.16717474579254,1.14835639339531,1.17157549177315,1.15548178896319,0,0.965630112182335,0.954302560253904,0.952126018018006,0.951935371982745,0,0.943928238501778,1.00147951039623,1.12194397392684,1.00217854585885,0,1.12329438334327,1.02079036505122,1.02142585183542,1.12740121668619,0,0.917317229413248,0.917206019226012
0.884399013991496,0,0.880316011402987,0.8834775581544,0.880609924040681,0.880713190643114,0,0.881451944029751,0.882460779299675,0.882873845709407,0.883501388908808,0,0.884526111348337,0.880641698379891,0.880609924040681,0.882230415340401,0,0.881912671948299,0.884875629079649,0.883699978528872,0.883469614569598,0,0.883128040423088,0.884430788330706,0.890428194856629,0.896306447610513,0,0.896076083651239,0.89667185251143,0.8962667296865,0.894535028199545,0,0.893430869911991,0.893001916332653,0.978911785972192,0.910819377044765,0,0.910104454412536,0.910390423465427,0.905362134285416,0.908158276135912,0,0.905902298051989,1.02075859071201,0.912709950227771,0.923926291968966,0,0.93142503602257,0.938447164988021,0.93791494480625,0.996514769894635,0,0.936866391612314,0.939090595357027,0.985338146077452,0.941362460610556,0,0.943133880021523,0.941982060225154,0.942434844558899,0.94377731039053,0,0.947804707885421,0.947010349405166,0.948193943540745,0.949004189190605,0,0.943364243980797,0.943427792659218,0.945540786216695,1.00213882793484,0,0.964247928426691,1.11081501161847,1.13962639369731,1.05948356662442,0,1.09754922499822,1.09431618598359,0.970753724379977,1.09541240068634,0,0.974685798857237,0.973097081896728,0.972660184732588,0.97079344230399,0,0.971135016450499,0.970714006455964,0.942148875506008,0.946708493182669,0,0.948805599570542,0.971309775316155,0.971333606070563,0.966241768212131,0,0.944897355847689,0.934094080516226,0.944452515098746,0.940893789107205,0,0.942132988336403,0.946144498661688,0.942442788143702,0.941616655324237,0,0.945421632444657,1.00501440563336,0.962548001278947,0.971563970029837,0,0.94942519918514,0.944833807169268,0.978848237293772,0.978927673141797,0,0.960887792055214,0.964653051251621,0.963755426168934,0.96991964797571,0,0.978538437486472,0.979038883329033,0.978991221820217,0.988928646408203,0,0.998866070996188,1.03973581480529,1.03095815359848,1.00560223090875,0,1.007000301834,1.02258561521659,1.02152911843785,1.01549199398792,0,1.0503643312711,1.04670233867712,1.04032364008068,1.04400946342906,0,1.06680755181237,1.02832088344403,1.01901894564025,1.06826917141604,0,1.05311281161278,1.0269784176124,1.02622377705616,1.00255189434457,0,1.0098202744389,0.993186407862368,0.993806007476966,1.00753252201577,0,1.00729421447169,1.00898619803463,1.0010743875713,0.991081357889693,0,0.97946783690837,0.980222477464612,0.982700875923007,0.982001840460383,0,1.01090854555685,0.951569967081828,1.01634990114659,0.94902007636021,0,0.937207965758824,0.955192241751789,0.952594689521356,0.947343979966873,0,0.946700549597867,1.03203053754682,0.980635543874345,0.977513715046944,0,0.979428118984358,0.98199389687558,0.982708819507809,0.98795158547749,0,0.987292267938878,1.13894324540429,1.12048235432317,1.16093108813774,0,1.00489525186132,1.10384054416184,1.10299852417277,1.11477886043494,0,1.11249905159661,1.04400151984426,1.11987864187818,0.899595091718767,0,0.90013525548534,1.12077626696087,0.974749347535658,0.913305719087962,0,0.913718785497694,0.916832670740292
0.891341707108921,0,0.888418467901584,0.884248085880247,0.886790033017062,0.884486393424324,0,0.891627676161813,0.885741479823126,0.885288695489381,0.885955956612795,0,0.880506657438248,0.880022098765293,0.881134200637649,0.882842071370197,0,0.881960333457114,0.88250844080849,0.882889732879012,0.882826184200592,0,0.882722917598158,0.885717649068719,0.893669177456067,0.897990487588653,0,0.898943717764958,0.902947284505441,0.898212907963124,0.896910160055506,0,0.894241115561851,0.894733617819609,0.898212907963124,0.912479586268497,0,0.9103030440326,0.911311879302523,0.913742616252102,0.910739941196739,0,0.911367484396141,1.04311978193117,1.02071887278799,0.923266974430355,0,1.03632007334019,0.940695199487142,0.946605226580236,0.947788820715815,0,0.949226609565076,0.949464917109153,1.0079376448407,1.07108120043614,0,1.06026998151987,0.948805599570542,1.08115366596577,0.94686736487872,0,0.9499256450277,0.950084516723751,0.950545244642299,0.951458756894592,0,0.941815244944301,1.10704975242207,1.08710341098287,1.06242269300136,0,0.96776693649422,0.974097973581849,0.97338305094962,0.978808519369759,0,0.978729083521733,0.9751941882846,0.975059147342957,0.977839402023848,0,0.979412231814753,0.979110375592256,1.11691568474683,1.11887775019306,0,0.963644215981698,0.968164115734347,0.953849775920158,0.952586745936554,0,1.01229072931249,0.972342441340486,0.952467592164515,0.981699984237886,0,0.93832006763118,0.938391559894403,0.943245090208759,0.947185108270822,0,0.948916809757777,0.943975900010593,0.943388074735205,0.941155927405689,0,0.973454543212843,0.960244361686208,0.960347628288641,0.969292104776309,0,0.950171896156579,0.949679393898822,0.9549142162837,0.960514443569495,0,0.986839483605133,0.952594689521356,0.980556108026319,0.982319583852484,0,0.979459893323568,0.979483724077975,0.987006298885987,0.991557972977846,0,0.994028427851438,1.04775089187106,1.02329259426402,1.00961374123403,0,1.00997914613495,1.01067023801277,1.01089265838724,1.00960579764923,0,1.01151225800184,1.01763676188461,1.04576499567042,1.05203248407963,0,1.04159461364909,1.02770128382943,1.02879749853218,1.03402437733226,0,1.04247635156217,1.02711345855404,1.03389727997542,1.01303742628393,0,1.01590506039765,1.00757223993978,1.0082553882328,1.01746200301895,0,1.04486737058773,1.00648396882183,1.00479198525889,0.996054041976087,0,1.00499851846375,0.995640975566355,1.03955311235483,0.970316827215837,0,0.991303778264164,1.00248040208135,1.0020355613324,1.03421502336752,0,1.0341594182739,0.957225799461241,0.937064981232378,0.937843452543028,0,0.949504635033166,0.957281404554858,0.981835025179529,0.981437845939402,0,0.983542895912077,0.986974524546777,0.988769774712152,0.989111348858662,0,0.987228719260458,0.985965689276853,1.17897891280912,1.11974360093654,0,1.22394754637634,1.1330570490656,1.18987751115822,1.02724849949569,0,1.11503305514863,0.897378831558857,0.896552698739392,0.896687739681035,0,0.898292343811149,0.899650696812385,1.01563497851436,0.914815000200446,0,0.914751451522025,0.919358730707502
0.889625892791571,0,0.889109559779406,0.885741479823126,0.889355810908285,0.889188995627431,0,0.892779495958182,0.889737102978807,0.885900351519177,0.880943554602388,0,0.88079262649114,0.881404282520936,0.880570206116669,0.882969168727038,0,0.884248085880247,0.88304066099026,0.884375183237088,0.884970952097279,0,0.973740512265734,0.980516390102307,0.979118319177058,0.901430059808155,0,0.90390845826655,0.903368294499976,0.902542161680512,0.89919791247864,0,0.896655965341825,0.896846611377086,0.900794573023951,0.910533407991873,0,0.914513143977949,0.916062143014446,0.916721460553057,0.915800004715961,0,0.915704681698331,0.920772688802356,0.922575882552534,0.924236091776266,0,0.938335954800785,0.940329794586224,0.942268029278046,0.946001514135243,0,0.948821486740147,0.950370485776643,0.952157792357216,0.952721786878197,0,0.953277837814375,1.01817692565118,0.954040421955419,0.954374052517126,0,1.04201562364362,0.954421714025942,0.952515253673331,0.950958311052032,0,1.06484548636614,0.958028101526298,0.957170194367623,1.07529924396629,0,0.971238283052932,0.973494261136856,0.976306290156957,0.979579047095606,0,0.979285134457912,0.97603620827367,0.976131531291301,0.977021212789186,0,0.980794415570395,0.980143041616587,0.978649647673708,0.985838591920012,0,1.12199163543566,0.973835835283365,0.959815408106871,0.960284079610221,0,0.946096837152873,0.947383697890886,0.963270867495978,0.945469293953472,0,0.943268920963167,0.942387183050084,0.944253925478682,0.947884143733446,0,0.956002487401648,0.957281404554858,0.942633434178963,0.943086218512708,0,0.976830566753925,0.960673315265546,0.970618683438334,0.969498637981175,0,0.968148228564742,0.969744889110054,0.976528710531428,0.957686527379788,0,0.960133151498973,0.971579857199442,0.97166723663227,0.974209183769085,0,0.977942668626281,0.989826271490891,0.984392859485949,0.998381512323233,0,0.99690400554996,1.06390019977464,1.02131464164818,1.02404723482026,0,1.02520699820143,1.02638264875221,1.02896431381304,1.04046662460712,0,1.03825830803202,1.0185502741369,1.04434309399077,1.08309984424239,0,1.04619394924976,1.04544725227832,1.04797331224553,1.04702802565403,0,1.05916582323232,1.02710551496924,1.02832088344403,1.02140996466581,0,1.02302251238073,1.02372154784336,1.01878858168097,1.02778866326226,0,1.04532015492148,1.02068709844878,1.02018665260622,1.01603215775449,0,1.00979644368449,0.99487839142531,0.993702740874533,0.989873932999706,0,0.983002732145503,0.96904585364743,1.00217060227405,1.00862873671852,0,1.042563730995,1.00104261323209,0.942569885500543,0.940719030241549,0,0.94683559053951,0.946962687896351,1.1910849360482,1.00893853652582,0,0.984535844012395,0.984750320802064,0.985687663808764,0.988166062267159,0,0.988412313396037,1.07108120043614,1.16639627448189,1.1751659921039,0,1.14759380925426,1.12188042524842,1.11007625823184,1.13923715804198,0,0.896425601382551,0.895750396674335,0.894233171977048,0.894836884422042,0,0.897434436652474,0.899618922473174,0.906617220684218,0.910724054027134,0,0.910946474401606,0.917436383185286
0.889657667130781,0,0.888815647141712,0.886011561706413,0.888402580731979,0.890396420517418,0,0.892644455016539,0.892437921811673,0.886488176794565,0.885447567185432,0,0.881340733842515,0.882357512697241,0.884271916634655,0.885868577179967,0,0.884446675500311,0.886162489817661,0.893152844443902,0.893462644251201,0,0.987554406237362,0.902844017903008,0.902867848657416,0.905362134285416,0,0.906728430871453,0.902859905072613,0.902708976961365,0.902589823189327,0,0.902542161680512,0.901859013387493,0.904933180706078,1.068150017644,0,0.920677365784725,0.924148712343438,0.924895409314877,0.919573207497171,0,0.962381185998093,0.922679149154967,0.922861851605425,0.927437356451692,0,0.931885763941118,0.940313907416619,0.944762314906046,0.946859421293918,0,0.948829430324949,0.95191948481314,1.04941110109479,0.954381996101929,0,1.05056292089116,0.958361732088005,0.956423497396183,0.958750967743329,0,0.95962476207161,0.966448301416997,1.06224793413571,0.953452596680031,0,1.14664057907796,0.95319840196635,0.955311395523827,0.963858692771367,0,0.967941695359876,1.07631602282102,1.10005939779583,0.974312450371518,0,1.20503387096148,1.16124088794504,0.974439547728358,0.973835835283365,0,0.97647310543781,0.978848237293772,0.979491667662778,0.984750320802064,0,0.986625006815465,0.978959447481007,0.96049855639989,0.959640649241215,0,0.995116698969387,0.945127719806963,0.946589339410631,0.945532842631892,0,0.993909274079399,0.950283106343815,0.951426982555382,0.946104780737676,0,0.957686527379788,0.954842724020477,0.945763206591166,0.945953852626427,0,0.953039530270299,0.962818083162233,0.97204058511799,0.970833160228002,0,0.978101540322332,0.964112887485048,0.982081276308408,0.980429010669478,0,0.989301994893923,0.97307325114232,0.988245498115184,0.995410611607081,0,0.976083869782486,0.97600443393446,0.987419365295719,1.01041604329909,0,1.01796244886151,1.02122726221536,1.01314069288636,1.01892362262262,0,1.04699625131482,1.02160855428588,1.02394396821783,1.05890368493383,0,1.02827322193521,1.02805874514555,1.07607771527694,1.06733977199414,0,1.06793554085433,1.06142180131624,1.05080917202004,1.05123018201457,0,1.0456935034072,1.04535192926069,1.02683543308595,1.02569950045919,0,1.02648591535464,1.03463603336205,1.0285353602337,1.03492994599975,0,1.0519212738924,1.02701813553641,1.02926617003553,1.02179920032114,0,1.02098895467128,0.99958893721322,0.998000220252711,1.01209213969243,0,0.998881958165794,1.00477609808928,0.985981576446458,1.00654751750025,0,1.04199973647402,0.982232204419657,0.976743187321097,0.943769366805727,0,0.944388966420326,0.95797249643268,1.01111507876171,1.0070082454188,0,1.00719889145406,0.985663833054357,0.984575561936408,0.992010757311591,0,0.991708901089094,1.16601498241137,1.07815893449521,1.09127379300421,0,1.24241638104226,1.100615448732,1.15295572899598,0.898872225501735,0,0.897474154576487,0.880220688385356,0.893256111046335,0.893907485000144,0,0.898197020793519,1.02340380445125,1.02241085635094,0.910716110442332,0,0.910390423465427,0.911828212314688
0.891135173904055,0,0.88943524675631,0.886670879245024,0.889530569773941,0.890364646178208,0,0.891603845407405,0.89451914102994,0.894471479521125,0.885685874729508,0,0.981231312734536,0.886821807356272,0.887028340561139,0.938733134040913,0,0.940162979305371,0.897331170050041,0.901628649428219,0.981779420085911,0,0.908595173300052,0.911160951191274,0.913202452485529,0.913289831918357,0,0.915537866417477,0.915768230376751,0.90303466393827,0.903948176190562,0,0.904107047886613,0.91005679290372,1.00877172124496,0.916673799044242,0,0.9240295585714,0.924347301963501,0.925681824210329,0.925864526660788,0,0.927071951550775,0.926809813252291,1.01657232152106,0.932195563748417,0,0.944388966420326,0.944381022835523,0.953976873276999,1.04555051888075,0,1.0781351037408,1.09690579462922,1.04106239346731,1.02154500560746,0,1.02571538762879,1.1336766486802,1.04760790734461,0.961451786576195,0,1.05166707917871,1.050690018248,1.0516353048395,0.954564698552388,0,0.95628845645454,0.956328174378553,0.95619313343691,0.967441249517315,0,0.968005244038296,0.971413041918588,0.972398046434104,0.971500421351416,0,0.97038831947906,0.970785498719187,0.968847264027366,0.974161522260269,0,1.09762866084625,1.04466083738287,0.979523442001988,0.982248091589262,0,0.972350384925289,0.993106972014342,1.0010982183257,0.966194106703315,0,0.962015781097176,0.965145553509379,0.973931158300995,0.951403151800974,0,0.95204658216998,0.955422605711063,0.949171004471459,0.984917136082917,0,0.985250766644624,0.954397883271534,0.949377537676325,0.949028019945013,0,0.951411095385777,0.982120994232421,0.983105998747937,0.975718464881568,0,0.981469620278612,0.983153660256752,0.97166723663227,0.981771476501109,0,0.981572886881045,0.97428861961711,0.985902140598433,0.976171249215314,0,0.976457218268205,0.99521996557182,0.996673641590686,1.01476118418608,0,1.06969901668049,1.03075956397841,1.02676394082273,1.02809051948476,0,1.03091049208966,1.03543833542711,1.03263424999181,1.05338289349606,0,1.04615423132575,1.04010916329101,1.12176921506119,1.11954501131647,0,1.07888974429704,1.07201854344284,1.06020643284145,1.05343849858968,0,1.04547108303273,1.04034747083509,1.05868920814416,1.04535192926069,0,1.04871206563217,1.03533506882468,1.05228667879331,1.07254282003981,0,1.05229462237812,1.03987085574693,1.03454865392923,1.04202356722842,0,1.02462711651085,1.0207506471272,0.999843131926902,0.998564214773692,0,0.996411503292202,1.00507795431178,0.994115807284266,0.996085816315297,0,1.0035766167841,1.00490319544612,0.999398291177959,1.00412472413547,0,0.966384752738577,0.965701604445558,1.01739051075573,1.02388041953941,0,1.01404626155385,1.01889184828341,1.13799795881279,0.993678910120126,0,0.993734515213744,1.16576078769769,1.06530621428469,1.10820951580324,0,1.06243858017097,1.04874383997138,0.898149359284704,0.898991379273773,0,0.896687739681035,0.895091079135723,0.892374373133252,0.894336438579481,0,0.899301179081073,0.912837047584612,0.911359540811338,0.910247438938982,0,0.910271269693389,0.910422197804638
0.895925155539991,0,0.904798139764435,0.971135016450499,0.976187136384919,0.905957903145607,0,0.8987610153145,0.898665692296869,0.898649805127264,0.978792632200154,0,0.978951503896205,1.00159866416826,0.971095298526487,0.898681579466474,0,0.902065546592359,0.902415064323671,0.905942015976002,0.90830920424716,0,0.910390423465427,0.910739941196739,0.911486638168179,0.91473556435242,0,0.91476733869163,0.915124800007745,0.914473426053936,0.907935855761441,0,1.01210008327723,1.00915301331549,1.03114085604893,0.922202534066814,0,0.924688876110011,0.926793926082686,0.929049904166609,1.31266944503598,0,0.996244688011348,0.987697390763808,1.02492102914854,0.93825651895276,0,0.947169221101217,0.951784443871496,0.965725435199965,0.998985224768227,0,0.990898655439234,0.978085653152727,0.982073332723606,0.980301913312638,0,0.993583587102495,0.984647054199631,0.984670884954038,1.04464495021326,0,1.04705979999324,1.05269974520305,1.13358926924737,1.09603200030094,0,1.05672714269794,1.11550172665198,0.958210803976756,0.959672423580425,0,0.960427064136667,1.07568053603681,0.971905544176346,0.971007919093658,0,0.970205617028601,0.970515416835901,0.971222395883327,0.972596636054168,0,1.04031569649588,0.998365625153628,0.99834179439922,0.984289592883516,0,0.996618036497068,1.00132858228498,1.00354484244489,0.977156253730829,0,0.963278811080781,0.96692491650515,0.962563888448552,0.957821568321432,0,0.958115480959126,0.9570987021044,0.951744725947483,0.956780958712298,0,0.960895735640017,0.96018875659259,0.953627355545687,0.953841832335356,0,0.954501149873967,0.994798955577285,0.994266735395514,0.982875634788663,0,0.979896790487708,0.982740593847019,0.979769693130867,0.974797009044473,0,0.979142149931466,0.980985061605657,0.987697390763808,0.975337172811046,0,0.985123669287783,0.99693577988917,1.00144773605702,1.01515836342621,0,1.01914604299709,1.02966334927566,1.03439772581798,1.02801108363673,0,1.03673313974993,1.03673313974993,1.03691584220039,1.05304926293436,0,1.05482862593013,1.05503515913499,1.07417919850913,1.11458821439968,0,1.09860572177696,1.07889768788184,1.10917068956435,1.06791171009992,0,1.05023723391426,1.04595564170568,1.0550510463046,1.07884208278822,0,1.06187458564999,1.05696545024201,1.04605890830812,1.05075356692642,0,1.05899900795146,1.05579774327604,1.05512253856782,1.15232818579658,0,1.10634277337464,1.10582644036247,1.01996423223175,1.00310794528075,0,1.0092006748243,1.03952928160042,1.01329162099761,1.00398968319383,0,1.00402145753304,1.00348923735127,1.01007446915258,0.982065389138803,0,0.971127072865697,1.01503126606937,0.984742377217261,0.992828946546253,0,0.98586242267442,1.11236401065497,0.989873932999706,1.07459226491886,0,1.116828305314,1.14760969642387,1.24262291424713,1.05219135577568,0,1.03153009170426,0.93532533616062,0.897339113634844,0.898022261927863,0,0.897410605898067,0.897267621371621,0.898959604934563,1.06579077295764,0,0.996792795362724,0.91376644700651,0.912995919280663,0.912678175888561,0,0.911947366086727,0.913138903807108
0.919255464105069,0,0.913774390591312,0.912074463443567,0.906053226163237,0.899380614929098,0,0.898903999840945,0.898880169086538,0.912781442490994,0.913075355128688,0,1.02334025577283,0.904798139764435,0.901986110744333,0.902494500171697,0,1.03550188410553,0.913583744556051,1.24061318729208,0.910922643647198,0,0.914004754550586,0.914473426053936,1.23344807380018,1.0232211020008,0,0.921694144639451,0.921376401247349,0.916244845464904,0.916808839985885,0,1.00435508809475,0.975106808851772,0.927604171732545,0.979698200867644,0,1.00715122994524,0.935333279745423,0.963509175040055,0.996395616122597,0,0.987633842085388,0.985918027768038,0.985449356264688,0.944293643402695,0,0.952745617632604,0.965908137650424,0.998476835340864,0.978101540322332,0,0.977442222783721,0.978109483907135,0.981414015184994,0.980524333687109,0,0.982097163478013,0.984551731182,0.983328419122408,0.983701767608127,0,0.987379647371707,0.990723896573579,0.991573860147451,0.992749510698228,0,1.12547886916397,0.968688392331315,1.06524266560627,0.960299966779826,0,0.961666263365864,0.963366190513609,0.962468565430921,1.1121415902805,0,0.972866717937454,0.973947045470601,0.972064415872397,1.09905850611071,0,1.13611532921458,1.02371360425855,1.01358553363531,1.02718495081727,0,0.959434116036349,0.953301668568783,0.955668856839942,0.962158765623622,0,0.968378592524016,0.968108510640729,0.966273542551341,0.957781850397419,0,0.95675712795789,1.00402940111784,0.95753559926854,0.966448301416997,0,0.968076736301519,0.970698119286359,0.971579857199442,0.990692122234368,0,0.96106255092087,0.975956772425645,1.00954224897081,0.978387509375224,0,0.979173924270676,0.988348764717617,0.990175789222203,0.9889207028234,0,0.994886335010113,0.99363124861131,0.99656243140345,0.995982549712864,0,1.01065435084317,1.00446629828198,1.01835962810164,1.01873297658736,0,1.02867040117534,1.03179223000274,1.03025117455105,1.04357256626492,0,1.05984102794053,1.05978542284692,1.06871401216498,1.06074659660802,0,1.05674302986754,1.09470542163891,1.08492686874698,1.13977732180856,0,1.15745179799422,1.08785805153911,1.08425166403876,1.09465776013009,0,1.05843501343048,1.06110405792414,1.102466303991,1.10631099903543,0,1.07641134583865,1.08647586778347,1.06154095508828,1.06278809790228,0,1.06219232904209,1.06358245638253,1.06255773394301,1.08681744192998,0,1.05675097345234,1.06787199217591,1.07724542224291,1.03253098338938,0,1.0101221306614,1.01539667097029,1.01862970998492,1.02177536956673,0,1.01238605233012,1.00954224897081,1.00378314998896,1.00937543368996,0,0.974606363009212,0.968648674407302,0.970292996461429,0.986394642856191,0,0.975027373003747,0.976242741478537,0.950497583133484,0.959998110557329,0,0.94380908472974,0.979388401060345,1.13925304521159,1.0603732481223,0,1.09546800577995,0.896838667792283,0.896663908926627,0.89929323549627,0,0.899237630402652,0.900024045298104,1.01301359552952,1.00082813644242,0,0.919573207497171,0.915958876412013,0.914838830954853,0.914004754550586,0,0.914521087562752,0.913448703614408
0.908547511791237,0,0.909572234230765,0.903304745821556,0.901795464709072,0.91473556435242,0,0.914521087562752,0.910342761956612,0.910358649126217,0.911367484396141,0,1.0238486452002,1.02413461425309,0.904869632027658,0.90400378128418,0,1.02639853592181,1.02406312198987,1.01339488760005,1.01836757168644,0,0.988698282448929,0.992296726364483,1.02330053784882,1.00620594335374,0,0.926102834204864,0.921026883516037,0.9193507871227,0.920343735223018,0,1.02910729833948,0.9879833598167,0.974542814330792,1.01500743531496,0,1.00940720802917,1.04079231158403,0.950815326525586,0.962325580904475,0,1.0017019307707,1.0182563614992,0.95544643646547,0.979960339166128,0,0.961475617330603,0.968140284979939,0.967465080271723,0.972715789826206,0,0.974344224710728,0.976711412981887,0.976210967139326,0.974646080933225,0,0.974312450371518,0.978228637679173,0.980754697646383,0.987824488120649,0,1.06124704245058,0.992074305990011,0.991597690901859,0.995466216700699,0,1.09981314666695,1.11697128984045,1.05926908983475,1.08180503991957,0,1.1193146473572,1.05853033644811,0.962635380711775,0.962468565430921,0,1.16570518260407,0.984726490047656,1.12812408290322,1.05593278421768,0,0.97509886526697,0.9742568452779,0.97765669957339,1.00672227636591,0,0.964343251444322,0.963803087677749,0.965455353316679,0.963612441642488,0,0.985687663808764,0.967933751775073,0.966345034814564,0.965995517083252,0,0.957543542853343,0.959775690182858,0.978220694094371,0.983669993268917,0,0.978339847866409,0.987252550014866,0.990382322427069,0.996911949134762,0,1.0169933315156,0.984790038726076,0.982256035174064,0.981739702161898,0,0.980873851418421,0.999453896271577,1.00058188531354,1.00007349588618,0,1.00193229472997,0.995633031981552,0.993607417856903,1.01281500590946,0,1.00346540659686,1.01993245789254,1.02222021031567,1.02619994630175,0,1.0316571890611,1.04781444054948,1.03213380414925,1.03786907237669,0,1.05678274779155,1.04874383997138,1.06127881678979,1.06216055470288,0,1.06184281131078,1.06158861659709,1.06728416690052,1.12235704033657,0,1.1177735919055,1.09014580396225,1.08930378397318,1.0812569325682,0,1.0750132749134,1.07896918014507,1.11697923342525,1.08306012631838,0,1.08741321079017,1.10038508477273,1.07913599542592,1.06757807953821,0,1.07198676910363,1.05532907177269,1.0628595901655,1.07536279264471,0,1.05731496797332,1.05940413077639,1.06612440351935,1.06101667849131,0,1.04243663363815,1.03466780770126,1.05340672425047,1.06184281131078,0,1.01852644338249,1.00564194883276,1.00458545205402,1.00845397785286,0,0.967711331400602,0.968092623471124,0.968021131207901,0.965550676334309,0,0.973684907172117,0.962555944863749,0.93395109598978,0.929804544722851,0,0.939154144035448,0.925642106286316,0.929582124348379,0.929860149816468,0,1.09535679559272,0.896941934394716,0.896862498546691,0.900516547555862,0,0.899873117186856,1.06653746992908,1.06604496767132,1.07633190999062,0,0.927485017960507,0.922369349347667,0.916205127540891,0.915919158488,0,0.915633189435108,0.915458430569452
0.912018858349949,0,0.911804381560281,0.905417739379033,0.905036447308511,0.91773029582298,0,0.91804009563028,0.917444326770089,0.91167728420344,1.30364553270029,0,1.03474724354929,0.924792142712444,1.01882035602018,0.935372997669436,0,1.00725449654768,0.933323552790379,1.01632607039219,1.00478404167409,0,1.00012115739499,0.99182011127633,0.933371214299194,0.996022267636877,0,0.926301423824928,0.924990732332508,0.922536164628521,0.953095135363916,0,0.947018292989969,0.952753561217407,0.952165735942019,0.946740267521879,0,0.946708493182669,0.951562023497025,0.951458756894592,0.951673233684261,0,0.953285781399178,0.954175462897063,0.95447731911956,0.954818893266069,0,0.96230969373487,0.962508283354934,0.966424470662589,0.967909921020665,0,0.96783048517264,0.968108510640729,0.967218829142844,0.974129747921059,0,0.970984088339251,0.970936426830436,0.976298346572154,0.979126262761861,0,0.979229529364294,0.980222477464612,1.12458918766609,1.0984150757417,0,1.11411159931153,0.976210967139326,1.0868809906084,0.981564943296243,0,0.988722113203337,1.08056584069038,0.973732568680932,1.07351193738572,0,0.998389455908036,0.983431685724841,0.987379647371707,0.99054119412312,0,0.990676235064763,0.979698200867644,0.979658482943631,1.03272162942464,0,0.968068792716716,0.973526035476066,0.973319502271199,0.97385172245297,0,0.975662859787951,0.971476590597009,0.970714006455964,0.968712223085723,0,0.971158847204907,0.972302723416474,0.996435334046609,0.981612604805058,0,0.984940966837325,1.00084402361202,1.00068515191597,0.989969256017337,0,1.01546816323351,1.01634990114659,0.978705252767326,0.981660266313873,0,1.01778768999585,1.01893950979222,1.00788998333188,1.00627743561696,0,1.00552279506072,1.01052725348633,1.04551874454154,1.01337900043044,0,1.00368782697133,1.02258561521659,1.06921445800754,1.06688698766039,0,1.03964843537246,1.03271368583984,1.04269877193664,1.04251606948618,0,1.04855319393612,1.05301748859515,1.0625497903582,1.06213672394847,0,1.08333020820166,1.08622167306979,1.0862613909938,1.12504991558464,0,1.14502008777824,1.08434698705639,1.08401335649468,1.09143266470026,0,1.10004351062622,1.11278502064951,1.09711232783408,1.09843890649611,0,1.10190230947002,1.11220513895892,1.09145649545467,1.11113275501058,0,1.09399049900668,1.07112091836015,1.07328157342644,1.09758894292223,0,1.09920943422195,1.09924915214597,1.06215261111808,1.06950837064523,0,1.05764859853503,1.07013591384463,1.06581460371205,1.04752847149659,0,1.05165913559391,1.01410186664747,1.00605501524249,1.01322807231919,0,1.00410089338107,0.997698364030214,0.972358328510091,0.968291213091188,0,0.986370812101783,0.955923051553623,0.943276864547969,0.938606036684072,0,0.918548485057642,0.923791251027323,0.931996974128353,0.929637729441997,0,1.07827014468244,0.896687739681035,0.896719514020245,0.902216474703607,0,0.903336520160766,1.0519212738924,1.05289833482311,0.927230823246826,0,0.926079003450456,0.926833644006698,0.914179513416242,0.913806164930522,0,0.915736456037541,0.914830887370051
0.911367484396141,0,0.910509577237466,0.908547511791237,0.928080786820698,0.928049012481488,0,0.92334641027838,1.3476609360912,1.28977603363504,0.933434762977614,0,1.00441069318837,0.936215017658506,0.918373726191987,0.917746182992585,0,0.920359622392623,0.93051946735508,0.930638621127118,0.936445381617779,0,0.944524007361969,0.946073006398466,0.943896464162568,0.944698766227625,0,0.935071141446939,0.935309448991015,0.973311558686397,0.95329372498398,0,0.953770340072133,0.950100403893356,0.952157792357216,0.950465808794274,0,0.947471077323714,0.951188675011305,0.950966254636834,0.951784443871496,0,0.953007755931088,0.953238119890362,0.955525872313496,0.957035153425979,0,0.958464998690438,0.96106255092087,0.96315171372394,0.965312368790233,0,0.967711331400602,0.96733003933008,0.967647782722181,0.968108510640729,0,0.97132566248576,0.970404206648665,0.970999975508856,0.976417500344193,0,0.977211858824447,0.97725157674846,0.976973551280371,0.977839402023848,0,1.11054492973519,0.97556753677032,0.978697309182523,0.978752914276141,0,0.979110375592256,0.979038883329033,0.972596636054168,0.971595744369047,0,0.972215343983646,0.983995680245822,1.06980228328293,1.06980228328293,0,1.05823642381042,1.05783924457029,0.984654997784433,0.974050312073034,0,0.975623141863938,1.00457750846922,1.00366399621693,0.977609038064574,0,0.977386617690103,0.977195971654842,0.971079411356881,0.969260330437098,0,0.983185434595962,0.97990473407251,0.984694715708446,0.993289674464801,0,1.00418827281389,1.00025619833663,1.00932777218114,1.02836060136804,0,1.10241069889738,0.981795307255516,0.998731030054545,1.01737462358612,0,1.01875680734176,1.02056000109194,1.02083008297523,1.02739148402213,0,1.02878161136258,1.02685926384036,1.01549199398792,1.01549199398792,0,1.02352295822329,1.02337997369685,1.10720862411812,1.04718689735008,0,1.04072081932081,1.04293707948072,1.04827516846803,1.04505007303819,0,1.04635282094581,1.04868029129296,1.07035833421911,1.07842901637849,0,1.1336607615106,1.13266781341028,1.12114167186178,1.14691860454605,0,1.12081598488488,1.11325369215286,1.08926406604917,1.09276718694709,0,1.0990426189411,1.09710438424928,1.09627825142981,1.09805761442558,0,1.12290514768795,1.14293886855997,1.1124593336726,1.14102446462256,0,1.10191819663962,1.08367972593298,1.08237697802536,1.0641146765643,0,1.06351096411931,1.06142180131624,1.05934058209797,1.08397363857067,0,1.06599730616251,1.08727022626373,1.06973873460451,1.06028586868948,0,1.0378849595463,1.02973484153888,1.02017870902142,1.0260569617753,0,1.01946378638919,1.05075356692642,1.0603573609527,0.999128209294672,0,0.999072604201055,0.974137691505862,0.957106645689202,0.935817838418378,0,0.917158357717197,0.913687011158484,0.972207400398843,0.918349895437579,0,0.897871333816614,0.896608303833009,0.896902216470704,0.90359865845925,0,1.09642917954106,1.05134139220181,1.05140494088023,0.926722433819463,0,0.926762151743475,0.917444326770089,0.916109804523261,0.913186565315924,0,0.911184781945682,0.91389354436335
0.911589904770612,0,0.911431033074561,0.913234226824739,0.921408175586559,0.954485262704362,0,0.929637729441997,0.945167437730975,0.946692606013064,0.937771960279805,0,0.936191186904098,0.937192078589219,0.983233096104777,0.920939504083209,0,0.921400232001757,0.971119129280894,0.938367729139996,0.937303288776455,0,0.954429657610744,0.946263652433727,0.94593002187202,0.946795872615497,0,0.935015536353321,0.938995272339397,0.952126018018006,0.949147173717051,0,0.950322824267828,0.949449029939548,0.948360758821599,0.946144498661688,0,0.946128611492083,0.948622897120083,0.948305153727981,0.94864672787449,0,0.950378429361446,0.952173679526821,0.953111022533522,0.956105754004081,0,0.957035153425979,0.960307910364629,0.962238201471647,0.964510066725175,0,0.968227664412767,0.968537464220067,0.968855207612168,0.969363597039531,0,0.969689284016436,0.971182677959314,0.972127964550818,0.97472551678125,0,0.976147418460906,0.976886171847543,0.978022104474307,0.977934725041479,0,1.08273443934147,1.11411159931153,1.15166886825797,0.97853049390167,0,0.979205698609886,0.966591285943443,0.968465971956844,0.969792550618869,0,1.01570647077759,1.01592094756726,1.00386258583699,0.956931886823546,0,0.962992842027889,0.968585125728882,0.982224260834854,0.991931321463566,0,0.98202567121479,0.987403478126114,0.982851804034255,0.990398209596674,0,0.982526117057351,0.974606363009212,0.971349493240168,0.971119129280894,0,0.973716681511327,0.978927673141797,1.05158764333069,1.00401351394824,0,1.00961374123403,1.01080527895442,1.05694956307241,1.0285512474033,0,1.02835265778324,1.0126243598742,0.998016107422316,1.01571441436239,0,1.01764470546941,1.03363514167693,1.02571538762879,1.0272802738349,0,1.03183194792676,1.02560417744156,1.0235547325625,1.02298279445672,0,1.04064138347278,1.04308800759196,1.04589209302726,1.04683737961877,0,1.13339067962731,1.04678177452515,1.0541216468827,1.05642528647544,0,1.05684629646997,1.07589501282648,1.09287045354952,1.1233658756065,0,1.13474108904374,1.13464576602611,1.13074546588806,1.16103435474017,0,1.25403784560838,1.12280188108552,1.10617595809379,1.10525450225669,0,1.11655822343071,1.12215845071651,1.11913988849154,1.12814791365763,0,1.12384249069465,1.12139586657547,1.12049029790798,1.14992922318621,0,1.12519290011108,1.09785108122072,1.0815587887907,1.08201157312444,0,1.09101165470573,1.0912499622498,1.0700247036574,1.0812728197378,0,1.08170177331714,1.09130556734342,1.17786681093677,1.0806373329536,0,1.05312075519758,1.0347869614733,1.02138613391141,1.02774894533825,0,1.01600832700008,1.01331545175202,1.04112594214574,1.02193424126278,0,0.996228800841743,1.00431537017074,0.976060039028078,0.949949475782108,0,0.936834617273104,0.917499931863706,0.911168894776077,0.903002889599059,0,0.903622489213658,0.89966658398199,0.902303854136435,1.0678322742519,0,1.06766545897104,1.05899900795146,0.928207884177539,0.929018129827398,0,0.929971360003704,0.917976546951859,0.915807948300764,0.91342487286,0,0.93916208762025,0.902732807715773
0.912201560800408,0,0.913067411543886,0.943626382279281,0.952801222726222,0.925109886104546,0,0.933728675615309,0.93354597316485,0.935809894833576,0.93953543610597,0,0.940425117603855,0.938923780076174,0.919048930900203,0.921797411241884,0,0.95188771047393,0.941449840043384,0.938113534426314,0.937628975753359,0,0.941958229470747,0.986744160587503,1.00151922832024,0.94090967627681,0,0.936238848412913,0.939527492521167,0.948281322973573,0.948916809757777,0,0.951625572175445,0.950656454829535,0.949171004471459,0.947820595055026,0,0.946168329416096,0.949067737869026,0.950100403893356,0.949266327489089,0,0.950243388419802,0.952165735942019,0.952809166311025,0.956701522864272,0,0.9570987021044,0.960403233382259,0.962937236934271,0.96449417955557,0,0.970864934567213,0.969721058355646,0.968823433272958,0.96910940232585,0,0.969649566092423,0.971961149269964,0.974947937155721,0.975750239220779,0,0.977243633163657,0.978045935228714,0.977998273719899,1.14505980570225,0,1.18079799372891,1.09585724143528,1.09173452092276,0.976187136384919,0,0.976020321104065,0.980762641231186,0.969403314963544,0.99434617124354,0,0.959005162457011,0.953897437428974,0.962007837512374,0.957654753040578,0,0.977124479391619,0.977108592222014,0.976711412981887,0.980222477464612,0,0.984607336275618,0.987268437184471,0.983256926859185,0.986227827575337,0,0.984861530989299,0.9914149884514,0.980842077079211,0.983534952327274,0,0.977068874298001,0.993774233137756,0.99865159420652,1.00627743561696,0,1.01290238534229,1.03252303980458,1.02980633380211,1.02044879090471,0,1.02774100175344,1.02040907298069,1.02745503270055,1.02981427738691,0,1.02959980059724,1.0587845311618,1.06436092769318,1.04828311205283,0,1.03936246631957,1.03067218454558,1.04041896309831,1.04508979096221,0,1.04799714299994,1.05658415817149,1.05490011819335,1.13629803166504,0,1.05254087350699,1.05925320266515,1.05250909916778,1.06052417623355,0,1.08702397513485,1.08022426654387,1.09069391131362,1.09448300126444,0,1.11126779595222,1.12172949713717,1.13432802263401,1.18465063235814,0,1.15476686633096,1.13881614804745,1.13232623926377,1.12196780468125,0,1.12517701294148,1.12784605743513,1.2010382478058,1.20002941253587,0,1.14163612065235,1.16030354493834,1.14451169835088,1.12916469251236,0,1.1299272766534,1.10818568504883,1.10148129947548,1.11634374664105,0,1.1109023910513,1.09130556734342,1.07789679619672,1.08665062664913,0,1.08461706893968,1.14616396398981,1.17695329868447,1.08348907989771,0,1.04841815299447,1.053184303876,1.05595661497209,1.02311783539836,0,1.01459436890523,0.999207645142698,1.01812132055756,1.01770031056303,0,1.01780357716546,1.00923244916351,0.97216768247483,0.953023643100694,0,0.931941369034736,0.920137202018152,0.92540379874224,0.906545728420995,0,0.908102671042294,0.902001997913939,1.14714102492052,1.0690953042355,0,1.06383665109621,0.934936100505296,0.932132015069997,0.931448866776978,0,1.01522191210463,1.04042690668311,0.919104535993821,0.934324444475499,0,0.906609277099415,0.937946719145461
0.978570211825683,0,0.919342843537897,0.922051605955565,0.92970922170522,0.931067574706455,0,0.933402988638404,0.934038475422608,0.934149685609843,0.940981168540033,0,0.941306855516938,0.972874661522257,0.917476101109299,0.918397556946394,0,0.992185516177247,1.08154290162109,0.984893305328509,1.0375831033238,0,0.987681503594203,1.01090060197205,0.982343414606892,0.98320926535037,0,0.976099756952091,0.927397638527679,0.972366272094894,0.974415716973951,0,1.00765961937261,0.938828457058543,0.940305963831817,0.9443095305723,0,0.945469293953472,0.954350221762719,0.950465808794274,0.951037746900057,0,0.952269002544452,0.952848884235038,0.954032478370617,0.956915999653941,0,0.959450003205954,0.960927509979227,0.962969011273482,0.965844588972003,0,0.966392696323379,0.970316827215837,0.97092053966083,0.970443924572678,0,0.970578965514321,0.971834051913123,0.97391527113139,0.976139474876103,0,0.976997382034778,0.977362786935696,1.13933248105962,1.12559802293601,0,0.958997218872208,1.09985286459096,1.09453860635806,0.975011485834142,0,0.978014160889504,0.972684015486996,0.984496126088382,0.981477563863415,0,0.948106564107917,0.962524170524539,0.959712141504438,0.959648592826017,0,0.965661886521545,0.973541922645671,1.0244682448148,0.983169547426357,0,0.988547354337681,0.988261385284789,0.990080466204572,0.987689447179006,0,0.988475862074458,0.994791011992482,0.993829838231374,0.993186407862368,0,0.99871514288494,1.01519808135022,1.00642836372821,1.006396589389,0,1.03340477771766,1.03325384960641,1.03096609718328,1.03137122000821,0,1.02341969162086,1.02567566970478,1.02001983732537,1.02027403203905,0,1.04250812590138,1.0594120743612,1.06091341188888,1.05374035481218,0,1.04087969101686,1.04878355789539,1.05074562334162,1.05153203823707,0,1.05416136480671,1.0538039034906,1.05566270233439,1.0809391891761,0,1.08076443031044,1.12893432855308,1.12727411932935,1.0815667323755,0,1.08259145481503,1.10350691360013,1.09692962538362,1.11766238171827,0,1.12315139881683,1.14685505586763,1.1492778492324,1.18654120554115,0,1.16255952302226,1.24839790039858,1.13726714901095,1.12206312769888,0,1.12145941525389,1.15212165259171,1.1445831906141,1.20188821137967,0,1.28195954618933,1.21306483519685,1.1461401332354,1.13923715804198,0,1.12593959708252,1.11872682208181,1.11095005256012,1.11488212703738,0,1.10292703190955,1.12444620313964,1.12454946974208,1.09724736877572,0,1.15126374543304,1.11709838719729,1.15648268064831,1.11490595779179,0,1.06957191932365,1.05548794346874,1.05576596893683,1.04816395828079,0,1.03615325805934,1.04831488639204,1.0360261607025,1.03536684316389,0,1.00100289530807,0.982176599326039,0.984257818544306,0.959783633767661,0,0.933720732030506,0.929796601138048,0.911788494390675,0.919485828064343,0,0.898038149097468,0.910358649126217,1.06954808856925,1.06552863465916,0,0.933101132415907,0.93859809309927,0.93304552732229,0.932227338087627,0,0.937001432553958,1.02673216648352,0.925602388362304,1.03474724354929,0,0.926658885141042,0.937207965758824
0.919684417684407,0,0.920113371263744,0.920137202018152,0.961141986768896,0.963763369753736,0,0.968060849131914,0.968219720827965,0.971897600591544,1.01032072028146,0,1.03529535090067,0.987300211523681,0.918627920905668,0.917825618840611,0,0.914044472474599,0.915776173961554,0.915378994721427,0.915585527926293,0,0.916236901880101,0.982271922343669,0.915760286791949,0.919390505046712,0,0.920574099182292,0.924069276495412,0.929161114353844,0.931846046017105,0,0.934975818429308,0.93660425331383,0.938812569888938,0.945111832637358,0,0.946279539603332,0.954318447423509,0.953968929692197,0.95379417082654,0,0.954111914218642,0.954302560253904,0.956050148910464,0.958171086052744,0,0.961769529968297,0.962532114109342,0.965431522562271,0.966718383300283,0,0.968450084787239,0.971579857199442,0.972421877188512,0.973279784347187,0,0.974336281125925,0.974415716973951,0.974280676032308,0.977259520333262,0,0.977736135421415,0.97762492523418,1.12976840495735,0.961594771102641,0,0.961729812044284,0.958163142467941,0.975170357530193,0.975106808851772,0,0.973875553207378,1.02926617003553,0.960625653756731,0.955088975149356,0,0.95288860215905,0.949202778810669,0.949544352957178,0.959116372644247,0,1.01078144820001,0.979412231814753,1.05268385803344,0.990016917526152,0,0.988023077740713,0.990366435257464,0.988062795664725,0.999191757973093,0,0.999247363066711,1.0079535320103,1.00758018352458,1.07228068174132,0,1.03506498694139,1.00892264935621,1.02428554236434,1.02649385893944,0,1.0669108184148,1.04254784382539,1.03237211169333,1.03983908140772,0,1.02867040117534,1.02373743501296,1.02810640665436,1.03672519616512,0,1.05497161045657,1.05617903534656,1.06580666012725,1.05926908983475,0,1.061914303574,1.0606830479296,1.0475681894206,1.06578282937284,0,1.05393100084744,1.09645301029547,1.08681744192998,1.07776969883988,0,1.07835752411527,1.09170274658355,1.10365784171138,1.17435574645404,0,1.09932858799399,1.11721754096933,1.13298555680238,1.1264877044339,0,1.1336687050954,1.16132826737787,1.14725223510775,1.18356236124019,0,1.22076216887052,1.18054379901523,1.16371134281863,1.1502151922391,0,1.14838022414972,1.17253666553426,1.21018131391353,1.21327136840172,0,1.20663847509159,1.19156155113636,1.167357448243,1.14715691209012,0,1.13385140754586,1.12989550231419,1.12194397392684,1.11984686753897,0,1.12153090751711,1.12190425600283,1.11579563928967,1.15194689372606,0,1.12346119862413,1.11381768667384,1.11332518441608,1.11797218152557,0,1.08089947125208,1.06229559564452,1.06460717882206,1.06289136450471,0,1.07010413950542,1.09985286459096,1.05703694250524,1.03066424096078,0,1.02949653399481,1.00629332278657,0.984662941369236,0.966345034814564,0,0.943848802653753,0.941410122119371,0.921710031809056,0.922019831616355,0,0.896505037230576,0.893438813496794,0.897553590424513,0.901962279989926,0,0.903987894114575,0.933029640152684,0.934229121457869,0.936064089547257,0,0.936413607278569,0.935976710114429,0.9262140443921,1.03249126546537,0,0.983669993268917,0.984742377217261
