1.14902573444937,1.01785195868896,1.01798964021134,1.02357951002018,1.14311460775497,1.14295856869627,1.14126967535501,1.11527540392869,1.13183390168755,1.02291863871273,1.02295535378537,1.02346936480227,1.02529593966591,1.13254984560395,1.02585584452361,1.02617710140918,1.02665439735345,1.02949063671458,1.38614085230108,1.03294185354237,1.03471335579706,1.03631046145673,1.03930273987656,1.04131289010339,1.0423409121372,1.03744862870844,1.03776988559401,1.11011693622333,1.1641339868391,1.04904141289327,1.03029836831257,1.0295089942509,1.02743459264696,1.03201479795831,1.03307953506476,1.21324039648981,1.06809653559138,1.06562744695661,1.06655450254067,1.07417288011264,1.07503568431959,1.07390669583603,1.07788110244888,1.08313135783584,1.08266324065973,1.08295696124082,1.08335164827165,1.08392073189751,1.08610527871936,1.0868579377084,1.08707822814421,1.08642653560492,1.08572894922484,1.08476517856814,1.08714247952132,1.08992364627351,1.08910673590735,1.0916492546874,1.08168111246671,1.08115792268165,1.08216758717914,1.09968985559469,1.22063848362597,1.12377494324393,1.12630828325582,1.26742266493244,1.17607556421397,1.12172807794448,1.14530833334497,1.19975678606422,1.12127831830468,1.12080102236042,1.11105317057555,1.11107152811186,1.11169568434668,1.1115121089835,1.11309085710685,1.11143867883822,1.11181500833274,1.10905219911688,1.10975896426513,1.11021790267308,1.11265945500337,1.09963478298574,1.0990840568962,1.1879161751391,1.10064444748323,1.18262920467951,1.19147753718479,1.19344179357082,1.10316860872696,1.08997871888246,1.08987775243271,1.08991446750535,1.20465824826113,1.22156553921003,1.12452760223297,1.10029565429319,1.07575162823599,1.07598109743997,1.12829089717817,1.07232794771268,1.07371394170469,1.07128156814256,1.07452167330269,1.18101374148352,1.13325661075219,1.06857383153565,1.06932649052469,1.13007157820102,1.07616467280315,1.13072327074031,1.11717540893761,1.07119895922912,1.07188736684105,1.07368640540022,1.07482457265193,1.07593520359917,1.07442070685294,1.07408109243105,1.0812129952906,1.08055212398316,1.08225937486073,1.08384730175224,1.08210333580203,1.21377276504303,1.22111577957024,1.08212169333835,1.08066226920106,1.07911105738219,1.07941395673144,1.08219512348362,1.08269995573236,1.08426952508755,1.08551783755718,1.08324150305375,1.08469174842287,1.08317725167663,1.0834985085622,1.08083666579609,1.08116710144981,1.0803410123155,1.07818400179813,1.07806467781206,1.07797289013047,1.0775873818678,1.07730284005487,1.07654100229767,1.07465017605691,1.07005161320925,1.0689868761028,1.06412212897853,1.0632317884671,1.06015690113384,1.06031294019254,1.05307089211508,1.05191436732704,1.05393369632203,1.14730930480364,1.17278038644489,1.05872501330103,1.05986318055275,1.06150618005321,1.05964289011693,1.06210279998355,1.06258927469597,1.12925466783486,1.06907866378439,1.07064823313958,1.1077488140383,1.10879519360843,1.05993661069802,1.09601834833109,1.08792267481484,1.07785356614441
1.14506050660468,1.13811217910831,1.16417070191174,1.02804957011362,1.06822503834561,1.04668246947641,1.11310003587501,1.09024490315907,1.11008022115069,1.02824232424496,1.02536019104303,1.02890319555241,1.03608099225275,1.03640224913832,1.12520683107674,1.05927573939057,1.13561555416906,1.10001111248026,1.03650321558807,1.12825418210553,1.12912616508064,1.15088902438565,1.04874769231219,1.04398391163766,1.04308439235808,1.22061094732149,1.12718944499909,1.05554915951801,1.05266702631608,1.05321775240562,1.21704040650764,1.03053701628471,1.02932541888772,1.02806792764994,1.03508968529158,1.08459996074128,1.06769266979238,1.06748155812473,1.06450763724121,1.06456270985016,1.06704097725309,1.06779363624213,1.06951924465603,1.07288785257038,1.08112120760901,1.08133231927667,1.08463667581392,1.0846183182776,1.08750045147953,1.08799610496011,1.09000625518694,1.09020818808643,1.08901494822576,1.0878859597422,1.0918511875869,1.0914932156287,1.22713705148255,1.10279227923244,1.19601184865534,1.08739030626162,1.09039176344961,1.09253959519882,1.22731144807757,1.13131071190248,1.40112978070475,1.13201747705073,1.2177196353514,1.21054183865106,1.19437802792304,1.1231324294728,1.12255416707879,1.1205807319246,1.11213626521831,1.1118241871009,1.11077780753078,1.10990582455567,1.10729905439851,1.10748262976169,1.10671161323633,1.10586716656571,1.10643625019156,1.11197104739145,1.0959265606495,1.09650482304352,1.10560098228909,1.10567441243437,1.0999560398713,1.09942367131808,1.10113092219566,1.10217730176578,1.10232416205633,1.09227341092221,1.09161253961476,1.09746859370021,1.09761545399076,1.09584395173607,1.08989610996903,1.09026326069539,1.09391641042267,1.08683040140392,1.08448063675521,1.08260816805077,1.08204826319307,1.08722508843476,1.15194458272394,1.08500382654028,1.10823528875073,1.13232037639997,1.11897444749677,1.13321989567956,1.07854197375633,1.07903762723692,1.07903762723692,1.0786154039016,1.1352484034427,1.07877144296031,1.08124053159508,1.09047437236305,1.08862943996308,1.0895656743153,1.085334262194,1.08558208893429,1.08425116755124,1.08331493319902,1.07624728171658,1.07404437735842,1.07244727169875,1.06907866378439,1.06645353609092,1.06782117254661,1.17422145304585,1.06976707139632,1.08024004586575,1.08384730175224,1.08412266479701,1.08320478798111,1.08086420210056,1.08051540891052,1.08124053159508,1.08076323565081,1.08128642543588,1.07708254961905,1.07670622012453,1.07697240440114,1.07532940490068,1.07574244946783,1.07699076193746,1.07325500329674,1.07419123764896,1.0736680478639,1.0712264955336,1.0678670663874,1.0675090944292,1.06703179848493,1.06766513348791,1.18322582460984,1.17207362129665,1.05561341089513,1.17370744202895,1.06660957514962,1.06615981550983,1.06586609492874,1.06630667580037,1.1452349031997,1.06497575441732,1.09409998578585,1.06776609993765,1.12289378150067,1.11708362125602,1.10309517858168,1.31562955530357,1.06851875892669,1.09007050656405,1.22798149815318,1.08324150305375
1.04237762720983,1.04223994568745,1.04132206887155,1.03635635529752,1.03604427718012,1.04746266476992,1.04707715650725,1.04673754208536,1.04335975540285,1.02873797772554,1.02754473786487,1.02952735178722,1.02977517852751,1.03636553406568,1.04271724163172,1.05052837333503,1.09139224917895,1.09557776745946,1.08359947501195,1.04659068179482,1.14249045152016,1.05053755210319,1.05056508840767,1.0495737814465,1.18902680608634,1.17652532385377,1.0569167959737,1.05468635531107,1.05233659066236,1.05249262972106,1.21567277005194,1.03710901428656,1.03050030121207,1.03009643541308,1.04051433727355,1.07685308041507,1.07317239438331,1.0707124845167,1.06533372637552,1.06581102231979,1.06639846348196,1.06807817805506,1.07259413198929,1.07329171836938,1.07839511346579,1.08113038637717,1.08548112248454,1.08677532879496,1.18291374649244,1.13834164831228,1.1931113579171,1.26441202897629,1.18586930983964,1.09619274492611,1.18473114258792,1.20201476303134,1.20452974550691,1.10751934483433,1.10720726671692,1.09158500331029,1.0912453888884,1.09603670586741,1.13495468286161,1.14200397680773,1.16060933986604,1.16090306044713,1.13674454265262,1.13808464280383,1.20282249462933,1.13129235436616,1.12494982556829,1.12211358620715,1.11739569937342,1.11219133782726,1.11205365630488,1.11036476296362,1.10824446751889,1.10823528875073,1.10699615504926,1.10685847352688,1.10586716656571,1.1059130604065,1.09407244948138,1.09473332078883,1.10220483807026,1.09957053160862,1.09772559920866,1.09650482304352,1.09666086210222,1.0964405716664,1.09505457767439,1.09359515353711,1.0959265606495,1.09386133781372,1.09454056665749,1.09642221413008,1.08781252959693,1.09339322063761,1.09339322063761,1.08853765228149,1.0888497303989,1.08909755713919,1.08786760220589,1.08885890916706,1.08704151307158,1.0882898255412,1.08562798277509,1.08962074692426,1.08814296525066,1.08926277496606,1.08933620511133,1.08994200380982,1.09079562924861,1.09004297025957,1.08983185859192,1.09019900931828,1.09251205889435,1.09039176344961,1.09089659569836,1.09064876895807,1.09029079699987,1.08818885909145,1.08817968032329,1.1875582031809,1.32223826837805,1.07449413699821,1.07364051155942,1.06972117755552,1.06761006087895,1.06694001080334,1.06651778746803,1.06713276493468,1.06744484305209,1.06857383153565,1.29102127786926,1.2687535863155,1.07783520860809,1.07736709143198,1.07975357115332,1.07820235933445,1.07819318056629,1.07666032628374,1.07543037135043,1.07714680099616,1.07575162823599,1.07634824816633,1.07526515352357,1.07391587460419,1.07169461270971,1.07206176343607,1.06926223914757,1.06794967530083,1.06727962522523,1.06610474290087,1.06600377645112,1.06206608491091,1.06101052657262,1.06101970534078,1.06574677094267,1.06490232427204,1.06493903934468,1.06772020609686,1.0677110273287,1.06863808291276,1.06982214400527,1.07063905437142,1.07245645046691,1.12033290518431,1.27362751220794,1.08635310545965,1.26221830338629,1.07384244445892,1.07564148301809,1.075347762437,1.07230959017636
1.04099163321782,1.04230419706456,1.04044090712828,1.03482350101497,1.03469499826074,1.03529161819108,1.1607745576929,1.03740273486765,1.03641142790648,1.02773749199621,1.02696647547085,1.02736116250169,1.03080320056132,1.03137228418718,1.07864294020608,1.05947767229007,1.0623139116512,1.18122485315118,1.05531051154588,1.20074809302539,1.05733901930902,1.19710412206627,1.05534722661851,1.05514529371902,1.0562008520573,1.06125835331292,1.0528873167519,1.05226316051709,1.05168489812307,1.04977571434599,1.04447038635009,1.04332304033021,1.03626456761593,1.03600756210748,1.04643464273612,1.08427870385571,1.08735359118898,1.19874712156673,1.18159200387754,1.19539687118869,1.16780549410271,1.07092359618435,1.17691083211644,1.17300985564887,1.16766781258032,1.16864076200518,1.18098620517905,1.17272531383594,1.16604317061618,1.24335593481952,1.17433159826376,1.16685090221417,1.16408809299831,1.18072919967059,1.1496682482205,1.15067791271799,1.15081559424038,1.18401519867152,1.19547948010212,1.09197051157296,1.09294346099782,1.09479757216594,1.14265566934702,1.14400494826639,1.14278417210124,1.14385808797585,1.13955324570927,1.13955324570927,1.13981025121773,1.17102724172652,1.22132689123789,1.20460317565218,1.33759434750808,1.11850633032066,1.20522733188699,1.2939676624483,1.19985775251397,1.10979567933776,1.1107043773855,1.10999761223726,1.19213840849224,1.10581209395675,1.17075187868175,1.09438452759878,1.10161739690808,1.09929516856385,1.0977164204405,1.09638549905745,1.09610095724452,1.09546762224155,1.0940908070177,1.09359515353711,1.09293428222966,1.09259466780778,1.09280577947543,1.09210819309535,1.09042847852225,1.09089659569836,1.08992364627351,1.087931853583,1.08693136785367,1.08669271988153,1.08622460270542,1.08694054662183,1.08643571437308,1.08718837336212,1.0864540719094,1.08669271988153,1.08571059168852,1.08719755213028,1.08717919459396,1.08704151307158,1.08750963024769,1.08769320561087,1.08809707140986,1.09015311547748,1.09325553911523,1.09356761723263,1.09022654562275,1.09033669084066,1.08779417206061,1.08705987060789,1.08736276995714,1.08561880400693,1.08433377646467,1.08073569934634,1.08156178848065,1.06965692617841,1.06897769733464,1.06906030624807,1.06794967530083,1.06789460269188,1.06716030123916,1.06672889913569,1.06776609993765,1.06978542893264,1.07191490314553,1.07341104235545,1.07851443745186,1.07863376143792,1.0788173368011,1.07429220409871,1.07732119759118,1.07684390164692,1.07723858867775,1.07634824816633,1.07673375642901,1.07392505337235,1.07421877395344,1.07240137785795,1.06875740689883,1.0680689992869,1.06798639037347,1.06692165326703,1.06731634029786,1.06476464274966,1.06631585456853,1.06629749703221,1.06592116753769,1.0658293798561,1.06610474290087,1.06884001581226,1.070152579659,1.0697946077008,1.06981296523711,1.06999654060029,1.07506322062407,1.08094681101399,1.08204826319307,1.08395744697015,1.08400334081094,1.09590820311318,1.07935888412248,1.077945353826,1.07479703634746
1.04282738684962,1.04362593967946,1.04390130272423,1.04441531374113,1.03432784753438,1.0343003112299,1.03300610491948,1.030784843025,1.0300688991086,1.02754473786487,1.02671864873056,1.03019740186283,1.03150996570956,1.03111527867873,1.11305414203421,1.08561880400693,1.18033451263976,1.08239705638312,1.15428516860448,1.10438020612395,1.10857490317261,1.16977892925689,1.1315310023383,1.12259088215142,1.13852522367546,1.06141439237162,1.05418152306232,1.05464046147027,1.05234576943052,1.05175832826834,1.04481917954013,1.04271724163172,1.04242352105063,1.05579698625831,1.05154721660068,1.05219890913997,1.08918016605263,1.0890516632984,1.14709819313598,1.11089713151684,1.1608204515337,1.16085716660634,1.18788863883462,1.18928381159479,1.14471171341464,1.14736437741259,1.15328468287515,1.15213733685528,1.15179772243339,1.152871638308,1.13591845351831,1.15689193876164,1.16406973546199,1.16320693125504,1.13307303538901,1.1367261851163,1.1256198756439,1.17052240947777,1.09601834833109,1.09565119760473,1.09655071688431,1.09743187862758,1.14756631031209,1.14407837841167,1.14405084210719,1.14376630029426,1.14109527875999,1.14082909448338,1.14158175347241,1.13976435737693,1.22440177857116,1.1304111926229,1.12634499832846,1.12685900934536,1.12492228926381,1.1228203513554,1.12175561424895,1.12376576447578,1.19184468791115,1.19263406197283,1.18843936492416,1.19880219417568,1.19909591475677,1.10619760221943,1.10684929475872,1.10348068684436,1.18992632536592,1.1929094250176,1.09749613000469,1.09879033631511,1.18131664083277,1.09655989565247,1.09454056665749,1.09478839339778,1.09428356114903,1.09351254462368,1.19239541400069,1.09280577947543,1.09101591968443,1.08998789765062,1.08887726670338,1.0892535961979,1.08730769734819,1.08678450756312,1.08670189864969,1.0873719487253,1.08800528372827,1.08697726169446,1.0866560048089,1.08666518357706,1.08704151307158,1.08749127271137,1.08991446750535,1.090125579173,1.0910893498297,1.09090577446652,1.09221833831326,1.09208065679087,1.18839347108337,1.09226423215405,1.0910893498297,1.08826228923672,1.08851011597702,1.08375551407065,1.08344343595324,1.07949656564487,1.07964342593541,1.0660313127556,1.0756598405544,1.07572409193152,1.0712264955336,1.070152579659,1.07044630024009,1.06702261971677,1.06629749703221,1.07156610995548,1.07281442242511,1.07361297525494,1.07610042142604,1.07594438236733,1.07600863374445,1.07334679097833,1.07628399678922,1.07639414200712,1.07519172337829,1.07411780750369,1.07523761721909,1.07479703634746,1.07427384656239,1.0735120088052,1.0688308370441,1.07144678596942,1.07179557915946,1.07000571936845,1.06835354109983,1.06792213899636,1.17244995079117,1.06688493819439,1.06879412197146,1.06939992066996,1.15794749709993,1.14763974045736,1.07670622012453,1.13455999583077,1.07423713148976,1.07540283504595,1.07691733179219,1.08024004586575,1.08089173840504,1.08481107240894,1.08607774241488,1.08447145798705,1.08668354111337,1.08093763224583,1.0744298856211
1.1296952487065,1.15217405192791,1.0458563803421,1.04566362621076,1.03958728168949,1.03773317052137,1.03587905935325,1.03168436230459,1.03138146295534,1.0278751735186,1.02814135779521,1.03272156310655,1.03436456260702,1.12223291019322,1.10366426220754,1.07631153309369,1.08168111246671,1.0785052586837,1.08048787260604,1.08386565928856,1.13160443248357,1.0904835511312,1.0906854840307,1.0844163853781,1.13427545401784,1.05668732676973,1.05516365125533,1.05357572436382,1.05264866877976,1.05278635030215,1.04710469281172,1.04342400677996,1.04356168830234,1.1637760148809,1.05798153308015,1.14878708647724,1.09076809294413,1.09110770736602,1.09307196375205,1.09298017607046,1.09376037136397,1.12844693623687,1.19289106748128,1.10801499831491,1.13732280504663,1.1064729652642,1.10657393171395,1.10691354613583,1.11199858369592,1.11645028625304,1.14197644050325,1.12785031630654,1.13040201385474,1.13278849357608,1.1352484034427,1.13514743699295,1.13495468286161,1.18385915961282,1.0992859897957,1.09803767732607,1.09942367131808,1.19758141801054,1.12769427724783,1.1457948080574,1.14190301035798,1.14070059172915,1.13923198882371,1.14012232933513,1.13911266483764,1.14081991571522,1.14896148307226,1.16035233435759,1.13017254465076,1.1281715731921,1.12601456267473,1.12142517859523,1.12217783758427,1.12224208896138,1.12254498831063,1.40105635055947,1.11701019111074,1.12974114254729,1.1168633308202,1.19641571445434,1.19576402191505,1.11031886912283,1.15755281006909,1.19928866888811,1.18720940999085,1.20293263984724,1.17519440247071,1.19243212907333,1.15550594476963,1.15640546404922,1.15763541898252,1.18838429231521,1.14760302538473,1.10212222915683,1.16400548408488,1.16306924973266,1.09473332078883,1.09451303035301,1.12233387664297,1.21074377155056,1.09041929975409,1.09041929975409,1.09097920461179,1.09004297025957,1.08968499830137,1.08760141792928,1.09089659569836,1.09300771237493,1.09344829324657,1.09304442744757,1.09359515353711,1.36299199900406,1.09533911948732,1.09697294021963,1.09829468283452,1.09548597977787,1.09379708643661,1.09150239439685,1.09010722163669,1.08996036134614,1.08650914451835,1.08149753710353,1.08119463775429,1.07103374140226,1.07710090715537,1.07699994070562,1.07348447250072,1.07272263474352,1.07313567931068,1.07146514350574,1.15884701637951,1.27752848867551,1.07751395172252,1.07864294020608,1.07685308041507,1.0783033257842,1.07700911947378,1.07719269483696,1.07826661071156,1.07732119759118,1.07645839338424,1.07567819809072,1.07815646549365,1.07867965527872,1.17606638544582,1.19056883913705,1.18916448760872,1.19173454269325,1.18806303542964,1.17316589470757,1.1800775071313,1.18197751214022,1.1712108170897,1.23922548914796,1.15776392173675,1.15512043650695,1.15759870390989,1.14802524872004,1.08079995072345,1.13502811300688,1.2403361200952,1.07980864376228,1.07911105738219,1.0822226597881,1.0864081780686,1.08566469784772,1.08376469283881,1.084930396395,1.08607774241488,1.08352604486668,1.080542945215
1.06163468280744,1.06174482802534,1.0475360949152,1.04716894418884,1.04447956511825,1.04242352105063,1.03589741688957,1.03653075189254,1.04337811293916,1.03296938984685,1.03792592465271,1.03930273987656,1.04158825314816,1.11704690618338,1.08724344597107,1.08039608492445,1.13200829828257,1.15498275498457,1.08035936985182,1.08404005588358,1.08712412198501,1.09030915453618,1.08987775243271,1.08523329574425,1.32487257483969,1.05621920959362,1.05464964023843,1.04873851354403,1.05086798775692,1.05429166828023,1.05393369632203,1.05270374138872,1.05300664073797,1.07452167330269,1.14382137290321,1.09268645548937,1.09357679600079,1.09380626520477,1.09540337086443,1.0951647228923,1.09611931478084,1.09982753711708,1.1018835811847,1.10639035635077,1.11049326571785,1.10940099230692,1.10689518859951,1.10383865880256,1.11345800783321,1.1174232356779,1.13498221916609,1.13070491320399,1.13123728175721,1.13546869387851,1.13529429728349,1.15082477300854,1.17021951012853,1.10131449755884,1.09935941994097,1.09957053160862,1.10820775244625,1.12596866883394,1.12830925471449,1.13770831330931,1.1403976923799,1.14177450760375,1.13866290519785,1.13814889418094,1.13914937991028,1.13939720665057,1.12061744699724,1.12070923467883,1.12107638540519,1.12024111750272,1.16838375649672,1.12233387664297,1.12170054164,1.12157203888577,1.13256820314027,1.20242780759849,1.25636224930084,1.19473599988124,1.18256495330239,1.24568734193191,1.16363833335852,1.20545680109097,1.21474571446788,1.12524354614938,1.67418895466714,1.28703769248825,1.25334243457652,1.1266478976777,1.14148996579082,1.18151857373227,1.12499571940908,1.17310164333046,1.16535476300425,1.16330789770479,1.14517065182259,1.12566576948469,1.14588659573899,1.16710790772262,1.17546058674732,1.21858243955835,1.16201369139437,1.21399305547885,1.15255956019059,1.1789576974159,1.16728230431764,1.15030158322347,1.17889344603879,1.30869040657535,1.15162332583837,1.17025622520116,1.16466635539233,1.36446978067766,1.10293913952298,1.36577316575624,1.14752959523945,1.3409262403498,1.34234894941444,1.34647021631784,1.14107692122367,1.09190626019585,1.08916180851631,1.33242670103455,1.08206662072939,1.07343857865992,1.07473278497034,1.16101320566504,1.07553133780018,1.07367722663206,1.07452167330269,1.07308060670172,1.08378305037513,1.08756470285664,1.08661928973626,1.28460531892611,1.27364586974425,1.26789996087671,1.08274584957316,1.26034583468185,1.08179125768462,1.08235116254232,1.08236952007864,1.08123135282692,1.22097809804785,1.0808550233324,1.08276420710948,1.19833407699957,1.19679204394886,1.17979296531837,1.18726448259981,1.16335379154559,1.16797071192957,1.28425652573607,1.16540065684505,1.25859268996348,1.27235166343383,1.14285760224652,1.26442120774445,1.1452807970405,1.12955756718411,1.13249477299499,1.12953920964779,1.12240730678824,1.08251638036918,1.08311300029952,1.0853801560348,1.08705987060789,1.08626131777806,1.08654585959099,1.08710576444869,1.08686711647655,1.09968067682653
1.062359805492,1.52831997108415,1.13757981055509,1.04240516351431,1.0419370463382,1.0401012927064,1.03931191864472,1.03895394668652,1.03915587958602,1.04124863872627,1.04486507338092,1.04580130773314,1.04573705635603,1.04985832325943,1.05046412195792,1.0532452887101,1.05278635030215,1.05497089712399,1.08112120760901,1.07781685107177,1.08050623014236,1.08270913450052,1.08566469784772,1.08390237436119,1.18993550413408,1.05502596973295,1.05504432726927,1.04858247448532,1.0487660498485,1.0562008520573,1.06021197374279,1.05950520859455,1.05750423713588,1.06815160820033,1.09095166830731,1.09123621012024,1.09361351107343,1.09298017607046,1.09207147802271,1.09639467782561,1.0990840568962,1.10064444748323,1.10105749205038,1.10424252460156,1.11058505339944,1.11213626521831,1.11021790267308,1.10378358619361,1.11571598480032,1.11616574444012,1.1177812076361,1.24019843857282,1.12946577950252,1.14482185863254,1.13288028125767,1.26771638551353,1.0938888741182,1.0970004765241,1.09881787261959,1.10259034633294,1.109116450494,1.29017683119863,1.209210917268,1.13850686613915,1.12936481305277,1.13230201886366,1.13867208396601,1.13859865382074,1.13958996078191,1.13986532382668,1.12032372641615,1.12043387163405,1.12176479301711,1.11996575445795,1.11700101234259,1.1224623793972,1.12224208896138,1.12265513352854,1.13481700133922,1.13406434235019,1.13211844350047,1.13216433734127,1.12941070689357,1.13088848856717,1.13109042146667,1.12979621515625,1.12987882406968,1.12855708145478,1.12584016607971,1.12684065180904,1.12498654064092,1.12754741695729,1.12585852361603,1.12599620513841,1.12722616007172,1.12747398681202,1.12640007093741,1.12777688616126,1.12836432732344,1.12815321565578,1.12836432732344,1.12489475295933,1.12561069687574,1.12365561925787,1.124298133029,1.12505079201804,1.12090198881016,1.12060826822908,1.12138846352259,1.11899280503309,1.11275124268496,1.11127346101136,1.111310176084,1.11101645550291,1.11143867883822,1.108712584695,1.10348068684436,1.11359568935559,1.11354061674664,1.11194351108697,1.11158553912877,1.10894205389897,1.10953867382931,1.09805603486239,1.09838647051611,1.09005214902773,1.0864540719094,1.08104777746374,1.08383812298408,1.13793778251329,1.33601559938473,1.07787192368072,1.07831250455236,1.0803410123155,1.08761059669743,1.08791349604668,1.08814296525066,1.09106181352522,1.08908837837104,1.08791349604668,1.09046519359489,1.24704579961944,1.12706094224486,1.2496984636174,1.22710033640991,1.22677907952435,1.12526190368569,1.19358865386137,1.20131717665125,1.17275285014041,1.16059098232972,1.09677100732013,1.18809975050228,1.16590548909379,1.14580398682556,1.16186683110383,1.15493686114377,1.13936967034609,1.14202233434405,1.61062598516599,1.27576616518898,1.13210926473232,1.13409187865466,1.13043872892738,1.12538122767176,1.08667436234522,1.0860502061104,1.0903734059133,1.0864081780686,1.0856922341522,1.08565551907957,1.08613281502383,1.08689465278103,1.1967828651807,1.06933566929285
1.04231337583272,1.04118438734916,1.15118274496674,1.03425441738911,1.03719162319999,1.0406153037233,1.03855008088753,1.03947713647159,1.03850418704673,1.04449792265456,1.04527811794808,1.05172161319571,1.05206122761759,1.05035397674001,1.04897716151616,1.0491240218067,1.17256009600907,1.11911212901916,1.06615981550983,1.06708687109389,1.16695186866392,1.06744484305209,1.077945353826,1.08023086709759,1.06192840338852,1.05611824314387,1.0564486787976,1.05586123763542,1.04863754709428,1.04904141289327,1.0603221189607,1.06074434229601,1.06460860369096,1.06753663073368,1.08838161322279,1.09019900931828,1.08997871888246,1.09045601482673,1.09212655063167,1.09419177346744,1.09487100231121,1.09789081703553,1.10078212900561,1.1033613628583,1.10109420712302,1.11212708645015,1.11064930477655,1.11414641544513,1.1157435211048,1.11794642546296,1.11723048154656,1.11980053663108,1.12151696627682,1.11924063177338,1.11560583958242,1.09555940992314,1.09428356114903,1.09520143796494,1.1014338215449,1.10420580952892,1.10566523366621,1.29131499845035,1.13733198381479,1.13651507344864,1.12796046152444,1.129089450008,1.13258656067658,1.14188465282166,1.13453245952629,1.13457835336709,1.15494603991193,1.12698751209959,1.12484885911854,1.12612470789264,1.15775474296859,1.12578509347076,1.12360972541707,1.12296721164594,1.13591845351831,1.13282520864872,1.13215515857311,1.1348445376437,1.13125563929353,1.13009911450549,1.12995225421495,1.12885998080403,1.12903437739905,1.12861215406373,1.12795128275628,1.12815321565578,1.12605127774737,1.1268498305772,1.1292454890667,1.12419716657925,1.12290296026883,1.12505079201804,1.12605127774737,1.12528943999017,1.12856626022294,1.12885998080403,1.12650103738716,1.12454595976929,1.1252160098449,1.12403194875239,1.12480296527774,1.12472953513247,1.12514257969963,1.11885512351071,1.11958024619527,1.11909377148284,1.11476139291179,1.11215462275463,1.11679907944309,1.1151836162471,1.11580777248191,1.11373337087798,1.10246184357871,1.1025536312603,1.10477489315478,1.10974978549697,1.11286138790287,1.10957538890195,1.10902466281241,1.10529808293985,1.08641735683676,1.07846854361106,1.07864294020608,1.08093763224583,1.09091495323468,1.08979514351928,1.09003379149141,1.07977192868964,1.07974439238516,1.08214005087466,1.08697726169446,1.0877299206835,1.08481107240894,1.09134635533815,1.09070384156702,1.0853801560348,1.09065794772623,1.09080480801677,1.09464153310724,1.09365940491422,1.0938429802774,1.09400819810426,1.22688922474226,1.09736762725046,1.0981202862395,1.18706254970031,1.18652100237893,1.17838861379005,1.14589577450715,1.15381705142837,1.1609764905924,1.14332571942263,1.13557883909642,1.14434456268828,1.13737787765559,1.14126967535501,1.14202233434405,1.11512854363815,1.13511990068847,1.10756523867512,1.12884162326771,1.08865697626756,1.08762895423375,1.11643192871673,1.08897823315313,1.08751880901584,1.08617870886463,1.08786760220589,1.08901494822576,1.19621378155484,1.06649025116355
1.03905491313627,1.03922930973129,1.03113363621505,1.03341914948664,1.036787757401,1.0395413878487,1.04154235930736,1.04190951003372,1.04359840337498,1.04849986557189,1.0480959997729,1.04730662571122,1.04950953006938,1.0521713728355,1.05073948500269,1.04870179847139,1.04115685104468,1.04162496822079,1.06570087710188,1.06566416202924,1.06778445747397,1.06481971535861,1.07834004085683,1.06613227920535,1.05958781750798,1.05538394169115,1.05687090213291,1.05473224915186,1.05315350102851,1.05617331575282,1.06341536383028,1.06377333578849,1.06660039638146,1.07003325567293,1.07119895922912,1.09004297025957,1.08963910446058,1.08909755713919,1.08975842844664,1.09321882404259,1.09448549404853,1.09451303035301,1.09728501833703,1.10042415704741,1.10193865379365,1.1031594299588,1.10640871388709,1.11024543897755,1.11918555916443,1.11983725170372,1.11908459271468,1.12376576447578,1.12402276998423,1.12055319562012,1.11093384658948,1.10102995574591,1.0971565155828,1.09955217407231,1.09937777747729,1.10041497827925,1.10442609996474,1.30076912965413,1.13928706143266,1.13851604490731,1.13200829828257,1.1274097354349,1.12892423218114,1.13473439242579,1.13400926974123,1.13430299032232,1.13758898932325,1.13953488817296,1.12591359622498,1.13070491320399,1.12545465781703,1.13120974545273,1.12579427223892,1.12554644549862,1.13138414204775,1.13135660574328,1.13104452762587,1.12729959021699,1.12493146803197,1.12316914454544,1.1242522391882,1.12498654064092,1.12247155816536,1.12082855866489,1.11310921464316,1.11812082205798,1.11597299030878,1.11802903437639,1.11812082205798,1.11667975545702,1.12455513853745,1.12393098230264,1.1214986087405,1.11923145300522,1.11951599481815,1.12216865881611,1.12223291019322,1.12589523868867,1.12582180854339,1.1261338866608,1.12619813803791,1.1262899257195,1.12682229427273,1.11848797278434,1.11655125270279,1.11206283507304,1.11479810798442,1.11265945500337,1.11287056667103,1.11628506842618,1.11596381154062,1.21556262483404,1.10655557417763,1.1045913177916,1.10026811798871,1.10321450256775,1.09698211898778,1.09755120261364,1.14073730680179,1.14205904941668,1.08424198878308,1.07946902934039,1.07968014100805,1.08591252458802,1.09304442744757,1.09108017106154,1.08740866379794,1.0811028500727,1.07911105738219,1.08221348101994,1.08261734681893,1.08363619008458,1.0834985085622,1.08436131276915,1.08149753710353,1.08036854861998,1.07971685608069,1.07934970535433,1.28324686123858,1.27764781266158,1.08848257967254,1.09112606490234,1.24558637548216,1.09529322564653,1.21994089724588,1.18189490322679,1.18014175850842,1.16333543400927,1.17632339095427,1.13869044150233,1.16313350110977,1.1228203513554,1.12000246953058,1.13865372642969,1.11761598980924,1.1175792747366,1.1153396553058,1.11475221414363,1.11192515355065,1.1306131255224,1.10058019610612,1.12943824319804,1.0901714730138,1.09142896425158,1.08648160821388,1.08473764226366,1.10851983056366,1.09463235433908,1.11527540392869,1.11591791769982,1.06405787760141
1.04129453256707,1.03380465774932,1.03459403181099,1.03600756210748,1.03609017102091,1.0352640818866,1.03989018103874,1.04129453256707,1.0480959997729,1.04836218404951,1.04391048149239,1.04502111243963,1.04535154809335,1.04626942490925,1.04986750202758,1.04288245945858,1.0422950182964,1.04199211894715,1.06284628020443,1.06208444244723,1.06445256463225,1.06459024615464,1.07032697625402,1.05959699627614,1.05874337083735,1.05648539387023,1.0569626898145,1.05513611495086,1.05493418205136,1.06864726168092,1.0690327699436,1.07052890915352,1.0771835160688,1.07319993068779,1.07344775742808,1.08991446750535,1.09018983055012,1.09028161823171,1.09095166830731,1.09303524867941,1.09266809795305,1.09463235433908,1.09693622514699,1.10011207893001,1.10086473791905,1.10520629525826,1.10495846851796,1.10851983056366,1.11032804789098,1.11448602986702,1.11973628525397,1.11950681605,1.12640007093741,1.11919473793259,1.25900573453063,1.10135121263147,1.10121353110909,1.10038744197478,1.09627535383954,1.09936859870913,1.10473817808215,1.22487907451543,1.13601941996805,1.13127399682985,1.13190733183282,1.13158607494725,1.13287110248951,1.13348607995617,1.13573487815513,1.13527593974717,1.13687304540684,1.13717594475609,1.12840104239608,1.12867640544085,1.12953920964779,1.13208172842784,1.12226962526586,1.1246561049872,1.12609717158816,1.12960346102491,1.12567494825285,1.12675804289561,1.12186575946686,1.11978217909477,1.12388508846184,1.12204933483004,1.11704690618338,1.11801067684008,1.1123840919586,1.11234737688597,1.11318264478844,1.11228312550885,1.11678990067493,1.11657878900727,1.11537637037844,1.11301742696157,1.1129439968163,1.11296235435262,1.12092952511464,1.1235821891126,1.12354547403996,1.12475707143695,1.12469282005984,1.21659064686785,1.21191865387491,1.10408648554286,1.10590388163834,1.18965096232115,1.1832808972188,1.10657393171395,1.17246830832748,1.11277877898944,1.11114495825714,1.10808842846019,1.10628021113286,1.10489421714085,1.10040579951109,1.1012777824862,1.0946507118754,1.09508211397887,1.09709226420569,1.09692704637883,1.07791781752152,1.07828496824788,1.08362701131642,1.09159418207844,1.09018065178196,1.09341157817393,1.09289756715702,1.09340239940577,1.08587580951538,1.08255309544182,1.08515068683082,1.08281927971843,1.08072652057818,1.08023086709759,1.08086420210056,1.08256227420998,1.08028593970654,1.08150671587169,1.08169029123487,1.08055212398316,1.0811028500727,1.08632556915517,1.08848257967254,1.08847340090438,1.08917098728447,1.21551673099324,1.0890516632984,1.09156664577397,1.22045490826279,1.22315346610154,1.11344882906505,1.1728905316628,1.12137010598627,1.11668893422518,1.1179372466948,1.12153532381314,1.12137928475443,1.14812621516979,1.11937831329577,1.12115899431862,1.12507832832251,1.13506482807952,1.13516579452927,1.10729905439851,1.08933620511133,1.08984103736007,1.08964828322873,1.12599620513841,1.12494982556829,1.12123242446389,1.11950681605,1.12523436738122,1.04832546897687
1.03412591463488,1.03424523862095,1.03390562419907,1.04317618003967,1.04094573937703,1.03639307037016,1.03653075189254,1.04125781749443,1.04232255460088,1.04458971033615,1.044176665769,1.04515879396201,1.04608584954607,1.04675589962168,1.04739841339281,1.04592063171921,1.04231337583272,1.04243269981879,1.06113902932685,1.06302067679945,1.06604967029192,1.06902359117544,1.07096031125699,1.06014772236568,1.05997332577065,1.059358348304,1.05730230423638,1.17315671593941,1.06859218907197,1.06931731175653,1.06857383153565,1.07410862873553,1.07409944996737,1.07409027119921,1.08960238938794,1.08965746199689,1.08926277496606,1.08973089214217,1.08984103736007,1.09141060671526,1.09371447752318,1.09457728173012,1.0992859897957,1.09942367131808,1.10142464277674,1.10450870887817,1.10620678098759,1.10738166331194,1.10968553411985,1.11198940492777,1.11255848855362,1.11777202886794,1.11571598480032,1.1100343273099,1.11000679100542,1.11092466782132,1.1029574970593,1.09971739189917,1.09564201883657,1.09611931478084,1.30724016120623,1.12971360624281,1.12834596978712,1.12887833834034,1.12702422717222,1.12824500333737,1.12875901435428,1.13282520864872,1.13299960524374,1.1387638716476,1.13863536889337,1.13830493323965,1.13824986063069,1.12224208896138,1.12891505341298,1.12526190368569,1.12738219913043,1.12731794775331,1.22498004096518,1.12220537388874,1.12156286011761,1.12171889917632,1.12273774244197,1.12161793272657,1.12046140793853,1.12119570939125,1.12087445250569,1.11400873392275,1.11035558419546,1.11127346101136,1.11089713151684,1.10764784758855,1.10572948504332,1.10409566431102,1.11204447753672,1.10925413201638,1.11061258970391,1.11020872390492,1.11241162826308,1.11449520863518,1.22196022624087,1.2181235011504,1.1092724895527,1.10583045149307,1.10549083707119,1.10370097728018,1.10564687612989,1.18528186867746,1.10417827322445,1.10321450256775,1.10292078198666,1.10263624017373,1.10206715654788,1.17979296531837,1.09848743696586,1.10034154813398,1.09950628023151,1.0947608570933,1.09019900931828,1.0892535961979,1.08913427221183,1.08977678598296,1.07741298527277,1.07757820309964,1.08342507841693,1.09119031627945,1.09186036635506,1.08252555913734,1.19786595982346,1.08269995573236,1.07481539388377,1.07659607490662,1.08168111246671,1.08081830825977,1.07751395172252,1.07826661071156,1.33725473308619,1.07490718156536,1.08072652057818,1.07749559418621,1.07980864376228,1.08057966028763,1.08117628021797,1.15684604492085,1.28484396689825,1.1643359197386,1.26955213914533,1.07859704636529,1.25883133793561,1.24860619020647,1.09801931978975,1.2171597304937,1.27225987575224,1.2010601711428,1.26198883418231,1.15889291022031,1.24073080712604,1.11911212901916,1.1209845977236,1.12125078200021,1.12086527373753,1.12077348605594,1.11895608996045,1.13444985061286,1.13190733183282,1.12148942997234,1.09387051658188,1.09398066179979,1.09005214902773,1.09141978548342,1.13366965531935,1.06020279497463,1.1360102411999,1.05300664073797,1.04942692115595
1.03206987056726,1.03265731172944,1.03585152304878,1.0377056342169,1.04033076191037,1.03137228418718,1.03203315549463,1.03905491313627,1.04106506336309,1.04343318554812,1.04687522360775,1.0452505816436,1.03905491313627,1.0363379977612,1.0496839266644,1.04935349101068,1.04217569431033,1.04266216902276,1.06190086708405,1.06228637534673,1.06316753708999,1.06422309542828,1.06808735682322,1.07044630024009,1.0712264955336,1.07110717154753,1.17294560427175,1.0682709321864,1.0678670663874,1.06600377645112,1.06754580950184,1.07521008091461,1.07721105237328,1.0905753388128,1.0898135010556,1.08987775243271,1.09018065178196,1.09031833330434,1.09174104236899,1.0932830754197,1.09407244948138,1.09685361623356,1.09874444247431,1.10064444748323,1.10265459771005,1.10386619510704,1.11007104238253,1.10874012099948,1.10885026621738,1.10895123266713,1.1131918235566,1.11571598480032,1.11506429226103,1.11009857868701,1.10814350106914,1.11241162826308,1.11560583958242,1.11658796777543,1.09529322564653,1.09562366130025,1.16395959024408,1.12564741194837,1.12581262977524,1.12479378650958,1.12579427223892,1.12827253964185,1.12885998080403,1.13123728175721,1.13262327574922,1.13735034135111,1.13662521866655,1.1378001009909,1.13821314555806,1.12475707143695,1.12546383658519,1.12658364630059,1.12567494825285,1.12137928475443,1.12219619512058,1.11753338089581,1.11980971539924,1.11928652561418,1.12157203888577,1.11993821815347,1.22524622524179,1.11550487313267,1.11577105740928,1.10997925470094,1.10972224919249,1.10904302034872,1.10785895925621,1.11137442746111,1.11217298029095,1.10360001083043,1.10308599981353,1.10305846350905,1.10965799781538,1.10889616005818,1.11234737688597,1.19078912957287,1.10540822815776,1.10672079200449,1.10582127272491,1.10661064678659,1.10594059671098,1.09843236435691,1.09749613000469,1.18572244954909,1.09102509845259,1.17901277002486,1.17259681108171,1.17583691624184,1.10167246951704,1.09868936986536,1.09691786761067,1.09610095724452,1.09329225418786,1.09079562924861,1.08989610996903,1.08873040641283,1.08822557416409,1.07058398176247,1.07447577946189,1.0843704915373,1.08369126269354,1.08200236935228,1.08266324065973,1.07543955011859,1.07788110244888,1.07873472788767,1.07325500329674,1.07231876894452,1.07328253960122,1.17266106245882,1.07647675092056,1.07690815302403,1.07264002583009,1.0733100759057,1.07381490815444,1.07435645547582,1.11287974543919,1.07688061671955,1.07618303033947,1.07169461270971,1.07248398677139,1.27543572953526,1.07103374140226,1.25497625530883,1.26015308055051,1.07569655562704,1.08056130275131,1.14774070690711,1.09379708643661,1.20539254971385,1.26211733693654,1.11580777248191,1.29694158333182,1.11895608996045,1.11891937488782,1.12253580954247,1.12186575946686,1.12184740193054,1.1170652637197,1.1161473869038,1.10956621013379,1.12992471791047,1.12359136788075,1.12805224920603,1.09451303035301,1.12849283007767,1.13442231430839,1.05908298525923,1.05921148801346,1.05341968530512,1.04707715650725
1.03261141788865,1.03548437232242,1.035980025803,1.03684283000995,1.03956892415318,1.03352011593639,1.03218919455333,1.03304281999212,1.04218487307849,1.04298342590833,1.04863754709428,1.04071627017305,1.03914670081786,1.03919259465866,1.03933027618104,1.038577617192,1.03938534879,1.04828875390423,1.06181825817062,1.06292888911786,1.06448010093673,1.06456270985016,1.06504918456259,1.06884001581226,1.07140089212862,1.07128156814256,1.07279606488879,1.07439317054846,1.06521440238945,1.06477382151782,1.0686747979854,1.0903275120725,1.08396662573831,1.09400819810426,1.0962845326077,1.0912912827292,1.093127036361,1.09489853861569,1.09507293521071,1.09622945999875,1.09613767231715,1.09643139289824,1.09761545399076,1.1007178776285,1.10303092720457,1.1063169262055,1.11230148304517,1.11127346101136,1.10903384158056,1.10921741694374,1.1149816833476,1.11425656066304,1.11320100232476,1.11007104238253,1.11008939991885,1.11663386161622,1.11648700132568,1.09868936986536,1.09686279500172,1.09739516355494,1.14083827325153,1.1313749632796,1.12588605992051,1.12489475295933,1.12466528375536,1.12785949507469,1.12928220413934,1.11938749206393,1.11931406191866,1.13617545902676,1.13895662577894,1.13861701135705,1.12551890919415,1.1259778476021,1.12650103738716,1.12488557419117,1.12076430728778,1.12014932982113,1.12065416206987,1.1198647880082,1.12007589967585,1.11935995575945,1.1194609222092,1.11760681104108,1.10944688614772,1.11626671088986,1.11581695125007,1.1122280528999,1.10984157317856,1.11062176847207,1.11088795274868,1.11117249456161,1.1120720138412,1.11285220913471,1.10152560922649,1.10212222915683,1.10930920462533,1.10796910447412,1.10772127773383,1.09733091217783,1.10150725169018,1.10396716155679,1.10735412700747,1.10817103737362,1.09936859870913,1.09703719159674,1.09319128773811,1.08964828322873,1.08832654061384,1.08839079199095,1.09002461272325,1.20489689623327,1.0905753388128,1.09414587962665,1.09369611998686,1.09135553410631,1.09082316555309,1.08962074692426,1.08774827821982,1.08902412699392,1.07385162322708,1.07218108742214,1.07152021611469,1.08247048652839,1.08467339088655,1.07948738687671,1.07733037635934,1.07482457265193,1.07297964025197,1.07377819308181,1.07331925467386,1.070152579659,1.06973035632368,1.06987721661423,1.07009750705004,1.06816996573665,1.06714194370284,1.0741820588808,1.0734661149644,1.07117142292465,1.07149267981021,1.07062069683511,1.07212601481318,1.07165789763707,1.06885837334858,1.06873904936251,1.06915209392967,1.06980378646895,1.07114388662017,1.07099702632963,1.26550430238721,1.25499461284514,1.23346122274411,1.21422252468282,1.22643946510246,1.2166457194768,1.18929299036295,1.30779088729577,1.19946306548313,1.1979485687369,1.19356111755689,1.11951599481815,1.12305899932753,1.14050783759781,1.10937345600245,1.10916234433479,1.13842425722572,1.12860297529557,1.12036044148878,1.1380479277312,1.13551458771931,1.0565588240155,1.0550810423419,1.04732498324754,1.04664575440377
1.03518147297317,1.03119788759216,1.03595248949853,1.03586070181694,1.03611770732539,1.03588823812141,1.03371287006773,1.03528243942292,1.04261627518197,1.04244187858695,1.05174914950018,1.03880708639598,1.03773317052137,1.03945877893527,1.04294671083569,1.04323125264862,1.04368101228841,1.05978057163932,1.06120328070396,1.06106559918158,1.06498493318547,1.0651593297805,1.0662332456551,1.0704646577764,1.06493903934468,1.06640764225012,1.06814242943217,1.07476950004298,1.06877576443515,1.18395094729441,1.07554051656834,1.08527918958505,1.09633042644849,1.09634878398481,1.09478839339778,1.09655989565247,1.09919420211411,1.14500543399573,1.14580398682556,1.10073623516482,1.10281981553691,1.09844154312507,1.10023140291607,1.10253527372399,1.10327875394486,1.10556426721646,1.10481160822742,1.10450870887817,1.10608745700152,1.10590388163834,1.10773963527014,1.10965799781538,1.11339375645609,1.11199858369592,1.11198022615961,1.11626671088986,1.11755173843213,1.13635903438994,1.24070327082157,1.24018925980466,1.10823528875073,1.13160443248357,1.11828603988485,1.11857976046594,1.11884594474255,1.11598216907693,1.11663386161622,1.11851550908882,1.12128749707284,1.26798256979014,1.27849225933221,1.12806142797419,1.12679475796825,1.12431649056532,1.12452760223297,1.12108556417334,1.12055319562012,1.12273774244197,1.12173725671263,1.12195754714845,1.12106720663703,1.11995657568979,1.11920391670075,1.11704690618338,1.1121821590591,1.11464206892572,1.11619328074459,1.1105942321676,1.10948360122036,1.10883190868107,1.10664736185922,1.10731741193483,1.11069519861735,1.10985993071488,1.10946524368404,1.10819857367809,1.11149375144718,1.11299906942526,1.09925845349122,1.09778985058578,1.10225991067921,1.10343479300357,1.10292996075482,1.10009372139369,1.09662414702958,1.09655071688431,1.09709226420569,1.08851929474518,1.08902412699392,1.08694972538999,1.08724344597107,1.08743620010241,1.09372365629134,1.09105263475706,1.09050190866752,1.09097002584363,1.08950142293819,1.08688547401287,1.08093763224583,1.08113956514533,1.07593520359917,1.07060233929879,1.07148350104205,1.08068062673738,1.07760573940411,1.07727530375039,1.07553133780018,1.07420041641712,1.07256659568482,1.07283277996143,1.06897769733464,1.06876658566699,1.06792213899636,1.06738059167498,1.06794967530083,1.06729798276154,1.06615981550983,1.06761006087895,1.07150185857837,1.07098784756147,1.06906030624807,1.07077673589381,1.06999654060029,1.06888590965305,1.07074002082117,1.06621488811878,1.06644435732276,1.06727962522523,1.06740812797945,1.06820668080929,1.06751827319736,1.16915477302208,1.16215137291676,1.24295206902052,1.23157039650335,1.23190083215707,1.22207955022693,1.20530994080042,1.31211408709866,1.32222908960989,1.16741998584003,1.15803928478152,1.15691029629796,1.11583530878639,1.10910727172584,1.11038312049994,1.1115121089835,1.12844693623687,1.12990636037415,1.13720348106057,1.13878222918392,1.05699022611898,1.05546655060458,1.05197861870416,1.0454525145431
1.13480782257106,1.03177614998618,1.03923848849945,1.03874283501886,1.03935781248552,1.03943124263079,1.03413509340304,1.03482350101497,1.04826121759976,1.04671918454904,1.04603995570528,1.03876119255518,1.03937617002184,1.04959213898281,1.05039987058081,1.05542983553194,1.05625592466626,1.06045062171492,1.06178154309798,1.06476464274966,1.06458106738648,1.06876658566699,1.06610474290087,1.06785788761924,1.06456270985016,1.06576512847899,1.07455838837532,1.07412698627185,1.07409027119921,1.07621056664394,1.07643085707976,1.09458646049828,1.09578887912711,1.09619274492611,1.09642221413008,1.10024058168423,1.14315132282761,1.11008022115069,1.10981403687408,1.10612417207416,1.10012125769817,1.1003599056703,1.10115845850013,1.10269131278269,1.105711127507,1.10574784257964,1.10623431729207,1.11009857868701,1.11658796777543,1.10868504839052,1.10889616005818,1.10890533882634,1.11397201885011,1.11374254964614,1.11460535385308,1.11550487313267,1.11935995575945,1.13053969537713,1.12885080203587,1.10635364127813,1.10726233932588,1.12253580954247,1.1209387038828,1.11622081704907,1.11439424218543,1.11449520863518,1.11310921464316,1.11534883407396,1.11678990067493,1.11944256467288,1.12447252962402,1.12627156818319,1.1294474219662,1.11980971539924,1.11656961023911,1.11492661073865,1.12556480303494,1.12068169837435,1.11825850358037,1.11602806291773,1.11756091720028,1.11958024619527,1.11912130778732,1.11853386662514,1.11361404689191,1.11367829826902,1.11695511850179,1.10486668083637,1.10661064678659,1.10876765730395,1.10812514353282,1.10784978048805,1.10918988063927,1.11100727673475,1.11155800282429,1.10994253962831,1.11064930477655,1.11317346602028,1.0946048180346,1.09990096726235,1.10556426721646,1.10556426721646,1.10061691117875,1.09768888413603,1.09672511347933,1.0947608570933,1.09298935483861,1.0894096352566,1.08890480300785,1.08667436234522,1.08610527871936,1.08678450756312,1.08632556915517,1.08971253460585,1.08867533380388,1.08899659068945,1.08340672088061,1.08359947501195,1.18277606497005,1.07576080700415,1.07565066178624,1.07420041641712,1.07499896924695,1.07461346098428,1.07339268481913,1.07481539388377,1.07252070184402,1.06895933979833,1.06473710644518,1.06944581451075,1.06784870885109,1.06782117254661,1.066747256672,1.06490232427204,1.06576512847899,1.06550812297054,1.06601295521928,1.06562744695661,1.0677110273287,1.06789460269188,1.06802310544611,1.06907866378439,1.06826175341824,1.06766513348791,1.06868397675356,1.0647095701407,1.06452599477752,1.064149665283,1.06302067679945,1.06858301030381,1.06219458766514,1.06313082201735,1.06259845346413,1.33762188381255,1.23354383165754,1.07925791767274,1.21202879909282,1.21105584966796,1.21113845858139,1.1974988090971,1.29209519374386,1.33653878916979,1.29181065193093,1.36099102754539,1.24295206902052,1.11056669586312,1.11240244949492,1.25335161334468,1.12686818811352,1.13299042647558,1.13349525872433,1.14848418712799,1.14526243950418,1.05147378645541,1.04541579947046
1.03839404182882,1.03329064673241,1.03409837833041,1.04334139786653,1.04014718654719,1.0415331805392,1.0367418635602,1.0450486487441,1.04635203382268,1.04668246947641,1.04662739686745,1.04464478294511,1.04623270983662,1.04612256461871,1.04803174839578,1.05610906437571,1.05583370133094,1.0603221189607,1.06224048150593,1.06209362121539,1.06202019107011,1.06752745196552,1.06755498827,1.06728880399339,1.06520522362129,1.0665912176133,1.07415452257633,1.07413616504001,1.07543955011859,1.15757116760541,1.09303524867941,1.09345747201472,1.09458646049828,1.0949627899928,1.09695458268331,1.09918502334595,1.10338889916277,1.11053915955864,1.10910727172584,1.10164493321256,1.09748695123653,1.09568791267736,1.0962386387669,1.10579373642043,1.10556426721646,1.10616088714679,1.1088686237537,1.11577105740928,1.1148256442889,1.10724398178956,1.10714301533981,1.10920823817559,1.11556912450978,1.11511018610183,1.116505358862,1.116909224661,1.1283735060916,1.12785031630654,1.12619813803791,1.10187440241654,1.10337054162646,1.13882812302471,1.23214865889737,1.10954785259747,1.11052998079048,1.1111082431845,1.1103922992681,1.11618410197643,1.11560583958242,1.11522033131974,1.11637685610777,1.12463774745088,1.12476625020511,1.11548651559635,1.11519279501526,1.11367829826902,1.11545897929187,1.12103967033255,1.12227880403402,1.11767106241819,1.11608313552668,1.11480728675258,1.11456863878045,1.11550487313267,1.11551405190083,1.11308167833869,1.11831357618932,1.10602320562441,1.10607827823336,1.10884108744923,1.10848311549102,1.10851983056366,1.10894205389897,1.11144785760638,1.11242080703124,1.10577537888412,1.10713383657165,1.1023975922016,1.10084638038273,1.1008739166872,1.10541740692591,1.10502271989508,1.10010290016185,1.09757873891812,1.09614685108531,1.09452220912117,1.09396230426347,1.0872159096666,1.08883137286258,1.08707822814421,1.08730769734819,1.08749127271137,1.085334262194,1.08740866379794,1.08786760220589,1.08392991066567,1.08172700630751,1.18701665585951,1.0717864003913,1.07451249453453,1.077945353826,1.07746805788173,1.07419123764896,1.07302553409277,1.07179557915946,1.07107963524306,1.06967528371473,1.06485643043125,1.06178154309798,1.06808735682322,1.06649942993171,1.0647095701407,1.06230473288304,1.0623139116512,1.06201101230196,1.06168057664823,1.06448010093673,1.06522358115761,1.06691247449887,1.06766513348791,1.06793131776452,1.06756416703816,1.06772020609686,1.06610474290087,1.0673071615297,1.06756416703816,1.06565498326108,1.06522358115761,1.06126753208108,1.06150618005321,1.06212115751986,1.06223130273777,1.0643974920233,1.06546222912974,1.06880330073962,1.23423223926946,1.07460428221612,1.07834004085683,1.07699076193746,1.21114763734955,1.17199101238322,1.1901557945699,1.18809975050228,1.1895958897122,1.18013257974026,1.18319828830537,1.18167461279097,1.19744373648815,1.12759331079808,1.14498707645941,1.14887887415883,1.1638219087217,1.04884865876193,1.04436024113218,1.04286410192226
1.03917423712234,1.03739355609949,1.03451142289756,1.04294671083569,1.04404816301477,1.04338729170732,1.04635203382268,1.046774257158,1.04720565926147,1.04754527368336,1.04780227919181,1.04860083202164,1.04696701128934,1.04843561419478,1.0487660498485,1.04996846847733,1.05734819807718,1.06062501830994,1.06208444244723,1.06387430223823,1.06332357614869,1.06583855862426,1.06514097224418,1.06884919458042,1.06596706137849,1.07169461270971,1.07434727670766,1.07855115252449,1.16625428228383,1.09178693620978,1.08806035633723,1.08988693120087,1.09127292519288,1.09411834332217,1.09392558919083,1.09651400181167,1.10114010096382,1.18530940498194,1.09958888914494,1.10185604488022,1.10165411198072,1.09644975043456,1.09671593471117,1.10305846350905,1.10588552410202,1.10597731178361,1.10862079701341,1.1115121089835,1.11196186862329,1.10829954012784,1.10715219410797,1.10985075194672,1.11935995575945,1.11828603988485,1.11880922966991,1.12168218410368,1.12235223417929,1.12814403688762,1.23951003096089,1.10270049155085,1.10244348604239,1.10319614503143,1.10639035635077,1.11224641043622,1.11234737688597,1.11268699130785,1.11887348104702,1.11845125771171,1.11412805790882,1.11707444248786,1.11717540893761,1.12255416707879,1.12379330078025,1.11820343097142,1.11856140292962,1.11593627523614,1.11893773242414,1.1183411124938,1.10885026621738,1.11032804789098,1.11303578449789,1.11268699130785,1.11415559421329,1.11497250457944,1.1097865005696,1.10794156816964,1.11562419711873,1.10960292520642,1.10924495324822,1.11051162325416,1.10924495324822,1.11091548905316,1.1120261200004,1.11562419711873,1.1129898906571,1.10528890417169,1.10578455765227,1.10719808794876,1.11048408694969,1.10486668083637,1.10590388163834,1.10402223416575,1.10337972039461,1.1010758495867,1.10080048654193,1.09682607992908,1.09690868884251,1.09092413200284,1.09055698127648,1.08984103736007,1.08944635032924,1.08962992569242,1.0880878926417,1.08759223916112,1.08731687611635,1.08614199379199,1.08538933480295,1.0715844674918,1.07165789763707,1.07744970034541,1.0790651635414,1.07750477295436,1.07459510344796,1.07444824315741,1.07347529373256,1.07335596974649,1.06816996573665,1.06254338085518,1.06143274990794,1.06816996573665,1.06693083203518,1.06522358115761,1.06207526367907,1.06179072186614,1.06117574439949,1.06154289512585,1.06293806788602,1.06452599477752,1.06656368130882,1.06686658065807,1.06716030123916,1.0669950834123,1.06564580449292,1.06595788261033,1.06486560919941,1.06445256463225,1.06436077695066,1.06141439237162,1.06145110744426,1.06137767729898,1.05854143793785,1.0603221189607,1.06143274990794,1.06114820809501,1.06823421711376,1.06826175341824,1.07287867380222,1.07206176343607,1.06840861370879,1.06893180349385,1.07299799778829,1.07289703133854,1.07958835332646,1.07537529874147,1.07333761221017,1.20727419718645,1.21362590475249,1.23283706650929,1.12685900934536,1.18271181359294,1.14087498832417,1.15649725173081,1.05265784754792,1.05093223913403,1.04567280497892
1.04132206887155,1.03706312044577,1.03258388158417,1.18749395180378,1.04571869881971,1.04538826316599,1.04541579947046,1.04856411694901,1.05059262471215,1.05154721660068,1.05195108239968,1.04951870883754,1.05034479797185,1.05243755711211,1.05172161319571,1.05443852857077,1.06089120258656,1.06823421711376,1.06467285506807,1.06237816302832,1.05994578946618,1.06630667580037,1.064957396881,1.06601295521928,1.06479217905414,1.07212601481318,1.08010236434336,1.08026758217023,1.07746805788173,1.19162439747534,1.09455892419381,1.09423766730824,1.0899695401143,1.0922091595451,1.09327389665154,1.09491689615201,1.09689033130619,1.1001579727708,1.09791835334,1.09875362124247,1.0992400959549,1.09767052659971,1.09722076695992,1.09802849855791,1.10720726671692,1.10846475795471,1.10879519360843,1.10934591969797,1.11203529876856,1.11196186862329,1.10881355114475,1.12287542396435,1.13159525371541,1.13310057169349,1.13839672092124,1.12329764729967,1.12153532381314,1.12051648054749,1.24034529886336,1.10883190868107,1.10562851859357,1.10546330076671,1.11287056667103,1.11493578950681,1.11268699130785,1.11461453262124,1.12168218410368,1.12020440243008,1.11728555415551,1.11760681104108,1.11891937488782,1.12170054164,1.12493146803197,1.12448170839218,1.12456431730561,1.11846043647987,1.11885512351071,1.1187449782928,1.11392612500932,1.11123674593873,1.11450438740333,1.11410052160434,1.11300824819342,1.1101903663686,1.1105942321676,1.10984157317856,1.10874012099948,1.10762031128408,1.10996089716462,1.11447685109886,1.1135497955148,1.11229230427701,1.1120261200004,1.11618410197643,1.11577105740928,1.11418313051777,1.11310921464316,1.11078698629894,1.11107152811186,1.10625267482838,1.10258116756478,1.10235169836081,1.10257198879662,1.10288406691403,1.10060773241059,1.0999560398713,1.09767052659971,1.09544926470523,1.0942009522356,1.09689951007435,1.0974043423231,1.09175022113715,1.09005214902773,1.09151157316501,1.09042847852225,1.08805117756907,1.08724344597107,1.07215355111766,1.07155693118733,1.07301635532461,1.08044197876525,1.07808303534838,1.07900091216428,1.07722023114143,1.07447577946189,1.07473278497034,1.06441584955962,1.06333275491685,1.06132260469003,1.06427816803723,1.06425981050091,1.06153371635769,1.05978057163932,1.06031294019254,1.06150618005321,1.06186415201141,1.06425981050091,1.06392937484719,1.06664629022226,1.06757334580632,1.06700426218046,1.06761923964711,1.06789460269188,1.05497089712399,1.13712087214714,1.06478300028598,1.06306657064024,1.05965206888509,1.0626718836094,1.06243323563727,1.06009264975672,1.06079941490497,1.06033129772886,1.06117574439949,1.05978975040747,1.06760088211079,1.06758252457447,1.0678670663874,1.06857383153565,1.06835354109983,1.06774774240134,1.0649115030402,1.06554483804317,1.22319018117417,1.07155693118733,1.06976707139632,1.20229930484427,1.0683168260272,1.18987125275697,1.12503243448172,1.16099484812872,1.05631099727521,1.05489746697872,1.05499843342847,1.16378519364906
1.04021143792431,1.03907327067259,1.03370369129957,1.03711819305472,1.1884760799968,1.05200615500863,1.04869261970323,1.05005107739076,1.05185929471809,1.05229987558972,1.05274045646135,1.05514529371902,1.05124431725144,1.05174914950018,1.0556409471996,1.05773370633986,1.06457188861832,1.07103374140226,1.06224048150593,1.06228637534673,1.06170811295271,1.0681148931277,1.07026272487691,1.06593952507401,1.06686658065807,1.07068494821222,1.08026758217023,1.07785356614441,1.07719269483696,1.07783520860809,1.09448549404853,1.09351254462368,1.09387969535004,1.09314539389732,1.09565119760473,1.09728501833703,1.09717487311912,1.09654153811615,1.09678936485644,1.09861593972009,1.10013961523448,1.10005700632105,1.0975603813818,1.09737680601862,1.09849661573402,1.10993336086015,1.10981403687408,1.10994253962831,1.11178747202827,1.11225558920438,1.11262273993074,1.15136632032992,1.14163682608137,1.13414695126362,1.13526676097902,1.1261338866608,1.12199426222109,1.12182904439422,1.11588120262719,1.10943770737956,1.10946524368404,1.10943770737956,1.10899712650793,1.11643192871673,1.1153855491466,1.1200208270669,1.11656043147095,1.11829521865301,1.11825850358037,1.11913048655548,1.11928652561418,1.12118653062309,1.12136092721811,1.12381165831657,1.11950681605,1.11845125771171,1.11879087213359,1.11835029126196,1.11539472791476,1.10930002585718,1.21021140299733,1.11494496827497,1.1140638065317,1.11292563927998,1.11077780753078,1.1096763553517,1.10784978048805,1.10963964027906,1.10980485810592,1.11523868885606,1.11405462776354,1.11251259471283,1.11547733682819,1.11840536387091,1.11817589466694,1.11567009095953,1.11485318059338,1.11423820312672,1.10599566931993,1.10456378148713,1.10120435234093,1.09970821313101,1.10257198879662,1.10028647552503,1.09987343095787,1.09988260972603,1.09905652059172,1.09834057667532,1.09922173841858,1.09975410697181,1.09877197877879,1.0990840568962,1.09982753711708,1.09999275494394,1.09566037637289,1.09647728673904,1.12247155816536,1.07353036634151,1.07364969032758,1.08016661572048,1.08138739188563,1.08527918958505,1.08571059168852,1.07711926469169,1.07006079197741,1.07087770234356,1.07118978046097,1.06197429722932,1.06092791765919,1.06220376643329,1.06183661570693,1.06202019107011,1.06036801280149,1.0588443372871,1.05918395170898,1.05941342091296,1.06310328571288,1.06395691115167,1.06517768731681,1.06779363624213,1.06342454259844,1.06460860369096,1.05365833327726,1.05266702631608,1.05323610994194,1.06241487810095,1.05944095721743,1.05913805786818,1.0548791094424,1.05802742692094,1.05855061670601,1.05872501330103,1.05947767229007,1.06043226417861,1.0617540067935,1.06381922962928,1.06774774240134,1.06441584955962,1.06324096723526,1.06450763724121,1.06541633528895,1.06473710644518,1.06280038636363,1.06118492316764,1.06112067179053,1.06069844845522,1.06097381149999,1.06304821310392,1.19417609502354,1.19012825826542,1.06928059668389,1.07003325567293,1.05334625515985,1.05243755711211,1.04894962521168
1.04088148799991,1.03754959515819,1.03642978544279,1.03901819806363,1.04543415700678,1.04566362621076,1.04542497823862,1.05387862371307,1.05194190363152,1.05332789762353,1.05389698124939,1.05522790263245,1.05538394169115,1.05731148300454,1.05523708140061,1.05609070683939,1.06559991065213,1.06988639538239,1.19937127780154,1.06073516352785,1.05961535381245,1.06281874389995,1.0660313127556,1.05897284004132,1.05961535381245,1.06935402682916,1.06866561921724,1.07389751706787,1.07457674591164,1.07970767731253,1.09377872890029,1.09333814802866,1.09365940491422,1.09511882905151,1.10002029124842,1.10141546400859,1.10365508343938,1.10063526871507,1.09590820311318,1.09631206891218,1.09891883906934,1.09976328573996,1.09933188363649,1.1005618385698,1.10004782755289,1.10961210397458,1.10874012099948,1.11047490818153,1.11174157818747,1.11248505840835,1.11877251459727,1.15390883910997,1.1324029853134,1.13489961025265,1.1335227950288,1.12901601986273,1.12953920964779,1.37955967553107,1.11683579451572,1.11588120262719,1.11254930978547,1.11265945500337,1.10909809295768,1.11087877398053,1.11219133782726,1.12945660073436,1.11712951509681,1.11801985560824,1.11701019111074,1.11864401184305,1.11652371639832,1.11721212401024,1.11775367133162,1.11716623016945,1.11615656567196,1.11775367133162,1.11865319061121,1.12083773743305,1.1173773418371,1.11560583958242,1.11807492821719,1.12064498330171,1.11984643047188,1.12035126272062,1.11421066682225,1.11575269987296,1.108712584695,1.10613335084232,1.1085565456363,1.10951113752483,1.1101903663686,1.10728987563035,1.27757438251631,1.27266374155124,1.11938749206393,1.12162711149473,1.11648700132568,1.11588120262719,1.10187440241654,1.10399469786127,1.1007178776285,1.09946956515888,1.09980917958076,1.09861593972009,1.10162657567624,1.09954299530415,1.09946038639072,1.10013043646632,1.10040579951109,1.10041497827925,1.10034154813398,1.10250773741951,1.10289324568219,1.10345315053989,1.09718405188728,1.09486182354305,1.09510047151519,1.07491636033352,1.07593520359917,1.07597191867181,1.08354440240299,1.08392073189751,1.0775873818678,1.07739462773646,1.07113470785201,1.07389751706787,1.07388833829971,1.06375497825217,1.06154289512585,1.05961535381245,1.06184579447509,1.06227719657857,1.06130424715371,1.05948685105823,1.05906462772291,1.05963371134877,1.06250666578254,1.06274531375468,1.06544387159342,1.06706851355757,1.06060666077363,1.06086366628208,1.05159311044148,1.05494336081952,1.05502596973295,1.06113902932685,1.05791728170304,1.05749505836772,1.05684336582843,1.05883515851894,1.05882597975078,1.05888105235973,1.05829361119756,1.05855061670601,1.05889940989605,1.06164386157559,1.06174482802534,1.06321343093079,1.06429652557355,1.06297478295865,1.06135931976267,1.06252502331886,1.06209362121539,1.0599641470025,1.05799989061647,1.05871583453287,1.0584404714881,1.05872501330103,1.05863322561944,1.05854143793785,1.26805599993542,1.10337054162646,1.05002354108629,1.04905059166143,1.04779310042365
1.03780660066665,1.03783413697112,1.0382655390746,1.04033076191037,1.04553512345653,1.04554430222469,1.046774257158,1.05771534880354,1.05574191364935,1.0530433558106,1.0534472216096,1.05551244444538,1.05621003082546,1.05830278996571,1.06160714650296,1.06440667079146,1.06494821811284,1.07255741691666,1.07455838837532,1.24231873401755,1.05410809291705,1.05397041139466,1.06509507840338,1.06436995571882,1.06693083203518,1.06817914450481,1.06447092216857,1.07093277495251,1.07372312047285,1.07607288512156,1.09652318057983,1.09529322564653,1.09477921462962,1.0934850083192,1.09966231929022,1.10354493822148,1.10084638038273,1.09946038639072,1.09844154312507,1.09800096225343,1.10118599480461,1.10119517357277,1.09898309044645,1.09911159320067,1.09967149805837,1.10624349606023,1.10811596476466,1.12113145801414,1.1192589893097,1.14942960024837,1.11955270989079,1.12814403688762,1.13283438741688,1.13220105241391,1.1328068511124,1.13405516358203,1.13492714655713,1.1381580729491,1.13369719162382,1.26863426232943,1.28380676609628,1.12304982055937,1.28204444260975,1.10909809295768,1.10915316556663,1.12372904940314,1.11934159822313,1.12228798280218,1.11500004088392,1.11529376146501,1.11517443747894,1.1140638065317,1.11721212401024,1.11705608495154,1.1164594650212,1.11543144298739,1.11856140292962,1.1216546477992,1.11721212401024,1.116101493063,1.11676236437045,1.11970874894949,1.11964449757238,1.11883676597439,1.11740487814158,1.11533047653765,1.10870340592684,1.10820775244625,1.10619760221943,1.10803335585123,1.10692272490399,1.10608745700152,1.11663386161622,1.116505358862,1.12070923467883,1.12082855866489,1.11377008595061,1.19576402191505,1.10372851358466,1.10334300532198,1.10278310046428,1.10170000582152,1.09850579450218,1.09860676095193,1.10059855364243,1.10032319059766,1.10084638038273,1.1027555641598,1.10241594973792,1.10171836335783,1.10418745199261,1.10434349105131,1.10393962525231,1.1040773067747,1.10130531879068,1.0994420288544,1.1000019337121,1.18628235440679,1.07748641541805,1.07744970034541,1.08856518858597,1.08784924466957,1.08100188362295,1.07936806289064,1.07529268982804,1.07531104736436,1.07387915953156,1.06848204385406,1.07109799277938,1.06538879898447,1.06554483804317,1.06449845847305,1.06188250954773,1.06168057664823,1.06076269983233,1.06218540889698,1.06317671585815,1.06449845847305,1.06579266478347,1.06773856363318,1.06240569933279,1.05547572937274,1.05185011594993,1.05253852356186,1.05646703633391,1.06031294019254,1.05694433227818,1.05784385155776,1.05638442742048,1.0584863653289,1.05904627018659,1.05954192366718,1.05755930974484,1.0580824995299,1.05815592967517,1.05909216402739,1.05885351605526,1.06196511846116,1.06453517354568,1.06392937484719,1.06157961019848,1.061955939693,1.05945931475375,1.05863322561944,1.05845882902442,1.05813757213885,1.05730230423638,1.05703611995977,1.0565588240155,1.05431002581655,1.05522790263245,1.05510857864638,1.04903223412511,1.0478481730326,1.0493259547062
1.04038583451933,1.03891723161389,1.13165032632437,1.17908620017013,1.04874769231219,1.04874769231219,1.04808682100474,1.05825689612492,1.05837622011099,1.05837622011099,1.06082695120944,1.06354386658451,1.05978975040747,1.06099216903631,1.06134096222635,1.06596706137849,1.06772938486502,1.0753018685962,1.07848690114738,1.07890912448269,1.08763813300191,1.06338782752581,1.06178154309798,1.06238734179647,1.06234144795568,1.06464531876359,1.06400280499246,1.06462696122727,1.07141007089678,1.14674939994594,1.11700101234259,1.1037193348165,1.09622945999875,1.09537583455996,1.09550433731418,1.0998458946534,1.10237923466528,1.10106667081854,1.09901980551908,1.0994420288544,1.10277392169612,1.10167246951704,1.1005618385698,1.10114927973197,1.10161739690808,1.10474735685031,1.11632178349882,1.12504161324988,1.12452760223297,1.18840264985153,1.12624403187871,1.18060069691637,1.13508318561584,1.13414695126362,1.13414695126362,1.1350005767024,1.13750638040981,1.13734116258295,1.13740541396006,1.13455081706261,1.271553110604,1.12189329577134,1.12146189366786,1.11062176847207,1.11041065680442,1.12394933983896,1.12238894925192,1.12051648054749,1.11826768234853,1.11697347603811,1.11730391169183,1.11569762726401,1.12044305040221,1.12114981555046,1.12402276998423,1.12099377649175,1.11846043647987,1.11712033632865,1.11642274994857,1.11563337588689,1.11741405690974,1.11967203387686,1.12192083207581,1.11972710648581,1.11835029126196,1.11464206892572,1.11086959521237,1.10976814303329,1.11069519861735,1.11158553912877,1.11177829326011,1.11587202385903,1.11745077198238,1.11622999581723,1.11850633032066,1.12327928976335,1.11209037137751,1.11164979050588,1.10783142295173,1.10816185860546,1.10854736686814,1.10879519360843,1.09722076695992,1.09818453761661,1.10236087712896,1.10256281002846,1.10292078198666,1.10337054162646,1.10312271488616,1.10561016105725,1.10655557417763,1.10652803787315,1.10568359120253,1.10601402685625,1.10616088714679,1.10200290517076,1.10089227422352,1.11509182856551,1.08462749704576,1.09344829324657,1.09062123265359,1.08627049654622,1.08416855863781,1.08075405688265,1.07681636534244,1.07741298527277,1.07365886909574,1.07149267981021,1.07053808792168,1.06666464775857,1.06620570935062,1.06840861370879,1.06860136784012,1.0669491895715,1.06813325066402,1.06629749703221,1.07116224415649,1.0742279527216,1.07174050655051,1.06901441240728,1.06955595972866,1.05889940989605,1.05209794269022,1.0553288690822,1.06145110744426,1.0608820238184,1.05766027619458,1.05700858365529,1.05695351104634,1.05900955511396,1.05941342091296,1.06090038135472,1.05832114750203,1.05796317554383,1.05748587959956,1.06001004084329,1.05988153808906,1.06297478295865,1.06173564925718,1.06199265476564,1.06253420208702,1.0628738165089,1.06045062171492,1.05849554409705,1.05881680098262,1.0582385385886,1.05843129271994,1.0590003763458,1.05399794769914,1.0524834509529,1.05234576943052,1.05600809792596,1.04839889912214,1.05118924464248,1.05190518855889
1.04586555911026,1.11960778249974,1.05942259968111,1.05866994069208,1.05415398675784,1.05227233928525,1.05173997073202,1.06000086207513,1.05865158315576,1.05897284004132,1.05937670584032,1.06264434730493,1.06465449753175,1.05918395170898,1.06563662572476,1.09019900931828,1.0767796502698,1.077541488027,1.08227773239705,1.08389319559304,1.20107852867912,1.07216272988582,1.06332357614869,1.06782117254661,1.06734387660234,1.06561826818845,1.06609556413271,1.0713825345923,1.07014340089084,1.07117142292465,1.13516579452927,1.10729905439851,1.10551837337566,1.10364590467123,1.10375604988913,1.10226908944737,1.10290242445035,1.10175507843047,1.1018835811847,1.10656475294579,1.10505025619955,1.24734869896869,1.1580209272452,1.15732334086512,1.10896041143529,1.10935509846613,1.13129235436616,1.14123296028237,1.31417930993444,1.18895337594107,1.18960506848036,1.16678665083706,1.13813971541279,1.13736869888743,1.13767159823668,1.13870879903864,1.13874551411128,1.13793778251329,1.13534936989245,1.13544115757404,1.13578995076408,1.2496984636174,1.2598868962739,1.13904841346053,1.13957160324559,1.25023083217062,1.27805167846058,1.25600427734264,1.25941877909779,1.12161793272657,1.12763002587072,1.12798799782892,1.12933727674829,1.12360972541707,1.12311407193649,1.12436238440611,1.11887348104702,1.11847879401619,1.11826768234853,1.11789135285401,1.11862565430673,1.12046140793853,1.12179232932159,1.11969957018133,1.11836864879828,1.11912130778732,1.11367829826902,1.11397201885011,1.11393530377748,1.11596381154062,1.11552323066898,1.11565173342321,1.11667057668886,1.11775367133162,1.11131935485216,1.11226476797254,1.11329279000635,1.1126319186989,1.11289810297551,1.11181500833274,1.10784978048805,1.10784060171989,1.10185604488022,1.10216812299762,1.10901548404425,1.10588552410202,1.10548165830303,1.1045913177916,1.10209469285235,1.10449035134185,1.10599566931993,1.10584880902939,1.10469228424135,1.10462803286424,1.10256281002846,1.10270049155085,1.09905652059172,1.18228959025762,1.0873719487253,1.09206229925455,1.0910434559889,1.08740866379794,1.08712412198501,1.08158932478512,1.07751395172252,1.07672457766085,1.07635742693449,1.07415452257633,1.07051973038536,1.06809653559138,1.06761923964711,1.06795885406899,1.06783035131477,1.06717865877548,1.06765595471975,1.06781199377845,1.06945499327891,1.0729521039475,1.07484293018825,1.0736221540231,1.0628738165089,1.05503514850111,1.05615495821651,1.05531051154588,1.05701776242345,1.05894530373685,1.05614577944835,1.05702694119161,1.0575225946722,1.05798153308015,1.06176318556166,1.06080859367312,1.05850472286521,1.05883515851894,1.06031294019254,1.06240569933279,1.06269024114572,1.06233226918752,1.06220376643329,1.0625617383915,1.06084530874576,1.05980810794379,1.06064337584626,1.06038637033781,1.06123081700844,1.05815592967517,1.05990907439354,1.05761438235379,1.05585205886726,1.051969439936,1.04998682601365,1.04889455260273,1.0475360949152,1.04872933477587,1.05249262972106
1.07782602983993,1.08311300029952,1.07119895922912,1.07165789763707,1.06998736183214,1.0601201860612,1.06060666077363,1.06120328070396,1.06107477794974,1.05838539887915,1.0597163202622,1.0647554639815,1.06509507840338,1.06552648050686,1.07383326569076,1.1890359848545,1.08796856865564,1.08040526369261,1.0834526147214,1.08341589964877,1.09199804787744,1.22215298037221,1.06793131776452,1.06787624515556,1.06920716653862,1.07092359618435,1.07413616504001,1.07228205387189,1.07090523864804,1.25503132791778,1.2038138015905,1.10447199380554,1.10374687112097,1.1019937264026,1.10406812800654,1.10557344598462,1.10710630026717,1.10812514353282,1.10326957517671,1.11237491319044,1.11302660572973,1.11342129276057,1.16157311052274,1.10985993071488,1.10962128274274,1.25473760733669,1.35466685628384,1.1356063754009,1.1348445376437,1.13571652061881,1.13939720665057,1.27306760735024,1.14094841846944,1.14049865882965,1.14099431231024,1.13999382658091,1.14031508346647,1.13989286013116,1.13757981055509,1.13794696128145,1.1369281180158,1.2281558947482,1.26150235946988,1.13176047154227,1.13099863378508,1.13202665581888,1.28833189879867,1.13523004590638,1.13578995076408,1.13753391671429,1.12874983558612,1.12879572942691,1.12870394174532,1.1317329352378,1.12217783758427,1.12084691620121,1.12055319562012,1.11958942496343,1.11851550908882,1.11848797278434,1.11855222416146,1.11881840843807,1.11843290017539,1.11664304038438,1.11858893923409,1.1193048831505,1.11531211900133,1.1158995601635,1.11606477799037,1.11597299030878,1.11587202385903,1.11581695125007,1.11835947003012,1.11827686111669,1.11243916456756,1.11215462275463,1.12301310548674,1.11561501835057,1.11500921965208,1.11379762225509,1.108712584695,1.10727151809403,1.10906137788504,1.10916234433479,1.10882272991291,1.10702369135374,1.10594977547914,1.10446281503738,1.10253527372399,1.10422416706524,1.1062710323647,1.10639953511893,1.10583963026123,1.10435266981947,1.10389373141152,1.10072705639666,1.09694540391515,1.0960825997082,1.18946738695797,1.09145650055606,1.08682122263576,1.08616035132831,1.08431541892835,1.08236034131048,1.08006564927073,1.07898255462796,1.07543037135043,1.07429220409871,1.07128156814256,1.06902359117544,1.06559991065213,1.06303903433576,1.06515015101234,1.06776609993765,1.06788542392372,1.06849122262222,1.0693907419018,1.07431056163503,1.0738240869226,1.07440234931662,1.07600863374445,1.06072598475969,1.05674239937868,1.0580824995299,1.0585965105468,1.0562008520573,1.05795399677567,1.05817428721149,1.0621578725925,1.06166221911191,1.06335111245317,1.06191922462037,1.06178154309798,1.06017525867015,1.06152453758953,1.06269941991388,1.06432406187803,1.06450763724121,1.06434241941434,1.0629197103497,1.062359805492,1.06131342592187,1.06107477794974,1.0610380628771,1.06124917454476,1.06014772236568,1.06286463774074,1.06332357614869,1.05765109742643,1.05233659066236,1.04902305535696,1.048967982748,1.04639792766348,1.04766459766942,1.04775638535101
1.06426898926907,1.0695926748013,1.07293374641118,1.0731081430062,1.07067576944406,1.07090523864804,1.07240137785795,1.07087770234356,1.07130910444703,1.16317939495057,1.15737841347407,1.06966610494657,1.06985885907791,1.07115306538833,1.07409944996737,1.08160768232144,1.08456324566864,1.08718837336212,1.17987557423181,1.09097920461179,1.09731255464151,1.098322219139,1.20573216413574,1.07664196874742,1.07448495823005,1.07389751706787,1.07397094721315,1.07448495823005,1.08073569934634,1.08133231927667,1.0908874169302,1.18973357123458,1.1059130604065,1.10075459270114,1.10359083206227,1.10433431228315,1.10692272490399,1.10829036135968,1.11286138790287,1.20684279508298,1.20534665587306,1.11748748705501,1.11835947003012,1.11257684608994,1.25870283518138,1.29500486325027,1.27217726683881,1.13302714154822,1.13500975547056,1.13733198381479,1.13814889418094,1.14108609999183,1.14240784260673,1.14273827826045,1.14348175848133,1.14415180855694,1.1448769312415,1.14146242948635,1.14225180354802,1.14315132282761,1.14190301035798,1.1426832056515,1.14305035637786,1.14657500335092,1.13165032632437,1.139479815564,1.14061798281572,1.13906677099685,1.13810300034015,1.13502811300688,1.13467014104868,1.13122810298905,1.13014500834629,1.12940152812541,1.12874065681796,1.12579427223892,1.12467446252352,1.12291213903699,1.11873579952464,1.11851550908882,1.1183411124938,1.11750584459133,1.11619328074459,1.11513772240631,1.11732226922815,1.11786381654953,1.11829521865301,1.1174232356779,1.11597299030878,1.11565173342321,1.11465124769388,1.11487153812969,1.11920391670075,1.11870826322016,1.11769859872267,1.12260006091958,1.12193918961213,1.11704690618338,1.11649618009384,1.11264109746706,1.1085565456363,1.10865751208605,1.10726233932588,1.10686765229504,1.10898794773977,1.10883190868107,1.10772127773383,1.10661064678659,1.1040773067747,1.10305846350905,1.10338889916277,1.10533479801248,1.10522465279458,1.10560098228909,1.09987343095787,1.09951545899967,1.10284735184139,1.10246184357871,1.09983671588524,1.0888497303989,1.08677532879496,1.08504972038107,1.08503136284475,1.08435213400099,1.08341589964877,1.08170864877119,1.0776975270857,1.07712844345984,1.07511829323302,1.07186900930473,1.06872987059435,1.06992311045502,1.062359805492,1.06914291516151,1.07018929473163,1.07062069683511,1.07210765727687,1.07391587460419,1.07484293018825,1.07627481802106,1.07749559418621,1.06153371635769,1.06152453758953,1.06449845847305,1.05665061169709,1.05741244945429,1.0579264604712,1.06132260469003,1.06387430223823,1.0649115030402,1.06479217905414,1.06348879397556,1.06072598475969,1.06101970534078,1.06149700128505,1.06197429722932,1.06653614500435,1.06777527870581,1.06471874890886,1.06753663073368,1.06460860369096,1.06498493318547,1.06392019607903,1.06193758215668,1.06043226417861,1.06072598475969,1.064149665283,1.06421391666012,1.05802742692094,1.0565588240155,1.05033561920369,1.04790324564156,1.04828875390423,1.0497298205052,1.04593898925553
1.06431488310987,1.06682986558544,1.07118060169281,1.07268591967088,1.07231876894452,1.07227287510373,1.07266756213457,1.0780554990439,1.07908352107771,1.07756902433148,1.07863376143792,1.16680500837337,1.24597188374484,1.07688979548771,1.07885405187374,1.08236034131048,1.08390237436119,1.09293428222966,1.09336568433313,1.09376037136397,1.09432027622167,1.10016715153896,1.08798692619195,1.21682929483998,1.0790651635414,1.07617385157131,1.07689897425587,1.07761491817227,1.0820207268886,1.08318643044479,1.08797774742379,1.25202987072978,1.10516958018562,1.10438938489211,1.10425170336972,1.10623431729207,1.10951113752483,1.11231984058149,1.11857976046594,1.12222373142506,1.12171889917632,1.12163629026289,1.12121406692757,1.11674400683413,1.11657878900727,1.1235821891126,1.14109527875999,1.13439477800391,1.13548705141483,1.13730444751032,1.14023247455304,1.14109527875999,1.1413155691958,1.14129721165949,1.14317885913208,1.14459238942857,1.1441609873251,1.14374794275794,1.14380301536689,1.14275663579677,1.14380301536689,1.1437571215261,1.14184793774903,1.13995711150827,1.14425277500669,1.14454649558777,1.14221508847539,1.14169189869032,1.14068223419283,1.25266320573276,1.26912073704186,1.25916177358934,1.13292617509847,1.13118220914826,1.13014500834629,1.12749234434833,1.12718944499909,1.29677636550496,1.12025947503903,1.12004836337138,1.12020440243008,1.11773531379531,1.11692758219731,1.11599134784509,1.11597299030878,1.11712033632865,1.11899280503309,1.11912130778732,1.11893773242414,1.11621163828091,1.11624835335355,1.11466042646204,1.11209037137751,1.11216380152279,1.11638603487593,1.21790321071458,1.12435320563795,1.11850633032066,1.11643192871673,1.11215462275463,1.11076862876262,1.11032804789098,1.10914398679847,1.10918070187111,1.10862079701341,1.1081067859965,1.10990582455567,1.10962128274274,1.10681257968608,1.10749180852985,1.10649132280052,1.10601402685625,1.10716137287613,1.10740919961642,1.10505943496771,1.10495846851796,1.10544494323039,1.10326957517671,1.09439370636694,1.09269563425753,1.08878547902179,1.08854683104965,1.08733523365266,1.08649078698204,1.08255309544182,1.07832168332052,1.07778931476729,1.07700911947378,1.07391587460419,1.07433809793951,1.07461346098428,1.07424631025792,1.07168543394155,1.06999654060029,1.07357626018231,1.07369558416838,1.07497143294248,1.07556805287281,1.07836757716131,1.07546708642306,1.07125403183808,1.06339700629397,1.06335111245317,1.07208012097239,1.05816510844333,1.05874337083735,1.06058830323731,1.0614419286761,1.06502164825811,1.06566416202924,1.06632503333669,1.06494821811284,1.06247912947806,1.06328686107606,1.06283710143627,1.06302067679945,1.06581102231979,1.06536126267999,1.06727044645707,1.06536126267999,1.0647095701407,1.06535208391183,1.06467285506807,1.06275449252283,1.06264434730493,1.0634796152074,1.06749073689288,1.06566416202924,1.06457188861832,1.06473710644518,1.14998950510607,1.05377765726332,1.0521254789947,1.04938102731516,1.0486559046306
1.0617540067935,1.06480135782229,1.066747256672,1.06930813298837,1.15122863880753,1.07408109243105,1.07481539388377,1.07895501832349,1.0776975270857,1.07833086208868,1.07971685608069,1.08394826820199,1.08315889414031,1.07817482302997,1.08490286009053,1.08479271487262,1.08525165328057,1.09254877396698,1.09307196375205,1.09293428222966,1.09606424217188,1.09436617006247,1.09041012098593,1.09157582454213,1.20068384164828,1.08639899930045,1.08243377145575,1.08021250956127,1.08147917956722,1.08359947501195,1.08982267982376,1.28001593484661,1.34874655082127,1.11512854363815,1.10685847352688,1.11064930477655,1.11058505339944,1.11437588464911,1.12920877399407,1.12330682606783,1.12243484309272,1.12281117258724,1.12397687614343,1.11779956517242,1.11671647052966,1.25517818820832,1.27266374155124,1.14518900935891,1.13791024620881,1.13941556418689,1.14284842347836,1.1422334460117,1.14368369138083,1.144674998342,1.14249963028832,1.14316050159576,1.14365615507635,1.14444552913803,1.14495036138677,1.14417016609326,1.14495954015493,1.14567548407133,1.14506968537284,1.1402416533212,1.14134310550028,1.14351847355397,1.14195808296693,1.1413614630366,1.14227016108434,1.14381219413505,1.14444552913803,1.14437209899275,1.1474745226305,1.31912666597215,1.31927352626269,1.22613656575322,1.13068655566767,1.12775852862495,1.12480296527774,1.12487639542302,1.30203579966007,1.30794692635447,1.11709280002418,1.1181391795943,1.36231277016029,1.12000246953058,1.11924981054154,1.1189010173515,1.11895608996045,1.11695511850179,1.11566091219137,1.11515607994262,1.11469714153467,1.11577105740928,1.11519279501526,1.11549569436451,1.11607395675853,1.11220969536358,1.1120261200004,1.11215462275463,1.11228312550885,1.11270534884417,1.11249423717651,1.12000246953058,1.11649618009384,1.11559666081426,1.1157435211048,1.11331114754266,1.11185172340538,1.11153964528797,1.10985075194672,1.10910727172584,1.11106234934371,1.10888698129002,1.10737248454378,1.10646378649604,1.10635364127813,1.1060690994652,1.09925845349122,1.09427438238088,1.09120867381577,1.09133717656999,1.09084152308941,1.08875794271731,1.08562798277509,1.08286517355923,1.07898255462796,1.07732119759118,1.07612795773051,1.07620138787579,1.07617385157131,1.07755984556332,1.07790863875336,1.07863376143792,1.07823907440709,1.0781013928847,1.07840429223395,1.08070816304186,1.07639414200712,1.07401684105394,1.07186900930473,1.06593952507401,1.06859218907197,1.0715844674918,1.06615063674167,1.06288299527706,1.06482889412677,1.06509507840338,1.06794049653268,1.06816078696849,1.06958349603314,1.06638010594564,1.06574677094267,1.06671972036753,1.0678670663874,1.21434184866889,1.07279606488879,1.06998736183214,1.06742648551577,1.06744484305209,1.06689411696255,1.0656733407974,1.06493903934468,1.06440667079146,1.06185497324325,1.064553531082,1.06734387660234,1.06792213899636,1.06673807790385,1.06697672587598,1.06758252457447,1.06887673088489,1.22954188874021,1.05058344594399,1.04943609992411
1.06050569432388,1.06247912947806,1.06313082201735,1.06536126267999,1.06473710644518,1.06504000579443,1.1734504365205,1.07350283003704,1.07450331576637,1.07777095723098,1.07867965527872,1.08245212899207,1.08379222914329,1.08361783254827,1.08575648552931,1.08683958017208,1.0920531204864,1.09331061172418,1.09330143295602,1.09360433230527,1.08764731177007,1.09195215403665,1.0914473217879,1.09189708142769,1.09243862874907,1.28061255477694,1.25490282516355,1.08404005588358,1.08251638036918,1.08242459268759,1.08790431727852,1.18655771745156,1.28567923480072,1.11466042646204,1.11198022615961,1.11197104739145,1.11214544398647,1.11365076196455,1.15652478803528,1.1257300208618,1.12684065180904,1.12596866883394,1.12479378650958,1.12384837338921,1.11776285009978,1.23672886420871,1.14457403189225,1.32796581970928,1.13767159823668,1.13752473794613,1.28828600495787,1.37756788284057,1.14499625522757,1.14422523870221,1.14373876398978,1.14415180855694,1.14492282508229,1.14574891421661,1.14292185362363,1.14229769738882,1.14322475297288,1.14603345602953,1.14538176349024,1.14372040645346,1.14436292022459,1.14368369138083,1.14244455767936,1.14068223419283,1.13604695627253,1.13657932482575,1.14269238441965,1.14414262978878,1.14692379654096,1.14695133284544,1.14439963529723,1.14252716659279,1.33205037154003,1.19807707149112,1.13034694124579,1.12863969036821,1.12592277499314,1.12462856868272,1.12192083207581,1.12077348605594,1.12103967033255,1.12087445250569,1.12142517859523,1.12160875395841,1.1189469111923,1.12020440243008,1.12003000583506,1.12182904439422,1.12186575946686,1.12133339091364,1.12082855866489,1.11702854864706,1.11880922966991,1.11256766732178,1.11292563927998,1.20463071195666,1.28354058181967,1.12446335085586,1.1302551535642,1.12283870889172,1.26644053673943,1.26417338100415,1.11932324068681,1.11773531379531,1.11611067183116,1.11428409696752,1.11325607493371,1.1137517284143,1.11581695125007,1.1150275771884,1.10968553411985,1.10804253461939,1.10760195374776,1.10816185860546,1.10046087212005,1.10272802785532,1.14864022618669,1.14548272993999,1.09263138288041,1.13917691621475,1.09079562924861,1.08416855863781,1.08281927971843,1.07971685608069,1.07909269984587,1.08030429724286,1.07829414701604,1.07988207390755,1.07941395673144,1.08152507340801,1.0801849732568,1.08408594972437,1.08274584957316,1.0795791745583,1.07963424716725,1.08036854861998,1.0796250683991,1.06776609993765,1.07215355111766,1.0733100759057,1.06632503333669,1.0667931505128,1.06597624014665,1.06873904936251,1.07085934480724,1.07156610995548,1.07146514350574,1.06911537885703,1.06769266979238,1.06895016103017,1.07012504335452,1.07629317555738,1.07505404185591,1.07141924966494,1.07147432227389,1.0701066858182,1.06753663073368,1.0656733407974,1.06685740188991,1.06214869382434,1.06227719657857,1.06523275992577,1.06656368130882,1.06828928972272,1.06684822312175,1.06671972036753,1.06684822312175,1.06457188861832,1.0658752736969,1.07146514350574,1.06958349603314
1.06030376142438,1.06167139788007,1.0621578725925,1.06244241440543,1.06262598976861,1.06354386658451,1.06626078195958,1.07055644545799,1.07241973539427,1.07336514851465,1.07996468282098,1.08190140290253,1.08378305037513,1.08642653560492,1.08668354111337,1.08877630025363,1.2833753639928,1.09825796776189,1.09454974542565,1.08716083705764,1.08743620010241,1.09291592469334,1.09330143295602,1.09539419209628,1.09721158819176,1.09946038639072,1.09929516856385,1.09115360120681,1.1766079327672,1.24487043156576,1.08860190365861,1.0886936913402,1.09234684106748,1.21464474801814,1.27459128286463,1.11316428725212,1.11125510347504,1.19268913458178,1.11880922966991,1.13521168837006,1.12846529377319,1.12787785261101,1.12795128275628,1.12891505341298,1.22579695133133,1.31951217423483,1.1454368360992,1.13154018110646,1.13315564430244,1.13438559923575,1.38332297047627,1.13746966533718,1.1348904314845,1.31153582470465,1.144271132543,1.14422523870221,1.14632717661062,1.14700640545439,1.25247045160142,1.14323393174104,1.14236194876593,1.14144407195003,1.14221508847539,1.1448310374007,1.14569384160765,1.14658418211907,1.14465664080568,1.14163682608137,1.13810300034015,1.14013150810329,1.13841507845756,1.14374794275794,1.14640978552405,1.14758466784841,1.14930109749414,1.14412427225246,1.14105856368735,1.16385862379433,1.15808517862231,1.12959428225675,1.12895176848562,1.13104452762587,1.13303632031638,1.13421120264073,1.12651021615532,1.12692326072248,1.11939667083209,1.12018604489376,1.12203097729372,1.11729473292367,1.11741405690974,1.12008507844401,1.12015850858928,1.12070005591067,1.1209845977236,1.11543144298739,1.11586284509087,1.11647782255752,1.11924981054154,1.13696483308843,1.12496818310461,1.12571166332549,1.1289334109493,1.13126481806169,1.13114549407562,1.12883244449955,1.12654693122796,1.12629910448766,1.12184740193054,1.12151696627682,1.1216546477992,1.11620245951275,1.11573434233664,1.11595463277246,1.11333868384714,1.10956621013379,1.10767538389303,1.1066290043229,1.10196619009813,1.10146135784938,1.10457296025529,1.10930002585718,1.10965799781538,1.10709712149901,1.1350005767024,1.10034154813398,1.12408702136134,1.12486721665486,1.08449899429153,1.09639467782561,1.08276420710948,1.11667057668886,1.08334246950349,1.08322314551743,1.08662846850442,1.08473764226366,1.08346179348956,1.07869801281504,1.08081830825977,1.07935888412248,1.07723858867775,1.06906948501623,1.06870233428987,1.07266756213457,1.07403519859026,1.06848204385406,1.06788542392372,1.0710245626341,1.07452167330269,1.07455838837532,1.07209847850871,1.07109799277938,1.07074002082117,1.07130910444703,1.07330089713754,1.07610960019419,1.07711008592353,1.08001975542993,1.08509561422187,1.28043815818192,1.06906030624807,1.06758252457447,1.06608638536456,1.06457188861832,1.06508589963522,1.06562744695661,1.06664629022226,1.06826175341824,1.06758252457447,1.06676561420832,1.06793131776452,1.06555401681133,1.0695467809605,1.06933566929285,1.0708685235754
1.06332357614869,1.06470039137255,1.06336029122133,1.06370908441137,1.06329603984422,1.06430570434171,1.06707769232573,1.06980378646895,1.07120813799728,1.07241973539427,1.07874390665583,1.08082748702793,1.08376469283881,1.08636228422781,1.08711494321685,1.12188411700318,1.10034154813398,1.10001111248026,1.09314539389732,1.09294346099782,1.10672079200449,1.09617438738979,1.09632124768034,1.09746859370021,1.09957971037678,1.09996521863946,1.10186522364838,1.14720833835389,1.17591034638711,1.17717701639306,1.08985939489639,1.08946470786555,1.08929031127053,1.08742702133425,1.17157796781606,1.21725151817529,1.28459614015795,1.18601617013018,1.18410698635311,1.24600859881747,1.2967671867368,1.13169622016516,1.13111795777114,1.13161361125173,1.13241216408156,1.12499571940908,1.12498654064092,1.33560255481757,1.13440395677207,1.13413777249546,1.1330087840119,1.13463342597604,1.13554212402379,1.1358083083004,1.29667539905521,1.38868337108113,1.41466846373929,1.14767645553,1.14767645553,1.14937452763941,1.14269238441965,1.14258223920175,1.14230687615698,1.14574891421661,1.1467126848733,1.14997114756975,1.14705229929518,1.32856243963961,1.13967256969534,1.13853440244362,1.13862619012521,1.13894744701078,1.14134310550028,1.14541847856288,1.1470706568315,1.14737355618075,1.16084798783818,1.16055426725709,1.12566576948469,1.16850308048279,1.14245373644752,1.29729037652186,1.13450492322182,1.22424573951246,1.1474286287897,1.20293263984724,1.11341211399241,1.21492011106291,1.12249909446983,1.11723966031472,1.11697347603811,1.12148025120418,1.11959860373159,1.11867154814753,1.11889183858334,1.11455028124413,1.1149816833476,1.11993821815347,1.11969957018133,1.12237977048377,1.12636335586478,1.12678557920009,1.12903437739905,1.129089450008,1.12822664580105,1.12775852862495,1.12754741695729,1.12714355115829,1.1278136012339,1.12271938490565,1.12090198881016,1.11866236937937,1.1177812076361,1.11456863878045,1.11357733181927,1.11556912450978,1.15407405693683,1.10080048654193,1.09398066179979,1.09399901933611,1.10589470287018,1.10634446250997,1.1071889091806,1.10674832830897,1.10320532379959,1.10320532379959,1.09946038639072,1.09755120261364,1.09779902935394,1.09711980051017,1.09761545399076,1.09744105739573,1.09071302033518,1.0877758145243,1.08663764727258,1.08607774241488,1.08294778247266,1.08187386659805,1.08102941992742,1.07926709644089,1.07251152307586,1.0712723893744,1.07081345096645,1.0708685235754,1.07357626018231,1.07401684105394,1.07399848351762,1.07532022613252,1.07785356614441,1.07594438236733,1.07345693619624,1.07289703133854,1.07521008091461,1.07465017605691,1.07565066178624,1.07697240440114,1.07693568932851,1.08004729173441,1.0834985085622,1.07737627020014,1.07767916954939,1.07264002583009,1.07212601481318,1.05924820308609,1.06033129772886,1.06604967029192,1.06928977545205,1.07050137284904,1.0682709321864,1.06788542392372,1.06821585957745,1.06941827820628,1.06996900429582,1.07110717154753,1.07075837835749
1.16395959024408,1.06682986558544,1.0658293798561,1.06183661570693,1.06473710644518,1.06575594971083,1.06973953509184,1.07240137785795,1.07222698126293,1.0686747979854,1.07017093719532,1.0834526147214,1.08348015102588,1.08384730175224,1.08750045147953,1.09642221413008,1.09618356615795,1.09631206891218,1.09624781753506,1.10317778749512,1.10381112249809,1.10549083707119,1.20826550414762,1.10848311549102,1.10696861874479,1.21782060180115,1.11665221915254,1.10933674092981,1.10857490317261,1.28991064692202,1.09493525368832,1.09070384156702,1.09014393670932,1.0873719487253,1.08712412198501,1.34715862392977,1.32838804304459,1.08431541892835,1.25852843858636,1.32167836352035,1.20240945006217,1.32828707659484,1.13217351610943,1.13189815306466,1.13189815306466,1.13108124269851,1.1276575621752,1.12564741194837,1.13528511851533,1.13382569437805,1.13293535386663,1.13264163328554,1.13462424720788,1.13405516358203,1.13657014605759,1.46540869412229,1.30033772755065,1.14295856869627,1.14432620515196,1.15036583460059,1.15065037641352,1.12864886913637,1.14211412202564,1.14225180354802,1.15519386665223,1.18982535891617,1.1561392797726,1.34878326589391,1.16595138293459,1.13214597980495,1.13016336588261,1.4050582934768,1.2335071165849,1.14403248457087,1.14321557420472,1.14241702137488,1.09026326069539,1.1415175020953,1.07929463274537,1.14097595477392,1.14129721165949,1.12473871390063,1.40274524390073,1.402818674046,1.13853440244362,1.13914020114212,1.15645135789001,1.12203097729372,1.1250599707862,1.12470199882799,1.12830925471449,1.13007157820102,1.12239812802008,1.27817100244665,1.12063580453355,1.11242080703124,1.11244834333572,1.12012179351665,1.11790971039033,1.11843290017539,1.11922227423707,1.12722616007172,1.12849283007767,1.13022761725972,1.13099863378508,1.1322928400955,1.12931891921198,1.12778606492942,1.1270517634767,1.12515175846779,1.12300392671858,1.12060826822908,1.11824932481221,1.1153396553058,1.11534883407396,1.10357247452595,1.10256281002846,1.09865265479272,1.09945120762256,1.12220537388874,1.10641789265525,1.10634446250997,1.10628938990102,1.1055550884483,1.10354493822148,1.10153478799465,1.10149807292202,1.09643139289824,1.09887294522854,1.09703719159674,1.09649564427536,1.09622945999875,1.0920072266456,1.09309032128836,1.0929251034615,1.08858354612229,1.0832965756627,1.0803410123155,1.08142410695826,1.07615549403499,1.07082262973461,1.06958349603314,1.07081345096645,1.07114388662017,1.07146514350574,1.07315403684699,1.07156610995548,1.07157528872364,1.08379222914329,1.07872554911951,1.0781013928847,1.07705501331457,1.07610042142604,1.07440234931662,1.07079509343013,1.07781685107177,1.07967096223989,1.07911105738219,1.07685308041507,1.07721105237328,1.07610042142604,1.07563230424993,1.07417288011264,1.06101970534078,1.06309410694472,1.07170379147787,1.07427384656239,1.07553133780018,1.07836757716131,1.07081345096645,1.24823903948011,1.07289703133854,1.07121731676544,1.07341104235545,1.07230959017636
