1.07593706503178,1.07832504163721,1.0785587469517,1.0797809803604,1.0802530842932,1.08077227061916,1.08166655106095,1.07328340111559,1.07433702526041,1.07701044368577,1.09226012575365,1.10183803282689,1.10194163522969,1.09968613031159,1.10038239461346,1.10000182271513,1.10212681049024,1.10226264685585,1.10269129493684,1.10367486506637,1.1042268892964,1.10522835978479,1.10703875958801,1.10981941459141,1.11113022816438,1.11287502887691,1.11449265875145,1.11694752281298,1.11700281064626,1.11668837262949,1.11774804903327,1.12109750643584,1.12095283314094,1.11955823283782,1.11917141783232,1.11804252181768,1.11866049294927,1.12368635673303,1.12439050938904,1.10457863358201,1.10467544851265,1.10648151150159,1.14949892857423,1.13349123788569,1.13230282104833,1.13274298865566,1.13240640031982,1.13402857615107,1.13523321403746,1.12726794590226,1.12698193582531,1.14466975019538,1.14668702408414,1.14661472095854,1.14182457062071,1.13383707285894,1.13335824476083,1.13350916174279,1.13210703593156,1.12967224699099,1.12834984948191,1.12853297470923,1.12716348089224,1.1276753939851,1.12783509473289,1.12730577695361,1.12747765838314,1.12579848055901,1.1177423052849,1.11939654688995,1.1228657474901,1.12073354860514,1.11944443718768,1.11791491571362,1.11776278688389,1.11791378348955,1.11814759572289,1.11883313605989,1.11936856695881,1.10962735560632,1.11015107435921,1.11164032788631,1.11518483505919,1.11546535284068,1.11375598779945,1.10616588950534,1.10849158381408,1.11026752250455,1.11343115364301,1.11477848589772,1.10628165408668,1.10573115860042,1.10139842014334,1.09855478495423,1.09746569187254,1.09630814780934,1.09590872914387,1.09582153893626,1.20889237856553,1.09852691320682,1.09877660528179,1.100595740833,1.10035912774623,1.09905898119731,1.09850801266709,1.09756714958733,1.09582984134923,1.09646085756695,1.09695091801694,1.08005675922081,1.08005685593072,1.08803785841847,1.09060299697567,1.08854888694573,1.08763074146155,1.08600784341913,1.08460018752196,1.08206469316758,1.08013166064954,1.08052230319174,1.0784755993784,1.07748131186329,1.07688856485529,1.0767582894717,1.07607165001577,1.07645267858244,1.07464144849275,1.0797899252808,1.08011347261706,1.07924264189534,1.07930428124287,1.07852047388138,1.07950574906254,1.07920055263246,1.07804779328974,1.07685750072446,1.07665404451064,1.07621774949207,1.07647510314124,1.07692657575457,1.07754068327023,1.07923307757459,1.1709701283358,1.2578070981752,1.22356743214426,1.22082679290247,1.2359498403879,1.22345825265712,1.2016576404945,1.31849540046297,1.31406642347347,1.20678730604976,1.20161282959571,1.19476758083368,1.15604027543075,1.12974046010285,1.12380016412354,1.12331183771776,1.1168862056175,1.11606116174845,1.12746158274044,1.12839170735076,1.12930286625811,1.14341355227277,1.14309078549968,1.14448121499919,1.06385572306192,1.05973302154737,1.05448091708756,1.05435428230805,1.05418062079957,1.05401098833043,1.0523615930899,1.13137021392583,1.06319919147609,1.05941046202239
1.07532226547295,1.0761423067006,1.07671526202335,1.07798246931419,1.0797373455842,1.08094186228677,1.08152607446557,1.08284509665681,1.08279968091298,1.08485777669988,1.09230911648298,1.10349322285989,1.10336731734153,1.10270119575706,1.10289479738447,1.1033280406476,1.10310758409405,1.10323409655939,1.10393543388888,1.10542091709135,1.10576953967671,1.10640366887233,1.10811398894064,1.11009404710654,1.11154290405714,1.11282863177613,1.11398943480704,1.114846615024,1.11549991614964,1.11577916536068,1.11687420726794,1.11876538518004,1.11997148085942,1.11989181464298,1.11988040427888,1.11985983212994,1.12104786255872,1.12318271088244,1.12391259107483,1.12272444584321,1.12092630975968,1.11861514200915,1.123692240426,1.12735723337243,1.12887537611014,1.12930516204702,1.12928930051911,1.1278180127061,1.12656572329995,1.12585874384151,1.12597527513051,1.13327327492998,1.14821921913293,1.14838246086828,1.13835388315828,1.13468748921644,1.13309775289958,1.13224762410407,1.13077691834768,1.12949746119634,1.12911637079511,1.12870395736897,1.1282031085325,1.12792924704717,1.12763111258371,1.12736338831872,1.12665676719296,1.12462233614126,1.12127835925695,1.12082460278242,1.12188644075519,1.12087610985883,1.11907615964932,1.11785308169094,1.11728717608927,1.11686828566301,1.11689084802172,1.11728036251661,1.1173846329943,1.11554068457214,1.11405891338347,1.11434406679801,1.11578320751121,1.11487816957447,1.11172215941884,1.10808966772648,1.10848451653645,1.11011697405452,1.11101148142178,1.10935288418849,1.10657399942214,1.10464944673933,1.10231038612566,1.09883104061132,1.09749630257509,1.09647885592276,1.09581524670621,1.09543449596711,1.0955630370191,1.09656701363003,1.09754343660765,1.09859117575005,1.09880074376985,1.09817673512501,1.09703352809088,1.09534695827089,1.09267230487593,1.08941755714128,1.08546081563499,1.07989929786367,1.08095537006572,1.08455632023486,1.08604363997434,1.08632083964675,1.08559492280812,1.08459958271972,1.08342616795827,1.0819812782934,1.08007385681021,1.07871368603168,1.07714457625871,1.07641153276502,1.07576310358453,1.07551084526891,1.07515428524687,1.07517130620556,1.07516844488242,1.07667508434518,1.07775179016608,1.07820243861097,1.07799625049261,1.07775170381657,1.07801458034572,1.0777090958698,1.07714268979697,1.07644807782114,1.07584454865665,1.07519240705601,1.07524089795755,1.07562819960618,1.07631940077521,1.07778412661621,1.12899457588511,1.18813139196162,1.19524153409217,1.2088177447512,1.22171780811177,1.22049057584824,1.21850496007859,1.21726385172858,1.20909864593564,1.20881561535285,1.20400345329075,1.18525676236597,1.15948048723428,1.15464161434872,1.14168946642161,1.1197883645307,1.1179574476727,1.11742315093257,1.12261613342335,1.13449479834329,1.13715664649201,1.14397701092051,1.14399186130319,1.14478247465319,1.06321952126748,1.05776722656862,1.05573953227505,1.05455329924717,1.05462785709733,1.05401175674925,1.05301438349085,1.05411722546543,1.05608917209842,1.0584528192635
1.07544022747754,1.0740337398265,1.07391200472353,1.07489620303886,1.07934991857847,1.08137890708252,1.08014684988069,1.19196330920435,1.08143104246189,1.08962459427598,1.0929155664762,1.10370565532414,1.10397111729475,1.10407312604049,1.10482602100437,1.10589177523979,1.38004242491769,1.15200887847665,1.11199287165103,1.10811801054079,1.10683609306703,1.10633935450099,1.10883434841918,1.11079638655462,1.1119932696258,1.11279685663576,1.11362121414326,1.1128052392884,1.11440931449536,1.11426345772019,1.11539031396756,1.11719411173102,1.12020057737601,1.12011990206785,1.12054513007599,1.12034659544647,1.12225386661762,1.12429658172965,1.12532911849771,1.1439292978455,1.24884681136958,1.11600983599226,1.11844527484223,1.12747732184495,1.12780125225919,1.12681184552502,1.12705888117437,1.12550865669015,1.12477402538857,1.12471180475652,1.1256347127746,1.12835225978105,1.27213121632795,1.2430095159193,1.13624839282576,1.13488348221361,1.13165719386299,1.13134295845048,1.1292634199637,1.12839418289951,1.12973141357512,1.12904605150358,1.12896319989436,1.12811128702902,1.12730005560959,1.12771835211383,1.1270660674731,1.12476072966487,1.12204071104625,1.12091639085557,1.12316099380274,1.12206832258276,1.11811358314875,1.11705330510292,1.11659633637609,1.11533611247059,1.11526764383796,1.11577114011692,1.11756453964599,1.11724718871951,1.11605204007933,1.1159706082194,1.11868696676282,1.1161558295872,1.11021426400712,1.10563069935874,1.106870859936,1.11063390354043,1.11045404653228,1.1084084893811,1.1056574944179,1.10455936795598,1.10389506496445,1.09687507665114,1.09703826315869,1.09614211301774,1.09524516936533,1.09445890126609,1.09472299165419,1.09469666951148,1.09635993421875,1.09752680050649,1.09782224645812,1.0974466884678,1.09561670016997,1.09405425522692,1.0905046733395,1.08930595420873,1.08346400485458,1.07915633386784,1.07971524335423,1.08290834248623,1.08479417081787,1.08468259413975,1.08372345944308,1.08322199468266,1.08200361796654,1.14804950774222,1.07920774509979,1.07692344276411,1.07498202554214,1.07530892375514,1.07414798777094,1.07423929169365,1.07385565322245,1.07384850658241,1.07390821418413,1.07438463048602,1.07604893892996,1.077844749047,1.07673994918541,1.07650745556784,1.07702669294724,1.07631998301168,1.07613599658735,1.07577036808202,1.07487510540864,1.07352881886701,1.07394119171583,1.07453226724985,1.07447144676261,1.0744795449219,1.07223201958823,1.17632071895649,1.1734169794243,1.17005173342748,1.22597671932719,1.23995845451308,1.23807017566501,1.21494844668531,1.10100890537762,1.33844133875506,1.30079034467391,1.17705523402325,1.16621046914082,1.16553114773918,1.15696568071857,1.11668585250484,1.11767054125228,1.11830183172858,1.1198889177553,1.26010510086952,1.14325757680148,1.14466693452094,1.14507615535834,1.14802167439486,1.06294385455692,1.0572462466373,1.05634164370974,1.05345644319421,1.0556129066896,1.05417061747447,1.05128114953535,1.05180970593676,1.05435887077968,1.05705543163304
1.07523228703519,1.07351937614984,1.07364158471692,1.07520358087683,1.07957030112742,1.08123516968199,1.08123015650193,1.0836812105291,1.08316040310022,1.10176220339989,1.10207020495065,1.10329065522874,1.1038922469132,1.10489913797583,1.10622625069871,1.10844596959072,1.11700997253641,1.11677287485264,1.11554527810728,1.10734374885452,1.10732012462973,1.1059183690452,1.11051955427161,1.11209824052039,1.11276794580334,1.1134360273152,1.11445420344903,1.11760008803785,1.12305969074564,1.12315167430533,1.11627885962295,1.11698596398228,1.11923231186637,1.12117185021571,1.12189184317593,1.12263479476735,1.12374043989335,1.12406862504155,1.13672154702446,1.13682226261616,1.1144183535143,1.11471049104025,1.15265203006852,1.12839565805813,1.12724692899799,1.12440768062469,1.12143780296807,1.12021165352735,1.1214165792242,1.12273159806062,1.12371889992932,1.12423704225291,1.12661252300103,1.13332732057745,1.13485758072047,1.13584866958445,1.12805948571723,1.12503574389405,1.12304867375251,1.12212391533762,1.12792824201485,1.12664397987415,1.1256699370065,1.12539701633074,1.12567985791782,1.12600221143967,1.12678003385025,1.12482642487029,1.12337149154659,1.1216373316628,1.12344369268424,1.12378358610262,1.11386423807439,1.11624616769144,1.11662804117304,1.11621517183302,1.11599030902925,1.11646547966281,1.11815994671949,1.11852028754322,1.11834862856667,1.11685555229355,1.11721259014738,1.10881783038056,1.1095510094632,1.10351318964359,1.10776639922952,1.11263404138678,1.1095744490312,1.10828889968726,1.10520910352837,1.1033066302426,1.10104203637772,1.09713550057446,1.09737941884688,1.09627819364882,1.09514372627861,1.09432723791301,1.09412914095952,1.09400274638229,1.09441288599625,1.09560243037112,1.09515997331567,1.09188875295358,1.09327567992954,1.09142491487485,1.18930831406345,1.08252587098453,1.08310614423232,1.08265890543683,1.08208798280892,1.08234036662368,1.08206709008931,1.0810932631788,1.0814526753568,1.080844780608,1.07872503853968,1.07200490739446,1.07605677078224,1.07515852832878,1.07351808957921,1.07293038889152,1.07197108329357,1.07170550524314,1.0719679973756,1.07207793552142,1.07270525716743,1.0731162126407,1.07434142828605,1.07539054406197,1.075197763112,1.07540817716849,1.07578895223007,1.07525915850426,1.07515488582907,1.07433949502466,1.07388628524394,1.07207147627691,1.07205615233712,1.07015666741697,1.06876537396041,1.06831906076656,1.06980950244563,1.0704152942973,1.12713804077396,1.25890212207416,1.24655901349812,1.08674117231416,1.08613715055372,1.21885418470866,1.2190951633215,1.2037262829118,1.3004573274061,1.34580501642683,1.22729570041555,1.34453360297812,1.31644039256818,1.37295627263101,1.22725532132659,1.11808226764487,1.29169676779004,1.13271364699028,1.14084210583951,1.141337879525,1.14528059167642,1.14789848915341,1.13654143743906,1.05502951898143,1.05252932862637,1.05309251982735,1.05597819142875,1.0536467645398,1.04969885882988,1.04994704276419,1.05140118889128,1.15081600338465
1.07505532265948,1.07354088094063,1.07506141049455,1.0817825340565,1.08168334746109,1.08230067662912,1.1655706222961,1.09481079701324,1.09525814850956,1.10087134644105,1.10078783302309,1.10211220813797,1.10328943444333,1.10537708455894,1.10661218201284,1.11013114605092,1.11486048627566,1.11197678641699,1.1089985908909,1.1069208528226,1.10552879398997,1.10503800767626,1.11186025921426,1.11323013435593,1.11352027095914,1.11421589376591,1.11577368885295,1.11764439701324,1.12167964612836,1.12151986586653,1.11526101576153,1.1162224553666,1.11842935140784,1.12290252457826,1.12317632662569,1.12499812717011,1.12585436036905,1.13000399576779,1.13544151966069,1.13627347230253,1.11472553817833,1.10939607638763,1.11142629904011,1.11299094737189,1.11629699148229,1.11790891103277,1.11909678512868,1.12020506030026,1.12067655479567,1.12400334836852,1.1243844294516,1.1242745203591,1.12465157380541,1.13237720648739,1.13284631497707,1.13276607615458,1.12649114585063,1.12466758748475,1.12339234669117,1.12416423612716,1.12570159304524,1.1264402660535,1.23426746522998,1.12449060644706,1.12383137651964,1.12367036259297,1.12225407739093,1.12271494552515,1.12333443189869,1.12181720548427,1.12139292004313,1.12188249340104,1.11556604096142,1.11729737382166,1.11746887703624,1.11761571124259,1.11720964375274,1.11783778761962,1.11973471853705,1.12052224977226,1.11965063584008,1.11362923403297,1.11469917512562,1.11035089088418,1.11009028553942,1.1094502788478,1.10993061178011,1.1121762219391,1.11137487650759,1.11048082640252,1.10497232688027,1.10338771744961,1.10024712891987,1.09748760957201,1.09864088317933,1.09813588387866,1.09664809743702,1.0960213960683,1.09568100463942,1.09509680242343,1.09465035888724,1.0952320742827,1.09369673550135,1.09271211444562,1.09342577328969,1.09008657832605,1.07962828070775,1.08087473547869,1.08403273931422,1.08473006788293,1.0821625334868,1.08183651372567,1.08199417079726,1.08049242437635,1.08003139794434,1.07940307617781,1.07192164778422,1.07050825164465,1.07008387645437,1.07448234818374,1.07280923311181,1.07222004852402,1.07007382448784,1.06934150752509,1.07006091025272,1.07007158455931,1.07077431969661,1.07201578953488,1.07358525852599,1.07492983267959,1.07448392342314,1.07471165858967,1.07476024829844,1.074162650245,1.07451064308144,1.07352884190349,1.07273689376425,1.07202256354763,1.07035389855683,1.06901594250253,1.06878928233288,1.06773490356825,1.0693310772804,1.06953720756628,1.06926982858064,1.06975653295106,1.07506985938086,1.07596765236542,1.08167641609936,1.08141524084357,1.08214849216788,1.08279784347776,1.20135293003964,1.17321181962838,1.13788782039571,1.08675132051566,1.33608881344851,1.19545286237727,1.19512089568861,1.21677471546793,1.13460343010358,1.15749889726322,1.1590787763506,1.15732766197028,1.15604349226473,1.15862167956299,1.0619256892065,1.05750163645205,1.05193414064755,1.05256024672329,1.05303948897212,1.0495616485405,1.04845177083003,1.04764018186713,1.0490535005779,1.04791197480074
1.07341800320578,1.07320966522113,1.07387425119208,1.08117341359549,1.08285701602354,1.0844653174857,1.08607600691248,1.09808871930701,1.0984345294406,1.09924356598099,1.09919895225685,1.10001947264565,1.10138254509745,1.10299015426985,1.10493591507733,1.10484892943155,1.10689193900568,1.10628753927689,1.10650289290858,1.10770667423141,1.10580987359793,1.10497699354129,1.10499907712392,1.11298753117786,1.11379100048627,1.11489213662876,1.11546345260012,1.11752488272565,1.11897410625328,1.11925707516731,1.11664280188176,1.11614517023324,1.13026737719274,1.12902316379784,1.12757237670468,1.12769461708807,1.12958771080788,1.1306136190203,1.13174766764677,1.25017893436711,1.11397906230346,1.11173372409022,1.11276451667452,1.11361239715484,1.11670611600593,1.1187009168224,1.1203966550467,1.1211078664328,1.12206472528419,1.12929483355095,1.12448845310419,1.12437422139196,1.12519037993684,1.12973934913224,1.13044912691792,1.13048946517118,1.12868021909287,1.12671151943746,1.12582844363645,1.12653774209299,1.12668543466953,1.11927529904269,1.1177733925705,1.11902841170754,1.12131727518054,1.12115890822329,1.12092970108824,1.12158410932645,1.12118134652734,1.11701063035277,1.1161833880365,1.11699891831756,1.11717264610709,1.11830826158505,1.11837412756884,1.11856087862383,1.11908019269802,1.11956562222722,1.12242207465841,1.12260998432028,1.1212065680965,1.11452074934805,1.11715011415557,1.11715755858369,1.11672183010442,1.118189140364,1.11179032928048,1.11090004865826,1.11140061405196,1.10933242029461,1.10776004292467,1.10741797115316,1.1074440736921,1.10229210892529,1.10149493417721,1.10011904141231,1.10058115841708,1.09876934396303,1.09782366341719,1.09639796286504,1.09608870048054,1.09645732471019,1.09480086175886,1.09440872338775,1.09666033957871,1.08028898771045,1.0797174994013,1.07992266328408,1.08634110604653,1.08514293486702,1.08421981359011,1.0829348350976,1.08136951661526,1.08084390291285,1.07956643589334,1.07354750643116,1.07132850674529,1.06976702709811,1.07000521882136,1.07214480036992,1.07232778449266,1.07035508552488,1.06902772138642,1.06818694278283,1.06884382236121,1.06898270662185,1.06994291056521,1.07092692620172,1.07297484357923,1.07459674729183,1.07490188888271,1.07426573156605,1.07391710146718,1.07380917117732,1.07427089155733,1.07330123596627,1.07151348100093,1.07043324047827,1.06790684840447,1.06896495881528,1.068678022298,1.06685542039208,1.06697447734529,1.06789583340254,1.06812272000285,1.06824784735301,1.06771494139853,1.07565733452705,1.07545347734773,1.07484828247555,1.07570285635741,1.0748513698929,1.07614912042172,1.07736474365767,1.07740247732644,1.07768975296701,1.24018801385163,1.07981840511295,1.07877992444518,1.21273425382906,1.18980460055669,1.19918999224182,1.19808866007522,1.15110153574879,1.15336301260727,1.16761970432371,1.06191326636349,1.06070258994682,1.05973170438375,1.05138219851154,1.04934841375952,1.0484319579346,1.04939561874783,1.04752476908254,1.04892030132152,1.04612517491146
1.07345958978503,1.07399454094996,1.07456686360578,1.08619817950504,1.08400567503833,1.08627529642407,1.08505376264511,1.20096338155515,1.19984890168751,1.1006878617421,1.10009608171145,1.09996421455436,1.10186848555755,1.10304980414554,1.10514315638483,1.10430606662633,1.10540807550011,1.10552058458571,1.10605084593253,1.10687410580612,1.10695841572561,1.10524723966215,1.10506909811354,1.11125568168665,1.11348636929531,1.11608107510336,1.11635365455353,1.1175605622729,1.12009947025163,1.11997303389887,1.11956740894635,1.15381508716179,1.15870647370208,1.14136314204977,1.14377535666469,1.14605136923773,1.13107309160892,1.1299102313017,1.12971189982608,1.12433670458966,1.11652933852827,1.11715662242315,1.11598496182931,1.11699043485755,1.11822988587774,1.11997584963401,1.12084207684412,1.12137256904721,1.12713327981411,1.12884155240942,1.12601570650994,1.12543860922867,1.12675152401614,1.12890504241041,1.1286507201715,1.12873919763487,1.12993880664725,1.1301375935154,1.12703173567709,1.12670785239568,1.12671687490015,1.12240141309141,1.11573316734411,1.11614592977107,1.12222080803898,1.1226745184067,1.12106815649621,1.12000578158111,1.11860707085504,1.11775604748144,1.11669799485793,1.11720079084653,1.11757516317407,1.12002033456713,1.11920284185314,1.12010637047238,1.12005346215396,1.11850549297818,1.12503401005829,1.12475669699768,1.12308777237787,1.12257385096718,1.12112265737407,1.1184963645777,1.116752546283,1.11862887023357,1.10957589099255,1.10921853414212,1.10976750107191,1.10856281826036,1.10757434213083,1.10745575712429,1.10612463882002,1.10522727523921,1.10538947615073,1.106564842717,1.10648094577313,1.10629072923097,1.10625500758686,1.12171259157605,1.10262151951226,1.10165137579909,1.10413098545321,1.09986934689835,1.10037655920199,1.08121509819963,1.0810042851982,1.08147570919606,1.08845480570815,1.08894708571097,1.09224235740982,1.0837769149446,1.08225161781618,1.08035682133913,1.07920200734783,1.0767906300349,1.07093710665877,1.06966286637612,1.07148299980726,1.07126200973569,1.07064524800464,1.06894654796885,1.0673431629336,1.06717838293969,1.06807523475642,1.06791815431552,1.07000098751162,1.07074544388099,1.07237237505723,1.07391216444655,1.07517033441282,1.07482305093825,1.0619500904779,1.06087053041235,1.06074859013047,1.06156018910091,1.06508114669489,1.06828988167587,1.0679548340325,1.06713701616456,1.06707345860124,1.0650861538679,1.06627510030757,1.06697786459129,1.06711567170321,1.06693516440369,1.06676377678418,1.07462520394801,1.07404941537306,1.07327941555555,1.0714568155636,1.0720666209379,1.07243500505679,1.07191222688568,1.07167931576947,1.07281466587796,1.22094623039239,1.07090189868134,1.22078897698712,1.18316573291577,1.07196967859475,1.20056786045815,1.19890450786284,1.19903954707925,1.13207925909014,1.07820464811498,1.06198903342055,1.06128918550979,1.0562565431196,1.05620634758914,1.05891361525364,1.16865115674763,1.05459730631223,1.05402193098323,1.05294100349778,1.05349449838345
1.06795739034106,1.06770883426714,1.07637235452111,1.08221879080126,1.0806394693933,1.07781576358916,1.08548273041403,1.08378936011782,1.19989768315713,1.10163028169832,1.10161625858547,1.10222095522971,1.10434974658296,1.10787419760675,1.10811831936826,1.11024850233659,1.10674270678634,1.10454420263209,1.10455345567357,1.10691505861627,1.10794968586956,1.10687689915186,1.10572577496766,1.10686916260274,1.11253127521203,1.1173305612593,1.1175155439714,1.11802073037537,1.11935758716385,1.11984975858225,1.12094733492254,1.16371041137231,1.13818418719723,1.14200284734119,1.14290881778557,1.14295747461097,1.14128161861629,1.13733997308621,1.39099543623069,1.12431117855234,1.12415799247104,1.11796860997411,1.11803367935905,1.11755031043078,1.11910634852463,1.11881621988626,1.11909896695559,1.12975290290491,1.12571788982648,1.12693346189138,1.12558149983779,1.12537252047807,1.12548697118257,1.12550373722279,1.12642575716369,1.12723055837358,1.12695313884762,1.12531091708904,1.12619128909562,1.12669584395715,1.12673776228799,1.12884923600655,1.12368454381156,1.12436913666363,1.12429285521761,1.12576096404395,1.12660018585933,1.12528974683965,1.49801856788617,1.11900345342588,1.11724883884841,1.11701049298415,1.11700642672284,1.11752174653342,1.11824690864445,1.11838158000235,1.11559836750555,1.11596408476392,1.28226089655755,1.12627029503392,1.1256493127822,1.12426071828588,1.1232298108819,1.11172783591835,1.11342215659594,1.11174656970408,1.11078451289124,1.10820040493541,1.10791116881671,1.10753324958197,1.10725085020477,1.10796187407003,1.1071917611628,1.10751554757352,1.10731484609507,1.10735363891245,1.10786815477714,1.10825633842038,1.10855543157305,1.10977286665318,1.10949291792663,1.1089175446354,1.10257122138179,1.10203851936544,1.10198912130868,1.08212071791331,1.08239944483914,1.0829011343086,1.08957495521241,1.09165174224387,1.09260570745863,1.08550475424359,1.08025170124098,1.07918025494932,1.08016750038965,1.08056955200285,1.07224967069842,1.06950984754772,1.06834926063782,1.06968286951736,1.0700735510155,1.0690525037987,1.06769136774764,1.06779375980066,1.06835295702474,1.06773583675481,1.06864198357782,1.07025127579261,1.0726609400802,1.07373314643197,1.07629553981546,1.07027712596023,1.06233187442118,1.06074321600762,1.06109936371405,1.06247550979184,1.06831062146424,1.06815532207137,1.06654649577663,1.06465846133969,1.06474478529377,1.06614186807744,1.06634964101861,1.06655776717634,1.06646184526286,1.06607328712552,1.06700037665011,1.0690289547945,1.0696765657157,1.0711215780416,1.07101952679552,1.07073458983951,1.07071670157047,1.0705299774346,1.07061948295272,1.07012820965173,1.06834517914052,1.06705989025475,1.0661209954659,1.06666586673304,1.06746458979862,1.06653341380704,1.20082803323161,1.1983031199322,1.11561072204082,1.07820459116679,1.17550603967241,1.05750623656368,1.05589456284056,1.05648021783457,1.05735064802266,1.05608294038334,1.05728850056722,1.05410553613237,1.05414225657189,1.05366866009312
1.07154614117072,1.07075503238267,1.07474554867876,1.07271158538128,1.07375176447583,1.07431725308926,1.0807011846467,1.08288599171649,1.10372203660217,1.10270215596153,1.10207934163422,1.10218258757848,1.1035501074932,1.10963741065558,1.10917282493766,1.10986089063838,1.10791447857055,1.10595185368691,1.10607652031444,1.1062516288369,1.10840663603768,1.10786674792968,1.1068284115495,1.10730015682741,1.11153858496574,1.11215316729375,1.11739463131284,1.11731886876684,1.11959247071052,1.12122198409778,1.1218241107825,1.61455157760733,1.14069281902638,1.14084717508871,1.14208153091304,1.14120815911803,1.14100784089277,1.1421415364038,1.14373330190013,1.1461572620222,1.2774888099195,1.29145731455576,1.2921812246559,1.26041962670129,1.12192250600722,1.11955092685095,1.11807937348308,1.11797862385857,1.12969346486567,1.12601257913815,1.12378630150639,1.12362414576967,1.12345061827584,1.12350903774525,1.12458287845113,1.12511337830598,1.1253327223358,1.12490333941005,1.12474131548788,1.12561104976293,1.12712281948382,1.12579594113573,1.12433682017284,1.12438495011505,1.1253666189263,1.12676844197988,1.12714517641095,1.1267435969466,1.12543987399269,1.12406601382217,1.11651864403202,1.11641224085053,1.1159227829347,1.11738010082458,1.11793446997194,1.11703575926817,1.11516499201655,1.11518459084678,1.12441383538743,1.12589154139534,1.12807304625541,1.12998122959031,1.20442420969451,1.11215566893281,1.113453621313,1.11204862171601,1.11077935377703,1.10880293136688,1.10698969332171,1.10666066597523,1.10741503586349,1.1083687268052,1.10833025752451,1.10873707611658,1.10893253799933,1.10946488002754,1.1093610842003,1.11111044993745,1.11134089154756,1.11133379004919,1.11138303272392,1.11056287451916,1.10873542610529,1.10858215139198,1.1096121883114,1.19572237621464,1.08439095756189,1.08418890385979,1.09793364971751,1.09226872288704,1.0899673918719,1.08756216605131,1.08494212736377,1.08310741418361,1.08152939176278,1.08058115877896,1.0778571022955,1.07671382686114,1.09663344393807,1.07374847677668,1.07211877515295,1.06991488014166,1.0688264439402,1.06842255496278,1.06964981518244,1.06943975952717,1.06995624929636,1.07116768014779,1.07292764676828,1.07400048177894,1.07476710576399,1.06891774028079,1.06243369638178,1.06055859550756,1.06161931595606,1.06289689431977,1.06628139872101,1.06651924335875,1.06499098651464,1.06433341082033,1.06496884626648,1.06623457802243,1.06657373592838,1.06644890944727,1.06620607035263,1.06550710629909,1.06570127344567,1.06660957337788,1.06720453036383,1.06873260430117,1.07047328493154,1.07053652111093,1.06961739481577,1.06973527504393,1.06970324648462,1.06921215326966,1.06727204112741,1.06640895922283,1.06587722239557,1.06552197441323,1.0648962458921,1.06416703299116,1.0632056591328,1.20717296002831,1.09704466365799,1.06265221790714,1.0634114737711,1.0556151517868,1.05516544209904,1.05637936683196,1.0577727676913,1.05538459861106,1.05858074926675,1.058902240559,1.0552805087673,1.05283078163204
1.07023802533469,1.07042895396881,1.07237757917408,1.0722452521031,1.07363163330328,1.07273290541069,1.07350817008354,1.08347522189235,1.1558623094539,1.11278794054286,1.10318504266703,1.10258571376426,1.10299605972136,1.10673103972574,1.10877664883181,1.10894761911328,1.1086881577633,1.10676277684567,1.10666441891637,1.1087067361709,1.10869711803914,1.10800962765255,1.10797038710677,1.10798303865584,1.11091061167374,1.11157373554833,1.20484974759574,1.13094073622527,1.1325568273293,1.19689253797865,1.19562279666921,1.16975529445191,1.18851978454942,1.14212555076761,1.14284655238351,1.14184469264113,1.14228330805742,1.14422572870981,1.14453817188376,1.14465359904795,1.14246191140941,1.2897760028709,1.129377350612,1.12814981751201,1.12571248547474,1.11955441596414,1.11798072593103,1.13169463081983,1.13014585725816,1.127436461452,1.12545164988497,1.12464319273867,1.12429095547247,1.12326037239337,1.12397234881498,1.12501152566333,1.12720211656754,1.12885203299083,1.12976558913754,1.12645092819239,1.12559764010249,1.12460263909928,1.12397883544602,1.12487459820819,1.12592749165683,1.12703016027404,1.12754719486928,1.12747382434379,1.12577989154765,1.12494523083302,1.11976043966146,1.11814071139826,1.117850605815,1.11885301928662,1.11895589361977,1.11747742761561,1.11585639312591,1.12445529201845,1.1242093492435,1.12470295199914,1.12983803949068,1.23015083513346,1.12004530782992,1.11558185708062,1.11579376731397,1.11511274526427,1.1151805152018,1.11529736668295,1.11628804316383,1.10638025487831,1.10836472469342,1.10929668045395,1.11018379065976,1.11051139522163,1.11022861475483,1.11045381026294,1.11114525144569,1.11228009591493,1.11328744590285,1.1125361704572,1.11269136000548,1.11213489095622,1.10972609301612,1.10843431821452,1.10914042808628,1.196808013774,1.1954041468319,1.09253487243496,1.09670413076809,1.09359306616904,1.09156633604106,1.08727980893216,1.08452913050165,1.08369418208186,1.08251771213653,1.08103778607279,1.07981264656556,1.07763189969836,1.07571155436911,1.07400531323072,1.07496294303266,1.07551145309009,1.07566374814104,1.07400035049404,1.07240850073888,1.0713373444295,1.07597950033823,1.07929339628707,1.08079587065194,1.07610122235061,1.07584372296824,1.06607276207359,1.06053560410618,1.06108024420696,1.06238654595494,1.06342747417376,1.0664189033005,1.06631213948855,1.0643590833031,1.06413276624745,1.06490826123972,1.06662032643001,1.0671633156583,1.06646856714716,1.066338603212,1.06528524349391,1.06482037696241,1.06593850958229,1.06707468865176,1.06776411164054,1.06933110839397,1.06980275595292,1.06967116387242,1.06941820749682,1.06902006931631,1.06845546653883,1.06696491246732,1.06621728426199,1.06562093607045,1.06543565918278,1.0655808475408,1.06418459911042,1.06089087758809,1.05907458683637,1.05973252992013,1.06144678305515,1.05521957210201,1.0550599194144,1.05726566500055,1.0581341135205,1.05902435507809,1.06839073301749,1.05943553782395,1.05969349500234,1.06280539115901,1.16267430773731
1.07376561550673,1.07364068747233,1.07364571454572,1.07307961389471,1.07512123883455,1.07514352368595,1.07675542285945,1.07681479597593,1.16391889762121,1.11492230803533,1.11479952963668,1.11237032675214,1.11135483982681,1.1099482313782,1.11011553041612,1.10989519223829,1.1096387868597,1.10911706186945,1.11402342548939,1.11275873740367,1.25522064988178,1.16525614539905,1.16555808391599,1.11617245241549,1.11662420083293,1.11646910476404,1.25081724648682,1.13775607133794,1.32293690225287,1.19782480320822,1.19700358413718,1.14924972316165,1.14667711810826,1.14505357277375,1.1450329657044,1.1448781656056,1.14516045316208,1.14625493954249,1.14582679373109,1.14460637897664,1.14355883704592,1.14358499981462,1.29709002804603,1.26899663446205,1.15831835649572,1.16847906553697,1.14591800530321,1.13999287020016,1.255953292038,1.26575471655124,1.26737710085668,1.128702339541,1.30481447897402,1.13675127753063,1.13781638998868,1.13649188559577,1.13496857811375,1.13113423906627,1.13052690192409,1.12773295649262,1.12643565229159,1.12559222733646,1.12503168687526,1.1255766527867,1.12633809742704,1.12732322435571,1.12838453302543,1.12839037065825,1.12628073160401,1.12583272462072,1.12199610513779,1.12097456775913,1.12095761013736,1.12140592866207,1.12166556437087,1.12333724393052,1.12339966290914,1.12405816323121,1.12379585149681,1.11993313352244,1.11981468955051,1.12049612558032,1.12046555388196,1.12061562866907,1.1186788269118,1.11797514359423,1.11583539179454,1.11520204393289,1.11563985433562,1.10951681392765,1.11634539725748,1.11545613726055,1.11293163369989,1.11181703507345,1.11099858548749,1.10977622650775,1.1109849658034,1.11306643721535,1.11284013751519,1.11241571763997,1.11206242276431,1.11114538557455,1.10994970908925,1.10759733285053,1.10797130230122,1.10622730747609,1.09737987946762,1.09893580146825,1.09778734272141,1.09529740524491,1.09401613040468,1.08868800200467,1.08723269327396,1.08472081699248,1.08375517883765,1.08272430507853,1.08149664163229,1.0799028521049,1.07667040448254,1.07508960113778,1.07535629967587,1.07452020742841,1.07456859215261,1.07443854389064,1.0742343578169,1.07459672260265,1.07631815853883,1.07838229177857,1.08063050592919,1.08230059696031,1.08240069498873,1.06912983853292,1.06295369443996,1.06305787870171,1.06345862551966,1.06346326328763,1.06586774440801,1.06513910733263,1.06454965662376,1.06452821424806,1.06508263242467,1.06769106314783,1.06765597936541,1.06850620724428,1.06740076080318,1.06644532636699,1.0671391202429,1.06868336740683,1.06930763192088,1.06913409830489,1.07010813157173,1.0698351875479,1.06906498412363,1.06784486852569,1.0684300407104,1.06783040081533,1.06730816171415,1.06745077837614,1.0664441896689,1.0662326265025,1.06588052222517,1.06459754770358,1.05949743238186,1.05863870331978,1.05863118111482,1.05712328057062,1.05525611097952,1.05518464469607,1.05635844351973,1.05726110915522,1.05787323761285,1.07002400771989,1.07208732116805,1.06477055067471,1.06488981601096,1.0658287856666
1.07459928800203,1.07503826818988,1.07620965303261,1.07695600750343,1.07784949026375,1.07799333020378,1.07800274240154,1.09278386352657,1.10017815114602,1.11553642724623,1.1144266437519,1.11260275894754,1.11192656335199,1.11175064167954,1.11180056558954,1.11195587652365,1.11217551663875,1.11230036656191,1.11556580491735,1.11889117937093,1.12717699861314,1.13829442645503,1.15066292812275,1.11781464979759,1.11825258597208,1.17241884611015,1.1977930290787,1.14467892447833,1.14563480914946,1.14680999056297,1.14807192530403,1.14856540921902,1.1480456245818,1.14735423841425,1.14714268068938,1.14714411134724,1.14738340860523,1.14750872204535,1.14703333789988,1.14622200083087,1.14546446115079,1.14513346066212,1.28709289284302,1.26829208580638,1.15621830594151,1.14624066330598,1.1427141421184,1.14079997427916,1.14891168266849,1.14730107983046,1.14690022473569,1.1439566341188,1.14091031534358,1.13891681555101,1.13860765059167,1.13747571994751,1.13598991415317,1.13282974302762,1.13055259099548,1.12877375576399,1.12767122687857,1.12674628046687,1.12623265059195,1.12624482044999,1.12644952391262,1.12664136289155,1.1269072404778,1.12668609100762,1.12629501152422,1.12569135057103,1.12426281954487,1.1230615792202,1.12267900125348,1.12277491790797,1.12291091453088,1.12353108982799,1.12392158258404,1.12451949851851,1.12415827533435,1.12246755714174,1.12075560562936,1.1202504550516,1.12032999736922,1.12078936534297,1.12016661350588,1.11919402714813,1.117163740828,1.11598795388437,1.1156190960014,1.11359041479321,1.1153949979158,1.11520671050584,1.11398599583404,1.11288963629498,1.11209250652086,1.11142293201348,1.11185634904408,1.11300976811568,1.11299321134077,1.11266492162039,1.11218939682581,1.11148409244038,1.1103131993515,1.10860917424365,1.10780705505086,1.10527832822538,1.10131196920353,1.09940798210768,1.09698948846924,1.0949560552099,1.09326364190074,1.09055977774925,1.08851087213474,1.08643936342274,1.08502518622029,1.0836407902814,1.08207892882173,1.08021098538308,1.07766995654746,1.07564253650789,1.07430763126778,1.0740922848212,1.0747541335045,1.07525813733743,1.07561939813406,1.07605963365805,1.07722952255752,1.07877853632566,1.08077588795974,1.08227794468463,1.08280056969256,1.06765473929191,1.06592366824909,1.06476498663855,1.06475914331276,1.06490735066681,1.06525883552686,1.06533700870303,1.06562416023095,1.0664291072317,1.06737992125623,1.06848671011968,1.06874265365348,1.06878189939949,1.06825742862523,1.06775890619056,1.0681500532218,1.06915391290748,1.06994856442724,1.07051167159854,1.07077091221114,1.07043222544905,1.06979848135993,1.06905802790832,1.06895222880145,1.06854675750207,1.06819485394319,1.06789362564378,1.0674923155366,1.06762796292545,1.06689583867517,1.06465076116918,1.06091818009685,1.05909328837453,1.05836534188729,1.05712740986281,1.05565730405095,1.05540737114623,1.05588374888772,1.05637314432471,1.05756682350602,1.06092521027002,1.0626434087305,1.06425078180846,1.06545047343743,1.06673645824273
1.07583714293902,1.0762248796206,1.07913647567373,1.08219101787405,1.08082509726896,1.08051403097994,1.07920299709135,1.22598795076619,1.09588869670312,1.11503800432348,1.11281403440444,1.11046531595485,1.11139749452881,1.11298680592874,1.1131930709559,1.11384681500741,1.1145041828956,1.11219866114916,1.16003863516522,1.12094998680492,1.12133409008224,1.12217315936814,1.16136184692944,1.11848345877101,1.12000010401314,1.26430810709276,1.36844185381423,1.14216430032116,1.14338193378038,1.1443122884744,1.14670390685356,1.14779948322882,1.14904000485724,1.14887717458092,1.14880343530677,1.14901901074159,1.14962511859982,1.14926109541335,1.14840107316665,1.14770213974692,1.14672761502444,1.14627976890193,1.31035574642218,1.27058038025574,1.15395290024091,1.1421801449953,1.14022670279391,1.1398685841387,1.15021828829846,1.14491452924818,1.14474888027279,1.14438543326107,1.13778779065795,1.13790796434877,1.13849205105141,1.13758432979919,1.1377680795091,1.1393650338463,1.12930591455194,1.12879843902915,1.12871441221894,1.12743803582094,1.12686653347352,1.12664387658397,1.12648136579145,1.12582260888717,1.12591736403487,1.12509647833684,1.12653948952515,1.12654637936086,1.12610142532406,1.12425669883475,1.12394964907985,1.12405495572494,1.12379295243045,1.12389385696175,1.12413347298771,1.12565527880771,1.12566292376496,1.12510866399978,1.12123017566891,1.13360361271352,1.1310074901058,1.12270667301954,1.1216137893952,1.12153642676964,1.11707568226354,1.1158765187626,1.11742784724667,1.11332937782847,1.1162585856804,1.11586177466436,1.11470991842704,1.11362761609365,1.11294522875753,1.11189647307095,1.11195463126417,1.11407661624483,1.11345726295478,1.11301286369119,1.11248533313671,1.11211104198928,1.11087237351714,1.10784496794687,1.10809162027565,1.104935980325,1.19768958792863,1.10052503703937,1.09561827863155,1.094179687374,1.09333917464823,1.09175112336945,1.08966127554086,1.08742124534567,1.0861730048286,1.08469047925306,1.08293657854911,1.08119594503871,1.07790252883109,1.07546523695616,1.07198027533896,1.07269786389373,1.0751635436688,1.07629647538566,1.07697575014064,1.07679734820376,1.0777144922041,1.07827898042601,1.08104434667897,1.08249748721917,1.08294677087526,1.06921628837511,1.06874516529358,1.06583090206662,1.06578836184038,1.06590508538062,1.06485503843616,1.06530998339755,1.06620489885003,1.0681598188477,1.06953615130708,1.07011655482614,1.0700476902849,1.06960542892439,1.06906694937495,1.06816608809353,1.06858214794614,1.06982061433079,1.07085621131564,1.07218071814476,1.07204940701351,1.0712963920102,1.07063318354142,1.06959360373829,1.06971494173101,1.06917264349774,1.06900372944645,1.06843039602556,1.06800474321809,1.06994935895012,1.06954268900227,1.06614415575382,1.06028525700784,1.05829633447621,1.05821949807091,1.05693459394688,1.05480781704385,1.05485076254396,1.05530575680805,1.05420222772284,1.05747916560581,1.06037766901599,1.06251420776933,1.06359877103097,1.06528840172387,1.06778287894015
1.25551667721137,1.08301181009713,1.08248233170852,1.08254736614537,1.08242261935744,1.08231074287983,1.08864942443909,1.0892804944443,1.0925163994686,1.19842965625485,1.11257515932644,1.11047648698993,1.11036223005063,1.11252695542434,1.11401097666025,1.11477234407798,1.11634208296976,1.11786239971227,1.12477049067392,1.12752632184192,1.12951997030668,1.12663744188121,1.36544457706979,1.12107611011643,1.12208682187667,1.26783569360276,1.14937829325254,1.14140636599767,1.14200374164599,1.1444280467947,1.14618656194957,1.1479667321531,1.14949123299991,1.15028563976119,1.15000582310505,1.15062376436508,1.15109884955577,1.15171008002652,1.15188986052777,1.15077820487794,1.15056026903284,1.15014200499176,1.15078865185119,1.15055080846552,1.15065557039973,1.14718708992096,1.14107089344004,1.15099866408524,1.15001343462416,1.14797657388955,1.14683042299692,1.14456999997509,1.14308732774708,1.14008746994609,1.13909790100621,1.1385187384218,1.13780223694959,1.13721888291802,1.13486753798297,1.13429953213579,1.13143069688279,1.12874289074757,1.12766929679172,1.12728146054215,1.12685421662146,1.1258665074073,1.12468801741341,1.12421665302403,1.12466157630548,1.12553671610445,1.12560886873238,1.12561423555948,1.12475269153057,1.12442347906942,1.12427500913199,1.12360439555088,1.12342855785328,1.1245481807251,1.12610064654179,1.12616171598478,1.12815342460547,1.13073310958383,1.13060695676382,1.12348029409296,1.12229238322022,1.12324429101699,1.11800664159333,1.11681734785953,1.11727182406193,1.11528403279686,1.11640273195758,1.11647480099532,1.11614644984194,1.11511672130034,1.11426660048937,1.1130590613385,1.11401533307879,1.11307192870154,1.11403322353985,1.11360071037607,1.11354529382089,1.1137026515158,1.10987329463623,1.11147479416396,1.11059390070094,1.11060149566133,1.11114890374167,1.1026896553318,1.09632072152569,1.09423977286436,1.09291402359419,1.09309236119479,1.09092418665096,1.08931032884223,1.08741077874181,1.08601579776473,1.08465400216131,1.08263690579535,1.08255941158309,1.07622986318153,1.07626782870079,1.07298439853095,1.07632738408866,1.07868679204049,1.07915447102048,1.07882363378863,1.080311965211,1.08231142801128,1.08264769318044,1.08306221722136,1.08359369758036,1.0726057613793,1.06981018545626,1.07065314533233,1.06706089971098,1.06533015244934,1.06469332207583,1.06582204012739,1.06793816275103,1.06986852891101,1.07198228371257,1.07237307563667,1.07151739035054,1.07047290919985,1.07024205820424,1.06920428905399,1.06936901779259,1.06995589465134,1.07138677194748,1.07330232782894,1.07280169323616,1.07360593201223,1.0724028452546,1.07157345899037,1.07111536304267,1.07099950165585,1.07029970724323,1.06926168236868,1.06839742274046,1.07154259610034,1.07188454819296,1.25029148570184,1.2510007178533,1.06692599484702,1.0613590386734,1.05789848245963,1.05594171805288,1.05547339186271,1.05620767775959,1.055839759587,1.0548281692116,1.05514879325932,1.06163296435359,1.06240016516336,1.06388813735534,1.06418554717931
1.09691901944867,1.2029810764964,1.08432497105856,1.08413830466263,1.08392669744181,1.08502274906692,1.0865996927291,1.09083030099303,1.09512576704452,1.09590283149076,1.19246285388088,1.11179015007649,1.11151445235216,1.11332459105043,1.11537800358243,1.11636200957083,1.1178760682036,1.34865427678846,1.12977123741547,1.12965095729633,1.12959106675954,1.12911079125533,1.12853676934416,1.12361143148965,1.12388881023338,1.12448180809439,1.14879486123694,1.1422334737763,1.14290664452345,1.14503772741224,1.14676487494679,1.14825667389611,1.14968753553431,1.1500026439536,1.1501667731939,1.14992146488896,1.15035233226809,1.151531055985,1.15139266092889,1.15105513307142,1.15063251423368,1.15126446918905,1.15185984508384,1.15190056630724,1.15058424713712,1.14834105033125,1.14734931171755,1.15198601968964,1.15065752618356,1.14948069033318,1.14862895849967,1.14986708357945,1.150671684378,1.26630317316336,1.20046747848375,1.34358522920894,1.33580441843224,1.13774790528608,1.25238988706066,1.1350640727397,1.13454539238716,1.13150169088561,1.13104659826912,1.12821858270955,1.12757382058028,1.12660174814718,1.12516723057905,1.12448648285119,1.12463295042618,1.12546646396268,1.12546090847085,1.12638012933622,1.12640815489994,1.12627656375297,1.12527158230246,1.12423072340076,1.12325488886533,1.12223461587073,1.12136989170593,1.12332906651304,1.12483060166112,1.12428924174405,1.12358460124293,1.12193745734376,1.12109599459213,1.12000524126881,1.11879771225809,1.1183716923118,1.11904596407107,1.11822826426637,1.11703447598771,1.11656290977668,1.11853560857072,1.11747046385217,1.11648055292742,1.11821055825845,1.11683228987544,1.11568253904962,1.11396905101155,1.11478636526509,1.11473173829135,1.11395488578978,1.11295819489892,1.11319026212714,1.11223175924415,1.11157591809471,1.11090979275139,1.10079575519199,1.09837684632163,1.09639345513851,1.09821608333576,1.09568334735671,1.08973530124074,1.08872848970306,1.0879201442182,1.08637801393124,1.08479434812346,1.08291412466322,1.08255887858802,1.08292018187583,1.08285277875252,1.08481434269696,1.08425644269011,1.0812167331548,1.0816482848493,1.08242724623578,1.08259804166668,1.08386995875706,1.08460591587113,1.08191473455325,1.08161509069098,1.0723588095641,1.07118947563301,1.07815109123072,1.07827672920796,1.07854937464465,1.06586012187048,1.06768192673852,1.06950072908654,1.07161180907186,1.07352651196177,1.07386898790692,1.07421507321533,1.07139693310332,1.07222234879055,1.07216177360738,1.06994432819672,1.07023802655502,1.07351183151588,1.0733632257616,1.07428864097804,1.07507636107846,1.07328385123795,1.0724336810557,1.07218320209162,1.07138372928939,1.07047995730046,1.06943731158136,1.06968692062601,1.07187117290233,1.07392947618715,1.07306891429825,1.07204380027,1.07302143607629,1.07434519881179,1.07393633487373,1.06228207573576,1.05549762571476,1.05510041695275,1.05434015747913,1.05426347542181,1.0566202625229,1.06243784348293,1.062991719178,1.06337191140886,1.06345984850991
1.09857317884134,1.09952996193533,1.09290943170111,1.09237881240882,1.14809036389694,1.31757141083523,1.08894790882574,1.08955125840275,1.09509031531813,1.19901245861809,1.29314754538763,1.12094703063388,1.12080083799894,1.11833792229492,1.11762340657628,1.11792700375815,1.11859997937197,1.12452794417855,1.13119881307075,1.13086018430676,1.13047191231906,1.13040471174038,1.1304845003692,1.12424998616252,1.12443616471481,1.12466085808476,1.25411054448429,1.32534372513553,1.14351927087458,1.14454700841027,1.14843819320936,1.1497847807707,1.15035642358521,1.15110828847822,1.15053471789755,1.15045113434461,1.15036916605088,1.15144835058562,1.15163581175051,1.15069795912895,1.15008343204687,1.151188041369,1.15211239211589,1.15209599712415,1.15144885592027,1.15187037838507,1.14853510172343,1.15127014436859,1.1499595898874,1.14951924583772,1.14767765226941,1.1471112089856,1.14918822580838,1.15132444588982,1.15237189711826,1.15305007461904,1.15384727906758,1.32024644478031,1.32228779992929,1.23477626076003,1.13576393903487,1.13407419588213,1.13318730093849,1.13332997968987,1.13192045266665,1.13174620693025,1.12806517733379,1.12634286351631,1.12649609685073,1.1274002396425,1.12716564720718,1.12740704774153,1.12678344446189,1.12565579189217,1.12622242029587,1.12633312182377,1.12646196335089,1.12494399920419,1.12485693226729,1.12387816379474,1.12386291623033,1.12323667295503,1.12128098454661,1.11986698503911,1.12031139224745,1.11980218348231,1.1205052966714,1.26836611362501,1.13180097187099,1.12207587865489,1.12300935812722,1.27342633084479,1.12689725696838,1.12712251922173,1.12410177625422,1.12061130225829,1.11955419715516,1.12008709785409,1.11927595825656,1.11808795929892,1.11718064574819,1.11604929026608,1.11550571256062,1.1146445058188,1.11341674293004,1.11263230202245,1.10952406222357,1.10819101395711,1.15508016745617,1.09890460821534,1.09838141864774,1.09805806555711,1.15068128001364,1.09001459694461,1.08882062583758,1.08819021265,1.0859516463941,1.08575115945358,1.08432836952054,1.08384725879099,1.0844744351179,1.08504826197886,1.08511522464655,1.08391225562668,1.08380998159923,1.08559462434516,1.08869436717797,1.0865994443317,1.08585135529423,1.08388852269509,1.08401242378523,1.07375399678408,1.07371180225357,1.07917964230884,1.07781453974048,1.0747633183798,1.07383974833183,1.073240428434,1.07263148325719,1.07421469234754,1.07589219581638,1.07610874003004,1.07616386523052,1.075353660245,1.07479738206831,1.07423837695354,1.07497721871024,1.07780220115643,1.08125354140989,1.07852911516765,1.07676633469175,1.07577007142925,1.07476929491703,1.07385916015605,1.07376553602052,1.07300088325235,1.07178174938221,1.06970670993663,1.0706798185207,1.07211915166248,1.07495137210697,1.07421070958821,1.07352903101518,1.07421699447299,1.07445451678381,1.07364521592622,1.07325196833536,1.22996550897883,1.23671692450102,1.23365051306053,1.05936461962137,1.05887006919265,1.06136195975221,1.06208422582435,1.06299839876855,1.06289031327793
1.09956680971747,1.099932105478,1.10023343120609,1.31094779527513,1.19286050204585,1.28457360465768,1.09095728207114,1.09105636777522,1.09503663698363,1.09556733977552,1.29691585458605,1.19521035756265,1.12170523749815,1.11990817589239,1.11900756263301,1.1196112532875,1.12022580968414,1.17227749904722,1.13463566533326,1.13459024292005,1.13533029307617,1.13635838812249,1.13740176547462,1.23382342760313,1.18091230440176,1.23423046045674,1.35123527146047,1.31266411439939,1.14317530170429,1.14398829615086,1.36472300234174,1.38624772782845,1.37728769581273,1.15242940767007,1.15034070448434,1.15162436027619,1.15198240229957,1.15284569796334,1.15308753797723,1.15199899436538,1.15081262278298,1.15055190515272,1.15057570462783,1.1508598662088,1.15136186975534,1.1517100117346,1.152363897561,1.15285367778089,1.15040769589118,1.14940789902438,1.14613709846036,1.14472473076932,1.14521238082581,1.15186039201515,1.15230115356412,1.15317180585731,1.15454010813572,1.15544570370598,1.15459250692642,1.14989311455104,1.14798597374353,1.37472318378173,1.13722215217202,1.13657162983369,1.13719138615241,1.13968982861161,1.13988412396268,1.1323583660327,1.13128020965338,1.12974489903129,1.12866953990579,1.1292524569243,1.12836829736513,1.12845546246535,1.12759093287836,1.12688954062621,1.12780238921311,1.12877017461879,1.1275227515767,1.12786306907715,1.12603223294759,1.12415118220393,1.12410451886049,1.23409169961417,1.17307580312052,1.23324987216586,1.13433182787646,1.13467439268031,1.13886183398732,1.13154855948231,1.13169998491196,1.19553413597272,1.26147422727768,1.1321499760916,1.13433273329076,1.1994009989054,1.12687442734742,1.19197256363286,1.12343389158493,1.12403066033085,1.12327722823866,1.12176773242128,1.11874977765606,1.11647002643883,1.11411938645881,1.11432995333403,1.10900006713758,1.10918436797967,1.11176724584972,1.1133504382107,1.1129534065506,1.14779453114335,1.14564052636869,1.14394559112276,1.12688081967107,1.14058215508306,1.09141535883984,1.08711513905688,1.08802966824288,1.08997173912516,1.0893274800645,1.08881646837389,1.08999281785351,1.08942943790778,1.09186443057188,1.09254288206686,1.09139385948381,1.08913583691085,1.08715448141266,1.08702172999924,1.08700778995321,1.0830594996395,1.07597793018752,1.07918598101069,1.0789591439557,1.07964404435663,1.07592675974256,1.07563801564315,1.07681209632725,1.07738753749006,1.08068530152808,1.08179947093069,1.07921350580685,1.07741188567664,1.07762279667381,1.07758816005093,1.0804437439144,1.08239308890054,1.08495908884977,1.08615741530554,1.15106528386058,1.08072203770536,1.07699883355099,1.07595182680894,1.07530665279914,1.07523790129628,1.0701897795503,1.06981305997269,1.07111600246231,1.07344040206913,1.07561615343239,1.07544929129527,1.07512674208625,1.07486721874798,1.0745780768009,1.07376893145364,1.07485496813307,1.07722818988004,1.07759003045184,1.2325092696887,1.07864702777783,1.22527794841555,1.22398144686438,1.06312800967336,1.06331545725292,1.06332562331994
1.10451278713357,1.10662748567894,1.10728300413737,1.10837330595458,1.11366993351898,1.10982522163341,1.18325822696529,1.18444239298088,1.09731941180513,1.09743291257105,1.09773256216476,1.09787293718969,1.31041124573446,1.18119403936699,1.18500666364994,1.1887012853939,1.18875884194029,1.33362163879554,1.28050131447536,1.13420755629325,1.30669240236636,1.14060767196276,1.14000199451188,1.14103326537316,1.14100119299256,1.13433252076272,1.13392499627887,1.32916545533041,1.14120176358723,1.1424080095498,1.14305519998474,1.14310964689824,1.14332610687619,1.14395907155162,1.1467548470953,1.30679416031383,1.42423374785552,1.45030266806921,1.15436290742977,1.15477634338997,1.15594921838238,1.15212418660163,1.15062352338684,1.15087577880005,1.15139023487391,1.15210073759266,1.15338251119422,1.15439595445696,1.15389561580216,1.35075783752701,1.1476918804404,1.14639134564654,1.1466727819594,1.14825861764758,1.15132715914093,1.15238895944041,1.1549390283516,1.15483929674141,1.1549928477526,1.15413928596326,1.16939038282192,1.16702766300975,1.17596031650524,1.1531983558349,1.13600914564722,1.14018889063255,1.14146072937801,1.14193952244603,1.24487487740752,1.13520100923222,1.12464492920094,1.12908651326976,1.13103840159756,1.13064003106285,1.12827757337191,1.12582724331519,1.12852250053509,1.12877556624715,1.12736155531096,1.12732482965313,1.12648706426212,1.12361197090044,1.12669922729003,1.12784407590509,1.12848969667745,1.1286816844361,1.13422910288255,1.13502559712311,1.13698582277669,1.13727054191319,1.13729841611013,1.13698554508533,1.13621387171079,1.1350689680717,1.13465873524966,1.13276349396295,1.13062412612415,1.12973708164928,1.12819768268044,1.12609583336444,1.12403224049205,1.12264253704588,1.12221804235902,1.1176417424337,1.11215820005259,1.10980532099259,1.10866979402839,1.10345341770731,1.11234765195055,1.11405928651215,1.11464615413349,1.11417267680689,1.11322747332748,1.11044394504796,1.10927413496823,1.10891098706997,1.10828904684434,1.11095713048855,1.10662282234482,1.1066838063196,1.10594978753677,1.09553797936628,1.09449157530435,1.09468988739495,1.09413686900439,1.09411489315917,1.0916719680338,1.09014783453403,1.08867070753084,1.08783948163206,1.08667813196771,1.07702036559773,1.07831882523288,1.07892688122254,1.07954787287301,1.08069320949018,1.08156046485853,1.0818904495473,1.08225854514995,1.08503405692885,1.08312859744681,1.08267481682031,1.08079878178022,1.0818052255573,1.08034319061261,1.08034930121077,1.08224302558334,1.08378132774976,1.08495992343357,1.08642189850881,1.09119689384701,1.08584683799209,1.08549391107146,1.08512915674381,1.08229156663777,1.08068296802232,1.06843300474981,1.06837173167307,1.07071426324707,1.07585183276002,1.07679128402782,1.07624070572859,1.07595203349319,1.0758540080284,1.07513242087122,1.07532590952413,1.0766472676298,1.07809102483758,1.07831458521132,1.07941646668696,1.08129975897999,1.22538378866534,1.07439367877161,1.22353647441657,1.08971448983981,1.08839989862946
1.20359163287063,1.1158645004592,1.24098358534252,1.11818577146463,1.11811515334448,1.24105759217571,1.11647144451713,1.29980051602499,1.10209330735905,1.09919692284709,1.09778187154295,1.09616384955853,1.09558411378773,1.35500036273501,1.22889220112999,1.29849615208137,1.27463818479874,1.0945966344159,1.26894158891658,1.15755938178949,1.21120508023183,1.14016101799496,1.14004590346433,1.14023706164689,1.14012758878883,1.13891813426579,1.13528442079542,1.13425950114395,1.13461573882591,1.14110534623863,1.14122997493684,1.14098917673149,1.14170353122843,1.14200525051295,1.14198129196227,1.14261080472403,1.37713765526657,1.30993019697416,1.15133528061503,1.15196283467141,1.15758291775591,1.15718766731509,1.15130990779779,1.15078030862356,1.15074575064446,1.14989811934956,1.20153794415975,1.19909573986549,1.16569881873222,1.35578306704293,1.17532946793513,1.14026273814709,1.13935459315911,1.27918961297992,1.15174306157307,1.15119743115492,1.15210518558998,1.15182091739741,1.15059916754729,1.16801515615457,1.0985744386118,1.08875912404055,1.1498543938041,1.15060090104485,1.13235795803795,1.13115569812671,1.31352878213466,1.41208738369153,1.22012622387099,1.14883584050244,1.16371791669137,1.13007485125226,1.13214298266063,1.13202866117081,1.13289221255931,1.13486170449774,1.13749676569964,1.12996653726318,1.28724710323424,1.12888556900061,1.12320874911548,1.12156545262,1.12791116010614,1.12781593350014,1.12819488031774,1.12772816433853,1.12746660965568,1.13490497463479,1.13670442661643,1.1377320987151,1.13857460702559,1.13876555373639,1.13684132296782,1.13596161863936,1.13569630507526,1.13479360809147,1.13316497638141,1.13249089308102,1.12891644734756,1.12673449204719,1.12426870305022,1.12283796958142,1.12306335555533,1.11065919924848,1.11087299791818,1.10701675152732,1.10660764546146,1.10686046177948,1.11375930507552,1.11402303993501,1.11411075288737,1.11300142346852,1.11202138546219,1.11007908886178,1.10905730126682,1.10839510165032,1.10589294985054,1.10567733098724,1.10593552164232,1.10515011235698,1.10412389465928,1.10287584572362,1.09663194017924,1.097277639654,1.09589980837244,1.09498395924193,1.09181488865293,1.09031087913699,1.08872960544733,1.08703407093135,1.07912253326961,1.07751160464836,1.07819714112622,1.07892444485652,1.07971042360064,1.0797763284252,1.08008377895695,1.08016487588387,1.07967930232496,1.09154500225669,1.09184011810202,1.08518230997462,1.08310260788112,1.08301013160887,1.08185068874601,1.08167174435959,1.07999195286188,1.0845325534278,1.08523137363038,1.08616176339086,1.08509847758315,1.08466798842101,1.0844679819127,1.08346871410914,1.08288620750453,1.08212383058769,1.08222406776766,1.06920856607908,1.07306586369024,1.0811894482975,1.27248274372154,1.08352460417411,1.07653595834275,1.07732650682073,1.08078492514311,1.2567562916674,1.07781897648305,1.07926629610186,1.07921426614246,1.07954344868679,1.08455508248022,1.23048778041099,1.07452073314369,1.07630990530613,1.08961609151666,1.08764517608997
1.11767305710908,1.1180573594963,1.11950213845176,1.11990343092993,1.11968313126298,1.12032729102489,1.11987179245736,1.11971910947989,1.11759228726371,1.29504557700192,1.23415644796924,1.09553477589893,1.09484190749961,1.09402700630427,1.14020963837285,1.08687650953202,1.08712643397212,1.08731309810751,1.23732023876609,1.31614677215193,1.22445413785458,1.34129059688547,1.23644141305876,1.14072327282518,1.14010138448696,1.13926111295012,1.27859443697862,1.13451153211182,1.13615789468311,1.13816161539891,1.14002773325183,1.14065451406742,1.14058884790259,1.14051670112702,1.14106476887218,1.13940212923591,1.14392561919708,1.44446537321476,1.35907073711261,1.15091884521666,1.32032816138272,1.15485160224157,1.13648433052342,1.13621142828831,1.14200388248438,1.14638009152489,1.15328827290106,1.16436938470237,1.16521142206059,1.16450776188688,1.13433792121453,1.13526552945994,1.12043369279473,1.13998885071116,1.13972388608829,1.14025170988189,1.25278767378909,1.45599193748503,1.09472053098828,1.09466874002121,1.14839180296706,1.08163687006369,1.0818021269582,1.08883354957625,1.11919588979337,1.11745941584259,1.11771028459721,1.12668176198659,1.12430573008014,1.16592444137599,1.16550429113759,1.10857154439464,1.15669254830826,1.23946644536407,1.14066749715202,1.13661192581592,1.13643912806028,1.13735350747019,1.32655398848704,1.12972296948739,1.12979537301117,1.21037250751367,1.12946326056273,1.12816822041024,1.1283731362495,1.12834724751627,1.12731829027002,1.13280293002928,1.1350434304323,1.13768512918079,1.13870101289703,1.13944514323303,1.14089908070614,1.1411040091045,1.13753615873821,1.13663719318279,1.13616606422986,1.13458562900534,1.1320210372381,1.13241572546051,1.12499654755255,1.12029573164761,1.12134629790353,1.11115434329782,1.11104269790897,1.11126118525845,1.15041250087452,1.11394491088165,1.11322116995679,1.11301309951114,1.11310815208934,1.11247851168642,1.11113942699584,1.11003816226197,1.10895339096773,1.10837030061922,1.10597473276403,1.10481052379092,1.1052793826214,1.10481774854328,1.10536344007634,1.09767449415758,1.09885923116723,1.09914612729643,1.09721326782722,1.09582306665094,1.09268129845649,1.09125270288997,1.0914148024418,1.08625669393434,1.08050642877925,1.07872412860361,1.07973938368487,1.07996524361539,1.08057987150148,1.08051266326495,1.08120245405132,1.08045164643225,1.07945682334008,1.08934333238978,1.08921290470538,1.08834253106,1.08960940220714,1.08126547290764,1.08234242747516,1.08089533891721,1.07927178316258,1.07904464999584,1.08690261371344,1.0868220555848,1.08512534118987,1.0852922878637,1.0852973130212,1.08507777265165,1.08384903041651,1.0822591931438,1.08121536646764,1.07033946554703,1.08029997668574,1.08047121376443,1.08384231049756,1.08538594532968,1.08623180069378,1.08745450842932,1.08788175052772,1.08749335759853,1.12947380024734,1.08724178621452,1.24909483676442,1.0845993624431,1.09027281113185,1.23966565544605,1.17733770415771,1.23440622978217,1.09022086199135,1.08498065517627
1.11711883797807,1.11809745826784,1.11878911679512,1.11905983100325,1.12006133344742,1.11967015533755,1.1197193655045,1.11956259168442,1.11881418906417,1.11878781445409,1.26908767902488,1.30498099822915,1.09634588648618,1.09385049985849,1.17133715626842,1.24725568251383,1.24644157911152,1.10817676493852,1.1056173924673,1.35747959335411,1.22662622054283,1.26920793899163,1.38534316434535,1.28502690050007,1.22948521811156,1.37778521650522,1.27676900763213,1.13487152713624,1.13655402392942,1.13752063484664,1.13839910468417,1.1405769032975,1.14114013615674,1.14083312876912,1.14123535944487,1.1395690247414,1.24561826328253,1.13988129737582,1.17900287613255,1.14107622983988,1.22004890095404,1.12673429785228,1.12701387343735,1.1502216566578,1.13801996831247,1.1343452451865,1.17824676507862,1.14379362583586,1.14419628618361,1.16326260726749,1.17026727454212,1.1124471313105,1.11764789975583,1.10309235145995,1.1304607931218,1.14167408080988,1.14936648732853,1.14021355710569,1.09541100902279,1.14851206367981,1.07960775216642,1.07975543230158,1.08612392369699,1.08723449876253,1.12100003326274,1.12371923408155,1.11863629332007,1.13599509238444,1.1154054693544,1.11542915650138,1.10706561901201,1.15142128541418,1.15078104652741,1.15168613930789,1.14207771406901,1.32279813944063,1.13293830513227,1.13279907693923,1.12558886901017,1.29405573561217,1.21011474297501,1.35731307482421,1.44050600763878,1.19514065990011,1.1594425084304,1.13015798418417,1.12690875246978,1.27198319759747,1.13668266228471,1.13822796958075,1.31106805637907,1.14135624603177,1.14269691813081,1.14400849112363,1.14656937053394,1.15897521069369,1.16171351825945,1.13656641511012,1.13407188807359,1.23737575358713,1.12301210407503,1.12186004016745,1.12163246502925,1.11521447846926,1.11923116372545,1.33538855193809,1.12209682010133,1.11580700848074,1.11469314246711,1.11411229565965,1.11331758485785,1.11036896987604,1.10899450557735,1.10836489317222,1.1086814685658,1.10798110268502,1.10890696689756,1.11071232770462,1.11103536060023,1.11016404255253,1.10881746359767,1.09727212382844,1.09961874515611,1.09945132829311,1.09789355523182,1.09594941437308,1.09386020245109,1.09169391357489,1.09067234911302,1.08690866442861,1.08514172489096,1.08483394594558,1.08299023850686,1.08226199006118,1.08219668495503,1.08226505364276,1.08365374370377,1.08358029628662,1.08584579685431,1.08809021506417,1.08924780919689,1.09045010319745,1.09056507206031,1.087521006679,1.08534517386842,1.08383935758469,1.08468635277618,1.09628395279874,1.09644887889223,1.09349930210827,1.0914616208921,1.08881661014503,1.0862769534335,1.08601011073602,1.08493408655775,1.08330751587306,1.08123932999107,1.08031118549617,1.08102917034675,1.08115147046365,1.08565229244833,1.08697326224097,1.0934688207829,1.09325712588333,1.09541137992776,1.1430355506426,1.25077098903268,1.13154244478805,1.2556155975243,1.25412438208836,1.09559490714447,1.09611536595051,1.09508010624832,1.09333434347121,1.09242663581411,1.22830991515771
1.11748599626759,1.1193656022905,1.12002446315399,1.12044400806028,1.12104399967467,1.12067987142793,1.12006728225989,1.12002522951024,1.11986528928786,1.1200005166327,1.14857061412958,1.16435803766948,1.17872546683396,1.19136276534502,1.20423713314201,1.21971057660325,1.18452362371715,1.1538323295251,1.18512114158573,1.2349119057514,1.22511776403802,1.21561181728249,1.20564534215344,1.1957681375776,1.18526812432443,1.17366922953926,1.15775802176449,1.13491767889694,1.13609644964417,1.13835077480214,1.14000144108276,1.14146347413052,1.14205313509804,1.14201952305155,1.14243554696868,1.14126238322407,1.13761481019834,1.13381027956964,1.13076222358691,1.12869147681949,1.12725908829465,1.12666702248183,1.12760621560172,1.1293250284559,1.13131284889442,1.13493301251916,1.14349603512792,1.14771270157671,1.15336391372946,1.15971583301434,1.1351495843889,1.11083121804534,1.10848349308292,1.1062096284353,1.10578887739178,1.10477165211933,1.10470267471862,1.10515843106389,1.09642042120731,1.09336103386984,1.08937068765357,1.08882238426896,1.08765857630608,1.1048706078469,1.12171315593509,1.12480988309971,1.1301727877677,1.13435666510232,1.11638078616817,1.11509986469842,1.11019142129142,1.12589581152873,1.12789829105155,1.13096649551234,1.13509124456761,1.1434738052092,1.13218144314536,1.13132383689174,1.12782637758703,1.17350174668321,1.20164331314906,1.19835580521634,1.19674850457796,1.19284817221862,1.17361554310014,1.16216397149012,1.1300165243993,1.13190844278136,1.13635171254166,1.13882090493748,1.14095176405681,1.14181421577795,1.14246482174438,1.14719653790387,1.14832471209934,1.14888035587801,1.14854076305083,1.13506174599195,1.13427516400375,1.17928690644365,1.12272115402572,1.12217787749235,1.12209793979952,1.1244641340141,1.12736717353584,1.12816697712202,1.12628855384601,1.11654164920489,1.1161047915988,1.11523103559708,1.11264746412932,1.1106295254123,1.10955460101521,1.10928252060875,1.10951505908322,1.10948183527128,1.1101262116692,1.11116168826708,1.11140377336384,1.11096334350753,1.10958146168325,1.10673044426427,1.10291045393779,1.10101327973181,1.09889206103324,1.09614916071101,1.09423831124848,1.09198766236598,1.08909210852286,1.08694935962962,1.08544986319756,1.08508799026686,1.08437723248762,1.08389514740035,1.08372471297576,1.08381886501432,1.0842940572239,1.08511429023933,1.08699178800476,1.08864470360375,1.08991400615028,1.09080236907055,1.0909202149976,1.08969928715623,1.08764591281639,1.08568297169659,1.08508449348455,1.09625556568146,1.09665508664417,1.09565365482083,1.09329817474881,1.09159369803585,1.08935170831843,1.08756307234054,1.08652299321668,1.08509383360767,1.08440677938363,1.08394405778716,1.08317569387458,1.08395364061059,1.08659076808871,1.08924593940009,1.0925079272893,1.09411581267364,1.09624407579712,1.10433298890965,1.10448492237244,1.10458461790907,1.10401847933286,1.10320017358136,1.09610491173821,1.09557208460627,1.09364434847426,1.09263541216816,1.09209595591589,1.09127375874255
1.25875168158219,1.12109638029437,1.12100090201787,1.12111864335762,1.12205601294181,1.12134143235549,1.1197223286067,1.12072986385976,1.12060512253791,1.12108193475687,1.12306276415542,1.1242034707579,1.29457377495228,1.33887658011809,1.3335545934317,1.34522847334785,1.10587215015716,1.10829753503981,1.37534299100975,1.24687627451352,1.22447016701903,1.12857976301874,1.12928694521004,1.13150742477353,1.13328237558982,1.13110091736974,1.13086572851992,1.13338638973436,1.13388466916189,1.21262047586373,1.16609466190212,1.39810471692049,1.3978641947126,1.14127121455162,1.14329747257384,1.14431780592985,1.12755583343806,1.12739279777193,1.12538925376937,1.12258601229184,1.12217960781893,1.12337598074091,1.12766708286803,1.12746086492792,1.12968179744932,1.13955371383213,1.12478343433094,1.16271899001301,1.19125101327869,1.16446006245848,1.09964973957713,1.09966498154408,1.09913933535301,1.10769686969842,1.10620573000889,1.10376093907315,1.10395067739042,1.10489036524062,1.09859133577748,1.08948318019639,1.08922293312285,1.08916832710586,1.08794828088925,1.16052892136705,1.13418405663579,1.14235603950494,1.146183007953,1.1464333454123,1.11915214520091,1.12412991202924,1.10662143974821,1.12441912008351,1.12283497570393,1.12371034259197,1.13162216606878,1.15035857881315,1.13251034826139,1.13208768734891,1.12645010983514,1.12423639669309,1.2299341541414,1.19232393269937,1.16213895828131,1.18914217240005,1.187384208579,1.18596137559451,1.12912644249065,1.12908443181865,1.40608199110534,1.39776864826312,1.12772295094641,1.12784193056867,1.12959959119079,1.1504001841989,1.14967455146212,1.14939181776397,1.14829022329745,1.13520735495685,1.13458405903977,1.287857663318,1.12328810727458,1.12328552789436,1.13548759480907,1.1364063343423,1.13015001828912,1.1280403286678,1.31294597977142,1.11798995193962,1.11780866320028,1.11793911044557,1.11159580898262,1.11008822652934,1.10927454951069,1.10925123655379,1.1105614750027,1.11031109236454,1.11081800213054,1.11234909500456,1.1125013811904,1.11292134462955,1.11161891355738,1.11218657105238,1.10397017540596,1.10248052492152,1.10065138070194,1.09556619563042,1.09487514095145,1.09305256182172,1.08710063325282,1.08640621734505,1.0848688225479,1.08547686348919,1.08540194767395,1.08525581858276,1.08497374800687,1.08503430432842,1.08465137392177,1.08570816378601,1.0884615475167,1.0896586095107,1.09099353605335,1.0918896695299,1.09273059224794,1.09292560264832,1.08939975423275,1.08631079354926,1.08547327773415,1.09520011741556,1.09732974655895,1.09857205364727,1.09972505156968,1.09929836551874,1.10109487404555,1.09992968349415,1.08955191532782,1.0859438335373,1.31002887637219,1.31060859656556,1.0834885140031,1.0845133798965,1.08732085613068,1.09073171433473,1.09285145836426,1.09372279534915,1.09808095416337,1.10247000872044,1.10264154273032,1.10362064438536,1.10306328784359,1.10169418699285,1.09676957931696,1.09632564751046,1.09053212911073,1.0903540657041,1.09078821931491,1.08969247015823
1.12361644690029,1.12363294997818,1.12297519172354,1.12361601139106,1.12438269801963,1.12390160248744,1.12542948261391,1.12649031146461,1.126313743034,1.34017124353338,1.12455260909766,1.12527830660014,1.34649883043615,1.23238953611924,1.33150489031899,1.31764389047977,1.38582420870962,1.11116366751059,1.11166941418898,1.22435054797596,1.12249358147254,1.12366798917753,1.18531194572562,1.32672050160001,1.13437170341464,1.13126343682169,1.13061373739761,1.10889680507481,1.23867087180514,1.16347992355124,1.10339130796384,1.10768694466186,1.10762868125426,1.21823573505384,1.13187297616348,1.12765581721491,1.12785969152006,1.12840056618515,1.11254149989295,1.11279100436586,1.10169474633404,1.1215665413976,1.11780406514171,1.11793896094182,1.12643959886062,1.12068293244316,1.12295626230635,1.12098051328481,1.12047195882239,1.11915578031007,1.11407256203832,1.11141760184118,1.10887231606312,1.10765842872983,1.10778740487053,1.10904006108178,1.10878656449571,1.11675286367225,1.09413618907152,1.10819067332527,1.09592083060279,1.09705132772345,1.10079922408859,1.0987506540214,1.09851114912374,1.09757333699646,1.1500768704275,1.18572824669943,1.12171082425507,1.12310034411029,1.12425516300381,1.12484308869036,1.12451177465038,1.12628594954011,1.13020020344756,1.14019190860649,1.16843845396141,1.13080765083639,1.12997856731677,1.13077603564379,1.19808738102541,1.16252382006058,1.16099521284896,1.38932103162963,1.23999233751774,1.38995934056595,1.13257411583548,1.13127722319262,1.3072752047296,1.12056049901369,1.1284995251977,1.12822949271497,1.23663568792207,1.1884572270076,1.15747525781283,1.15636860971604,1.15639100635528,1.13845566216122,1.13896202794338,1.12847119899257,1.1279734139513,1.13595594932808,1.13493579439143,1.13277310453591,1.13108244846498,1.12925865807758,1.12735374145998,1.12719107533392,1.1316934162419,1.11981587792422,1.1191709061754,1.11517159575291,1.11474359476876,1.11363077355632,1.11289492182742,1.11268600949573,1.11347839478194,1.1136214066413,1.11365754753171,1.11497734084372,1.11671919512731,1.25993858549483,1.10605399723539,1.10664731692638,1.10550574660824,1.10458482708558,1.10327027177093,1.09441323970108,1.08918157044143,1.08823830920497,1.08564750745544,1.08512811212898,1.08569520810798,1.08529692159459,1.08545265620705,1.08520789697587,1.0841435986266,1.08691922868169,1.09017076791864,1.09102552446522,1.09177457045598,1.09246815423905,1.0931861017074,1.0964381116135,1.09698062264867,1.0963786015752,1.08695873843004,1.26470277538181,1.10245897681847,1.10109825779647,1.10124800648773,1.10096674360681,1.10051286641846,1.09801485096486,1.09445462587329,1.09552636151619,1.09539051399313,1.09510833652877,1.09510268778653,1.09462956411555,1.09197913303157,1.09224416003628,1.09471976929759,1.09618918119965,1.09870127782232,1.10169018004476,1.10319665001014,1.10197771949733,1.10083953823094,1.0995893452241,1.09327034165477,1.09112064717316,1.08997339231825,1.08990037899653,1.09014646685391,1.08932070517673
1.12228881861959,1.12436143737236,1.12550408303195,1.12882581870048,1.12747438532949,1.12851527472569,1.12825366490065,1.12991934222421,1.12984952418208,1.12987199118454,1.12839001207826,1.12812303029016,1.12875420094628,1.36745219489729,1.33665015171856,1.28828319230521,1.11429696374477,1.11170751200294,1.10998042174984,1.11113670494255,1.12075640623963,1.12290276317106,1.11425655942951,1.11009673745197,1.11426911511088,1.23957745551179,1.10427204871414,1.10806544802992,1.13798458751168,1.10461097196048,1.10303471886068,1.16226808035956,1.10576034316831,1.12233188177131,1.12288310967525,1.12223691698891,1.11560216844386,1.11607654376186,1.11587897423459,1.10040232198446,1.10006462550633,1.10209293042877,1.10365561453503,1.16229864491384,1.155618880799,1.16216612622594,1.12426477121111,1.12726156446279,1.12130970625035,1.12016585694162,1.17916939483667,1.13835029600298,1.13800186033362,1.16663809151301,1.14379606091292,1.12542012970284,1.13776580881696,1.11294239872272,1.10804521104911,1.11994878313857,1.09512662595572,1.09480986590948,1.10751615267935,1.09809396512969,1.09818415488227,1.09707613498888,1.18246212199338,1.10832328493855,1.12111120198133,1.1561515826516,1.12598808019378,1.12668472017281,1.10897702155646,1.10745906411184,1.10492954897143,1.10297403717972,1.16710622129411,1.11463647971664,1.17953942496291,1.13051274056276,1.12978068428307,1.31670182655611,1.1600685397871,1.13942469005598,1.14728071016263,1.1124967808255,1.11358292181455,1.10143040157097,1.10464366182114,1.20100749500211,1.20898803383343,1.13010790302358,1.13058287032018,1.22549766593074,1.15736916323186,1.15591609163039,1.16762949985407,1.29786708750775,1.13692032240355,1.13678585342638,1.16154056145573,1.14439500195375,1.14445043539777,1.30388014270492,1.21232135058241,1.26623842059912,1.12475472558777,1.12710086267384,1.12826880262999,1.12617931871921,1.12436502030053,1.11873930341149,1.11655028221688,1.11538486332438,1.11491840671987,1.11379548846826,1.11420174772612,1.11239938731217,1.11268224006253,1.11367364784562,1.11463900721529,1.1146506694165,1.11581661666368,1.23074289219209,1.17453512014658,1.23236179352393,1.18427583762895,1.09964200928414,1.09896209167946,1.09892398000637,1.08710641886687,1.08638317617544,1.08662132816031,1.08540011436082,1.0852981978643,1.08375379399966,1.08320712442446,1.09165733404441,1.0912883367127,1.09178985003484,1.09187879849059,1.09324124520684,1.09426369460452,1.09763603224432,1.09818294664362,1.09878832888671,1.10213263876242,1.10315543065742,1.10326788015597,1.10291387015666,1.10155946505469,1.10072551948585,1.0990839855385,1.09655095020346,1.09442598562145,1.09339499499793,1.09406877144318,1.09381930113264,1.09412254735136,1.09453962766395,1.09482248011407,1.18745660070044,1.19055872045857,1.1053310983597,1.10397526624806,1.1029070118,1.10278925154832,1.10209092000398,1.10125390514078,1.09904346521139,1.09322739176642,1.0912959916482,1.09000914486496,1.0904566469498,1.09030726193717,1.08889077499239
1.17218497533967,1.22391186921501,1.23114456530108,1.12995613192176,1.1280376269164,1.12781766662633,1.12795669186939,1.12935415438464,1.12953449406312,1.12955732605028,1.12911537038736,1.12863096833772,1.1285070801528,1.37808785552704,1.35134569141937,1.33831182891159,1.11455636710372,1.11398669233918,1.27302854411636,1.10311712291446,1.23186224315112,1.12144687319677,1.24370333646247,1.10736159511112,1.11034759966037,1.10536011283736,1.1053693053253,1.09848970010817,1.09620660502662,1.10484931400136,1.12206417742892,1.10530575999876,1.1051482820211,1.16903970399123,1.10958310101063,1.10061789340009,1.09958209294301,1.09250614794817,1.09227008456241,1.0986709091277,1.09878746615921,1.10346575343957,1.13631081891108,1.1389169168888,1.13770074787995,1.13985066822489,1.12394651842473,1.13389192273891,1.12025654341768,1.12265987787241,1.14129353323095,1.16923962572871,1.13860365562293,1.16675605204343,1.16677754167274,1.16665771831656,1.15664308497182,1.12348598962586,1.10857851657125,1.1213282604218,1.10530305007174,1.10756103332268,1.10811473895123,1.19511785747466,1.13292297652026,1.11441471211446,1.12936500325531,1.14203117767688,1.13811884944654,1.11225945141278,1.1211218576366,1.12819251200056,1.12835636938362,1.10447050268389,1.10420563032661,1.10366296810344,1.11029965670972,1.110735562789,1.11792362338207,1.16055721167648,1.13716485960256,1.13885096488627,1.18120002401709,1.17968324294398,1.15421767216581,1.11020287466001,1.10817234157528,1.10178100990025,1.09459186845798,1.09348399544977,1.16427351779089,1.24738517641396,1.14520568893019,1.14494634249915,1.14641359248432,1.29537860774153,1.17133990215616,1.13432881357167,1.13459985260605,1.24602529940581,1.14851066822346,1.14505139343317,1.14487597225626,1.14625713770183,1.19220516323097,1.2197898815618,1.12573797664046,1.12648108340406,1.12922334138901,1.12814257083826,1.12830393527531,1.12560344473054,1.12427591669389,1.12422425024908,1.11699569822293,1.11528917067276,1.11549255326732,1.11254772752648,1.1124016499568,1.11227475163471,1.1125185927424,1.11417412330498,1.11747509941186,1.12330846946671,1.13032008565948,1.12494883278514,1.21704874137262,1.10370765263487,1.09869870947847,1.09915794569763,1.08867582789913,1.08632110686451,1.0851566817114,1.07004307568381,1.06996813945549,1.07054320269585,1.07425137643262,1.08412413960462,1.08799855902083,1.09230370536674,1.09241711657592,1.09446197152004,1.09484102443774,1.1003652968258,1.10003712897849,1.10108296146401,1.10420636298564,1.10523969065793,1.10877302800926,1.11041473167406,1.11109720286256,1.10579687635887,1.10354649070425,1.09542881647748,1.09435752279336,1.09438551562196,1.09504524080002,1.09494415027336,1.09499815001858,1.09614563792005,1.0978033677208,1.10388363189479,1.10435918832924,1.18157460246727,1.10713726638202,1.10536295228133,1.10477863402963,1.10286920223603,1.10019407248096,1.09887260963831,1.09375672085027,1.09266355858903,1.09155090839301,1.09121442539332,1.09127331270454,1.09025384920483
1.11443749512215,1.11539335320283,1.12046873917222,1.21430412202406,1.12654358710253,1.12730103882705,1.12725738010576,1.12778395289466,1.12810125513109,1.12802326065123,1.12748969610394,1.12714537340765,1.1260033830866,1.38025766635188,1.36103410972175,1.37751297358136,1.37805295641103,1.36877892156738,1.10877674347713,1.09821995422834,1.09984341743472,1.10339328254381,1.11570206858848,1.11619863712011,1.11475170206252,1.107193505899,1.09841444432825,1.09741820027974,1.09453156422487,1.09409686176904,1.09481474699379,1.10482808825832,1.10442174677028,1.10399606091235,1.10138929888514,1.08274151460888,1.08480817248451,1.09266684433635,1.09103906561883,1.09903021131729,1.10774518190189,1.1162404907814,1.13769056566784,1.13646486854684,1.13665232159777,1.13228231632033,1.1269339577095,1.12416879875662,1.12168489172906,1.12114380143251,1.15939203594733,1.15472453607703,1.18048478958631,1.20694252013675,1.19886710050302,1.21151596711544,1.21365650711318,1.19516310264794,1.13361154083073,1.13143250361254,1.13330182066379,1.12496150398573,1.12501969621822,1.14744036377405,1.15109133061685,1.16178528122643,1.17874900538559,1.17659683554683,1.22895195141891,1.1535777076638,1.13601660414657,1.14519970749909,1.1944332957416,1.11710161327065,1.12323750909923,1.12612075888084,1.1168134224544,1.11789188648421,1.11956862965688,1.12589289236868,1.13470815478544,1.13283778485591,1.12996262791687,1.16548864512186,1.15959225297831,1.16502473887866,1.09861726924344,1.09458253410424,1.09241560523498,1.09375538680596,1.165606693483,1.1497686140104,1.14936612034533,1.13475176908276,1.1388088528212,1.13920958299572,1.13855778682725,1.13117811818802,1.13361343691002,1.34974713405327,1.35928386484804,1.14827300887529,1.14560992572247,1.14430844481956,1.17247085827321,1.14225846664625,1.12813235053012,1.12872069682332,1.13059140813228,1.12934153883907,1.12835648053688,1.12627642972383,1.1239861181903,1.12240076948283,1.12012836440666,1.1177610423228,1.11746539189084,1.11756715855515,1.11430275803415,1.11052075256076,1.1120638378389,1.11183453201393,1.11032066306405,1.13036365485835,1.13272362734327,1.14003175338583,1.20516906619444,1.14719842982202,1.08992693206157,1.08965239701224,1.08938947391642,1.07874322658699,1.07381620469593,1.07122577888605,1.0704155589008,1.07019338897735,1.07293358114109,1.08382730226543,1.28848671385564,1.09830285738516,1.09767943375795,1.09570436226178,1.09557645209973,1.09869438287497,1.10082894683118,1.10278822500464,1.10469417305363,1.10665563484097,1.1097986204272,1.11095859183357,1.11102125423125,1.10908282972858,1.10488013585995,1.1084385020315,1.10965886636298,1.10903578400909,1.10851305973794,1.21116509047711,1.21344678158472,1.34513895221166,1.21725515576023,1.1857559801528,1.10718538545738,1.10881903287502,1.10891809120144,1.11109862166347,1.32526811749854,1.25080494365255,1.25116257080733,1.14350701651897,1.09503630019202,1.09426981650425,1.09472761821933,1.09526217148678,1.09430328113449,1.09533736320132
1.11504188265548,1.11637752271685,1.11967341549953,1.12121193011022,1.12374408048846,1.12481481560183,1.12667007435418,1.12640611878218,1.12817802120497,1.12812926213797,1.12701094352978,1.12612789844192,1.12336628875017,1.12019151759069,1.11940625537185,1.11871664806855,1.11856813930171,1.33413968463819,1.11483274630722,1.10631486416385,1.10274665894218,1.10563060297643,1.10713057951303,1.11933966213454,1.1184761659068,1.12071488353988,1.09826359128423,1.09783678794366,1.08707796116595,1.09499989397863,1.09557822631683,1.10673418557506,1.08877753300231,1.09112907072243,1.09796406412762,1.1123501571957,1.11033802285737,1.12522989802015,1.12387339995336,1.16269405172364,1.18159128410972,1.11272446987767,1.16696405775014,1.15908283030121,1.13815128892557,1.13132777328666,1.13033741670881,1.12405281847971,1.11991072987799,1.17203946134683,1.15559456487433,1.16288583117215,1.20187035905588,1.21415826521244,1.18396676001114,1.16982867673229,1.16898904052346,1.16947001668676,1.17699541355588,1.18602972657686,1.13338853031215,1.14925171265796,1.14687908934947,1.14680249976606,1.15486413659835,1.15901701732515,1.15973752492189,1.22616929434809,1.22881865949835,1.11829551640309,1.12497735521958,1.19479408189533,1.13556005673787,1.13560234790283,1.13111868180504,1.1274454045533,1.1756818247517,1.12898867583209,1.16148077245728,1.13287597803815,1.13533223663423,1.13580750902596,1.12669505994839,1.12497360242572,1.14411667018523,1.16441745586243,1.16500924544074,1.09482729194435,1.09418717282687,1.12418872223963,1.15063822029267,1.13987780404518,1.16319665670065,1.14156746531453,1.14138454745743,1.14233581836655,1.13764663186359,1.14448398718706,1.36123416283608,1.37224361300386,1.13504426518301,1.1347406120344,1.14595901774946,1.1446394327909,1.21734582118147,1.27473069983169,1.13461066052044,1.36722999208024,1.13072734806335,1.13049444309256,1.12944622049215,1.12870221189911,1.13228170131232,1.12308197334776,1.12256571041103,1.12342163094403,1.12329280964824,1.11898888935199,1.10247232339581,1.10163996411966,1.10213238092626,1.1032982404994,1.23789379860841,1.09861407396265,1.18461046752828,1.22311637526922,1.22439871176848,1.08713870928343,1.08987003940964,1.09017763315511,1.08126848239259,1.07670771182195,1.07539101244987,1.07231283870629,1.07129440958466,1.0716253476222,1.07324479746014,1.19444253666824,1.31378781359536,1.10079844452304,1.09973656746405,1.10107178523921,1.09978730199147,1.10080512180795,1.10203722246412,1.10326228222219,1.10346872044769,1.10828090204402,1.10991478651255,1.11150931832439,1.11209520565959,1.10935778835928,1.10707650069849,1.10971615613861,1.11010826339165,1.10956050940629,1.10879722804802,1.10870634579666,1.10983182083652,1.18718776481254,1.17832963541117,1.3451482030658,1.1173494633752,1.12050128370122,1.12042781138121,1.11805077891297,1.11707427195792,1.11543147646283,1.11336685112304,1.1211644633611,1.12137920806183,1.09806499779292,1.22367523578064,1.30192821247937,1.1824554298661,1.23579385471647
1.11732604720037,1.11912828653913,1.11947479967694,1.1207283210781,1.12232234311505,1.12219121383494,1.12394632871813,1.124241263882,1.27767306417822,1.37726716867284,1.12248382213844,1.12260256845024,1.12294690202273,1.12147723250847,1.11980497354241,1.11870447239458,1.11768787500695,1.11690832138264,1.11674863215654,1.2028885679549,1.09159902015563,1.09239749854663,1.1067650736685,1.11421703361719,1.11740584405153,1.15764617151923,1.17331006337348,1.09671607595762,1.08974365630135,1.09605593864535,1.0982277181271,1.0981708049671,1.09589004267275,1.09336165412558,1.09455741642657,1.0930338785507,1.10770005951893,1.15986614586392,1.1599212310485,1.11793955784509,1.18236231163665,1.10598662822804,1.18163674322363,1.14096441209805,1.14035140702445,1.14020239255658,1.13706361336482,1.13468916103406,1.14317782454692,1.14328330868739,1.16752304353685,1.16402844465511,1.17101410932778,1.1728050236587,1.17150010389159,1.17040073786558,1.21379534776054,1.17782944878625,1.17297166883671,1.17633976132938,1.1762247375578,1.14986015739677,1.14844221746275,1.14731263420841,1.16309709707069,1.17940563461933,1.16286470257596,1.16467771188895,1.14788356462079,1.14147059090017,1.12533889223829,1.14083549713477,1.1398047800757,1.14333399891808,1.14340800410353,1.14354692446943,1.13879739602723,1.1369243559734,1.14933703448177,1.14811807455834,1.14823636675925,1.1521297756427,1.1402864859008,1.12280600461141,1.1257191310831,1.12127246906902,1.1087878316323,1.10773255195637,1.10535096050444,1.10506074892709,1.14157870850937,1.1887833969574,1.2073913594488,1.1529414433367,1.12931268166331,1.12618489680144,1.12678265139169,1.13337385469793,1.14305184784836,1.13040535528464,1.13659763962951,1.13524215843455,1.14586973424882,1.36044911582907,1.24992425061213,1.36123909290174,1.3962036719515,1.2922192743189,1.29675346046082,1.13134221412021,1.13109501156669,1.128643718872,1.1259136673978,1.12399896077656,1.12354955205763,1.12357904850121,1.12300071644738,1.14703541744291,1.10057968818502,1.10121604598236,1.10102495101432,1.10233094401525,1.30105863234893,1.2267286674795,1.2478366996412,1.3017002981507,1.0759452586289,1.21920707467461,1.08250989697165,1.08099392518433,1.07387997087027,1.07468694920014,1.07527601845622,1.0739810696417,1.07686002758613,1.1882754741037,1.21575084325701,1.11774923637466,1.10378255962859,1.10471089001794,1.10519212502938,1.10191876862349,1.09948069554859,1.10040507710485,1.10315648814449,1.10497956919619,1.10435718206847,1.10550013743837,1.11283619391856,1.11388513880067,1.11430848441534,1.11179381080755,1.11432343288722,1.11497918350915,1.1149713491049,1.11449621334811,1.36858987056042,1.33227100956173,1.11668611361381,1.36151818471007,1.36769709212882,1.13167054902184,1.24369408416014,1.34954235481217,1.30123664938523,1.24738517208986,1.39557460903469,1.10988343328794,1.10906585382462,1.10957955172291,1.10283403092126,1.10219927980354,1.11571895211534,1.11601944277728,1.11506838357073,1.11589574430881
1.23553483080029,1.12995276045172,1.12936606521075,1.30960642558728,1.24340552807414,1.30327861171224,1.31426907593958,1.12416848167894,1.28084985047307,1.11500544774202,1.39983000194346,1.1383955058921,1.13683208683604,1.10984507700052,1.11490061499341,1.12058360299403,1.10843248161601,1.10533743040559,1.1053037980585,1.08109941030933,1.080640740049,1.09219203885784,1.10184894205962,1.10172935760246,1.09988077764294,1.09805904177501,1.10108802569242,1.100515694658,1.10085383519687,1.09751314189066,1.09853269202902,1.09898885812596,1.11092815512077,1.11079113583762,1.10434497915858,1.10031834505411,1.10056383381852,1.13205976143466,1.13159671124155,1.15583700058093,1.15580731592806,1.12187606035316,1.11980510884803,1.12719841008678,1.1412430085832,1.14041229383688,1.13671200871105,1.13970736421682,1.140753639729,1.14625955061509,1.16167265280868,1.20904040681505,1.17224444609511,1.17179343574687,1.17182505956582,1.17107052965993,1.17302922860708,1.1821447478201,1.16952523096215,1.16931892125385,1.17072400511312,1.18084467326058,1.17160761472166,1.17555881292909,1.19244119249405,1.22173773642028,1.15731265177902,1.17065307715777,1.2377550475066,1.17989120705581,1.20759146488847,1.223471547064,1.14524434987716,1.14615512509269,1.15013560042316,1.15212327256735,1.13927314139968,1.17277457093892,1.15469373480641,1.14875596711694,1.14739035431467,1.1526393886835,1.1596040540326,1.12502177370328,1.1290680910171,1.13835506924729,1.12223925925246,1.11503573893117,1.11365337743254,1.11179930859511,1.11402978703057,1.11405927273144,1.10499111527362,1.15470325260108,1.12359624220513,1.1104765015078,1.13666655300664,1.1367943520267,1.13478239040271,1.13365259107552,1.29428700695189,1.14707540934294,1.14638027195763,1.14886268418685,1.21804638777576,1.3568561222181,1.27557251888331,1.31027154570568,1.36086847301096,1.36051080905256,1.3366449729802,1.31757972604524,1.31653457234316,1.12443034989047,1.12411525876614,1.12426263627232,1.11089383434023,1.11073375521223,1.10052374308456,1.10010943705961,1.10075839286889,1.15923988140785,1.15452825189103,1.30832980981803,1.26606994886877,1.30230564752819,1.07619194807288,1.12577344341939,1.30360261708043,1.20534929371049,1.07175057657732,1.07519163724533,1.0760409757288,1.0874899619707,1.09014278759084,1.20766527958973,1.21313764478099,1.09872763316461,1.09951943404356,1.10215592556092,1.10498825876615,1.10503563777451,1.11072865107756,1.10675501137922,1.10568386870678,1.10670893188178,1.10738157431137,1.22081672184844,1.12070843841617,1.11894919572345,1.11704973379621,1.11585702916312,1.11574888054207,1.11763527500307,1.11789215018565,1.11889754269993,1.11885377244048,1.26228829955244,1.12293110216214,1.12288891166215,1.36439870035419,1.13364535217356,1.13433231258275,1.37114310318431,1.34516937850092,1.3304158107119,1.1119698563103,1.11098391749672,1.10978617938336,1.11002072609403,1.11099010543901,1.10321176226708,1.18548838025319,1.11578248222611,1.11484113594215,1.11517347652591
1.27735375780301,1.13079952779579,1.13829268923488,1.27724692799652,1.20733254820637,1.13642260691053,1.13572656995929,1.13537757329298,1.27523670257036,1.27571840668967,1.10765352024049,1.10607346204989,1.09867216649024,1.10596631164202,1.11001652453956,1.10790688546229,1.10806427938078,1.10149465203489,1.12580063961203,1.12719172734354,1.07886497629259,1.08970127561153,1.1012196916194,1.09986319151085,1.09998013267003,1.09976761843059,1.10117919159685,1.10055122697125,1.09943838236709,1.09910086547053,1.09954607516257,1.11876854506304,1.11680693036593,1.11186002337286,1.10652969424383,1.10227637897972,1.10201492041437,1.14179803430675,1.14204596577706,1.12202666377438,1.12253659144981,1.12354524007525,1.12360958271379,1.13092887482958,1.14132124622694,1.14116889350984,1.14131448075133,1.1415379196571,1.15392240739352,1.15328424899727,1.16871125817824,1.16997258860394,1.17231187147857,1.17235078753504,1.17324447542452,1.17344066223194,1.17566178433769,1.19244045635924,1.18417303055156,1.18961189911446,1.16998216571136,1.21342559381,1.21312280630174,1.22034162648583,1.20310043151527,1.19262260258476,1.197529142565,1.19883668054887,1.18576942118399,1.2282198479609,1.21225874607275,1.17746704539794,1.21059653362179,1.14983289410125,1.16353948317961,1.17668695659609,1.17047747035705,1.18522688938075,1.16899331031388,1.17539387869635,1.17299296907873,1.17053761283281,1.16838126166971,1.14246138269988,1.1430713419495,1.1426174578178,1.14317146354247,1.12540570024046,1.14828371421792,1.1787869629588,1.11181222668033,1.18574114111598,1.18527382623898,1.09603491166044,1.11568672843909,1.09270299699514,1.09343650492862,1.11141750070097,1.09739975462689,1.12414067353418,1.1557521445831,1.14712506137652,1.14687066879331,1.14303640311726,1.14481912155886,1.14452067276517,1.14694236089556,1.1474501813784,1.15355926209973,1.15227203666359,1.32737694731874,1.32862064111525,1.13087065401896,1.17393646542362,1.17683187624171,1.18013203554012,1.18165944557153,1.11181210591566,1.18620002410405,1.21762517545832,1.35462108170025,1.31750543021843,1.30798873571425,1.05089701793725,1.13363951956985,1.30835636499474,1.30787619582651,1.1888272720188,1.06651412088,1.06738365439781,1.06959788161455,1.07009553275503,1.12835609147742,1.1470910271462,1.09127446211573,1.09079636962711,1.09199484807806,1.0946404555835,1.09748461049367,1.09892380992887,1.10717348892613,1.10833074355804,1.10973408772445,1.1997747524815,1.21134464060605,1.26583561189096,1.2639056298711,1.28534873975637,1.28459462313028,1.27709314379436,1.28633253659141,1.3146203962616,1.12588389270983,1.23140269342128,1.17610002160064,1.12365608028485,1.33044109866573,1.32647372766907,1.39326191038832,1.12944631516131,1.13505726003709,1.13423764469838,1.13427741551055,1.3998485129902,1.35363250016525,1.40163392258494,1.11470123618546,1.11234111994013,1.11053610609867,1.1098644419664,1.31899603838519,1.16254477779539,1.19864176344935,1.13109003444693,1.13118578290635,1.1402081568728
