1.13781, 1.13813, 1.13682, 1.13576, 1.13585, 1.13711, 1.13699, 1.13652, 1.14104, 1.14046, 1.13969, 1.1412, 1.1409, 1.14318, 1.14492, 1.14675, 1.14813, 1.14949, 1.14954, 1.14866, 1.14867, 1.14988, 1.15064, 1.15075, 1.15221, 1.15438, 1.15459, 1.15475, 1.15564, 1.15511, 1.15515, 1.15646, 1.15779, 1.15758, 1.16361, 1.16582, 1.16726, 1.17333, 1.17494, 1.1775, 1.18036, 1.1807, 1.18082, 1.19463, 1.28471, 1.31616, 1.32243, 1.27759, 1.39222, 1.20472, 1.20505, 1.20479, 1.20571, 1.20659, 1.20822, 1.21005, 1.21173, 1.21193, 1.21528, 1.2157, 1.21906, 1.22197, 1.22239, 1.22508, 1.22766, 1.23047, 1.23064, 1.23488, 1.23538, 1.23444, 1.23384, 1.4987, 1.23116, 1.22688, 1.22669, 1.34952, 1.34254, 1.34242, 1.23702, 1.2224, 1.25191, 1.21403, 1.21535, 1.20834, 1.20936, 1.20342, 1.2158, 1.2179, 1.22276, 1.22317, 1.22528, 1.23022, 1.27443, 1.24716, 1.25746, 1.25228, 1.24977, 1.26476, 1.26426, 1.261, 1.26804, 1.29511, 1.29651, 1.38851, 1.31052, 1.30147, 1.30558, 1.30247, 1.30881, 1.31227, 1.33295, 1.33303, 1.34612, 1.32643, 1.32756, 1.32735, 1.33687, 1.33449, 1.37556, 1.35471, 1.36636, 1.37827, 1.36575, 1.37233, 1.41226, 1.38102, 1.40101, 1.37772, 1.3782, 1.37854, 1.39225, 1.38595, 1.39291, 1.38557, 1.40437, 1.40598, 1.41893, 1.40171, 1.41636, 1.41627, 1.45199, 1.42908, 1.44816, 1.4499, 1.46056, 1.46838, 1.45833, 1.47083, 1.4847, 1.49319, 1.53244, 1.53146, 1.531, 1.52824, 1.50653, 1.52994, 1.53731, 1.53653, 1.53545, 1.65866, 1.65839, 1.55853, 1.56247, 1.48827, 1.45408, 1.43661, 1.43581, 1.4514, 1.45306, 1.44026, 1.44012, 1.4288, 1.41971, 1.41921, 1.45821, 1.52215, 1.46519, 1.46465, 1.37306, 1.37232, 1.37756, 1.35835, 1.36442, 1.38936, 1.36878, 1.36856, 1.36041, 1.34993, 1.33587, 1.33111, 1.29935, 1.26287, 1.27021, 1.22292, 1.21293, 1.20044, 1.17841, 1.17863, 1.17265, 1.14346, 1.15762, 1.14431, 1.13496, 1.13693, 1.14012, 1.14172, 1.19486, 1.18437, 1.18457, 1.1873, 1.18749, 1.18439, 1.18058, 1.18184, 1.18426, 1.17878, 1.17939, 1.18658, 1.18776, 1.36451, 1.16825, 1.16823, 1.35044, 1.15592, 1.15806, 1.16004, 1.16335, 1.16108, 1.16169, 1.16235, 1.16169, 1.16281, 1.16454, 1.17345, 1.17369, 1.17835, 1.17418, 1.17397, 1.17362, 1.17691, 1.17724, 1.18139, 1.18212, 1.18349, 1.17913, 1.17609, 1.17766, 1.17844, 1.18025, 1.18127, 1.18475, 1.25842, 1.22896, 1.35959, 1.24432, 1.19861, 1.29906, 1.08901, 1.08958, 1.07676, 1.06352, 1.06313, 1.05072, 1.03743, 1.0366, 1.03809, 1.04055, 1.04103, 1.04295, 1.04318, 1.04634, 1.04505, 1.04584, 1.04591, 1.04942, 1.04434, 1.1988, 1.20527, 1.068, 1.07469, 1.15875, 1.07658, 1.07728, 1.06309, 1.06316, 1.05961, 1.05947, 1.05709, 1.05646, 1.05711, 1.05994, 1.06049, 1.06153, 1.07005, 1.07001, 1.06994, 1.07241, 1.06633, 1.06551, 1.0632
1.14606, 1.14146, 1.13919, 1.13924, 1.13707, 1.13742, 1.13829, 1.14069, 1.14101, 1.14089, 1.28092, 1.27077, 1.14745, 1.14614, 1.15399, 1.15313, 1.1536, 1.1531, 1.15288, 1.15397, 1.15473, 1.15591, 1.1543, 1.15398, 1.15369, 1.15429, 1.15412, 1.15514, 1.15618, 1.15821, 1.1597, 1.15974, 1.16058, 1.16021, 1.16382, 1.16656, 1.16753, 1.17562, 1.1768, 1.17985, 1.17937, 1.18085, 1.18362, 1.18508, 1.18737, 1.18767, 1.18902, 1.19122, 1.19362, 1.1944, 1.19759, 1.2005, 1.20114, 1.20449, 1.20668, 1.20818, 1.21183, 1.24, 1.21691, 1.22086, 1.22178, 1.22461, 1.22744, 1.22931, 1.23207, 1.23374, 1.2347, 1.23532, 1.23477, 1.2339, 1.23335, 1.22414, 1.22341, 1.22872, 1.22745, 1.23111, 1.2402, 1.2403, 1.24361, 1.1785, 1.16776, 1.17559, 1.19216, 1.20188, 1.23945, 1.20908, 1.22636, 1.22374, 1.22455, 1.23366, 1.2368, 1.29071, 1.25411, 1.25492, 1.24715, 1.25, 1.25807, 1.26033, 1.27885, 1.27799, 1.26238, 1.28055, 1.30691, 1.30657, 1.33996, 1.32721, 1.32689, 1.32146, 1.32313, 1.34987, 1.34146, 1.33361, 1.3543, 1.35347, 1.35312, 1.36521, 1.36037, 1.36428, 1.36394, 1.38592, 1.37115, 1.38929, 1.50418, 1.54092, 1.54329, 1.54038, 1.40903, 1.39882, 1.4166, 1.42239, 1.43354, 1.44057, 1.41651, 1.40851, 1.45338, 1.44956, 1.46013, 1.46102, 1.48243, 1.46217, 1.45613, 1.45363, 1.45337, 1.49233, 1.46643, 1.46459, 1.52111, 1.49433, 1.50522, 1.52345, 1.51862, 1.53369, 1.53016, 1.51815, 1.51707, 1.5808, 1.5454, 1.6383, 1.63699, 1.53384, 1.53163, 1.55053, 1.51694, 1.55457, 1.4992, 1.4673, 1.46899, 1.46942, 1.47024, 1.47168, 1.4903, 1.44831, 1.48462, 1.45088, 1.44371, 1.44303, 1.43361, 1.4214, 1.40667, 1.41033, 1.40351, 1.47989, 1.41181, 1.40951, 1.42244, 1.39749, 1.38777, 1.39169, 1.36152, 1.35715, 1.31205, 1.25667, 1.25693, 1.25685, 1.24499, 1.20215, 1.21995, 1.19649, 1.20632, 1.16684, 1.15388, 1.15742, 1.15425, 1.13851, 1.15285, 1.15266, 1.15305, 1.19286, 1.193, 1.19531, 1.18121, 1.18048, 1.18023, 1.18158, 1.1831, 1.18339, 1.17991, 1.17222, 1.17248, 1.16851, 1.16797, 1.17001, 1.15761, 1.1566, 1.15281, 1.15315, 1.16422, 1.16645, 1.16667, 1.16977, 1.16539, 1.16379, 1.16667, 1.1668, 1.1463, 1.1471, 1.15159, 1.36077, 1.36394, 1.216, 1.22635, 1.24073, 1.21856, 1.17683, 1.16753, 1.16705, 1.17322, 1.17388, 1.1803, 1.17942, 1.18153, 1.3015, 1.18914, 1.22375, 1.17757, 1.13681, 1.09516, 1.08421, 1.08464, 1.07662, 1.0643, 1.06387, 1.06684, 1.06132, 1.05159, 1.03884, 1.03909, 1.04468, 1.04947, 1.04591, 1.04601, 1.03915, 1.04004, 1.03712, 1.03723, 1.03497, 1.0359, 1.04374, 1.22907, 1.2181, 1.06353, 1.06491, 1.07208, 1.0629, 1.06326, 1.05244, 1.04769, 1.05388, 1.05522, 1.05729, 1.06113, 1.07055, 1.07245, 1.07098, 1.07102, 1.06684, 1.06596, 1.05813, 1.05836, 1.06017
1.1499, 1.15064, 1.14935, 1.14714, 1.14348, 1.14395, 1.14585, 1.14596, 1.14581, 1.14663, 1.14641, 1.14663, 1.14752, 1.14804, 1.14961, 1.14973, 1.15164, 1.15107, 1.15069, 1.15112, 1.15646, 1.15777, 1.15826, 1.15838, 1.15853, 1.15938, 1.16353, 1.16024, 1.16061, 1.16158, 1.24725, 1.16388, 1.16807, 1.15961, 1.15815, 1.16024, 1.17262, 1.17682, 1.17689, 1.18114, 1.18393, 1.1847, 1.18832, 1.18815, 1.23638, 1.19111, 1.19135, 1.19311, 1.19475, 1.19663, 1.19852, 1.20114, 1.20163, 1.20475, 1.20571, 1.20796, 1.21215, 1.21503, 1.21855, 1.22222, 1.22338, 1.22513, 1.22662, 1.23038, 1.23082, 1.23086, 1.23123, 1.23115, 1.23142, 1.22877, 1.22844, 1.22683, 1.22689, 1.32875, 1.22484, 1.31175, 1.24697, 1.21588, 1.1682, 1.16761, 1.14662, 1.15351, 1.18573, 1.1944, 1.19649, 1.19751, 1.20857, 1.31888, 1.25767, 1.25185, 1.24269, 1.25249, 1.2513, 1.25965, 1.32067, 1.27785, 1.26301, 1.27059, 1.2845, 1.28126, 1.28976, 1.30486, 1.32021, 1.3222, 1.33065, 1.33652, 1.33469, 1.34706, 1.35096, 1.34963, 1.35356, 1.35531, 1.35517, 1.375, 1.38468, 1.37746, 1.37506, 1.39878, 1.39895, 1.41448, 1.4155, 1.51431, 1.42565, 1.43318, 1.43422, 1.43779, 1.43552, 1.44606, 1.44118, 1.44415, 1.43693, 1.45039, 1.51952, 1.50927, 1.52945, 1.52802, 1.54067, 1.50124, 1.47865, 1.47792, 1.46546, 1.46519, 1.48012, 1.48022, 1.49383, 1.49269, 1.49201, 1.52073, 1.54133, 1.59324, 1.59113, 1.63794, 1.56863, 1.54126, 1.5609, 1.60666, 1.60623, 1.55827, 1.57583, 1.56578, 1.56202, 1.5407, 1.54308, 1.52312, 1.52263, 1.51632, 1.52609, 1.49063, 1.47991, 1.49649, 1.51757, 1.48227, 1.49722, 1.49162, 1.46367, 1.46382, 1.43849, 1.42642, 1.42228, 1.43245, 1.46883, 1.46718, 1.46922, 1.47144, 1.48733, 1.44379, 1.43012, 1.38123, 1.37827, 1.33626, 1.33108, 1.29957, 1.29151, 1.2715, 1.27751, 1.27371, 1.30536, 1.29008, 1.28939, 1.2114, 1.21042, 1.1635, 1.13662, 1.13926, 1.15676, 1.17421, 1.17427, 1.17419, 1.18872, 1.19753, 1.19431, 1.18519, 1.18198, 1.17964, 1.1792, 1.18111, 1.17125, 1.1702, 1.39871, 1.39974, 1.15262, 1.54135, 1.14661, 1.15037, 1.15052, 1.29908, 1.16559, 1.15206, 1.1508, 1.26604, 1.14555, 1.14694, 1.1481, 1.23038, 1.42345, 1.14314, 1.14146, 1.14163, 1.19017, 1.33319, 1.13837, 1.1358, 1.13379, 1.202, 1.21902, 1.21972, 1.19233, 1.16154, 1.38824, 1.1788, 1.17778, 1.17782, 1.13766, 1.37139, 1.11046, 1.18707, 1.0946, 1.09441, 1.08881, 1.07776, 1.07341, 1.07358, 1.06016, 1.05858, 1.04372, 1.03302, 1.03473, 1.03615, 1.03738, 1.03474, 1.0345, 1.03255, 1.03315, 1.02746, 1.0295, 1.03153, 1.03261, 1.03186, 1.03388, 1.0371, 1.0473, 1.05468, 1.06859, 1.07024, 1.19221, 1.04197, 1.04358, 1.04828, 1.20949, 1.06776, 1.07194, 1.07347, 1.06479, 1.06734, 1.06812, 1.07393, 1.06576, 1.06674, 1.06615, 1.05773
1.15365, 1.15353, 1.14937, 1.14393, 1.14278, 1.14307, 1.14428, 1.14404, 1.14744, 1.1485, 1.14739, 1.1476, 1.14926, 1.14944, 1.14955, 1.15098, 1.15284, 1.15322, 1.15464, 1.15402, 1.15422, 1.15624, 1.15899, 1.16072, 1.16002, 1.16, 1.16376, 1.16442, 1.16558, 1.16785, 1.16934, 1.17069, 1.17315, 1.17341, 1.16171, 1.1613, 1.24116, 1.23961, 1.22684, 1.22342, 1.22597, 1.28947, 1.24696, 1.20963, 1.21004, 1.3171, 1.23042, 1.1998, 1.20057, 1.20041, 1.20387, 1.20287, 1.20466, 1.20648, 1.208, 1.21439, 1.30349, 1.22397, 1.22618, 1.22678, 1.22861, 1.22926, 1.23002, 1.23233, 1.23258, 1.22701, 1.22377, 1.22873, 1.22936, 1.22988, 1.22929, 1.22809, 1.22881, 1.21626, 1.21712, 1.4639, 1.17145, 1.16179, 1.16271, 1.15603, 1.15685, 1.15984, 1.19531, 1.19699, 1.19324, 1.1945, 1.22707, 1.22805, 1.23284, 1.22833, 1.25991, 1.24103, 1.24266, 1.27367, 1.26996, 1.27266, 1.27452, 1.30293, 1.2811, 1.30547, 1.30923, 1.32044, 1.31905, 1.3259, 1.32585, 1.35755, 1.35199, 1.35255, 1.37144, 1.39246, 1.36825, 1.37521, 1.38895, 1.39493, 1.40801, 1.40745, 1.40599, 1.42359, 1.42295, 1.4525, 1.45379, 1.47071, 1.47094, 1.4913, 1.47439, 1.475, 1.49654, 1.46432, 1.46748, 1.45958, 1.47121, 1.48882, 1.48822, 1.48844, 1.50848, 1.51562, 1.51269, 1.52098, 1.53816, 1.50883, 1.50915, 1.51009, 1.49516, 1.50298, 1.5344, 1.49615, 1.56054, 1.56012, 1.59357, 1.59421, 1.58425, 1.59372, 1.59512, 1.71249, 1.59856, 1.59268, 1.59257, 1.58518, 1.60999, 1.60356, 1.60073, 1.60716, 1.54569, 1.54464, 1.54228, 1.54195, 1.52857, 1.55145, 1.53147, 1.53841, 1.55837, 1.59497, 1.52242, 1.52099, 1.51231, 1.53641, 1.53574, 1.44442, 1.44318, 1.46443, 1.46351, 1.47874, 1.54713, 1.71372, 1.48976, 1.46481, 1.43369, 1.40586, 1.36436, 1.35413, 1.34254, 1.33047, 1.3257, 1.32689, 1.30169, 1.28131, 1.27092, 1.2723, 1.25079, 1.22949, 1.20234, 1.20363, 1.20626, 1.17415, 1.18457, 1.17417, 1.20299, 1.17464, 1.16808, 1.18119, 1.20032, 1.1896, 1.18539, 1.17931, 1.17215, 1.17278, 1.29879, 1.33942, 1.15633, 1.15327, 1.36816, 1.14208, 1.14319, 1.14896, 1.14747, 1.28837, 1.27081, 1.21177, 1.13651, 1.1364, 1.13593, 1.30991, 1.13387, 1.13828, 1.13579, 1.13206, 1.12501, 1.26475, 1.12041, 1.12621, 1.12666, 1.12818, 1.1236, 1.12412, 1.12948, 1.13355, 1.27637, 1.15666, 1.12236, 1.16089, 1.18424, 1.17356, 1.11516, 1.11471, 1.09836, 1.09802, 1.09311, 1.08875, 1.08784, 1.08951, 1.07907, 1.07113, 1.06999, 1.05071, 1.04896, 1.03458, 1.03612, 1.03832, 1.02954, 1.02853, 1.02211, 1.02508, 1.02576, 1.01954, 1.02169, 1.03275, 1.02675, 1.01786, 1.05817, 1.06081, 1.03227, 1.05528, 1.05693, 1.05282, 1.05553, 1.04664, 1.04777, 1.04724, 1.06308, 1.06314, 1.07479, 1.07569, 1.07724, 1.06981, 1.06933, 1.06804, 1.06642, 1.06818, 1.06824, 1.06916
1.15471, 1.15517, 1.15435, 1.15391, 1.15314, 1.14904, 1.14766, 1.14713, 1.14906, 1.14957, 1.14949, 1.14981, 1.15121, 1.15285, 1.15276, 1.1533, 1.15486, 1.15039, 1.14863, 1.15464, 1.15478, 1.157, 1.16642, 1.16876, 1.16737, 1.16643, 1.16685, 1.16805, 1.16938, 1.17026, 1.17302, 1.17442, 1.17668, 1.17387, 1.17172, 1.17143, 1.17178, 1.20559, 1.19682, 1.19664, 1.19787, 1.19765, 1.19834, 1.1988, 1.20102, 1.20134, 1.20291, 1.20181, 1.20242, 1.21153, 1.21081, 1.21193, 1.2139, 1.21623, 1.21845, 1.2192, 1.22207, 1.22351, 1.2253, 1.22666, 1.22744, 1.22951, 1.23097, 1.23406, 1.23221, 1.2322, 1.53883, 1.52373, 1.50934, 1.43622, 1.36, 1.42592, 1.21926, 1.33875, 1.17844, 1.181, 1.18099, 1.17904, 1.1962, 1.171, 1.19074, 1.19156, 1.1991, 1.20996, 1.21066, 1.23437, 1.22946, 1.24085, 1.23797, 1.24637, 1.2461, 1.26859, 1.26688, 1.2827, 1.30445, 1.30316, 1.33328, 1.31897, 1.31984, 1.35546, 1.31421, 1.31504, 1.33941, 1.3379, 1.34673, 1.35731, 1.37778, 1.37731, 1.40753, 1.41021, 1.43312, 1.4254, 1.42308, 1.43045, 1.41737, 1.42964, 1.45089, 1.45034, 1.46631, 1.50793, 1.50709, 1.52946, 1.52463, 1.52955, 1.50953, 1.5007, 1.50671, 1.50542, 1.55367, 1.50699, 1.50212, 1.5383, 1.53009, 1.5182, 1.51832, 1.51489, 1.51478, 1.55075, 1.55861, 1.57486, 1.54442, 1.54156, 1.52033, 1.53676, 1.5587, 1.57538, 1.61381, 1.63026, 1.63048, 1.64603, 1.66511, 1.70613, 1.70834, 1.71935, 1.65428, 1.65416, 1.65116, 1.66784, 1.66159, 1.66675, 1.71692, 1.64425, 1.6416, 1.64171, 1.63401, 1.58304, 1.5588, 1.56814, 1.58436, 1.5689, 1.56191, 1.56764, 1.56718, 1.6028, 1.5753, 1.52858, 1.53335, 1.51042, 1.50673, 1.50877, 1.52023, 1.53262, 1.54274, 1.54105, 1.47173, 1.45801, 1.45048, 1.37871, 1.3757, 1.37396, 1.34637, 1.35726, 1.35724, 1.3165, 1.31645, 1.32038, 1.32989, 1.2936, 1.2833, 1.2577, 1.25107, 1.2398, 1.2205, 1.22587, 1.23276, 1.19856, 1.20946, 1.18876, 1.18058, 1.17217, 1.15617, 1.1568, 1.17229, 1.17448, 1.17542, 1.45416, 1.15806, 1.15807, 1.38216, 1.14493, 1.14416, 1.14658, 1.14993, 1.15162, 1.39918, 1.13131, 1.12993, 1.12756, 1.12831, 1.12971, 1.13555, 1.44356, 1.12505, 1.12264, 1.12592, 1.11579, 1.11217, 1.1097, 1.10953, 1.11347, 1.12106, 1.12095, 1.12224, 1.12284, 1.28558, 1.11732, 1.11481, 1.11311, 1.11422, 1.25428, 1.19123, 1.1412, 1.14242, 1.14304, 1.10436, 1.10747, 1.09784, 1.09588, 1.09769, 1.09815, 1.23158, 1.07363, 1.05928, 1.0581, 1.03812, 1.03919, 1.02862, 1.02868, 1.02058, 1.02236, 1.01429, 1.01573, 1.01419, 1.00877, 1.00866, 1.00999, 1.01164, 1.01409, 1.01475, 1.01586, 1.02835, 1.02927, 1.1884, 1.0586, 1.05351, 1.05252, 1.05332, 1.06795, 1.07426, 1.07921, 1.08429, 1.07428, 1.07112, 1.07081, 1.06985, 1.07014, 1.07126, 1.06751, 1.06646, 1.06534
1.15946, 1.16001, 1.15995, 1.15822, 1.15567, 1.15552, 1.15268, 1.15146, 1.15065, 1.15138, 1.15268, 1.15279, 1.15739, 1.1555, 1.15315, 1.15386, 1.15218, 1.15365, 1.15502, 1.15708, 1.15764, 1.15814, 1.16878, 1.17038, 1.16985, 1.17001, 1.17121, 1.17392, 1.18062, 1.18209, 1.184, 1.18446, 1.18112, 1.17513, 1.17427, 1.17575, 1.21023, 1.20175, 1.20205, 1.20427, 1.20462, 1.20471, 1.20466, 1.20437, 1.20745, 1.20793, 1.2067, 1.20497, 1.20395, 1.20788, 1.20811, 1.2094, 1.2106, 1.21169, 1.21668, 1.22011, 1.22221, 1.22289, 1.22579, 1.22664, 1.22924, 1.22924, 1.22969, 1.46771, 1.46813, 1.41792, 1.32064, 1.49127, 1.43687, 1.20488, 1.20507, 1.20337, 1.19665, 1.22638, 1.17541, 1.17428, 1.1749, 1.16348, 1.16683, 1.18432, 1.18468, 1.22401, 1.19737, 1.19803, 1.23185, 1.23167, 1.25408, 1.24375, 1.24333, 1.25461, 1.30406, 1.30523, 1.29848, 1.30243, 1.32293, 1.36784, 1.33404, 1.35085, 1.34986, 1.35546, 1.35326, 1.35269, 1.35576, 1.37617, 1.37235, 1.49489, 1.39205, 1.40941, 1.43305, 1.4344, 1.43597, 1.43699, 1.43866, 1.43031, 1.43139, 1.44651, 1.44634, 1.46592, 1.50837, 1.53505, 1.55572, 1.58247, 1.58798, 1.66069, 1.66955, 1.55482, 1.53045, 1.53067, 1.52709, 1.54904, 1.54206, 1.54666, 1.57229, 1.55511, 1.56239, 1.56146, 1.54425, 1.55888, 1.56177, 1.65691, 1.58197, 1.56249, 1.57154, 1.57143, 1.59957, 1.65226, 1.64941, 1.70656, 1.6878, 1.72764, 1.72481, 1.7209, 1.72102, 1.74931, 1.7585, 1.76068, 1.83738, 1.69604, 1.75659, 1.7739, 1.76466, 1.78211, 1.71988, 1.67781, 1.66185, 1.61025, 1.59022, 1.59385, 1.60969, 1.64025, 1.6316, 1.74902, 1.82198, 1.65468, 1.6522, 1.58072, 1.58088, 1.58829, 1.57956, 1.57813, 1.72103, 1.54347, 1.52031, 1.47573, 1.44993, 1.4316, 1.4303, 1.39903, 1.38144, 1.37638, 1.37034, 1.37616, 1.3755, 1.39717, 1.35767, 1.34994, 1.31881, 1.31075, 1.29229, 1.28976, 1.29569, 1.26355, 1.24638, 1.24536, 1.22496, 1.23613, 1.19935, 1.20044, 1.20192, 1.18243, 1.16469, 1.16669, 1.16774, 1.16864, 1.16837, 1.16998, 1.1535, 1.36206, 1.1447, 1.14583, 1.14773, 1.15324, 1.15369, 1.41623, 1.41514, 1.13587, 1.12828, 1.12809, 1.12773, 1.13206, 1.13229, 1.12413, 1.12246, 1.11801, 1.11244, 1.1106, 1.10956, 1.10577, 1.10174, 1.10252, 1.10531, 1.1148, 1.11589, 1.24992, 1.11508, 1.11461, 1.11201, 1.11251, 1.11621, 1.11807, 1.1183, 1.12144, 1.12619, 1.14132, 1.25347, 1.11358, 1.11386, 1.11438, 1.23548, 1.10602, 1.10523, 1.24538, 1.07046, 1.04803, 1.04732, 1.03702, 1.02755, 1.0238, 1.02475, 1.01849, 1.01779, 1.01615, 1.01286, 1.00452, 1.0071, 1.01142, 1.01519, 1.01668, 1.01832, 1.02228, 1.03231, 1.06028, 1.05946, 1.05181, 1.04927, 1.06082, 1.06177, 1.07866, 1.07911, 1.0719, 1.07182, 1.07087, 1.06827, 1.0688, 1.06907, 1.0674, 1.06793, 1.06781, 1.06076, 1.06296
1.15652, 1.16072, 1.162, 1.16177, 1.15561, 1.15594, 1.15613, 1.1549, 1.15276, 1.15263, 1.1515, 1.15299, 1.15301, 1.15376, 1.15386, 1.14947, 1.15189, 1.1541, 1.1549, 1.15617, 1.15687, 1.16528, 1.16604, 1.16669, 1.16881, 1.1706, 1.17161, 1.1774, 1.18155, 1.1845, 1.18552, 1.18774, 1.18736, 1.18336, 1.23074, 1.22551, 1.2048, 1.20613, 1.20465, 1.20493, 1.20561, 1.20696, 1.20808, 1.20821, 1.20861, 1.20917, 1.21159, 1.20975, 1.21043, 1.21172, 1.21278, 1.21375, 1.21526, 1.21673, 1.21774, 1.22239, 1.2236, 1.22585, 1.22818, 1.22923, 1.23081, 1.23181, 1.23085, 1.23106, 1.43617, 1.43904, 1.41057, 1.36344, 1.20179, 1.2118, 1.21015, 1.20632, 1.16909, 1.16755, 1.16721, 1.16482, 1.15576, 1.15484, 1.16856, 1.17194, 1.19848, 1.18789, 1.19456, 1.1946, 1.21686, 1.24116, 1.24811, 1.23345, 1.25457, 1.25452, 1.26345, 1.28256, 1.33942, 1.32881, 1.3288, 1.41271, 1.34391, 1.35403, 1.37848, 1.37747, 1.37765, 1.39876, 1.37916, 1.38966, 1.3915, 1.4, 1.39933, 1.40703, 1.42639, 1.4253, 1.44437, 1.4512, 1.45131, 1.45427, 1.45865, 1.4641, 1.46963, 1.51469, 1.55827, 1.55545, 1.60267, 1.63023, 1.62901, 1.57456, 1.59107, 1.5691, 1.55546, 1.55348, 1.54408, 1.5604, 1.55606, 1.56086, 1.55726, 1.55543, 1.56179, 1.57156, 1.59573, 1.63789, 1.65451, 1.82306, 1.75815, 1.68976, 1.69899, 1.76509, 1.67539, 1.67056, 1.68576, 1.70621, 1.77121, 1.72011, 1.83293, 1.7302, 1.72042, 1.71407, 1.71397, 1.75192, 1.76803, 1.7648, 1.69915, 1.69643, 1.69572, 1.6987, 1.69807, 1.69563, 1.69565, 1.68715, 1.70256, 1.7403, 1.73711, 1.72349, 1.80068, 1.71567, 1.77123, 1.7203, 1.69871, 1.67418, 1.69767, 1.6367, 1.63549, 1.60438, 1.59472, 1.57376, 1.53257, 1.5016, 1.45184, 1.45492, 1.42359, 1.41606, 1.42391, 1.4095, 1.42943, 1.41356, 1.42766, 1.39461, 1.36782, 1.35407, 1.34534, 1.32504, 1.33072, 1.32775, 1.29295, 1.30414, 1.30333, 1.24613, 1.23652, 1.2367, 1.21613, 1.21243, 1.21427, 1.219, 1.17408, 1.16264, 1.16212, 1.16171, 1.16395, 1.16457, 1.15065, 1.15034, 1.14944, 1.1434, 1.41059, 1.14992, 1.13969, 1.13907, 1.13925, 1.12739, 1.12754, 1.12745, 1.12877, 1.13461, 1.13362, 1.13017, 1.12832, 1.1152, 1.11561, 1.11199, 1.11264, 1.10647, 1.1048, 1.10473, 1.10875, 1.10874, 1.10981, 1.11738, 1.10192, 1.11186, 1.11446, 1.11393, 1.11607, 1.12253, 1.12543, 1.12296, 1.12343, 1.12859, 1.14262, 1.14345, 1.12376, 1.12215, 1.12518, 1.1958, 1.23623, 1.24212, 1.0484, 1.04669, 1.04576, 1.03995, 1.03432, 1.03417, 1.03462, 1.03253, 1.02464, 1.02343, 1.02011, 1.00928, 1.00361, 1.00411, 1.01291, 1.13672, 1.06057, 1.06025, 1.06037, 1.05922, 1.06008, 1.05692, 1.05975, 1.20526, 1.08946, 1.08956, 1.08705, 1.0864, 1.08479, 1.08433, 1.08336, 1.08458, 1.18176, 1.0461, 1.04793, 1.0427, 1.04368, 1.05491
1.15355, 1.15562, 1.15398, 1.15319, 1.15316, 1.15542, 1.15686, 1.15701, 1.15635, 1.15583, 1.15321, 1.15542, 1.15829, 1.15915, 1.15911, 1.15463, 1.15477, 1.16067, 1.16422, 1.1648, 1.1656, 1.16684, 1.16732, 1.16751, 1.17054, 1.17598, 1.17622, 1.18099, 1.18247, 1.18425, 1.18519, 1.18748, 1.18952, 1.19128, 1.19713, 1.20299, 1.20472, 1.20504, 1.20567, 1.20448, 1.20416, 1.20478, 1.20484, 1.20586, 1.20597, 1.20647, 1.20743, 1.20766, 1.20917, 1.20966, 1.2122, 1.21525, 1.2153, 1.21524, 1.22198, 1.22232, 1.22715, 1.22757, 1.23089, 1.23195, 1.23113, 1.22941, 1.22846, 1.22788, 1.22609, 1.43395, 1.3612, 1.19779, 1.20297, 1.20917, 1.2097, 1.16782, 1.14791, 1.14618, 1.15612, 1.1572, 1.15443, 1.17053, 1.1698, 1.17012, 1.17035, 1.18919, 1.19787, 1.24624, 1.25161, 1.21491, 1.23067, 1.24178, 1.24274, 1.24355, 1.2771, 1.27573, 1.2733, 1.30278, 1.35332, 1.35168, 1.37595, 1.38112, 1.41107, 1.39833, 1.41303, 1.40393, 1.40646, 1.40111, 1.40165, 1.4267, 1.41226, 1.43707, 1.43188, 1.43081, 1.43109, 1.53407, 1.44883, 1.44854, 1.48169, 1.53388, 1.53137, 1.53619, 1.53589, 1.61478, 1.59349, 1.63569, 1.6343, 1.62858, 1.62775, 1.58175, 1.58905, 1.5886, 1.57163, 1.58295, 1.56528, 1.5799, 1.58639, 1.5873, 1.60267, 1.59402, 1.64827, 1.69043, 1.77975, 1.75028, 1.72509, 1.78943, 1.80384, 1.88683, 1.82073, 1.89368, 1.71842, 1.71247, 1.76458, 1.73371, 1.83369, 1.73715, 1.73611, 1.74433, 1.7443, 1.76607, 1.76999, 1.77019, 1.69403, 1.69249, 1.68812, 1.68688, 1.69601, 1.69479, 1.72411, 1.72276, 1.87509, 1.8878, 1.8883, 1.71736, 1.71684, 1.71671, 1.70918, 1.70791, 1.7065, 1.70953, 1.72081, 1.64792, 1.63827, 1.63684, 1.59511, 1.60062, 1.53779, 1.5236, 1.48843, 1.4734, 1.46258, 1.43786, 1.49011, 1.44875, 1.43497, 1.42798, 1.42598, 1.41349, 1.40579, 1.40518, 1.36494, 1.34819, 1.3391, 1.32122, 1.30005, 1.28981, 1.28075, 1.27174, 1.24968, 1.25322, 1.26485, 1.22837, 1.21813, 1.219, 1.21154, 1.17866, 1.17729, 1.17038, 1.15544, 1.15428, 1.16009, 1.15304, 1.153, 1.15272, 1.15409, 1.15419, 1.15291, 1.14444, 1.37837, 1.38038, 1.12689, 1.12592, 1.12612, 1.13041, 1.13056, 1.12797, 1.12918, 1.11948, 1.11428, 1.11465, 1.10635, 1.10562, 1.106, 1.10395, 1.11019, 1.10815, 1.10657, 1.10358, 1.10429, 1.10412, 1.1051, 1.10695, 1.10942, 1.11481, 1.11892, 1.21386, 1.12768, 1.1271, 1.12287, 1.13285, 1.12099, 1.11813, 1.11763, 1.11566, 1.0996, 1.22226, 1.07905, 1.23856, 1.05249, 1.0389, 1.03288, 1.0307, 1.04056, 1.03702, 1.03764, 1.03019, 1.0207, 1.01876, 1.01387, 1.04205, 1.04231, 1.04209, 1.10258, 1.06007, 1.06117, 1.06249, 1.06294, 1.06658, 1.07747, 1.0825, 1.08714, 1.09032, 1.09552, 1.09452, 1.08887, 1.08932, 1.08216, 1.05506, 1.03877, 1.03999, 1.04754, 1.04979, 1.10194, 1.09985
1.156, 1.15594, 1.15583, 1.15762, 1.16164, 1.16259, 1.1614, 1.15883, 1.16099, 1.15894, 1.16, 1.16183, 1.16321, 1.16363, 1.16743, 1.16784, 1.16718, 1.17378, 1.17399, 1.17711, 1.17714, 1.176, 1.1886, 1.18946, 1.18836, 1.1875, 1.18797, 1.18843, 1.19004, 1.19434, 1.19449, 1.19128, 1.19344, 1.20762, 1.2061, 1.20847, 1.20662, 1.20856, 1.21086, 1.2099, 1.21156, 1.21069, 1.21448, 1.21375, 1.2144, 1.21488, 1.21363, 1.21228, 1.21264, 1.22229, 1.21959, 1.22234, 1.21933, 1.22168, 1.22424, 1.22904, 1.43009, 1.35164, 1.237, 1.23621, 1.23573, 1.3679, 1.22996, 1.2331, 1.23584, 1.38229, 1.33504, 1.19618, 1.19419, 1.18887, 1.19284, 1.19685, 1.20249, 1.20539, 1.18599, 1.1573, 1.16448, 1.23578, 1.17274, 1.18172, 1.18272, 1.28398, 1.24725, 1.24478, 1.24956, 1.25105, 1.23545, 1.24662, 1.24523, 1.2765, 1.28775, 1.27922, 1.29589, 1.31079, 1.31074, 1.33985, 1.36628, 1.38311, 1.43985, 1.45667, 1.42288, 1.42637, 1.42396, 1.41329, 1.44365, 1.44199, 1.44094, 1.50451, 1.49097, 1.51002, 1.53985, 1.53846, 1.49927, 1.48951, 1.52395, 1.5134, 1.52046, 1.53004, 1.53289, 1.53532, 1.55408, 1.55024, 1.6411, 1.65161, 1.58896, 1.59256, 1.59572, 1.60518, 1.60546, 1.61108, 1.60409, 1.59321, 1.59248, 1.58775, 1.61673, 1.64096, 1.64037, 1.65351, 1.76699, 1.7486, 1.73512, 1.73342, 1.73357, 1.73347, 1.72622, 1.72558, 1.73261, 1.73209, 1.7317, 1.73678, 1.73643, 1.75074, 1.7506, 1.75002, 1.73317, 1.73317, 1.73202, 1.76871, 1.7326, 1.69221, 1.69185, 1.69778, 1.68255, 1.71747, 1.71633, 1.70224, 1.77472, 1.73298, 1.73211, 1.73116, 1.74256, 1.82999, 1.70688, 1.70273, 1.70375, 1.78579, 1.76522, 1.67935, 1.63741, 1.61692, 1.61676, 1.62708, 1.59286, 1.58872, 1.56899, 1.53065, 1.50347, 1.50728, 1.50677, 1.46532, 1.47213, 1.46462, 1.44182, 1.41992, 1.43635, 1.425, 1.41322, 1.38619, 1.36768, 1.37468, 1.37177, 1.30677, 1.30753, 1.3063, 1.26772, 1.25083, 1.25009, 1.25927, 1.26386, 1.28547, 1.25918, 1.17292, 1.1685, 1.17011, 1.16851, 1.1732, 1.16097, 1.32397, 1.29866, 1.15644, 1.15482, 1.15448, 1.15519, 1.36445, 1.14608, 1.34926, 1.13863, 1.13702, 1.1363, 1.13103, 1.13077, 1.12557, 1.12005, 1.11646, 1.10946, 1.1101, 1.10641, 1.10586, 1.10474, 1.10483, 1.11462, 1.11475, 1.11504, 1.10865, 1.10256, 1.10491, 1.10761, 1.10834, 1.10759, 1.11032, 1.11339, 1.11267, 1.11295, 1.11589, 1.11583, 1.11515, 1.11838, 1.12082, 1.12417, 1.12497, 1.12602, 1.10162, 1.18516, 1.14173, 1.06128, 1.2634, 1.05101, 1.05817, 1.05294, 1.17759, 1.06709, 1.06725, 1.06723, 1.09786, 1.03797, 1.0424, 1.04033, 1.05236, 1.05255, 1.06054, 1.06464, 1.0701, 1.13567, 1.12299, 1.08784, 1.08942, 1.08885, 1.08847, 1.0898, 1.086, 1.08495, 1.08655, 1.08612, 1.18142, 1.18148, 1.17434, 1.09328, 1.08317, 1.08385, 1.08391
1.1601, 1.16038, 1.1613, 1.16302, 1.16571, 1.16897, 1.16843, 1.16737, 1.16617, 1.16695, 1.17096, 1.17362, 1.1779, 1.16901, 1.16729, 1.16858, 1.17036, 1.17528, 1.17618, 1.17551, 1.17445, 1.17459, 1.23425, 1.18831, 1.18656, 1.19282, 1.19501, 1.19455, 1.19492, 1.19324, 1.19429, 1.19844, 1.19891, 1.20479, 1.20513, 1.21129, 1.21137, 1.2091, 1.20622, 1.20767, 1.20763, 1.20862, 1.21041, 1.21058, 1.21135, 1.21158, 1.21159, 1.2105, 1.21808, 1.21644, 1.22001, 1.22019, 1.22231, 1.22417, 1.36155, 1.23588, 1.23721, 1.23908, 1.23897, 1.23931, 1.23575, 1.22911, 1.22991, 1.22633, 1.22415, 1.2159, 1.20502, 1.24324, 1.2521, 1.25271, 1.25295, 1.19878, 1.20807, 1.18496, 1.3154, 1.26008, 1.18533, 1.19042, 1.18863, 1.20522, 1.34533, 1.22384, 1.2327, 1.21633, 1.31993, 1.32222, 1.25732, 1.26009, 1.27053, 1.29218, 1.34307, 1.31241, 1.34287, 1.34339, 1.3511, 1.35254, 1.37778, 1.41322, 1.40572, 1.43606, 1.43621, 1.49963, 1.43191, 1.45386, 1.45436, 1.49854, 1.50672, 1.53021, 1.53241, 1.57593, 1.75877, 1.68946, 1.50952, 1.51, 1.49214, 1.48985, 1.49, 1.52769, 1.52658, 1.53347, 1.53383, 1.53373, 1.63501, 1.63598, 1.64847, 1.64496, 1.62673, 1.64529, 1.63417, 1.61977, 1.61942, 1.61372, 1.63332, 1.63511, 1.6539, 1.67916, 1.6789, 1.76238, 1.77163, 1.743, 1.7423, 1.74174, 1.75849, 1.74441, 1.90662, 1.75868, 1.73312, 1.73458, 1.73705, 1.7374, 1.73728, 1.73795, 1.75107, 1.78572, 1.73598, 1.73607, 1.74576, 1.72972, 1.72652, 1.72069, 1.70717, 1.68497, 1.68451, 1.68463, 1.72805, 1.77823, 1.70735, 1.70715, 1.70824, 1.71008, 1.7339, 1.69804, 1.72685, 1.71915, 1.71808, 1.83467, 1.68584, 1.68699, 1.69549, 1.68169, 1.60646, 1.60463, 1.60502, 1.60109, 1.67294, 1.62825, 1.57309, 1.55778, 1.50611, 1.49527, 1.49567, 1.49173, 1.46433, 1.45876, 1.47186, 1.54396, 1.45844, 1.50144, 1.4222, 1.42041, 1.35922, 1.35754, 1.31067, 1.28733, 1.29527, 1.25826, 1.25877, 1.28325, 1.28769, 1.2486, 1.267, 1.22927, 1.21171, 1.17414, 1.17687, 1.18424, 1.1703, 1.16447, 1.16787, 1.46298, 1.156, 1.39514, 1.4701, 1.40338, 1.13679, 1.13301, 1.13369, 1.4413, 1.36596, 1.37425, 1.25095, 1.27688, 1.11122, 1.1125, 1.11734, 1.11811, 1.09582, 1.09723, 1.09503, 1.09582, 1.30175, 1.30558, 1.30104, 1.30253, 1.09454, 1.09557, 1.09665, 1.09777, 1.09962, 1.0998, 1.09927, 1.10514, 1.11162, 1.10969, 1.11135, 1.11349, 1.11591, 1.12179, 1.12239, 1.12448, 1.20123, 1.24136, 1.18599, 1.07707, 1.07087, 1.06959, 1.06273, 1.06534, 1.06995, 1.07371, 1.08565, 1.08664, 1.08815, 1.07397, 1.06729, 1.056, 1.22641, 1.26722, 1.06099, 1.06526, 1.06493, 1.12073, 1.09168, 1.0918, 1.09302, 1.09154, 1.09083, 1.0899, 1.08887, 1.0945, 1.09447, 1.09082, 1.09155, 1.07512, 1.0748, 1.08079, 1.08134, 1.08419, 1.08634, 1.0857
1.16126, 1.16149, 1.16105, 1.16635, 1.16872, 1.17359, 1.17353, 1.17205, 1.17517, 1.17569, 1.1717, 1.16383, 1.16701, 1.16663, 1.16678, 1.16673, 1.17303, 1.173, 1.17354, 1.17391, 1.16642, 1.16477, 1.16419, 1.1655, 1.17626, 1.17811, 1.18281, 1.18575, 1.18651, 1.18711, 1.19341, 1.1943, 1.18664, 1.24053, 1.20041, 1.2019, 1.20167, 1.21151, 1.21303, 1.21498, 1.21479, 1.21525, 1.21509, 1.21431, 1.21497, 1.21605, 1.21433, 1.2185, 1.22417, 1.22248, 1.2218, 1.36169, 1.23413, 1.24011, 1.23918, 1.23834, 1.24303, 1.24246, 1.24214, 1.24048, 1.24067, 1.23711, 1.23254, 1.23255, 1.21676, 1.21578, 1.21704, 1.24364, 1.17882, 1.18077, 1.24092, 1.20527, 1.20594, 1.20426, 1.25816, 1.2028, 1.22566, 1.22232, 1.23543, 1.21728, 1.21773, 1.23, 1.24755, 1.26619, 1.27445, 1.27709, 1.2811, 1.28825, 1.34854, 1.35044, 1.3284, 1.32017, 1.33448, 1.35338, 1.35458, 1.3655, 1.39496, 1.42473, 1.43986, 1.42562, 1.42573, 1.46558, 1.47243, 1.47907, 1.48861, 1.55224, 1.53514, 1.56226, 1.51891, 1.54074, 1.59165, 1.58949, 1.54509, 1.54613, 1.51777, 1.5159, 1.54932, 1.55081, 1.54484, 1.64783, 1.54391, 1.61078, 1.61305, 1.76807, 1.7678, 1.76538, 1.6286, 1.62846, 1.67598, 1.82322, 1.81461, 1.70783, 1.75701, 1.83132, 1.68447, 1.74919, 1.75522, 1.77155, 1.78945, 1.74323, 1.74429, 1.93393, 1.88906, 1.9345, 1.75248, 1.75113, 1.75052, 1.73903, 1.73901, 1.73853, 1.73025, 1.72964, 1.72941, 1.74201, 1.74344, 1.74343, 1.75225, 1.77911, 1.77896, 1.7147, 1.71732, 1.6862, 1.68584, 1.68672, 1.686, 1.69991, 1.70936, 1.71765, 1.73261, 1.91743, 1.91713, 1.84204, 1.8105, 1.69755, 1.6838, 1.66707, 1.66125, 1.64013, 1.63735, 1.6392, 1.68593, 1.64176, 1.65176, 1.69619, 1.61215, 1.57978, 1.57907, 1.55593, 1.55682, 1.52963, 1.50586, 1.51651, 1.50649, 1.52308, 1.547, 1.49188, 1.49063, 1.49947, 1.465, 1.39316, 1.39284, 1.34381, 1.31736, 1.2911, 1.29243, 1.26935, 1.27648, 1.27596, 1.25083, 1.25953, 1.26016, 1.21802, 1.20168, 1.1705, 1.19743, 1.19811, 1.14958, 1.14931, 1.14961, 1.17709, 1.14872, 1.14458, 1.14488, 1.14069, 1.14061, 1.13992, 1.3099, 1.1254, 1.11517, 1.11223, 1.11155, 1.10816, 1.10349, 1.29883, 1.10979, 1.3194, 1.09737, 1.09545, 1.09481, 1.09294, 1.09308, 1.09107, 1.09039, 1.09076, 1.09301, 1.09508, 1.09566, 1.09212, 1.09238, 1.09348, 1.0942, 1.09668, 1.09767, 1.09839, 1.10134, 1.1051, 1.10955, 1.10936, 1.10841, 1.11263, 1.11312, 1.09736, 1.08626, 1.07859, 1.07456, 1.06324, 1.06259, 1.06353, 1.06655, 1.06984, 1.07103, 1.08014, 1.08112, 1.05723, 1.05614, 1.05616, 1.05773, 1.07739, 1.07144, 1.07026, 1.0702, 1.2232, 1.09991, 1.09884, 1.0979, 1.09524, 1.09433, 1.09348, 1.09558, 1.09653, 1.09255, 1.09128, 1.08928, 1.08163, 1.0818, 1.08629, 1.08763, 1.08769, 1.08796, 1.08838
1.16321, 1.16058, 1.15934, 1.15965, 1.17223, 1.17673, 1.17704, 1.17752, 1.18252, 1.18326, 1.34741, 1.16502, 1.16625, 1.16668, 1.17418, 1.17262, 1.17246, 1.177, 1.17658, 1.17594, 1.17691, 1.17711, 1.16869, 1.16908, 1.17222, 1.18119, 1.18091, 1.18188, 1.18449, 1.18527, 1.18625, 1.18053, 1.18048, 1.26656, 1.19351, 1.19634, 1.20089, 1.20352, 1.20957, 1.21161, 1.21489, 1.21908, 1.21806, 1.21777, 1.21661, 1.21899, 1.21961, 1.22197, 1.22438, 1.22644, 1.23222, 1.23246, 1.35398, 1.35581, 1.37488, 1.37643, 1.24944, 1.24965, 1.24662, 1.24573, 1.24689, 1.33453, 1.26351, 1.24035, 1.23356, 1.21215, 1.20178, 1.20525, 1.20294, 1.22881, 1.22978, 1.21902, 1.21217, 1.21619, 1.21647, 1.22341, 1.22314, 1.22651, 1.22704, 1.24099, 1.25073, 1.24931, 1.24999, 1.25553, 1.28903, 1.30877, 1.30855, 1.32101, 1.35775, 1.3373, 1.33932, 1.35952, 1.36042, 1.37059, 1.39734, 1.41828, 1.44706, 1.426, 1.42841, 1.43975, 1.44225, 1.44353, 1.47233, 1.49921, 1.50902, 1.53059, 1.5292, 1.60656, 1.56481, 1.54691, 1.54696, 1.55938, 1.54873, 1.55589, 1.56912, 1.54398, 1.53715, 1.54744, 1.59658, 1.61476, 1.61539, 1.61114, 1.60716, 1.69621, 1.7273, 1.63696, 1.6374, 1.6712, 1.67099, 1.68999, 1.68953, 1.83828, 1.92091, 1.78628, 1.74458, 1.74522, 1.76467, 1.77595, 1.75168, 1.7507, 1.75511, 1.76245, 1.76826, 1.76868, 1.91641, 1.78638, 1.74417, 1.78884, 1.73409, 1.73413, 1.72902, 1.7285, 1.72788, 1.74263, 1.74262, 1.74108, 1.74787, 1.74573, 1.72783, 1.72747, 1.7043, 1.74168, 1.72466, 1.72299, 1.73049, 1.77571, 1.72052, 1.73362, 1.73381, 1.73278, 1.88277, 1.84376, 1.8334, 1.70966, 1.69586, 1.67304, 1.65281, 1.66767, 1.64389, 1.64177, 1.64347, 1.64163, 1.63773, 1.6793, 1.6362, 1.59929, 1.59605, 1.57155, 1.54933, 1.53784, 1.54443, 1.55049, 1.6163, 1.56158, 1.54754, 1.54608, 1.54798, 1.47944, 1.41416, 1.41287, 1.37213, 1.36139, 1.32769, 1.30404, 1.30347, 1.29257, 1.29863, 1.28129, 1.25657, 1.24058, 1.23467, 1.23718, 1.19792, 1.178, 1.18027, 1.16219, 1.1465, 1.13969, 1.13673, 1.15989, 1.18848, 1.37164, 1.36402, 1.14851, 1.14654, 1.14683, 1.32014, 1.41026, 1.12883, 1.26175, 1.11588, 1.12168, 1.1089, 1.10915, 1.10819, 1.10519, 1.10234, 1.10161, 1.10005, 1.09793, 1.09611, 1.09349, 1.29264, 1.28681, 1.10446, 1.10595, 1.11069, 1.11145, 1.09493, 1.094, 1.08857, 1.08959, 1.09055, 1.09212, 1.10082, 1.10078, 1.10131, 1.1016, 1.11094, 1.10988, 1.10792, 1.10562, 1.09092, 1.08893, 1.24382, 1.06846, 1.06677, 1.06764, 1.07276, 1.07337, 1.07351, 1.072, 1.06664, 1.06431, 1.06025, 1.05714, 1.06594, 1.07556, 1.0783, 1.07452, 1.33158, 1.08926, 1.10196, 1.1022, 1.10465, 1.09939, 1.10162, 1.1036, 1.09569, 1.096, 1.1849, 1.07426, 1.07464, 1.07344, 1.07445, 1.09962, 1.10019, 1.10158, 1.10282, 1.10369
1.16362, 1.16297, 1.1639, 1.16653, 1.17073, 1.17573, 1.17592, 1.17482, 1.17663, 1.17586, 1.1749, 1.36193, 1.15973, 1.15539, 1.15137, 1.15425, 1.15529, 1.17872, 1.17533, 1.17404, 1.17333, 1.17359, 1.17222, 1.17451, 1.17505, 1.17585, 1.17788, 1.18045, 1.18032, 1.18089, 1.18219, 1.1826, 1.18334, 1.18768, 1.19168, 1.19222, 1.1969, 1.19715, 1.20493, 1.21121, 1.21174, 1.21505, 1.21778, 1.2176, 1.2179, 1.21906, 1.22216, 1.22384, 1.22807, 1.23575, 1.23885, 1.23961, 1.24238, 1.24251, 1.24286, 1.24599, 1.24583, 1.24672, 1.31871, 1.39755, 1.33559, 1.20974, 1.19919, 1.19603, 1.193, 1.19209, 1.18997, 1.19282, 1.19779, 1.20148, 1.20657, 1.21467, 1.22315, 1.2106, 1.22019, 1.22453, 1.23298, 1.24775, 1.25, 1.27096, 1.27067, 1.25363, 1.26104, 1.26319, 1.2781, 1.28569, 1.40152, 1.32091, 1.33187, 1.34427, 1.35908, 1.42281, 1.4225, 1.42632, 1.43075, 1.47991, 1.47602, 1.46386, 1.44796, 1.45915, 1.467, 1.50243, 1.49898, 1.5591, 1.5142, 1.52489, 1.53051, 1.54001, 1.5384, 1.55781, 1.56205, 1.58531, 1.56816, 1.5749, 1.56866, 1.56778, 1.56484, 1.56195, 1.56938, 1.62808, 1.62759, 1.6308, 1.72833, 1.69221, 1.68752, 1.69633, 1.70575, 1.69681, 1.69842, 1.80627, 1.78577, 1.78536, 1.78522, 1.89687, 1.78141, 1.74947, 1.78752, 1.93397, 1.75772, 1.77666, 1.77391, 1.77327, 1.77349, 1.7692, 1.7711, 1.76227, 1.73346, 1.73022, 1.73423, 1.73419, 1.73718, 1.73375, 1.73312, 1.7325, 1.7522, 1.75235, 1.86338, 1.83124, 1.82733, 1.82892, 1.73951, 1.73881, 1.73022, 1.72991, 1.74101, 1.72049, 1.71958, 1.74613, 1.73129, 1.73062, 1.70569, 1.69799, 1.69289, 1.69239, 1.7064, 1.72374, 1.65168, 1.6507, 1.66002, 1.64003, 1.64512, 1.64428, 1.64645, 1.6456, 1.63394, 1.59216, 1.59016, 1.58977, 1.56382, 1.57288, 1.54052, 1.54936, 1.54948, 1.54808, 1.56558, 1.54173, 1.52717, 1.49959, 1.47902, 1.42364, 1.42016, 1.36501, 1.36733, 1.34494, 1.31994, 1.34264, 1.32927, 1.30517, 1.28378, 1.29924, 1.29226, 1.2221, 1.21302, 1.20488, 1.2041, 1.18387, 1.16462, 1.14031, 1.14078, 1.20205, 1.20191, 1.15194, 1.18782, 1.15064, 1.15283, 1.15188, 1.14813, 1.14721, 1.1452, 1.36677, 1.32527, 1.12312, 1.12923, 1.11631, 1.40321, 1.13003, 1.12958, 1.26384, 1.27563, 1.11233, 1.11222, 1.1141, 1.11157, 1.11256, 1.10792, 1.10804, 1.10927, 1.10805, 1.1075, 1.10575, 1.10434, 1.10421, 1.10447, 1.10576, 1.1059, 1.09974, 1.0979, 1.09897, 1.10093, 1.10166, 1.10147, 1.10162, 1.098, 1.23362, 1.12831, 1.0811, 1.08027, 1.07862, 1.07835, 1.07588, 1.0758, 1.08036, 1.08118, 1.07125, 1.07031, 1.06705, 1.07419, 1.08021, 1.08033, 1.08221, 1.14733, 1.25949, 1.1203, 1.12206, 1.11461, 1.11485, 1.11063, 1.11109, 1.10904, 1.10196, 1.10237, 1.16847, 1.1679, 1.13805, 1.08255, 1.10864, 1.10846, 1.10692, 1.10825, 1.1075
1.16863, 1.16761, 1.17126, 1.17398, 1.17506, 1.17675, 1.17867, 1.17704, 1.17342, 1.17092, 1.1686, 1.16702, 1.16789, 1.16733, 1.16411, 1.16847, 1.17456, 1.17614, 1.17432, 1.17419, 1.17463, 1.17363, 1.17277, 1.17358, 1.17502, 1.17699, 1.17689, 1.1811, 1.18142, 1.18219, 1.18359, 1.18408, 1.18823, 1.1906, 1.19091, 1.19211, 1.28759, 1.19989, 1.20463, 1.20506, 1.21172, 1.21319, 1.21766, 1.2191, 1.21896, 1.22326, 1.22694, 1.23111, 1.23936, 1.24636, 1.2417, 1.24184, 1.24183, 1.24139, 1.24262, 1.24255, 1.24357, 1.245, 1.24175, 1.24442, 1.45071, 1.24245, 1.17918, 1.16344, 1.18139, 1.1617, 1.19296, 1.19485, 1.19463, 1.19256, 1.19122, 1.20335, 1.20273, 1.20382, 1.21235, 1.22595, 1.22693, 1.23963, 1.29666, 1.30914, 1.26783, 1.26632, 1.26737, 1.27294, 1.28495, 1.28424, 1.28442, 1.31601, 1.32395, 1.33622, 1.34037, 1.34105, 1.39578, 1.43418, 1.52769, 1.54054, 1.47614, 1.5132, 1.50573, 1.48655, 1.56531, 1.56092, 1.51666, 1.51367, 1.57102, 1.54785, 1.56122, 1.57383, 1.55261, 1.55338, 1.58565, 1.60719, 1.58662, 1.60019, 1.62125, 1.60303, 1.60113, 1.62447, 1.61361, 1.63417, 1.84096, 1.84378, 1.68571, 1.68182, 1.69552, 1.71717, 1.70633, 1.73316, 1.74793, 1.82809, 1.82164, 1.91488, 1.9287, 1.83551, 1.75868, 1.74511, 1.74427, 1.77257, 1.76924, 1.80084, 1.84492, 1.7747, 1.772, 1.74928, 1.74609, 1.71766, 1.71773, 1.7277, 1.72884, 1.72905, 1.73767, 1.7385, 1.73782, 1.74105, 1.77271, 1.77831, 1.76961, 1.7689, 1.75589, 1.7548, 1.77259, 1.75654, 1.75478, 1.74878, 1.7219, 1.72126, 1.7199, 1.70438, 1.70432, 1.70968, 1.70656, 1.69881, 1.69914, 1.69919, 1.76819, 1.67576, 1.67528, 1.74713, 1.65428, 1.64577, 1.64695, 1.64723, 1.64179, 1.64003, 1.64708, 1.63434, 1.63072, 1.65525, 1.6061, 1.58108, 1.58048, 1.57553, 1.57568, 1.57895, 1.5614, 1.52267, 1.50543, 1.5064, 1.47881, 1.47807, 1.43831, 1.41974, 1.39995, 1.398, 1.38945, 1.35905, 1.34132, 1.33224, 1.30939, 1.29756, 1.283, 1.22893, 1.21506, 1.21729, 1.23667, 1.17889, 1.17444, 1.17098, 1.16, 1.14812, 1.16135, 1.15033, 1.18295, 1.15487, 1.15552, 1.155, 1.14744, 1.14702, 1.14431, 1.14488, 1.38562, 1.13319, 1.1318, 1.1312, 1.13138, 1.13112, 1.1295, 1.12636, 1.1286, 1.12896, 1.11544, 1.1149, 1.10923, 1.1076, 1.10862, 1.1092, 1.10852, 1.09915, 1.09974, 1.09695, 1.09853, 1.10179, 1.10585, 1.1072, 1.1053, 1.105, 1.10133, 1.10367, 1.1044, 1.10551, 1.10595, 1.10673, 1.10866, 1.10918, 1.24667, 1.0917, 1.08512, 1.08453, 1.09439, 1.09098, 1.08838, 1.08509, 1.07484, 1.07483, 1.07404, 1.07313, 1.06784, 1.06903, 1.07894, 1.20866, 1.10217, 1.10243, 1.11877, 1.11734, 1.11602, 1.11645, 1.11581, 1.11701, 1.17956, 1.1102, 1.11224, 1.11216, 1.11238, 1.11479, 1.10617, 1.10668, 1.10507, 1.10248, 1.10237, 1.10007
1.17523, 1.17491, 1.17703, 1.17775, 1.18303, 1.18311, 1.18324, 1.18389, 1.17836, 1.1747, 1.17466, 1.17143, 1.17881, 1.17778, 1.17656, 1.17724, 1.17986, 1.17965, 1.18026, 1.17878, 1.17381, 1.17325, 1.17381, 1.17279, 1.17349, 1.17345, 1.17349, 1.17427, 1.17692, 1.17741, 1.18153, 1.18203, 1.18485, 1.19107, 1.19495, 1.19747, 1.19794, 1.20216, 1.20295, 1.20781, 1.2099, 1.21204, 1.21607, 1.21666, 1.22002, 1.26382, 1.23294, 1.23265, 1.23687, 1.238, 1.2401, 1.24005, 1.24251, 1.24261, 1.24286, 1.24358, 1.3409, 1.28166, 1.23681, 1.23303, 1.24656, 1.22694, 1.18537, 1.17398, 1.17053, 1.174, 1.18099, 1.17821, 1.18791, 1.19332, 1.19972, 1.19871, 1.21186, 1.20982, 1.22679, 1.24462, 1.25129, 1.2583, 1.26679, 1.27557, 1.25612, 1.28853, 1.26403, 1.2753, 1.2891, 1.2892, 1.3032, 1.31608, 1.31683, 1.32693, 1.34348, 1.34316, 1.41381, 1.41139, 1.43259, 1.46936, 1.48564, 1.50792, 1.49616, 1.55572, 1.5948, 1.59565, 1.54122, 1.5456, 1.55032, 1.55878, 1.59141, 1.5993, 1.60774, 1.63363, 1.62677, 1.89259, 1.83528, 1.86662, 1.84595, 1.84429, 1.79864, 1.76199, 1.63083, 1.66885, 1.66812, 1.68718, 1.97256, 1.7476, 1.739, 1.73113, 1.72829, 1.73439, 1.73349, 1.73305, 1.74822, 1.83175, 1.75287, 1.7745, 1.77195, 1.76193, 1.7335, 1.73338, 1.7332, 1.73695, 1.73646, 1.7413, 1.74137, 1.74311, 1.75245, 1.74493, 1.73597, 1.7375, 1.73612, 1.76174, 1.73851, 1.76795, 1.79946, 1.78999, 1.7964, 1.86236, 1.7787, 1.77073, 1.75663, 1.75632, 1.75572, 1.77229, 1.7713, 1.83458, 1.82635, 1.7574, 1.75942, 1.74355, 1.71123, 1.71077, 1.70928, 1.7089, 1.83721, 1.70602, 1.69771, 1.6819, 1.67354, 1.67142, 1.73625, 1.64813, 1.64686, 1.65102, 1.63382, 1.64731, 1.64015, 1.64026, 1.63207, 1.62553, 1.61739, 1.60391, 1.58961, 1.57627, 1.57098, 1.56801, 1.53185, 1.53838, 1.52448, 1.51696, 1.59643, 1.63801, 1.50751, 1.49909, 1.495, 1.49537, 1.45673, 1.38055, 1.38606, 1.40497, 1.33628, 1.2894, 1.28725, 1.25453, 1.25704, 1.25857, 1.2257, 1.22577, 1.21161, 1.20579, 1.17085, 1.18677, 1.15236, 1.15951, 1.16771, 1.15789, 1.15624, 1.15711, 1.14947, 1.14933, 1.14918, 1.14866, 1.14757, 1.1414, 1.14012, 1.13768, 1.13536, 1.13305, 1.13187, 1.12766, 1.12733, 1.12683, 1.25052, 1.12108, 1.12061, 1.11675, 1.11277, 1.11356, 1.10782, 1.10733, 1.10331, 1.10173, 1.10432, 1.10184, 1.10095, 1.10307, 1.10926, 1.11065, 1.10624, 1.10544, 1.1073, 1.11626, 1.11589, 1.11625, 1.11611, 1.11471, 1.11473, 1.24547, 1.09905, 1.09256, 1.09371, 1.09419, 1.08023, 1.07496, 1.07649, 1.07709, 1.07742, 1.08023, 1.07722, 1.08355, 1.24703, 1.10066, 1.10296, 1.10683, 1.10973, 1.11383, 1.12326, 1.12141, 1.11864, 1.11773, 1.1168, 1.11696, 1.1019, 1.1018, 1.1098, 1.10773, 1.10948, 1.11046, 1.10992, 1.10699, 1.10437, 1.10395
1.18079, 1.17573, 1.17831, 1.18694, 1.18731, 1.18676, 1.18591, 1.18707, 1.18462, 1.18468, 1.17529, 1.18234, 1.18059, 1.18063, 1.17958, 1.17976, 1.18009, 1.18086, 1.18083, 1.17955, 1.17788, 1.17573, 1.17432, 1.17376, 1.1735, 1.17348, 1.17406, 1.17476, 1.17689, 1.17819, 1.17877, 1.1821, 1.18429, 1.18772, 1.19104, 1.19212, 1.19824, 1.19923, 1.24351, 1.20913, 1.21001, 1.22027, 1.41906, 1.2576, 1.23596, 1.23331, 1.23397, 1.23393, 1.23248, 1.23363, 1.23385, 1.23351, 1.23419, 1.43954, 1.26821, 1.41736, 1.29955, 1.21372, 1.23024, 1.22918, 1.209, 1.22648, 1.17048, 1.17783, 1.18105, 1.17856, 1.17981, 1.18759, 1.18889, 1.20659, 1.19706, 1.23685, 1.23707, 1.24999, 1.22731, 1.25244, 1.24457, 1.27492, 1.25442, 1.266, 1.27239, 1.30172, 1.28858, 1.28933, 1.3118, 1.32237, 1.3122, 1.34425, 1.34187, 1.35308, 1.34722, 1.37509, 1.40268, 1.42123, 1.42123, 1.49388, 1.4964, 1.5747, 1.55908, 1.55833, 1.53642, 1.56397, 1.60189, 1.54571, 1.54545, 1.58635, 1.58565, 1.59665, 1.69351, 1.61734, 1.6405, 1.667, 1.80621, 1.80812, 1.81797, 1.86569, 1.84871, 1.77558, 1.76689, 1.76763, 1.76558, 1.77517, 1.77555, 1.77372, 1.81434, 1.75834, 1.73232, 1.73064, 1.73035, 1.73234, 1.7328, 1.76002, 1.75343, 1.83489, 1.75109, 1.75051, 1.75048, 1.74996, 1.75895, 1.85012, 1.84969, 2.06582, 2.08063, 1.93828, 2.21149, 2.12561, 1.75565, 1.7698, 1.76902, 1.76574, 1.76444, 1.76941, 1.76776, 1.78332, 1.78333, 1.78989, 1.78286, 1.78281, 1.80703, 1.83095, 1.80226, 1.80957, 1.87713, 1.82837, 1.84891, 1.75502, 1.75481, 1.73382, 1.83516, 1.83377, 1.83212, 1.88313, 1.88227, 1.736, 1.71642, 1.71786, 1.72273, 1.72229, 1.7222, 1.66193, 1.64598, 1.63542, 1.63426, 1.63676, 1.74615, 1.63975, 1.62457, 1.63422, 1.63532, 1.64156, 1.58996, 1.61042, 1.60721, 1.55451, 1.5524, 1.54216, 1.53196, 1.52619, 1.59994, 1.52269, 1.74566, 1.74589, 1.52744, 1.49855, 1.45055, 1.43993, 1.40303, 1.38838, 1.32932, 1.33055, 1.32623, 1.29247, 1.26075, 1.26754, 1.2431, 1.24022, 1.22371, 1.23338, 1.20494, 1.18163, 1.15814, 1.16547, 1.17814, 1.15022, 1.14966, 1.15349, 1.15555, 1.1537, 1.15621, 1.15035, 1.15001, 1.14868, 1.15156, 1.15158, 1.29678, 1.1429, 1.14141, 1.14263, 1.14188, 1.14312, 1.13791, 1.14184, 1.12418, 1.12016, 1.12004, 1.11106, 1.10479, 1.10489, 1.105, 1.10265, 1.10186, 1.10025, 1.10399, 1.10455, 1.10599, 1.1127, 1.11342, 1.11519, 1.11576, 1.11946, 1.12397, 1.13254, 1.1329, 1.11537, 1.11496, 1.11586, 1.26141, 1.26126, 1.10483, 1.20969, 1.20851, 1.07819, 1.07972, 1.07369, 1.0803, 1.08116, 1.09133, 1.10798, 1.10849, 1.11532, 1.11599, 1.10349, 1.1035, 1.10079, 1.14377, 1.12519, 1.12013, 1.11992, 1.1199, 1.11202, 1.10917, 1.10814, 1.1141, 1.10945, 1.10956, 1.10951, 1.11145, 1.10874, 1.10894, 1.10782
1.18557, 1.17901, 1.17692, 1.17707, 1.17817, 1.18278, 1.1787, 1.17652, 1.17564, 1.17634, 1.17532, 1.17427, 1.17797, 1.17393, 1.17351, 1.17552, 1.17687, 1.17642, 1.17258, 1.17375, 1.17681, 1.17538, 1.17386, 1.17395, 1.17372, 1.17349, 1.17373, 1.17385, 1.1755, 1.17553, 1.17682, 1.17841, 1.18037, 1.18877, 1.19117, 1.19595, 1.20139, 1.20127, 1.20483, 1.21272, 1.2272, 1.22362, 1.27075, 1.23036, 1.2331, 1.23588, 1.23706, 1.23873, 1.23834, 1.23647, 1.23474, 1.23557, 1.23052, 1.22956, 1.23032, 1.22193, 1.22876, 1.22886, 1.42238, 1.42981, 1.21463, 1.19099, 1.19454, 1.19285, 1.19356, 1.19478, 1.19489, 1.20671, 1.18787, 1.20608, 1.20255, 1.22001, 1.2377, 1.23956, 1.24482, 1.26474, 1.26997, 1.27799, 1.29194, 1.28367, 1.28112, 1.30819, 1.31545, 1.33701, 1.33975, 1.34975, 1.34276, 1.37176, 1.39389, 1.37808, 1.36868, 1.40553, 1.40152, 1.4141, 1.47104, 1.51152, 1.49545, 1.51043, 1.54806, 1.57213, 1.64286, 1.59649, 1.56792, 1.56766, 1.56761, 1.56921, 1.58643, 1.60421, 1.61244, 1.61029, 1.72353, 1.6687, 1.68626, 1.70896, 1.79306, 1.76913, 1.76976, 1.77158, 1.77374, 1.76549, 1.76604, 1.77345, 1.77426, 1.77295, 1.77243, 1.80921, 1.73167, 1.73205, 1.73323, 1.73177, 1.77581, 1.77779, 1.76129, 1.761, 1.75886, 1.7437, 1.74303, 1.77349, 1.76917, 1.78275, 1.80957, 1.79218, 1.79065, 1.81009, 1.83883, 1.83878, 1.83854, 1.83755, 1.97625, 1.76778, 1.76807, 1.83407, 1.8162, 1.79928, 1.79869, 1.78912, 1.82296, 1.86637, 1.82941, 1.83311, 1.80326, 1.80289, 1.818, 1.81681, 1.79668, 1.80202, 1.7892, 1.84121, 0.00450568, 1.83089, 1.74554, 1.74382, 1.85159, 1.74968, 1.78159, 1.72, 1.77319, 1.77312, 1.77593, 1.73423, 1.64565, 1.64518, 1.70303, 1.70151, 1.65271, 1.65067, 1.63375, 1.61346, 1.61164, 1.66124, 1.68664, 1.62632, 1.58547, 1.59581, 1.57232, 1.54154, 1.53981, 1.5388, 1.54494, 1.62838, 1.59574, 1.53731, 1.56043, 1.49089, 1.46735, 1.54307, 1.43156, 1.43073, 1.42892, 1.36608, 1.31548, 1.30728, 1.29632, 1.29763, 1.26351, 1.26897, 1.21996, 1.21713, 1.20566, 1.18079, 1.17429, 1.15317, 1.16437, 1.14972, 1.16037, 1.16122, 1.15964, 1.15702, 1.15714, 1.1564, 1.15518, 1.15563, 1.15692, 1.16869, 1.1686, 1.24751, 1.14232, 1.14161, 1.13964, 1.13857, 1.13378, 1.13099, 1.12417, 1.12079, 1.12083, 1.12272, 1.11118, 1.11232, 1.10582, 1.10795, 1.11028, 1.11024, 1.10851, 1.10746, 1.11169, 1.1147, 1.1168, 1.11999, 1.12139, 1.13572, 1.13544, 1.12006, 1.11848, 1.11887, 1.11872, 1.25146, 1.1289, 1.12902, 1.12919, 1.17369, 1.09842, 1.09857, 1.2081, 1.24002, 1.20174, 1.11818, 1.1188, 1.11296, 1.11528, 1.11862, 1.11951, 1.10408, 1.10104, 1.09796, 1.09783, 1.12016, 1.12092, 1.10852, 1.10813, 1.10563, 1.25539, 1.11568, 1.15737, 1.11271, 1.1129, 1.119, 1.11949, 1.11793, 1.11742, 1.11833
1.18458, 1.18424, 1.17465, 1.17482, 1.17514, 1.18047, 1.1812, 1.17877, 1.17699, 1.17406, 1.17463, 1.17413, 1.17366, 1.17365, 1.17363, 1.1735, 1.17493, 1.17713, 1.17774, 1.17952, 1.18186, 1.18412, 1.18147, 1.1811, 1.17985, 1.18143, 1.18193, 1.1808, 1.18063, 1.18429, 1.17979, 1.18102, 1.18265, 1.22651, 1.1951, 1.20107, 1.20138, 1.20206, 1.20208, 1.20267, 1.20758, 1.20818, 1.23795, 1.32792, 1.22981, 1.22961, 1.33387, 1.23388, 1.33887, 1.33749, 1.33284, 1.47262, 1.41071, 1.33711, 1.33982, 1.22867, 1.22807, 1.33964, 1.24663, 1.20823, 1.20948, 1.19095, 1.18897, 1.18942, 1.19287, 1.19531, 1.21021, 1.19206, 1.19127, 1.19024, 1.21325, 1.23082, 1.22159, 1.25148, 1.25098, 1.27124, 1.26893, 1.29586, 1.29543, 1.30188, 1.30122, 1.33011, 1.32903, 1.35057, 1.37956, 1.37912, 1.49673, 1.49801, 1.41936, 1.42204, 1.43097, 1.42298, 1.43548, 1.4433, 1.4668, 1.46734, 1.47672, 1.47945, 1.53946, 1.54967, 1.62955, 1.69429, 1.68223, 1.73424, 1.65924, 1.61737, 1.62766, 1.62314, 1.64778, 1.72121, 1.67578, 1.66157, 1.68655, 1.68669, 1.71314, 1.74728, 1.73281, 1.73237, 1.7338, 1.73344, 1.769, 1.75949, 1.81324, 1.81253, 1.78162, 1.78048, 1.7918, 1.79077, 1.79128, 1.73287, 1.73247, 1.75205, 1.76181, 1.759, 1.7689, 1.76889, 1.78013, 1.79729, 1.81395, 1.8148, 1.80095, 1.79332, 1.79626, 1.79513, 1.86096, 1.80371, 1.85007, 0.00453672, 1.80962, 1.8148, 1.81963, 1.81966, 1.817, 1.79976, 1.79996, 1.79893, 1.82363, 1.82312, 1.82183, 1.81069, 1.80998, 1.81, 1.81731, 1.81721, 1.82378, 1.82462, 1.82568, 1.78941, 1.78626, 1.78524, 1.78211, 1.84738, 1.7829, 1.74922, 1.785, 1.78592, 1.73188, 1.71774, 1.7097, 1.7299, 1.74744, 1.74801, 1.69308, 1.6921, 1.6788, 1.63074, 1.62993, 1.61588, 1.62274, 1.62049, 1.61732, 1.64459, 1.64227, 1.68338, 1.58331, 1.55076, 1.55007, 1.558, 1.63472, 1.60622, 1.54116, 1.54059, 1.59498, 1.49952, 1.48718, 1.48272, 1.46187, 1.4916, 1.43297, 1.37385, 1.37947, 1.32792, 1.30316, 1.27029, 1.25955, 1.25351, 1.24488, 1.22919, 1.18575, 1.16927, 1.16065, 1.19642, 1.19567, 1.17789, 1.17595, 1.15735, 1.15632, 1.15533, 1.16237, 1.16054, 1.16035, 1.15987, 1.16054, 1.39242, 1.32619, 1.15195, 1.14723, 1.13877, 1.13378, 1.13572, 1.14463, 1.14497, 1.24673, 1.12499, 1.12517, 1.12529, 1.12737, 1.11247, 1.11194, 1.11085, 1.11104, 1.11261, 1.11519, 1.11639, 1.12096, 1.12026, 1.12243, 1.13688, 1.13455, 1.13411, 1.13645, 1.23518, 1.13302, 1.12947, 1.13604, 1.13581, 1.13559, 1.13551, 1.13597, 1.13193, 1.13243, 1.10107, 1.10138, 1.20763, 1.11824, 1.12989, 1.13268, 1.13315, 1.13187, 1.12972, 1.12498, 1.12556, 1.10118, 1.1009, 1.10206, 1.11597, 1.10564, 1.10513, 1.10144, 1.09568, 1.08855, 1.08888, 1.0887, 1.0876, 1.09864, 1.10474, 1.11642, 1.11792, 1.11236, 1.10694
1.18521, 1.18123, 1.17397, 1.17735, 1.17516, 1.17411, 1.17625, 1.17906, 1.17777, 1.17709, 1.17543, 1.17738, 1.17157, 1.17036, 1.17112, 1.17371, 1.17362, 1.17433, 1.1749, 1.17761, 1.18086, 1.18128, 1.18104, 1.18091, 1.18047, 1.18046, 1.18036, 1.18059, 1.18309, 1.18719, 1.18881, 1.19182, 1.19217, 1.19305, 1.19521, 1.19832, 1.19565, 1.1945, 1.19439, 1.19549, 1.19931, 1.23842, 1.21433, 1.21365, 1.24031, 1.21667, 1.36266, 1.22034, 1.38076, 1.41198, 1.41146, 1.41195, 1.41298, 1.34647, 1.34707, 1.22924, 1.22263, 1.4964, 1.21439, 1.2087, 1.19505, 1.18126, 1.1738, 1.16823, 1.17521, 1.17793, 1.16903, 1.19516, 1.18897, 1.19897, 1.22354, 1.22214, 1.25062, 1.24296, 1.26376, 1.26877, 1.26888, 1.28271, 1.30305, 1.30206, 1.31129, 1.34543, 1.34588, 1.34654, 1.37218, 1.38425, 1.38854, 1.42579, 1.4286, 1.50211, 1.45334, 1.49871, 1.49133, 1.49223, 1.49177, 1.46919, 1.46868, 1.50389, 1.51509, 1.65105, 1.65385, 1.61611, 1.59877, 1.68752, 1.68527, 1.77626, 1.77581, 1.67717, 1.69276, 1.74167, 1.76463, 1.81848, 1.75923, 1.71034, 1.70809, 1.73732, 1.7326, 1.83052, 1.73839, 1.76252, 1.76408, 1.80021, 1.80043, 1.86517, 1.78213, 1.80278, 1.76699, 1.76631, 1.74705, 1.7971, 1.79806, 1.79567, 1.79646, 1.82832, 1.82694, 1.8723, 1.87267, 1.81504, 1.81556, 1.8139, 1.81268, 1.8216, 1.86344, 1.80596, 1.80596, 1.80417, 1.81368, 1.79084, 1.77887, 1.77823, 1.77837, 1.77813, 1.82058, 1.80019, 1.80153, 1.80148, 1.86873, 1.82396, 1.82395, 1.82235, 1.81391, 1.81347, 1.81949, 1.81875, 1.80241, 1.80286, 1.80876, 1.82131, 1.78893, 1.79987, 1.87142, 1.7965, 1.7522, 1.75105, 1.75118, 1.78312, 1.74937, 1.80132, 1.77577, 1.71183, 1.71709, 1.73452, 1.7267, 1.67842, 1.65097, 1.64993, 1.6417, 1.6336, 1.62229, 1.62284, 1.62218, 1.65824, 1.65718, 1.64512, 1.66521, 1.65801, 1.67913, 1.68042, 1.71589, 1.60233, 1.54694, 1.54596, 1.53335, 1.51785, 1.51276, 1.51314, 1.48301, 1.48157, 1.48099, 1.40449, 1.37592, 1.32654, 1.28337, 1.26804, 1.27759, 1.25818, 1.21617, 1.2145, 1.1943, 1.17189, 1.17235, 1.16046, 1.16474, 1.14926, 1.15902, 1.1608, 1.16244, 1.16235, 1.16255, 1.44436, 1.15663, 1.15683, 1.15727, 1.15224, 1.15646, 1.15169, 1.15011, 1.4186, 1.14013, 1.14058, 1.14175, 1.1404, 1.13888, 1.13785, 1.13471, 1.1877, 1.35233, 1.12002, 1.11963, 1.11419, 1.11592, 1.21521, 1.12631, 1.13276, 1.13573, 1.14069, 1.1388, 1.13736, 1.13864, 1.13897, 1.13959, 1.13485, 1.1353, 1.13325, 1.13321, 1.1338, 1.13431, 1.13258, 1.13383, 1.20785, 1.20367, 1.15998, 1.13127, 1.13205, 1.13167, 1.13615, 1.13622, 1.13689, 1.14051, 1.13893, 1.13199, 1.13204, 1.13141, 1.18156, 1.11576, 1.11489, 1.10192, 1.10085, 1.09862, 1.09626, 1.08542, 1.08658, 1.08726, 1.08803, 1.09732, 1.1165, 1.1177, 1.11559, 1.11103, 1.10957
1.16682, 1.17557, 1.17613, 1.17282, 1.17216, 1.17143, 1.17648, 1.18403, 1.1847, 1.17731, 1.17407, 1.17068, 1.17109, 1.17129, 1.17135, 1.17126, 1.17217, 1.17279, 1.17414, 1.17625, 1.17902, 1.1804, 1.18023, 1.18089, 1.18059, 1.18077, 1.18159, 1.18313, 1.18646, 1.1885, 1.18778, 1.18894, 1.19224, 1.18922, 1.18986, 1.18813, 1.18838, 1.18939, 1.19373, 1.19511, 1.19816, 1.20345, 1.20292, 1.20433, 1.20589, 1.20695, 1.20801, 1.20844, 1.19932, 1.19929, 1.19914, 1.19915, 1.20069, 1.20088, 1.41951, 1.46533, 1.44445, 1.37741, 1.19802, 1.1427, 1.14285, 1.14507, 1.16294, 1.14319, 1.1505, 1.15822, 1.19529, 1.20902, 1.19885, 1.20172, 1.21143, 1.21235, 1.27735, 1.25802, 1.26435, 1.28683, 1.29295, 1.29493, 1.31235, 1.31374, 1.33755, 1.34686, 1.34795, 1.34919, 1.37168, 1.37272, 1.42174, 1.4242, 1.48589, 1.49503, 1.46411, 1.46481, 1.51402, 1.51464, 1.55817, 1.5279, 1.48749, 1.50712, 1.50896, 1.53355, 1.5551, 1.5812, 1.57977, 1.64524, 1.67966, 1.67895, 1.7361, 1.73507, 1.76589, 1.74423, 1.74355, 1.91679, 1.91789, 1.90958, 1.90826, 1.73402, 1.7342, 1.73911, 1.81383, 1.76801, 1.76202, 1.75449, 1.75441, 1.75554, 1.76798, 1.7991, 1.76748, 1.76761, 1.76672, 1.76203, 1.7621, 1.78289, 1.80976, 1.80028, 1.80073, 1.87002, 1.82761, 1.83089, 1.85599, 1.86489, 1.84487, 1.84313, 1.94095, 1.80572, 1.81444, 1.82382, 1.8104, 1.81088, 1.80762, 1.80724, 1.79491, 1.80379, 1.78563, 1.83133, 1.79808, 1.84078, 1.81355, 1.84462, 1.84509, 1.86522, 1.90063, 1.86975, 1.96272, 1.82087, 1.82319, 1.81109, 1.81015, 1.80931, 1.80833, 1.80504, 1.82171, 1.77191, 1.75835, 1.75921, 1.76077, 1.81986, 1.77148, 1.73022, 1.72925, 1.74738, 1.76884, 1.71646, 1.76182, 1.694, 1.64622, 1.64508, 1.64011, 1.64051, 1.64041, 1.64454, 1.65393, 1.63657, 1.63557, 1.70195, 1.70152, 1.69772, 1.68488, 1.64576, 1.63867, 1.60689, 1.59911, 1.54777, 1.52541, 1.56803, 1.50621, 1.50605, 1.54443, 1.46476, 1.40372, 1.3745, 1.33795, 1.33872, 1.3075, 1.2925, 1.30625, 1.30562, 1.21707, 1.23044, 1.2125, 1.20604, 1.23317, 1.17822, 1.16376, 1.16144, 1.19561, 1.20186, 1.18458, 1.36858, 1.37457, 1.42843, 1.43443, 1.41505, 1.35717, 1.1865, 1.2047, 1.20249, 1.20162, 1.20945, 1.28907, 1.17394, 1.15783, 1.21551, 1.14889, 1.29057, 1.17056, 1.1872, 1.15815, 1.1572, 1.28853, 1.13358, 1.13461, 1.15012, 1.14983, 1.14855, 1.15044, 1.15063, 1.14742, 1.13736, 1.13984, 1.13449, 1.1378, 1.1389, 1.13747, 1.13761, 1.13741, 1.13825, 1.13553, 1.13173, 1.12929, 1.12869, 1.12902, 1.12881, 1.13037, 1.13519, 1.13914, 1.13934, 1.13947, 1.13988, 1.14079, 1.13742, 1.13217, 1.12949, 1.1269, 1.12818, 1.11984, 1.10329, 1.10497, 1.09781, 1.09807, 1.09862, 1.09788, 1.0977, 1.09205, 1.26815, 1.10961, 1.10977, 1.11284, 1.11157, 1.1112, 1.11162
1.17198, 1.17384, 1.17569, 1.17511, 1.17407, 1.177, 1.18192, 1.18475, 1.17662, 1.17572, 1.17493, 1.1745, 1.17378, 1.17251, 1.17306, 1.1704, 1.17177, 1.17298, 1.17411, 1.1774, 1.18029, 1.18048, 1.17392, 1.17687, 1.1773, 1.17388, 1.18078, 1.19466, 1.18851, 1.1908, 1.1854, 1.18388, 1.18394, 1.18422, 1.1851, 1.18601, 1.18616, 1.18729, 1.18748, 1.19127, 1.19273, 1.19603, 1.20113, 1.20122, 1.20459, 1.20497, 1.20272, 1.2015, 1.20117, 1.20139, 1.40107, 1.20874, 1.21582, 1.21549, 1.21414, 1.20781, 1.37038, 1.42196, 1.13105, 1.11799, 1.10817, 1.10938, 1.11201, 1.12775, 1.14061, 1.15822, 1.18358, 1.18444, 1.20964, 1.21529, 1.24264, 1.24551, 1.25863, 1.25884, 1.27094, 1.29583, 1.29579, 1.31382, 1.30668, 1.34888, 1.3498, 1.35, 1.37454, 1.37466, 1.37993, 1.40207, 1.47339, 1.4744, 1.45157, 1.49317, 1.47268, 1.47388, 1.48826, 1.56245, 1.56564, 1.52236, 1.52053, 1.53406, 1.51886, 1.55866, 1.55925, 1.58887, 1.60537, 1.61061, 1.63045, 1.61985, 1.63596, 1.6852, 1.76719, 1.74134, 1.90898, 1.75231, 1.75218, 1.75122, 1.75111, 1.75052, 1.74737, 1.74683, 1.76909, 1.77019, 1.76672, 1.76259, 1.7554, 1.75664, 1.73914, 1.74045, 1.75311, 1.82449, 1.83417, 1.83381, 1.84057, 1.83746, 1.80162, 1.80176, 1.80284, 1.82725, 2.13186, 2.18412, 1.87312, 1.86955, 1.8459, 1.86431, 1.86467, 1.86127, 1.993, 1.87416, 1.86387, 1.87214, 1.87117, 1.87134, 1.82541, 1.8257, 1.80532, 1.81458, 1.82294, 1.84945, 1.8479, 1.8454, 1.84533, 1.84456, 1.83869, 1.828, 1.85544, 1.82356, 1.8266, 1.82714, 1.82634, 1.82744, 1.85417, 1.80648, 1.84013, 1.78203, 1.76155, 1.76225, 1.76248, 1.7618, 1.7888, 1.74687, 1.82412, 1.73088, 1.72505, 1.72718, 1.72781, 1.69548, 1.67328, 1.67237, 1.64583, 1.68187, 1.66427, 1.6686, 1.66509, 1.65798, 1.65701, 1.67475, 1.70968, 1.63725, 1.65148, 1.57563, 1.5748, 1.56451, 1.56515, 1.5804, 1.59994, 1.57228, 1.57242, 1.49674, 1.4915, 1.46142, 1.42704, 1.42545, 1.35924, 1.3586, 1.38968, 1.36094, 1.27467, 1.27201, 1.25305, 1.25854, 1.23054, 1.20498, 1.20389, 1.16911, 1.17038, 1.1571, 1.212, 1.21081, 1.2602, 1.20226, 1.20478, 1.20477, 1.20293, 1.20085, 1.19841, 1.19906, 1.19854, 1.19973, 1.2013, 1.19453, 1.2012, 1.18268, 1.1967, 1.16928, 1.29075, 1.16694, 1.16738, 1.17098, 1.16668, 1.15975, 1.15494, 1.15603, 1.15667, 1.15623, 1.15491, 1.14259, 1.14504, 1.1469, 1.12974, 1.12866, 1.12633, 1.12801, 1.13572, 1.14063, 1.14029, 1.13918, 1.13763, 1.1388, 1.13795, 1.1375, 1.13726, 1.13576, 1.13344, 1.1338, 1.13073, 1.135, 1.13515, 1.1349, 1.13544, 1.13961, 1.13577, 1.12709, 1.12712, 1.13206, 1.13302, 1.20845, 1.09873, 1.09929, 1.10212, 1.10108, 1.1015, 1.09613, 1.11342, 1.11126, 1.11151, 1.11308, 1.11474, 1.117, 1.11527, 1.11806, 1.11343, 1.10976
1.17454, 1.17395, 1.17514, 1.1762, 1.17699, 1.18005, 1.1803, 1.17733, 1.17488, 1.17356, 1.17258, 1.17185, 1.17362, 1.1725, 1.17189, 1.17136, 1.17194, 1.17405, 1.17502, 1.17371, 1.17594, 1.17755, 1.18002, 1.18389, 1.18496, 1.18728, 1.18396, 1.17853, 1.17934, 1.18064, 1.18188, 1.17825, 1.17917, 1.18288, 1.18211, 1.18051, 1.18448, 1.18366, 1.18318, 1.18543, 1.18369, 1.25375, 1.18949, 1.299, 1.20121, 1.20134, 1.20177, 1.20925, 1.20838, 1.20951, 1.20845, 1.20857, 1.20803, 1.20778, 1.2029, 1.19249, 1.44705, 1.16777, 1.15692, 1.15669, 1.13102, 1.13283, 1.14205, 1.14004, 1.16112, 1.17576, 1.22012, 1.20539, 1.21696, 1.22992, 1.22504, 1.25209, 1.26281, 1.27002, 1.29377, 1.29343, 1.30158, 1.30819, 1.33741, 1.33879, 1.36391, 1.36849, 1.38093, 1.38345, 1.39507, 1.43336, 1.46327, 1.49484, 1.52052, 1.52219, 1.49197, 1.491, 1.48996, 1.49893, 1.49907, 1.53129, 1.52184, 1.55097, 1.55029, 1.5853, 1.58455, 1.59846, 1.66014, 1.60459, 1.60412, 1.63452, 1.65116, 1.65048, 1.75519, 1.75306, 1.76693, 1.75529, 1.75277, 1.76531, 1.83084, 1.77034, 1.74104, 1.74053, 1.73996, 1.76449, 1.7653, 1.76557, 1.74763, 1.74769, 1.74771, 1.77174, 1.74564, 1.75878, 1.77815, 1.84482, 1.82843, 1.8496, 1.83218, 1.86627, 1.83088, 1.85342, 1.87672, 1.87456, 1.87382, 1.87282, 1.87531, 1.86379, 1.85891, 1.86316, 1.87625, 1.87586, 1.87542, 1.88993, 1.88957, 1.87194, 1.85741, 1.85693, 1.85563, 1.84489, 1.84781, 1.84922, 1.84969, 1.85501, 1.85492, 1.85416, 1.8198, 1.82676, 1.80508, 1.80577, 1.81058, 1.82454, 1.8246, 1.82364, 1.82089, 1.82139, 1.82245, 1.82068, 1.75464, 1.7536, 1.75298, 1.75191, 1.74884, 1.74775, 1.75808, 1.72643, 1.7258, 1.725, 1.7564, 1.71412, 1.72171, 1.68044, 1.67934, 1.67898, 1.75232, 1.70893, 1.69378, 1.67856, 1.67177, 1.6754, 1.6292, 1.65867, 1.60995, 1.58161, 1.56873, 1.56603, 1.55982, 1.55803, 1.58189, 1.57572, 1.57647, 1.50655, 1.50067, 1.48031, 1.46529, 1.44494, 1.46454, 1.38119, 1.38628, 1.34531, 1.30743, 1.28803, 1.28288, 1.28225, 1.21662, 1.22877, 1.18433, 1.17916, 1.16725, 1.1812, 1.19011, 1.23444, 1.24848, 1.21239, 1.21192, 1.42593, 1.44773, 1.20176, 1.20097, 1.20003, 1.19992, 1.19416, 1.19361, 1.19134, 1.19155, 1.19451, 1.30182, 1.19591, 1.18186, 1.19924, 1.17393, 1.17426, 1.17468, 1.17386, 1.17474, 1.17009, 1.16969, 1.16819, 1.2022, 1.13644, 1.13574, 1.13645, 1.13271, 1.13336, 1.14031, 1.14376, 1.146, 1.14336, 1.14319, 1.14032, 1.14167, 1.14153, 1.13947, 1.1411, 1.13917, 1.1398, 1.13632, 1.13935, 1.13904, 1.13791, 1.13334, 1.13058, 1.12585, 1.12673, 1.11895, 1.1513, 1.12934, 1.13045, 1.13652, 1.11547, 1.11648, 1.10827, 1.10819, 1.11932, 1.11231, 1.11181, 1.1133, 1.11471, 1.11961, 1.11958, 1.59555, 1.13232, 1.12672, 1.1268, 1.11987, 1.12075
1.1763, 1.17884, 1.17995, 1.18201, 1.18546, 1.18447, 1.17804, 1.17475, 1.17401, 1.17162, 1.17065, 1.17354, 1.17351, 1.17228, 1.17008, 1.17031, 1.17103, 1.17319, 1.17237, 1.17226, 1.17199, 1.17335, 1.17438, 1.17468, 1.17566, 1.1753, 1.17321, 1.17336, 1.17379, 1.17507, 1.17379, 1.17236, 1.17311, 1.17324, 1.27789, 1.28827, 1.34053, 1.17382, 1.17679, 1.17736, 1.17863, 1.31289, 1.31042, 1.43056, 1.20108, 1.20187, 1.20622, 1.21143, 1.4967, 1.21143, 1.21158, 1.4032, 1.19285, 1.19409, 1.2006, 1.20057, 1.17672, 1.17506, 1.20265, 1.20574, 1.17383, 1.16779, 1.17763, 1.17835, 1.20255, 1.3082, 1.29984, 1.22553, 1.2369, 1.23643, 1.24643, 1.25573, 1.28228, 1.30033, 1.29144, 1.29378, 1.31001, 1.33491, 1.33364, 1.34755, 1.37657, 1.37983, 1.39142, 1.40656, 1.42499, 1.44808, 1.51393, 1.51397, 1.49901, 1.5038, 1.50401, 1.50458, 1.48617, 1.48611, 1.51819, 1.52405, 1.56464, 1.56564, 1.60073, 1.60179, 1.60286, 1.62344, 1.61909, 1.62176, 1.62145, 1.62079, 1.61995, 1.68138, 1.67374, 1.71077, 1.77277, 1.73293, 1.72996, 1.71128, 1.71124, 1.7108, 1.73447, 1.81104, 1.80997, 1.77225, 1.75734, 1.75669, 1.75528, 1.8105, 1.77527, 1.7721, 1.76966, 1.76826, 1.78298, 1.79023, 1.7899, 1.79283, 1.87587, 1.82455, 1.83843, 1.83852, 1.84523, 1.89959, 1.87516, 1.9209, 1.85686, 1.85707, 1.85693, 1.85706, 1.87649, 1.87342, 1.87956, 1.88228, 1.88097, 1.87923, 1.87686, 1.85952, 1.86754, 1.86674, 1.86558, 1.84675, 1.84665, 1.84837, 1.85679, 1.78891, 1.78896, 1.7883, 1.78485, 1.78338, 1.80695, 1.86906, 1.85037, 1.84785, 1.81999, 1.87937, 1.88204, 1.78645, 1.78583, 1.81409, 1.76319, 1.7721, 1.74136, 1.74134, 1.74069, 1.72648, 1.72655, 1.73131, 1.77885, 1.78033, 1.71729, 1.68682, 1.71148, 1.66119, 1.68, 1.66802, 1.66542, 1.64077, 1.64243, 1.63187, 1.63557, 1.63814, 1.59418, 1.59628, 1.58045, 1.58803, 1.57665, 1.56182, 1.53453, 1.55157, 1.53714, 1.53646, 1.5368, 1.51278, 1.5763, 1.46461, 1.44865, 1.44777, 1.4473, 1.39241, 1.35125, 1.33628, 1.28433, 1.26508, 1.22679, 1.22688, 1.20547, 1.17162, 1.17135, 1.19599, 1.19009, 1.23257, 1.23247, 1.32864, 1.20763, 1.20771, 1.20776, 1.20115, 1.20035, 1.20144, 1.19978, 1.1981, 1.19279, 1.19221, 1.19327, 1.19341, 1.19045, 1.18832, 1.18804, 1.18923, 1.18571, 1.16835, 1.167, 1.16393, 1.16412, 1.16277, 1.16338, 1.16342, 1.16207, 1.15883, 1.14058, 1.1424, 1.14689, 1.146, 1.14613, 1.14756, 1.14758, 1.14392, 1.14371, 1.14455, 1.14502, 1.14485, 1.14603, 1.1452, 1.14454, 1.14063, 1.13916, 1.13962, 1.13885, 1.13415, 1.13238, 1.1333, 1.13383, 1.13606, 1.13528, 1.11723, 1.11406, 1.11654, 1.24341, 1.12428, 1.12005, 1.1161, 1.11525, 1.11559, 1.11386, 1.11872, 1.12118, 1.12619, 1.12533, 1.12869, 1.12919, 1.12935, 1.13439, 1.13552, 1.13171, 1.22595
1.17379, 1.17341, 1.17459, 1.17846, 1.17853, 1.17825, 1.16698, 1.16627, 1.17109, 1.16821, 1.17071, 1.17097, 1.16878, 1.16744, 1.16613, 1.16278, 1.16342, 1.1639, 1.16694, 1.16763, 1.16815, 1.17057, 1.17249, 1.17761, 1.17698, 1.17716, 1.17797, 1.17223, 1.1787, 1.2686, 1.28833, 1.16116, 1.28839, 1.24749, 1.24748, 1.29856, 1.15471, 1.29902, 1.43713, 1.18811, 1.18898, 1.19312, 1.19475, 1.20031, 1.20167, 1.20739, 1.21173, 1.21603, 1.21829, 1.21862, 1.61866, 1.19676, 1.19099, 1.19127, 1.19733, 1.1957, 1.26034, 1.17407, 1.1798, 1.17158, 1.17659, 1.19918, 1.2023, 1.18538, 1.20894, 1.18823, 1.19785, 1.21241, 1.23278, 1.25846, 1.24529, 1.26543, 1.28617, 1.34311, 1.29529, 1.30917, 1.32304, 1.34872, 1.35066, 1.35581, 1.36942, 1.39134, 1.40196, 1.43712, 1.4435, 1.44065, 1.45751, 1.46216, 1.4616, 1.52304, 1.49256, 1.49236, 1.505, 1.52067, 1.49726, 1.56878, 1.60097, 1.59999, 1.58125, 1.6801, 1.67074, 1.76204, 1.6138, 1.60636, 1.60591, 1.63208, 1.63367, 1.65403, 1.72413, 1.69946, 1.7026, 1.69563, 1.70617, 1.71347, 1.71351, 1.71401, 1.74102, 1.81146, 1.7404, 1.90458, 1.78833, 1.79209, 1.81134, 1.84169, 1.80561, 1.80591, 1.80364, 1.80089, 1.8105, 1.80965, 1.81061, 1.80717, 1.80746, 1.80736, 1.80708, 1.84872, 1.84644, 2.0969, 1.98015, 0.00435617, 1.93839, 1.93907, 1.93839, 2.21563, 2.22918, 1.89323, 1.89076, 1.88307, 1.88187, 1.87936, 1.88135, 1.87937, 1.86679, 1.86637, 1.86596, 1.82069, 1.8208, 1.80575, 1.80987, 1.79843, 1.78985, 1.79047, 1.77863, 1.77801, 1.77565, 1.775, 1.78934, 1.78907, 1.79683, 1.79529, 1.79101, 1.84549, 1.77628, 1.77591, 1.7749, 1.78903, 1.76749, 1.75581, 1.73413, 1.73326, 1.75643, 1.7555, 1.78285, 1.66552, 1.67324, 1.67462, 1.67265, 1.66149, 1.66094, 1.66105, 1.66481, 1.64487, 1.67283, 1.62078, 1.61003, 1.65953, 1.61136, 1.59444, 1.60931, 1.58553, 1.5838, 1.58893, 1.57871, 1.57826, 1.5582, 1.55247, 1.53043, 1.51354, 1.52031, 1.46302, 1.42949, 1.42405, 1.42187, 1.36689, 1.28282, 1.27967, 1.26765, 1.26795, 1.25095, 1.18749, 1.19641, 1.17234, 1.17445, 1.16576, 1.1715, 1.16359, 1.20857, 1.37861, 1.41943, 1.21027, 1.21093, 1.20716, 1.2055, 1.20533, 1.2072, 1.19931, 1.19266, 1.19254, 1.18944, 1.18775, 1.18888, 1.17843, 1.17436, 1.17352, 1.1684, 1.16676, 1.16396, 1.16305, 1.16215, 1.16087, 1.15656, 1.15577, 1.15218, 1.1509, 1.14894, 1.14806, 1.14414, 1.14274, 1.14292, 1.14333, 1.14247, 1.14244, 1.14216, 1.14035, 1.14149, 1.14123, 1.14136, 1.14019, 1.14029, 1.13891, 1.13974, 1.1357, 1.13426, 1.13085, 1.12968, 1.13137, 1.13427, 1.13873, 1.13972, 1.21294, 1.21194, 1.11641, 1.11522, 1.10724, 1.10738, 1.11507, 1.1163, 1.11984, 1.12317, 1.12361, 1.12377, 1.12767, 1.12677, 1.12654, 1.12382, 1.13005, 1.12933, 1.12509, 1.12326, 1.11952
1.17175, 1.17222, 1.1707, 1.17008, 1.17042, 1.1666, 1.16573, 1.16362, 1.16415, 1.16361, 1.16405, 1.16321, 1.16073, 1.15701, 1.15675, 1.1597, 1.15972, 1.15975, 1.16025, 1.16266, 1.16253, 1.16357, 1.16666, 1.1681, 1.17044, 1.17255, 1.17447, 1.17505, 1.26066, 1.25436, 1.13726, 1.13683, 1.13638, 1.13783, 1.85147, 1.14889, 1.27122, 1.27208, 1.24752, 1.2946, 1.22732, 1.33407, 1.20803, 1.2064, 1.21138, 1.36925, 1.32657, 1.21806, 1.21896, 1.22085, 1.36826, 1.43994, 1.33234, 1.30758, 1.17859, 1.19107, 1.17809, 1.17777, 1.1822, 1.16416, 1.18971, 1.19581, 1.19951, 1.20864, 1.2054, 1.20578, 1.22807, 1.2199, 1.23603, 1.25075, 1.2753, 1.27523, 1.29108, 1.29816, 1.31698, 1.33951, 1.34956, 1.35354, 1.37736, 1.38103, 1.40072, 1.42189, 1.46418, 1.46178, 1.44742, 1.48881, 1.45851, 1.45944, 1.4694, 1.49353, 1.48583, 1.52333, 1.50672, 1.50547, 1.50606, 1.53522, 1.58381, 1.58553, 1.59245, 1.59154, 1.67934, 1.68018, 1.66606, 1.66827, 1.64731, 1.64153, 1.71426, 1.67398, 1.69905, 1.72756, 1.77592, 1.71953, 1.73009, 1.74315, 1.74036, 1.75167, 1.75257, 1.74233, 1.76266, 1.78463, 1.83689, 1.79418, 1.83602, 1.80044, 1.80068, 1.8014, 1.79974, 1.79863, 1.80666, 1.80715, 1.82544, 1.81069, 1.80803, 1.82169, 1.82768, 1.84739, 1.8527, 1.92718, 1.97133, 1.97012, 1.93976, 1.93972, 1.93911, 1.94957, 1.9315, 1.93081, 1.93113, 1.87675, 1.87582, 1.87579, 1.8756, 2.06781, 1.86823, 0.00443734, 1.81718, 1.76939, 1.80345, 1.803, 1.80206, 1.7792, 1.77816, 1.78729, 1.78549, 1.78613, 1.85562, 1.80643, 1.8064, 1.80301, 1.89948, 1.88612, 1.77737, 1.77672, 1.77573, 1.78283, 1.78206, 1.82255, 1.79205, 1.74818, 1.74714, 1.74743, 1.76601, 1.70035, 1.6998, 1.72, 1.759, 1.75263, 1.81021, 1.76044, 1.76373, 1.68752, 1.66925, 1.70762, 1.67481, 1.64168, 1.63658, 1.60648, 1.60956, 1.59635, 1.58665, 1.58019, 1.57193, 1.58106, 1.58026, 1.57977, 1.56472, 1.61007, 1.5334, 1.5545, 1.55273, 1.44667, 1.42016, 1.4122, 1.3695, 1.28311, 1.27011, 1.2537, 1.25845, 1.23388, 1.20714, 1.21187, 1.17023, 1.16404, 1.16078, 1.12968, 1.1618, 1.16164, 1.18803, 1.18877, 1.37179, 1.20568, 1.20809, 1.20618, 1.2051, 1.20531, 1.20011, 1.20121, 1.1925, 1.19076, 1.18693, 1.18283, 1.18088, 1.17631, 1.17351, 1.17163, 1.16957, 1.16707, 1.16337, 1.16347, 1.16321, 1.162, 1.15781, 1.15485, 1.15167, 1.15113, 1.14955, 1.15023, 1.14727, 1.14479, 1.15018, 1.15192, 1.15025, 1.14677, 1.14711, 1.14625, 1.14421, 1.14237, 1.14147, 1.14242, 1.1414, 1.14265, 1.14636, 1.13586, 1.13383, 1.13366, 1.13431, 1.13479, 1.13898, 1.13749, 1.13396, 1.13339, 1.13244, 1.12897, 1.108, 1.1085, 1.10317, 1.10353, 1.10923, 1.11114, 1.11967, 1.12181, 1.12233, 1.12405, 1.12553, 1.12579, 1.12343, 1.11853, 1.12566, 1.20469, 1.14405, 1.14546
1.1666, 1.1649, 1.16887, 1.1688, 1.16902, 1.17219, 1.16597, 1.16725, 1.17364, 1.17265, 1.17195, 1.17407, 1.17073, 1.1678, 1.16463, 1.16196, 1.16142, 1.16269, 1.16342, 1.16356, 1.16397, 1.16615, 1.16932, 1.17008, 1.17, 1.17318, 1.15125, 1.15093, 1.14516, 1.14124, 1.13987, 1.13941, 1.30254, 1.1428, 1.14475, 1.15338, 1.25956, 1.17057, 1.18069, 1.18301, 1.19703, 1.19684, 1.19833, 1.20455, 1.20571, 1.20874, 1.21022, 1.21138, 1.34596, 1.41969, 1.41319, 1.41599, 1.20236, 1.18764, 1.19141, 1.19134, 1.1685, 1.16398, 1.14979, 1.16349, 1.17247, 1.23707, 1.23779, 1.19051, 1.195, 1.21161, 1.2308, 1.24067, 1.2497, 1.3093, 1.27159, 1.27818, 1.30277, 1.31625, 1.34387, 1.33557, 1.37772, 1.36099, 1.3743, 1.38322, 1.39497, 1.47444, 1.45786, 1.46377, 1.45826, 1.45852, 1.48148, 1.49458, 1.48039, 1.48194, 1.48892, 1.50901, 1.53137, 1.5857, 1.52236, 1.56622, 1.5773, 1.65442, 1.65544, 1.60252, 1.64439, 1.60135, 1.68126, 1.70653, 1.67573, 1.69012, 1.7239, 1.72607, 1.71996, 1.72184, 1.8107, 1.75513, 1.75299, 1.74712, 1.74093, 1.75814, 1.74219, 1.75328, 1.74909, 1.76219, 1.75149, 1.83586, 1.7792, 1.78832, 1.78987, 1.80634, 1.80016, 1.8003, 1.83195, 1.83046, 1.83078, 1.82728, 1.8198, 1.81883, 1.82418, 1.82132, 1.81728, 1.82432, 1.84743, 1.94139, 1.88221, 1.91483, 1.98785, 1.88346, 1.9277, 1.98636, 1.89621, 1.92417, 1.87696, 1.87772, 1.85579, 1.84623, 1.83083, 1.83147, 1.81718, 1.81842, 1.80351, 1.77297, 1.79721, 1.7689, 1.76303, 1.80033, 1.82327, 1.80993, 1.81164, 1.81256, 1.80635, 1.80563, 1.78188, 1.78087, 1.77952, 1.77676, 1.77361, 1.77496, 1.77332, 1.773, 1.77216, 1.76246, 1.73053, 1.72209, 1.72104, 1.71774, 1.71615, 1.71773, 1.71944, 1.71758, 1.71089, 1.71056, 1.7399, 1.6847, 1.68343, 1.67136, 1.67043, 1.66667, 1.68554, 1.68535, 1.62763, 1.58556, 1.58449, 1.57832, 1.57663, 1.56144, 1.64426, 1.64424, 1.58824, 1.51037, 1.485, 1.45838, 1.44424, 1.42785, 1.48109, 1.43931, 1.36664, 1.30403, 1.28465, 1.27021, 1.2494, 1.23164, 1.21545, 1.1955, 1.19527, 1.1874, 1.17062, 1.17082, 1.14562, 1.171, 1.21075, 1.2124, 1.21266, 1.21335, 1.21299, 1.21328, 1.21435, 1.21481, 1.4311, 1.42749, 1.19587, 1.19488, 1.19548, 1.19704, 1.19098, 1.19144, 1.18358, 1.17466, 1.16334, 1.16323, 1.16035, 1.16407, 1.16306, 1.15571, 1.15536, 1.15937, 1.15744, 1.16083, 1.16043, 1.15804, 1.15358, 1.15099, 1.14911, 1.14635, 1.14544, 1.1422, 1.14285, 1.14268, 1.13947, 1.14152, 1.14378, 1.14386, 1.14524, 1.15245, 1.15407, 1.13726, 1.13194, 1.13248, 1.13227, 1.13318, 1.13242, 1.13002, 1.13015, 1.12858, 1.12651, 1.12639, 1.11618, 1.10857, 1.10766, 1.10521, 1.10706, 1.21712, 1.12477, 1.12167, 1.12297, 1.12271, 1.12446, 1.12537, 1.127, 1.11104, 1.09919, 1.09959, 1.08727, 1.08752
1.17252, 1.17245, 1.16872, 1.16738, 1.16836, 1.16981, 1.16537, 1.16589, 1.16966, 1.17017, 1.1716, 1.17244, 1.1726, 1.1724, 1.17142, 1.17131, 1.17251, 1.17384, 1.17366, 1.1708, 1.2465, 1.17438, 1.17488, 1.16224, 1.16045, 1.15096, 1.15037, 1.15095, 1.34549, 1.34425, 1.15072, 1.35381, 1.14994, 1.15048, 1.20323, 1.25098, 1.2499, 1.18149, 1.32419, 1.19006, 1.19207, 1.19556, 1.19782, 1.34994, 1.35723, 1.21311, 1.49387, 1.4558, 1.39639, 1.47546, 1.33413, 1.33299, 1.21367, 1.22225, 1.23211, 1.23767, 1.15646, 1.14068, 1.16018, 1.16431, 1.16737, 1.1763, 1.19234, 1.18705, 1.20199, 1.21903, 1.23035, 1.23742, 1.24005, 1.26375, 1.27515, 1.28183, 1.31819, 1.31732, 1.3538, 1.35342, 1.41106, 1.41161, 1.39655, 1.39696, 1.41712, 1.45716, 1.43658, 1.49355, 1.46833, 1.47229, 1.4888, 1.48732, 1.48743, 1.51796, 1.5191, 1.60909, 1.54633, 1.54489, 1.5718, 1.57678, 1.57599, 1.59667, 1.6057, 1.65469, 1.63343, 1.78129, 1.70664, 1.70676, 1.73956, 1.72513, 1.72358, 1.7518, 1.72663, 1.72663, 1.76573, 1.78046, 1.84558, 1.84266, 1.78872, 1.74998, 1.75004, 1.7509, 1.74974, 1.74941, 1.74694, 1.74721, 1.76916, 1.76238, 1.78722, 1.78654, 1.85015, 1.83298, 1.83365, 1.83394, 1.83237, 1.82133, 1.82723, 1.827, 1.82218, 1.81654, 1.81594, 1.81643, 1.81635, 1.82488, 1.8531, 1.84015, 1.9959, 2.18595, 1.85533, 1.84533, 1.85186, 1.84585, 1.86291, 1.85718, 1.858, 1.8474, 1.89372, 1.84232, 1.84164, 1.80165, 1.80005, 1.77534, 1.78362, 1.78202, 1.76795, 1.77624, 1.79243, 1.79149, 1.82747, 1.80375, 1.86881, 1.87623, 1.77431, 1.77258, 1.76821, 1.76887, 1.77007, 1.77696, 1.7762, 1.77483, 1.77388, 1.75286, 1.7409, 1.72388, 1.72336, 1.72505, 1.71618, 1.71599, 1.71815, 1.72341, 1.72323, 1.81129, 1.70108, 1.70039, 1.73147, 1.6745, 1.67385, 1.67295, 1.7607, 1.64947, 1.63121, 1.6196, 1.60146, 1.59302, 1.58075, 1.56026, 1.55564, 1.55063, 1.53765, 1.50436, 1.47094, 1.43536, 1.43315, 1.45045, 1.47474, 1.40899, 1.45731, 1.35729, 1.26906, 1.2671, 1.25012, 1.23698, 1.20762, 1.20706, 1.19156, 1.16013, 1.15105, 1.15842, 1.17379, 1.15707, 1.16697, 1.23914, 1.36, 1.21268, 1.21175, 1.21435, 1.21354, 1.21264, 1.42646, 1.42607, 1.19086, 1.19175, 1.19931, 1.1945, 1.20408, 1.17111, 1.16678, 1.16683, 1.17035, 1.17348, 1.17739, 1.17745, 1.23444, 1.16594, 1.16553, 1.16684, 1.16337, 1.1632, 1.16034, 1.1581, 1.15606, 1.15082, 1.15084, 1.14984, 1.14742, 1.14464, 1.13528, 1.13449, 1.12736, 1.12507, 1.14202, 1.14325, 1.15308, 1.15326, 1.13663, 1.13569, 1.13464, 1.1359, 1.14146, 1.14147, 1.14235, 1.13458, 1.13396, 1.12921, 1.12933, 1.1276, 1.12681, 1.12557, 1.11961, 1.11857, 1.11928, 1.12284, 1.12329, 1.12078, 1.12163, 1.12181, 1.12045, 1.12036, 1.12161, 1.11808, 1.0987, 1.09878, 1.08699, 1.08247
1.17186, 1.16804, 1.16423, 1.16312, 1.16318, 1.16448, 1.16676, 1.16843, 1.16842, 1.16489, 1.16733, 1.16911, 1.17075, 1.28618, 1.22247, 1.16513, 1.1679, 1.17004, 1.17043, 1.17747, 1.17947, 1.18483, 1.16804, 1.15789, 1.15766, 1.15966, 1.16031, 1.16136, 1.17159, 1.17235, 1.17288, 1.17173, 1.17731, 1.17191, 1.17308, 1.27396, 1.17897, 1.196, 1.18803, 1.18954, 1.19248, 1.19502, 1.20099, 1.42958, 1.20949, 1.20963, 1.20958, 1.32944, 1.34494, 1.34116, 1.34185, 1.40326, 1.14901, 1.13525, 1.12729, 1.12573, 1.22582, 1.16124, 1.14468, 1.16525, 1.19453, 1.19282, 1.21208, 1.20234, 1.22968, 1.24148, 1.24252, 1.24887, 1.27009, 1.27187, 1.27025, 1.28514, 1.29801, 1.31162, 1.34139, 1.34264, 1.36286, 1.38782, 1.39542, 1.41058, 1.41449, 1.43333, 1.43217, 1.46205, 1.57418, 1.51915, 1.51875, 1.51353, 1.51829, 1.5724, 1.5847, 1.58294, 1.54725, 1.54782, 1.57191, 1.58, 1.58012, 1.60208, 1.61244, 1.67567, 1.80403, 1.75675, 1.76935, 1.76834, 1.72643, 1.72562, 1.72358, 1.72439, 1.72848, 1.73749, 1.78648, 1.772, 1.77123, 1.76967, 1.76795, 1.76804, 1.77611, 1.76205, 1.75999, 1.75847, 1.76605, 1.74731, 1.77183, 1.79982, 1.79267, 1.78624, 1.81091, 1.82037, 1.81831, 1.81786, 1.81755, 1.81827, 1.81817, 1.81879, 1.81527, 1.81489, 1.81471, 1.81358, 1.82298, 1.84743, 1.81389, 1.80192, 1.81731, 2.18195, 1.81153, 1.81283, 1.82691, 1.80649, 1.80677, 1.80574, 1.80632, 1.83835, 1.84483, 1.81325, 1.79575, 1.80327, 1.82737, 1.80515, 1.7745, 1.78372, 1.78228, 1.79062, 1.79157, 1.7919, 1.77895, 1.77871, 1.77848, 1.78353, 1.78289, 1.78447, 1.76988, 1.76926, 1.76859, 1.77801, 1.77759, 1.77633, 1.88247, 1.75484, 1.74164, 1.74316, 1.73679, 1.79449, 1.71667, 1.72674, 1.68926, 1.72153, 1.73058, 1.71679, 1.69214, 1.69199, 1.69151, 1.68908, 1.68904, 1.68809, 1.70239, 1.73617, 1.65305, 1.63446, 1.59898, 1.61645, 1.57467, 1.58233, 1.57659, 1.57452, 1.48523, 1.48115, 1.47267, 1.44814, 1.44005, 1.43283, 1.48127, 1.45135, 1.41, 1.38249, 1.37146, 1.33062, 1.24688, 1.23235, 1.20652, 1.20072, 1.20081, 1.16165, 1.14001, 1.16376, 1.13273, 1.13301, 1.18742, 1.20738, 1.21226, 1.21226, 1.21056, 1.21083, 1.21148, 1.39176, 1.50383, 1.19863, 1.19549, 1.19303, 1.19341, 1.19158, 1.26375, 1.19218, 1.1644, 1.16945, 1.17092, 1.17004, 1.16872, 1.16589, 1.1651, 1.16444, 1.16319, 1.16314, 1.1632, 1.16294, 1.15999, 1.15918, 1.15992, 1.15993, 1.15526, 1.16528, 1.24883, 1.126, 1.12278, 1.12339, 1.12407, 1.12577, 1.26449, 1.1883, 1.15658, 1.16428, 1.2713, 1.14179, 1.14041, 1.14022, 1.13998, 1.1409, 1.14252, 1.14272, 1.136, 1.13559, 1.13062, 1.13094, 1.12962, 1.12777, 1.12622, 1.12415, 1.12267, 1.12343, 1.12211, 1.11732, 1.11554, 1.11586, 1.11133, 1.10971, 1.10749, 1.10864, 1.1062, 1.09731, 1.09561, 1.09667
1.17016, 1.17092, 1.16306, 1.16207, 1.16083, 1.16207, 1.16495, 1.16305, 1.16323, 1.16271, 1.16061, 1.1557, 1.15551, 1.15428, 1.15262, 1.15469, 1.16856, 1.17358, 1.17483, 1.17535, 1.17871, 1.16784, 1.16842, 1.16735, 1.16639, 1.1689, 1.17009, 1.16828, 1.1685, 1.17043, 1.1705, 1.17187, 1.17237, 1.17299, 1.17608, 1.18102, 1.1813, 1.1821, 1.18918, 1.19067, 1.19528, 1.20286, 1.20248, 1.20964, 1.21382, 1.2142, 1.2126, 1.21217, 1.32288, 1.3291, 1.32913, 1.32945, 1.2826, 1.21887, 1.21363, 1.13613, 1.19442, 1.1555, 1.19461, 1.17908, 1.18766, 1.1914, 1.20866, 1.22937, 1.25381, 1.23971, 1.25416, 1.26962, 1.26859, 1.29423, 1.33293, 1.28899, 1.30676, 1.32374, 1.32437, 1.35009, 1.36779, 1.38477, 1.42516, 1.40581, 1.44697, 1.45446, 1.45758, 1.48021, 1.48262, 1.56453, 1.52134, 1.60249, 1.61704, 1.62071, 1.52984, 1.52814, 1.52569, 1.52804, 1.56892, 1.58554, 1.64515, 1.61008, 1.6442, 1.64783, 1.64741, 1.74502, 1.77574, 1.75404, 1.72443, 1.71778, 1.71685, 1.78112, 1.74721, 1.78269, 1.78016, 1.78335, 1.76787, 1.77821, 1.77825, 1.77541, 1.77676, 1.76002, 1.75856, 1.75767, 1.789, 1.78243, 1.77852, 1.7903, 1.79184, 1.7796, 1.80594, 1.8059, 1.81433, 1.81445, 1.82307, 1.81792, 1.81816, 1.83522, 1.80442, 1.80283, 1.79612, 1.8028, 1.80249, 1.80233, 1.80325, 1.80338, 1.80583, 1.80618, 1.80283, 1.7869, 1.78564, 1.78577, 1.78525, 1.79373, 1.79796, 1.79744, 1.79424, 1.79351, 1.79878, 1.79881, 1.79772, 1.81131, 1.83062, 1.82103, 1.86118, 1.85217, 1.79223, 1.79237, 1.78121, 1.78002, 1.77843, 1.7752, 1.77438, 1.78556, 1.7861, 1.78327, 1.76929, 1.76469, 1.76498, 1.77535, 1.80264, 1.82494, 1.76594, 1.73519, 1.70731, 1.70489, 1.69735, 1.72793, 1.6995, 1.68707, 1.67519, 1.67521, 1.68613, 1.68561, 1.68964, 1.70202, 1.69635, 1.67916, 1.67814, 1.83276, 1.67846, 1.75345, 1.64865, 1.64859, 1.66459, 1.62483, 1.55544, 1.55075, 1.54608, 1.53092, 1.49908, 1.47092, 1.47806, 1.50767, 1.45998, 1.46045, 1.4014, 1.37531, 1.32195, 1.26641, 1.2329, 1.23386, 1.188, 1.18751, 1.19641, 1.17673, 1.15277, 1.15553, 1.16469, 1.22983, 1.23232, 1.22376, 1.22343, 1.40927, 1.41043, 1.21367, 1.21017, 1.20942, 1.50014, 1.19839, 1.19772, 1.19842, 1.35564, 1.24743, 1.31868, 1.257, 1.38254, 1.17368, 1.17351, 1.17199, 1.17259, 1.16956, 1.16752, 1.16745, 1.1662, 1.16756, 1.16616, 1.1635, 1.16382, 1.16439, 1.16282, 1.16034, 1.14262, 1.14689, 1.13917, 1.14254, 1.13571, 1.1352, 1.3097, 1.15266, 1.16549, 1.16619, 1.16628, 1.17817, 1.143, 1.13948, 1.13955, 1.1382, 1.13729, 1.1381, 1.13852, 1.13614, 1.13705, 1.13374, 1.13082, 1.13029, 1.1302, 1.13173, 1.12674, 1.11995, 1.11588, 1.11435, 1.11308, 1.1151, 1.1095, 1.1091, 1.10921, 1.10742, 1.10616, 1.10434, 1.0977, 1.09757, 1.10114, 1.10274
1.16389, 1.16335, 1.15993, 1.15978, 1.15719, 1.15838, 1.15908, 1.16079, 1.16313, 1.15658, 1.15633, 1.15624, 1.15614, 1.15733, 1.15752, 1.1573, 1.15962, 1.1701, 1.17138, 1.1729, 1.17347, 1.17367, 1.18027, 1.17671, 1.17084, 1.1683, 1.17012, 1.17109, 1.17331, 1.17341, 1.17381, 1.17197, 1.17123, 1.17034, 1.17364, 1.17495, 1.18026, 1.35429, 1.194, 1.19594, 1.19679, 1.21078, 1.21515, 1.21644, 1.21594, 1.21863, 1.44022, 1.22711, 1.22566, 1.22556, 1.23238, 1.23216, 1.35634, 1.21041, 1.19258, 1.2157, 1.18696, 1.19807, 1.18459, 1.17472, 1.18591, 1.21721, 1.24114, 1.24714, 1.24856, 1.25026, 1.26185, 1.26421, 1.28212, 1.29687, 1.2918, 1.30458, 1.35084, 1.34884, 1.37415, 1.41766, 1.39555, 1.39686, 1.42024, 1.42639, 1.46516, 1.46786, 1.5345, 1.53393, 1.50955, 1.60814, 1.51901, 1.52332, 1.54611, 1.55073, 1.55176, 1.55161, 1.55569, 1.63336, 1.58567, 1.6338, 1.60075, 1.71984, 1.71966, 1.64801, 1.65557, 1.6782, 1.69857, 1.71329, 1.7235, 1.71564, 1.72748, 1.75316, 1.74872, 1.78504, 1.75604, 1.79233, 1.79047, 1.77836, 1.74375, 1.79305, 1.78546, 1.77458, 1.76773, 1.76937, 1.76927, 1.77035, 1.76795, 1.96231, 1.96427, 1.81079, 1.81123, 1.80336, 1.79714, 1.83794, 1.83029, 1.83019, 1.9225, 1.92233, 1.83783, 1.83066, 1.79641, 1.79167, 1.79239, 1.79173, 1.7961, 1.79571, 1.79491, 1.80342, 1.80348, 1.80627, 1.8029, 1.80222, 1.77253, 1.77207, 1.77226, 1.77246, 1.80472, 1.7861, 1.78498, 1.86916, 1.86662, 1.81883, 1.93504, 1.91894, 1.94083, 0.0044096, 2.08869, 2.08489, 1.8247, 1.82636, 1.86269, 1.82329, 1.85878, 1.85603, 1.84978, 1.72431, 1.74411, 1.74503, 1.76733, 1.74564, 1.74514, 1.74549, 1.74715, 1.80254, 1.70387, 1.79898, 1.70678, 1.7064, 1.70936, 1.67689, 1.67719, 1.67766, 1.67571, 1.66665, 1.66486, 1.65131, 1.70718, 1.66817, 1.6601, 1.68866, 1.69628, 1.6624, 1.63101, 1.72764, 1.63155, 1.60943, 1.58292, 1.67255, 1.57094, 1.57396, 1.53075, 1.50579, 1.51641, 1.49626, 1.437, 1.40574, 1.42392, 1.42327, 1.30905, 1.30659, 1.26404, 1.24807, 1.22494, 1.20316, 1.18657, 1.16253, 1.18498, 1.17735, 1.23577, 1.22237, 1.21073, 1.22268, 1.21961, 1.22002, 1.21827, 1.46751, 1.21096, 1.20665, 1.20528, 1.20461, 1.20268, 1.20857, 1.1929, 1.192, 1.19107, 1.18609, 1.18321, 1.1839, 1.18405, 1.18063, 1.17482, 1.17376, 1.17183, 1.17126, 1.17034, 1.17289, 1.16998, 1.1659, 1.16641, 1.16446, 1.16421, 1.15305, 1.15252, 1.15501, 1.15368, 1.14974, 1.14852, 1.14589, 1.14731, 1.16849, 1.16885, 1.16785, 1.1709, 1.26186, 1.13643, 1.13545, 1.1355, 1.13632, 1.13708, 1.13514, 1.13464, 1.13556, 1.13563, 1.13563, 1.13518, 1.13625, 1.13598, 1.13243, 1.13008, 1.16823, 1.11508, 1.11479, 1.11271, 1.11007, 1.11107, 1.11123, 1.10974, 1.1104, 1.10922, 1.10813, 1.10871, 1.11336, 1.11382, 1.11028
1.17111, 1.16952, 1.15837, 1.15985, 1.15963, 1.16013, 1.16369, 1.17067, 1.17047, 1.17277, 1.16933, 1.16663, 1.17445, 1.17258, 1.16985, 1.25203, 1.17564, 1.17351, 1.17502, 1.17608, 1.17682, 1.17893, 1.18444, 1.17846, 1.17754, 1.17758, 1.17684, 1.1758, 1.17508, 1.17673, 1.17679, 1.17518, 1.17698, 1.17422, 1.17392, 1.17574, 1.17729, 1.17917, 1.17939, 1.1812, 1.45841, 1.38776, 1.21526, 1.21845, 1.21948, 1.2218, 1.22506, 1.2255, 1.22605, 1.23034, 1.22315, 1.22338, 1.39127, 1.24013, 1.20251, 1.19441, 1.23287, 1.18885, 1.19451, 1.18292, 1.19967, 1.2223, 1.22624, 1.24952, 1.2834, 1.26196, 1.2692, 1.32002, 1.31672, 1.32544, 1.32668, 1.32038, 1.33865, 1.37518, 1.40467, 1.39443, 1.39583, 1.41595, 1.43683, 1.43673, 1.47186, 1.48841, 1.48834, 1.58809, 1.55387, 1.51061, 1.51136, 1.50642, 1.50556, 1.58091, 1.572, 1.56542, 1.56536, 1.66582, 1.67197, 1.67255, 1.62964, 1.62055, 1.64426, 1.62791, 1.6381, 1.69468, 1.75532, 1.71013, 1.74471, 1.74131, 1.74486, 1.74468, 1.74514, 1.75871, 1.75561, 1.75593, 1.75243, 1.75115, 1.74637, 1.75534, 1.7722, 1.77665, 1.7758, 1.78022, 1.78363, 1.78569, 1.82113, 1.80309, 1.81005, 1.81787, 1.81805, 1.81701, 1.81488, 1.94196, 1.82365, 1.83769, 1.83106, 1.8282, 1.82776, 1.82764, 1.82517, 1.82773, 1.80776, 1.80767, 1.79363, 1.79651, 1.79569, 1.79943, 1.80838, 1.88661, 1.7748, 1.77455, 1.7746, 1.77361, 1.79299, 1.77204, 1.81096, 1.80029, 1.8482, 1.8187, 1.82358, 2.1128, 1.91083, 1.92898, 1.96748, 1.95327, 1.98354, 2.02477, 2.11647, 1.85195, 1.87974, 1.88373, 1.76531, 1.75786, 1.75762, 1.72674, 1.7248, 1.7316, 1.7326, 1.73212, 1.73416, 1.73862, 1.71066, 1.71014, 1.70272, 1.78233, 1.78286, 1.786, 1.78596, 1.78928, 1.70276, 1.70662, 1.69622, 1.6877, 1.67869, 1.71352, 1.69644, 1.66984, 1.72058, 1.65388, 1.60609, 1.60467, 1.62397, 1.58858, 1.58667, 1.58687, 1.6128, 1.60276, 1.59045, 1.59183, 1.52795, 1.54926, 1.47481, 1.4881, 1.45012, 1.41424, 1.45662, 1.36981, 1.31535, 1.30563, 1.25805, 1.23437, 1.22755, 1.16269, 1.17071, 1.16339, 1.17742, 1.16143, 1.18354, 1.20304, 1.21761, 1.22487, 1.22267, 1.22228, 1.38642, 1.53182, 1.21079, 1.20915, 1.20758, 1.20437, 1.20445, 1.19978, 1.1949, 1.19434, 1.19261, 1.18885, 1.18588, 1.18447, 1.18383, 1.17792, 1.17323, 1.17025, 1.17041, 1.16878, 1.16846, 1.16917, 1.1667, 1.16518, 1.16596, 1.16431, 1.1629, 1.16031, 1.16092, 1.16448, 1.16411, 1.16313, 1.1605, 1.16013, 1.17413, 1.17354, 1.16178, 1.16141, 1.14879, 1.14786, 1.14087, 1.13805, 1.24906, 1.15056, 1.1498, 1.1497, 1.14333, 1.14246, 1.14302, 1.13942, 1.1398, 1.12739, 1.1278, 1.12406, 1.12331, 1.12077, 1.11908, 1.11818, 1.11711, 1.11532, 1.11478, 1.1147, 1.11464, 1.11279, 1.11533, 1.26193, 1.12839, 1.11881, 1.11909, 1.11809
1.16434, 1.16362, 1.16317, 1.16398, 1.1646, 1.17016, 1.17018, 1.17226, 1.17332, 1.17528, 1.17535, 1.17772, 1.17857, 1.17983, 1.18263, 1.18703, 1.18793, 1.18833, 1.17418, 1.18285, 1.18264, 1.18024, 1.1781, 1.17789, 1.17839, 1.18693, 1.18771, 1.18213, 1.18384, 1.18077, 1.18176, 1.18299, 1.18756, 1.18879, 1.18822, 1.18982, 1.18846, 1.39229, 1.47625, 1.1857, 1.18936, 1.19119, 1.36869, 1.37745, 1.22472, 1.22582, 1.22823, 1.22911, 1.22062, 1.39629, 1.21556, 1.2204, 1.23214, 1.2329, 1.16676, 1.20218, 1.18103, 1.20035, 1.19202, 1.206, 1.25744, 1.22583, 1.22499, 1.2235, 1.26165, 1.26167, 1.32142, 1.30439, 1.29299, 1.32076, 1.3209, 1.33686, 1.3464, 1.37905, 1.38139, 1.39272, 1.41249, 1.44035, 1.43974, 1.44618, 1.48136, 1.48434, 1.49316, 1.51519, 1.51231, 1.51214, 1.51149, 1.5302, 1.52712, 1.53705, 1.52253, 1.55409, 1.54856, 1.66616, 1.62064, 1.65179, 1.73213, 1.73147, 1.66719, 1.66812, 1.74435, 1.70263, 1.74764, 1.7493, 1.77679, 1.79248, 1.79312, 1.79161, 1.79587, 1.75636, 1.76659, 1.76827, 1.78204, 1.79094, 1.78149, 1.76033, 1.77366, 1.77904, 1.78037, 1.78201, 1.78056, 1.81775, 1.89977, 1.94388, 1.81679, 1.81728, 1.8173, 1.81422, 1.81319, 1.81193, 1.81216, 1.84732, 1.8335, 1.83293, 1.83451, 1.83462, 1.81969, 1.81981, 1.81945, 1.83783, 1.94638, 1.82836, 1.82686, 1.79961, 1.79832, 1.79834, 1.88309, 1.87974, 1.86876, 1.89955, 1.84737, 1.79375, 1.79234, 1.8106, 1.81266, 1.81385, 1.8344, 0.00448776, 1.91315, 1.87941, 1.87887, 1.95895, 1.9514, 1.98649, 1.98943, 1.96813, 1.76661, 1.76583, 1.76482, 1.76241, 1.76166, 1.80954, 1.72576, 1.7244, 1.72344, 1.73311, 1.7263, 1.72475, 1.75164, 2.00493, 1.73935, 1.73765, 1.7826, 1.74443, 1.72827, 1.72254, 1.79375, 1.71621, 1.70632, 1.68339, 1.69176, 1.68599, 1.68604, 1.71829, 1.73445, 1.64511, 1.6176, 1.59876, 1.57611, 1.5747, 1.57232, 1.54745, 1.55423, 1.54736, 1.53677, 1.52736, 1.48492, 1.47164, 1.47808, 1.5119, 1.44062, 1.37295, 1.37581, 1.33835, 1.29781, 1.29911, 1.24093, 1.25413, 1.26293, 1.24688, 1.17394, 1.15555, 1.15704, 1.16611, 1.20184, 1.20392, 1.22582, 1.22017, 1.22587, 1.22264, 1.2217, 1.21995, 1.21428, 1.21423, 1.21363, 1.2141, 1.20897, 1.21092, 1.4823, 1.2107, 1.23716, 1.21247, 1.20983, 1.19415, 1.20828, 1.33518, 1.21202, 1.2128, 1.21424, 1.21568, 1.17219, 1.17179, 1.17115, 1.17083, 1.17112, 1.1717, 1.17786, 1.16672, 1.1674, 1.17001, 1.17015, 1.16988, 1.16831, 1.16457, 1.17392, 1.16782, 1.17047, 1.1565, 1.15208, 1.14883, 1.14806, 1.14744, 1.15183, 1.15223, 1.15046, 1.14797, 1.14408, 1.14264, 1.13746, 1.13817, 1.12945, 1.12872, 1.12453, 1.1238, 1.12236, 1.12191, 1.12143, 1.12182, 1.12274, 1.12181, 1.35536, 1.32305, 1.24416, 1.12926, 1.12942, 1.12875, 1.12544, 1.12605, 1.1264, 1.30212
1.15882, 1.15904, 1.1656, 1.16666, 1.16704, 1.16726, 1.16824, 1.17355, 1.17389, 1.17047, 1.17092, 1.18428, 1.18474, 1.18522, 1.18484, 1.18734, 1.18753, 1.18411, 1.19467, 1.19465, 1.19589, 1.19031, 1.18877, 1.18789, 1.18868, 1.1882, 1.18844, 1.18634, 1.18421, 1.1911, 1.19791, 1.19797, 1.19806, 1.19617, 1.19676, 1.19654, 1.19755, 1.19785, 1.19913, 1.2006, 1.20054, 1.20125, 1.20209, 1.34976, 1.36621, 1.22942, 1.22669, 1.22604, 1.2277, 1.2263, 1.21153, 1.21195, 1.2461, 1.17612, 1.18124, 1.17598, 1.19283, 1.17729, 1.20184, 1.20204, 1.21962, 1.22179, 1.22621, 1.23948, 1.26548, 1.26725, 1.27434, 1.29918, 1.29795, 1.33344, 1.32629, 1.34045, 1.34856, 1.36351, 1.4005, 1.39025, 1.41525, 1.43314, 1.43482, 1.4673, 1.48226, 1.51375, 1.47098, 1.48127, 1.48763, 1.51622, 1.50906, 1.5575, 1.55815, 1.54248, 1.55056, 1.56871, 1.56947, 1.65313, 1.64035, 1.65598, 1.66796, 1.69372, 1.69148, 1.77359, 1.77359, 1.73748, 1.75166, 1.80999, 1.83048, 1.83738, 1.8444, 1.83861, 1.81085, 1.78935, 1.79912, 1.8355, 1.83569, 1.79779, 1.78404, 1.78643, 1.79394, 1.7903, 1.78335, 1.78318, 1.78226, 1.92308, 1.83775, 1.83769, 1.88446, 1.88155, 1.81363, 1.81363, 1.81701, 1.81682, 1.81629, 1.81662, 1.8403, 1.84111, 1.841, 1.95557, 1.84354, 1.83455, 1.81154, 1.8104, 1.81083, 1.82787, 1.82786, 1.91605, 1.8215, 1.90744, 1.90609, 1.90392, 1.89807, 1.91671, 1.85959, 1.77994, 1.77997, 1.79538, 1.79597, 1.79668, 1.82766, 1.8207, 1.82504, 1.81595, 1.76672, 1.79958, 2.05172, 1.96848, 1.97532, 1.89216, 1.76032, 1.76503, 1.76794, 1.76694, 1.76631, 1.72649, 1.72996, 1.73679, 1.72434, 1.72663, 1.72473, 1.73046, 1.73037, 1.72961, 1.72822, 1.73905, 1.73963, 1.73814, 1.74559, 1.80247, 1.70384, 1.70335, 1.67259, 1.67038, 1.68165, 1.68127, 1.69554, 1.67445, 1.67513, 1.67839, 1.64108, 1.65098, 1.64863, 1.57977, 1.62642, 1.55103, 1.54405, 1.51026, 1.50733, 1.48901, 1.48846, 1.46627, 1.46683, 1.46901, 1.42355, 1.38928, 1.37463, 1.37259, 1.36746, 1.28425, 1.24268, 1.25384, 1.25146, 1.17138, 1.16844, 1.17548, 1.18408, 1.17773, 1.24939, 1.21147, 1.21197, 1.21574, 1.21521, 1.49327, 1.50468, 1.50341, 1.43376, 1.21146, 1.21208, 1.50238, 1.21531, 1.21584, 1.21633, 1.20921, 1.39031, 1.29661, 1.25612, 1.35009, 1.19261, 1.198, 1.191, 1.18626, 1.18713, 1.1859, 1.18374, 1.18227, 1.18198, 1.18382, 1.18415, 1.1805, 1.17961, 1.17821, 1.17238, 1.17111, 1.17161, 1.2842, 1.18426, 1.18286, 1.18251, 1.26442, 1.15614, 1.15289, 1.15784, 1.15846, 1.15471, 1.26063, 1.15373, 1.15799, 1.1565, 1.15498, 1.14975, 1.30263, 1.14272, 1.27033, 1.30155, 1.14088, 1.15391, 1.13952, 1.13733, 1.13878, 1.26601, 1.13904, 1.14256, 1.14288, 1.14339, 1.14212, 1.13561, 1.13433, 1.13234, 1.13571, 1.23799, 1.26386, 1.28455, 1.28825
1.16046, 1.16097, 1.17178, 1.17691, 1.178, 1.17984, 1.1771, 1.17732, 1.17464, 1.17212, 1.17854, 1.1811, 1.18594, 1.1879, 1.18744, 1.18813, 1.18087, 1.18229, 1.18422, 1.18776, 1.18962, 1.1916, 1.19266, 1.19793, 1.19474, 1.19254, 1.19403, 1.18722, 1.18716, 1.18735, 1.18809, 1.19258, 1.19977, 1.2042, 1.20242, 1.20303, 1.20513, 1.20257, 1.20276, 1.20491, 1.20467, 1.20536, 1.20876, 1.41073, 1.43651, 1.43405, 1.4295, 1.45064, 1.21506, 1.21532, 1.22271, 1.22353, 1.19775, 1.19762, 1.21831, 1.20544, 1.19263, 1.20584, 1.19783, 1.21258, 1.23243, 1.21092, 1.21611, 1.21893, 1.25638, 1.26694, 1.27194, 1.29205, 1.28509, 1.34146, 1.3358, 1.33435, 1.35768, 1.35478, 1.36412, 1.3932, 1.42611, 1.42601, 1.43768, 1.44748, 1.46027, 1.46358, 1.46806, 1.47716, 1.48511, 1.50713, 1.50729, 1.55493, 1.55844, 1.59589, 1.58709, 1.6707, 1.64035, 1.66068, 1.66037, 1.6754, 1.67436, 1.68848, 1.76001, 1.70421, 1.72457, 1.7483, 1.74898, 1.76713, 1.83419, 1.79526, 1.83754, 1.8379, 1.82775, 1.84587, 1.86849, 1.80958, 1.80968, 1.87379, 1.79728, 1.79061, 1.79063, 1.78893, 1.88778, 1.87222, 1.82016, 1.83364, 1.83348, 1.83128, 1.83084, 1.82821, 1.82736, 1.82703, 1.82602, 1.83736, 1.83991, 1.82305, 1.82688, 1.82401, 1.85289, 1.79371, 1.79977, 1.79965, 1.80029, 1.82359, 1.80963, 1.80794, 1.81419, 1.81268, 1.81719, 1.8765, 1.99381, 1.92015, 1.91614, 1.83155, 1.81525, 1.81584, 1.80257, 1.79223, 1.79293, 1.79648, 1.78927, 1.79787, 1.82045, 1.80586, 1.81229, 1.76631, 1.77458, 1.77471, 1.77484, 1.77342, 1.85172, 1.76452, 1.76456, 1.7681, 1.76855, 1.79927, 1.77307, 1.82859, 1.82753, 1.73892, 1.72448, 1.72358, 1.72287, 1.71993, 1.72683, 1.731, 1.72324, 1.73808, 1.81749, 1.70918, 1.70655, 1.70603, 1.67133, 1.66513, 1.66407, 1.6748, 1.67767, 1.67609, 1.6783, 1.67168, 1.65566, 1.65691, 1.6042, 1.60349, 1.60437, 1.5551, 1.5375, 1.52287, 1.48364, 1.48228, 1.48185, 1.53588, 1.51015, 1.51707, 1.48155, 1.44779, 1.4063, 1.40531, 1.29875, 1.299, 1.27652, 1.21617, 1.18114, 1.18718, 1.19214, 1.18222, 1.18803, 1.19856, 1.43455, 1.20522, 1.205, 1.2044, 1.20395, 1.21126, 1.21152, 1.20647, 1.20569, 1.20454, 1.20487, 1.20563, 1.52362, 1.32971, 1.28394, 1.20559, 1.19694, 1.19554, 1.18763, 1.18471, 1.18348, 1.18388, 1.18262, 1.18172, 1.18445, 1.1849, 1.18444, 1.18799, 1.18963, 1.19097, 1.19016, 1.18942, 1.18884, 1.1861, 1.18032, 1.18034, 1.17512, 1.18463, 1.18793, 1.18648, 1.18638, 1.17256, 1.28245, 1.15978, 1.16305, 1.26655, 1.25841, 1.18115, 1.1814, 1.17385, 1.17376, 1.17215, 1.29968, 1.29665, 1.16146, 1.16534, 1.15285, 1.14749, 1.14978, 1.14984, 1.15002, 1.14939, 1.14874, 1.14669, 1.14518, 1.14301, 1.14237, 1.14119, 1.19223, 1.25489, 1.24826, 1.16485, 1.24427, 1.25594, 1.20888, 1.20547
1.16712, 1.23299, 1.178, 1.17742, 1.17925, 1.18095, 1.1846, 1.18328, 1.18741, 1.18768, 1.19003, 1.18982, 1.19011, 1.19023, 1.18435, 1.18721, 1.18702, 1.18344, 1.18411, 1.1842, 1.18882, 1.19081, 1.19148, 1.19254, 1.19443, 1.19507, 1.19817, 1.19892, 1.3035, 1.19341, 1.19412, 1.30595, 1.20278, 1.20386, 1.20431, 1.20477, 1.2069, 1.20888, 1.20973, 1.20997, 1.21518, 1.21507, 1.43937, 1.30219, 1.42366, 1.2432, 1.37567, 1.37732, 1.40297, 1.41822, 1.43182, 1.44858, 1.20798, 1.19148, 1.17531, 1.18241, 1.17699, 1.17796, 1.21255, 1.21624, 1.20845, 1.21206, 1.23971, 1.24068, 1.24554, 1.27164, 1.29443, 1.29258, 1.29513, 1.31283, 1.36834, 1.35054, 1.36141, 1.36424, 1.37434, 1.38541, 1.40224, 1.42096, 1.43838, 1.5204, 1.46957, 1.46498, 1.46499, 1.47084, 1.4995, 1.50968, 1.56231, 1.56347, 1.57814, 1.66659, 1.66528, 1.65907, 1.66316, 1.6635, 1.65616, 1.67658, 1.67003, 1.68874, 1.68999, 1.69668, 1.7144, 1.76139, 1.76131, 1.76119, 1.74265, 1.74178, 1.74112, 1.76961, 1.83798, 1.82233, 1.86858, 1.8689, 1.8652, 1.86496, 1.84139, 1.84188, 1.79252, 1.79721, 1.88689, 1.84276, 1.8247, 1.83783, 1.83598, 1.836, 1.83135, 1.83103, 1.83092, 1.84081, 1.84042, 1.83986, 1.82849, 1.82784, 1.82683, 1.80023, 1.79965, 1.79638, 1.85061, 1.78319, 1.85115, 1.80137, 1.80259, 1.80307, 1.81009, 1.86235, 1.83184, 1.82279, 1.9822, 1.86474, 1.86331, 1.898, 1.83564, 1.84129, 1.82641, 1.83554, 1.81055, 1.80951, 1.80945, 1.81042, 1.80243, 1.8028, 1.80188, 1.79958, 1.75117, 1.75115, 1.77545, 1.77549, 1.77566, 1.7831, 1.89432, 1.79302, 1.78668, 1.7869, 1.78639, 1.78621, 1.77628, 1.76483, 1.76018, 1.71175, 1.71153, 1.71097, 1.70968, 1.7248, 1.74227, 1.71293, 1.72805, 1.66169, 1.66141, 1.65994, 1.66998, 1.6697, 1.66803, 1.66202, 1.68281, 1.68222, 1.67241, 1.87975, 1.69549, 1.67757, 1.61063, 1.69184, 1.66577, 1.52521, 1.53349, 1.50274, 1.47774, 1.47423, 1.47207, 1.49148, 1.50449, 1.50932, 1.47736, 1.41525, 1.43217, 1.34728, 1.26705, 1.26115, 1.22101, 1.21721, 1.18504, 1.18203, 1.21659, 1.21524, 1.24467, 1.19981, 1.36098, 1.39116, 1.43971, 1.56841, 1.51042, 1.49577, 1.21108, 1.2081, 1.20665, 1.20519, 1.20467, 1.20578, 1.2086, 1.20905, 1.20978, 1.20495, 1.20187, 1.19011, 1.19113, 1.18328, 1.18434, 1.18449, 1.18537, 1.18452, 1.18421, 1.1859, 1.18974, 1.19366, 1.20006, 1.20061, 1.20535, 1.2054, 1.20632, 1.20989, 1.2098, 1.21992, 1.20134, 1.19903, 1.19781, 1.19781, 1.18923, 1.18821, 1.18633, 1.18657, 1.18211, 1.18251, 1.18336, 1.18355, 1.18209, 1.18383, 1.18436, 1.17896, 1.17156, 1.1704, 1.17051, 1.15685, 1.15955, 1.15533, 1.15119, 1.15327, 1.15295, 1.15268, 1.1514, 1.21968, 1.21404, 1.21574, 1.21237, 1.24462, 1.23284, 1.2236, 1.21347, 1.21274, 1.21131, 1.21181, 1.20198, 1.20369
