1.92040715752817,1.92143314799571,1.81239316108447,1.8114906694695,1.91959016511884,1.81150016938124,1.99538996086416,1.81112967282352,1.86003521844288,1.81416964457919,1.81262115896614,1.81439764246086,1.81787461015641,1.86345518666801,1.95295385513733,1.94517342742516,2.02804115750242,1.94516392751343,1.86722665162739,1.86661865727626,1.86403468128394,1.93584451409994,1.95126287084824,1.93146505478943,1.92950807297172,2.02528618309884,2.04052404152415,1.85118130070449,2.03136612661019,1.92192714340601,1.91847867544567,1.91617019689371,1.91459321154545,1.91180973740667,2.03265811460635,1.90969125708943,1.90912126238524,1.90551129592538,1.9053592973376,1.83110798720532,1.83195347934987,1.94961938611783,1.90032434411727,1.8974933704198,1.89615388286496,1.89712287386208,1.82503754360571,1.82461954748931,1.89747437059633,1.89893735700374,1.90016284561775,1.90064734111631,1.82899900679982,1.90239532487582,1.90615728992346,1.90742077818441,1.93784899547634,1.91065074817482,1.93515102054318,1.93907448409035,1.90807627209423,1.9064802869225,1.90699328215627,1.97734012856486,1.98437006324985,1.97584864242224,1.97307466819519,1.97601014092176,1.97384416104584,1.90339281560815,1.97943010914689,1.89744587086112,1.977948122916,1.96828671268,1.98256508001992,1.9766466350081,1.8967903769513,1.89593538489502,1.98055109873179,1.97817612079767,1.97702663147756,1.97697913191888,1.9831065749889,1.89192642214223,1.8905394350287,1.97853711744366,1.9771406304184,1.98750503412289,1.8895229444729,1.98596604842158,1.98176708743406,1.96983519829305,1.97570614374619,1.88433599266478,1.9694837015588,1.97246667384405,1.96560773757032,1.96301426166626,1.88038402938241,1.94914439053101,1.97392016033973,1.94915389044274,1.9478144028879,1.94579092168803,1.95758981206473,1.96367925548781,1.87468408234053,1.94334944437176,1.95204186361063,1.9543503421626,1.95254535893267,1.95332435169506,1.95523383395409,1.86542166839746,1.86357868552059,1.86294219143424,1.86109920855737,1.86102320926348,1.8603012159715,1.93188305090583,1.92970757111818,1.88763246203734,1.97978160588114,1.87299309805143,1.79790579568635,1.84449336284201,1.79462832613726,1.7936213354932,1.9858140498338,1.79163585394027,1.79212034943883,1.88743296389087,1.78808288695083,1.88796495894812,1.78871938103718,1.79015386770938,1.78801638756868,1.9663582305975,1.88684396936321,1.9728181705783,1.8743895850767,1.87334459478568,1.78451092013792,1.78520441369468,1.78426392243277,1.87740105709716,1.78338993055301,1.87577657219022,1.87381009046077,1.78006496144525,1.78060645641423,1.77930496850633,1.77906747071292,1.779713464711,1.77759498439376,1.77776598280502,1.86948763062068,1.63445031434858,1.80364374237518,1.63063134983051,1.67634492510643,1.6259383934327,1.6244279074666,1.62273692317751,1.62087494047716,1.61902245768854,1.61880395971861,1.6177874691628,1.61563098919862,1.79395383240397,1.78977387123992,1.61400650429169,1.79075236214878,1.71002211221223,1.60938004727602,1.60775556236909
1.81454964104865,2.08146866110835,1.92117665037883,1.92419762231103,1.9246061185157,1.80994218385646,1.91617019689371,1.85945572382696,1.85905672753403,1.86052921385318,1.81137667052866,1.98781853121019,1.90891226432704,1.91014725285278,1.95860630262054,1.94329244490134,1.94360594198864,1.94277944966757,1.93892248550256,1.9505218777328,1.94736790703629,1.9354170180718,1.86165020343808,1.93116105761386,1.93206354922883,1.92687659742071,1.95086387455531,1.95074037570274,1.92292463413834,1.84655484368883,1.84476886028237,1.91380471887133,1.9503413794098,1.95159536775902,1.9124177317578,1.911220742879,1.83455645516566,2.02435519174867,1.94960988620609,1.90183483008337,1.90041934323463,1.90053334217547,1.94696891074336,1.82594003522068,1.94574342212935,1.82406855260859,1.89962135064877,1.89764536900758,1.89660037871657,1.89752187015501,1.89723687280291,2.02283520587083,1.82739352171636,1.82693752595301,1.93904598435514,1.93687050456748,1.93698450350832,1.90985275558895,1.91366222019528,2.01522577656992,1.97234317499148,2.00205889890317,1.98356257075225,1.9754496461293,1.97489865124859,1.99295798345962,1.97262817234357,1.97854661735539,1.89912735523847,1.89939335276709,1.8970753743034,1.89618238260017,1.97330266607686,1.98185258663969,1.97940160941168,1.97679863359588,1.89603988392412,1.8973888713907,1.96701372450731,1.89455789769323,1.97518364860068,1.97540214657062,1.98174808761059,1.8955933880725,1.89154642567277,1.96880920782551,1.97812862123899,1.98114959317119,1.98166258840496,1.98176708743406,1.97603864065696,1.97484165177817,1.88414599443005,1.88443099178215,1.97194417869854,1.88261650864048,1.97222917605064,1.96643422989139,1.88026053052984,1.95937579547119,1.88027003044157,1.88008003220684,1.87789505250745,1.96798271550444,1.97172568072861,1.97895511356006,1.97263767225531,1.96461974674972,1.87064661985252,1.95848280376796,1.95815980676892,1.95654482177372,1.86452867669424,1.86394918207831,1.86393968216657,1.86156470423246,1.8634266869328,1.86224869787748,1.86080471129354,1.93457152592726,1.93524601966055,1.98195708566879,1.98586154939248,1.79935928218203,1.79721230212958,1.7959393139569,1.79497032295977,1.79267134431955,1.79269034414302,1.79227234802662,1.7916168541168,1.88688196901016,1.78623040416222,1.78891887918364,1.78866238156676,1.78801638756868,1.78637290283827,1.78675289930773,1.8844974911643,1.85728024403931,1.78530891272378,1.78583140786929,1.87373409116688,1.7842449226093,1.78481491731348,1.96885670738419,1.77944746718238,1.77910547035986,1.78231644052679,1.78205044299817,1.96875220835509,1.96460074692625,1.7751820068127,1.77847847618526,1.77784198209891,1.77688249101353,1.77582800081078,1.63090684727087,1.80283624987758,1.62730638072275,1.80135426364669,1.80112626576501,1.62426640896708,1.62114093800578,1.619582952481,1.61821496519094,1.6171604749882,1.61499449511228,1.78805438721562,1.61510849405312,1.70868262465738,1.78922287635921,1.61210652194439,1.61059603597829,1.60879105274836,1.60794556060382
1.80985668465083,1.92222164066984,1.80915369118233,1.80964768659263,1.80963818668089,1.85720424474541,1.80900169259455,1.97230517534453,1.85799273741954,1.96728922194767,1.89624888198232,1.81291565622997,1.98704903835954,1.94582892133498,1.94595242018755,1.95258335857961,1.94386243960553,2.02844015379535,1.93983447702926,1.93756399812425,1.93536001860138,1.86032021579498,1.93080006096788,1.94943888779484,1.92920407579615,1.94979988444082,1.92623060342263,1.92336163007822,1.91997966150003,1.84694434007002,1.91492570845623,1.91362422054833,1.91267422937469,1.91125874252595,2.02393719563227,2.0382440627074,1.91213273440571,1.91088824596823,2.01940573773397,1.90451380519305,1.94576242195282,1.82723202321684,1.89977334923655,1.89655287915789,1.82471454660667,1.82286206381806,1.8986143600047,2.03438709854239,1.9423709534629,1.89642938030531,1.89933635329668,1.89853836071081,1.82772601862714,2.01856974550116,1.83234297573106,1.83469895384171,1.83429995754878,2.03041613543654,2.03143262599234,1.93200654975841,1.90698378224454,1.98456006148458,1.97521214833589,1.98772353209283,1.97810962141552,1.98163408866975,1.90167333158385,1.90086583908625,1.89983034870697,1.8970753743034,1.8971038740386,1.89622038224711,1.89669537783394,1.89684737642172,1.97933511002952,1.99075400393676,1.89458639742844,1.89433939972329,1.96734622141809,1.98637454462625,1.89229691869995,1.99215049096202,1.89308541137408,1.97442365566176,1.88995994041278,1.89026393758834,1.8895229444729,1.88807895788895,1.88707196724489,1.97807162176857,1.98857852414911,1.88100152364528,1.96918920429497,1.98253658028471,1.9671657230951,1.97144068337651,1.95582282848175,1.87883554376937,1.97355916369375,1.96211177005129,1.96003128938101,1.9568773186845,1.87808505074218,1.9543788418978,1.96291926254889,1.8736105923143,1.94941988797137,1.87078911852857,1.95065487649711,1.95110137234872,1.86766364756727,1.94730140765413,1.94540142530684,1.93579701454126,1.86417717995999,1.86155520432072,1.86161220379114,1.86099470952827,1.86070971217617,1.95604132645169,1.95872030156137,1.97075668973149,1.97259017269663,1.89047293564655,1.79592031413342,1.79487532384241,1.79369733478709,1.79428632931475,1.79361183558146,1.79214884917404,1.7902108671798,1.88757546256692,1.96673822706696,1.7883868841264,1.83534494783979,1.87020962391265,1.83404345993189,1.78554641051719,1.78545141139983,1.8793390390914,1.87926303979751,1.87780005339009,1.78447292049097,1.87759105533189,1.87176760943743,1.78296243452487,1.96520874127738,1.77802248042191,1.94631341683354,1.77974196444621,1.94894489238454,1.82533204086955,1.88012753176553,1.82390705410907,1.82324206028752,1.77434601457989,1.77355752190576,1.63375682079181,1.62818987251424,1.62732538054622,1.62435190817271,1.62170143279823,1.79725980168827,1.6171604749882,1.61419650252642,1.6157544880512,1.6166664795779,1.61705597595909,1.61295201408894,1.61420600243815,1.7881778860682,1.60914254948261,1.69625674010608,1.60843955601411,1.78804488730389,1.60787906122166
1.80993268394472,1.81114867264699,1.80861219621335,1.80937218915227,1.85477226734088,1.81018918156161,1.99130499881748,1.81164266805729,1.85788823839044,1.81207016408543,1.81199416479154,1.86146020520335,1.8156041312514,1.81637362410205,1.94625641736312,1.9529443552256,1.93878948673825,1.94034747226303,1.93926448232508,1.93574001507084,1.93483752345588,1.93574951498258,1.93217754816967,1.85762224086182,1.94708290968419,2.03250611601857,1.92240213899283,1.9223926390811,1.91979916317704,1.91721518718472,1.84444586328333,1.94552492415941,1.91128724226116,1.94982838417603,1.91065074817482,1.8371974306284,1.90761077641914,1.90115083643834,2.02578967842088,1.90144533370217,1.90313631799127,1.89917485479716,1.94662691392084,1.82637703116056,1.82506604334092,1.82492354466488,1.89612538312975,1.94069896899728,1.89655287915789,1.82376455543303,1.82440104951937,1.89691387580387,1.89951685161967,1.90209132770025,1.90484630210383,1.90926376106129,1.93387803237049,1.90979575611853,1.93240554605134,1.93180705161194,1.99898092750055,1.90624278912909,1.9982399343851,2.00877533650085,1.99244498822586,1.97325516651818,1.89944085232578,1.89923185426757,1.90023884491164,1.89977334923655,1.897882866801,1.89644838012879,1.99886692855971,1.89654337924615,1.98475955963105,1.89665737818699,1.96705172415426,1.89434889963503,1.89471939619275,1.97613363977433,1.96320425990099,1.89304741172713,1.97533564718847,1.89300941208018,1.95917629732472,1.97326466642991,1.97962960729335,1.88670147068717,1.97817612079767,1.96895170650156,1.97590564189265,1.97972460641072,1.97163068161124,1.96506624260134,1.88010853194205,1.95922379688341,1.8810585231157,1.97585814233397,1.96860970967904,1.96893270667808,1.96259626554985,1.96279576369632,1.96308076104841,1.96174127349357,1.96660522830265,1.87292659866928,1.95618382512773,1.95663032097935,1.95119637146609,1.86797714465458,1.9472919077424,1.94010047455788,1.95020838064549,1.93922648267813,1.86370218437316,1.86066221261749,1.86031071588324,1.86083321102875,1.85827773477164,1.95665882071456,1.93032506538105,1.97579164295182,1.95894829944305,1.79642380945546,1.79692730477749,1.7964618091024,1.79218684882099,1.79371633461056,1.7927378437017,1.79219634873272,1.8375109277157,1.78922287635921,1.88672047051064,1.78781688942221,1.83535444775152,1.83403396002015,1.83359696408028,1.78553691060546,1.87998503308948,1.78776938986353,1.78610690530964,1.87720155895069,1.78393142552199,1.78530891272378,1.78230694061506,1.78168944635218,1.78091045358979,1.86847114006487,1.78179394538129,1.77876347353735,1.77867797433172,1.77563800257605,1.8239925533147,1.85772673989092,1.77299702711331,1.95059787702669,1.82098108129424,1.72530747019621,1.62499790217079,1.8031022474062,1.62301242061786,1.62056144338985,1.61896545821813,1.61800596713274,1.61548849052258,1.79156935455812,1.79099935985393,1.61454799926066,1.61178352494535,1.65877008839395,1.60798356025076,1.60891455160094,1.60874355318968,1.60772706263388,1.60844905592585,1.65681310657624
1.92463461825091,1.80827969930257,1.8078427033627,1.80748170671671,1.89967835011919,1.80967618632784,1.80934368941706,1.85695724704027,1.85838223380074,1.96689022565474,1.85889522903451,1.81194666523285,2.07396373083654,1.81493913742984,1.94652241489174,1.94172495946482,1.94350144295954,1.93829549132795,2.02452619015993,1.93265254375649,1.86410118066609,1.93286154181469,1.85911372700445,1.93226304737529,1.94743440641844,1.92677209839161,1.92632560254,1.92520461295509,1.84873032347648,1.91923866838459,1.91820317800531,2.04450450454173,1.91604669804113,1.91240823184606,2.02075472520055,1.90513129945592,2.02010873120247,1.89974484950134,1.89982084879524,1.9007233404102,1.90143583379044,1.89977334923655,1.82592103539721,1.82592103539721,1.89648637977573,1.89536539019083,2.01514977727603,1.82189307282094,1.89437739937024,1.89669537783394,1.89696137536256,1.82513254272308,1.9395304798537,1.82807751536139,1.90381081172455,1.90608129062957,1.91003325391195,1.83766292630349,2.02784165935596,1.92996406873507,1.90640428762861,1.90422880784096,1.90344031516683,1.99481046624824,1.97286567013698,1.97053819176155,1.97407215892751,1.89992534782434,1.89848136124039,1.89803486538878,1.89521339160305,1.89596388463023,1.89615388286496,1.89588788533634,1.97533564718847,1.96760271903498,1.97545914604104,1.97493665089553,1.98473105989584,1.98156758928759,1.98139659087634,1.89140392699672,1.97467065336691,1.98905351973593,1.96077228249645,1.88818345691806,1.9759436415396,1.88417449416526,1.97936360976473,1.9575043128591,1.96562673739379,1.96661472821438,1.97949660852904,1.88198951446587,1.97537364683541,1.87979503485475,1.96005028920448,1.88086852488097,1.87914904085667,1.87684056230471,1.87643206610004,1.96300476175452,1.87626106768878,1.87657456477608,1.95952779405897,1.94966688567651,1.9567728196554,1.97550664559972,1.95467333916164,1.96521824118912,1.95200386396369,1.93701300324353,1.93648100818629,1.9342960284869,1.86071921208791,1.85838223380074,1.85934172488612,1.85910422709271,1.85842023344768,1.85782173900829,1.94978088461735,1.80025227388525,1.97608614021565,1.97738762812354,1.97372066219327,1.79364033531667,1.97541164648236,1.7923198475853,1.89533689045562,1.78932737538831,1.83732092948097,1.83623793954302,1.78636340292653,1.83483195260602,1.84301137661112,1.83275147193573,1.83268497255358,1.8322479766137,1.78216444193901,1.78257293814368,1.78458691943181,1.87581457183717,1.78293393478966,1.78263943752583,1.78347542975864,1.78177494555781,1.78025495967998,1.78007446135698,1.86790114536068,1.77790848148107,1.77816497909795,1.77579000116383,1.94908739106059,1.77404201740432,1.9512533709365,1.82059158491304,1.85096280273455,1.6260428924618,1.62440890764312,1.79986277750406,1.79850429012574,1.62064694259548,1.62007694789129,1.72198250108845,1.66340604532135,1.78804488730389,1.66111656659286,1.60935154754081,1.61061503580176,1.65755409969168,1.65688910587013,1.60931354789387,1.60499108805377,1.60509558708287,1.60541858408191,1.65503662308152
1.92620210368742,1.8078427033627,1.80788070300964,1.80840319815515,1.9159611988355,1.80804220150916,1.80739620751108,1.80631321757312,1.8084696975373,1.85678624862901,1.8572517443041,1.81467313990122,1.81356165022805,1.94415693686936,1.94484093051439,2.02456418980687,2.04214852643109,1.93702250315527,1.86457617625292,1.95055987737974,1.93300404049074,1.93587301383515,1.93104705867303,1.94472693157355,1.92651560077473,1.92358962795989,1.92295313387355,1.92106265143799,1.92300063343223,1.91682569080352,1.91711068815562,1.91342472240187,1.91412771587037,1.90982425585374,2.05394741680779,2.01819924894344,2.01795225123829,1.82909400591719,1.94460343272097,1.82902750653503,1.89999184720649,1.82509454307613,1.89708487421513,1.89669537783394,1.89943135241404,1.89540338983778,2.03014063799618,1.93915998329597,1.8963723808349,1.82219706999651,1.89568838718987,1.93512252080797,1.82513254272308,1.82528454131086,2.0114448116988,1.90466580378084,1.83239997520148,1.90884576494489,1.93362153475361,2.02185671496198,1.98792303023929,2.00172640199239,1.98494955786578,1.99804043623864,1.90007734641212,1.89967835011919,1.8992128544441,1.89777836777189,1.8969993750095,1.89717037342076,1.89813936441788,1.89438689928197,1.89616338277669,1.9689897061485,1.97506964965984,1.97932561011778,1.96504724277786,1.89400690281251,1.89302841190366,1.98371456934004,1.97198217834549,2.00117540711167,1.97024369449772,1.97327416634165,1.96871420870814,1.88707196724489,1.95840680447407,1.97218167649196,1.88474448886945,1.97249517357926,1.9620357707574,1.88220801243581,1.88073552611666,1.96638673033271,1.8806690267345,1.9724001744619,1.9627387642259,1.96493324383703,1.87685006221644,1.95855880306185,1.87617556848315,1.96090528126076,1.96636773050923,1.87508307863346,1.95641182300941,1.87315459655095,1.87181510899611,1.95355234957673,1.94050897076255,1.95283035628476,1.86630516018896,1.94292194834362,1.94063246961513,1.93254804472739,1.86092821014611,1.86202069999581,1.85791673812565,1.85541826133896,1.8582682348599,1.85732774359799,1.94884039335544,1.79922628341771,1.79922628341771,1.79820979286191,1.97264717216704,1.97566814409924,1.79209184970362,1.89515639213263,1.89368390581347,1.83729242974577,1.83540194731021,1.78861488200807,1.83627593918996,1.87016212435396,1.84474036054716,1.83309346875824,1.83247597449537,1.78522341351815,1.87808505074218,1.9664627296266,1.96866670914946,1.78274393655493,1.78405492437457,1.77977996409315,1.78091045358979,1.78114795138321,1.77779448254023,1.77555250337042,1.77715798845389,1.77587550036946,1.77465001175546,1.9512533709365,1.7738805189048,1.77206603576314,1.96310926078362,1.77089754661955,1.84973731412055,1.62624239060826,1.7977632970103,1.62136893588745,1.6186994606895,1.61897495812986,1.61612498460892,1.6148709962597,1.77512500734228,1.66080306950556,1.61206852229745,1.7857839083106,1.60802155989771,1.77699648995437,1.60545658372886,1.78509991466558,1.60748006492873,1.60272060914875,1.60514308664156,1.60457309193737
1.90472280325126,1.8060472200445,1.91609419759982,1.80723470901156,1.8077382043336,1.80782370353922,1.80645571624917,1.81009418244424,1.80676921333648,1.80943868853442,1.81067367706017,1.80978068535694,1.81337165199332,1.94996138294034,1.95017038099855,1.94282694922625,2.04124603481612,2.02441219121909,1.86419617978346,1.86275219319952,1.93130355628991,1.94637991621569,2.02379469695622,2.03767406800321,1.85506676460471,1.92584110704144,1.94624691745138,1.91989416229441,1.94625641736312,1.91702518894999,1.91387121825348,1.84197588623185,1.9096057578838,1.84024690229581,1.83333096655166,2.0358500849498,1.90390581084192,1.90398181013581,2.02642617250722,2.01835124753122,1.82434405004895,2.02198971372629,1.89823436353524,1.82320406064058,1.82229206911387,1.89459589734018,1.9417439592883,1.89341790828485,1.93828599141622,1.89388340395994,1.89406390228293,1.82504704351745,1.82471454660667,1.93438152769253,1.90294631975654,1.90249982390492,1.90418130828228,1.92967907138297,1.92982157005902,2.0250391853937,1.98692553950696,1.98841702564959,1.980579598467,1.98988001205701,1.98517755574745,1.98595654850984,1.89787336688926,1.89660987862831,1.89805386521225,1.89494739407442,1.89552688869035,1.96744122053546,1.89427290034114,1.97523114815936,1.9691987042067,1.9621402697865,1.98260307966687,1.98577605018685,1.89331340925575,1.99178949431604,1.89079593264559,1.98523455521787,1.97717863006534,1.9705001921146,1.97681763341936,1.88653047227591,1.9768556330663,1.97620013915648,1.97502215010116,1.97161168178777,1.97532614727673,1.88102052346875,1.88023203079463,1.87788555259572,1.87973803538433,1.96012628849837,1.95624082459815,1.9651612417187,1.95386584666404,1.96401175239859,1.87548207492639,1.9624252671386,1.9594042952064,1.96018328796879,1.96138977675932,1.95598432698127,1.86977262797277,1.93697500359658,1.95438834180954,1.95208936316931,1.95058837711495,1.86401568146047,1.93270954322691,1.86013021756025,1.93368803413577,1.86172620273198,1.85870523079978,1.86031071588324,1.85770774006745,1.85722324456889,1.94905889132538,1.79881778721305,1.79793429542155,1.79639530972025,1.79450482728469,1.97053819176155,1.83803342286121,1.83812842197858,1.83739692877487,1.78945087424088,1.8454528539274,1.88335750175593,1.78426392243277,1.78448242040271,1.84341037290405,1.83215297749633,1.7835419291408,1.78280093602535,1.78165144670524,1.7821359422038,1.78249693884978,1.89041593617613,1.78163244688177,1.95007538188118,1.78162294697003,1.77941896744717,1.87134011340929,1.7766924927788,1.86995312629576,1.77524850619486,1.77473551096109,1.77336752367103,1.96936020270622,1.7718475377932,1.77108754485428,1.76855106842064,1.76665108607335,1.62476040437737,1.80132576391148,1.79643330936719,1.61784446863322,1.7948468241072,1.61538399149347,1.61188802397445,1.83705493195235,1.61107103156512,1.60729956660574,1.6082020582207,1.66144906350364,1.77477351060803,1.77499200857797,1.60504808752419,1.60483908946599,1.70263118088125,1.60240711206145,1.70384716958352
1.80759570565755,1.85364177784424,1.85378427652028,1.80472673231313,2.09160506693117,1.80442273513757,1.80488823081265,1.91543870369,1.80756720592234,1.80910619162365,1.8111771723822,1.9784706180615,1.81288715649476,1.81457814078386,1.94687391162599,1.94209545602254,1.9486218953855,2.01804725035565,1.94652241489174,1.94838439759209,1.94515442760169,1.93210154887577,1.94456543307403,1.94285544896146,1.92586960677665,1.94490742989654,1.85006981103132,2.03162262422707,2.03229711796036,1.91946666626626,1.84205188552574,1.91247473122822,1.94371044101774,1.9090832627383,1.90749677747831,1.90457080466347,1.90454230492826,2.0314991253745,1.9026233227575,1.90079933970409,1.82540804016344,1.89844336159345,2.01604276897926,1.8212565787346,2.02080222475923,1.89315191075623,1.89131842779109,1.89481439531011,1.89477639566317,1.89456739760497,1.89613488304148,1.82156057591016,1.82477154607709,1.82609203380846,1.90083733935104,1.93636700924545,2.01834174761948,1.92957457235387,1.92802608674083,1.92738009274275,1.97497465054248,1.99204599193292,1.99212199122682,1.9921694907855,1.99068750455461,1.89736987156723,1.89941235259057,1.89988734817739,1.89433939972329,1.89390240378341,1.89440589910545,1.89339890846138,1.89339890846138,1.96550323854122,1.98838852591438,1.99523796227638,1.98911051920635,1.98238458169693,1.97364466289937,1.97879361506054,1.98866402335474,1.97568714392272,1.97626663853864,1.98195708566879,1.88858245321099,1.88632147421771,1.97378716157542,1.96282426343153,1.97452815469087,1.97918311144174,1.96984469820478,1.9603162867331,1.87878804421068,1.87815155012434,1.95309635381338,1.87658406468782,1.87616606857142,1.95850180359143,1.95853030332664,1.87488358048699,1.95436934198607,1.95609832592211,1.95604132645169,1.95558533068834,1.96400225248685,1.87134011340929,1.86849963980008,1.9680777146218,1.86685615506967,1.93837149062185,1.94959088638262,1.94271295028541,1.9429694479023,1.9503413794098,1.93629100995156,1.93527451939576,1.85784073883176,1.85765074059703,1.85568425886758,1.8541262733428,1.9233046306078,1.79837129136143,1.79791529559808,1.79269984405476,1.7914078560586,1.79371633461056,1.79164535385201,1.78914687706532,1.83702643221714,1.83496495137033,1.8419378865849,1.78767439074616,1.78615440486833,1.78460591925528,1.78189844441039,1.78268693708451,1.96542723924732,1.96368875539955,1.78201244335122,1.7808344542959,1.82886600803551,1.82800151606749,1.77866847441999,1.95533833298319,1.77876347353735,1.77788948165759,1.87022862373612,1.77608449842766,1.7755715031939,1.82323256037578,1.77432701475642,1.77360502146445,1.77189503735188,1.81754211324564,1.76906406365441,1.76649908748556,1.86719815189218,1.62306942008828,1.62082744091847,1.79772529736335,1.61785396854496,1.61501349493575,1.61539349140521,1.61251501814906,1.60953204586381,1.60563708205185,1.78552741069372,1.6104155376553,1.60731856642921,1.60464909123126,1.67674392139936,1.70092119676868,1.66773800507318,1.60425009493833,1.60099162521272,1.60341410270552
1.85370827722639,1.80725370883504,1.80698771130641,1.80830819903778,1.80428973637326,1.9158566998064,1.80533472666427,1.98832202653223,2.07861868758741,1.80730120839372,1.89372190546042,1.81052167847238,1.81116767247046,2.04739247770962,1.94091746696722,1.94941988797137,1.9386469880622,1.86693215436356,1.93547401754222,1.93252904490392,1.93433402813385,1.93186405108236,1.93241504596308,1.85370827722639,1.92376062637115,2.02575167877393,1.92229763996373,1.94589542071713,1.94445143413319,2.01970973490953,1.84100689523473,1.94289344860841,1.94385293969379,1.90953925850165,1.94371044101774,1.90480830245688,1.90340231551989,2.02648317197764,1.90282282090396,1.89799686574183,1.89745537077285,1.94066096935034,1.89693287562735,2.01894974197062,1.82218757008477,1.89472889610449,1.89479539548664,1.89597338454196,1.93954947967717,1.82130407829328,1.8951753919561,1.82264356584812,2.01924423923445,1.89785436706579,1.82636753124882,1.82917000521108,1.93141755523075,1.9305720630862,1.90927326097303,2.02702466694662,1.97387266078105,1.97363516298764,1.98208058452136,1.97052869184981,1.99731844294667,1.89882335806291,1.89626788180579,1.89968785003093,1.89439639919371,1.89341790828485,1.96861920959078,1.9660732332454,1.9654462390708,1.96530374039475,1.99506696386512,1.8917364239075,1.97801462229815,1.89149892611408,1.9688852071194,1.98259357975513,1.97943010914689,1.97416715804488,1.88726196547962,1.98271707860771,1.97175418046382,1.96907520535413,1.96389775345775,1.98586154939248,1.97332166590033,1.88233151128839,1.96457224719104,1.96679522653738,1.87800905144829,1.96643422989139,1.87641306627656,1.94680741224384,1.96932220305928,1.96331825884183,1.96960720041137,1.87657456477608,1.87475058172268,1.97673213421373,1.95220336211015,1.95540483236534,1.95242186008009,1.96327075928314,1.95074037570274,1.96592123465762,1.95416034392787,1.95665882071456,1.86417717995999,1.95272585725566,1.86120370758647,1.92950807297172,1.85980722056121,1.85618775418961,1.85570325869105,1.85740374289188,1.85457276919441,1.85472476778219,1.92037865779296,1.79855178968443,1.79617681175031,1.79516982110624,1.88761346221387,1.79177835261632,1.78823488553861,1.78770289048137,1.78814938633299,1.78595490672186,1.83282747122962,1.87322109593311,1.88184701578983,1.78241143964416,1.78152794785266,1.78205044299817,1.78110045182452,1.77995096250441,1.87626106768878,1.78126195032404,1.86842364050619,1.77918146965376,1.86902213494559,1.77624599692719,1.87101711641025,1.87009562497181,1.82314706117016,1.82100958102945,1.96255826590291,1.77321552508325,1.82133257802849,1.7694250603004,1.81755161315737,1.81502463663547,1.76743957874747,1.76754407777657,1.95256435875614,1.62169193288649,1.61930745504064,1.70973711486013,1.61402550411516,1.61475699731887,1.61342700967576,1.60983604303937,1.60924704851171,1.60762256360478,1.60293910711869,1.60664407269592,1.78490041651911,1.60227411329714,1.60349960191115,1.60105812459487,1.60019363262685,1.60222661373846,1.60102962485966,1.60067812812541
1.80677871324821,1.80510672878259,1.80512572860607,1.86829064174188,1.85142829840964,1.9133297232845,1.86530766945663,1.85427827193058,1.80749120662845,1.80595222092714,1.91363372046007,1.81072117661885,1.91757618383071,2.03745557003327,1.94773840359401,2.02398469519095,2.03821556297219,1.93561651621827,1.93625301030461,1.93670900606796,1.8600922179133,1.85992121950205,1.9435679423417,1.92770308974179,1.85382227616723,1.94594292027582,2.03535608953951,1.94232345390422,2.01886424276499,1.91467871075108,1.91388071816522,1.91113524367338,1.94256095169763,1.94300744754925,1.90720228021448,1.90811427174118,1.90381081172455,1.90185382990684,1.90090383873319,1.82587353583852,2.01967173526259,1.94428993563367,1.82370755596261,1.93995797588184,2.0263691730368,1.89322791005012,1.89286691340414,1.89137542726151,1.89271491481635,1.89327540960881,1.89242041755252,1.89554588851382,1.89766436883106,1.89736037165549,1.89709437412687,1.82906550618198,1.93033456529279,1.92941307385435,1.90988125532416,2.01487427983567,1.90010584614733,1.98895852061857,1.9961024542444,1.99281548478358,1.89696137536256,1.89638188074663,1.89690437589214,1.89453889786976,1.8960873834828,1.96612073280409,1.96828671268,1.97189667913986,1.89048243555828,1.98728653615295,1.96426825001547,1.89256291622857,1.9770646311245,1.88998844014799,1.88945644509074,1.97023419458598,1.96824871303306,1.8879079594777,1.96590223483415,1.88691046874537,1.9862320459502,1.88377549787233,1.9735211640468,1.96347975734135,1.97287517004872,1.97542114639409,1.88032702991199,1.97311266784213,1.97065219070238,1.96398325266338,1.97329316616512,1.94993288320514,1.96685222600779,1.95387534657577,1.9631282606071,1.95589882777564,1.95945179476508,1.96578823589331,1.9490113917667,1.94877389397329,1.94849839653293,1.95257385866787,1.86738815012691,1.86678015577578,1.94664591374431,1.94647491533306,1.94895439229628,1.95332435169506,1.93323203837241,1.85797373759607,1.856966746952,1.85652975101212,1.85689074765811,1.85515226381034,1.85674824898206,1.85350877907993,1.93616751109898,1.79875128783089,1.96668122759654,1.84048440008922,1.83894541438791,1.8382139211842,1.78988787018076,1.78923237627094,1.952136862728,1.78527091307684,1.96913220482455,1.83158298279214,1.83078499020628,1.78121445076536,1.78135694944141,1.78187944458691,1.7816419467935,1.87539657572076,1.87328759531526,1.77959946577016,1.77824097839184,1.7774999852764,1.77323452490672,1.95992679035191,1.77668299286706,1.86568766592609,1.7743745143151,1.770232552798,1.77057454962051,1.77130604282422,1.77200903629272,1.95247885955051,1.76694558333718,1.8151101358411,1.76533059834198,1.76515010001898,1.6218249316508,1.71174159623653,1.617996467221,1.61555498990473,1.70257418141083,1.6117455252984,1.78587890742797,1.60586507993353,1.61035853818488,1.60489608893641,1.60495308840683,1.68095238229862,1.60228361320888,1.60190361673942,1.60098212530098,1.59933864057057,1.59729615954723,1.60041213059679,1.60058312900805,1.59912964251237
1.85074430476461,1.85120030052796,1.85262528728843,1.86675165604057,1.80526822728211,1.85062080591204,1.85202679284904,1.85150429770353,1.80483123134223,1.85513326398686,1.80830819903778,1.91253173069864,1.80953368765179,1.87003862550139,1.942655950815,2.02146721858078,1.93816249256364,1.94496442936696,1.93583501418821,1.86029171605977,1.942655950815,1.92994506891159,1.92978357041207,1.92631610262826,1.92646810121604,1.94223795469859,1.94051847067429,1.94150646149488,1.91911516953201,1.91462171128066,1.94275094993236,1.83833742003678,1.90804777235902,1.90653728639292,2.03548908830382,2.03180312255007,1.9032503169321,1.90046684279332,1.89903235612111,1.8979113665362,1.94027147296914,1.94088896723201,1.8219595722031,1.93856148885658,1.89165092470187,1.8917364239075,2.02169521646246,1.89355090704916,1.89308541137408,1.93353603554798,1.89298091234497,2.00543136756961,1.93217754816967,1.89697087527429,1.89660037871657,1.90342131534336,2.00374038328052,1.92589810651186,1.92418812239929,1.92433062107534,1.98840752573785,2.00072891126006,1.99455396863135,1.96883770756072,1.96875220835509,1.96977819882263,1.97186817940465,1.96922720394191,1.96229226837429,1.96266276493201,1.96962620023485,1.96282426343153,1.98627004559715,1.98882552185426,1.99355647789902,1.97591514180439,1.97968660676377,1.97568714392272,1.97340716510596,1.98236558187346,1.98119709272987,1.97177318028729,1.96943620200012,1.97493665089553,1.97844211832629,1.88328150246204,1.96682372627259,1.87977603503128,1.97487965142512,1.97069969026107,1.97044319264418,1.87865504544637,1.87779055347835,1.96665272786133,1.87749605621452,1.95555683095313,1.9620357707574,1.87442758472364,1.87365809187299,1.87335409469742,1.95851130350317,1.87205260678952,1.95908129820736,1.87019062408917,1.95580382865828,1.953362351342,1.8668371552462,1.94717790880156,1.94898289203149,1.95327685213637,1.95411284436918,1.95335285143027,1.92998306855854,1.92973607085339,1.85688124774637,1.85774573971439,1.85635875260087,1.85477226734088,1.85426877201884,1.85357527846208,1.95529083342451,1.79672780663102,1.7952363204884,1.79402983169786,1.96642472997965,1.79025836673848,1.78927037591789,1.78767439074616,1.97584864242224,1.78510941457731,1.78258243805541,1.8305284925894,1.82973050000353,1.78156594749961,1.77986546329878,1.77958046594669,1.77920996938896,1.77884897274298,1.87718255912722,1.77616999763329,1.7772909872182,1.77504900804839,1.77559050301737,1.77524850619486,1.86021571676588,1.85898072824013,1.77187603752841,1.86325568852155,1.76923506206567,1.7685130687737,1.76918756250698,1.94607591904013,1.76612859092784,1.7653115985185,1.76595759251658,1.76373461317025,1.76209112843984,1.61938345433453,1.70959461618408,1.61226802044391,1.61168852582799,1.61014004021494,1.60861055442537,1.60738506581136,1.60636857525556,1.60432609423222,1.60390809811581,1.60388909829234,1.60177061797511,1.60121962309439,1.59842664904387,1.59828415036782,1.5976001567228,1.77580900098731,1.59649816696136,1.59818915125046
1.80220925570297,1.92106265143799,1.80236125429075,1.80371974166907,1.80448923451972,1.85047830723599,1.80388124016859,1.85101030229323,1.86318918913939,1.98513955610051,1.80589522145672,1.8082606994791,1.81030318050244,1.94438493475103,1.8703806223239,1.9411454648489,2.01855074567769,1.94013847420483,1.93269054340344,1.86062421297054,1.85694774712853,1.92762709044789,1.92909007685531,1.85117180079275,1.92439712045749,1.92363712751858,1.94577192186456,1.91769968268328,1.84431286451902,1.94121196423105,1.83919241209306,2.0178002526505,1.90965325744249,1.9096057578838,1.90600529133568,1.90446630563437,1.90255682337534,1.8994978517962,1.82760251977456,1.93995797588184,1.89484289504532,1.89441539901718,1.8909289314099,1.93683250492054,1.89106193017421,1.89147992629061,1.9362245105694,1.8907484330869,1.81851110424276,1.89032093705876,1.93171205249458,1.89326590969707,2.00222989731442,1.92917557606094,1.90006784650038,1.90056184191068,1.90393431057713,1.90291782002133,1.92624960324611,2.02126772043432,1.9857095508047,1.98091209537778,1.89783536724231,1.97267567190225,1.99240698857891,1.96593073456936,1.96655772874396,1.9699016976752,1.89098593088032,1.89042543608786,1.96370775522302,1.97311266784213,1.98000960376281,1.88888645038655,1.97876511532533,1.97850861770845,1.98890152114815,1.97351166413506,1.97245717393231,1.96935070279449,1.97647563659684,1.88662547139327,1.97026269432119,1.96331825884183,1.96906570544239,1.96001228955753,1.97332166590033,1.96590223483415,1.96660522830265,1.87827504897691,1.96346075751787,1.87873104474026,1.96202627084567,1.96480974498445,1.87570057289633,1.96817271373916,1.87392408940161,1.96931270314754,1.87529207669166,1.87409508781286,1.96426825001547,1.87125461420366,1.86919313335684,1.95722881541875,1.96610173298061,1.96205477058088,1.86669465657015,1.95181386572896,1.86380668340226,1.95889129997263,1.95302035451949,1.94347294322433,1.85899972806361,1.94772890368227,1.85562725939716,1.85533276213333,1.85253978808281,1.85289128481706,1.85254928799454,1.94050897076255,1.93779199600592,1.79970127900454,1.79477082481331,1.79173085305764,1.79105635932435,1.78851988289071,1.78771239039311,1.78509991466558,1.78359892861122,1.78423542269756,1.78464391890223,1.78026445959171,1.82775451836235,1.82696602568822,1.77792748130454,1.96593073456936,1.86696065409877,1.88434549257652,1.88314850369772,1.77234153320349,1.77542900451785,1.86769214730248,1.87135911323276,1.86700815365746,1.7712490433538,1.77187603752841,1.95652582195025,1.77168603929368,1.76662258633814,1.87067511958773,1.76665108607335,1.81446414184302,1.76249012473277,1.7614546343535,1.76297462023133,1.76108413779577,1.7595546520062,1.61702747622388,1.61496599537707,1.61185002432751,1.60791706086861,1.60727106687053,1.60483908946599,1.6059885787861,1.60500058796551,1.60339510288204,1.60232161285582,1.65791509633767,1.59829365027956,1.59908214295369,1.59926264127668,1.77706298933652,1.59928164110015,1.59646016731442,1.59599467163933,1.82203557149699
1.916664192304,1.92114815064362,1.91310172540283,1.80091726770681,1.92801658682909,1.80214275632081,1.91089774587996,1.96700422459558,1.8048217314305,1.80861219621335,1.80760520556928,1.97288466996046,1.98175758752232,1.94348244313607,1.94557242371809,1.94593342036408,1.93607251198162,1.94215245549296,1.93336503713673,1.93448602672163,1.92919457588441,1.94429943554541,1.92697159653808,1.94267495063847,1.84790383115541,1.92289613440313,2.03523259068693,2.01913024029361,1.9137192196657,2.02174271602114,2.02188521469719,1.90928276088476,1.90717378047927,1.90705978153843,1.90458980448695,1.90084683926278,1.90071384049846,1.94117396458411,1.89695187545082,1.89784486715405,1.89305691163887,1.89129942796762,1.82106658049987,1.89257241614031,1.89099543079205,1.81801710883246,1.89169842426055,1.81577512966265,1.89076743291038,2.02589417744998,1.89186942267181,2.00826234126708,1.92867208073891,1.82521804192871,1.89737937147896,1.89831036282914,1.82789701703839,1.90544479654323,1.92498611498516,2.01066581893641,1.97765362565217,1.96895170650156,1.9908680028776,1.97198217834549,1.96689022565474,1.97177318028729,1.96541773933559,1.88995994041278,1.96464824648493,1.9640402521338,1.96002178946927,1.96331825884183,1.9690942051776,1.9700821959982,1.96158927490579,1.96548423871774,1.97185867949292,1.95955629379418,1.88680596971627,1.88549498189663,1.97154518240561,1.96980669855784,1.95443584136822,1.97204867772765,1.97682713333109,1.96287176299021,1.96571223659942,1.96535123995343,1.87862654571116,1.87830354871212,1.87726805833285,1.96299526184279,1.95886280023742,1.96723222247725,1.96420175063332,1.96966419988179,1.8744940841058,1.95718131586006,1.95318185301901,1.96048728514436,1.95992679035191,1.8698581271784,1.86977262797277,1.93533151886617,1.86844264032966,1.9476054048297,1.94421393633978,1.94892589256107,1.94462243254445,1.94645591550959,1.94273195010889,1.9346095255742,1.93251004508044,1.92887157888537,1.85629225321871,1.85477226734088,1.85372727704987,1.85185579443778,1.85217879143682,1.85338528022735,1.85052580679467,1.86758764827338,1.7927378437017,1.79202535032147,1.78959337291693,1.94907789114885,1.78498591572474,1.78628740363264,1.7833614308178,1.78348492967038,1.78034995879734,1.96870470879641,1.8931709105797,1.87992803361906,1.87943403820876,1.87154911146749,1.77536250513569,1.87047562144127,1.88748996336129,1.77264553037906,1.96630123112708,1.77167653938194,1.95454034039732,1.86740714995039,1.86496567263411,1.77056504970877,1.86502267210453,1.76527359887156,1.76509310054856,1.94134496299536,1.76438060716833,1.76275612226139,1.76195812967553,1.76200562923421,1.86032971570671,1.75731267283639,1.75860466083255,1.61410150340905,1.61242951894343,1.78359892861122,1.78433992172666,1.6046870908782,1.60489608893641,1.60422159520312,1.77778498262849,1.6008301267132,1.59979463633392,1.64729419501629,1.59674516466651,1.67681042078151,1.64613520578444,1.59498768099527,1.59505418037742,1.59683066387214,1.7752865058418,1.59440818637934
1.80179125958656,1.80116426541196,1.80027127370873,1.80207625693866,1.926145104217,1.91148674040763,1.80394773955074,1.80384324052164,1.90797177306513,1.80557222445768,1.80650321580785,1.80621821845576,1.97596264136307,2.02769916067991,1.94606641912839,1.94526842654253,1.94406193775199,1.94215245549296,1.94255145178589,1.92981207014728,1.94220945496338,1.9285390819746,1.92740859247796,1.9295555725304,1.9205971557629,1.92063515540985,1.84666884262967,1.84397086769651,2.01159681028659,1.84024690229581,1.91139174129026,1.90770577553651,2.01227130401988,1.90453280501653,1.90301281913869,2.02179971549156,1.90336431587294,1.89769286856627,1.89682837659825,2.0252481834519,1.89622038224711,1.89179342337792,1.89153692576103,1.93574951498258,1.89385490422473,2.01491227948262,1.89025443767661,1.81807410830288,1.88975094235457,1.89031143714703,1.81806460839114,1.89310441119755,1.89151792593756,1.89638188074663,1.92708559547892,1.90015334570601,1.89811086468267,1.83036699408988,1.9065847859516,2.01174880887437,1.96934120288275,1.98555755221691,1.96746022035893,1.97278967084309,1.9688852071194,1.96893270667808,1.96510424224828,1.8900454396184,1.96331825884183,1.96397375275164,1.96155127525884,1.96719422283031,1.98213758399178,1.88915244791518,1.88665397112848,1.98251758046124,1.88679646980453,1.88652097236417,1.96349875716482,1.98190008619837,1.9693792025297,1.88551398172011,1.96910370508934,1.962843263255,1.95983179123454,1.97268517181399,1.97214367684501,1.95715281612486,1.96018328796879,1.87788555259572,1.87817054994781,1.96157977499405,1.96114277905417,1.96870470879641,1.87428508604759,1.97304616845998,1.87378159072556,1.87200510723084,1.95689631850797,1.94693091109641,1.87052312099995,1.93625301030461,1.86913613388643,1.95788430932856,1.8668371552462,1.96246326678554,1.95150036864165,1.86455717642945,1.94879289379676,1.86141270564467,1.86184970158455,1.93105655858476,1.93886548603214,1.9387229873561,1.85379377643202,1.85448726998878,1.85370827722639,1.85202679284904,1.85103880202844,1.85103880202844,1.9390364844434,1.84246988164214,1.79239584687919,1.83762492665654,1.78928937574136,1.78856738244939,1.78713289577718,1.83074699055933,1.8289135075942,1.78010296109219,1.96965469997005,1.7789059722134,1.77836447724442,1.7757805012521,1.77485900981366,1.87382909028424,1.89536539019083,1.89299991216845,1.77347202270013,1.76948205977082,1.96947420164706,1.76999505500459,1.76849406895022,1.76633758898604,1.86898413529864,1.76841806965633,1.76734457963011,1.76519759957767,1.76324061775995,1.86071921208791,1.86386368287268,1.76251862446798,1.7592411549189,1.75850016180345,1.75801566630489,1.7566381791031,1.80405223857984,1.78808288695083,1.61086203350691,1.60866755389579,1.6062735761382,1.60530458514108,1.60326210411773,1.8796525361787,1.77306352649547,1.77161003999979,1.778307477774,1.59630816872663,1.59742915831154,1.59431318726198,1.59304969900102,1.64248723967763,1.59427518761503,1.59343919538222,1.68416335246554,1.59392369088078
1.91675919142137,1.80124976461758,1.91656919318664,1.91634119530496,1.80137326347016,2.0841381363063,1.80195275808608,1.87404758825418,1.90684128356849,1.80462223328403,1.80525872737038,1.80653171554306,1.80806120133264,1.80834619868473,1.93744999918341,2.02542868177489,1.93557851657132,1.93724100112521,1.94251345213895,1.85789773830218,1.85745124245056,1.92901407756142,1.85397427475501,1.93992947614663,1.92325713104912,1.92263963678625,1.91895367103249,2.01261330084239,1.91630319565802,1.93992947614663,1.93930248197202,1.90714528074406,1.90671778471592,1.905777293454,1.90288932028612,1.82871400944773,1.8999158479126,1.89978284914829,1.82456254801889,1.89657187898136,1.89454839778149,1.82128507846981,1.81963209382766,1.89249641684641,1.89002643979493,1.8887154519753,1.81734261509917,1.88946594500248,2.00859483817786,1.88799345868333,1.89149892611408,1.92940357394261,1.81766561209821,1.89526089116173,1.92682909786203,1.92709509539065,1.9006188413811,1.92469161772132,1.83261847317142,2.02220821169623,1.98123509237682,1.96772621788755,1.98211858416831,1.96293826237237,2.00128940605251,1.96452474763236,1.96541773933559,1.89375040519563,1.9618267726992,1.88703396759794,1.96279576369632,1.95779881012294,1.97813812115073,1.98422756457381,1.96722272256552,1.96743172062372,1.98863552361953,1.98201408513921,1.88522898436801,1.96902770579545,1.97156418222909,1.9759436415396,1.98111159352424,1.9713076846122,1.95935679564772,1.88127702108564,1.87995653335427,1.95676331974366,1.95857780288533,1.95805530773982,1.95906229838389,1.96147527596495,1.97177318028729,1.8771255596568,1.87360109240257,1.95045537835064,1.87295509840449,1.87073211905815,1.9536473486941,1.96141827649453,1.9393499815307,1.93576851480605,1.95657332150893,1.95318185301901,1.95640232309767,1.95021788055723,1.95243135999183,1.86161220379114,1.86330318808023,1.94707340977246,1.85790723821391,1.93269054340344,1.92948907314824,1.9267435986564,1.85307178314005,1.85153279743874,1.92595510598228,1.85055430652988,1.8505068069712,1.942655950815,1.94067046926207,1.96082928196687,1.96196927137525,1.83782442480301,1.78604040592749,1.78658190089647,1.78465341881396,1.82908450600545,1.78019796020956,1.7816419467935,1.77705348942479,1.77682549154311,1.95867280200269,1.7749730087545,1.77385201916959,1.77482101016671,1.86789164544895,1.77148654114721,1.77042255103273,1.76770557627609,1.76879806612579,1.76911156321309,1.94948638735352,1.95274485707913,1.81397964634446,1.76603359181048,1.76471310407911,1.94211445584602,1.93418202954606,1.86298019108119,1.76157813320607,1.8563397527774,1.75855716127387,1.75698017592562,1.75511819322527,1.75569768784119,1.75269571573247,1.7026691805282,1.60913304957087,1.83090848905885,1.60576058090443,1.60403159696839,1.69948671009648,1.60070662786062,1.59946213942314,1.59798015319225,1.59706816166555,1.77316802552457,1.77465951166719,1.59080771983122,1.58943023262943,1.59126371559457,1.68364085732004,1.59129221532978,1.58962973077589,1.71595955704752
1.80020477432657,1.80006227565052,1.8008887679716,1.98527255486482,1.79890328641867,1.7991692839473,1.89946935206099,1.8736865916082,1.8728030998167,1.8044322350493,1.8054202258699,1.80765270512797,1.8063322173966,1.86700815365746,1.93839999035706,1.94081296793812,1.93290904137337,1.93391603201744,1.93225354746356,1.93217754816967,1.93816249256364,1.92669609909772,2.01844624664858,1.93894148532603,2.01287929837101,2.0128507986358,1.84439836372465,2.02459268954208,1.91315872487324,1.94010047455788,1.91317772469672,1.83511694995811,1.93746899900688,1.90597679160047,1.90274682161007,1.93861848832699,1.89905135594458,1.89926035400278,2.02280670613563,1.93560701630653,1.89470989628101,1.89126142832067,1.81890060062395,1.93370703395924,1.817637112363,2.02200871354976,1.93028706573411,1.88823095647674,1.88655897201112,1.88859195312272,1.89070093352822,1.89260091587552,1.81900509965305,1.81998359056191,1.89501389345658,1.82461954748931,1.9013218348496,1.90180633034816,2.01443728389579,2.0247541880416,1.98308757516543,1.97668463465505,1.99214099105029,1.97032919370334,1.96935070279449,1.97223867596238,1.9649522436605,1.96311876069536,1.88666347104022,1.8863974735116,1.88614097589471,1.96181727278746,1.95724781524222,1.97184917958118,1.95324835240116,1.9755256454232,1.96893270667808,1.97212467702154,1.97266617199052,1.88465898966382,1.88325300272683,1.96575023624636,1.96674772697869,1.9659687342163,1.9691987042067,1.96642472997965,1.967061224066,1.96576923606984,1.96527524065954,1.87679306274602,1.96329925901835,1.96952170120574,1.95934729573598,1.95599382689301,1.96440124877978,1.95363784878236,1.96830571250348,1.95477783819074,1.87085561791073,1.9495338869122,1.94899239194322,1.9506263767619,1.95363784878236,1.94534442583642,1.94558192362983,1.94675991268515,1.95567082989397,1.96331825884183,1.94643691568611,1.94142096228925,1.94637041630396,1.9404424713804,1.85522826310423,1.94019547367525,1.85242578914197,1.85091530317587,1.91989416229441,1.85123830017491,1.85047830723599,1.94520192716037,1.92549911021892,1.95907179829562,1.83877441597666,1.83544944686889,1.78379842675768,1.78312393302439,1.78154694767614,1.78096745306021,1.77915296991855,1.77865897450825,1.77616049772156,1.77297802728984,1.88265450828743,1.77328202446541,1.77116354414817,1.77131554273596,1.77021355297452,1.96504724277786,1.76728758015969,1.76745857857095,1.95990779052843,1.76507410072509,1.76516909984246,1.76480810319647,1.82691852612954,1.81115817255873,1.80990418420951,1.80884019409503,1.75941215333015,1.75860466083255,1.75742667177723,1.75812016533399,1.75660017945616,1.94577192186456,1.94568642265893,1.75051073603308,1.61095703262428,1.88171401702552,1.60734706616442,1.78000796197483,1.60104862468314,1.60210311488588,1.59946213942314,1.64583120860887,1.77260753073212,1.59563367499335,1.77580900098731,1.59434168699718,1.59449368558497,1.69955320947863,1.66232305538339,1.64004576236136,1.5905417223026,1.58876523880788,1.58770124869339,1.76132163558918
1.91367172010701,1.79908378474167,1.79875128783089,1.91701568903825,1.7983617914497,1.79833329171449,1.79892228624215,1.87270810069934,1.91147724049589,1.91145824067242,1.91218973387612,1.86605816248381,1.97458515416128,1.93720300147826,1.93690850421443,1.93579701454126,1.94618041806923,1.86186870140802,1.94196245725823,1.92938457411914,2.01660326377171,1.92538511127809,2.02127722034605,1.84664034289446,1.84735283627469,1.94085096758507,1.91579020042425,1.91608469768808,1.91311122531456,1.9130162261972,1.90749677747831,2.02133421981647,1.90460880431042,1.93737399988952,1.90228132593498,1.89988734817739,1.89980184897176,1.8973888713907,2.02490618662939,1.89593538489502,1.89394040343036,1.89247741702294,2.01956723623349,1.81639262392552,1.8901214389123,1.8147966387538,2.00966832820408,1.88737596442046,1.89029243732355,2.0162897666844,1.88847795418189,1.89029243732355,1.8179221097151,1.89112842955636,1.89470039636928,1.89685687633346,1.90311731816779,1.82822001403743,1.90883626503315,2.00785384506242,1.97570614374619,1.9919604927273,1.97840411867935,1.98147259017023,1.9770646311245,1.96875220835509,1.88806945797722,1.88648297271723,1.8852004846328,1.88501048639807,1.88380399760754,1.97134568425915,1.95550933139445,1.88398449593053,1.98190958611011,1.97069969026107,1.88417449416526,1.96879020800204,1.97245717393231,1.88300600502168,1.96376475469344,1.96531324030649,1.97931611020605,1.96266276493201,1.97116518593615,1.9689897061485,1.87720155895069,1.95237436052141,1.95166186714117,1.96539873951211,1.97267567190225,1.95532883307145,1.958805800767,1.96003128938101,1.95965129291155,1.87184360873132,1.95344785054763,1.95300135469602,1.96213076987477,1.96217826943345,1.86798664456631,1.95054087755627,1.86755914853817,1.94970488532346,1.94738690685976,1.94692141118467,1.94486943024959,1.95500583607241,1.93694650386138,1.9323960461396,1.94580042159977,1.94934388867747,1.94602841948144,1.85346127952124,1.85248278861239,1.92624010333437,1.85057330635336,1.84767583327373,1.84860682462391,1.84836932683049,1.93477102407372,1.79105635932435,1.79097086011872,1.7867718991312,1.78788338880437,1.78128095014752,1.88429799301784,1.82871400944773,1.77687299110179,1.87001962567792,1.82158907564537,1.77303502676026,1.77134404247116,1.76955805906471,1.76971005765249,1.81454964104865,1.8141981443144,1.76615709066305,1.76484610284342,1.76524509913635,1.86697965392225,1.95244085990356,1.76173013179385,1.75954515209446,1.85497176548734,1.75891815791986,1.75918415544848,1.7592411549189,1.8046127333723,1.75849066189172,1.86970612859061,1.86752114889122,1.84429386469555,1.75255321705642,1.94490742989654,1.85408827369585,1.84433186434249,1.60748956484046,1.78113845147147,1.60203661550373,1.77623649701545,1.64670520048863,1.64408322484936,1.59598517172759,1.59431318726198,1.59404718973335,1.59465518408449,1.59117821638894,1.59269820226678,1.76717358121885,1.58867973960225,1.58789124692812,1.58883173819003,1.58658975902022,1.58968673024631,1.58777724798728
1.91313022513804,1.98819852767965,1.79843779074359,2.08818509870604,1.79861828906658,1.9127312288451,1.98129209184723,1.79991027706274,1.89612538312975,1.90895026397399,1.80437523557888,1.8051352285178,1.80698771130641,1.80871669524245,1.94209545602254,1.93725050103694,2.02498218592328,2.01635626606656,1.9292705751783,1.9403379723513,1.92352312857774,1.93810549309323,1.92605960501138,1.93898898488472,1.92215514128769,1.92279163537403,1.91682569080352,1.91451721225156,1.93667100642102,1.91160073934846,1.8340719596671,2.02179971549156,1.90485580201557,1.93660450703886,1.89964035047224,1.8993173534732,1.89765486891932,1.89803486538878,1.89590688515981,2.0210302226409,1.89081493246906,1.89210692046522,1.81747561386348,1.88998844014799,1.88934244614991,1.88705296742142,1.89026393758834,1.93356453528319,1.81498663698853,1.88670147068717,1.88726196547962,1.8157086302805,2.01554877356896,1.88981744173673,1.89375040519563,1.89365540607826,2.00825284135535,1.90164483184864,2.00484237304195,2.00480437339501,1.9856335515108,1.9758391425105,1.97238117463842,1.97617163942128,1.96987319793999,1.97312216775387,1.88788895965422,1.88623597501208,1.88493448710418,1.8863974735116,1.88203701402456,1.88355699990239,1.95332435169506,1.97717863006534,1.9661492325393,1.8838704969897,1.88393699637185,1.88263550846395,1.97516464877721,1.98926251779414,1.97257117287315,1.97002519652778,1.96378375451691,1.96538923960038,1.87845554729991,1.88027953035331,1.97231467525627,1.95769431109383,1.87619456830663,1.96385975381081,1.95907179829562,1.96426825001547,1.96803971497485,1.96374575486997,1.9590147988252,1.87124511429192,1.86987712700187,1.9525548588444,1.94933438876574,1.96325175945967,1.95800780818114,1.95726681506569,1.95278285672608,1.86496567263411,1.92903307738489,1.93915048338424,1.95317235310727,1.95096837358441,1.95237436052141,1.93040106467494,1.94675041277342,1.93336503713673,1.92567960854192,1.9291660761492,1.92170864543607,1.92522361277857,1.9197896632653,1.92549911021892,1.84745733530379,1.84722933742212,1.94098396634938,1.79179735243979,1.97405315910404,1.78554641051719,1.7844539206675,1.77899147141903,1.88264500837569,1.88107752293917,1.87998503308948,1.87852204668206,1.87800905144829,1.77158154026458,1.96895170650156,1.96932220305928,1.76837057009765,1.81346665111069,1.76561559569407,1.76498860151946,1.81808360821462,1.86047221438276,1.76186313055816,1.76210062835158,1.76078014062021,1.75984914927003,1.85079180432329,1.75700867566083,1.75609668413412,1.75606818439891,1.75446269931545,1.80112626576501,1.75332270990707,1.75087173267906,1.74755626348303,1.74879125200878,1.85116230088102,1.84967081473839,1.74469679005036,1.605884079757,1.82561703822164,1.60186561709247,1.70146269173766,1.64513771505211,1.64373172811511,1.69689323419242,1.76853206859717,1.59266970253157,1.76349711537684,1.59214720738606,1.59200470871001,1.81127217149956,1.76484610284342,1.67708591822187,1.7618726304699,1.58810024498632,1.58735925187088,1.58760624957603
1.90102733758577,1.7971648025709,1.79887478668347,2.09739051317868,1.79529331995881,1.79783929630419,1.79814329347976,1.800081275474,1.80107876620633,1.80143976285231,1.80212375649734,1.80251325287854,1.80486923098918,1.942655950815,1.94279844949104,1.93611051162857,1.93308953969637,1.93628151003982,1.93831449115143,1.93952097994196,1.93048656388057,1.92457761878049,1.92352312857774,1.92151864720134,1.84612734766069,1.9196851642362,1.9147357102215,1.91543870369,1.83684593389415,1.83549694642757,1.83382496196195,1.90647078701077,1.90708828127364,1.82795401650881,1.90066634093978,1.89734137183202,2.01923473932271,1.89438689928197,1.89314241084449,1.89242991746426,1.89032093705876,1.89057743467565,1.8883259555941,1.8894184454438,1.88655897201112,1.88549498189663,1.88470648922251,1.88748046344956,1.81460664051907,1.88998844014799,2.01409528707328,2.01928223888139,1.88966544314895,1.81718111659965,1.92271563608014,1.89620138242364,1.82381205499171,1.90617628974694,1.90608129062957,1.99919942547049,1.89282891375719,1.89099543079205,1.88965594323721,1.96912270491281,1.88684396936321,1.88744246380261,1.88521948445628,1.88523848427975,1.88623597501208,1.88341450122635,1.88280650687521,1.88223651217102,1.88092552435139,1.88148601914384,1.96714672327163,1.88125802126217,1.96762171885845,1.96345125760614,1.96609223306888,1.96864770932599,1.88108702285091,1.94652241489174,1.96853371038515,1.95911929785431,1.95751381277084,1.8770210606277,1.96391675328122,1.87487408057526,1.9623207681095,1.97253317322621,1.9625297661677,1.97649463642032,1.96861920959078,1.95511033510151,1.95565183007049,1.87267010105239,1.87008612506007,1.86842364050619,1.94893539247281,1.95916679741299,1.94440393457451,1.96262476528506,1.95233636087446,1.95530983324798,1.96241576722686,1.96634873068576,1.86074771182312,1.94946738753005,1.9433589442835,1.93639550898066,1.85494326575213,1.92677209839161,1.92633510245173,1.92395062460588,1.92672459883293,1.92575560783581,1.92244963855152,1.84802733000798,1.84732433653948,1.84737183609816,1.84785633159672,1.94324494534266,1.97236217481495,1.87326859549179,1.78300043417182,1.87331609505047,1.87995653335427,1.87918704050361,1.87717305921548,1.77289252808421,1.76989055597548,1.96891370685461,1.76672708536724,1.76687908395502,1.76694558333718,1.76466560452042,1.81037917979634,1.83536394766326,1.8342809577253,1.76078014062021,1.86749264915602,1.75691367654346,1.86447167722382,1.75558368890035,1.94964788585304,1.84765683345026,1.75530819146,1.80126876444106,1.80103126664765,1.7985707895079,1.84396136778477,1.93863748815047,1.74777476145297,1.74880075192051,1.84930031818067,1.74504828678461,1.77599899922204,1.60581758037485,1.60264460985486,1.59907264304195,1.85119080061623,1.6826148668525,1.6809998818573,1.59337269600006,1.59120671612415,1.59052272247912,1.58868923951398,1.58813824463327,1.76030514503338,1.58477527587856,1.67885290180486,1.67624042607733,1.58469927658466,1.58310329141294,1.76047614344464,1.63396581885002
1.91245573140475,1.79792479550982,1.79768729771641,1.79449532737295,1.90042884314637,1.79610081245642,1.79854228977269,2.06116734972751,1.85312878261047,1.80170576038093,1.80145876267579,1.80530622692906,1.80528722710559,1.86211569911317,1.9339065321057,2.02285420569431,1.93614851127551,1.92942257376609,1.93750699865383,1.93819099229885,1.92969807120645,1.92277263555056,1.92301013334397,1.93634800942198,1.93650000800976,1.84384736884393,1.91365272028354,1.91257923025732,1.91053674923398,1.90813327156465,1.90698378224454,1.90425730757617,1.90402930969449,1.93401103113481,1.89964035047224,1.90285132063917,1.89920335453236,1.89665737818699,1.89343690810833,2.00382588248615,1.8916319248784,1.89024493776487,1.93184505125889,1.92974557076513,1.9297645705886,1.88443099178215,1.88527648392669,1.88754696283171,1.88753746291998,1.88719546609746,2.00880383623606,1.8145116414017,1.88797445885985,1.89066293388128,1.89138492717325,1.82126607864633,1.92157564667176,1.90316481772647,1.91712018806735,2.00149840411071,1.96645322971486,1.9794586088821,1.98923401805893,1.97974360623419,1.96864770932599,1.95695331797839,1.8834810006085,1.88532398348538,1.88131502073258,1.88039352929415,1.88063102708756,1.96605423342193,1.97209617728633,1.96657672856744,1.97255217304968,1.87998503308948,1.9724001744619,1.97134568425915,1.96572173651115,1.97598164118655,1.96578823589331,1.96347975734135,1.96198827119872,1.96256776581464,1.96020228779226,1.96349875716482,1.87615656865968,1.95316285319554,1.87395258913682,1.96241576722686,1.96007878893969,1.96185527243441,1.94966688567651,1.96282426343153,1.95339085107721,1.87018112417744,1.94304544719619,1.94661741400911,1.93947348038328,1.95958479352939,1.94948638735352,1.86452867669424,1.86375918384358,1.86363568499101,1.95024638029244,1.86287569205209,1.95432184242739,1.95193736458153,1.85812573618385,1.94764340447665,1.85486726645824,1.94284594904973,1.85383177607897,1.8500888108548,1.84978481367923,1.92588860660012,1.84805582974319,1.8456618519856,1.8453768546335,1.84480685992932,1.93365953440056,1.78654390124952,1.78527091307684,1.87039962214738,1.77996046241615,1.87007662514834,1.87617556848315,1.8726986007876,1.87513057819214,1.77104954520733,1.76838956992112,1.76613809083958,1.76504560098988,1.76461810496174,1.76345911572989,1.93725050103694,1.80941018879922,1.80749120662845,1.757939667011,1.75846216215651,1.95955629379418,1.75646718069185,1.7557261875764,1.75382620522911,1.75376920575869,1.75235371890995,1.79897928571257,1.79891278633041,1.79801029471545,1.74817375774591,1.74827825677501,1.74503878687287,1.7451242860785,1.74441179269826,1.74310080487863,1.93643350862761,1.73969033656523,1.60277760861917,1.60112462397703,1.71543706190202,1.59774265539884,1.76573909454664,1.76658458669119,1.59222320667995,1.63762328486856,1.63652129510713,1.6369297913118,1.70671614292793,1.58354028735281,1.58592476519867,1.58558276837616,1.58544026970011,1.75521319234263,1.58398678320443,1.75596368536981,1.5834832878824
1.9170536886852,1.79681330583665,1.79508432190061,1.79606281280947,1.79699380415964,1.79499882269498,1.79744979992299,1.89806336512399,1.84780883203804,1.91397571728258,1.80257975226069,1.96942670208838,1.90008684632386,1.93631950968677,1.93641450880413,1.93573051515911,1.93412503007564,1.94010047455788,2.01294579775317,1.93564501595348,1.92550861013066,2.00974432749797,1.92286763466792,1.9342960284869,1.9339825313996,1.91612269733502,1.93558801648306,2.02105872237611,1.91012825302931,1.90781977447735,1.90613829009999,1.90443780589916,1.93304204013768,1.90550179601365,1.89876635859249,1.89953585144314,1.89445339866413,1.89432039989982,1.89165092470187,1.8920499209948,2.00333188707585,1.88864895259314,1.88767046168429,1.88664447121675,1.92759859071269,1.88819295682979,1.88523848427975,1.92575560783581,1.81145266982256,1.81220316284974,1.92360862778337,1.81418864440266,1.88784146009554,1.88954194429637,1.9199701615883,1.91822217782879,1.91997966150003,1.89851936088734,2.00643835821368,2.00830984082577,1.97973410632245,1.98296407631285,1.96612073280409,1.97749212715265,1.97267567190225,1.88429799301784,1.88426949328263,1.88241701049402,1.88194201490719,1.95256435875614,1.87972853547259,1.88020353105942,1.9720106780807,1.95238386043315,1.97808112168031,1.96179827296399,1.96743172062372,1.96671922724348,1.9695882005879,1.9632327596362,1.96309976087189,1.96292876246063,1.95554733104139,1.96946470173533,1.96339425813572,1.98285007737202,1.9453919253951,1.9439859384581,1.9570863167427,1.95583232839349,1.94542042513031,1.94383393987032,1.95494883660199,1.946693413303,1.9397394779119,1.93925498241334,1.94355844242996,1.94909689097233,1.94191495769955,1.94352044278302,1.94657941436216,1.94529692627774,1.95862530244401,1.86112770829258,1.94594292027582,1.93942598082459,1.94863139529724,1.85814473600733,1.94773840359401,1.93857098876831,1.94976188479388,1.93957797941238,1.94662691392084,1.92441612028097,1.92425462178145,1.92318113175522,1.85015531023695,1.84481635984105,1.8435528715801,1.8443603640777,1.84455986222417,1.78771239039311,1.7828389356723,1.7793239683298,1.77673049242574,1.87430408587107,1.82120907917592,1.86906013459253,1.7721610348805,1.87335409469742,1.76724958051274,1.76497910160773,1.76165413249996,1.76192962994032,1.76054264282679,1.80764320521623,1.7566381791031,1.80447973460799,1.75446269931545,1.80167726064573,1.75363620699438,1.7529902129963,1.95367584842931,1.86718865198045,1.74790776021728,1.92259213722756,1.79524582040013,1.74703376833753,1.81897659991784,1.85379377643202,1.85045930741252,1.74239781141013,1.74214131379324,1.831335985087,1.82999649753215,1.73846484795123,1.65097066085831,1.64716119625198,1.64657220172432,1.71271058723365,1.59543417684688,1.76425710831575,1.59122571594762,1.5892402343947,1.63598930004989,1.63466881231852,1.63399431858523,1.63436481514295,1.5843952794091,1.58362578655844,1.58395828346922,1.7549186950788,1.57979732212864,1.6286743680128,1.75335120964228,1.75347470849486
1.84442686345986,1.84263138014166,1.79741180027605,1.89077693282211,1.84281187846466,1.92278213546229,1.92226914022852,1.7963573100733,1.84677334165877,1.84755233442116,1.79965377944586,1.8040142389329,1.80516372825301,1.93690850421443,1.93757349803598,1.93765899724161,1.85774573971439,2.01236630313724,1.9336975340475,1.92505261436731,1.85038330811863,1.92264913669798,1.84782783186151,1.92285813475618,1.91723418700819,1.91511570669096,1.91505870722054,1.91627469592281,1.90921626150261,1.9072877794201,1.90516929910287,1.90623328921736,1.93265254375649,2.01210980552036,1.89744587086112,1.82415405181422,1.82149407652801,1.93175955205326,1.89098593088032,1.89026393758834,1.93030606555758,1.89070093352822,1.88946594500248,1.88937094588511,2.00904133402947,1.81133867088172,1.92686709750898,1.81125317167609,1.88235051111186,1.88263550846395,1.88349050052024,1.88677746998106,1.88543798242621,1.88778446062512,1.89270541490462,1.89469089645754,1.99155199652263,1.89607788357107,1.91579020042425,1.99029800817341,1.98708703800648,1.97268517181399,1.88636897377639,1.88504848604502,1.98238458169693,1.95359034922368,1.88373749822539,1.95328635204811,1.88038402938241,1.8780375511835,1.87893054288673,1.87830354871212,1.98131109167071,1.95264985796177,1.97212467702154,1.98133959140592,1.96519924136565,1.96368875539955,1.96100028037813,1.95258335857961,1.96770721806408,1.96729872185941,1.87638456654136,1.95554733104139,1.87405708816592,1.95350485001805,1.95349535010631,1.95075937552621,1.873297095227,1.96121877834807,1.94324494534266,1.94221895487512,1.86792014518416,1.94382443995858,1.9376304975064,1.9447934309557,1.94895439229628,1.95681081930234,1.94655091462695,1.94998038276382,1.95488233721984,1.9582073063276,1.86036771535366,1.94683591197904,1.95636432345073,1.95947079458855,1.9500278823225,1.93662350686234,1.94582892133498,1.9378394955646,1.93874198717957,1.92398862425283,1.93354553545972,1.94181995858219,1.9254136110133,1.84718183786343,1.8468873405996,1.84503485781099,1.84473086063542,1.84276437890597,1.84466436125327,1.78470091837265,1.7817464458226,1.78137594926488,1.77571400186994,1.77480201034324,1.87705906027464,1.76867456727322,1.76794307406951,1.76464660469695,1.87012412470702,1.76203412896942,1.76062814203242,1.75928865447758,1.75693267636693,1.7555171895182,1.75532719128347,1.94671241312647,1.95941379511814,1.75157472614756,1.9567728196554,1.86116570793952,1.86115620802779,1.95657332150893,1.86061471305881,1.856966746952,1.74364229984761,1.85557975983848,1.83617144016086,1.74310080487863,1.7408018262384,1.93234854658092,1.73907284230236,1.73762885571842,1.94010997446962,1.73562437434202,1.64798768857305,1.74902874980219,1.64517571469906,1.59511117984784,1.59332519644138,1.68479034664015,1.58807174525111,1.58777724798728,1.70018020365324,1.58487027499592,1.74295830620258,1.58215330023929,1.58407228241006,1.58019631842158,1.58451877826167,1.57851483404422,1.68289036429286,1.6284653699546,1.57827733625081,1.5747338691731
1.79743080009952,1.79628131077941,1.84177638808538,1.79275684352518,1.84203288570227,1.79524582040013,1.9209866521441,1.79516982110624,1.79425782957954,1.79852328994922,1.90217682690588,1.80152526205794,1.85097230264629,1.93581601436474,1.938437990004,1.93604401224641,1.93571151533563,1.93727900077215,1.92623060342263,1.85306228322831,1.92263963678625,1.92271563608014,1.91990366220614,1.91663569256879,1.91644569433406,1.91626519601107,1.91496370810317,1.83724493018708,1.83712143133451,2.01838924717817,1.9306765621153,1.83101298808796,1.9309615594674,1.93109455823171,1.89755036989022,1.82296656284716,1.8935604069609,1.89363640625479,1.88944694517901,1.88386099707796,1.88765146186081,1.88705296742142,1.88423149363568,1.88806945797722,1.88603647686561,1.88454499072299,1.88140051993821,1.92624960324611,1.8111771723822,1.8099801835034,1.81191816549764,1.92282013510924,1.88717646627399,1.99806893597385,1.88784146009554,1.99124799934706,1.82120907917592,1.89592588498328,2.0236331984567,1.98811302847402,1.98888252132468,1.95887230014916,1.962843263255,1.97249517357926,1.98586154939248,1.87992803361906,1.88085902496923,1.87859804597595,1.88124852135043,1.88027003044157,1.8774390567441,1.96930320323581,1.97829011973851,1.97264717216704,1.96480024507272,1.95936629555945,1.96359375628218,1.96546523889427,1.97007269608646,1.96996819705736,1.96347025742961,1.96537023977691,1.87435158542975,1.87482658101657,1.96483824471966,1.96997769696909,1.95177586608201,1.95806480765156,1.96367925548781,1.94301694746098,1.9409649665259,1.94183895840566,1.96024028743921,1.86693215436356,1.96877120817856,1.9563833232742,1.86496567263411,1.9511488719074,1.96002178946927,1.86313218966897,1.94955288673568,1.95025588020417,1.94998038276382,1.86093771005785,1.94741540659497,1.93990097641142,1.94966688567651,1.93979647738232,1.94406193775199,1.85150429770353,1.85123830017491,1.922288140052,1.92054965620422,1.84795133071409,1.84783733177325,1.84666884262967,1.84474036054716,1.8453768546335,1.84377136955004,1.84353387175663,1.84318237502238,1.78426392243277,1.82763101950977,1.96634873068576,1.77463101193198,1.87683106239297,1.87400958860724,1.76653708713251,1.76467510443216,1.95965129291155,1.7622906265863,1.7606756415911,1.75798716656968,1.75592568572287,1.96285276316674,1.75078623347344,1.84584235030859,1.7502827381514,1.75027323823967,1.84871132365301,1.74833525624542,1.74767976233561,1.74643527389813,1.79386833319834,1.79160735420506,1.79204435014494,1.74037433021026,1.73863584636249,1.74023183153421,1.84360987105052,1.85501926504603,1.94322594551918,1.84714383821649,1.73229940523426,1.84664984280619,1.84412286628429,1.64740819395713,1.64499521637606,1.5951016799361,1.75808216568705,1.58866073977877,1.63735728733994,1.69008179747737,1.63434581531948,1.75382620522911,1.69315976887999,1.69182978123688,1.58200130165151,1.58070931365535,1.58025331789199,1.69582924407793,1.5776503420762,1.69181078141341,1.62612839166743,1.62576739502144,1.62416190993798
1.8424318819952,1.84216588446658,1.84087389647042,1.84202338579053,1.8506113060003,1.79595831378037,1.79499882269498,1.79560681704612,1.79694630460096,1.79839029118491,1.79911228447688,1.80396673937422,1.80259875208416,1.93863748815047,1.93921698276639,1.93651900783323,1.9296600715595,1.92495761524995,1.92489111586779,1.93426752875169,1.92615460412874,1.92073965443895,1.92086315329153,1.91960916494231,1.91801317977058,1.91511570669096,1.8375869270096,1.9320825490523,1.90632828833472,1.83372996284459,2.00450987613118,1.8983008629174,2.01530177586381,1.82484754537098,1.89758836953716,1.89369340572521,1.89385490422473,1.93010656741111,1.89044443591134,1.88988394111888,1.81618362586732,1.81388464722709,1.88624547492381,1.88344300096156,1.88559948092573,2.00363588425142,2.00927883182289,1.80990418420951,1.81000868323861,1.88170451711378,1.88166651746683,1.88310100413904,1.8839749960188,1.8861124761595,1.88996944032451,1.88805045815374,1.91667369221574,2.02166671672725,1.82454354819542,2.00517486995273,1.98077909661347,1.97947760870557,1.96825821294479,1.96421125054506,1.96374575486997,1.97305566837171,1.88331950210898,1.87942453829703,1.87989003397211,1.87918704050361,1.87760055524362,1.87632756707094,1.97809062159204,1.87756255559668,1.9465889142739,1.87590007104279,1.96279576369632,1.981985585404,1.96235876775644,1.87532057642687,1.96197877128698,1.87374359107862,1.87393358931334,1.97487965142512,1.9571908157718,1.87146361226186,1.96210227013956,1.94369144119427,1.95273535716739,1.96496174357224,1.94256095169763,1.96551273845295,1.93917898311945,1.95970829238197,1.86465217554681,1.95743781347695,1.86352168605017,1.94594292027582,1.95089237429052,1.94843189715077,1.86084271094048,1.94920139000143,1.94849839653293,1.95129137058345,1.93986297676447,1.939843976941,1.92666759936251,1.92424512186971,1.93655700748018,1.93992947614663,1.85009831076653,1.91975166361836,1.93891298559083,1.84723883733385,1.84486385939974,1.84579485074991,1.84341037290405,1.84351487193316,1.84763783362679,1.84090239620563,1.94191495769955,1.78150894802919,1.96298576193105,1.77577100134036,1.76860806789106,1.87765755471404,1.76844656939154,1.84715333812823,1.76287012120223,1.7598681490935,1.75887065836117,1.75880415897902,1.86746414942081,1.75432970055114,1.75155572632409,1.74980774256458,1.75020673885751,1.74878175209704,1.744240794287,1.96139927667106,1.95226986149231,1.74491528802029,1.74032683065158,1.73992783435865,1.78819688589167,1.78637290283827,1.85719474483368,1.85017431006042,1.84337237325711,1.84147239090981,1.73428488678718,1.73271740135066,1.72975342888888,1.72965842977152,1.72943043188984,1.72696045483836,1.59819865116219,1.7411913226196,1.59472168346664,1.75641018122143,1.5879387464868,1.58612426334514,1.63367132158619,1.58203930129845,1.58317929070683,1.58155480579989,1.58169730447594,1.57937932601224,1.57688084922555,1.57950282486481,1.57922732742446,1.57768834172315,1.57633935425657,1.57659585187345,1.57507586599562,1.57545586246508
1.8407123979709,1.84116839373425,1.8437618696383,1.7930228410538,1.79413433072697,1.794637826049,1.90369681278372,1.79572081598696,1.79775379709856,1.79501782251846,1.96940770226491,1.96684272609606,1.95068337623232,1.93328903784283,1.93894148532603,1.93298504066727,1.93600601259946,1.93397303148786,1.93402053104654,1.93188305090583,1.84885382232905,1.91938116706064,1.84607034819027,1.84288787775855,1.91439371339899,1.91366222019528,1.91028025161709,1.92940357394261,1.83302696937609,1.90570129416011,1.83126948570484,1.90150233317259,1.90059034164589,2.0123568032255,1.89448189839934,1.89691387580387,1.89175542373097,1.92687659742071,1.89081493246906,1.88765146186081,1.88636897377639,1.81271615808351,1.88703396759794,1.88423149363568,2.0070938521235,2.00909833349989,1.92272513599187,1.88103952329223,1.92269663625666,1.88424099354742,1.8837944976958,1.88374699813712,1.8850959856037,1.91942866661932,1.91759518365418,1.88978894200152,1.89086243202774,1.82121857908765,1.89758836953716,1.91277872840379,1.97821412044462,1.9555758307766,1.97272317146094,1.97891711391312,1.8832720025503,1.97344516475291,1.87841754765296,1.87967153600217,1.87766705462578,1.87727755824458,1.87576707227848,1.87534907616208,1.95656382159719,1.97339766519423,1.87659356459956,1.95604132645169,1.87371509134341,1.87418058701849,1.96476224542577,1.96700422459558,1.87394308922508,1.97017719511556,1.96183627261094,1.96096228073118,1.96201677093393,1.93947348038328,1.95842580429754,1.95986029096975,1.97872711567839,1.95714331621312,1.94675041277342,1.86756864844991,1.93763999741814,1.95410334445745,1.95713381630138,1.86345518666801,1.93185455117063,1.97205817763938,1.94796640147569,1.95809330738677,1.94360594198864,1.95290635557865,1.94840339741556,1.94643691568611,1.93907448409035,1.9432829449896,1.85446827016531,1.94059446996818,1.93761149768293,1.93634800942198,1.84888232206426,1.96683322618432,1.93958747932412,1.84567135189734,1.84672584210008,1.84430336460728,1.8412348931164,1.84190938684969,1.84196638632011,1.92957457235387,1.95602232662821,1.77886797256645,1.77802248042191,1.77254103134996,1.7694250603004,1.76795257398124,1.76603359181048,1.7631741183778,1.86898413529864,1.86703665339266,1.75587818616419,1.75412070249294,1.75316121140755,1.84859732471217,1.75052023594481,1.74773676180603,1.74723326648399,1.74444029243347,1.74247381070402,1.74176131732379,1.94687391162599,1.73927234044883,1.94297894781404,1.73896834327326,1.9259361061588,1.78440642110882,1.8505068069712,1.84890132188774,1.73411388837592,1.7328314002915,1.72722645236698,1.77794648112801,1.72852794027488,1.72695095492662,1.84410386646082,1.77248403187954,1.6447957182296,1.59349619485264,1.59204270835696,1.58807174525111,1.68622483331236,1.6842298518477,1.58517427217149,1.5843952794091,1.58145980668253,1.58050031559714,1.62717338195844,1.57911332848362,1.5772323459598,1.57831533589775,1.74180881688247,1.57539886299466,1.73361989296563,1.57224489229815,1.57464836996747,1.57438237243885
1.9131207252263,1.84016140309018,1.7935453361993,2.05276942775246,1.98002860358628,1.793231839112,1.90298431940348,1.7939348325805,1.97618113933301,1.97194417869854,1.89694237553908,1.79939728182897,1.79975827847496,1.93656650739192,1.85776473953787,1.85658675048254,1.93538851833659,2.01561527295111,1.92919457588441,2.00960182882193,1.93273804296212,1.93107555840823,1.91946666626626,1.84110189435209,1.92946057341303,1.9100997532941,1.91024225197015,1.90977675629506,1.83411945922578,1.90641378754035,1.92832058400466,1.90062834129284,1.89805386521225,1.92780758877089,1.92628760289305,1.89347490775527,1.92631610262826,1.92628760289305,1.89034943679397,1.88638797359986,1.88559948092573,1.88395599619532,1.8837659979606,1.88244551022923,1.8810585231157,1.80948618809311,1.88162851781989,1.80509722887086,1.88129602090911,1.88050752823498,1.80719670936462,1.88147651923211,1.88482998807508,1.91923866838459,1.88644497307028,1.88736646450872,1.89241091764079,1.89341790828485,1.89797786591836,2.00168840234544,1.90727827950837,1.98234658204998,1.97641863712642,1.88383249734275,1.97626663853864,1.87951003750265,1.87931053935619,1.87736305745021,1.8802510306181,1.87543457536771,1.87625156777704,1.87500707933957,1.87349659337347,1.96347025742961,1.96346075751787,1.95905279847215,1.95017038099855,1.95599382689301,1.9607057831143,1.95910029803083,1.97181117993423,1.95672532009671,1.87083661808725,1.96307126113668,1.95684881894929,1.9520323636989,1.93907448409035,1.94559142354157,1.96874270844335,1.93968247844148,1.95227936140404,1.95846380394449,1.94925838947185,1.96330875893009,1.95075937552621,1.86189720114323,1.8625906947,1.94907789114885,1.94613291851055,1.95096837358441,1.9369275040379,1.94321644560745,1.94691191127294,1.94323544543092,1.9408604674968,1.92738009274275,1.96006928902795,1.92592660624707,1.93665200659754,1.85076330458809,1.93858998859179,1.8477708323911,1.95591782759911,1.84588034995554,1.84682084121745,1.84224188376047,1.84244138190693,1.84131089241029,1.84036090123665,1.84012340344323,1.93072406167399,1.77643599516191,1.77248403187954,1.76996655526938,1.7662995893391,1.86755914853817,1.80965718650436,1.80770970459839,1.86663765709973,1.86728365109781,1.75508019357832,1.79919778368251,1.7506722345326,1.74923774786039,1.74585577928221,1.74476328943251,1.85508576442818,1.85562725939716,1.73911084194931,1.7395003383305,1.85864823132936,1.78530891272378,1.78489091660738,1.78268693708451,1.73330639587832,1.72985792791798,1.73203340770564,1.73004792615271,1.73108341653199,1.72904093550865,1.83448995578351,1.72600096375297,1.85075380467635,1.72421498034652,1.72382548396532,1.71905652827361,1.75405420311078,1.59169121162271,1.58949673201158,1.5861147634334,1.74914274874303,1.68194987303095,1.58100381091918,1.58078531294924,1.75026373832793,1.57669085099082,1.57626335496268,1.57697584834291,1.57363187941167,1.73950983824224,1.57381237773467,1.73737235810153,1.73591887160585,1.57057290783253,1.57297638550186,1.57202639432821
1.9130162261972,1.89646737995226,1.79176885270458,1.90079933970409,1.79208234979189,1.79231034767356,1.79082836144267,1.79207284988015,1.97186817940465,1.96772621788755,1.79835229153796,1.79612931219162,1.79804829436239,1.93062906255662,2.01153031090443,1.93424852892822,1.93332703748978,2.00641935839021,2.00522236951141,1.93077156123267,1.84709633865781,1.9269525967146,2.0042818782495,1.84132039232203,2.00919333261726,1.91238923202259,1.91205673511181,1.90737327862573,1.92719959441975,1.9024428244345,1.82746002109852,1.82679502727696,1.92646810121604,1.8969993750095,1.89793036635968,1.89201192134785,1.89246791711121,1.89087193193948,2.01188180763868,1.88672997042238,1.9241121231054,1.88323400290335,1.8837659979606,1.88096352399834,1.80727270865851,1.80761470548102,1.9206731550568,1.80762420539276,1.88002303273642,1.80705421068857,1.91932416759022,1.91805117941753,1.88329100237377,2.00419637904387,1.88338600149114,1.91339622266666,1.88930444650296,1.89235391817037,1.89463389698712,2.00000691796809,1.99963642141037,1.97353066395854,1.97912611197132,1.96604473351019,1.95353334975326,1.9496383859413,1.94896389220801,1.94972388514693,1.87792355224266,1.87432308569454,1.87514957801561,1.8751210782804,1.87454158366448,1.94318794587224,1.95089237429052,1.95321985266595,1.94978088461735,1.95701981736054,1.951956364405,1.87107411588067,1.9679732155927,1.95112037217219,1.94688341153773,1.95924279670688,1.97208667737459,1.86817664280104,1.96338475822398,1.93867548779741,1.95539533245361,1.9589102997961,1.95251685919746,1.95760881188821,1.93577801471779,1.95568982971744,1.94603791939318,1.94671241312647,1.94370094110601,1.8570712459811,1.86022521667761,1.95404634498703,1.94311194657835,1.94607591904013,1.94382443995858,1.94170595964135,1.85496226557561,1.94592392045234,1.85186529434952,1.92416912257582,1.94309294675487,1.93637650915719,1.93725050103694,1.93001156829375,1.84454086240069,1.93981547720579,1.84117789364598,1.84121589329293,1.84035140132491,1.8376914260387,1.84036090123665,1.83947740944515,1.83812842197858,1.77490650937234,1.7706505489144,1.76803807318687,1.7629936200548,1.76282262164355,1.76018164618081,1.75810116551052,1.850297808913,1.8662386608068,1.86435767828298,1.79792479550982,1.79633831024983,1.85796423768433,1.80753870618713,1.78899487847753,1.85414527316627,1.73926284053709,1.82731752242247,1.73720135969028,1.73315439729054,1.73165341123618,1.79125585747081,1.77863997468478,1.77713898863041,1.72909793497907,1.72855644001009,1.79262384476087,1.72395848272963,1.84981331341444,1.84722933742212,1.72070001300402,1.71932252580223,1.71783103965961,1.92625910315784,1.7153800624316,1.59135871471193,1.59174821109313,1.58775824816381,1.58489877473113,1.58389178408706,1.67837790621803,1.57812533766302,1.57859083333811,1.57580735919932,1.57315688382485,1.57490486758436,1.73379089137688,1.57276738744365,1.73550087548945,1.57116190236019,1.73875934521506,1.84382836902046,1.62102693906494,1.61864246121909,1.63696779095874
1.91035625091099,1.91047024985182,1.8846779894873,1.90337381578468,1.90026734464685,1.79216784899752,1.79329833849416,1.79187335173368,1.79418183028565,1.96651972909702,1.79560681704612,1.79712680292395,1.84481635984105,1.93631000977503,1.92982157005902,2.00536486818746,1.92641110174563,1.92687659742071,2.00806284312062,2.00587786342123,1.84583285039686,1.91790868074148,1.92311463237307,1.92790258788825,1.92933707456046,1.91248423113996,1.92845358276897,1.83346396531597,1.9255181100424,1.90526429822024,1.83042399356029,1.82503754360571,1.9259361061588,1.92606910492311,1.89580238613071,1.92651560077473,2.00955432926324,1.92302913316744,1.88755646274345,1.88551398172011,1.88375649804886,1.88401299566574,1.92326663096085,2.00412987966172,1.92259213722756,1.87959553670828,1.92024565902865,1.87828454888865,1.80478373178355,1.87730605797979,1.87755305568494,1.91778518188891,1.88094452417486,2.00323688795849,1.91438421348725,1.88940894553206,1.88868695224009,1.89212592028869,1.91270272910989,2.00238189590221,2.00296139051813,1.95398934551661,1.95306785407817,1.96612073280409,1.95296335504907,1.958805800767,1.95369484825278,1.94821339918083,1.87487408057526,1.87435158542975,1.87505457889825,1.96629173121534,1.96241576722686,1.95984129114628,1.96616823236277,1.95029387985112,1.94567692274719,1.95344785054763,1.96025928726268,1.87096961685156,1.86903163485732,1.86950663044415,1.87071311923468,1.94991388338166,1.95259285849135,1.95804580782808,1.95908129820736,1.95937579547119,1.86536466892705,1.9419529573465,1.94569592257067,1.94775740341748,1.95015138117507,1.94867889485592,1.94998988267555,1.94189595787608,1.86026321632456,1.8575652413914,1.93933098170723,1.94007197482267,1.95640232309767,1.94240895310985,1.93362153475361,1.9395304798537,1.92386512540025,1.93308003978463,1.93735500006604,1.93915048338424,1.84842632630091,1.84687784068787,1.93513202071971,1.94666491356779,1.91728168656687,1.92506211427905,1.92633510245173,1.8426408800534,1.84228938331915,1.84018990282539,1.8375869270096,1.83667493548289,1.92534711163114,1.77052705006183,1.81468263981296,1.76472260399084,1.76209112843984,1.75959265165315,1.85974072117905,1.75307571220193,1.75287621405546,1.79798179498024,1.74844925518626,1.74625477557514,1.79415333055044,1.74110582341397,1.92792158771173,1.787788389687,1.73870234574464,1.73452238458059,1.83008199673778,1.73196690832348,1.83555394589799,1.83366346346243,1.72806244459979,1.72652345889848,1.72597246401777,1.85381277625549,1.93881798647346,1.93881798647346,1.92079665390937,1.72017751785852,1.7189235295093,1.71756504213099,1.9269240969794,1.84656434360056,1.84057939920659,1.81127217149956,1.743015305673,1.58767274895818,1.58522177173017,1.58425278073305,1.58238129812096,1.57896132989583,1.74253081017444,1.57756484287057,1.73563387425376,1.73239440435162,1.57474336908484,1.62108393853536,1.57192189529911,1.57018341145133,1.57087690500809,1.57100990377241,1.56921442045421,1.6174739720755,1.61563098919862,1.61722697437035
1.90618578965867,1.78804488730389,1.78966937221082,1.90057134182242,1.79244334643787,1.79040086541453,1.79162635402854,1.79196835085105,1.79422932984433,1.89386440413647,1.96345125760614,1.9653417400417,1.79658530795498,1.93296604084379,1.93301354040248,2.00221089749095,1.92304813299091,1.93099005920261,2.00885133579475,1.92102465179105,1.92954607261866,2.00141290490509,1.91406121648821,1.91265522955121,1.91142024102547,1.90993825479458,1.90797177306513,1.92513811357294,1.92714259494933,1.90161633211343,1.92458711869222,1.9252331126903,1.89671437765741,1.89622988215885,1.89271491481635,1.89393090351862,1.88955144420811,1.88704346750968,1.88613147598298,1.92066365514506,1.80901119250628,1.92314313210828,2.00764484700421,1.87928203962098,1.80550572507552,1.87873104474026,1.87974753529607,1.8804600286763,1.87882604385763,1.80454623399014,1.80531572684079,1.91646469415754,1.88079252558708,1.88208451358324,1.81070217679538,1.81211766364411,1.89191692223049,1.89203092117133,1.99891442811839,1.99584595662751,1.83776742533259,1.96267226484375,1.95211786290452,1.87836054818254,1.96351775698829,1.95428384278044,1.87613756883621,1.95012288143986,1.87668856371692,1.87418058701849,1.87194810776042,1.94306444701966,1.95981279141107,1.95844480412102,1.95983179123454,1.96298576193105,1.94308344684314,1.95370434816452,1.95888180006089,1.97030069396813,1.95399884542835,1.95288735575518,1.96008828885143,1.95434084225086,1.96006928902795,1.95944229485335,1.94979988444082,1.95514833474846,1.86340768710933,1.93540751816007,1.92785508832957,1.95020838064549,1.9464084159509,1.93698450350832,1.85959822250301,1.85889522903451,1.93857098876831,1.94074646855596,1.85729924386278,1.9421619554047,1.93919798294292,1.93401103113481,1.94459393280924,1.94660791409737,1.93846648973921,1.95263085813829,1.9305720630862,1.92796908727041,1.93371653387097,1.93397303148786,1.9363005098633,1.94194345743476,1.91695868956783,1.92055915611596,1.8423273829661,1.91612269733502,1.83918291218132,1.83894541438791,1.83822342109594,1.83615244033739,1.92280113528577,1.76724008060101,1.76587209331096,1.76017214626907,1.75761667001196,1.95664932080282,1.75301871273151,1.80089826788333,1.85030730882473,1.83112698702879,1.74538078369538,1.74357580046545,1.86375918384358,1.73832234927518,1.73569087372418,1.78449192031444,1.73307839799665,1.73217590638168,1.73006692597619,1.72585846507693,1.83349246505118,1.85474376760567,1.72629546101681,1.85655825074733,1.8515992968209,1.72184950232414,1.85139029876269,1.93142705514248,1.71638705307566,1.71670055016297,1.71433507214059,1.71568405960716,1.71324258229089,1.71060160682815,1.7090246214799,1.83885991518228,1.59149171347624,1.63374732088008,1.58468977667293,1.58294179291342,1.57951232477655,1.57780234066398,1.57439187235059,1.73844584812776,1.57333738214784,1.57226389212162,1.62013394736171,1.62754387851616,1.62628989016695,1.56926192001289,1.56909092160164,1.77106854503081,1.56452146405639,1.56811243069278,1.70919561989115,1.61482349670102
1.79261434484913,1.79430532913822,1.79007786841549,1.79123685764734,1.79044836497321,1.78910887741837,1.79020136726806,1.78947937397609,2.06460631777611,1.7941438306387,1.79316533972984,1.79558781722265,1.79563531678133,1.85523776301596,1.93189255081757,2.02231271072533,1.9260406051879,1.92961257200082,2.00544086748135,1.92696209662634,2.00609636139117,1.9254136110133,1.84059839903006,1.912626729816,1.8370929315993,1.83541144722194,1.90694578259759,1.90543529663149,1.90598629151221,1.83093698879406,1.89891835718027,1.89786386697752,1.89360790651958,1.89666687809873,1.89152742584929,1.8929619125215,1.89035893670571,1.88465898966382,1.81241216090794,1.88353800007892,1.92273463590361,1.88201801420108,1.80770970459839,1.87812305038913,1.88015603150074,1.99315748160609,1.87749605621452,1.87713505956854,1.80421373707936,1.87978553494301,1.88328150246204,1.87811355047739,1.88001353282469,2.00218239775574,1.8824645100527,1.88255000925833,1.91033725108751,1.81566113072181,1.9070787813619,1.91018525249973,1.90362081348983,1.95262135822656,1.97946810879383,1.97152618258214,1.96632973086229,1.96581673562852,1.95172836652333,1.94819439935736,1.94607591904013,1.87273660043455,1.87222360520078,1.87262260149371,1.87007662514834,1.86993412647229,1.95072137587926,1.9594042952064,1.94019547367525,1.95107287261351,1.95898629908999,1.96328975910662,1.87050412117648,1.95342885072416,1.94309294675487,1.94749140588886,1.86377818366705,1.86550716760309,1.94967638558825,1.94654141471521,1.86137470599773,1.86165020343808,1.96194077164004,1.94071796882076,1.94028097288088,1.93895098523777,1.93707000271395,1.9416679599944,1.93992947614663,1.85669124951164,1.93568301560042,1.9458859208054,1.94582892133498,1.93184505125889,1.85360377819729,1.85196979337862,1.85146629805658,1.85090580326413,1.8493858173863,1.93617701101072,1.93961597905932,1.93690850421443,1.93715550191958,1.91503970739707,1.84160538967412,1.84031340167796,1.83999990459066,1.83923991165174,1.83731142956924,1.83682693407068,1.83492695172338,1.8343854567544,1.9064802869225,1.81286815667129,1.76021014591602,1.75932665412453,1.75756917045328,1.93420102936953,1.74938974644817,1.85021230970737,1.79491332348936,1.82839101244869,1.79096136020698,1.73866434609769,1.73822735015782,1.81684861968887,1.73266040188024,1.94842239723904,1.94742490650671,1.95285885601997,1.72612446260555,1.72273299411563,1.94934388867747,1.72319848979072,1.85687174783464,1.95628832415684,1.84793233089062,1.92963157182429,1.7167860493686,1.71359407902514,1.71132360012012,1.71125710073797,1.83050949276592,1.75704667530777,1.92033115823428,1.70604164919464,1.80112626576501,1.93061006273315,1.73219490620516,1.58436677967389,1.584110282057,1.57912282839535,1.73405688890551,1.73228990532252,1.57497136696651,1.57461987023227,1.72618146207597,1.56920492054248,1.57012641198091,1.56771343439985,1.61532699202306,1.72085201159181,1.56623144816896,1.7223339978227,1.56243148347437,1.61340800985229,1.56341947429496,1.61158402679889
1.83716893089319,1.78788338880437,1.78969787194603,1.78865288165502,1.78528041298857,1.78663890036689,1.89428240025287,1.8878034604486,1.89311391110929,1.88990294094236,1.79408683116828,1.79745929983473,1.95666832062629,1.92799758700562,2.02217971196102,1.92456811886875,1.92229763996373,1.84774233265589,1.84764733353852,1.92836808356334,1.91584719989467,1.84070289805916,1.92297213369702,1.92323813122564,1.91057474888092,1.92405512363498,1.90596729168873,2.00565936545129,1.90215782708241,2.00773984612158,1.82510404298787,1.89533689045562,1.89444389875239,1.89358890669611,1.89080543255732,2.00530786871704,1.88866795241662,2.00501337145321,1.88471598913424,1.88353800007892,1.8838704969897,1.91972316388315,1.9190581700616,1.9198656625592,1.87749605621452,1.87524457713298,1.87553907439681,1.91632219548149,1.80222825552644,1.87781905321356,1.9138237186948,1.8798615342369,1.87705906027464,1.80455573390188,1.99999741805635,1.91304472593241,1.8900454396184,2.00526986907009,1.90623328921736,1.98640304436146,2.00223939722616,1.87873104474026,1.94865989503245,1.98578555009859,1.94691191127294,1.96918920429497,1.87393358931334,1.87364859196125,1.87214760590689,1.94569592257067,1.86896513547517,1.86981062761972,1.96385025389907,1.95256435875614,1.95642132292115,1.95432184242739,1.95072137587926,1.94090796705548,1.96027828708616,1.95736181418306,1.96563623730553,1.94631341683354,1.95036037923328,1.94300744754925,1.86144120537988,1.86345518666801,1.96793521594575,1.95209886308105,1.94353944260649,1.86014921738372,1.94343494357739,1.94641791586264,1.94980938435256,1.93863748815047,1.85663425004123,1.94234245372769,1.93972997800016,1.932994540579,1.93386853245876,1.93351703572451,1.93737399988952,1.85177029523215,1.94925838947185,1.85241628923023,1.92971707102992,1.95036987914501,1.94290294852014,1.84507285745794,1.93397303148786,1.84353387175663,1.94598091992276,1.93600601259946,1.91194273617098,1.83813792189031,1.83757742709786,1.83735892912792,1.83514544969332,1.83543994695715,1.83378696231501,1.83340696584555,1.9069742823328,1.85103880202844,1.85082980397024,1.75735067248334,1.75254371714468,1.79856128959616,1.74732826560136,1.79513182145929,1.74394629702317,1.73898734309673,1.95151936846513,1.93342203660714,1.84466436125327,1.73079841917989,1.86114670811605,1.94884039335544,1.92647760112778,1.9380199938876,1.72177350303024,1.72202050073539,1.7195220239487,1.72007301882942,1.71353707955472,1.71403107496502,1.71247308944024,1.71062060665162,1.71296708485053,1.79371633461056,1.70881562342169,1.75600168501676,1.70510115793273,1.82475254625362,1.70160519041371,1.74970324353548,1.74893375068482,1.92026465885213,1.58608626369819,1.58205830112192,1.69190578053077,1.57886633077847,1.57573135990543,1.57486686793741,1.57256788929719,1.77916246983028,1.72226749844054,1.56910992142511,1.71921802677313,1.68297586349849,1.71640605289914,1.70261218105778,1.56351447341233,1.56376147111748,1.5652529572601,1.56323897597197,1.61106153165338,1.61068153518392
1.8371974306284,1.90016284561775,1.83615244033739,1.78844388359682,1.7885958821846,1.78603090601575,1.78820638580341,1.78949837379957,1.79173085305764,1.79146485552902,1.79193985111584,1.79332683822936,1.95899579900173,1.9269525967146,1.92848208250418,2.01856024558942,1.9295555725304,1.92737059283101,1.92425462178145,1.91409921613516,1.91562870192473,1.91349122178402,1.92624960324611,1.91151524014284,1.90843726874022,1.92415962266408,1.90401030987102,1.90344031516683,1.90217682690588,1.82567403769206,1.89378840484257,1.89521339160305,2.01130231302276,1.92168014570086,1.88805045815374,1.88968444297242,1.92141414817224,1.88567548021963,2.0080058436502,1.80770970459839,1.88062152717582,1.88145751940863,1.80404273866811,1.87660306451129,1.80241825376117,1.8022947549086,1.87400958860724,1.87382909028424,1.87535857607382,1.87503557907478,1.8763180671592,1.91295922672678,1.8028172500541,1.87837004809428,1.90954875841338,2.00567836527476,1.99575095751015,1.90645178718729,1.90448530545784,1.99015550949737,1.9864410440084,1.9464844152448,1.96855271020862,1.95847330385622,1.94449893369187,1.95855880306185,1.94779540306443,1.94903039159017,1.87129261385061,1.86913613388643,1.94717790880156,1.86773964686116,1.9631282606071,1.9418769580526,1.9414589619362,1.93937848126591,1.95872980147311,1.95505333563109,1.95280185654955,1.96145627614148,1.94909689097233,1.94604741930492,1.86469967510549,1.94943888779484,1.94155396105357,1.94712090933114,1.95250735928572,1.86060521314707,1.95329585195985,1.94893539247281,1.93430552839864,1.94045197129213,1.94655091462695,1.93623401048114,1.93726950086042,1.94664591374431,1.94261795116805,1.93637650915719,1.95388484648751,1.92429262142839,1.92903307738489,1.94013847420483,1.93571151533563,1.94181995858219,1.93318453881373,1.93770649680029,1.93457152592726,1.93337453704846,1.84367637043268,1.9471114094194,1.93495152239672,1.92302913316744,1.91054624914571,1.83770092595043,1.83753942745091,1.83467995401824,1.83271347228879,1.83426195790183,1.83406245975536,1.83328346699297,1.92642060165736,1.80577172260415,1.75508969349006,1.80063227035471,1.74989324177021,1.83205797837897,1.84859732471217,1.8551427638986,1.94671241312647,1.73521587813735,1.73347739428958,1.73279340064455,1.72968692950673,1.77635049595629,1.85865773124109,1.9546638392499,1.72346448731934,1.72256199570437,1.76835157027417,1.76552059657671,1.7625756239384,1.82532254095781,1.71089610409198,1.9359110134821,1.83470845375344,1.70822662889403,1.75563118845904,1.83145948393957,1.82970200026832,1.75318971114276,1.75071023417954,1.69771022660176,1.69903071433313,1.69730173039709,1.76407660999276,1.69448025661136,1.58297979256036,1.58070931365535,1.57816333730997,1.62473190464216,1.62340191699906,1.62145443509308,1.56975591542319,1.56761843528248,1.56888192354344,1.56618394861028,1.56528145699531,1.56558545417088,1.56447396449771,1.56226998497485,1.56321047623676,1.56362847235317,1.82068658403041,1.60844905592585,1.55932501233654,1.56035100280408
