1.00140566829878,1.00114988366324,1.00060303375278,1.00117634414278,1.00114988366324,0.999915061284776,1.00010028464155,0.999429952493235,0.998556756668461,0.999068325939541,1.00473968872065,0.993882071949972,0.993926172749203,1.0222918068146,1.09429959179902,1.06432868864161,1.02659604481955,1.04882284763199,1.05768710827742,1.05676981165342,1.05505870064325,0.924476234120181,1.0353103627476,1.10882639506572,1.04399822019611,1.08194254785449,1.08232181472787,0.960330183895006,0.96025080245639,0.954676461433588,1.0741367063906,1.07404850479213,0.938782533390726,0.936842098224561,0.936930299823023,1.08989833203576,1.07978160869217,1.18564998732617,1.08476499900527,1.08751688887729,1.04799375260644,1.07863498791216,1.03389913717221,1.08411230717665,1.09220039375562,1.01237794714746,0.996607501342449,0.996051831272138,1.14290749271146,1.15376510948214,1.15671104287077,1.19424964317622,1.00168791341386,1.12053956734148,1.08285102431865,1.0699383103038,1.06666603100086,1.0336874533359,0.991624111029343,0.992391464935963,0.992250342378424,0.992673710051041,0.99862731794723,0.998980124341078,1.00210246092664,1.00316088010818,1.00429868072834,1.00641551909143,1.00724461411697,1.00758860035097,1.00827657281898,1.01073739741607,1.01361276952593,1.01355984856686,1.01198986011423,1.01395675575994,1.01616179572149,1.01197221979454,1.02904804925679,1.02764564384125,1.025652287716,1.02375595334907,1.0697089861478,1.02808665183356,1.03105904570173,1.03025641115572,1.02941849597033,1.03218802616204,1.03122662873881,1.03095320378357,1.0340314395699,1.03646580368745,1.03828275661577,1.03942055723593,1.04246351238287,1.04284277925626,1.19196522177605,1.07457771438291,1.0394911185147,1.04478321442242,1.0412286900044,1.04102582632794,1.04070830057348,1.04098172552871,1.04836419931998,1.14613567121517,1.04615915935843,1.0471646575809,1.04951082009999,1.04860234363583,1.05179524150016,1.1395558319699,1.06609272061086,1.0664631673244,1.06565171261855,1.0542472459374,1.05516454256141,1.05574667311126,1.05661986893603,1.05964518376328,1.05941585960728,1.06264403811099,1.17377805217318,1.17414849888672,1.06640142620547,1.06876522904426,1.07187874546997,1.07591837867953,1.07547737068722,1.07481585869875,1.07504518285475,1.07615652299538,1.08193372769464,1.08121047458725,1.07962284581494,1.07784999368585,1.07818515976,1.07997565220878,1.08068126499648,1.08054896259879,1.0794817232574,1.08427107005389,1.08273636224065,1.08401528541835,1.08453567484927,1.08405056605773,1.0837771411025,1.08739340663944,1.09066568594238,1.09285308558424,1.0946964989921,1.09615182536672,1.09586958025165,1.09736018726565,1.09993567394075,1.10262582269384,1.10222891550076,1.10239649853784,1.1030580105263,1.10275812509153,1.16905044649561,1.11118137774466,1.22489969864179,1.11262788395944,1.1120104727702,1.11756717347331,1.11493876583914,1.11431253449006,1.11635881157438,1.11762891459223,1.11961345055763
1.00021494671955,1.00042663055586,0.999482873452312,0.999368211374311,0.996783904539373,1.09093029073777,0.998318612352613,0.998697879226,0.999024225140309,0.999518154091697,0.996589861022757,0.996545760223526,1.10946144657465,1.06578401501624,1.0458857344032,1.06360543553423,1.0601832135139,1.04602685696074,1.05407084274048,1.05313590579678,1.05778413003573,0.925517012982033,1.0427369373381,1.05482055632741,1.06095938758036,1.04200486407087,1.04525068289427,1.07987863045047,0.959562829988386,1.01241322778685,1.07327233072567,1.07530978765014,1.32473508794099,1.02743396000494,0.945538775832919,1.11512398919591,1.01072857725622,1.08722582360236,1.08465915708712,0.972122737609383,0.972837170556925,1.06489317887177,1.06534300702393,1.09773063397919,1.10050898433075,1.12694300338983,0.993114718043352,0.992647249571503,0.989683675863178,0.98911918563302,1.13115021963647,1.0009117393474,1.18467976974309,1.16668664365683,1.16186201622095,1.05667278989511,0.995963629673676,1.064249307203,0.991280124795341,0.991694672308112,0.992400285095809,0.992462026214733,0.996034190952446,0.999244729136465,1.00272869227572,1.0033549236248,1.00325790186649,1.00550704262727,1.00794140674482,1.00593923045973,1.00623029573466,1.00780910434713,1.00751803907221,1.00827657281898,1.01067565629715,1.01143419004392,1.01448596535071,1.01485641206425,1.01403613719855,1.01366569048501,1.01505045558086,1.01617943604118,1.07445423214506,1.0240293783043,1.02511425796539,1.02995652572095,1.02953315804833,1.02865114206371,1.02897748797802,1.02905686941664,1.02918917181433,1.03132365049711,1.03553086674375,1.21765834740805,1.04757038493382,1.04929031610383,1.21458011162173,1.0707585851695,1.04168733831641,1.04011734986378,1.03965870155178,1.03895308876408,1.03997622730624,1.03860910253008,1.0367039480033,1.0357690110596,1.11556499718822,1.04769386717167,1.0448361353815,1.04502135873827,1.04547118689043,1.20045903570795,1.09655755271965,1.06791849369902,1.06719524059163,1.06242353411483,1.05392090002309,1.0536739355474,1.05346225171109,1.0752833271706,1.05724610028511,1.05931001768912,1.05915125481189,1.06253819619283,1.06289982274653,1.06461093375669,1.06620738268886,1.06983246838565,1.07037049813627,1.07530096749029,1.07543326988799,1.07762066952985,1.076809214824,1.08235709536726,1.08113991330848,1.07812341864108,1.07840566375616,1.07837920327662,1.07932296038016,1.08039019972155,1.08159856162049,1.0820219292931,1.08431517085312,1.07879375078939,1.0859733609042,1.08563819483005,1.08523246747712,1.08692593816759,1.08812547990668,1.08848710646037,1.0921386526367,1.09462593771333,1.09512868682456,1.09541093193964,1.09810108069274,1.09972399010444,1.10234357757876,1.10244941949691,1.10291688796876,1.10236121789845,1.10547473432416,1.10582754071801,1.10576579959909,1.10781207668341,1.22296808363547,1.11251322188144,1.11300715083282,1.11739959043623,1.11544151495038,1.11739959043623,1.11928710464332
1.00138802797909,1.00012674512108,0.998971304181232,0.999412312173542,0.998539116348768,0.998653778426769,0.997110250453683,0.997992266438303,0.99888310258277,0.999491693612158,0.999685737128775,0.998547936508614,0.998530296188922,0.998583217147999,0.995487341041981,1.05332112915355,1.0534269710717,1.04968722329691,1.05684037293219,1.01053453373961,1.050886765036,1.05975984584128,1.05146889558585,1.05676099149357,1.04430692579073,0.954147251842816,0.953970848645892,1.10334025564138,1.05642582541941,1.07276958161443,1.07131425523981,1.07030875701734,1.07262845905689,0.957560653703297,0.957146106190526,0.956449313562675,0.956008305570365,1.0097318991936,0.971346563542917,0.973939690537701,0.973348739828005,1.06020085383359,1.02321792359845,1.04232238982533,1.02044839340674,1.07155239955566,1.05142479478662,0.992850113247966,0.991438887672573,0.990336367691797,1.15403853443737,1.1601332648911,1.13867381598528,0.993238200281199,1.17595663165519,1.14486556819732,0.996528119903833,0.996060651431984,1.05848974282343,0.993732129232586,0.993502805076585,0.994437742020283,0.994287799302897,0.996378177186448,1.00142330861848,1.00191723756986,1.00257874955833,1.00562170470527,1.00537474022958,1.00480142983957,1.00537474022958,1.00629203685358,1.00900864608621,1.00684770692389,1.00798550754405,1.01103728285084,1.01154003196207,1.01500635478163,1.01433602263332,1.01481231126502,1.01367451064486,1.01343636632901,1.00906156704529,1.01573842804887,1.1020260518243,1.23648056851985,1.02380887430815,1.02372949286953,1.02523774020323,1.02726637696786,1.02777794623894,1.03072387962757,1.03105022554188,1.03260257367481,1.05702559628896,1.05773120907665,1.05821631786819,1.0363599617693,1.16427874001882,1.03657164560561,1.03633350128976,1.03772708654546,1.03897954924362,1.14415113524977,1.02916271133479,1.03328172598297,1.15091619785181,1.04468619266412,1.04331024772811,1.04338080900688,1.04456271042627,1.04644140447351,1.05729902124419,1.05776648971604,1.0966810349575,1.0622647712376,1.0557731335908,1.05335640979294,1.05290658164078,1.05406202258063,1.05353281298986,1.0527389986037,1.05520864336064,1.05781941067512,1.06639260604563,1.06355251457515,1.11404792969467,1.06828894041256,1.06770680986271,1.26859477051989,1.07196694706843,1.07418962734967,1.07461299502229,1.08173968417802,1.08072536579571,1.08182788577649,1.07777943240708,1.07777943240708,1.07779707272677,1.07788527432523,1.08125457538648,1.08113991330848,1.07995801188909,1.07914655718324,1.07830864199785,1.07992273124971,1.08298332671634,1.08404174589788,1.10468974009785,1.08760509047575,1.0883018831036,1.08947496436315,1.09253555982978,1.09090383025823,1.09055984402423,1.09638114952273,1.09657519303934,1.09967988930521,1.09848034756612,1.09903601763643,1.09904483779628,1.09820692261089,1.10534243192647,1.22724586116088,1.1085176894711,1.10924976273834,1.11094323342881,1.11170176717558,1.11811402338378,1.11763773475208,1.1123720993239
0.998248051073843,0.997762942282302,0.999818039526468,0.998071647876919,0.996766264219681,0.996775084379527,0.997612999564916,0.997586539085378,0.997313114130145,0.996819185178758,0.996828005338604,0.998345072832152,0.998327432512459,0.998786080824462,1.27332237619745,1.02388825574676,1.04533006433289,1.05411494353971,1.05235091157047,1.04994300793245,1.02005148621366,1.04925503546445,1.04575343200551,1.04630910207582,1.05144243510631,1.0599538893579,1.06679833339855,0.968259507596745,1.06901219351995,1.08443865309096,1.08493258204235,1.03547794578468,0.961168099080395,0.956096507168827,0.956149428127904,0.955823082213595,0.955452635500054,1.12393532888227,1.11675571876746,1.07712674057846,1.07767359048892,1.064363969281,0.982662828625598,0.982689289105137,0.986384936080697,0.986667181195776,1.02747806080417,0.998468555069999,1.10827072499541,1.13031230445108,1.16678366541514,1.12609626804459,1.18458274798478,0.989392610588253,0.991606470709651,1.16695124845222,1.19916247221056,0.997568898765686,0.9974189560483,0.997313114130145,0.994499483139206,0.995452060402596,0.995399139443519,0.99383797115074,1.00279925355449,1.00045309103539,1.00053247247401,1.00241116652125,1.0032226212271,1.00460738632296,1.00254346891895,1.0014850497374,1.00167027309417,1.03488699507498,1.00642433925128,1.60184686998907,1.01261609146331,1.01244850842623,1.01455652662948,1.01422136055532,1.01584426996702,1.01699971090688,1.01750246001811,1.01862262031858,1.01871082191704,1.01898424687227,1.02004266605382,1.0205365950052,1.02279455592583,1.02476145157154,1.02579341027354,1.02354426951276,1.02622559810601,1.03336110742159,1.36757460431401,1.03262903415435,1.03326408566328,1.07227565266305,1.26076246857646,1.03579547153914,1.03616591825268,1.03593659409668,1.03687153104038,1.03498401683329,1.03148241337435,1.03133247065696,1.06873876856472,1.04070830057348,1.04159913671794,1.04025847242132,1.04075240137271,1.04308092357211,1.04345137028565,1.17964345847091,1.24300748680605,1.05584369486957,1.05404438226094,1.051918723738,1.05065744088,1.05112490935185,1.05343579123155,1.05491757808571,1.05439718865479,1.05526156431972,1.05694621485034,1.06215892931945,1.06162089956883,1.06234415267622,1.06678069307886,1.06856236536779,1.06881815000333,1.07125251412089,1.07207278898658,1.14647083728933,1.08112227298879,1.07838802343647,1.07706499945954,1.07723258249661,1.07612124235599,1.07329879120521,1.08233945504757,1.08099879075094,1.07799993640323,1.07816751944031,1.08006385380725,1.08082238755402,1.08119283426756,1.08091940931233,1.08375068062296,1.08704942040544,1.27465422033423,1.34236658747355,1.0901541166713,1.089942432835,1.0913360180907,1.0920239905587,1.09655755271965,1.09640761000226,1.09661929383857,1.09681333735519,1.09869203140243,1.09653109224011,1.103304975002,1.10258172189461,1.1977953474344,1.11301597099267,1.11163120589681,1.10640085110801,1.10878229426649,1.10892341682403,1.11174586797482
0.998839001783539,1.03336110742159,0.996219414309216,0.995540262001058,0.996757444059835,0.997260193171068,1.00042663055586,0.999879780645391,0.998900742902462,0.996916206937066,0.996898566617374,0.997401315728608,0.996175313509985,0.99576958615706,0.996166493350139,1.14489202867686,1.14508607219347,1.04458035074596,1.03278779703158,1.03129719001758,1.09961814818628,1.04038195465917,1.04084942313102,1.0334581291799,1.0428692397358,1.04308092357211,1.06383475969023,1.06954140311072,1.06230887203683,1.06319088802145,1.06156797860975,1.06095056742052,1.11598836486084,1.05782823083496,0.957004983632987,0.956722738517908,0.958680814003766,0.960330183895006,0.962517583536865,1.05491757808571,1.05512926192202,1.04691769310521,1.03865320332931,1.09289718638347,0.986023309527002,0.987849082615167,1.01955755726228,1.03554850706345,1.04163441735733,1.14758217742995,0.998380353471536,0.968180126158129,0.968797537347363,1.00454564520403,1.00476614920019,1.17968755927014,1.19778652727455,1.21512696153219,1.19196522177605,0.993423423637969,0.993167639002429,0.995337398324595,0.995840147435829,0.994552404098283,0.995152174967825,0.996748623899988,1.00293155595218,0.999315290415234,1.00174083437294,1.00188195693048,1.00046191119524,1.00087645870801,1.00162617229494,1.00197897868879,1.00286981483325,1.00525125799173,1.0088146025696,1.00962605727545,1.01267783258224,1.01552674421256,1.01701735122657,1.01722021490303,1.01719375442349,1.01792582769073,1.01886076463443,1.01954873710243,1.01963693870089,1.01874610255642,1.0201926087712,1.02268871400768,1.02179787786321,1.02226534633506,1.02593453283108,1.02401173798461,1.02643728194232,1.03056511675034,1.02965664028618,1.0298330434831,1.03201162296512,1.18957495845773,1.0332111647042,1.03265549463389,1.03255847287558,1.03356397109805,1.0324085301582,1.03260257367481,1.03409318068882,1.03874140492777,1.0367039480033,1.03591013361714,1.0375065825493,1.03815927437792,1.04069066025378,1.04133453192256,1.04219008742764,1.1925649926456,1.05386797906402,1.05080738359738,1.05005767001045,1.05056923928153,1.05546442799618,1.05786351147435,1.05651402701788,1.05691093421096,1.05978630632082,1.06346431297669,1.06102994885913,1.06161207940898,1.06184140356498,1.06520188446639,1.06591631741393,1.0690210136798,1.07046751989457,1.07094380852627,1.07903189510524,1.07767359048892,1.07695033738153,1.07530096749029,1.07182582451089,1.07299008561059,1.07466591598137,1.07485113933814,1.07581253676137,1.07635056651199,1.07790291464492,1.07844094439554,1.07830864199785,1.07822044039939,1.07797347592369,1.07747954697231,1.078070497682,1.0921386526367,1.09118607537331,1.08942204340407,1.09146832048839,1.09520806826318,1.09494346346779,1.09381448300748,1.09452009579518,1.09441425387702,1.09628412776442,1.09829512420935,1.09915949987428,1.09929180227197,1.09823338309043,1.09818046213135,1.20062661874503,1.10744162996987,1.10734460821156,1.10858825074987,1.11048458511681
0.99434954042182,0.990936138561339,1.08518836667789,0.996245874788755,0.99581368695629,1.00046191119524,0.999341750894773,0.999262369456157,0.998865462263078,0.996554580383372,0.997189631892299,0.998733159865385,0.997101430293836,0.99493167097167,0.994384821061205,0.994217238024127,0.995310937845057,1.16925331017208,1.03093556346388,1.02895984765833,1.01824335344519,1.0168321278698,1.00519833703265,1.01285423577916,1.0137979928827,1.02663132545893,1.03202926328481,1.06080062470313,1.04436866690965,1.06325262914038,1.03277015671189,1.13088561484108,1.05178642134031,1.05661986893603,1.01146065052346,1.20305216270273,0.961053437002395,0.962323540020248,0.963478980960101,0.965983906356424,1.05397382098217,1.14499787059501,1.09893017571828,1.05674335117388,0.985211854821152,0.985917467608848,1.02718699552924,1.0677244501824,1.10867645234834,1.1159619043813,0.989313229149637,0.968241867277052,0.968180126158129,0.968832817986748,1.15887198203309,0.995249196726133,1.18374483279939,1.17472180927672,1.19282959744098,0.995725485357829,1.23203520795737,0.990918498241646,0.994084935626434,0.993520445396277,0.994402461380898,1.02459386853446,1.05399146130186,1.00036488943693,1.00029432815816,0.999024225140309,0.994331900102128,0.999165347697849,0.999438772653081,0.999165347697849,1.00088527886786,1.00394587433449,1.00825893249929,1.00802960834329,1.00937909279975,1.01613533524195,1.01775824465365,1.01734369714088,1.01674392627134,1.01742307857949,1.01899306703212,1.01930177262674,1.0186843614375,1.02000738541443,1.01880784367535,1.01953109678274,1.01972514029935,1.02038665228782,1.02218596489644,1.02415286054215,1.02466442981323,1.02409993958307,1.02407347910353,1.02913625085525,1.02984186364295,1.02933029437187,1.03222330680143,1.03211746488327,1.03102376506234,1.02991242492172,1.03075034010711,1.03185286008789,1.03444598708267,1.03369627349574,1.03369627349574,1.03441952660313,1.03569844978083,1.03813281389838,1.03874140492777,1.03928825483824,1.04353075172426,1.05212158741447,1.05108080855261,1.04851414203737,1.05082502391707,1.05370039602694,1.05788115179404,1.05686683341172,1.0564611060588,1.05669925037465,1.05692857453065,1.06346431297669,1.06241471395499,1.06130337381437,1.06205308740129,1.0623970736353,1.06283808162761,1.0658722166147,1.06545766910193,1.0668071535584,1.15395033283891,1.07604186091738,1.07447187246475,1.07342227344305,1.07449833294429,1.07547737068722,1.0749393409366,1.07358985648013,1.07383682095582,1.07472765710029,1.07342227344305,1.07408378543152,1.07514220461306,1.07770887112831,1.07859970727278,1.07798229608354,1.07964930629447,1.31064929266659,1.08472089820604,1.08764037111514,1.09197106959962,1.0940085265241,1.09347049677348,1.09321471213794,1.09347049677348,1.091089053615,1.09437015307779,1.09764243238073,1.09738664774519,1.09986511266198,1.10092353184352,1.2413581169148,1.10424873210554,1.10514838840985,1.10536007224616,1.1068947800594,1.10587164151724
0.994825829053516,0.991438887672573,0.992312083497347,0.996678062621219,0.995654924079059,0.996695702940911,0.994058475146896,0.996933847256759,0.995284477365518,0.997295473810453,0.997524797966455,0.99672216342045,0.992867753567658,0.991588830389958,0.992938314846428,0.995584362800289,0.995416779763211,0.99734839476953,0.998768440504769,1.00105286190494,1.01465354838779,1.02793670911617,1.00282571403402,1.02432044357923,1.02374713318922,1.02139215051029,1.03311414294589,1.02083648043998,1.02942731613018,1.09465239819287,1.03606889649437,1.03087382234496,0.995452060402596,0.998203950274612,1.03365217269651,1.05087794487615,1.04415698307334,0.964925487174879,0.966010366835962,0.96548115724519,0.966019186995809,1.04775560829059,1.09424667083994,1.04605331744028,1.05389443954355,0.984964890345458,0.984806127468226,1.06480497727331,1.07584781740076,0.980607731381432,1.0077650035479,1.16772742251868,0.969088602622288,0.971628808657995,0.974671763804936,1.1836125304017,1.00783556482667,1.02961253948695,0.990071762896411,0.989736596822255,0.990389288650874,0.993114718043352,0.980837055537434,0.996254694948601,0.999818039526468,0.988219529328707,0.990424569290259,0.992788372129042,0.993220559961506,0.998733159865385,0.997039689174913,0.996360536866755,0.996536940063679,0.996792724699219,1.00201425932817,1.00130864654048,1.20374013517074,1.00743865763359,1.00791494626528,1.01115194492884,1.01460062742871,1.01562376597087,1.01792582769073,1.01828745424442,1.02619031746662,1.01979570157812,1.01734369714088,1.01900188719196,1.02094232235813,1.02065125708321,1.02096878283767,1.02189489962152,1.02200956169952,1.02953315804833,1.02393235654599,1.02342078727491,1.02396763718538,1.0228651172046,1.02365893159076,1.02567874819554,1.03116488761988,1.03096202394342,1.02992124508157,1.0307679804268,1.02958607900741,1.02916271133479,1.03067095866849,1.03242617047789,1.03536328370668,1.03481643379621,1.0347194120379,1.03713613583576,1.03869730412854,1.03889134764516,1.03954403947378,1.03969398219116,1.04915801370614,1.04916683386599,1.05322410739524,1.05429134673663,1.05754598571988,1.05672571085419,1.0568050922928,1.05116901015108,1.05080738359738,1.05489993776602,1.06394060160838,1.06271459938976,1.06035961671082,1.06266167843068,1.06176202212637,1.06274988002914,1.06294392354576,1.06453155231808,1.06887989112226,1.1493285690795,1.06996477078334,1.07158768019504,1.07181700435104,1.07159650035489,1.07640348747107,1.07842330407585,1.0762182641143,1.07072330453011,1.07166706163366,1.07260199857736,1.07520394573199,1.07417198702998,1.07493052077675,1.07809695816154,1.07924357894155,1.08095468995171,1.08581459802697,1.08691711800775,1.09060394482346,1.09077152786054,1.09042754162654,1.09189168816101,1.0913360180907,1.09012765619177,1.09048046258561,1.09160062288608,1.09752777030273,1.09655755271965,1.2433426528802,1.10157622367214,1.10333143548154,1.10431047322446,1.10552765528324,1.1055011948037,1.10603040439447
0.992462026214733,0.991976917423191,0.990971419200724,0.992400285095809,0.994719987135361,0.996316436067524,0.996175313509985,0.995646103919213,0.995549082160904,0.995681384558597,0.99683682549845,0.99237382461627,0.99123602399611,0.991297765115033,0.989551373465485,0.992038658542115,0.993599826834893,0.995787226476752,0.999959162084007,1.00252582859925,1.00514541607358,1.00631849733312,1.0064860803702,1.0060097917385,1.00616855461574,1.00666248356712,1.00795022690467,1.01079031837515,1.01281013497993,1.03733899951223,1.03627176017084,1.03037107323372,1.02999180636034,1.01967221934028,1.03872376460808,1.00623029573466,1.01071093693653,1.00903510656575,0.966160309553348,0.96555171852396,0.966204410352579,0.968621134150439,0.979849197634659,0.980210824188353,1.06489317887177,0.991377146553649,1.0542472459374,0.984021133241914,0.983932931643452,0.981860194079593,0.982521706068059,0.983439002692064,1.13310829512233,1.13952055133052,0.978878980051576,0.980413687864816,1.16062719384249,1.1792994722369,0.990415749130413,0.989030984034559,0.989419071067792,0.986746562634391,0.983615405888988,0.983791809085913,0.98644667719962,0.98709936902824,0.988695817960403,0.989815978260871,0.992585508452579,0.992523767333656,0.990530411208413,0.994790548414131,0.995619643439674,0.995725485357829,0.996228234469062,0.996686882781065,0.999518154091697,1.00282571403402,1.00501311367588,1.0058951296605,1.00821483170006,1.01756420113703,1.00954667583683,1.00982892095191,1.00673304484589,1.00854117761437,1.00876168161052,1.01071093693653,1.01153121180223,1.02852765982587,1.02736339872617,1.01802284944904,1.02013968781213,1.02919799197418,1.0269312108937,1.02407347910353,1.02320028327876,1.02380887430815,1.02409993958307,1.02697531169293,1.02836007678879,1.02958607900741,1.02993006524141,1.02479673221092,1.02698413185278,1.02784850751771,1.02739867936555,1.02889810653941,1.03027405147542,1.03112078682065,1.03356397109805,1.03442834676298,1.03528390226806,1.03661574640484,1.03957932011316,1.03928825483824,1.05377977746555,1.05026935384676,1.05091322551554,1.13315239592156,1.1852354398134,1.05926591688989,1.05841918154466,1.05833097994619,1.05547324815602,1.05333876947324,1.05206866645539,1.06335847105853,1.0611181504576,1.06125045285529,1.0608711859819,1.06166500036806,1.0609858480599,1.06172674148698,1.06282044130791,1.06295274370561,1.06496374015054,1.0676097881044,1.06949730231149,1.07460417486244,1.07613006251584,1.07774415176769,1.07116431252242,1.07163178099427,1.07152593907612,1.07033521749688,1.07255789777812,1.07485995949798,1.07710910025877,1.07545091020768,1.07581253676137,1.08070772547602,1.08481791996435,1.08752570903714,1.08643200921621,1.09036580050761,1.08832834358314,1.0877285727136,1.08926328052684,1.08890165397314,1.08781677431206,1.08743750743867,1.24327209160143,1.09429077163917,1.09755423078227,1.0995828675469,1.24541539044406,1.10033258113383,1.10214953406214,1.10362250075646,1.10742398965017
0.993705668753047,0.993511625236431,0.990821476483338,0.992726631010119,0.992788372129042,1.08780795415221,1.08758745015606,0.994587684737668,0.995302117685211,0.994614145217207,0.98754037702055,0.986755382794237,1.09320589197809,0.987734420537166,0.988263630127939,0.990036482257026,0.991721132787651,0.99262960925181,1.12734873074275,0.998715519545692,1.00575400710296,1.0208982215589,1.00560406438558,1.00583338854158,1.0058951296605,1.00598333125897,1.00633613765281,1.00788848578575,1.01010234590714,1.05626706254218,1.0715788600352,1.01793464785057,1.02026317004997,1.01968985965997,1.04316912517057,1.02467324997308,1.1786114997689,1.06512250302777,1.04548882721012,1.06918859671687,0.967121706976584,0.966327892590426,0.966848282021352,1.04492433697996,0.971399484501994,0.969344387257828,1.06020967399344,1.04235767046472,0.980598911221586,0.981569128804669,0.983359621253448,0.983624226048835,0.983756528446528,0.981992496477287,0.980351946745893,0.984126975160068,1.00294919627187,0.989498452506407,0.989436711387484,0.988810480038403,0.989022163874713,0.989357329948868,0.988554695402863,0.986649540876083,0.987663859258397,0.987390434303164,0.986720102154853,0.986781843273776,0.992215061739039,0.992126860140577,0.992470846374579,0.992391464935963,1.0092732508816,1.01858733967919,0.9948611096929,0.996254694948601,0.997083789974144,1.00190841741002,1.00391059369511,1.00388413321557,1.00455446536388,1.00034724911724,1.01150475132269,1.00898218560668,1.00907920736498,1.00834713409775,1.00801196802359,1.00888516384837,1.01146065052346,1.01156649244161,1.02197428106014,1.02408229926338,1.02395881702553,1.02173613674429,1.01563258613071,1.01615297556164,1.0176524027355,1.01796110833011,1.05409730322002,1.05092204567538,1.06224713091791,1.02989478460203,1.02802491071463,1.02651666338093,1.02482319269046,1.02596099331062,1.02584633123262,1.02640200130293,1.02872170334248,1.03060039738972,1.03022113051634,1.03224976728097,1.03401379925021,1.03375801461467,1.03531918290744,1.03710085519638,1.04681185118705,1.04633556255536,1.04733224061798,1.04315148485088,1.04431574595057,1.15544976001276,1.16200313877849,1.05693739469049,1.07796465576385,1.04939615802199,1.05050749816261,1.05154827702446,1.08216305185064,1.06313796706238,1.06303212514422,1.06107404965836,1.06069478278498,1.0614621366916,1.06183258340514,1.06312914690253,1.05962754344359,1.06624266332824,1.06687771483717,1.09683979783473,1.07603304075753,1.07605950123707,1.07384564111567,1.07234621394182,1.06985010870534,1.07153475923596,1.07021173525903,1.06919741687672,1.06967370550842,1.07451597326398,1.07714438089815,1.07768241064877,1.07958756517555,1.07941116197863,1.08132513666525,1.08429753053342,1.08270108160126,1.08395354429942,1.08402410557819,1.08587633914589,1.08650257049498,1.08672307449113,1.0875962703159,1.09215629295639,1.09401734668394,1.09710440263011,1.09694563975288,1.09803051941397,1.10176144702891,1.10124987775783,1.10265228317338
0.989269128350406,0.98746981574178,0.98761093829932,0.991668211828574,0.991703492467959,0.991244844155956,0.992179781099654,0.994570044417976,1.00783556482667,0.99046867008949,0.989974741138103,0.989868899219948,0.989657215383639,0.988254809968092,0.988607616361941,0.989286768670099,0.989798337941179,0.991244844155956,0.993008876125197,0.994023194507511,1.01946053550397,1.00015320560062,1.00004736368247,1.00002972336278,1.0003207886377,1.00038252975663,1.00098230062617,1.00203189964787,1.00743865763359,1.07222273170397,1.01355984856686,1.08195136801433,1.01987508301674,1.01924885166766,1.01669100531226,1.0321615656825,1.02326202439768,1.02396763718538,1.02058069580444,1.01357748888655,1.05689329389126,1.02974484188464,1.05467061361002,0.963134994726099,1.06359661537438,1.050428116724,1.06924151767595,1.07288424369243,1.04458035074596,0.979161225166654,0.977749999591262,0.996828005338604,0.983941751803298,0.984038773561606,0.984232817078223,0.984532702512994,0.988087226931015,0.98881930019825,0.989383790428407,0.989471992026869,0.987875543094706,0.98816660836963,0.988554695402863,0.987646218938704,0.98772560037732,0.986861224712392,0.986975886790393,0.989039804194405,0.988263630127939,0.988792839718711,0.990759735364415,0.988598796202094,0.990433389450105,0.991041980479493,0.994084935626434,0.99390853242951,0.994702346815669,0.999870960485545,1.0013703876594,1.00391059369511,1.00494255239711,1.00326672202633,1.00471322824111,1.00562170470527,1.00766798178959,1.00754449955174,1.00872640097114,1.01099318205161,1.01157531260146,1.01156649244161,1.00969661855422,1.01309238009501,1.01201632059377,1.01303063897608,1.01348928728809,1.0152092184581,1.01502399510133,1.0151915781384,1.01987508301674,1.02049249420597,1.02556408611754,1.02634908034385,1.02608447554847,1.0257845901137,1.02571402883493,1.02579341027354,1.02685182945509,1.0270635132914,1.0270635132914,1.02698413185278,1.02844827838725,1.02979776284372,1.03166763673112,1.03282307767097,1.03550440626422,1.04121104968471,1.04954610073937,1.04443040802858,1.04456271042627,1.03961460075255,1.0393764564367,1.04187256167318,1.04311620421149,1.04435984674981,1.1122397969262,1.04742926237629,1.05028699416646,1.05037519576492,1.05701677612911,1.06358779521453,1.05868378634004,1.05880726857789,1.05948642088605,1.05938939912774,1.05940703944743,1.05962754344359,1.0586749661802,1.06140921573252,1.06257347683222,1.06544884894208,1.06640142620547,1.08046076100032,1.08006385380725,1.06990302966442,1.06914449591764,1.06903865399949,1.06914449591764,1.0672658018704,1.07004415222196,1.06977954742657,1.07230211314258,1.0680860767361,1.10216717438184,1.0788907725477,1.07659753098769,1.08116637378802,1.0806283440374,1.08151036002202,1.08290394527772,1.08442983293112,1.08383006206158,1.08430635069327,1.08581459802697,1.1501312036255,1.15249500646428,1.09519042794349,1.0980569798935,1.09774827429889,1.10211425342276,1.10175262686906,1.10222009534091
0.989225027551175,0.991033160319647,0.990600972487183,0.989921820179025,0.9907950160038,0.99072445472503,0.991897535984575,0.992435565735194,0.993370502678892,0.987311052864548,0.987584477819781,0.987893183414398,0.983580125249604,0.984444500914532,0.995796046636598,0.992744271329811,0.990512770888721,0.990653893446261,0.991738773107344,0.993052976924428,0.993890892109818,0.996536940063679,0.999015404980463,0.998777260664616,0.998909563062309,0.999227088816772,1.00006500400216,1.0025346487591,1.00293155595218,1.00407817673219,1.00804724866298,1.0634290323373,1.09622238664549,1.01662044403349,1.01684976818949,1.01690268914857,1.04505663937766,1.02485847332985,1.03136775129634,1.04101700616809,1.03751540270915,1.02266225352814,1.04459799106565,1.01362158968578,0.947858477872472,1.06953258295088,1.06542238846254,0.959157102635461,0.959756873505003,1.03179111896896,0.978155726944187,0.980325486266354,1.10719466549417,0.983483103491295,0.984488601713763,0.985088372583305,0.984082874360837,0.983968212282837,0.988404752685478,0.988951602595943,0.989383790428407,0.980316666106508,0.988510594603633,0.988519414763479,0.987090548868393,0.9869582464707,0.986870044872238,0.987161110147163,0.987778521336397,0.987902003574244,0.9881225075704,0.986676001355622,0.98988653953964,0.992761911649503,0.994428921860436,0.994040834827203,0.9934675244372,1.51429796335563,0.998600857467691,1.00193487788956,1.00227004396371,1.00155561101617,1.00216420204556,1.00221712300464,1.00487199111834,1.00528653863112,1.00700646980113,1.01002296446853,1.01122250620761,1.01081677885469,1.01149593116284,1.02325320423784,1.01734369714088,1.01399203639932,1.01257199066408,1.01064919581761,1.011601773081,1.0126513721027,1.01318940185332,1.01389501464101,1.01442422423178,1.01523567893764,1.04125515048394,1.02434690405877,1.02551998531831,1.02356190983245,1.02369421223015,1.02956843868772,1.02890692669925,1.02847473886679,1.02529066116231,1.02934793469156,1.02899512829772,1.03025641115572,1.03021231035649,1.03083854170557,1.05099260695415,1.04247233254272,1.0413609924021,1.03923533387916,1.03838859853392,1.03989684586763,1.04168733831641,1.04256935430103,1.04534770465258,1.04643258431366,1.04539180545181,1.04861116379568,1.04889340891076,1.05123957142985,1.05696385517003,1.05591425614833,1.05689329389126,1.05654930765726,1.06072124326452,1.05954816200497,1.05950406120574,1.05991860871851,1.06054484006759,1.0623794333156,1.06313796706238,1.10025319969521,1.09428195147933,1.06944438135241,1.06849180408902,1.06864174680641,1.06569581341778,1.06628676412747,1.06773327034225,1.0692503378358,1.0697089861478,1.07025583605826,1.07168470195335,1.07368687823844,1.07336935248398,1.07369569839828,1.25149248057809,1.08046076100032,1.08237473568695,1.08397118461911,1.08223361312941,1.08241883648618,1.08408584669712,1.08214541153095,1.08188962689541,1.26324975365309,1.12802788305091,1.2061568589686,1.09339111533486,1.09496992394733,1.18834895623911
1.0031255994688,0.991482988471804,0.991147822397648,0.990486310409183,0.987117009347932,0.988766379239172,0.990265806413027,0.989374970268561,0.989498452506407,0.98537943785823,0.986861224712392,0.985502920096076,0.98670246183516,0.984338658996377,0.985591121694538,0.986720102154853,0.991412427193034,0.99149180863165,0.992162140779962,0.99237382461627,0.992391464935963,1.12318561529534,0.999024225140309,0.997639460044455,0.999385851694004,0.998918383222155,0.999676916968928,0.999685737128775,1.0019613383691,1.00210246092664,1.00336374378464,1.00649490053005,1.00817073090082,1.01737015762042,1.01613533524195,1.01621471668056,1.01664690451303,1.03706557455699,1.03871494444823,1.04062009897501,1.05220978901293,1.04233120998518,1.03883842668608,1.00846179617575,1.05534976591818,1.0732017694469,1.11227507756559,0.959068901036999,0.95897187927869,0.959377606631616,0.960330183895006,0.978667296215267,0.984567983152379,1.11729374851808,1.00177611501233,1.00913212832406,1.14392181109377,0.986393756240543,0.98765503909855,0.992523767333656,1.0190459879912,1.0638876806493,1.09048928274546,0.989842438740409,0.990124683855488,0.988369472046093,0.987752060856859,0.988607616361941,0.988316551087016,0.988281270447631,0.987663859258397,0.985000170984843,0.984665004910687,0.986049770006541,0.986464317519313,0.992338543976886,0.992435565735194,0.994905210492131,0.997445416527839,0.998380353471536,1.00225240364402,1.00258756971818,1.00144094893817,0.999659276649236,1.00100876110571,1.0038135719368,1.00356660746111,1.00555996358635,1.01408905815763,1.01143419004392,1.01164587388023,1.01168997467946,1.0129953583367,1.01366569048501,1.0137009711244,1.01156649244161,1.0110108223713,1.01165469404008,1.01121368604777,1.01120486588792,1.01224564474977,1.01387737432132,1.01488287254379,1.01708791250534,1.02442628549738,1.02453212741554,1.02558172643723,1.02586397155231,1.0258992521917,1.02511425796539,1.02652548354078,1.02708115361109,1.02654312386047,1.0281131123131,1.02995652572095,1.0307679804268,1.03179111896896,1.05498813936448,1.03931471531778,1.03845915981269,1.04056717801594,1.03807989293931,1.03790348974238,1.03815045421808,1.03499283699314,1.03580429169899,1.04313384453118,1.0444921491475,1.04582399328428,1.04941379834168,1.05256259540678,1.10488378361447,1.05426488625709,1.05469707408956,1.05749306476081,1.0572637406048,1.05883372905743,1.05806637515081,1.05750188492065,1.06115343109698,1.06224713091791,1.0662162028487,1.07162296083443,1.07094380852627,1.06656900924255,1.06648080764409,1.06625148348809,1.06694827611594,1.06568699325793,1.06615446172978,1.06746866554686,1.06867702744579,1.0686593871261,1.07171116243289,1.07267255985612,1.07322822992644,1.0757419754826,1.07814987912062,1.08031963844279,1.08226007360895,1.0799403715694,1.07962284581494,1.08281574367926,1.08327439199126,1.08335377342988,1.08697003896682,1.08598218106405,1.08854002741945,1.09145950032854,1.09246499855101,1.09346167661363
1.02963899996649,1.02636672066355,1.20043257522841,1.27471596145315,0.986649540876083,0.98670246183516,0.989330869469329,0.989410250907946,0.989868899219948,0.984841408107611,0.984753206509149,0.984153435639607,0.984109334840376,0.983474283331449,0.985300056419614,0.987434535102396,1.10175262686906,0.992409105255655,0.992285623017808,0.993079437403967,0.991624111029343,0.991668211828574,0.993149998682736,0.998283331713228,0.997992266438303,1.00047955151493,1.00095584014663,1.00174965453279,1.00040899023616,1.00128218606094,1.00218184236525,1.00220830284479,1.00399879529357,1.00735927619497,1.01284541561931,1.02074827884151,1.02103052395659,1.08565583514974,1.20370485453135,1.02750452128371,1.06820955897395,1.06949730231149,1.03550440626422,1.0491491935463,1.03933235563747,0.954552979195742,0.959465808230078,0.959659851746694,0.959562829988386,0.957957560896377,1.17402501664887,0.978517353497882,0.978499713178189,1.14468034484055,1.13376980711079,0.997630639884609,0.997789402761841,0.987222851266087,1.15733727421985,1.14913452556288,1.15909248602925,0.992938314846428,0.994367180741513,0.993458704277354,0.993670388113663,0.994790548414131,0.994208417864281,0.993820330831048,0.990195245134258,0.991094901438571,0.98333316077391,0.983835909885144,0.984109334840376,0.983818269565451,0.984462141234224,0.985511740255922,0.990442209609951,0.993688028433355,0.994278979143051,0.99493167097167,0.996192953829677,0.993079437403967,0.997754122122456,0.998450914750306,0.998671418746461,1.00069123535124,1.00107932238448,1.00202307948802,1.00283453419387,1.00575400710296,1.14777622094656,1.01196339963469,1.01261609146331,1.01423018071517,1.01406259767809,1.01159295292115,1.01153121180223,1.01086969981376,1.01152239164238,1.01157531260146,1.01111666428946,1.011487111003,1.01382445336224,1.01577370868825,1.01913418958966,1.01928413230704,1.02444392581707,1.02617267714693,1.02463796933369,1.02456740805492,1.0229974196023,1.02429398309969,1.0230944413606,1.02377359366876,1.02342078727491,1.03223212696127,1.02744278016478,1.03175583832958,1.06939146039334,1.03671276816315,1.03621883921176,1.03648344400714,1.03751540270915,1.03617473841253,1.03305240182697,1.03505457811206,1.04533006433289,1.04598275616151,1.04489787650042,1.04703235518321,1.09129191729147,1.06200016644222,1.06848298392918,1.09059512466361,1.06289982274653,1.05437072817525,1.05621414158311,1.0557554932711,1.05627588270203,1.05702559628896,1.05896603145512,1.06641906652517,1.07216981074489,1.07185228499043,1.06754804698548,1.06593395773362,1.06566935293824,1.06531654654439,1.06678069307886,1.06578401501624,1.06571345373747,1.06630440444716,1.06853590488825,1.06971780630765,1.07134953587919,1.07134953587919,1.07592719883938,1.07973750789294,1.08020497636478,1.07987863045047,1.0780881380017,1.07927885958093,1.08092822947217,1.0807606464351,1.08297450655649,1.08487966108327,1.08383006206158,1.08498550300143,1.15827221116355,1.09168882448454,1.0965663728795
0.978834879252345,0.983386081732987,0.981974856157594,0.981833733600055,0.981710251362208,0.982265921432519,0.988060766451476,0.990486310409183,0.991941636783806,0.984400400115301,0.982451144789289,0.98249524558852,0.984118155000222,0.985061912103766,0.987108189188086,0.987399254463011,0.989595474264716,0.991597650549804,0.991509448951342,0.990627432966722,0.98874873891948,0.988325371246862,0.989807158101025,1.01353338808732,0.996519299743987,0.99844209459046,1.00077061678986,1.00100876110571,0.999826859686314,1.0000914644817,1.00095584014663,1.00316088010818,1.00359306794064,1.00353132682172,1.00715641251851,1.00849707681513,1.00981128063222,1.00814427042129,1.00769444226913,1.01677920691072,1.35676108834256,1.09698092039227,1.02738985920571,1.04126397064379,1.04870818555398,0.957984021375915,0.958522051126534,0.960771191887316,0.954773483191896,0.95597302493098,0.951986312680496,1.12492318678505,1.11890783776993,1.16207370005726,0.978490893018343,0.998662598586615,0.998503835709383,1.13698034529481,1.14578286482132,1.14785560238518,1.15503521249999,0.993167639002429,0.993317581719814,0.993714488912894,0.994464202499821,0.99467588633613,0.99467588633613,0.99423487834382,0.990918498241646,0.9842857380373,0.983244959175448,0.982407043990058,0.982715749584676,0.982257101272673,0.983756528446528,0.984268097717608,0.986490777998851,0.990336367691797,0.990010021777487,0.992047478701961,0.993149998682736,0.99416431706505,0.995328578164749,0.995901888554753,0.996695702940911,0.997339574609684,0.997904064839841,1.0017143738934,1.00081471758909,1.00183785613125,1.00436924200711,1.00629203685358,1.00739455683436,1.05347989203078,1.05431780721617,1.00894690496729,1.00777382370775,1.0093879129596,1.01026110878438,1.01127542716669,1.01219272379069,1.01046397246084,1.01086969981376,1.01302181881624,1.03478997331667,1.01849031792089,1.02136569003075,1.02219478505629,1.02369421223015,1.02268871400768,1.02230944713429,1.02220360521614,1.02422342182092,1.02369421223015,1.02439982501784,1.02903922909695,1.02701941249217,1.02655194402032,1.02927737341279,1.0731841291272,1.03511631923098,1.0348340741159,1.03514277971052,1.03508985875144,1.03516042003021,1.0341461016479,1.03518688050975,1.05382387826478,1.05734312204342,1.04644140447351,1.04507427969735,1.12556705845382,1.06910039511841,1.06910039511841,1.11732020899762,1.04859352347598,1.37422500483804,1.14961081419458,1.05519100304095,1.05724610028511,1.05558791023403,1.07021173525903,1.06666603100086,1.06671013180009,1.06550176990116,1.06666603100086,1.06341139201761,1.06270577922991,1.06384357985007,1.06478733695362,1.06416992576438,1.06484907807254,1.06713349947271,1.06949730231149,1.07142891731781,1.07201986802751,1.07281368241366,1.11490348519976,1.08178378497726,1.08154564066141,1.07908481606432,1.07591837867953,1.07842330407585,1.08454449500912,1.08158092130079,1.08064598435709,1.08081356739417,1.18199844114984,1.08700531960621,1.07536270860922,1.07860852743262
0.980925257135896,0.980969357935127,0.981745532001593,0.983042095498985,0.97956695251958,0.98154266832513,0.986931785991161,0.986349655441312,0.983306700294371,0.984109334840376,0.98421517675853,0.982327662551443,0.982257101272673,0.982812771342984,0.988757559079326,0.988378292205939,0.989348509789022,0.99002766209718,0.990918498241646,0.991130182077955,0.991685852148266,0.992056298861807,1.03924415403901,0.992338543976886,0.992135680300423,1.11844918945793,1.00599215141881,1.00481907015927,1.00549822246742,1.00168791341386,1.00175847469263,1.00283453419387,1.00367244937926,1.00318734058772,1.0023053246031,1.00320498090741,1.14731757263456,1.00664484324743,1.00599215141881,1.00038252975663,0.990336367691797,0.990451029769798,0.991553549750574,0.983668326848066,1.05150417622523,1.00802078818344,1.04281631877672,0.956572795800522,0.957296048907911,0.95095435397849,0.952824227865885,0.951704067565417,0.95044278470741,1.01759066161657,1.13956465212975,1.13641585506465,1.16074185592049,1.13397267078725,1.02339432679538,1.15819282972493,1.14345434262192,1.18664666538879,0.994367180741513,0.993952633228741,0.993846791310587,0.994640605696745,0.994728807295207,0.994032014667357,0.992788372129042,1.29875089703406,1.03269077527328,0.982856872142215,0.983218498695909,0.981383905447898,0.984885508906842,0.987628578619012,0.988184248689323,0.988351831726401,0.9868435843927,0.987716780217474,0.989374970268561,1.03582193201868,0.99237382461627,0.992426745575348,0.99321173980166,0.994896390332285,0.995575542640443,0.997048509334759,0.999482873452312,1.00027668783847,1.00107050222463,1.0021906625251,1.00202307948802,1.00780028418728,1.01026992894422,1.01100200221146,1.00825011233944,1.01081677885469,1.0108961602933,1.011716435159,1.01910772911012,1.02058069580444,1.12748103314045,1.03673040848284,1.03761242446746,1.0527389986037,1.03888252748531,1.01924885166766,1.02037783212797,1.02071299820213,1.01998092493489,1.01971632013951,1.0208982215589,1.02151563274813,1.02205366249875,1.02435572421861,1.02532594180169,1.02457622821477,1.02567874819554,1.02652548354078,1.04427164515134,1.03174701816973,1.03354633077836,1.03266431479374,1.03299948086789,1.03267313495358,1.03330818646251,1.03537210386652,1.03822983565669,1.03841505901346,1.04219008742764,1.04488905634058,1.04220772774733,1.14594162769855,1.04589455456305,1.04679421086736,1.13633647362604,1.07202868818735,1.05225388981216,1.05467943376987,1.05455595153202,1.05411494353971,1.05489111760617,1.09728962598688,1.06268813891022,1.06272341954961,1.06608390045101,1.06570463357762,1.06258229699207,1.06252937603299,1.06386122016977,1.06425812736285,1.06611036093055,1.06560761181931,1.06622502300855,1.06901219351995,1.16166797270434,1.13922948605559,1.16722467340745,1.09356751853179,1.07456889422306,1.07475411757983,1.07487759981768,1.0765622503483,1.07763830984954,1.07775297192754,1.07717084137769,1.0747100167806,1.08224243328926,1.06515778366716,1.0854000505142
0.976453436093869,0.980131442749737,0.979699254917273,0.980607731381432,0.977485394795875,0.978155726944187,1.0272928374474,0.985106012902997,0.985591121694538,0.986402576400389,0.985441178977153,0.985370617698383,0.984056413881299,0.986623080396544,0.987249311745625,0.988686997800557,0.989860079060102,0.99009822337595,0.991544729590727,0.990133504015334,0.993441063957661,0.993441063957661,0.992806012448735,0.991818154545959,0.992417925415501,0.989613114584408,1.06339375169792,1.00547176198789,1.0573960430025,1.00039134991647,1.00040899023616,1.00173201421309,0.999385851694004,1.00190841741002,1.00233178508264,1.00080589742924,0.999597535530313,1.1425723266373,0.994578864577822,0.988916321956558,0.988695817960403,0.989710136342716,0.993485164756892,0.994049654987049,1.07591837867953,1.07762066952985,1.02454094757538,0.950416324227871,0.955399714540977,0.949825373518175,0.951051375736798,1.02903922909695,1.01910772911012,1.01863144047842,1.0199632846152,1.13742135328712,1.13611596962988,1.1374566339265,1.00315205994833,1.1536239869246,1.02799845023509,1.02521127972369,1.14846419341457,0.991253664315802,1.14625915345302,0.994755267774746,0.99416431706505,0.994208417864281,0.992523767333656,0.990697994245492,0.989860079060102,1.02938321533095,0.984911969386381,0.984991350824996,0.984964890345458,0.98505309194392,0.987752060856859,0.988960422755789,0.984647364590995,0.985035451624228,0.987822622135629,0.984523882353148,0.990265806413027,0.990759735364415,0.991403607033188,0.993643927634124,0.994190777544589,0.994067295306742,0.99639581750614,0.996713343260603,0.999227088816772,0.999809219366622,1.00195251820925,1.10558939640216,1.00890280416806,1.0100935257473,1.00780028418728,1.0079943277039,1.00925561056191,1.0140273170387,1.02383533478769,1.03532800306729,1.23711562002878,1.1899895059705,1.03819455501731,1.01072857725622,1.0108961602933,1.01472410966656,1.01715847378411,1.01704381170611,1.0167174657918,1.01674392627134,1.0183403752035,1.0181110510475,1.01896660655258,1.01847267760119,1.07537152876906,1.02365893159076,1.02335904615599,1.02564346755616,1.02552880547816,1.0297360217248,1.03027405147542,1.03056511675034,1.03374919445482,1.03242617047789,1.03550440626422,1.03769180590607,1.03743602127053,1.04001150794563,1.0394911185147,1.0414580141604,1.04128161096348,1.04366305412196,1.15226568230828,1.14059661083175,1.09311769037963,1.05048103768307,1.05092204567538,1.05072800215877,1.05385915890417,1.05396500082232,1.051001427114,1.05793407275312,1.05938939912774,1.06032433607144,1.11624414949638,1.06094174726067,1.0623970736353,1.06058012070698,1.06114461093713,1.06317324770176,1.06272341954961,1.06289982274653,1.06488435871193,1.06491081919146,1.0675127663461,1.06780383162102,1.07194048658889,1.07259317841751,1.07359867663998,1.07248733649935,1.07387210159521,1.0755126513266,1.07596247947876,1.07557439244553,1.07055572149304,1.0670364777144,1.06802433561718,1.06137393509314,1.06145331653175
0.977891122148801,0.979875658114197,0.978976001809884,0.975368556432786,0.975739003146327,0.976030068421252,1.25534689043089,1.17252558947502,0.986014489367156,0.985370617698383,1.18478561166124,0.99098023936057,0.991774053746729,0.990786195843953,0.988448853484709,0.989322049309483,0.988836940517942,0.99328230108043,0.997904064839841,0.997101430293836,0.994887570172439,0.994331900102128,0.997224912531683,0.995690204718444,0.98714346982747,0.986614260236698,0.994181957384743,1.26773039485496,1.06466385471577,0.999597535530313,1.00098230062617,1.00060303375278,0.999659276649236,1.00013556528093,0.999341750894773,0.999491693612158,1.00019730639985,0.993097077723659,0.993414603478123,0.99116546271734,0.990768555524261,0.990874397442416,0.992532587493502,0.993335222039507,0.98644667719962,0.986931785991161,1.05403556210109,1.05310944531724,1.04967840313707,0.950830871740643,0.947937859311087,1.0350810385916,0.939496966338269,0.939832132412424,1.02582869091293,1.02650784322109,1.0275221616034,1.01641758035703,1.00906156704529,1.14457450292239,1.17209340164255,1.13759775648404,1.15020176490427,1.2065008452026,1.04184610119364,1.16428756017866,1.16367014898943,1.08974838931838,1.09871849188197,0.989419071067792,1.26561355649187,1.03192342136666,1.05011941112938,1.05046339736338,0.984903149226534,0.978296849501727,1.01227210522931,0.986085050645926,0.983782988926066,0.983562484929911,0.983606585729142,0.983694787327604,0.984841408107611,0.987999025332553,0.989330869469329,0.991959277103499,0.99390853242951,0.995540262001058,0.995610823279828,0.99628115542814,0.998389173631382,0.999341750894773,0.99957989521062,1.00597451109912,1.00800314786375,1.00777382370775,1.00786202530621,1.00598333125897,1.00570108614389,1.1813986702803,1.11336877738652,1.02720463584894,1.14427461748762,1.04921975482506,1.05155709718431,1.05362101458832,1.00781792450698,1.02163911498598,1.0139126549607,1.0160118530041,1.01639111987749,1.01561494581102,1.01687622866903,1.01721139474319,1.01926649198735,1.01977806125843,1.02012204749243,1.02094232235813,1.02098642315736,1.02287393736445,1.02305034056137,1.02667542625816,1.03214392536281,1.03198516248558,1.03222330680143,1.03383739605328,1.0356543489816,1.03884724684593,1.04025847242132,1.04062891913486,1.04151975527933,1.04043487561824,1.03979982410932,1.03999386762593,1.04500371841858,1.04421872419227,1.04749982365505,1.04723521885967,1.04633556255536,1.04802021308598,1.04869054523429,1.05167175926231,1.05223624949247,1.05715789868665,1.06073888358421,1.14051722939314,1.2282425392235,1.06243235427468,1.06218538979899,1.06083590534252,1.05975102568143,1.06149741733098,1.06028905543205,1.06092410694098,1.06348195329638,1.06201780676191,1.06232651235653,1.06389650080915,1.06916213623734,1.06921505719641,1.0761036020363,1.07508928365399,1.0715612197155,1.07223155186381,1.07160532051473,1.0716935221132,1.06994713046365,1.06901219351995,1.06581929565562,1.06476087647408,1.07011471350073
0.976224111937868,0.977494214955722,0.97752067543526,0.973410480946929,0.974027892136163,0.97447772028832,0.98051952978297,0.979708075077119,0.978482072858497,0.979417009802195,0.987690319737935,0.989348509789022,1.02666660609832,0.991923996464114,0.992788372129042,0.994834649213362,0.998592037307845,1.04726167933921,1.0075356793919,1.00149386989725,1.00983774111176,0.988431213165016,0.988598796202094,0.988872221157327,0.986649540876083,0.987064088388855,0.987804981815936,0.990001201617641,0.990186424974412,1.06366717665315,1.05940703944743,1.0049778330365,1.13259672585125,1.08196900833403,1.12709294610721,1.13518985284603,0.996272335268293,0.996775084379527,0.989286768670099,0.989710136342716,0.990133504015334,0.986940606151008,0.987954924533321,0.986596619917006,0.985511740255922,0.987319873024395,0.98728459238501,1.03877668556716,1.05414140401925,1.1025993622143,1.02768092448063,0.938976576907343,1.04153739559902,1.02103052395659,1.01476821046579,1.03658046576545,0.937336027175948,1.01781116561273,1.01698207058718,1.13927358685482,1.03256729303543,1.16331734259558,1.16084769783864,1.15924242874663,1.15873085947555,1.19877438517732,1.15650817919431,1.06458447327715,1.03886488716562,1.02015732813182,1.01994564429551,1.03186168024773,1.06330555009946,1.06105640933867,0.978826059092499,0.978446792219112,0.979796276675581,0.981375085288052,1.01389501464101,0.98479730730838,0.983747708286682,0.984223996918376,0.984709105709918,0.986296734482235,0.98918974691179,0.99014232417518,1.66611937478837,0.996025370792599,0.99672216342045,0.99709261013399,0.998539116348768,0.999006584820617,1.00452800488434,1.00496901287665,1.06788321305964,1.00816191074098,1.0060274320582,1.0040428960928,1.00425457992911,1.00236706572202,1.00857645825375,1.01512101685963,1.01733487698103,1.1516394509592,1.00147622957755,1.05487347728648,1.00517187655311,1.00494255239711,1.0108961602933,1.01090498045315,1.01432720247348,1.01214862299146,1.01286305593901,1.01942525486458,1.0183403752035,1.01761712209611,1.02005148621366,1.02110108523536,1.02045721356659,1.01991918381597,1.02342960743476,1.02323556391814,1.03223212696127,1.03150887385388,1.03131483033727,1.03145595289481,1.03695091247899,1.03703029391761,1.038670843649,1.05125721174954,1.04125515048394,1.0400820692244,1.03908539116177,1.03938527659655,1.04135217224225,1.04226064870641,1.04405114115519,1.04538298529197,1.04513602081627,1.04389237827796,1.04360131300303,1.05708733740788,1.05905423305358,1.04852296219721,1.04922857498491,1.30232306177178,1.17385743361179,1.06614564156993,1.06346431297669,1.0626263977913,1.06281162114807,1.06032433607144,1.06185904388468,1.06253819619283,1.06279398082838,1.06311150658284,1.0614621366916,1.06175320196652,1.06451391199838,1.06581047549578,1.06941792087288,1.07496580141614,1.0756273134046,1.07466591598137,1.07011471350073,1.07242559538043,1.07227565266305,1.0702822965378,1.0680860767361,1.06927679831534,1.07966694661417
0.976012428101559,0.976656299770332,0.975483218510787,0.97224621984723,0.969706013811522,0.970305784681064,0.97199043521169,0.981039919213897,0.977458934316337,0.977308991598951,0.983042095498985,0.982706929424829,1.23503406230508,1.38360083475456,1.0861056633019,0.997939345479226,0.997868784200456,0.998424454270767,1.00222594316448,1.00511895559404,1.00585984902112,1.00547176198789,0.988501774443786,0.996228234469062,0.988598796202094,0.988360651886247,1.07157003987535,1.06944438135241,0.99014232417518,1.12820428624783,1.05992742887836,1.06058012070698,1.02016614829166,1.07193166642904,1.11026408112065,1.01355984856686,1.00820601154021,0.989860079060102,0.98911918563302,0.989295588829945,0.987478635901626,0.988228349488554,0.987575657659935,0.982971534220215,0.984091694520684,0.988625256681633,0.988016665652245,0.987381614143318,1.04509192001704,1.02742513984509,0.96840945031413,0.984700285550072,1.03663338672453,1.03616591825268,1.02634026018401,1.04009088938424,1.18176911699384,1.17357518849672,1.01122250620761,1.011372448925,1.03212628504312,1.14692948560133,1.03604243601483,1.00867348001206,1.00849707681513,1.03044163451249,1.01408023799778,1.02579341027354,1.11554735686853,1.03174701816973,1.02099524331721,1.02400291782476,1.01618825620103,1.06994713046365,1.07453361358367,1.0702822965378,1.0694796619918,0.979196505806039,0.978711397014498,1.02116282635428,0.984823767787919,0.984276917877454,0.983694787327604,0.985106012902997,0.993802690511356,0.993070617244121,0.998988944500925,1.19235330880929,1.10950554737388,0.99913888721831,0.999923881444622,1.00274633259541,1.00348722602249,1.00990830239053,1.03328172598297,1.00284335435372,1.00258756971818,1.00050601199447,1.00295801643172,1.00466030728203,0.993008876125197,0.992223881898885,1.06671895195994,1.02766328416094,0.999288829935695,1.06526362558531,1.00210246092664,1.00498665319634,1.00468676776157,1.00778264386759,1.0100758854276,1.01063155549792,1.01247496890577,1.01277485434054,1.01768768337488,1.01790818737104,1.01791700753088,1.02178905770337,1.02074827884151,1.02021024909089,1.01990154349628,1.02188607946167,1.02396763718538,1.02918917181433,1.02964782012633,1.03114724730019,1.037753547025,1.03867966380885,1.05180406166,1.19838629814409,1.03908539116177,1.03841505901346,1.03800933166054,1.03785056878331,1.03997622730624,1.04211070598902,1.04243705190333,1.05516454256141,1.03952639915409,1.04281631877672,1.04338962916672,1.04174025927548,1.04486259586104,1.04432456611042,1.04660016735074,1.05368275570724,1.05327702835432,1.05698149548973,1.07515102477291,1.05725492044496,1.05710497772757,1.05827805898712,1.06245881475422,1.064707955515,1.06464621439608,1.0599362490382,1.06061540134636,1.06073006342436,1.06149741733098,1.06344667265699,1.06723934139086,1.07344873392259,1.07372215887782,1.07283132273336,1.06898573304041,1.06938264023349,1.06964724502888,1.06988538934472,1.06904747415933,1.06874758872456,1.06671013180009
0.977379552877721,0.977838201189724,0.97784702134957,0.969803035569831,0.968762256707978,0.969485509815367,0.972837170556925,0.982160079514365,0.979531671880195,0.979743355716504,0.982706929424829,0.981066379693435,0.981622049763746,1.24844070527131,1.01728195602195,1.00720051331774,1.00047073135509,1.07149947859658,1.02394999686569,1.00526889831142,1.00527771847127,1.00560406438558,1.09115079473393,1.01255435034439,1.06401116288715,1.06153269797037,1.06084472550236,1.06899455320026,1.06327026946007,1.0570520567685,1.04817897596321,1.38656440846289,1.38655558830304,1.02350016871353,1.02148917226859,1.04113166824609,1.02715171488986,0.992947135006274,0.992426745575348,0.990512770888721,0.990010021777487,0.989895359699487,0.98867817764071,1.23536922837923,0.984532702512994,0.997815863241379,1.00832067361821,1.00078825710955,1.0010264014254,1.00235824556218,0.966142669233655,0.94202835221413,0.959968557341312,1.01464472822794,0.903987002797445,1.04465973218458,1.07210806962597,1.01939879438504,1.00247290764018,1.00339902442403,1.10335789596107,1.18214838386723,1.18223658546569,1.06721288091132,1.15935709082463,1.0458857344032,1.00541002086896,1.02218596489644,0.980290205626969,1.21496819865496,1.03005354747926,0.974751145243552,1.03596305457622,1.05764300747819,1.01126660700684,0.998292151873074,1.34218136411678,1.13049752780785,0.979284707404501,0.978958361490192,0.981207502250974,1.03688917136007,1.47727093232126,1.00500429351604,1.00541884102881,1.0057804675825,0.993846791310587,0.988007845492399,1.12101585597318,1.02307680104091,0.993573366355354,0.996422277985679,1.01247496890577,1.01245732858608,1.01392147512055,1.03609535697391,1.00135274733971,0.998486195389691,0.99844209459046,1.00181139565171,0.993123538203198,0.992453206054886,0.991527089271035,1.06596041821316,1.08067244483663,1.08063716419725,1.08060188355786,1.00216420204556,1.00350486634218,1.00796786722436,1.01178699643777,1.0090439267256,1.00936145248006,1.04849650171768,1.00982010079207,1.01016408702607,1.01460944758855,1.07906717574462,1.01975160077889,1.02118046667398,1.02073063852182,1.02001620557428,1.02069535788244,1.10724758645325,1.03041517403295,1.02912743069541,1.03199398264543,1.03342284854051,1.03349340981928,1.03360807189728,1.03586603281791,1.03579547153914,1.03728607855315,1.03829157677562,1.03828275661577,1.03966752171162,1.03975572331009,1.04510956033673,1.04427164515134,1.04293980101457,1.03897072908377,1.0389178081247,1.04112284808625,1.04256053414118,1.04295744133426,1.04558584896843,1.04749100349521,1.05718435916619,1.07920829830216,1.05371803634663,1.05490875792587,1.05636408430049,1.05741368332219,1.07660635114753,1.08232181472787,1.05794289291296,1.05699031564957,1.05763418731834,1.05823395818789,1.06102112869929,1.06097702790006,1.0840064652585,1.20149099440996,1.07251379697889,1.06917977655703,1.06603979965178,1.06812135737548,1.06745984538702,1.0691356757578,1.06899455320026,1.07262845905689
0.982900972941446,0.980016780671737,0.997180811732453,0.969335567097982,0.968462371273207,0.968294788236129,0.968938659904902,1.1582633910037,0.977353092398182,0.97956695251958,0.984515062193301,0.985061912103766,0.982989174539908,0.983465463171603,1.0145036056704,1.06613682141009,1.00033842895739,1.07227565266305,1.07218745106458,1.064134645125,1.07805285736231,1.01106374333038,1.00773854306836,1.02641082146278,1.03755068334853,1.10105583424121,1.02513189828508,1.05848092266358,1.03688917136007,1.05233327125078,1.02593453283108,1.02767210432078,1.0283247961494,1.02821895423125,1.03605125617468,1.04417462339304,1.0664631673244,0.992497306854117,0.989727776662409,0.993070617244121,0.994340720261974,0.993476344597046,0.989339689629176,0.989410250907946,0.989604294424562,1.07486877965783,1.04757038493382,1.06079180454329,0.988951602595943,0.992091579501192,0.9907950160038,1.0520510261357,1.00563052486512,0.993432243797815,0.89937405919788,0.900123772784807,0.899920909108345,0.89681621284248,0.894866957516469,1.02095114251798,1.00078825710955,0.946032704784307,0.94704702316662,1.1991889326901,1.15924242874663,1.19185055969805,1.16736579596499,0.984091694520684,1.03953521931393,1.22748400547672,1.02993888540126,1.13657461794188,1.03348458965943,0.963558362398717,0.963161455205638,1.05452067089263,0.999967982243853,1.10071184800721,1.38686429389766,1.37733852126375,0.981516207845592,0.9790553832485,1.03675686896238,1.01804048976873,1.00756213987144,1.01726431570226,0.98600566920731,0.985670503133154,0.986411396560235,0.989128005792867,0.989736596822255,0.991474168311958,0.99302651644489,0.993785050191663,1.02731047776709,1.04419226371273,0.999244729136465,0.998927203382001,0.997657100364148,0.99697794805599,0.995672564398751,0.994243698503666,0.992347364136732,0.992453206054886,1.08099879075094,1.09472295947164,1.07989627077017,1.00265813099695,1.00341666474372,1.0026493108371,1.01292479705793,1.02330612519691,1.00798550754405,1.00807370914252,1.00806488898267,1.00846179617575,1.01154885212192,1.03969398219116,1.01650578195549,1.01691150930841,1.01759066161657,1.01849913808073,1.01987508301674,1.0467060092689,1.10885285554526,1.13219099849832,1.0242587024603,1.14865823693119,1.02992124508157,1.0282101340714,1.02830715582971,1.03313178326559,1.03795641070146,1.03830039693546,1.03679214960176,1.03594541425653,1.04148447463994,1.04364541380226,1.04519776193519,1.04495961761935,1.04498607809889,1.03901482988301,1.03689799151992,1.03858264205054,1.04377771619996,1.04379535651965,1.04847004123814,1.05016351192861,1.0483289186806,1.2214862967813,1.05195400437739,1.05208630677508,1.05322410739524,1.05438836849494,1.0880725589476,1.05920417577097,1.05778413003573,1.05647874637849,1.05812811626973,1.05968928456251,1.06093292710083,1.06227359139745,1.06259993731176,1.20117346865549,1.06424048704315,1.06508722238839,1.06617210204947,1.06710703899317,1.06717760027194,1.07022055541888,1.07154357939581
1.3187814800448,1.31924894851665,0.997101430293836,0.970491008037835,0.968762256707978,0.968462371273207,0.968841638146594,0.974283676771703,0.974063172775548,0.974601202526166,0.985661682973308,0.987275772225164,0.98472674602961,0.98307737613837,0.982980354380062,1.1066654559034,1.05445892977371,0.993714488912894,1.00226122380387,1.07398676367321,1.26433463331417,1.08278046303988,1.00769444226913,1.0791200967037,1.02235354793352,1.10078240928598,1.09971516994459,1.03793877038177,1.03939409675639,1.04592983520243,1.02727519712771,1.0271605350497,1.02942731613018,1.04525068289427,1.04155503591871,1.024505666936,1.11496522631868,0.99167703198842,0.993555726035662,0.994084935626434,0.996201773989523,0.991500628791496,0.991527089271035,1.0168321278698,1.05187462293877,1.08418286845542,1.07822044039939,1.04748218333536,1.0691356757578,0.993555726035662,0.975006929879092,0.985485279776384,0.987822622135629,0.99569902487829,0.992303263337501,1.07283132273336,0.893861459294002,0.892997083629073,0.893429271461537,1.0673804639484,0.999870960485545,1.03007118779895,1.04892868955014,1.04455389026642,1.18492673421878,0.957225487629142,1.19885376661594,1.13379626759033,0.961767869949937,1.19539626395623,1.06141803589237,1.02776030591925,0.968453551113361,1.14835835149641,0.945282991197379,0.942054812693668,0.942187115091361,1.12005445854994,1.12026614238625,0.988722278439942,0.987628578619012,1.00234942540233,0.960515407251776,0.991941636783806,1.04301918245318,1.0241440403823,1.02440864517769,0.986975886790393,0.984911969386381,0.987637398778858,0.988889861477019,0.988916321956558,0.991068440959032,0.993855611470433,1.09256202030932,0.996730983580296,0.997277833490761,0.997789402761841,0.996422277985679,0.99537267896398,0.99511689432844,0.993934992909049,0.992647249571503,0.994755267774746,0.994323079942282,1.07356339600059,1.08499432316127,1.00011792496124,1.00065595471186,1.00048837167478,1.00514541607358,1.00585984902112,1.00555996358635,1.00548058214773,1.00526889831142,1.00703293028066,1.00766798178959,1.04282513893657,1.11262788395944,1.01525331925733,1.01674392627134,1.01613533524195,1.01888722511396,1.0206688974029,1.02231826729414,1.31039350803105,1.02636672066355,1.025652287716,1.0278661478374,1.02900394845756,1.03028287163526,1.03268195511343,1.03366099285636,1.03372273397528,1.03269077527328,1.03557496754298,1.03679214960176,1.02598745379016,1.19027175108558,1.27889671722026,1.08504724412035,1.04027611274101,1.03529272242791,1.03861792268993,1.03879432588685,1.09407908780287,1.04517130145566,1.04465973218458,1.04879638715245,1.04830245820106,1.04967840313707,1.05089558519584,1.05265079700524,1.05209512693493,1.05347107187094,1.05892193065589,1.05801345419173,1.05681391245265,1.0564611060588,1.0586749661802,1.05784587115465,1.06007737159574,1.06074770374406,1.14616213169471,1.06302330498438,1.06375537825161,1.0654135683027,1.06683361403794,1.0690210136798,1.06697473659548,1.06805961625656
0.99442010170059,1.00683888676405,0.990001201617641,1.01436248311286,1.04166969799671,0.968065464080128,0.968506472072439,0.969000401023826,0.975130412116939,0.97605652890079,0.983200858376217,0.983456643011757,0.98537943785823,0.994393641221051,0.980448968504201,0.979143584846962,0.979293527564348,0.97854381397742,0.993776230031817,1.02051895468551,1.090286419069,1.01023464830484,1.05793407275312,1.05986568775943,1.05910715401266,1.05748424460096,1.03872376460808,1.03899718956331,1.03834449773469,1.03931471531778,1.03525744178852,1.02667542625816,1.02634908034385,1.02113636587475,1.05190108341831,1.08103407139033,1.08128985602587,1.13492524805064,1.02778676639879,0.984612083951609,0.987240491585779,0.988528234923325,1.00222594316448,1.03117370777973,1.06747748570671,1.06868584760564,1.04614151903874,1.07210806962597,1.07489524013737,1.01005824510791,1.10057954560952,1.02720463584894,1.03308768246636,1.03979982410932,1.00862055905298,0.996492839264449,0.953891467207276,1.00581574822189,1.08187198657572,0.96266752625425,1.02141861098983,1.02913625085525,0.921309796735393,0.924978983231414,1.04869936539414,1.17963463831106,1.19627827994085,0.946570734534926,0.916282305623056,0.916467528979826,0.950548626625564,1.03845033965285,0.950284021830178,0.950495705666487,0.943686542265216,0.942434079567055,0.941463861983972,0.943721822904601,0.944048168818911,0.991959277103499,0.998353892991998,0.995478520882135,0.998962484021386,0.999085966259233,0.984947250025765,0.96573694188073,0.99295595516612,0.987169930307009,0.989860079060102,0.985661682973308,0.986887685191931,0.989577833945023,0.989357329948868,0.990521591048567,0.992365004456424,0.997198452052145,0.997463056847531,0.996131212710754,0.995875428075214,0.994631785536899,0.992673710051041,0.992806012448735,0.993044156764582,0.991650571508882,0.993458704277354,0.994411281540744,1.08958962644115,1.00012674512108,1.0021906625251,0.998636138107076,0.999800399206775,1.00254346891895,1.00198779884863,1.00183785613125,1.00227886412356,1.00466912744188,1.00635377797251,1.00775618338805,1.0327525163922,1.01375389208347,1.01483877174456,1.01584426996702,1.01673510611149,1.01759066161657,1.0206688974029,1.12695182354967,1.05049867800276,1.02574930947431,1.02595217315077,1.02672834721724,1.02931265405218,1.0295066975688,1.02910097021587,1.02912743069541,1.03090910298434,1.14636499537117,1.04135217224225,1.01841093648227,1.01789054705134,1.05744014380173,1.2506722057124,1.11300715083282,1.12469386262904,1.03818573485746,1.0348340741159,1.03602479569514,1.03881196620654,1.04169615847625,1.04592983520243,1.04590337472289,1.04790555100798,1.05002238937107,1.04899043066906,1.05090440535569,1.05112490935185,1.05515572240156,1.05713143820711,1.05769592843727,1.05937175880805,1.05763418731834,1.05661986893603,1.05667278989511,1.06469913535516,1.05721081964573,1.06095056742052,1.06005091111621,1.0626263977913,1.06310268642299,1.06558997149962,1.06638378588578,1.06714231963255
0.999412312173542,1.01672628595164,1.03044163451249,1.08481791996435,0.972634306880463,0.970261683881833,0.972651947200155,0.977547135914799,0.9776617979928,0.978385051100188,0.98026374514743,0.980457788664047,1.05251849460755,1.02997416604064,1.05434426769571,0.978058705185879,0.977070847283104,0.977238430320182,0.980122622589891,1.13434311750079,1.03080326106619,0.999280009775849,1.00055893295355,1.00301975755064,1.0496078418583,1.04852296219721,1.08723464376221,1.03959696043285,1.03872376460808,1.03828275661577,1.0332111647042,1.03335228726174,1.04010852970393,1.08313326943372,1.19127724930805,1.11696740260377,1.07915537734309,0.977167869041412,0.977220790000489,0.980881156336665,0.988263630127939,0.988184248689323,0.991606470709651,0.991712312627805,1.00053247247401,1.09035698034777,1.09093029073777,1.07538034892891,1.07012353366057,1.07276958161443,1.08705824056529,1.02280337608568,1.11119901806435,1.02894220733864,1.02361483079153,1.16713647180899,1.01243086810654,1.05706087692834,1.0691180354381,1.02065125708321,1.02927737341279,1.03772708654546,0.923047368225095,0.923558937496175,0.923814722131715,0.92575515729788,1.17615067517181,1.18923097222373,0.91517978564228,0.941587344221819,0.948317126184474,1.03870612428839,0.951280699892799,0.951518844208647,0.95125423941326,0.945353552476149,0.950575087105103,0.943995247859833,0.945785740308613,0.946050345103999,0.945362372635995,0.944736141286915,0.940546565359967,0.940520104880428,0.994067295306742,0.99314117852289,1.04213716646856,1.01744071889919,0.986561339277621,0.985979208727771,0.984232817078223,0.984964890345458,0.99028344673272,0.98995710081841,1.04433338627027,1.04255171398133,0.996695702940911,0.998997764660771,0.995452060402596,0.995452060402596,0.995522621681366,0.991438887672573,0.988775199399019,0.989339689629176,0.990892037762108,0.993643927634124,0.996633961821988,0.996678062621219,0.998574396988153,0.998927203382001,0.99983567984616,1.12684598163152,1.00186431661079,1.00170555373356,1.00193487788956,1.00314323978849,1.0045015444048,1.00493373223727,1.09681333735519,1.09895663619782,1.01293361721778,1.01390383480086,1.0164705013161,1.01882548399504,1.02036901196813,1.13183819210447,1.02057187564459,1.02196546090029,1.02359719047184,1.0244880266163,1.02521127972369,1.02660486497939,1.02855412030541,1.02936557501126,1.03018584987695,1.12793968145245,1.11832570722008,1.02052777484536,1.02000738541443,1.01999856525459,1.06863292664656,1.18601161387987,1.09980337154305,1.0335551509382,1.03269959543312,1.03431368468498,1.03849444045208,1.03958814027301,1.04237531078441,1.0435572122038,1.04646786495305,1.04793201148752,1.04738516157705,1.05083384407692,1.10114403583968,1.14266934839561,1.12116579869056,1.05422078545786,1.0546088724911,1.05407084274048,1.05489993776602,1.05467943376987,1.05597599726726,1.05606419886572,1.05648756653834,1.05794289291296,1.05950406120574,1.06196488580283,1.06288218242684,1.08414758781604,1.10951436753373
1.06119753189621,1.01571196756933,1.24952558493239,1.02170967626475,0.974371878370165,0.973419301106775,0.975985967622021,0.977732359271569,0.980413687864816,0.980598911221586,0.97931116788404,0.976647479610486,0.977000286004334,0.978720217174344,0.975095131477554,0.973763287340777,0.974169014693702,0.97433659773078,1.21405090203095,1.02541414340016,1.00863819937267,0.999535794411389,1.00234060524248,1.00324908170664,1.00487199111834,1.06606626013132,1.06078298438344,1.03507221843175,1.03501047731283,1.03507221843175,1.04342490980611,1.21590313559866,1.02888046621971,1.23190290555967,1.02298859944245,1.00857645825375,1.00828539297882,1.12094529469441,1.11972811263563,1.20698595399414,0.99244438589504,1.02365893159076,1.0701676344598,1.00955549599668,1.08034609892232,1.0533299493134,1.05484701680694,1.1099112747268,1.0701676344598,1.03020349019665,1.04736752125736,1.02106580459598,1.02703705281186,1.02680772865586,1.07500990221537,1.01946053550397,1.09669867527719,1.12076889149748,1.03668630768361,1.04797611228675,0.979522851720349,1.18860474087465,1.01897542671243,0.923003267425864,0.922950346466787,0.922191812720013,1.17930829239675,0.916661572496443,0.915144505002895,1.05733430188357,1.18295101841323,1.16673074445606,1.19915365205071,1.0873845864796,0.952991810902963,0.94967543080079,0.949825373518175,0.948184823786781,0.94674713773185,0.94711758444539,0.947796736753548,0.939258822022421,0.938438547156724,0.938412086677185,1.15831631196278,0.968753436548132,0.968753436548132,1.051345413348,0.986746562634391,0.985044271784074,0.986711281995007,0.986914145671469,0.987663859258397,0.987134649667624,0.993044156764582,0.999235908976618,1.04623854079705,0.994261338823358,0.994958131451209,0.995840147435829,0.99690738677722,0.994226058183974,0.989507272666253,0.989913000019179,0.989860079060102,0.991994557742884,0.993229380121352,0.997136710933221,0.997039689174913,0.995478520882135,0.996316436067524,1.00017966608016,0.999553434731082,0.999006584820617,0.998089288196612,1.00123808526171,1.19694861208916,1.15554678177107,1.00530417895081,1.08959844660099,1.05582605454987,1.01365687032516,1.01475939030594,1.01675274643118,1.01721139474319,1.01953109678274,1.0217008561049,1.02219478505629,1.02319146311891,1.0234560679143,1.02666660609832,1.02506133700631,1.02514071844492,1.02587279171216,1.02791024863663,1.02736339872617,1.0419343027921,1.02189489962152,1.02116282635428,1.0206688974029,1.02067771756274,1.32043967009588,1.025537625638,1.19537862363654,1.03395205813128,1.03481643379621,1.03546030546498,1.03650990448668,1.04077886185225,1.04473029346335,1.04358367268334,1.04435102658996,1.04759684541336,1.04698825438398,1.04767622685198,1.05001356921122,1.04871700571383,1.05246557364847,1.05041929656415,1.05139833430708,1.05235973173031,1.05343579123155,1.0533123089937,1.0561171198248,1.0573960430025,1.0571490785268,1.05918653545128,1.05985686759959,1.06246763491407,1.06278516066853,1.06323498882069
0.999668096809082,0.967439232731048,0.967986082641512,0.969653092852445,0.97210509728969,0.972255040007076,0.97089673539076,0.971514146579994,0.981710251362208,0.981181041771436,0.976532817532485,0.976426975614331,0.973040034233388,0.973772107500623,0.972713688319078,0.974451259808781,0.975077491157862,1.23082684605844,0.986914145671469,0.991059620799186,0.991306585274879,1.11777885730962,1.0484435807586,1.00512777575388,1.00523361767204,1.00487199111834,1.06281162114807,1.03326408566328,1.03537210386652,1.03740074063115,1.02634908034385,1.02678126817632,1.19967404148164,1.13635411394573,1.07676511402476,1.02381769446799,1.01186637787638,0.986358475601158,0.986473137679159,0.990362828171336,1.00168791341386,1.07213453010551,1.00519833703265,1.07405732495198,1.07888195238785,1.05461769265094,1.04436866690965,1.06530772638454,1.05791643243342,1.07674747370507,1.2175525054899,1.03964988139193,1.09669867527719,1.03500165715298,1.03364335253667,1.06662193020163,1.02291803816368,1.00780028418728,1.02904804925679,1.03017702971711,1.05998916999728,0.990645073286414,0.997057329494606,1.03209100440373,0.924696738116336,0.922562259433554,0.922906245667556,0.908097197285777,0.914650576051508,1.1025993622143,0.999615175850005,1.00179375533202,1.0930735895804,1.09358515885148,1.00017966608016,0.951959852200957,1.07838802343647,0.951342441011723,0.95560257821744,0.948714033377553,0.946059165263846,0.940661227437968,0.940899371753815,0.940405442802428,1.00464266696234,0.976726861049102,0.987117009347932,0.987443355262241,1.03052983611096,1.06165618020821,0.987919643893937,0.970102921004601,0.971187800665685,0.993097077723659,0.99277073180935,0.993582186515201,1.01373625176378,0.995893068394906,0.995557902320751,0.997313114130145,0.999641636329544,1.00047073135509,0.995998910313061,0.989322049309483,0.98944553154733,0.993000055965351,0.992832472928273,0.996069471591831,0.999147707378156,0.996484019104602,0.99430543962259,0.994499483139206,0.997216092371837,0.995504981361673,0.996916206937066,0.997286653650607,1.13291425160571,1.0015997118154,1.00233178508264,1.08060188355786,1.05525274415987,1.05525274415987,1.01309238009501,1.01422136055532,1.01542972245425,1.01800520912934,1.02661368513924,1.02412640006261,1.02312090184014,1.02326202439768,1.02211540361768,1.02361483079153,1.02339432679538,1.02407347910353,1.02826305503048,1.02743396000494,1.02541414340016,1.02400291782476,1.02331494535676,1.02315618247953,1.02343842759461,1.02335022599614,1.11211631468836,1.0301946700368,1.03121780857896,1.03514277971052,1.03569844978083,1.03734781967207,1.03822101549685,1.04030257322055,1.04091998440979,1.0409993658484,1.04792319132767,1.04654724639166,1.04738516157705,1.04793201148752,1.05184816245923,1.05078974327769,1.04967840313707,1.05115136983138,1.05124839158969,1.0539032597034,1.05240383252954,1.05362983474817,1.05456477169187,1.05355045330955,1.05627588270203,1.0565757681368,1.06125045285529,1.0616914608476,1.06347313313653
0.973913230058162,0.968524112392131,0.968118385039205,0.969070962302596,0.970076460525063,0.969282646138905,0.967483333530279,1.0848267401242,0.9803343064262,0.978226288222957,0.976074169220483,0.972263860166922,0.972281500486614,0.974169014693702,0.974283676771703,0.977088487602796,0.976506357052947,1.12868939503938,1.13237622185509,1.13379626759033,0.990918498241646,0.990336367691797,0.989868899219948,1.04305446309257,1.00406935657234,1.00547176198789,1.10871173298772,1.08091058915248,1.03277015671189,1.15756659837585,1.15679042430939,1.02380887430815,1.02291803816368,1.02006912653336,1.13376980711079,0.99862731794723,0.998292151873074,0.998891922742616,1.00300211723095,1.01475057014609,1.01936351374566,1.08972192883884,1.10532479160678,1.06659546972209,1.05945996040651,1.06065068198575,1.0418196407141,1.04428046531119,1.0434425501258,1.04333670820765,1.03958814027301,1.03978218378963,1.1030580105263,1.09785411621704,1.09773063397919,1.03167645689096,1.03851208077177,1.02100406347705,1.02060715628397,1.05721081964573,1.04489787650042,1.06088882630159,1.0336874533359,1.05086030455646,1.08080474723433,0.977220790000489,0.922024229682936,0.919492843807075,1.06271459938976,1.09315297101901,1.17099088166178,1.07903189510524,1.07788527432523,1.05334758963309,0.957895819777453,0.957772337539606,1.03301712118759,0.954059050244354,0.95132480069203,0.948996278492632,0.949966496075714,0.949878294477252,1.12465858198966,1.17515399710919,1.17739431771012,0.9881225075704,0.96229707954071,0.963143814885945,0.965331214527804,0.965886884598115,0.966768900582736,0.969159163901058,0.968188946317975,0.967941981842281,0.973974971177086,1.00460738632296,1.04981952569461,0.993291121240276,0.993035336604736,0.998671418746461,1.00149386989725,1.00273751243556,1.00269341163633,0.994473022659667,0.989833618580563,0.989471992026869,0.996272335268293,0.994340720261974,0.994261338823358,0.994543583938437,1.01510337653994,0.994120216265819,0.994790548414131,1.11708206468177,1.01550910389287,1.10642731158755,1.02086294091951,1.07549501100691,1.11508870855653,1.01784644625211,1.01668218515241,1.07053808117334,1.01146065052346,1.01306591961547,1.0142742815144,1.01482113142486,1.01741425841965,1.02178023754352,1.02047485388628,1.02043075308705,1.02134804971106,1.02265343336829,1.0233414058363,1.02572284899477,1.02200074153967,1.02088940139905,1.02071299820213,1.02275927528645,1.02219478505629,1.02192136010106,1.02325320423784,1.02393235654599,1.02859822110464,1.02990360476187,1.0318175794485,1.03346694933974,1.03642170288822,1.03773590670531,1.03863556300962,1.0417049786361,1.04142273352102,1.04181082055425,1.04480085474212,1.04522422241473,1.04595629568197,1.04594747552212,1.17682982747997,1.17617713565135,1.04810841468444,1.04811723484429,1.04802903324583,1.04925503546445,1.05078092311784,1.0520510261357,1.05325938803463,1.05304770419832,1.0556408311931,1.05610829966495,1.05788997195388,1.15484116898338,1.06344667265699
0.976841523127103,0.971690549776918,0.971320103063378,0.967650916567356,0.968559393031516,0.969317926778289,0.966230870832117,0.96496958797411,0.978129266464649,0.978093985825264,0.974301317091395,0.972563745601693,0.972819530237233,0.97415137437401,0.973983791336932,0.976153550659099,1.05020761272784,1.02273281480691,1.03830039693546,0.999518154091697,1.01454770646963,1.24638560802714,0.994614145217207,0.998609677627538,0.99983567984616,1.00046191119524,1.00178493517217,1.16104174135526,1.05222742933262,1.02802491071463,1.02878344446141,1.13714792833189,1.13065629068508,1.13035640525031,1.00772090274867,1.00675068516559,1.00498665319634,1.00294919627187,0.999174167857695,1.00078825710955,1.07774415176769,1.05806637515081,1.05742250348204,1.09648699144088,1.05618768110357,1.0426399155798,1.04211952614887,1.04463327170504,1.04338962916672,1.04810841468444,1.04711173662182,1.04718229790059,1.04708527614228,1.08890165397314,1.0867936357699,1.13636293410557,1.117470151715,1.12431459575566,1.05543796751664,1.05444128945402,1.16421699889989,1.02586397155231,1.20781504901969,1.04562112960781,1.19433784477468,0.931276577361605,0.929494905072672,0.932476119100689,1.18869294247311,1.11705560420223,1.17006476487793,1.10654197366555,1.07660635114753,1.14797026446318,0.96248230289748,0.95853087128638,0.958363288249302,0.952630184349269,0.950160539592331,0.949895934796945,0.949569588882635,0.949816553358329,0.951360081331415,0.997392495568762,1.00391941385495,0.984709105709918,0.968427090633822,0.983571305089758,0.965604639483037,0.96650429578735,0.968303608395976,0.968285968076283,0.967977262481666,0.967959622161974,0.968744616388286,0.972775429438002,1.03973808299039,1.05062216024061,1.0070593907602,1.01429192183409,1.00093819982694,1.00269341163633,1.00229650444325,1.00160853197525,1.02938321533095,0.992594328612425,0.992550227813195,0.992585508452579,0.993758589712125,0.987117009347932,0.987293412544856,0.990821476483338,0.990989059520416,0.991103721598417,0.996528119903833,0.994155496905204,0.995690204718444,1.04929031610383,1.05229799061139,1.05158355766385,1.00144094893817,1.01422136055532,1.01319822201316,1.01209570203239,1.01382445336224,1.01279249466024,1.01364805016532,1.02358837031199,1.01780234545288,1.01853441872012,1.02081884012028,1.02021024909089,1.02001620557428,1.01971632013951,1.01892250575335,1.01991918381597,1.01919593070858,1.01870200175719,1.01968985965997,1.02196546090029,1.02060715628397,1.02133922955121,1.02648138274155,1.02397645734522,1.03631586097007,1.0371625963153,1.03596305457622,1.03550440626422,1.03771826638561,1.03839741869377,1.03993212650701,1.04400704035596,1.04425400483165,1.04405996131503,1.04322204612965,1.04394529923703,1.04348665092503,1.04425400483165,1.04490669666027,1.04804667356552,1.04854060251691,1.04874346619337,1.05027817400661,1.05030463448615,1.04896397018952,1.05374449682617,1.05263315668555,1.0547235345691,1.05536740623787,1.05722845996542,1.0676097881044
0.991377146553649,0.975650801547865,1.19379981502406,0.968206586637668,0.968603493830747,0.96936202757752,0.968603493830747,0.968030183440743,1.08427989021373,0.974839346842014,0.974027892136163,0.972925372155387,0.973022393913696,0.972828350397079,0.974133734054318,0.974839346842014,1.03137657145619,1.03977336362978,1.04606213760012,1.00933499200052,1.00528653863112,1.01864026063827,1.00252582859925,1.00026786767862,0.999094786419079,1.0013703876594,1.00112342318371,0.999429952493235,1.077726511448,1.02898630813787,1.0298330434831,1.06068596262513,1.09609890440765,1.00680360612466,1.00654782148912,1.00662720292774,1.00623911589451,1.00548940230758,1.00131746670032,1.00131746670032,1.09393796524533,1.14875525868949,1.05723728012527,1.05927473704974,1.04194312295195,1.04435102658996,1.0442451846718,1.04222536806702,1.04439512738919,1.04603567712058,1.04620326015766,1.04737634141721,1.04742044221644,1.05025171352707,1.06292628322607,1.08306270815496,1.0698236482258,1.09757187110196,1.04811723484429,1.15867793851647,1.06679833339855,1.06758332762486,1.20927037539431,1.20687129191614,1.18255411122015,1.18457392782493,1.11924300384409,0.933605099561003,0.933499257642849,0.935571995206707,0.947858477872472,1.12536419477736,1.01985744269705,0.960391925013929,0.961467984515166,0.962676346414096,1.07292834449167,1.03352869045867,0.950619187904334,0.948078981868626,0.94839650762309,0.949340264726634,0.998636138107076,0.99665160214168,1.00839123489698,0.984047593721452,1.01639994003733,0.969115063101826,0.970482187877988,0.977732359271569,0.970252863721987,0.971249541784608,0.969679553331984,0.968894559105672,1.00557760390604,1.05999799015713,0.990821476483338,0.996713343260603,1.01565904661025,0.996334076387217,0.996378177186448,0.996704523100757,0.997657100364148,0.998345072832152,0.998406813951075,0.996660422301526,0.992232702058731,0.991641751349035,0.992215061739039,0.988395932525632,0.987011167429778,0.986384936080697,0.985203034661305,0.989692496023024,0.989392610588253,0.990486310409183,1.04282513893657,1.08730520504098,1.08927210068668,1.04831127836091,1.01553556437241,1.01321586233285,1.0800550336474,1.02316500263937,1.01146947068331,1.00960841695576,1.01082559901453,1.16508137456482,1.01798756880965,1.01856087919965,1.01998092493489,1.01945171534412,1.01952227662289,1.01834919536335,1.01842857680196,1.02029845068936,1.02149799242844,1.01724667538257,1.01819925264596,1.02003384589397,1.02044839340674,1.02219478505629,1.0225211309706,1.02471735077231,1.02617267714693,1.15987748025556,1.07170234227304,1.17388389409133,1.03929707499808,1.03987038538809,1.0390324702027,1.04129925128317,1.04100818600825,1.04296626149411,1.04236649062456,1.04479203458227,1.04514484097612,1.04411288227411,1.04571815136612,1.04604449728043,1.04700589470367,1.04711173662182,1.0480995945246,1.04934323706291,1.04907863226753,1.04824953724198,1.04837301947983,1.050772102958,1.05341815091186,1.05360337426863,1.05679627213296
0.983888830844221,1.05245675348862,1.19211516449344,0.970226403242448,0.968144845518744,0.968515292232285,0.968497651912592,0.967747938325665,0.967933161682435,0.972678407679694,0.974019071976317,0.973613344623391,0.973278178549236,0.973260538229543,0.973648625262776,0.974230755812626,0.975527319310018,1.21413910362941,1.16120050423249,1.183250903848,1.00963487743529,1.00900864608621,1.00739455683436,1.00380475177695,0.999959162084007,0.999659276649236,1.00247290764018,1.05745778412142,1.02424106214061,1.0848267401242,1.05928355720959,1.06847416376933,1.0743483902269,1.14516545363209,1.1813986702803,1.01183991739685,1.19364987230668,1.04498607809889,1.07590073835984,1.00407817673219,1.07669455274599,1.09664575431811,1.09760715174135,1.04114048840594,1.04294862117441,1.04310738405164,1.04416580323319,1.04462445154519,1.04548882721012,1.04757038493382,1.04938733786214,1.05011941112938,1.051001427114,1.05423842577756,1.06907393463887,1.10606568503386,1.09315297101901,1.06596923837301,1.11556499718822,1.1100435771245,1.06632204476686,1.07911127654386,1.090171756991,1.18412409967278,1.0598215869602,1.050886765036,1.18517369869448,0.965789862839807,0.934689979222087,0.935457333128706,0.936833278064715,1.03031815227465,1.18158389363707,1.08893693461253,1.14550943986609,0.997171991572606,0.997286653650607,1.011601773081,1.03679214960176,1.11803464194516,0.953538660813428,1.16405823602266,0.996228234469062,0.958927778479459,1.00301975755064,0.966001546676116,0.968435910793669,0.968312428555822,0.969900057328139,0.971955154572305,0.972352061765384,0.971831672334458,0.974019071976317,0.974909908120784,0.976435795774177,0.97663865945064,0.992691350370734,0.992488486694271,1.00437806216696,1.0182257131255,0.995910708714599,0.995381499123827,0.99646637878491,0.995804866796444,0.995990090153215,0.996060651431984,0.994155496905204,0.992435565735194,0.990556871687952,0.988519414763479,0.987769701176551,0.986905325511623,0.985317696739306,0.985776345051309,0.987222851266087,0.989436711387484,1.02162147466629,1.01844621712165,1.00921150976268,1.00959077663606,1.05120429079046,1.21295720221002,1.01477703062563,1.00168791341386,1.00525125799173,1.00669776420651,1.00903510656575,1.00964369759514,1.01651460211533,1.01689386898872,1.01677038675087,1.01649696179564,1.01696443026749,1.01665572467287,1.0165851633941,1.01669100531226,1.01669100531226,1.01737015762042,1.01751128017796,1.01990154349628,1.02035137164843,1.02098642315736,1.0228827575243,1.02394117670584,1.02405583878384,1.02422342182092,1.02705469313155,1.04304564293272,1.04244587206318,1.03910303148147,1.03927943467839,1.03964988139193,1.04060245865532,1.0413433520824,1.04187256167318,1.04311620421149,1.04607977791982,1.04299272197364,1.04205778502995,1.04256053414118,1.04343372996595,1.04607095775997,1.04828481788137,1.19753956279886,1.05162765846308,1.04786145020875,1.20860886340584,1.04929031610383,1.05113372951169,1.05264197684539,1.05379741778525
0.983209678536063,0.983359621253448,0.985926287768694,1.04675893022797,0.968691695429209,0.968568213191362,0.970720332193836,0.969141523581365,0.966910023140275,1.08832834358314,0.973154696311389,0.974213115492933,0.974565921886782,0.980643012020817,1.10861471122941,0.984347479156224,1.07058218197257,1.07289306385228,1.11509752871637,1.00948493471791,1.00890280416806,1.00891162432791,1.00952903551714,1.00464266696234,1.00485435079865,1.00807370914252,1.0229797792826,1.02382651462784,1.03698619311838,1.09047164242577,1.03632468112991,1.03510749907114,1.1002708400149,1.17624769693012,1.04114048840594,1.02260933256906,1.02095996267782,1.02065125708321,1.07387210159521,1.07844094439554,1.07853796615385,1.07904953542493,1.15206281863182,1.04461563138535,1.04247233254272,1.0441305225938,1.04434220643011,1.04400704035596,1.04271047685857,1.05336522995278,1.05198928501677,1.05025171352707,1.10709764373587,1.07335171216428,1.07426900878829,1.11588252294269,1.08797553718929,1.09476706027087,1.16007152377218,1.10299626940738,1.11409203049391,1.11425079337114,1.03827393645592,1.00010910480139,0.999685737128775,0.962191237622555,1.09698974055211,0.998918383222155,0.940819990315199,0.936612774068559,0.937380127975179,1.08473853852573,1.00818837122052,0.969635452532753,1.10641849142771,1.13629237282681,1.12171264860103,0.973278178549236,0.97517451291617,0.959933276701927,0.956246449886213,0.956634536919446,0.959280584873307,1.01759948177642,0.96624851115181,0.967730298005972,0.968091924559667,0.968162485838436,0.968965120384441,0.970014719406139,0.972052176330613,0.973075314872773,0.973339919668159,0.975509678990326,0.977062027123258,0.983809449405605,0.982609907666521,0.990574512007645,0.995346218484442,1.00898218560668,0.993696848593201,0.993970273548434,0.992717810850272,0.994340720261974,0.992911854366889,0.992611968932118,1.24966670748993,0.99028344673272,0.989339689629176,0.990248166093335,0.989101545313328,0.98677302311393,0.986270274002696,0.985891007129309,0.986384936080697,1.0310149449025,1.04226064870641,0.989401430748099,1.01840211632242,1.00542766118865,1.00598333125897,1.05373567666632,1.01106374333038,1.08233945504757,1.0724961566592,1.0686593871261,1.03262021399451,1.011601773081,1.01690268914857,1.01719375442349,1.01707909234549,1.01608241428287,1.01714083346442,1.01664690451303,1.01662926419334,1.01692032946826,1.0150945563801,1.01714965362426,1.01847267760119,1.01906362831089,1.01911654926997,1.02132158923152,1.02517599908431,1.02475263141169,1.02457622821477,1.02394999686569,1.02490257412908,1.05953934184513,1.04445686850811,1.03908539116177,1.03817691469762,1.03800933166054,1.03895308876408,1.03948229835485,1.03943819755562,1.04241941158364,1.0427369373381,1.04253407366164,1.04152857543917,1.0420489648701,1.04194312295195,1.0447214733035,1.03825629613623,1.03783292846361,1.04211070598902,1.0666924914804,1.20475445355305,1.04538298529197,1.04771150749136,1.05020761272784,1.05161883830323
0.983244959175448,0.984259277557761,0.98537943785823,1.12111287773149,1.03374037429497,0.972325601285845,0.971858132813997,0.969406128376751,0.965137171011188,0.965172451650573,0.99957989521062,1.08431517085312,0.999024225140309,0.999597535530313,0.993758589712125,1.03887370732547,0.986808303753315,1.02863350174402,1.02888928637956,1.21337174972279,1.00919386944298,1.00914976864375,1.00897336544683,1.00563934502496,1.00575400710296,1.00797668738421,1.00913212832406,1.01374507192363,1.02009558701289,1.14347198294162,1.04279867845703,1.14528893586993,1.06882697016318,1.10113521567983,1.08815194038622,1.11537095367161,1.1130600717919,1.19422318269668,1.24967552764978,1.07445423214506,1.07616534315522,1.08250703808464,1.05248321396816,1.04446568866796,1.04480085474212,1.05190990357816,1.06023613447298,1.06597805853286,1.0678567525801,1.06798023481794,1.06866820728595,1.07557439244553,1.10659489462463,1.0659868786927,1.06690417531671,1.08256877920357,1.09452009579518,1.09164472368531,1.08429753053342,1.08906041685038,1.08091940931233,1.07945526277786,1.14036728667575,1.09070978674162,1.00113224334355,1.08517954651804,1.16586636879113,1.16741871692406,1.02619913762647,0.947902578671702,1.0317029173705,1.03090910298434,1.00934381216037,1.15537037857415,1.00551586278712,1.08394472413958,1.08380360158204,1.1396704940479,1.0581986775485,1.078299821838,0.961097537801626,0.960638889489623,0.980290205626969,0.980210824188353,0.966901202980429,0.967465693210586,0.967315750493201,0.96713052713643,0.96808310439982,0.968929839745056,0.969538430774444,0.970720332193836,0.972334421445692,0.974927548440476,0.99002766209718,0.981586769124361,1.05093086583523,0.988545875243017,1.13994391900313,1.16498435280651,0.990900857921954,0.990318727372105,0.989639575063947,0.989304408989791,0.986561339277621,0.989366150108714,0.989471992026869,0.987813801975782,0.989471992026869,0.990530411208413,0.989013343714866,0.987425714942549,0.986737742474545,0.986305554642081,0.986164432084542,0.985511740255922,0.987355153663779,0.988572335722556,1.01995446445536,1.02648138274155,1.21802879412159,1.01076385789561,1.01091380061299,1.0052071571925,1.0269488512134,1.02444392581707,1.03207336408404,1.0334404888602,1.01400967671901,1.01426546135455,1.01437130327271,1.01719375442349,1.01791700753088,1.01457416694917,1.01382445336224,1.01479467094532,1.01397439607963,1.02114518603459,1.02133040939136,1.064707955515,1.03142067225542,1.03083854170557,1.03254083255589,1.03260257367481,1.04900807098876,1.03234678903927,1.03934999595716,1.04500371841858,1.04431574595057,1.04177553991487,1.04107874728702,1.03853854125131,1.03822983565669,1.03845033965285,1.03913831212085,1.03990566602747,1.04050543689701,1.03879432588685,1.04104346664763,1.04121986984456,1.03911185164131,1.04003796842516,1.04091116424994,1.03884724684593,1.03912067180116,1.2216009588593,1.0808576681934,1.04566523040704,1.04556820864874,1.04832009852075,1.05050749816261
