1.13312, 1.04718, 1.17797, 1.12331, 1.04612, 1.11619, 1.08171, 1.13562, 1.17585, 1.14948, 1.14841, 1.32568, 1.10464, 1.23985, 1.39633, 1.19975, 1.20003, 1.19884, 1.20297, 1.23377, 1.21889, 1.21952, 1.24063, 1.49583, 1.30909, 1.3222, 1.45983, 1.30816, 1.30934, 1.39787, 1.45158, 1.3566, 1.35795, 1.45231, 1.34844, 1.46514, 1.33371, 1.29553, 1.2957, 1.41749, 1.46922, 1.43653, 1.37104, 1.2241, 1.17374, 1.04431, 1.04456, 1.04685, 1.04781, 1.05399, 1.11238, 1.0782, 1.11514, 1.09145, 1.09792, 1.11289, 1.12158, 1.19008, 1.26855, 1.43453, 1.37079, 1.28993, 1.31271, 1.37548, 1.40276, 1.38427, 1.39097, 1.45212, 1.45391, 1.44067, 1.41332, 1.42656, 1.41949, 1.41818, 1.44919, 1.41661, 1.42372, 1.44142, 1.40523, 1.36143, 1.34807, 1.34628, 1.36517, 1.37973, 1.3789, 1.38019, 1.38219, 1.34253, 1.30196, 1.31673, 1.37969, 1.31719, 1.25282, 1.21586, 1.17863, 1.17894, 1.18481, 1.19439, 1.12372, 1.21516, 1.16725, 1.21721, 1.15454, 1.12593, 1.12514, 1.13748, 1.14162, 1.17862, 1.15036, 1.1289, 1.1623, 1.18821, 1.13114, 1.13108, 1.14204, 1.14176, 1.14841, 1.14928, 1.15553, 1.16405, 1.16805, 1.18018, 1.18058, 1.30382, 1.20357, 1.20716, 1.20816, 1.34002, 1.26069, 1.2394, 1.2458, 1.24756, 1.30551, 1.35169, 1.35961, 1.52428, 1.35427, 1.27749, 1.28104, 1.29517, 1.29704, 1.27482, 1.27481, 1.27087, 1.26016, 1.26083, 1.26533, 1.26405, 1.26822, 1.26965
1.02381, 1.08761, 1.06447, 1.08477, 1.03956, 1.29259, 1.02621, 1.01616, 1.13661, 1.14341, 1.36026, 1.50228, 1.12346, 1.2124, 1.20292, 1.33402, 1.19984, 1.19972, 1.20133, 1.21622, 1.21688, 1.49665, 1.34263, 1.53746, 1.47986, 1.50632, 1.4747, 1.49177, 1.3155, 1.31849, 1.53316, 1.50023, 1.37752, 1.35468, 1.52111, 1.35324, 1.35847, 1.33366, 1.50179, 1.46368, 1.44879, 1.33616, 1.17706, 1.28547, 1.0758, 1.04879, 1.02786, 1.07345, 1.05629, 1.0638, 1.11138, 1.22235, 1.16841, 1.16849, 1.11483, 1.14957, 1.16874, 1.22312, 1.22076, 1.33577, 1.37801, 1.34032, 1.34811, 1.385, 1.38473, 1.38789, 1.41213, 1.42415, 1.42319, 1.42411, 1.40538, 1.41482, 1.4237, 1.44213, 1.4483, 1.44505, 1.39879, 1.40142, 1.38803, 1.43706, 1.38116, 1.37048, 1.35371, 1.40463, 1.42059, 1.38428, 1.3626, 1.3482, 1.31702, 1.30245, 1.31104, 1.36147, 1.28494, 1.24881, 1.21433, 1.21573, 1.22279, 1.15914, 1.21095, 1.11801, 1.12494, 1.13558, 1.12691, 1.12578, 1.12515, 1.14303, 1.13015, 1.13092, 1.13758, 1.14143, 1.10595, 1.25765, 1.20381, 1.12765, 1.13181, 1.13901, 1.14257, 1.14965, 1.15265, 1.16287, 1.16734, 1.17151, 1.22979, 1.22688, 1.30288, 1.23596, 1.30155, 1.23256, 1.23952, 1.23753, 1.24266, 1.3618, 1.31837, 1.33893, 1.32636, 1.42255, 1.4025, 1.30554, 1.2864, 1.28807, 1.2962, 1.33775, 1.27387, 1.26326, 1.26172, 1.26138, 1.67839, 1.26382, 1.26858, 1.26532
1.2295, 1.20192, 1.06578, 1.08142, 1.08027, 1.12638, 1.0179, 1.01834, 1.14269, 1.0539, 1.21916, 1.21858, 1.22649, 1.13592, 0.0043178, 1.40647, 1.34134, 1.19513, 1.4102, 1.21692, 1.21717, 1.21958, 1.24237, 1.34452, 1.34879, 1.33594, 1.3356, 1.49221, 1.3156, 1.31557, 1.32374, 1.45702, 1.34999, 1.45544, 1.45537, 1.48453, 1.52756, 1.34114, 1.41244, 1.37118, 1.31221, 1.25511, 1.17932, 1.06146, 1.0604, 1.02461, 1.03614, 0.997295, 1.01785, 1.10301, 1.09546, 1.21655, 1.16869, 1.17379, 1.16838, 1.20183, 1.20177, 1.34688, 1.34693, 1.36923, 1.41543, 1.43442, 1.41641, 1.41654, 1.50182, 1.40655, 1.40891, 1.41519, 1.42016, 1.47128, 1.45659, 1.44878, 1.45214, 1.44753, 1.47512, 1.45684, 1.43862, 1.43698, 1.3987, 1.49171, 1.41605, 1.41549, 1.37405, 1.43516, 1.40127, 1.39286, 1.39895, 1.36583, 1.33906, 1.32185, 1.32066, 1.32694, 1.33405, 1.35118, 1.30764, 1.2703, 1.27528, 1.15337, 1.12758, 1.12754, 1.12964, 1.14183, 1.12632, 1.12092, 1.15512, 1.14708, 1.12225, 1.11946, 1.14216, 1.14158, 1.18573, 1.18581, 1.20601, 1.15727, 1.15862, 1.13566, 1.14001, 1.14654, 1.14977, 1.16413, 1.16539, 1.1764, 1.17723, 1.23624, 1.23822, 1.24591, 1.30894, 1.23978, 1.23686, 1.23992, 1.24602, 1.31283, 1.27076, 1.32759, 1.34651, 1.44132, 1.41552, 1.63143, 1.33942, 1.28916, 1.29251, 1.34264, 1.33629, 1.34293, 1.25109, 1.25518, 1.61236, 1.25689, 1.25383, 1.26201
1.02131, 1.01428, 1.02679, 1.02622, 1.01079, 1.15771, 1.14932, 1.30262, 1.25282, 1.1677, 1.26123, 1.07512, 1.10571, 1.16448, 1.27454, 1.34998, 1.36499, 1.19504, 1.29699, 1.3047, 1.21212, 1.46392, 1.60292, 1.42064, 1.50277, 1.47369, 1.48158, 1.33002, 1.32599, 1.31875, 1.31813, 1.36175, 1.41081, 1.41415, 1.50558, 1.49485, 1.40988, 1.37241, 1.37096, 1.23973, 1.21205, 1.24003, 1.20461, 1.00279, 1.00862, 0.995313, 0.972005, 1.00629, 1.01304, 1.04393, 1.06626, 1.14132, 1.17188, 1.32863, 1.27802, 1.24439, 1.23232, 1.33209, 1.33226, 1.38965, 1.34475, 1.34635, 1.40597, 1.47162, 1.49162, 1.42472, 1.40958, 1.43116, 1.46044, 1.56184, 1.50583, 1.48622, 1.45837, 1.49638, 1.4993, 1.60229, 1.60237, 1.43865, 1.48858, 1.44444, 1.41935, 1.4443, 1.46618, 1.39045, 1.4243, 1.39674, 1.38782, 1.3408, 1.34006, 1.32835, 1.35422, 1.3479, 1.35073, 1.3222, 1.3692, 1.43785, 1.29292, 1.16737, 1.14065, 1.13414, 1.12859, 1.15398, 1.11495, 1.12254, 1.10834, 1.10598, 1.11861, 1.1181, 1.1212, 1.1711, 1.0961, 1.09048, 1.19903, 1.20938, 1.20644, 1.20274, 1.13854, 1.14075, 1.1544, 1.15925, 1.22597, 1.18363, 1.19463, 1.50539, 1.28427, 1.22933, 1.22935, 1.2333, 1.23706, 1.24306, 1.24702, 1.3709, 1.27147, 1.27469, 1.28945, 1.28894, 1.44532, 1.32136, 1.32114, 1.43559, 1.2888, 1.28676, 1.36396, 1.33061, 1.25105, 1.25135, 1.61052, 1.25828, 1.25144, 1.24934
1.10715, 1.01185, 1.00451, 0.993569, 0.99291, 0.99398, 1.17183, 1.06105, 1.16567, 1.1854, 1.09226, 1.21638, 1.27123, 1.19103, 1.19219, 1.30881, 1.20916, 1.31444, 1.35846, 1.21572, 1.20701, 1.31649, 1.39838, 1.32294, 1.47636, 1.47785, 1.48016, 1.42052, 1.53032, 1.32566, 1.32144, 1.33376, 1.38834, 1.41281, 1.42892, 1.29462, 1.31626, 1.23794, 1.21263, 1.2329, 1.22858, 1.34104, 1.08428, 0.990847, 0.992092, 0.98474, 1.01866, 1.05911, 1.07386, 1.09554, 1.08007, 1.13478, 1.20118, 1.34705, 1.30366, 1.30637, 1.32054, 1.29409, 1.32571, 1.35571, 1.35207, 1.45447, 1.46071, 1.49988, 1.50941, 1.43581, 1.43688, 1.45191, 1.47756, 1.54534, 1.52726, 1.48737, 1.4857, 1.46949, 1.56539, 1.55973, 1.55858, 1.54122, 1.50436, 1.43035, 1.42084, 1.46471, 1.49434, 1.49454, 1.53966, 1.47074, 1.44422, 1.36884, 1.33357, 1.37029, 1.35147, 1.36124, 1.35759, 1.34136, 1.39825, 1.395, 1.3772, 1.20543, 1.16632, 1.1608, 1.12335, 1.11655, 1.11521, 1.11229, 1.11176, 1.11183, 1.12159, 1.11248, 1.11437, 1.17155, 1.17718, 1.27103, 1.11849, 1.14392, 1.12207, 1.1245, 1.13603, 1.14255, 1.15634, 1.15685, 1.16641, 1.22635, 1.23735, 1.23653, 1.2438, 1.22235, 1.22791, 1.22911, 1.23181, 1.24021, 1.24235, 1.37857, 1.30795, 1.38193, 1.28217, 1.28788, 1.34141, 1.42647, 1.32373, 1.32523, 1.40984, 1.32686, 1.24805, 1.24696, 1.24715, 1.24682, 1.24856, 1.24947, 1.24908, 1.24551
1.22224, 1.00139, 0.994977, 0.99264, 0.993611, 0.992801, 0.993036, 1.12507, 1.00631, 1.10155, 1.10205, 1.16846, 1.14656, 1.14245, 1.15951, 1.16515, 1.22689, 1.23861, 1.18998, 1.40637, 1.20726, 1.32115, 1.31761, 1.31888, 1.324, 1.48166, 1.48079, 1.48146, 1.38501, 1.63669, 1.52616, 1.32819, 1.37359, 1.25221, 1.46566, 1.47194, 1.17598, 1.1664, 1.31959, 1.31221, 1.18168, 1.16349, 1.09386, 1.00129, 1.00583, 0.988373, 1.11072, 1.10586, 1.14719, 1.10052, 1.10493, 1.13333, 1.23936, 1.26336, 1.33371, 1.3098, 1.33064, 1.32584, 1.42, 1.34699, 1.36491, 1.41147, 1.48116, 1.48173, 1.51322, 1.55086, 1.47009, 1.47086, 1.53348, 1.53291, 1.55153, 1.52065, 1.51435, 1.51517, 1.58233, 1.58548, 1.57285, 1.52665, 1.50379, 1.43045, 1.43005, 1.49372, 1.48825, 1.49922, 1.52931, 1.57017, 1.46505, 1.42288, 1.40971, 1.37768, 1.38149, 1.38087, 1.39278, 1.34212, 1.44299, 1.40875, 1.45067, 1.18761, 1.18248, 1.18392, 1.16044, 1.21543, 1.12622, 1.17533, 1.11477, 1.11525, 1.1822, 1.11279, 1.11145, 1.11151, 1.13977, 1.11597, 1.1077, 1.1327, 1.11951, 1.12698, 1.12938, 1.14346, 1.22337, 1.24669, 1.17729, 1.23037, 1.26481, 1.23277, 1.22359, 1.21601, 1.23652, 1.22701, 1.28172, 1.28669, 1.27287, 1.31236, 1.25792, 1.27454, 1.27396, 1.41419, 1.32827, 1.42612, 1.31308, 1.32277, 1.43938, 1.35293, 1.24654, 1.24298, 1.24038, 1.24415, 1.24792, 1.24388, 1.24293, 1.2455
1.23725, 1.23273, 1.22589, 0.98869, 0.989883, 0.988907, 0.990946, 1.18986, 1.12248, 1.08795, 1.10461, 1.41943, 1.45792, 1.31239, 1.0982, 1.15316, 1.12716, 1.13132, 1.36375, 1.20214, 1.20784, 1.20838, 1.22685, 1.32227, 1.38084, 1.5294, 1.47841, 1.48676, 1.46592, 1.41528, 1.35515, 1.35468, 1.37925, 1.17141, 1.17273, 1.13708, 1.4311, 1.24093, 1.08111, 1.08223, 1.17398, 1.10406, 1.0221, 0.997236, 1.00564, 0.996016, 1.10383, 1.11027, 1.16089, 1.13459, 1.18264, 1.15339, 1.17247, 1.34879, 1.45896, 1.45858, 1.35143, 1.32793, 1.35313, 1.35279, 1.36428, 1.42469, 1.47577, 1.46141, 1.54469, 1.54483, 1.52437, 1.46715, 1.47402, 1.53125, 1.65312, 1.55077, 1.53234, 1.60147, 1.8071, 1.63342, 1.65452, 1.49939, 1.52291, 1.48322, 1.47857, 1.4743, 1.51976, 1.48345, 1.59613, 1.58, 1.69416, 1.46858, 1.42606, 1.43068, 1.42971, 1.41529, 1.50886, 1.40003, 1.35106, 1.4414, 1.26399, 1.22961, 1.20253, 1.19624, 1.18899, 1.18203, 1.17377, 1.17403, 1.09837, 1.16461, 1.12556, 1.1256, 1.10592, 1.10623, 1.27767, 1.13641, 1.10608, 1.10603, 1.12032, 1.12662, 1.22925, 1.14681, 1.15859, 1.16073, 1.22174, 1.22192, 1.22269, 1.22929, 1.5353, 1.23431, 1.23809, 1.32699, 1.24391, 1.27743, 1.22747, 1.24895, 1.31011, 1.35033, 1.27017, 1.27045, 1.29899, 1.40526, 1.40538, 1.31458, 1.48194, 1.37803, 1.24037, 1.23815, 1.24003, 1.24297, 1.24265, 1.24024, 1.24345, 1.24579
0.99272, 0.99405, 0.982198, 0.986006, 0.986904, 0.986724, 1.12376, 1.09423, 1.17439, 1.07339, 1.43445, 1.20971, 1.34355, 1.24872, 1.41632, 1.12265, 1.12359, 1.25385, 1.15461, 1.29564, 1.37751, 1.21168, 1.39147, 1.2902, 1.33044, 1.47071, 1.44287, 1.48923, 1.37522, 1.37476, 1.63183, 1.37292, 1.4033, 1.26462, 1.09763, 1.18851, 1.16007, 1.18241, 1.21675, 1.06342, 1.05416, 1.01843, 1.1051, 1.05367, 1.01607, 1.03775, 1.12683, 1.16161, 1.19887, 1.15488, 1.15476, 1.18481, 1.25732, 1.35454, 1.41286, 1.43722, 1.37665, 1.34389, 1.35482, 1.36628, 1.40676, 1.42921, 1.48252, 1.51793, 1.50764, 1.50946, 1.49879, 1.47448, 1.48573, 1.51218, 1.68947, 1.69269, 1.8412, 1.79216, 1.82741, 1.60695, 1.62392, 1.51658, 1.48625, 1.5144, 1.49184, 1.50863, 1.50647, 1.52003, 1.46783, 1.57848, 1.56763, 1.43691, 1.49141, 1.43022, 1.4155, 1.49841, 1.47381, 1.49841, 1.3506, 1.35299, 1.29882, 1.27744, 1.25824, 1.2779, 1.24991, 1.21271, 1.17194, 1.09337, 1.08729, 1.09636, 1.11057, 1.15709, 1.10319, 1.10239, 1.09862, 1.12031, 1.10636, 1.10575, 1.12147, 1.12874, 1.13625, 1.1529, 1.15947, 1.15945, 1.21582, 1.21733, 1.28219, 1.36429, 1.2919, 1.20943, 1.20998, 1.21232, 1.30146, 1.27609, 1.26659, 1.21933, 1.23141, 1.32624, 1.33926, 1.32934, 1.28817, 1.29635, 1.49927, 1.33247, 1.43148, 1.40913, 1.23738, 1.23877, 1.23678, 1.2379, 1.23931, 1.23892, 1.24443, 1.24171
0.988027, 0.983633, 0.983189, 0.985513, 0.986172, 0.991147, 1.15537, 1.09226, 1.04654, 1.1789, 1.19926, 1.09991, 1.11162, 1.24977, 1.2639, 1.30238, 1.27558, 1.24244, 1.16067, 1.16077, 1.29244, 1.38511, 1.40325, 1.34559, 1.26257, 1.36253, 1.46169, 1.45099, 1.48827, 1.37814, 1.3793, 1.41574, 1.2509, 1.25363, 1.34986, 1.1681, 1.11644, 1.19475, 1.06114, 1.02271, 1.06162, 1.01617, 1.03327, 1.03459, 1.06323, 1.07733, 1.10554, 1.20563, 1.22136, 1.22245, 1.21374, 1.22855, 1.35437, 1.32556, 1.32596, 1.4172, 1.42577, 1.35353, 1.35469, 1.41957, 1.42409, 1.46484, 1.47273, 1.46912, 1.47562, 1.51408, 1.51364, 1.5433, 1.50239, 1.53777, 1.70986, 1.70791, 1.72422, 1.78992, 1.79748, 1.59379, 1.55619, 1.50968, 1.51945, 1.56468, 1.52686, 1.55116, 1.57072, 1.50163, 1.55021, 1.4673, 1.44076, 1.46108, 1.4537, 1.4146, 1.41362, 1.50141, 1.51621, 1.40704, 1.35153, 1.29171, 1.29306, 1.30852, 1.27555, 1.27898, 1.26496, 1.17293, 1.12405, 1.09263, 1.09232, 1.17304, 1.10334, 1.10449, 1.17816, 1.09998, 1.10242, 1.11666, 1.1174, 1.11243, 1.11799, 1.12982, 1.23639, 1.19827, 1.23452, 1.22037, 1.21959, 1.19011, 1.20679, 1.19919, 1.20029, 1.20391, 1.31249, 1.21142, 1.20509, 1.26986, 1.20476, 1.21347, 1.21792, 1.32355, 1.3311, 1.30206, 1.33469, 1.40223, 1.42172, 1.38153, 1.46489, 1.34744, 1.28173, 1.23042, 1.23108, 1.23084, 1.23737, 1.23927, 1.24198, 1.24195
0.988306, 0.983848, 0.983513, 0.984969, 0.990077, 0.990025, 1.2082, 1.42346, 1.15122, 1.17827, 1.06826, 1.09785, 1.24752, 1.27304, 1.20985, 1.35446, 1.28788, 1.15355, 1.15397, 1.30349, 1.36974, 1.38207, 1.40295, 1.55535, 1.34792, 1.35004, 1.53759, 1.51275, 1.5038, 1.38749, 1.38632, 1.38755, 1.12341, 1.14435, 1.14303, 1.12064, 1.11264, 1.17874, 1.04231, 1.03186, 1.03078, 1.03301, 1.09272, 1.0841, 1.08935, 1.11665, 1.1853, 1.21672, 1.26542, 1.25507, 1.26022, 1.34745, 1.38121, 1.3797, 1.34631, 1.35894, 1.37453, 1.34693, 1.38757, 1.61971, 1.46879, 1.51659, 1.4638, 1.47913, 1.48454, 1.65321, 1.56181, 1.55128, 1.53807, 1.57716, 1.60384, 1.73472, 1.74901, 1.85433, 1.79943, 1.79714, 1.56346, 1.56505, 1.5748, 1.57208, 1.59187, 1.73399, 1.56988, 1.51597, 1.58688, 1.4816, 1.46079, 1.43701, 1.44563, 1.44405, 1.42635, 1.42724, 1.42374, 1.40109, 1.36406, 1.3298, 1.31714, 1.29077, 1.27724, 1.32341, 1.22612, 1.16492, 1.16497, 1.10895, 1.09032, 1.1203, 1.10908, 1.08384, 1.09734, 1.09686, 1.10166, 1.19079, 1.11731, 1.11784, 1.11548, 1.12195, 1.13613, 1.20624, 1.15105, 1.31943, 1.41901, 1.20289, 1.20653, 1.20145, 1.19781, 1.1914, 1.19075, 1.19828, 1.19784, 1.19779, 1.19981, 1.20561, 1.2033, 1.32532, 1.20498, 1.19805, 1.35467, 1.35459, 1.38626, 1.30934, 1.27581, 1.27729, 1.29137, 1.22608, 1.22946, 1.22819, 1.22938, 1.2342, 1.40245, 1.23951
0.988697, 0.98055, 0.979313, 0.984718, 0.989826, 1.22543, 1.21052, 1.45046, 1.19001, 1.0657, 1.06819, 1.07161, 1.12491, 1.21531, 1.18724, 1.15468, 1.25705, 1.30916, 1.14711, 1.14856, 1.20718, 1.56332, 1.26426, 1.26842, 1.32206, 1.27598, 1.25134, 1.40688, 1.5825, 1.51256, 1.38674, 1.17136, 1.16546, 1.14381, 1.38789, 1.18408, 1.07547, 1.0697, 1.04347, 1.01098, 1.1087, 1.08916, 1.12066, 1.15221, 1.14978, 1.15998, 1.18401, 1.29097, 1.30319, 1.31699, 1.35591, 1.33016, 1.37992, 1.33298, 1.33619, 1.36992, 1.43733, 1.3955, 1.37492, 1.47251, 1.46734, 1.45216, 1.45719, 1.45826, 1.4878, 1.52302, 1.59935, 1.62227, 1.56144, 1.54464, 1.68082, 1.72838, 1.73349, 1.79391, 1.79314, 1.79258, 1.73083, 1.73408, 1.69967, 1.74764, 1.74823, 1.76632, 1.58625, 1.53369, 1.53078, 1.44798, 1.44497, 1.45697, 1.44431, 1.50537, 1.44512, 1.43659, 1.40862, 1.39257, 1.39795, 1.35808, 1.36063, 1.32603, 1.32604, 1.35307, 1.28674, 1.2615, 1.15692, 1.11647, 1.09467, 1.07153, 1.07303, 1.1099, 1.08299, 1.09496, 1.09143, 1.1029, 1.27587, 1.16498, 1.12088, 1.1226, 1.12769, 1.2058, 1.25118, 1.24496, 1.21079, 1.4027, 1.25002, 1.19616, 1.18898, 1.18482, 1.18741, 1.18972, 1.19324, 1.19339, 1.19433, 1.19804, 1.23593, 1.22877, 1.18071, 1.30757, 1.30648, 1.32958, 1.3469, 1.38577, 1.37734, 1.48584, 1.28287, 1.29495, 1.23285, 1.22665, 1.22854, 1.23917, 1.23133, 1.23233
0.989201, 0.988748, 0.978712, 1.02583, 1.02698, 1.22415, 1.18878, 1.03572, 1.04663, 1.08674, 1.08044, 1.08145, 1.08268, 1.08161, 1.08376, 1.14737, 1.17759, 1.18211, 1.11586, 1.10579, 1.20641, 0.00453499, 1.23695, 1.30222, 1.14165, 1.33646, 1.27607, 1.28875, 1.74527, 1.16194, 0.00458776, 1.33978, 1.12643, 1.12984, 1.18169, 0.945847, 0.990496, 0.965186, 0.963753, 0.977926, 1.10017, 1.1547, 1.12662, 1.11894, 1.1621, 1.18387, 1.23548, 1.28847, 1.31987, 1.39734, 1.39979, 1.40037, 1.3719, 1.35311, 1.37411, 1.37416, 1.40977, 1.39726, 1.37792, 1.40914, 1.55442, 1.55731, 1.49343, 1.47678, 1.51251, 1.6595, 1.58807, 1.58387, 1.56182, 1.57525, 1.69197, 1.65157, 1.6481, 1.69316, 1.70045, 1.71042, 1.72393, 1.89982, 1.86951, 1.9154, 1.82696, 1.83976, 1.59376, 1.54027, 1.62811, 1.57538, 1.48033, 1.44802, 1.45911, 1.43075, 1.41319, 1.3985, 1.38827, 1.38727, 1.38581, 1.3719, 1.36316, 1.33837, 1.38775, 1.35506, 1.27411, 1.22886, 1.1651, 1.15074, 1.1301, 1.11431, 1.09119, 1.08533, 1.11843, 1.0705, 1.08619, 1.09873, 1.10373, 1.30533, 1.11956, 1.11937, 1.11858, 1.12658, 1.15789, 1.51462, 1.24291, 1.18309, 1.18029, 1.18524, 1.18831, 1.18595, 1.18349, 1.19122, 1.19183, 1.19428, 1.19111, 1.19513, 1.19433, 1.2396, 1.17561, 1.34561, 1.34366, 1.33901, 1.32056, 1.26119, 1.27051, 1.33701, 1.28386, 1.39234, 1.4018, 1.22856, 1.2266, 1.22163, 1.22734, 1.23086
1.01445, 1.18778, 1.11196, 1.02487, 1.23364, 1.2225, 1.04005, 1.21282, 1.20247, 1.07659, 1.07754, 1.0818, 1.08187, 1.07917, 1.0823, 1.08842, 1.11915, 0.00428173, 1.1676, 1.10722, 1.10866, 1.1197, 1.20368, 1.17626, 1.25094, 1.14717, 1.16229, 1.16591, 1.16812, 1.08151, 1.08734, 1.14072, 1.33345, 1.06382, 1.02299, 0.928316, 0.942136, 0.956505, 0.973812, 1.02351, 1.08549, 1.13172, 1.21484, 1.16767, 1.20648, 1.22581, 1.26419, 1.28419, 1.30158, 1.43694, 1.42633, 1.42605, 1.39182, 1.38136, 1.39273, 1.42333, 1.42157, 1.42658, 1.4264, 1.43938, 1.50946, 1.58668, 1.57392, 1.53186, 1.5345, 1.6742, 1.68748, 1.58843, 1.57898, 1.58208, 1.62459, 1.65916, 1.65108, 1.65237, 1.65157, 1.71681, 2.05186, 1.93966, 1.93497, 1.88724, 1.94854, 0.00473541, 1.60021, 1.5961, 1.5673, 1.49666, 1.49231, 1.61304, 1.46651, 1.42717, 1.42549, 1.39641, 1.39053, 1.38287, 1.37404, 1.38309, 1.39384, 1.40154, 1.3428, 1.32432, 1.26388, 1.23882, 1.26194, 1.16032, 1.16417, 1.15314, 1.13138, 1.08442, 1.07434, 1.07461, 1.09093, 1.09385, 1.09712, 1.10513, 1.11646, 1.11925, 1.16212, 1.1286, 1.18036, 1.42636, 1.17256, 1.22197, 1.17755, 1.17893, 1.30875, 1.1795, 1.1809, 1.19112, 1.19136, 1.19354, 1.19097, 1.21642, 1.26143, 1.24576, 1.17567, 1.31984, 1.18639, 1.32373, 1.47361, 1.26079, 1.26932, 1.27588, 1.28125, 1.28117, 1.37911, 1.22625, 1.23044, 1.23007, 1.2269, 1.22721
1.42073, 1.09571, 1.17767, 0.00401518, 1.04456, 1.0451, 1.04551, 1.21495, 1.05137, 1.07157, 1.07237, 1.81346, 1.42735, 1.19782, 1.06379, 1.14758, 1.07085, 1.17492, 1.15856, 1.12864, 1.3767, 1.27239, 1.11895, 1.21514, 1.20452, 1.09547, 1.12684, 1.15235, 1.21959, 1.14646, 1.28462, 0.998972, 1.1243, 1.1287, 0.994891, 0.928366, 0.930619, 0.972114, 0.989593, 1.04289, 1.11927, 1.1502, 1.16916, 1.26587, 1.22236, 1.2514, 1.2856, 1.28424, 1.29884, 1.33591, 1.42651, 1.42731, 1.45115, 1.38596, 1.41886, 1.47545, 1.45172, 1.48228, 1.46877, 1.46931, 1.50973, 1.54005, 1.53079, 1.50837, 1.57727, 1.5831, 1.60454, 1.61268, 1.61672, 1.689, 1.6648, 1.78367, 1.68582, 1.65191, 1.68237, 1.70306, 1.70503, 2.05865, 1.88322, 1.88761, 1.93822, 1.94202, 1.6808, 1.62039, 1.53606, 1.54104, 1.50309, 1.653, 1.47559, 1.44119, 1.41175, 1.42839, 1.47774, 1.39401, 1.38749, 1.39169, 1.42872, 1.38285, 1.33429, 1.36155, 1.26226, 1.23104, 1.24699, 1.1992, 1.18649, 1.17982, 1.10092, 1.08778, 1.04973, 1.06647, 1.0873, 1.0874, 1.0929, 1.09751, 1.11123, 1.32644, 1.12901, 1.1326, 1.24166, 1.20131, 1.359, 1.23282, 1.17406, 1.17547, 1.18211, 1.18198, 1.18122, 1.18418, 1.1867, 1.18481, 1.18465, 1.23763, 1.2226, 1.17808, 1.1759, 1.18384, 1.18746, 1.33071, 1.24599, 1.24645, 1.3135, 1.27492, 1.27479, 1.27955, 1.34414, 1.22845, 1.22552, 1.22604, 1.22573, 1.2268
1.02715, 1.026, 1.02925, 1.12971, 1.35149, 1.18764, 1.05795, 1.20863, 1.24681, 1.10009, 1.28451, 1.25318, 1.15072, 1.18015, 1.22219, 1.10017, 1.15111, 1.12553, 1.11834, 1.125, 1.14718, 1.13957, 1.07746, 1.02945, 1.14919, 1.10853, 1.10536, 1.18837, 1.12469, 1.13534, 1.1433, 1.07478, 1.00218, 0.988, 0.971637, 0.926206, 0.984255, 0.985523, 0.997747, 1.07713, 1.1122, 1.16661, 1.18178, 1.27243, 1.25008, 1.26497, 1.28217, 1.29329, 1.29445, 1.32048, 1.32354, 1.3789, 1.39059, 1.39024, 1.48092, 1.52282, 1.4662, 1.49445, 1.49126, 1.54059, 1.54075, 1.55132, 1.55943, 1.52624, 1.53974, 1.63714, 1.62344, 1.62074, 1.61312, 1.63798, 1.6648, 1.67924, 1.67777, 1.65549, 1.65531, 1.6546, 1.68998, 0.00454058, 1.88885, 1.88898, 1.88832, 1.90391, 1.67328, 1.66921, 1.59042, 1.65017, 1.54617, 1.58557, 1.63647, 1.48802, 1.41682, 1.43138, 1.45109, 1.41051, 1.43308, 1.43379, 1.39608, 1.35072, 1.33824, 1.28547, 1.2717, 1.24836, 1.21534, 1.22257, 1.14255, 1.1758, 1.13192, 1.06066, 1.07303, 1.07294, 1.06775, 1.07393, 1.09074, 1.0873, 1.10017, 1.20143, 1.12307, 1.3377, 1.13393, 1.17841, 1.24413, 1.24325, 1.17338, 1.17079, 1.17631, 1.18142, 1.18306, 1.17658, 1.17231, 1.17186, 1.1778, 1.22731, 1.25474, 1.17714, 1.17665, 1.17834, 1.33904, 1.37122, 1.23991, 1.2476, 1.25287, 1.33345, 1.28127, 1.2804, 1.31594, 1.35426, 1.2252, 1.22615, 1.22609, 1.22276
1.02757, 1.03384, 1.03413, 1.13299, 1.11245, 1.15251, 1.20599, 1.20507, 1.26817, 1.26756, 0.98788, 1.22902, 1.04772, 1.04811, 1.0883, 1.07295, 1.02984, 1.11571, 1.11906, 1.05558, 1.00919, 1.04276, 1.0443, 1.05108, 1.11273, 1.07993, 1.09074, 1.086, 1.02248, 1.12183, 1.08357, 1.13639, 1.10212, 0.970552, 0.982353, 0.898882, 0.903348, 0.939008, 0.960833, 1.07862, 1.10465, 1.15763, 1.25139, 1.2658, 1.27368, 1.27278, 1.2984, 1.28214, 1.30139, 1.30276, 1.30648, 1.34511, 1.38869, 1.39266, 1.39175, 1.41788, 1.4949, 1.46104, 1.48697, 1.49155, 1.60605, 1.55988, 1.54537, 1.54315, 1.53004, 1.61258, 1.6517, 1.60925, 1.60992, 1.64923, 1.76337, 1.72836, 1.66103, 1.66127, 1.68693, 1.68298, 1.70644, 1.72986, 1.76496, 1.72197, 1.94787, 1.68299, 1.66636, 1.58451, 1.57522, 1.58574, 1.57116, 1.56962, 1.51045, 1.49722, 1.43199, 1.43114, 1.46489, 1.416, 1.50725, 1.45373, 1.38567, 1.3143, 1.27805, 1.26547, 1.25277, 1.23299, 1.22877, 1.18638, 1.1625, 1.1305, 1.07367, 1.05387, 1.06451, 1.06211, 1.0576, 1.0524, 1.1607, 1.08782, 1.34049, 1.20655, 1.3442, 1.25751, 1.29526, 1.17627, 1.1773, 1.22915, 1.16371, 1.16681, 1.17407, 1.17687, 1.177, 1.17476, 1.17189, 1.17381, 1.176, 1.17918, 1.18125, 1.1731, 1.17167, 1.17807, 1.19862, 1.37481, 1.39928, 1.24085, 1.2735, 1.33223, 1.28086, 1.28143, 1.42637, 1.24066, 1.41546, 1.22574, 1.22701, 1.22889
1.03095, 1.03261, 1.03553, 1.01505, 0.998272, 1.16053, 1.00639, 1.10129, 1.02928, 1.02616, 0.916156, 1.21959, 1.01004, 1.07852, 1.07938, 1.0777, 1.09685, 1.14331, 1.05793, 1.06819, 1.05942, 1.11297, 1.11517, 0.998506, 0.998605, 1.05781, 1.07018, 0.883469, 0.98559, 0.960461, 1.07917, 0.988535, 0.864577, 0.86251, 0.864391, 0.892687, 0.916313, 0.930248, 0.992358, 1.00363, 1.11222, 1.13275, 1.27465, 1.29871, 1.31202, 1.36305, 1.31597, 1.29913, 1.3049, 1.35037, 1.33756, 1.36598, 1.36658, 1.37422, 1.39712, 1.41441, 1.46411, 1.44945, 1.56891, 1.49923, 1.60663, 1.54888, 1.62355, 1.67752, 1.55864, 1.61096, 1.60565, 1.59958, 1.60256, 1.63167, 1.73317, 1.66537, 1.66468, 1.68042, 1.69437, 1.70138, 1.68223, 1.76643, 1.74949, 1.71683, 1.75071, 1.74737, 1.64198, 1.61575, 1.58132, 1.68801, 1.62284, 1.61287, 1.56214, 1.52712, 1.46709, 1.45073, 1.46041, 1.41044, 1.47002, 1.45092, 1.37782, 1.32143, 1.2758, 1.28108, 1.25315, 1.22965, 1.22079, 1.22135, 1.1749, 1.12303, 1.08651, 1.07057, 1.05954, 1.05683, 1.08005, 1.09406, 1.07168, 1.14607, 1.08719, 1.17183, 1.21611, 1.12591, 1.35958, 1.29877, 1.15644, 1.25765, 1.16411, 1.16709, 1.21995, 1.32849, 1.35915, 1.16762, 1.20082, 1.17154, 1.17552, 1.17567, 1.18146, 1.1793, 1.17519, 1.21477, 1.19986, 1.2143, 1.22591, 1.23647, 1.52618, 1.26537, 1.28424, 1.28231, 1.3725, 1.23451, 1.2339, 1.23331, 1.22931, 1.22305
1.14245, 1.23395, 1.13905, 1.1407, 1.14485, 1.09317, 1.02902, 1.04274, 1.0435, 0.915379, 0.915317, 1.02622, 1.02287, 0.864385, 0.864065, 1.09139, 1.09493, 1.07661, 1.06357, 1.01962, 1.03931, 1.23645, 0.968113, 1.02819, 1.04565, 1.00148, 1.00581, 0.863908, 0.865017, 0.943422, 0.916189, 0.862615, 0.954381, 0.8606, 0.890558, 0.91366, 0.918905, 0.946125, 0.965239, 1.03342, 1.1492, 1.21688, 1.21003, 1.2935, 1.33249, 1.33582, 1.33659, 1.33647, 1.40294, 1.35286, 1.35572, 1.37791, 1.39287, 1.40652, 1.41665, 1.43768, 1.48123, 1.48501, 1.48619, 1.47921, 1.60409, 1.54887, 1.54765, 1.55419, 1.55888, 1.56777, 1.60552, 1.60098, 1.60538, 1.61267, 1.67296, 1.69544, 1.76891, 1.72293, 1.72241, 1.69647, 1.68199, 1.72127, 1.79593, 1.74204, 1.81578, 1.82576, 1.74528, 1.6427, 1.63836, 1.64152, 1.64479, 1.63839, 1.59237, 1.56188, 1.56743, 1.48197, 1.46086, 1.40528, 1.45413, 1.38526, 1.35268, 1.34319, 1.2808, 1.28559, 1.2781, 1.25444, 1.25046, 1.23622, 1.23964, 1.15393, 1.12183, 1.07969, 1.08003, 1.04843, 1.05207, 1.06095, 1.07683, 1.06672, 1.08811, 1.08737, 1.18012, 1.18572, 1.11672, 1.11616, 1.44784, 1.17758, 1.16146, 1.15436, 1.1556, 1.15982, 1.31703, 1.19136, 1.19342, 1.21571, 1.17539, 1.17458, 1.22057, 1.18484, 1.22378, 1.22045, 1.21038, 1.21931, 1.22598, 1.229, 1.30603, 1.28638, 1.27133, 1.27805, 1.41504, 1.23828, 1.22852, 1.23567, 1.22718, 1.22295
1.13933, 1.29673, 1.07686, 1.07771, 1.04076, 1.10214, 1.12025, 0.920306, 0.91745, 0.915988, 0.905743, 0.904294, 1.02723, 1.02969, 0.8508, 0.847387, 1.05644, 0.849079, 1.05428, 1.00852, 1.19819, 1.04002, 1.006, 0.934697, 0.934572, 1.01149, 1.00469, 0.864322, 1.15832, 0.862706, 0.861087, 0.95411, 0.891171, 0.822648, 0.92269, 0.895026, 0.929006, 0.989124, 1.02175, 1.07348, 1.14332, 1.15079, 1.20686, 1.45017, 1.32495, 1.36497, 1.34625, 1.38132, 1.38044, 1.37131, 1.52521, 1.45589, 1.47906, 1.45758, 1.43351, 1.53549, 1.48603, 1.49696, 1.58229, 1.56031, 1.56832, 1.56897, 1.55927, 1.55911, 1.5898, 1.65585, 1.60377, 1.67572, 1.65539, 1.63833, 1.6689, 1.71657, 1.72659, 1.7235, 1.72316, 1.72378, 1.7248, 1.70615, 0.00436871, 1.84028, 1.96654, 1.83282, 1.83295, 1.74527, 1.6203, 1.62269, 1.62316, 1.62648, 1.55845, 1.58056, 1.52998, 1.51408, 1.48534, 1.47224, 1.40559, 1.37878, 1.36065, 1.36131, 1.34105, 1.30895, 1.34521, 1.34423, 1.33304, 1.30761, 1.26152, 1.22542, 1.11845, 1.08069, 1.06152, 1.06812, 1.04989, 1.05635, 1.07228, 1.07416, 1.06787, 1.08181, 1.19158, 1.24764, 1.20168, 1.11325, 1.1254, 1.12539, 1.13062, 1.16173, 1.17941, 1.17478, 1.37982, 1.31657, 1.20155, 1.1912, 1.21449, 1.16923, 1.17069, 1.1885, 1.1889, 1.21778, 1.22103, 1.21951, 1.26183, 1.23061, 1.29761, 1.26859, 1.2817, 1.33814, 1.55494, 1.39517, 1.23165, 1.22867, 1.22847, 1.33298
1.32291, 1.05721, 1.06023, 1.06554, 1.06643, 1.02525, 1.0281, 0.919639, 0.916945, 0.916228, 1.04294, 0.906449, 1.06004, 1.06198, 1.0471, 0.849922, 0.844002, 0.844026, 0.84689, 0.98059, 1.03284, 1.1269, 1.03882, 1.02789, 0.987617, 0.97427, 1.0304, 0.858065, 0.856542, 0.857012, 0.994013, 0.958961, 0.849391, 0.822324, 0.915222, 0.895601, 1.02254, 1.0344, 1.05489, 1.10801, 1.14583, 1.17072, 1.23355, 1.27902, 1.31967, 1.34691, 1.35016, 1.36514, 1.37812, 1.41239, 1.44882, 1.46073, 1.45484, 1.45785, 1.55573, 1.50291, 1.57908, 1.64863, 1.59996, 1.5972, 1.64375, 1.63024, 1.60302, 1.5777, 1.5775, 1.63922, 1.65845, 1.63599, 1.64054, 1.65461, 1.65315, 1.66299, 1.71822, 1.70274, 1.70301, 1.79045, 1.70685, 1.69802, 1.69937, 1.75587, 1.89847, 1.83323, 1.83288, 1.69601, 1.61422, 1.61347, 1.61926, 1.61393, 1.54841, 1.54545, 1.52051, 1.53731, 1.49263, 1.42312, 1.38509, 1.3842, 1.43591, 1.48082, 1.38655, 1.38302, 1.3638, 1.34131, 1.27405, 1.2341, 1.17771, 1.19913, 1.13285, 1.07248, 1.06815, 1.10906, 1.05241, 1.06671, 1.06677, 1.06506, 1.06134, 1.06179, 1.08088, 1.22603, 1.22668, 1.11058, 1.12478, 1.11313, 1.15834, 1.18137, 1.14584, 1.14528, 1.6259, 1.37903, 1.19936, 1.21248, 1.21906, 1.23236, 1.22724, 1.22009, 1.1752, 1.23348, 1.23294, 1.2335, 1.2457, 1.25193, 1.31987, 1.31936, 1.28425, 1.29983, 1.31071, 1.36727, 1.22759, 1.22641, 1.22861, 1.3339
1.14848, 1.14705, 1.09472, 1.10331, 1.10582, 1.07874, 0.921688, 0.921251, 0.916784, 0.921716, 0.922672, 0.91337, 0.903044, 1.0237, 1.05675, 0.876905, 0.845493, 0.83472, 0.83078, 1.04741, 0.835988, 1.13048, 1.01197, 0.82301, 0.912729, 0.892637, 0.892263, 0.859414, 0.854282, 0.952925, 1.09842, 0.830807, 0.847658, 0.830193, 0.822042, 0.895546, 0.968338, 1.03231, 1.08485, 1.15403, 1.16198, 1.19867, 1.31863, 1.26058, 1.28195, 1.30972, 1.3157, 1.34703, 1.34522, 1.37049, 1.42642, 1.50106, 1.44727, 1.48513, 1.49348, 1.49305, 1.50691, 1.64885, 1.60302, 1.60077, 1.5967, 1.60394, 1.60942, 1.58444, 1.58207, 1.61045, 1.62635, 1.63081, 1.655, 1.66397, 1.69321, 1.66592, 1.7098, 1.70487, 1.70405, 1.79206, 1.71613, 1.69834, 1.69639, 1.77799, 1.75895, 1.83764, 1.82789, 1.78183, 1.61739, 1.61805, 1.69211, 1.56793, 1.56512, 1.54806, 1.51593, 1.55561, 1.48128, 1.42942, 1.43915, 1.43616, 1.43649, 1.43315, 1.36548, 1.39109, 1.30267, 1.29945, 1.20664, 1.18793, 1.15947, 1.14702, 1.12333, 1.12283, 1.06424, 1.04368, 1.05455, 1.05042, 1.06772, 1.05971, 1.0562, 1.06315, 1.07693, 1.07473, 1.11654, 1.10864, 1.1224, 1.13607, 1.13657, 1.23354, 1.13156, 1.17684, 1.18769, 1.24755, 1.22159, 1.21326, 1.22517, 1.2238, 1.22713, 1.21541, 1.16688, 1.16524, 1.17515, 1.17901, 1.18085, 1.18512, 1.19104, 1.28614, 1.28925, 1.2983, 1.24022, 1.31566, 1.2258, 1.22315, 1.22405, 1.41551
1.11891, 1.11991, 1.09487, 1.09169, 1.10936, 0.969956, 0.915164, 0.916751, 0.919966, 0.921248, 1.06098, 1.06009, 1.01624, 0.957321, 0.961583, 0.964724, 1.01257, 0.829527, 0.830258, 0.833964, 0.835126, 0.824517, 1.06357, 0.814442, 0.81807, 1.03265, 1.02298, 0.841802, 0.842149, 0.836538, 0.833303, 0.829579, 0.850838, 0.850606, 0.853866, 0.919094, 0.975422, 1.03511, 1.0613, 1.11613, 1.24972, 1.30254, 1.3203, 1.29593, 1.28861, 1.28499, 1.29435, 1.29902, 1.31291, 1.33637, 1.3748, 1.41586, 1.44008, 1.46116, 1.52617, 1.49683, 1.49678, 1.52073, 1.60661, 1.64203, 1.65716, 1.62776, 1.62233, 1.63758, 1.60263, 1.61005, 1.60903, 1.63722, 1.70683, 1.68882, 1.68606, 1.68647, 1.68178, 1.70035, 1.80743, 1.72364, 1.70294, 1.6894, 1.68961, 1.68676, 1.76832, 1.70802, 1.73855, 1.67428, 1.63719, 1.63409, 1.58712, 1.59491, 1.53691, 1.558, 1.53896, 1.52821, 1.48839, 1.44751, 1.40977, 1.39894, 1.43384, 1.38149, 1.32685, 1.28854, 1.25151, 1.22531, 1.19759, 1.17005, 1.13292, 1.12454, 1.10348, 1.07967, 1.04949, 1.0524, 1.02575, 1.04574, 1.04534, 1.04718, 1.05283, 1.05599, 1.06813, 1.08119, 1.08369, 1.08476, 1.1095, 1.11854, 1.12834, 1.12733, 1.15976, 1.18412, 1.18625, 1.12583, 1.13352, 1.21329, 1.22424, 1.23298, 1.2298, 1.19263, 1.15487, 1.16932, 1.17218, 1.17998, 1.18444, 1.18865, 1.19824, 1.19825, 1.21124, 1.29836, 1.3087, 1.329, 1.22334, 1.22955, 1.22372, 1.2428
0.949349, 0.949625, 1.14779, 1.08281, 0.93538, 0.933543, 0.932855, 0.914186, 1.31439, 0.941127, 1.33023, 0.935876, 0.92191, 0.922652, 0.945985, 1.14894, 1.73246, 0.946218, 0.832043, 0.832088, 0.830243, 1.04006, 0.807607, 0.8153, 0.815127, 0.815356, 0.910922, 0.923748, 0.827, 0.826104, 0.825389, 0.825122, 0.895243, 0.890209, 0.807643, 0.902109, 0.921757, 0.971034, 1.05812, 1.14015, 1.25065, 1.30199, 1.27757, 1.29979, 1.28493, 1.29572, 1.29535, 1.2991, 1.29368, 1.33457, 1.35431, 1.37063, 1.4265, 1.46644, 1.48216, 1.50566, 1.49825, 1.49268, 1.59967, 1.62517, 1.61336, 1.65525, 1.69957, 1.65648, 1.68743, 1.61855, 1.60867, 1.65274, 1.70351, 1.69616, 1.69145, 1.69073, 1.69266, 1.70911, 1.7059, 1.81847, 1.70394, 1.70338, 1.69106, 1.68641, 1.74178, 1.74078, 1.84839, 1.72703, 1.66906, 1.63748, 1.63194, 1.58643, 1.5766, 1.54725, 1.46367, 1.4586, 1.44684, 1.41686, 1.41773, 1.38967, 1.38813, 1.3738, 1.37526, 1.23036, 1.21704, 1.2158, 1.18103, 1.1678, 1.1469, 1.14483, 1.0996, 1.12186, 1.08508, 1.02168, 1.00844, 1.01929, 1.07102, 1.04971, 1.04284, 1.17916, 1.05543, 1.08282, 1.08414, 1.0785, 1.08485, 1.16026, 1.10151, 1.10296, 1.10811, 1.10908, 1.19675, 1.12496, 1.12429, 1.2194, 1.2232, 1.22989, 1.22449, 1.2188, 1.23363, 1.1614, 1.17081, 1.17383, 1.17779, 1.24169, 1.19502, 1.19767, 1.21506, 1.29662, 1.23041, 1.23184, 1.22337, 1.23071, 1.23353, 1.41609
1.05327, 1.21563, 0.937712, 0.935215, 0.935561, 0.933027, 0.93284, 0.925953, 0.938113, 1.31518, 0.933483, 0.933389, 0.925693, 0.923634, 0.930419, 0.94591, 0.956056, 0.964318, 0.982781, 1.02239, 0.827101, 0.82829, 0.816255, 0.81707, 0.816831, 0.815047, 0.839108, 0.83839, 0.816228, 1.0702, 0.822324, 0.823518, 0.822766, 0.904705, 0.805893, 0.919084, 0.963449, 1.00377, 1.11746, 1.22329, 1.20343, 1.26182, 1.29099, 1.31843, 1.31283, 1.3191, 1.36327, 1.31733, 1.31945, 1.3163, 1.35123, 1.41289, 1.46434, 1.46423, 1.51474, 1.53845, 1.56289, 1.51262, 1.55009, 1.61074, 1.60992, 1.62116, 1.65096, 1.65151, 1.62973, 1.62481, 1.62666, 1.65319, 1.70398, 1.77575, 1.6964, 1.68842, 1.69959, 1.69079, 1.70191, 1.7062, 1.70582, 1.70328, 1.70207, 1.73656, 1.8048, 1.7411, 1.74017, 1.73974, 1.6955, 1.69506, 1.70794, 1.70475, 1.66883, 1.51266, 1.46999, 1.43363, 1.50601, 1.4373, 1.40675, 1.39721, 1.37632, 1.33046, 1.31183, 1.34193, 1.22366, 1.2267, 1.18357, 1.19126, 1.17449, 1.1373, 1.10785, 1.1327, 1.06667, 1.04343, 1.03652, 1.05466, 1.01492, 1.12602, 1.03541, 1.04135, 1.04436, 1.07048, 1.08501, 1.09306, 1.06843, 1.13348, 1.19251, 1.15149, 1.14375, 1.1047, 1.10658, 1.11598, 1.11954, 1.20752, 1.22247, 1.2181, 1.22092, 1.2413, 1.2398, 1.15282, 1.15717, 1.16718, 1.16724, 1.24365, 1.24094, 1.24697, 1.25042, 1.28991, 1.28044, 1.22707, 1.22565, 1.34096, 1.3374, 1.31758
0.929198, 0.940056, 0.935284, 0.935463, 0.9359, 0.934366, 0.933246, 0.931196, 0.934126, 0.942648, 0.946624, 0.947159, 0.927714, 0.926996, 0.933603, 0.932711, 0.946684, 0.948603, 0.960238, 0.998982, 1.0151, 1.17969, 1.01802, 0.818039, 0.822203, 0.821711, 0.838198, 0.839578, 1.01539, 0.798793, 0.799747, 0.767551, 0.918935, 0.82243, 0.868066, 0.937505, 0.946431, 1.09606, 1.11178, 1.19172, 1.24049, 1.27864, 1.27814, 1.37007, 1.35507, 1.38818, 1.35877, 1.38991, 1.37058, 1.34103, 1.38411, 1.4759, 1.50297, 1.48928, 1.51295, 1.51541, 1.51487, 1.55253, 1.59373, 1.60319, 1.66394, 1.66259, 1.64063, 1.64048, 1.72742, 1.64831, 1.656, 1.65424, 1.72762, 1.67502, 1.66794, 1.69232, 1.68566, 1.68887, 1.70245, 1.70096, 1.70017, 1.69891, 0.00458192, 1.78278, 1.92372, 1.95624, 0.00465224, 1.68744, 1.69018, 1.69699, 1.69568, 1.7087, 1.58818, 1.58207, 1.45278, 1.42496, 1.43556, 1.44308, 1.43733, 1.43335, 1.36262, 1.30947, 1.30889, 1.32537, 1.27342, 1.28476, 1.21917, 1.19867, 1.18869, 1.18151, 1.13079, 1.13292, 1.0652, 1.07044, 1.03645, 1.03899, 1.00358, 1.04426, 1.04221, 1.08383, 1.20339, 1.1247, 1.28163, 1.07132, 1.05643, 1.10875, 1.07066, 1.24309, 1.30207, 1.0956, 1.10072, 1.19043, 1.2012, 1.20741, 1.2155, 1.2398, 1.16218, 1.24801, 1.21579, 1.14736, 1.15254, 1.23935, 1.23654, 1.15767, 1.16303, 1.25667, 1.27481, 1.27606, 1.27871, 1.31622, 1.22035, 1.21243, 1.3232, 1.35456
0.926553, 0.925572, 1.03011, 0.936045, 0.935485, 0.932737, 0.931775, 0.931726, 1.12305, 0.945578, 0.944484, 0.935436, 0.935189, 0.93188, 0.931711, 1.19208, 0.967605, 0.91809, 0.917814, 0.980766, 1.15259, 1.00276, 1.05196, 0.836925, 0.82503, 0.8233, 0.832077, 0.834472, 1.02287, 0.72136, 0.72179, 0.748346, 0.811831, 0.842323, 0.871133, 0.915338, 0.88873, 1.10906, 1.17438, 1.20877, 1.22888, 1.25539, 1.2815, 1.35106, 1.37417, 1.40954, 1.3828, 1.43759, 1.42436, 1.42392, 1.38915, 1.52288, 1.55488, 1.56285, 1.50989, 1.5056, 1.50536, 1.53044, 1.5787, 1.58622, 1.6025, 1.64428, 1.60988, 1.68969, 1.62782, 1.62711, 1.61733, 1.65278, 1.78495, 1.67149, 1.67, 1.76415, 1.75965, 1.69007, 1.6936, 1.73194, 1.72388, 1.71392, 1.82378, 1.84207, 1.73763, 1.75391, 1.75239, 1.68889, 1.69373, 1.69781, 1.75761, 1.61485, 1.55874, 1.49522, 1.49535, 1.47475, 1.42555, 1.46499, 1.42795, 1.4632, 1.3571, 1.33932, 1.31129, 1.3047, 1.29042, 1.31872, 1.24657, 1.24615, 1.18392, 1.1751, 1.18457, 1.08783, 1.07094, 1.06922, 1.07068, 1.02655, 1.00782, 1.09159, 1.0238, 1.10292, 0.993942, 1.11845, 1.28121, 1.12988, 1.05097, 1.0599, 1.14982, 1.23606, 1.26892, 1.08827, 1.08912, 1.18667, 1.40855, 1.13585, 1.23192, 1.15321, 1.23368, 1.23336, 1.15176, 1.15008, 1.14893, 1.14833, 1.14992, 1.15418, 1.15746, 1.25528, 1.27925, 1.17432, 1.28661, 1.29522, 1.20838, 1.33971, 1.30979, 1.35454
0.923901, 0.924871, 1.16476, 0.937215, 0.936754, 0.935505, 0.936665, 0.9381, 0.938807, 1.10891, 1.11968, 0.934394, 0.932955, 0.932638, 0.915125, 0.915905, 0.916962, 0.918947, 1.13647, 1.14491, 1.14628, 0.974232, 1.05759, 0.837314, 0.837734, 0.820308, 0.822076, 0.833284, 0.832107, 0.725994, 0.713518, 0.713654, 0.777321, 0.900596, 0.894946, 0.897698, 0.944099, 1.0078, 1.1907, 1.19181, 1.23525, 1.27774, 1.27925, 1.35476, 1.36101, 1.39857, 1.41339, 1.49552, 1.47131, 1.42686, 1.41393, 1.49559, 1.50819, 1.50838, 1.52416, 1.52002, 1.49593, 1.54168, 1.59814, 1.56918, 1.56216, 1.56257, 1.71259, 1.67172, 1.68687, 1.68129, 1.67463, 1.69241, 1.69984, 1.75135, 1.65724, 1.66037, 1.71715, 1.70691, 1.75053, 1.73403, 1.78596, 1.78311, 1.71946, 1.69616, 1.72052, 1.67551, 1.73289, 1.74497, 1.70017, 1.69961, 1.62521, 1.6215, 1.5714, 1.56878, 1.55357, 1.49193, 1.4791, 1.4677, 1.42631, 1.46127, 1.35625, 1.33087, 1.32601, 1.31089, 1.29487, 1.22801, 1.20933, 1.20483, 1.17791, 1.12651, 1.09295, 1.0811, 1.04729, 1.05998, 1.00729, 0.999147, 0.9935, 1.00995, 1.14676, 0.981459, 0.98242, 0.987954, 1.11228, 1.10802, 1.04813, 1.05285, 1.06305, 1.06487, 1.14996, 1.08613, 1.08471, 1.0953, 1.19027, 1.20285, 1.18072, 1.34677, 1.23536, 1.22818, 1.21304, 1.14975, 1.14598, 1.1463, 1.14905, 1.15056, 1.14998, 1.15605, 1.16086, 1.16875, 1.29735, 1.29062, 1.23693, 1.19108, 1.37398, 1.32587
0.931803, 0.926324, 0.932613, 0.933531, 0.937061, 0.936071, 1.09138, 0.930885, 0.931688, 0.930247, 0.931617, 0.934246, 0.935177, 0.935647, 0.924793, 0.915718, 0.915121, 1.20122, 1.23007, 0.964281, 1.28331, 0.980097, 1.03916, 1.06293, 0.843174, 0.847223, 0.835472, 0.83533, 0.833919, 0.71932, 0.7423, 0.777836, 0.769987, 0.895635, 0.877404, 0.952675, 0.981465, 0.976985, 1.21862, 1.21578, 1.24744, 1.29922, 1.29974, 1.35696, 1.41083, 1.35372, 1.38902, 1.43365, 1.4917, 1.43975, 1.43439, 1.53723, 1.52396, 1.59168, 1.51287, 1.5705, 1.47965, 1.53534, 1.6008, 1.5731, 1.59242, 1.59173, 1.68896, 1.71726, 1.65799, 1.65945, 1.63064, 1.67853, 1.67575, 1.66777, 1.66902, 1.67541, 1.65391, 1.65406, 1.65661, 1.74066, 1.72757, 1.76579, 1.72406, 1.69246, 1.68004, 1.6666, 1.67569, 1.71282, 1.71229, 1.65472, 1.66801, 1.63703, 1.61016, 1.53584, 1.49675, 1.48979, 1.44663, 1.44017, 1.47162, 1.43725, 1.41213, 1.39133, 1.33501, 1.31635, 1.2659, 1.28496, 1.2163, 1.19672, 1.1816, 1.15146, 1.11542, 1.09369, 1.04921, 1.07424, 0.994895, 0.990414, 1.01172, 1.01237, 0.984765, 0.984139, 0.985075, 0.996496, 1.00467, 1.0431, 1.07724, 1.05166, 1.13547, 1.15695, 1.14954, 1.07966, 1.08116, 1.21961, 1.21676, 1.3609, 1.21182, 1.23043, 1.24777, 1.23062, 1.47095, 1.15037, 1.14587, 1.15259, 1.15317, 1.15127, 1.14761, 1.15672, 1.16088, 1.16268, 1.16644, 1.18241, 1.18501, 1.1846, 1.36696, 1.36375
0.930242, 0.93179, 1.13654, 1.06363, 0.924209, 0.925802, 0.925332, 0.922063, 0.927697, 0.927935, 0.928287, 0.92998, 0.930025, 1.1186, 1.29184, 1.18625, 1.03116, 1.06657, 0.945245, 0.944761, 0.939986, 0.954175, 1.02328, 1.02608, 0.978034, 0.978333, 0.836325, 0.835572, 0.72947, 0.729112, 0.725066, 0.784866, 0.777526, 0.785335, 0.882721, 0.932647, 0.986653, 1.00917, 1.15084, 1.19538, 1.23481, 1.24645, 1.29204, 1.36145, 1.34647, 1.34397, 1.34386, 1.37472, 1.38106, 1.39817, 1.45338, 1.46114, 1.46552, 1.46037, 1.48491, 1.48132, 1.506, 1.54186, 1.65511, 1.59525, 1.59064, 1.57251, 1.71249, 1.71445, 1.66129, 1.64344, 1.64429, 1.66178, 1.67546, 1.6744, 1.67527, 1.67454, 1.68253, 1.70095, 1.69289, 1.70952, 1.72306, 1.72122, 1.66996, 1.68334, 1.65367, 1.65301, 1.69666, 1.70688, 1.90635, 1.83063, 1.8301, 1.63047, 1.64918, 1.57596, 1.51304, 1.49298, 1.50056, 1.43325, 1.41328, 1.42233, 1.42767, 1.39167, 1.31712, 1.30537, 1.21388, 1.21593, 1.2138, 1.19429, 1.15056, 1.13501, 1.08451, 1.07834, 1.04958, 1.02094, 1.00733, 1.01858, 0.99176, 1.0191, 1.0967, 0.990898, 0.987947, 1.00408, 1.00488, 1.02841, 1.02901, 1.10445, 1.05791, 1.15266, 1.12552, 1.08155, 1.08283, 1.09197, 1.17353, 1.16453, 1.18508, 1.24109, 1.23629, 1.20384, 1.13778, 1.14336, 1.14433, 1.2246, 1.21969, 1.22231, 1.15651, 1.16171, 1.16375, 1.16317, 1.16434, 1.1803, 1.18028, 1.18563, 1.184, 1.3539
0.939518, 0.914483, 0.915305, 0.914747, 0.919837, 0.921857, 1.14638, 0.925578, 0.92552, 0.928558, 0.927229, 0.929688, 0.95447, 0.942316, 0.939189, 0.938941, 0.937936, 0.94278, 0.943885, 0.944325, 0.938589, 0.938689, 0.936657, 1.27172, 1.07992, 0.975959, 0.973633, 0.83915, 0.835788, 0.740334, 0.721688, 0.721545, 0.896472, 0.777771, 0.801559, 0.980093, 0.984274, 1.0914, 1.12923, 1.22412, 1.24976, 1.26508, 1.29514, 1.32397, 1.32285, 1.32187, 1.33138, 1.33157, 1.38018, 1.38541, 1.39956, 1.42572, 1.46009, 1.47117, 1.50415, 1.52226, 1.52309, 1.52161, 1.52994, 1.52931, 1.60566, 1.71146, 1.72103, 1.70752, 1.69988, 1.68701, 1.64883, 1.66594, 1.67844, 1.65932, 1.66349, 1.66741, 1.67955, 1.67997, 1.71629, 1.70737, 1.69009, 1.73871, 1.73863, 1.69714, 1.69473, 1.64599, 1.67201, 1.7001, 1.9331, 1.83217, 1.83141, 1.65516, 1.62697, 1.59878, 1.52338, 1.4915, 1.49899, 1.43106, 1.41045, 1.4102, 1.36667, 1.3982, 1.34806, 1.28551, 1.22721, 1.2099, 1.2042, 1.16321, 1.16193, 1.11671, 1.08816, 1.09087, 1.05166, 1.03929, 0.994387, 0.995235, 1.01461, 1.01677, 1.02078, 1.00825, 0.997175, 1.25704, 1.01723, 1.01819, 1.22735, 1.07037, 1.49935, 1.0921, 1.12346, 1.08192, 1.08447, 1.16659, 1.09903, 1.10559, 1.11062, 1.19851, 1.24487, 1.24958, 1.13545, 1.13712, 1.14062, 1.14097, 1.14168, 1.14493, 1.14996, 1.21771, 1.16156, 1.16614, 1.16965, 1.17982, 1.1856, 1.18491, 1.18395, 1.36067
0.903246, 0.904856, 0.903695, 0.90765, 0.915176, 0.913587, 0.914925, 0.927276, 0.927969, 0.92912, 0.930589, 0.93638, 0.940159, 0.941474, 0.940586, 0.938502, 0.937697, 0.940883, 0.942027, 0.936799, 0.937, 0.939442, 0.937699, 0.946688, 1.13282, 0.951983, 0.962621, 0.997636, 0.840181, 0.738397, 0.73946, 0.906168, 0.792719, 0.794896, 0.90472, 0.9559, 0.979179, 1.09352, 1.18635, 1.1839, 1.22079, 1.22977, 1.26077, 1.31446, 1.35481, 1.34721, 1.34376, 1.35384, 1.36066, 1.40323, 1.42103, 1.46479, 1.44699, 1.48864, 1.50739, 1.50343, 1.50942, 1.51384, 1.52241, 1.52692, 1.55996, 1.74498, 1.65985, 1.69952, 1.66793, 1.64369, 1.64241, 1.63889, 1.6855, 1.66249, 1.6906, 1.71885, 1.67966, 1.66275, 1.66996, 1.67619, 1.68191, 1.76596, 1.67811, 1.74537, 1.69201, 1.76248, 1.71785, 1.81626, 0.00399143, 1.91478, 1.88531, 1.86587, 1.62154, 1.59269, 1.59818, 1.50765, 1.51542, 1.48173, 1.44312, 1.3573, 1.34136, 1.36039, 1.26208, 1.25702, 1.20821, 1.20473, 1.20195, 1.20492, 1.20617, 1.14109, 1.11162, 1.04815, 1.02482, 1.02877, 0.996077, 0.980638, 0.989104, 0.997591, 1.02161, 0.99082, 1.04278, 1.03614, 1.0268, 1.01132, 1.1042, 1.04043, 1.08991, 1.05773, 1.24637, 1.12246, 1.38607, 1.15013, 1.09298, 1.1679, 1.19758, 1.20205, 1.52277, 1.24786, 1.1247, 1.12874, 1.13605, 1.13614, 1.13792, 1.14167, 1.1459, 1.14817, 1.15523, 1.1545, 1.22433, 1.16395, 1.29175, 1.18762, 1.18983, 1.26553
0.859617, 0.906782, 0.905507, 0.902435, 1.30283, 0.923272, 0.924182, 0.927991, 0.929069, 0.931851, 0.936309, 0.93578, 0.934998, 0.936268, 0.935455, 0.935056, 0.937114, 0.946187, 0.942679, 0.941342, 0.939533, 0.942161, 0.942055, 0.930926, 0.924192, 1.00915, 0.960363, 1.06272, 0.841927, 0.842711, 0.832348, 0.913581, 0.812446, 0.893017, 1.02911, 0.96152, 1.01885, 1.08631, 1.20924, 1.22203, 1.32659, 1.22727, 1.26049, 1.33167, 1.33709, 1.37807, 1.34712, 1.33991, 1.35687, 1.38084, 1.43017, 1.51664, 1.56758, 1.55833, 1.50597, 1.5067, 1.61641, 1.56193, 1.53355, 1.52999, 1.64411, 1.69484, 1.68118, 1.67339, 1.6963, 1.69396, 1.66046, 1.71027, 1.63756, 1.63762, 1.61103, 1.65489, 1.66602, 1.68577, 1.68751, 1.67698, 1.6795, 1.67658, 1.6995, 1.74167, 1.69249, 1.75784, 1.70121, 1.70438, 1.81131, 1.81042, 1.89317, 1.62438, 1.59304, 1.57965, 1.55441, 1.54384, 1.5653, 1.4537, 1.41295, 1.38083, 1.29481, 1.30235, 1.24741, 1.25197, 1.26819, 1.24354, 1.19525, 1.19278, 1.26556, 1.14532, 1.04791, 1.07387, 1.04866, 1.07124, 0.999487, 1.03729, 0.9957, 0.992132, 0.993489, 1.11583, 1.04191, 1.02336, 1.02537, 1.03409, 1.05371, 1.03243, 1.03901, 1.05765, 1.09454, 1.06944, 1.11949, 1.14028, 1.09167, 1.09561, 1.09842, 1.19232, 1.1072, 1.20929, 1.11631, 1.12174, 1.12468, 1.12701, 1.12946, 1.13134, 1.14278, 1.14422, 1.14754, 1.15011, 1.14615, 1.15179, 1.28558, 1.28831, 1.18983, 1.30851
0.857445, 0.881452, 0.897173, 0.929753, 0.928758, 0.923879, 0.924833, 0.931474, 0.931964, 0.942288, 0.939923, 0.935448, 0.93492, 0.933274, 0.935229, 0.934934, 0.93286, 0.934301, 0.935928, 0.938031, 1.22246, 0.937176, 0.939076, 1.1235, 1.06507, 1.06754, 0.963381, 0.920836, 0.981455, 0.851333, 0.97842, 1.05372, 0.898951, 0.939037, 0.931924, 1.00351, 1.03295, 1.13311, 1.19501, 1.19416, 1.22361, 1.25097, 1.23184, 1.26429, 1.39173, 1.33274, 1.39518, 1.36015, 1.35113, 1.49468, 1.49512, 1.46625, 1.50683, 1.50898, 1.51661, 1.5059, 1.5577, 1.55489, 1.57809, 1.54165, 1.63071, 1.6203, 1.68942, 1.69238, 1.62408, 1.63494, 1.66804, 1.77097, 1.66751, 1.66315, 1.61272, 1.6399, 1.69248, 1.64597, 1.64335, 1.70185, 1.73494, 1.66227, 1.70486, 1.86604, 1.72357, 1.71119, 1.70619, 1.70904, 1.74707, 0.00419898, 1.76906, 1.61452, 1.56132, 1.56677, 1.55127, 1.53519, 1.58404, 1.51866, 1.43764, 1.35875, 1.31675, 1.25237, 1.24668, 1.26009, 1.24627, 1.18794, 1.1877, 1.16735, 1.15375, 1.09897, 1.01517, 1.01592, 1.01837, 0.989392, 1.03415, 1.00925, 1.00717, 0.995533, 1.14186, 1.00188, 1.00155, 1.00171, 1.02445, 1.03204, 1.03232, 1.40628, 1.40667, 1.049, 1.08956, 1.06355, 1.068, 1.07337, 1.08292, 1.08586, 1.17886, 1.09321, 1.09491, 1.09682, 1.202, 1.11974, 1.12556, 1.12632, 1.12991, 1.12904, 1.13071, 1.13406, 1.14441, 1.13752, 1.14057, 1.14989, 1.22346, 1.29171, 1.29269, 1.26582
0.849764, 0.848467, 0.919267, 1.18839, 1.08086, 0.936828, 0.935861, 0.935158, 0.935308, 0.939833, 0.939147, 0.939394, 0.935976, 0.933363, 0.933373, 0.946388, 0.928438, 0.928369, 0.928443, 0.932675, 0.93148, 0.92752, 0.928572, 1.24091, 1.11246, 1.01993, 0.968949, 0.870752, 0.867014, 0.862435, 0.861922, 0.888428, 0.873764, 0.943202, 0.940214, 1.02113, 1.06387, 1.12249, 1.16296, 1.17355, 1.21112, 1.2223, 1.22592, 1.23995, 1.30884, 1.32681, 1.3645, 1.36267, 1.41182, 1.49378, 1.47504, 1.48123, 1.52063, 1.67174, 1.47471, 1.53397, 1.60652, 1.58734, 1.63712, 1.63102, 1.62053, 1.62329, 1.65099, 1.61225, 1.61165, 1.67465, 1.6749, 1.75166, 1.80548, 1.77448, 1.63886, 1.65066, 1.64857, 1.68219, 1.67273, 1.64138, 1.63249, 1.64106, 1.60885, 1.65176, 1.64689, 1.70713, 1.71671, 1.64854, 1.63976, 1.64806, 1.68594, 1.61298, 1.58951, 1.5361, 1.5261, 1.4921, 1.50281, 1.50222, 1.43203, 1.34847, 1.32644, 1.28866, 1.2432, 1.24089, 1.25164, 1.18557, 1.18507, 1.13912, 1.07902, 1.05781, 1.02222, 1.02681, 1.01752, 0.968934, 0.977257, 0.988336, 1.01282, 0.996009, 1.00111, 0.992019, 0.992111, 0.992667, 1.1497, 1.02792, 1.03598, 1.04221, 1.04723, 1.04997, 1.05318, 1.09491, 1.06511, 1.12309, 1.0762, 1.08081, 1.08336, 1.08271, 1.09098, 1.0844, 1.20282, 1.12123, 1.12134, 1.13108, 1.13331, 1.13177, 1.13362, 1.13575, 1.13247, 1.13605, 1.13429, 1.22541, 1.15665, 1.15836, 1.25327, 1.29116
0.919612, 0.954172, 0.920124, 0.918862, 0.935771, 0.939533, 0.939268, 1.26529, 0.936528, 0.939963, 0.940924, 0.939927, 0.936283, 1.17864, 0.926291, 0.922088, 0.922616, 0.92511, 0.928415, 0.935429, 0.937594, 0.924967, 1.2937, 0.923639, 0.924644, 1.07691, 0.946889, 0.878224, 0.875075, 0.874083, 0.86348, 0.872975, 0.873295, 0.953905, 0.963575, 0.963205, 1.02992, 1.12003, 1.13545, 1.15176, 1.22983, 1.22705, 1.23103, 1.28544, 1.34241, 1.34829, 1.36769, 1.38496, 1.42898, 1.4918, 1.47056, 1.46024, 1.45738, 1.40548, 1.42327, 1.40544, 1.64306, 1.55863, 1.56558, 1.64485, 1.63864, 1.63868, 1.66814, 1.60937, 1.65284, 1.67655, 1.67121, 1.76962, 1.80221, 1.76855, 1.76729, 1.66363, 1.69118, 1.6854, 1.65698, 1.70589, 1.65955, 1.6143, 1.61308, 1.61042, 1.609, 1.63471, 1.61537, 1.61615, 1.62149, 1.62041, 1.61842, 1.61292, 1.61543, 1.53373, 1.54861, 1.51233, 1.57496, 1.4727, 1.48239, 1.45706, 1.33357, 1.30687, 1.2824, 1.23719, 1.2065, 1.20528, 1.14272, 1.12857, 1.08774, 1.02174, 1.00848, 0.98797, 0.966561, 0.967661, 0.967166, 1.00872, 1.01095, 1.00497, 0.980215, 0.984259, 0.991074, 1.00712, 1.00816, 1.0213, 1.02232, 1.04277, 1.04897, 1.05365, 1.05258, 1.05344, 1.0624, 1.06551, 1.06738, 1.16121, 1.16417, 1.08195, 1.08421, 1.23497, 1.10191, 1.11126, 1.12024, 1.12551, 1.12673, 1.12902, 1.13076, 1.13612, 1.13608, 1.13587, 1.13066, 1.13566, 1.14192, 1.2261, 1.15852, 1.15854
0.911027, 0.876927, 0.897606, 0.891134, 1.10243, 0.950274, 1.28261, 1.29816, 0.943079, 0.942218, 0.940995, 0.940543, 0.934568, 0.932387, 0.929153, 0.919216, 0.922749, 0.92317, 0.923572, 0.922119, 0.941986, 0.919073, 0.920201, 0.920487, 0.921898, 0.00441703, 1.00482, 0.878777, 0.884401, 0.886486, 0.886446, 0.973845, 0.884995, 0.897949, 1.04402, 0.998723, 1.03347, 1.07344, 1.1688, 1.17462, 1.22615, 1.24432, 1.24827, 1.26685, 1.32415, 1.41225, 1.39833, 1.40576, 1.42602, 1.39278, 1.40644, 1.39933, 1.38476, 1.39197, 1.38793, 1.43729, 1.54395, 1.54375, 1.55658, 1.57987, 1.62735, 1.5801, 1.65738, 1.66332, 1.71686, 1.68553, 1.67867, 1.84531, 1.78524, 1.78234, 1.66116, 1.65948, 1.7092, 1.66168, 1.67449, 1.67266, 1.62029, 1.64202, 1.64917, 1.67559, 1.61784, 1.63377, 1.621, 1.64149, 1.63169, 1.70656, 1.64185, 1.72137, 1.57234, 1.53945, 1.56274, 1.54497, 1.62277, 1.55731, 1.46084, 1.45558, 1.37567, 1.29606, 1.25306, 1.19957, 1.19521, 1.20702, 1.15607, 1.129, 1.12632, 1.0614, 1.01722, 0.980323, 0.975063, 0.976612, 0.985328, 0.995338, 0.994785, 1.00762, 1.00654, 0.98393, 0.983843, 1.00116, 1.00137, 1.006, 1.0246, 1.28027, 1.05949, 1.05333, 1.06063, 1.05196, 1.05388, 1.05873, 1.06015, 1.07078, 1.07301, 1.08185, 1.09267, 1.1011, 1.10365, 1.11012, 1.11921, 1.12199, 1.12158, 1.11952, 1.12799, 1.21961, 1.21994, 1.23388, 1.13509, 1.14059, 1.1422, 1.14575, 1.14427, 1.22269
0.869792, 0.88133, 0.882943, 1.05761, 0.991516, 1.09148, 1.06782, 1.11203, 1.08716, 0.963748, 0.959015, 0.940319, 1.01913, 0.928101, 0.927823, 0.925141, 0.925444, 0.931791, 0.931701, 0.9323, 0.942591, 0.918937, 0.917211, 0.913084, 0.915273, 0.91578, 0.959497, 0.871107, 0.870534, 0.947498, 0.885563, 0.897812, 0.989352, 0.98596, 1.02798, 1.02672, 1.07076, 1.10099, 1.29675, 1.24482, 1.23862, 1.238, 1.24301, 1.28254, 1.2819, 1.32659, 1.32951, 1.33051, 1.35175, 1.37893, 1.36401, 1.37107, 1.399, 1.39354, 1.38696, 1.41996, 1.58243, 1.55787, 1.56315, 1.56227, 1.65151, 1.60339, 1.61549, 1.66286, 1.68182, 1.66763, 1.74094, 1.73785, 1.78004, 1.78773, 1.6626, 1.6689, 1.67524, 1.66794, 1.67006, 1.74368, 1.6483, 1.75063, 1.68741, 1.638, 1.61652, 1.6135, 1.61693, 1.5974, 1.67914, 1.6868, 1.71766, 1.65691, 1.68189, 1.63898, 1.62897, 1.57288, 1.54852, 1.55475, 1.39788, 1.34276, 1.29868, 1.29567, 1.22903, 1.20127, 1.17673, 1.16695, 1.16851, 1.13612, 1.15057, 1.0608, 1.05413, 1.03229, 0.971471, 0.999845, 1.00471, 0.9975, 0.998903, 1.00538, 0.998362, 0.985112, 0.98814, 0.99464, 0.99992, 1.17103, 1.01485, 1.01268, 1.07155, 1.04678, 1.07307, 1.04937, 1.04968, 1.17328, 1.05981, 1.06397, 1.07787, 1.08022, 1.08976, 1.0955, 1.29863, 1.10895, 1.11236, 1.15253, 1.11955, 1.11887, 1.11867, 1.23977, 1.22214, 1.20107, 1.37984, 1.17646, 1.14654, 1.14579, 1.14788, 1.14964
0.868246, 0.960427, 1.06882, 1.00087, 1.21504, 1.16759, 1.21616, 1.32306, 1.26079, 1.03283, 1.07735, 0.980118, 1.13077, 1.11188, 0.927459, 0.92538, 0.926847, 0.928346, 0.930493, 0.929127, 0.944514, 0.94632, 0.915254, 0.91257, 0.914688, 0.957124, 0.864711, 0.975158, 0.869613, 0.866094, 0.984486, 0.958742, 0.958641, 1.02283, 0.990231, 0.999, 1.06401, 1.13259, 1.27847, 1.27025, 1.25905, 1.21522, 1.26996, 1.28398, 1.28309, 1.44328, 1.35131, 1.33855, 1.3546, 1.34671, 1.38218, 1.37614, 1.40956, 1.39247, 1.4261, 1.62165, 1.57805, 1.58563, 1.55058, 1.5496, 1.54991, 1.56477, 1.60901, 1.61618, 1.67142, 1.73041, 1.69959, 1.79403, 1.74073, 1.76567, 1.66206, 1.70787, 1.70642, 1.74896, 1.71033, 1.66742, 1.66536, 1.66295, 1.66448, 1.6615, 1.60193, 1.59899, 1.63913, 1.59879, 1.67071, 1.69849, 1.66427, 1.74568, 1.58661, 1.57634, 1.51894, 1.64051, 1.44993, 1.46122, 1.40734, 1.33371, 1.34131, 1.29087, 1.22561, 1.22635, 1.18582, 1.15682, 1.14467, 1.13604, 1.08668, 1.06333, 1.04642, 1.04535, 0.95926, 1.05319, 0.988587, 0.988761, 0.984122, 0.991717, 0.998537, 0.984172, 0.986958, 0.995741, 0.997928, 1.18731, 1.01263, 1.0144, 1.07786, 1.03429, 1.04496, 1.0664, 1.05704, 1.05676, 1.06027, 1.06577, 1.31586, 1.09872, 1.08422, 1.09865, 1.26746, 1.09778, 1.10157, 1.15992, 1.10984, 1.11113, 1.11338, 1.11474, 1.1595, 1.22355, 1.13236, 1.13701, 1.14944, 1.15081, 1.15633, 1.14949
0.948255, 1.01959, 1.04214, 1.21348, 1.04198, 1.05685, 1.1405, 1.23717, 1.24738, 1.18397, 1.21902, 1.22668, 1.11931, 1.0843, 1.10624, 0.928069, 0.999252, 0.932001, 0.92935, 0.932141, 0.934985, 0.934787, 0.915753, 0.913281, 0.914783, 0.915271, 1.21518, 0.889732, 0.963147, 0.946417, 0.953545, 0.956259, 0.955872, 0.923481, 0.940515, 0.974826, 1.09462, 1.09727, 1.10185, 1.13687, 1.16393, 1.19853, 1.20248, 1.25339, 1.28024, 1.35353, 1.32984, 1.36699, 1.32584, 1.35461, 1.52082, 1.60074, 1.58593, 1.41598, 1.40538, 1.42616, 1.51594, 1.56061, 1.5573, 1.54362, 1.54374, 1.63816, 1.62728, 1.62505, 1.66459, 1.7009, 1.73195, 1.73825, 1.77489, 1.75664, 1.64763, 1.64784, 1.9266, 1.92509, 1.67582, 1.63554, 1.63475, 1.6754, 1.63481, 1.64166, 1.60319, 1.59731, 1.58904, 1.55831, 1.62203, 1.63093, 1.67472, 1.68895, 1.50801, 1.49035, 1.4686, 1.46299, 1.46906, 1.44717, 1.37805, 1.3708, 1.28937, 1.25381, 1.24616, 1.22117, 1.1775, 1.17704, 1.08867, 1.07531, 1.05399, 1.06521, 1.00634, 1.05666, 0.947503, 0.972861, 0.981576, 0.966982, 0.967395, 0.982937, 0.980662, 0.981477, 0.984364, 1.08083, 1.00184, 1.00543, 1.00932, 1.01409, 1.02153, 1.02906, 1.03271, 1.09521, 1.04984, 1.05346, 1.05993, 1.06189, 1.29157, 1.06636, 1.07498, 1.07139, 1.0988, 1.0974, 1.09151, 1.09462, 1.09647, 1.10019, 1.09808, 1.11319, 1.11209, 1.11519, 1.12671, 1.14194, 1.25375, 1.14856, 1.15606, 1.24254
1.05947, 0.987859, 1.05575, 1.02863, 1.13364, 1.23096, 1.09991, 1.23684, 1.2239, 1.22925, 1.23676, 1.36481, 1.33792, 1.23829, 1.26201, 0.00417574, 0.00417402, 1.21328, 1.21975, 1.07456, 0.982538, 1.00442, 1.00756, 0.912694, 0.915684, 0.914728, 0.907859, 0.905156, 0.903074, 0.979048, 0.946726, 0.963826, 0.937898, 0.936419, 0.93863, 0.993008, 1.05463, 1.0584, 1.09762, 1.09761, 1.12189, 1.15696, 1.27815, 1.22906, 1.23009, 1.29327, 1.31374, 1.32432, 1.32799, 1.49121, 1.59726, 1.50478, 1.59246, 1.41316, 1.41777, 1.486, 1.51761, 1.56302, 1.55988, 1.5435, 1.54748, 1.57579, 1.63346, 1.65162, 1.65568, 1.67895, 1.66489, 1.66456, 1.74242, 1.6546, 1.66848, 1.67668, 1.76888, 1.70898, 1.69393, 1.63104, 1.62955, 1.62964, 1.62285, 1.61926, 1.59976, 1.59893, 1.52963, 1.53062, 1.57552, 1.61031, 1.70911, 1.82621, 1.52188, 1.46145, 1.49186, 1.41217, 1.41283, 1.44501, 1.34326, 1.35151, 1.34658, 1.25437, 1.2441, 1.22286, 1.17121, 1.09642, 1.09074, 1.07875, 1.00585, 0.988293, 1.00552, 1.015, 0.954199, 0.943099, 1.001, 0.9593, 0.97226, 0.96781, 0.994311, 0.984562, 0.986568, 0.989573, 0.997362, 1.00066, 1.01113, 1.01236, 1.02121, 1.02381, 1.02624, 1.03685, 1.10524, 1.04741, 1.06046, 1.06026, 1.06056, 1.06237, 1.06558, 1.06671, 1.06674, 1.07912, 1.09582, 1.07759, 1.0864, 1.08809, 1.08833, 1.09842, 1.10637, 1.11212, 1.1208, 1.12894, 1.1603, 1.24207, 1.2272, 1.26319
1.12595, 1.01739, 1.02462, 1.02408, 1.17969, 1.09876, 1.10091, 1.18835, 1.18818, 1.21637, 1.22815, 1.28886, 1.36102, 1.20661, 1.29977, 1.13651, 1.44392, 1.15784, 1.33045, 1.32787, 0.0042327, 1.03364, 1.06506, 0.911866, 0.911391, 0.916321, 0.90617, 0.906285, 0.910864, 0.921106, 1.01598, 0.96472, 1.04073, 0.950984, 0.950057, 1.02984, 1.01874, 1.04972, 1.03768, 1.09682, 1.16487, 1.19602, 1.1941, 1.25538, 1.22168, 1.31133, 1.32071, 1.3034, 1.37202, 1.3927, 1.39134, 1.60265, 1.50929, 1.37935, 1.4019, 1.40672, 1.40648, 1.51309, 1.49298, 1.54168, 1.56837, 1.68086, 1.63114, 1.64825, 1.65016, 1.67101, 1.66809, 1.73312, 1.73705, 1.6721, 1.65902, 1.68358, 1.74345, 1.74256, 1.70259, 1.71342, 1.63146, 1.6413, 1.60729, 1.68013, 1.6142, 1.59706, 1.57806, 1.52074, 1.52018, 1.73374, 1.62758, 1.60698, 1.50519, 1.48193, 1.43711, 1.4165, 1.39043, 1.45164, 1.36477, 1.297, 1.2959, 1.28812, 1.22433, 1.18703, 1.17033, 1.09271, 1.05399, 1.0802, 1.00964, 1.01583, 0.977042, 0.944664, 0.943634, 0.940214, 0.939686, 0.929224, 0.929034, 1.00587, 0.960881, 1.12622, 0.986057, 0.987676, 0.990945, 1.00117, 1.00966, 1.01127, 1.01501, 1.02001, 1.02414, 1.02819, 1.03125, 1.22229, 1.05016, 1.05446, 1.05774, 1.05802, 1.06067, 1.06291, 1.06374, 1.06495, 1.11445, 1.0724, 1.07533, 1.09181, 1.0859, 1.09132, 1.09584, 1.196, 1.11926, 1.12741, 1.13027, 1.23218, 1.19602, 1.24387
1.15827, 1.16396, 1.0319, 1.02659, 1.17372, 1.0715, 1.15362, 1.20119, 1.20601, 1.22563, 1.25199, 1.21846, 1.21879, 1.39452, 1.19001, 1.14621, 1.20814, 1.35719, 1.33691, 1.32113, 1.32933, 1.04502, 1.06707, 1.01233, 0.910591, 0.915777, 0.916063, 0.903144, 0.904375, 0.925207, 0.994201, 1.08714, 1.04091, 0.981237, 0.981183, 0.977499, 1.01062, 1.04326, 1.0688, 1.07689, 1.14076, 1.17619, 1.17599, 1.18817, 1.21281, 1.28821, 1.27269, 1.2918, 1.29318, 1.34368, 1.36497, 1.3273, 1.32679, 1.37165, 1.36092, 1.37828, 1.38882, 1.51045, 1.49387, 1.49348, 1.53014, 1.50786, 1.6151, 1.61803, 1.66849, 1.61207, 1.67413, 1.71376, 1.62741, 1.69588, 1.61436, 1.64324, 1.68516, 1.677, 1.73879, 1.62383, 1.56465, 1.59009, 1.62449, 1.62252, 1.65111, 1.57901, 1.56984, 1.52578, 1.53647, 1.64244, 1.59048, 1.59288, 1.48114, 1.43985, 1.43993, 1.45747, 1.3879, 1.36563, 1.31917, 1.29241, 1.29632, 1.27946, 1.17695, 1.15651, 1.11674, 1.09824, 1.06309, 1.05387, 1.0455, 1.00211, 0.952144, 0.943463, 0.930675, 0.9308, 0.929971, 0.942841, 0.939447, 0.947699, 0.956682, 0.970233, 0.982425, 0.985439, 0.987835, 1.1296, 1.00629, 1.0078, 1.00986, 1.01469, 1.02209, 1.02312, 1.0317, 1.03809, 1.04549, 1.04653, 1.05049, 1.05325, 1.05611, 1.06379, 1.06124, 1.06274, 1.07391, 1.0679, 1.06808, 1.07777, 1.08146, 1.08173, 1.1602, 1.09435, 1.11191, 1.20875, 1.2066, 1.2161, 1.23499, 1.23698
1.08128, 1.14601, 1.16361, 1.11559, 1.12208, 1.08853, 1.19167, 1.19562, 1.20783, 1.19239, 1.22387, 1.23629, 1.39524, 1.37561, 1.41399, 1.1595, 1.22973, 1.31665, 1.33585, 1.29888, 1.17475, 0.923073, 0.925072, 0.916005, 0.907465, 0.904644, 0.903022, 0.904657, 0.902325, 0.906888, 0.906509, 1.10145, 0.991026, 0.989103, 1.00756, 0.966958, 0.963349, 1.07444, 1.07407, 1.09241, 1.15057, 1.17226, 1.17122, 1.19082, 1.21674, 1.22383, 1.24396, 1.28443, 1.28482, 1.32326, 1.31185, 1.30878, 1.32353, 1.3262, 1.36322, 1.37796, 1.39337, 1.41665, 1.49927, 1.46439, 1.48509, 1.48908, 1.5541, 1.62298, 1.62403, 1.66101, 1.62329, 1.6199, 1.57515, 1.57457, 1.53094, 1.58169, 1.6436, 1.59986, 1.63365, 1.59243, 1.56801, 1.56761, 1.56284, 1.57211, 1.57821, 1.68105, 1.65039, 1.53239, 1.54109, 1.53652, 1.56812, 1.52545, 1.55292, 1.4484, 1.42413, 1.37085, 1.36839, 1.33215, 1.28807, 1.26945, 1.28569, 1.17541, 1.17782, 1.15667, 1.11081, 1.09254, 1.0908, 1.08785, 1.07169, 0.99651, 0.961248, 0.96512, 0.928131, 0.912411, 0.935864, 0.938847, 0.941979, 0.948969, 1.18753, 0.975326, 0.981496, 0.98556, 0.987736, 0.992581, 0.999249, 1.00634, 1.00616, 1.00691, 1.01647, 1.02223, 1.02448, 1.03844, 1.03913, 1.04409, 1.04619, 1.04997, 1.06016, 1.05137, 1.0567, 1.05792, 1.05717, 1.05574, 1.0608, 1.10177, 1.07314, 1.07483, 1.10352, 1.09754, 1.10107, 1.105, 1.11572, 1.21062, 1.1269, 1.24004
1.05595, 1.06386, 1.0664, 1.06667, 1.06296, 1.15377, 1.19219, 1.17282, 1.19733, 1.20322, 1.23163, 1.23575, 1.28176, 1.2962, 1.15085, 1.3937, 1.16614, 1.28216, 1.24254, 1.12909, 1.14703, 0.971769, 1.20254, 0.908484, 0.901172, 0.901863, 0.900984, 0.901279, 0.901391, 0.903552, 0.904727, 0.90413, 1.12146, 1.02479, 1.02674, 0.953038, 0.959062, 1.02055, 1.10021, 1.05832, 1.12707, 1.17482, 1.17339, 1.15368, 1.20774, 1.21928, 1.26326, 1.2423, 1.28778, 1.30544, 1.34348, 1.29367, 1.32342, 1.33021, 1.38455, 1.37815, 1.46572, 1.38553, 1.48659, 1.42795, 1.49392, 1.48091, 1.49103, 1.58945, 1.53521, 1.59494, 1.55861, 1.56277, 1.56901, 1.60193, 1.54489, 1.58328, 1.64841, 1.56979, 1.56953, 1.65382, 1.61663, 1.56242, 1.55876, 1.61016, 1.58148, 1.59714, 1.56135, 1.53417, 1.61617, 1.53924, 1.53842, 1.55549, 1.50564, 1.46439, 1.42977, 1.42618, 1.36123, 1.28252, 1.28622, 1.25235, 1.277, 1.18492, 1.13736, 1.1058, 1.07599, 1.08055, 1.06457, 1.02849, 0.996336, 0.968581, 0.943038, 0.920999, 0.957769, 0.914209, 0.978575, 0.947627, 0.942083, 0.944405, 0.973389, 0.974477, 0.980681, 0.994817, 0.987848, 0.993639, 0.991576, 0.999994, 1.00309, 1.00398, 1.00517, 1.01581, 1.01995, 1.10858, 1.10225, 1.03897, 1.03923, 1.04162, 1.04114, 1.07171, 1.05061, 1.05567, 1.05097, 1.05151, 1.05345, 1.08099, 1.07016, 1.07203, 1.07643, 1.08571, 1.09353, 1.17703, 1.10687, 1.16094, 1.16003, 1.22197
1.09118, 1.11602, 1.12297, 1.14384, 1.14464, 1.12068, 1.15672, 1.1738, 1.19491, 1.21185, 1.19859, 1.22335, 1.24044, 1.13178, 1.30668, 1.20341, 1.17115, 1.27272, 1.34782, 0.00425293, 0.00473079, 1.00686, 0.904181, 0.900296, 0.898297, 0.900847, 0.897494, 0.899954, 0.897218, 0.932522, 1.01275, 0.912333, 1.16351, 1.02179, 1.05592, 1.05498, 0.971044, 0.999304, 1.03814, 1.08244, 1.18349, 1.18093, 1.14781, 1.17265, 1.17234, 1.21338, 1.23635, 1.23054, 1.24811, 1.26841, 1.29639, 1.3065, 1.29349, 1.31864, 1.36771, 1.41758, 1.41551, 1.45687, 1.50535, 1.40392, 1.42975, 1.46255, 1.5077, 1.5954, 1.53796, 1.54773, 1.54287, 1.55587, 1.55322, 1.54099, 1.50786, 1.57766, 1.56897, 1.56375, 1.60339, 1.53868, 1.59038, 1.51662, 1.56083, 1.56026, 1.5414, 1.52044, 1.51118, 1.54887, 1.54932, 1.50593, 1.50517, 1.56141, 1.52727, 1.54141, 1.39995, 1.35119, 1.31255, 1.3051, 1.28467, 1.28492, 1.2232, 1.10632, 1.14303, 1.08037, 1.08345, 1.05432, 1.02366, 1.00142, 1.01028, 0.947316, 0.963523, 0.933282, 0.943443, 0.935335, 0.964146, 0.946506, 0.947021, 0.945946, 0.954117, 1.13687, 0.982234, 0.982651, 0.982703, 0.990751, 0.990967, 1.30401, 1.00126, 1.00304, 1.00404, 1.00901, 1.01151, 1.14023, 1.03229, 1.03341, 1.03561, 1.03883, 1.04072, 1.03939, 1.05069, 1.05795, 1.06977, 1.07247, 1.07667, 1.10217, 1.06645, 1.06845, 1.07687, 1.08044, 1.08948, 1.09061, 1.16601, 1.10715, 1.11495, 1.2164
1.09007, 1.0901, 1.13373, 1.13904, 1.11877, 1.14726, 1.17179, 1.18315, 1.18874, 1.22046, 1.21294, 1.23539, 1.24085, 1.26394, 1.30336, 1.19844, 1.41935, 1.37398, 0.00469477, 1.45864, 0.981854, 0.970964, 0.897693, 1.05373, 0.888556, 0.896881, 0.897892, 0.897981, 0.899606, 0.894782, 0.89598, 0.913632, 0.942737, 0.949156, 1.03306, 0.998021, 1.02314, 0.989314, 0.953309, 1.07863, 1.09733, 1.11815, 1.12547, 1.15436, 1.16679, 1.22961, 1.23578, 1.22889, 1.22005, 1.25832, 1.30083, 1.25737, 1.31603, 1.33652, 1.36104, 1.39472, 1.40986, 1.4023, 1.39268, 1.39218, 1.43651, 1.4711, 1.50244, 1.49898, 1.55326, 1.54917, 1.54372, 1.52856, 1.52774, 1.52615, 1.5226, 1.566, 1.56945, 1.56884, 1.64389, 1.52829, 1.52731, 1.51432, 1.53958, 1.52677, 1.52399, 1.47953, 1.47572, 1.49253, 1.46262, 1.49982, 1.54667, 1.546, 1.52322, 1.43839, 1.37352, 1.32041, 1.29912, 1.28725, 1.27355, 1.27886, 1.15772, 1.09197, 1.07753, 1.04717, 1.03678, 1.06064, 0.991502, 0.988359, 0.96348, 0.961104, 0.916008, 0.91433, 0.908762, 0.947465, 0.957802, 0.940076, 0.946386, 0.946352, 0.948441, 1.1189, 1.14946, 0.976016, 1.14607, 0.988286, 0.988608, 0.991327, 0.995197, 1.00119, 1.00179, 1.00466, 1.00593, 1.0132, 1.02858, 1.02848, 1.02572, 1.02562, 1.04482, 1.04635, 1.07229, 1.07355, 1.05541, 1.06479, 1.06823, 1.08042, 1.05678, 1.13008, 1.07216, 1.07432, 1.07715, 1.08729, 1.17455, 1.16984, 1.20947, 1.21482
1.1323, 1.03683, 0.98874, 0.95232, 1.02227, 0.908537, 1.03295, 1.03047, 1.17791, 1.23955, 1.20065, 1.23266, 1.26807, 1.28216, 1.28085, 1.33344, 0.926695, 1.04725, 1.1327, 0.958698, 0.959179, 1.06086, 0.893606, 0.885563, 0.885214, 0.899352, 0.899241, 0.898893, 0.89483, 0.894218, 1.05664, 1.1085, 0.929214, 1.03249, 1.04352, 0.988487, 1.05901, 0.964202, 1.02888, 1.03888, 1.14298, 1.12571, 1.11047, 1.11558, 1.1779, 1.1486, 1.23942, 1.21161, 1.23909, 1.27677, 1.25724, 1.26306, 1.30193, 1.28565, 1.36701, 1.36576, 1.37283, 1.37386, 1.38267, 1.37412, 1.39305, 1.46493, 1.43993, 1.44365, 1.53761, 1.54884, 1.54041, 1.5401, 1.51036, 1.52704, 1.52579, 1.53788, 1.57553, 1.56762, 1.54955, 1.54027, 1.53494, 1.52213, 1.52693, 1.52471, 1.49367, 1.4924, 1.48524, 1.46906, 1.46235, 1.46925, 1.43672, 1.43079, 1.40885, 1.42264, 1.32251, 1.31678, 1.27897, 1.25935, 1.26736, 1.21545, 1.13347, 1.09165, 1.04392, 1.05345, 0.99866, 1.00794, 0.987982, 0.977557, 0.943598, 0.915223, 0.916079, 0.9362, 0.911166, 0.89419, 0.924648, 0.939117, 0.943643, 0.945439, 0.946073, 1.15492, 1.11906, 0.974599, 1.03475, 0.987063, 0.986054, 0.988321, 0.991033, 0.992346, 0.999452, 1.00226, 1.00395, 1.01163, 1.05661, 1.02129, 1.02237, 1.02286, 1.05006, 1.05313, 1.05407, 1.07314, 1.04946, 1.06927, 1.07047, 1.08707, 1.12255, 1.12422, 1.12177, 1.12605, 1.07087, 1.07569, 1.2022, 1.08655, 1.09114, 1.10213
1.01241, 0.924848, 0.999195, 0.911639, 0.911003, 1.02146, 0.88344, 0.946278, 0.942957, 0.974856, 0.943634, 0.00446317, 1.27035, 0.00449262, 0.992478, 1.02765, 1.09341, 1.4052, 1.12127, 0.996449, 0.999838, 0.997005, 0.924457, 0.889598, 0.890639, 0.897353, 0.897326, 0.896252, 0.897556, 0.939365, 0.949694, 0.904039, 0.904353, 0.913633, 1.02338, 1.12332, 1.05593, 1.00449, 0.985109, 1.02599, 1.03997, 1.128, 1.09193, 1.10128, 1.1861, 1.16887, 1.1578, 1.17147, 1.26555, 1.25593, 1.23052, 1.22661, 1.36483, 1.28392, 1.29695, 1.30423, 1.38055, 1.39162, 1.37413, 1.37275, 1.40423, 1.41012, 1.41696, 1.49536, 1.4783, 1.48656, 1.51643, 1.51995, 1.48952, 1.50266, 1.59294, 1.59614, 1.59664, 1.54512, 1.54207, 1.51309, 1.5064, 1.51236, 1.51128, 1.53315, 1.46888, 1.49628, 1.49531, 1.4886, 1.54562, 1.43339, 1.4075, 1.39238, 1.38855, 1.38228, 1.30992, 1.29637, 1.2496, 1.28519, 1.21208, 1.17483, 1.0984, 1.06731, 1.02331, 1.02065, 0.986594, 0.959256, 0.981613, 0.94237, 0.943479, 0.919746, 0.908839, 0.906474, 0.921052, 0.928237, 0.929046, 0.933113, 1.11107, 0.944753, 0.946156, 0.958197, 0.960631, 0.969464, 0.998853, 0.984237, 0.984487, 0.985789, 0.989142, 0.992577, 0.995425, 0.998146, 0.999661, 1.00213, 1.13744, 1.0187, 1.01797, 1.25361, 1.03156, 1.05066, 1.04027, 1.07121, 1.04571, 1.06025, 1.08289, 1.09034, 1.11284, 1.12893, 1.0553, 1.05614, 1.06503, 1.06365, 1.07467, 1.08066, 1.087, 1.09798
0.91117, 0.906906, 0.899368, 0.950148, 0.937697, 0.933676, 0.888079, 0.892604, 0.907749, 0.910916, 0.908198, 0.905443, 0.90319, 0.918574, 0.878881, 0.87943, 1.02366, 1.0652, 0.951911, 0.970102, 0.970361, 0.974588, 0.939916, 0.932907, 0.891388, 0.895208, 0.894951, 0.895311, 0.900777, 0.899994, 0.903993, 0.903796, 0.902328, 0.912003, 0.920512, 0.977779, 1.07793, 1.0157, 0.983723, 1.05037, 1.02576, 1.06106, 1.04393, 1.12047, 1.14503, 1.1447, 1.16127, 1.23417, 1.22984, 1.21414, 1.19687, 1.21346, 1.24598, 1.25121, 1.34265, 1.27709, 1.38654, 1.33034, 1.333, 1.3631, 1.43433, 1.42372, 1.42665, 1.45493, 1.49965, 1.49122, 1.48199, 1.46913, 1.46835, 1.49302, 1.49432, 1.55905, 1.5745, 1.53628, 1.52094, 1.55762, 1.5714, 1.53993, 1.47982, 1.48567, 1.45847, 1.47454, 1.47479, 1.47486, 1.47238, 1.47425, 1.39713, 1.38513, 1.38096, 1.33589, 1.29153, 1.28152, 1.29898, 1.18957, 1.1609, 1.16446, 1.11005, 1.08742, 1.02182, 0.992749, 0.998562, 0.985124, 0.950085, 0.942644, 0.959111, 0.918902, 0.927576, 0.899474, 0.959448, 0.91881, 0.948396, 0.949413, 0.943199, 0.949978, 0.94626, 0.952871, 0.957578, 0.964563, 0.974955, 0.978233, 0.982478, 0.984728, 0.987123, 0.990087, 0.992842, 0.994189, 0.995056, 0.999516, 1.00838, 1.01266, 1.14623, 1.02187, 1.31688, 1.04662, 1.0439, 1.05671, 1.06597, 1.079, 1.07749, 1.09116, 1.03176, 1.03676, 1.05068, 1.05373, 1.0591, 1.06121, 1.17428, 1.0775, 1.08393, 1.08906
0.911628, 0.900812, 0.898523, 0.929946, 0.919252, 0.93311, 0.991299, 0.88745, 0.901968, 0.902376, 0.90323, 0.914389, 0.933079, 0.870823, 0.877302, 0.889106, 0.997476, 0.994941, 1.00188, 0.970668, 0.967631, 0.968362, 0.970884, 0.947062, 1.01639, 0.893922, 0.893726, 0.896558, 0.894528, 0.902424, 0.901715, 0.90274, 0.899699, 0.898945, 0.912395, 1.09473, 0.995853, 1.02077, 1.08204, 0.988165, 1.02158, 1.00039, 1.03489, 1.09119, 1.14143, 1.12609, 1.13574, 1.12167, 1.1503, 1.1777, 1.17794, 1.19264, 1.20879, 1.22027, 1.22673, 1.25369, 1.30682, 1.30854, 1.31646, 1.35393, 1.3923, 1.41174, 1.42699, 1.49914, 1.48614, 1.48804, 1.43983, 1.46515, 1.4536, 1.45017, 1.47102, 1.4473, 1.511, 1.50267, 1.61712, 1.45731, 1.47222, 1.47312, 1.48272, 1.5018, 1.40779, 1.43062, 1.44307, 1.45265, 1.49572, 1.4881, 1.39165, 1.36756, 1.37715, 1.29919, 1.27217, 1.27489, 1.30428, 1.19606, 1.14324, 1.11211, 1.08381, 1.08386, 1.01055, 0.988324, 0.967774, 0.928393, 0.960197, 0.988332, 0.988127, 0.932506, 0.92759, 0.92958, 0.93186, 0.927038, 0.92202, 0.948129, 0.952945, 0.953472, 0.946125, 0.948003, 0.957861, 0.95979, 0.963404, 1.00084, 0.978579, 0.980302, 0.982946, 0.987265, 0.988064, 0.988912, 0.993586, 0.996235, 0.998291, 1.18945, 1.17201, 1.29551, 1.04424, 1.04296, 1.05688, 1.0433, 1.04938, 1.06181, 1.07187, 1.10079, 1.09899, 1.04021, 1.04542, 1.04743, 1.0594, 1.06112, 1.06992, 1.07671, 1.07994, 1.08771
1.06041, 1.16858, 0.888407, 0.876257, 0.926518, 0.92498, 0.854554, 0.83804, 0.89867, 0.900911, 0.900338, 0.890641, 0.888138, 0.886461, 0.886153, 0.904071, 1.37118, 0.94598, 0.976052, 0.971594, 0.966681, 0.968131, 1.11908, 1.11979, 0.961433, 0.894086, 0.889231, 0.890836, 0.891458, 0.891963, 0.899345, 0.901533, 0.899183, 0.898865, 0.904611, 0.904372, 1.04842, 0.985455, 0.985287, 0.942866, 0.942878, 0.984704, 1.02627, 1.04479, 1.07066, 1.08246, 1.07227, 1.13303, 1.16766, 1.1477, 1.14293, 1.1728, 1.18171, 1.20009, 1.20549, 1.20216, 1.23612, 1.24581, 1.33301, 1.33295, 1.40036, 1.42247, 1.42962, 1.43265, 1.4241, 1.48312, 1.50587, 1.46477, 1.45206, 1.44702, 1.42915, 1.42999, 1.39603, 1.40627, 1.41609, 1.46741, 1.51791, 1.48202, 1.46039, 1.43348, 1.39894, 1.35198, 1.41192, 1.42594, 1.36757, 1.37759, 1.37984, 1.32382, 1.30439, 1.30474, 1.24089, 1.24051, 1.22811, 1.15704, 1.1329, 1.085, 1.06746, 1.04966, 1.00107, 0.978235, 0.942457, 0.927631, 0.928341, 0.946274, 0.953153, 0.994104, 0.91562, 0.938521, 0.937137, 0.938799, 0.922616, 0.964517, 0.952051, 0.939874, 0.939566, 0.949374, 0.954986, 0.960514, 0.961145, 0.971756, 0.973235, 0.976796, 0.978365, 0.981261, 0.98338, 0.98211, 0.989164, 0.990619, 0.991945, 1.17987, 1.01215, 1.01232, 1.01175, 1.23248, 1.04592, 1.05074, 1.05111, 1.04744, 1.01194, 1.02447, 1.02927, 1.03375, 1.04784, 1.04943, 1.05297, 1.06326, 1.06656, 1.06849, 1.07826, 1.08376
0.887547, 0.891223, 0.879128, 0.863995, 0.934684, 0.85745, 0.844401, 0.873934, 0.911446, 0.900787, 0.893846, 0.889367, 0.885267, 0.884129, 0.884367, 0.886455, 1.39554, 0.967596, 0.967331, 0.951315, 0.950811, 0.962007, 0.957071, 1.14309, 0.903879, 0.889534, 0.888365, 0.884621, 0.88607, 0.889181, 0.897154, 0.894584, 0.895582, 0.897922, 0.898008, 1.19039, 1.13874, 0.970434, 0.946405, 0.939497, 0.943251, 0.94202, 1.00426, 1.04174, 1.02978, 1.06838, 1.05333, 1.08354, 1.13022, 1.14442, 1.14636, 1.18214, 1.21927, 1.2327, 1.18528, 1.19751, 1.23221, 1.28567, 1.29941, 1.30266, 1.34261, 1.35558, 1.42198, 1.42697, 1.41923, 1.434, 1.37826, 1.37857, 1.46749, 1.46865, 1.42366, 1.40191, 1.40054, 1.39175, 1.36529, 1.39186, 1.42263, 1.45252, 1.45867, 1.46534, 1.39496, 1.32925, 1.42935, 1.32265, 1.31339, 1.32201, 1.31402, 1.27509, 1.27384, 1.24871, 1.22221, 1.22188, 1.2221, 1.10027, 1.07942, 1.03448, 1.03756, 1.04991, 0.97693, 0.986887, 0.932624, 0.932802, 0.919767, 0.919224, 0.927467, 0.911527, 0.9314, 0.932496, 0.970874, 0.920225, 0.921238, 0.933896, 0.937228, 0.938418, 0.938751, 0.947388, 0.979278, 0.962355, 0.962271, 0.963955, 0.968825, 0.973799, 0.977068, 0.977956, 0.97857, 0.982033, 0.983527, 0.986826, 0.986976, 1.01629, 0.983421, 1.00518, 1.00496, 1.2765, 1.03032, 1.0466, 1.04283, 1.06469, 1.01271, 1.0271, 1.03169, 1.03588, 1.04006, 1.04709, 1.05277, 1.05608, 1.0621, 1.06821, 1.07391, 1.08068
0.875455, 0.891166, 0.888014, 0.856645, 0.864351, 0.863506, 0.855847, 0.860845, 0.882858, 0.890202, 0.892195, 0.886294, 0.886368, 0.886844, 0.885824, 0.885706, 0.89356, 1.17779, 1.37029, 0.978628, 0.97668, 0.983422, 0.984022, 1.13191, 0.903656, 0.891341, 0.886891, 0.884058, 0.884502, 0.886284, 0.888819, 0.889656, 0.903355, 0.90457, 0.900631, 1.10267, 0.950738, 0.914221, 0.939375, 0.912228, 0.94803, 0.967465, 0.985167, 1.00896, 1.016, 1.00556, 1.00427, 1.10367, 1.07074, 1.1243, 1.12489, 1.12711, 1.17348, 1.17325, 1.15911, 1.17164, 1.21145, 1.23436, 1.24795, 1.26388, 1.26693, 1.29897, 1.32778, 1.32977, 1.3493, 1.32925, 1.32897, 1.37571, 1.42662, 1.42574, 1.44492, 1.3827, 1.39385, 1.37503, 1.3614, 1.36676, 1.36441, 1.47018, 1.44887, 1.42474, 1.3859, 1.42859, 1.29157, 1.26874, 1.29115, 1.28167, 1.27163, 1.26201, 1.32724, 1.20819, 1.2145, 1.19587, 1.16159, 1.11499, 1.0399, 1.03039, 1.02935, 0.993031, 1.0001, 1.00654, 0.945873, 0.92908, 0.929279, 0.919419, 0.994769, 0.915363, 0.934745, 0.93174, 0.928846, 0.915942, 0.918786, 0.930737, 0.938168, 0.939178, 0.939278, 1.00823, 0.94934, 0.959908, 0.960273, 0.959875, 0.966569, 0.97348, 0.97476, 0.976476, 0.975794, 0.978253, 0.984584, 0.983839, 0.983675, 1.03134, 1.00652, 1.01171, 1.25644, 1.0085, 1.02385, 1.03426, 1.06589, 1.00362, 1.0061, 1.02573, 1.03118, 1.03478, 1.03554, 1.04856, 1.05077, 1.05007, 1.06196, 1.07008, 1.06994, 1.07496
0.901041, 0.899915, 0.875154, 0.873363, 0.90136, 0.855668, 0.855637, 0.857741, 1.13062, 0.886986, 0.879037, 0.881818, 0.883772, 1.28144, 0.890981, 0.888485, 0.910118, 0.896838, 1.41283, 1.06797, 0.963632, 0.977072, 0.941907, 0.981942, 0.898418, 0.896023, 0.883653, 0.880861, 0.880623, 0.881509, 0.881898, 0.911, 1.20537, 0.914687, 0.913101, 0.909705, 0.930341, 0.928576, 0.928771, 0.999723, 0.992153, 0.984574, 1.03399, 1.07442, 1.01564, 0.992817, 0.992896, 1.04787, 1.04124, 1.07838, 1.10016, 1.09685, 1.12305, 1.12286, 1.13944, 1.12268, 1.17524, 1.17703, 1.19338, 1.25368, 1.23273, 1.25343, 1.28201, 1.30822, 1.29844, 1.30367, 1.315, 1.32079, 1.32121, 1.35685, 1.38274, 1.39918, 1.36297, 1.35994, 1.33593, 1.33429, 1.33671, 1.35664, 1.4501, 1.45021, 1.37739, 1.34902, 1.28539, 1.26842, 1.25789, 1.25367, 1.23403, 1.20974, 1.19273, 1.17889, 1.16724, 1.15223, 1.14947, 1.09494, 1.07846, 1.03182, 1.01931, 0.970608, 0.943749, 0.940806, 0.937978, 0.922054, 0.903133, 0.902341, 0.915627, 0.933165, 0.928287, 0.925384, 0.925089, 0.92296, 0.925193, 0.925985, 0.931515, 0.939424, 0.937888, 0.938037, 0.948201, 0.951559, 0.956088, 0.956618, 0.964806, 0.966699, 0.96986, 0.972129, 0.973906, 0.97463, 0.978798, 0.980934, 0.980968, 1.10157, 0.973523, 1.30905, 1.00484, 1.32427, 1.03328, 1.02679, 1.00066, 1.00153, 1.01068, 1.02284, 1.03205, 1.03448, 1.0413, 1.04378, 1.04939, 1.05288, 1.06071, 1.06641, 1.07668, 1.0816
0.90429, 0.915276, 0.884577, 0.883687, 0.879814, 0.907961, 0.854186, 0.861006, 0.873249, 0.883513, 0.867346, 0.900756, 1.26479, 0.888814, 0.889545, 0.943054, 0.885758, 0.88922, 0.895616, 1.3684, 0.96509, 0.940408, 0.940123, 1.04708, 0.890593, 0.882668, 0.883385, 0.879197, 0.878749, 0.876902, 0.877846, 1.04476, 0.911083, 0.915009, 0.907316, 0.907726, 0.889007, 0.928317, 0.929895, 0.916609, 0.924489, 0.924491, 1.0225, 0.991848, 0.996816, 0.995623, 0.984212, 0.995996, 1.04409, 1.05363, 1.04128, 1.07819, 1.05435, 1.11258, 1.16312, 1.19905, 1.15325, 1.16999, 1.17039, 1.26593, 1.27124, 1.23574, 1.2406, 1.27183, 1.28686, 1.33119, 1.30925, 1.30229, 1.28547, 1.30989, 1.32738, 1.35756, 1.34637, 1.3429, 1.29208, 1.28447, 1.27901, 1.31152, 1.38852, 1.44701, 1.41923, 1.42857, 1.28161, 1.2456, 1.24603, 1.25423, 1.23751, 1.19192, 1.19363, 1.12582, 1.13297, 1.11988, 1.13292, 1.10572, 1.04023, 1.03656, 1.03645, 1.00257, 0.933081, 0.953762, 0.964226, 0.933873, 0.965455, 0.917964, 0.915446, 0.924827, 0.939254, 0.928437, 0.93974, 0.927125, 0.92847, 0.928786, 0.93155, 0.936871, 0.93781, 0.949487, 0.960349, 0.964126, 0.952684, 0.954065, 0.959592, 0.961549, 0.967004, 0.964392, 0.96984, 0.971405, 0.976348, 0.977402, 0.979719, 0.971962, 1.14223, 0.970023, 1.00368, 1.00802, 0.97818, 1.02794, 1.02576, 1.00426, 1.0182, 1.02398, 1.02567, 1.03221, 1.04107, 1.04819, 1.0491, 1.05603, 1.05983, 1.07558, 1.07689, 1.0842
0.895274, 0.897484, 0.910627, 0.897841, 0.86763, 0.919774, 0.913969, 0.937504, 0.915589, 0.911619, 0.866478, 0.870882, 1.2782, 0.884727, 0.886848, 0.882411, 0.882963, 1.00403, 0.879829, 0.89154, 1.04, 0.948907, 0.947628, 1.1455, 0.889486, 0.883868, 0.881666, 0.878046, 0.877091, 0.878278, 0.878547, 0.894536, 0.89506, 0.89568, 0.911706, 0.897657, 0.884356, 0.880222, 0.869902, 0.907817, 0.921414, 0.915999, 0.944052, 0.944333, 0.92858, 0.973448, 0.983741, 1.0216, 1.01144, 1.02877, 1.01106, 1.01133, 1.04597, 1.12845, 1.19805, 1.19612, 1.1592, 1.14991, 1.15029, 1.21905, 1.21979, 1.21603, 1.21989, 1.22272, 1.25449, 1.24358, 1.26694, 1.26085, 1.25094, 1.27432, 1.28269, 1.35038, 1.32949, 1.30633, 1.27426, 1.24135, 1.24608, 1.26758, 1.32729, 1.36569, 1.40668, 1.38873, 1.27939, 1.27157, 1.23395, 1.29788, 1.21248, 1.19419, 1.14754, 1.10181, 1.09195, 1.07388, 1.10283, 1.10245, 1.03175, 1.01859, 1.01455, 0.946762, 0.946331, 0.928238, 0.925274, 0.965582, 0.95558, 0.945297, 0.946053, 0.932282, 0.924791, 0.922201, 0.939941, 0.928386, 0.928464, 0.928965, 0.929981, 0.934052, 0.923003, 1.11299, 0.925897, 1.16787, 1.16962, 0.952266, 0.955914, 0.96044, 0.96508, 0.966062, 0.967042, 0.969941, 0.974123, 0.975225, 0.971731, 0.968248, 0.967903, 0.96817, 0.970286, 0.973198, 1.01983, 1.02232, 0.995838, 1.00314, 1.01265, 1.02103, 1.02229, 1.02868, 1.04002, 1.04731, 1.04686, 1.04965, 1.12803, 1.07102, 1.07601, 1.08215
0.894727, 0.89309, 0.905615, 0.880108, 0.86936, 0.898767, 0.945941, 0.895517, 0.895471, 0.88409, 1.0857, 0.876117, 0.879836, 0.884942, 0.883632, 0.881493, 0.879396, 1.36752, 0.883002, 0.880118, 1.37424, 0.953121, 0.946683, 0.940586, 0.89125, 0.883104, 0.883678, 0.87866, 0.879791, 0.880045, 0.879808, 0.889053, 0.889319, 0.888223, 0.986608, 0.891154, 0.8859, 0.884059, 1.01578, 0.914162, 0.967576, 0.94681, 0.92524, 0.921562, 0.917559, 0.983679, 0.967794, 0.995525, 1.03709, 1.00097, 1.03287, 1.00731, 1.01877, 1.07903, 1.18533, 1.18512, 1.18595, 1.12055, 1.17822, 1.16571, 1.17341, 1.18431, 1.18325, 1.20886, 1.17912, 1.23928, 1.24808, 1.26826, 1.23347, 1.23006, 1.24036, 1.26203, 1.33967, 1.31804, 1.27079, 1.21172, 1.22021, 1.24691, 1.28517, 1.38702, 1.37056, 1.38814, 1.3291, 1.2749, 1.28424, 1.29167, 1.19544, 1.14636, 1.11925, 1.09472, 1.08212, 1.06466, 1.03341, 1.02553, 1.02726, 1.00977, 0.967852, 1.00203, 0.992043, 0.991905, 1.02631, 0.953023, 0.953408, 0.945742, 0.93941, 0.926242, 0.921799, 0.919621, 0.926975, 0.923829, 0.923675, 0.928321, 0.928316, 0.925087, 0.943289, 0.919568, 0.92143, 1.39644, 1.17416, 0.950997, 0.952719, 0.957646, 0.959578, 0.962935, 0.962723, 0.962602, 0.974261, 0.974795, 0.966284, 0.966865, 0.965642, 0.969766, 0.972998, 0.974588, 1.1839, 0.990359, 0.991322, 1.00345, 1.00435, 1.01339, 1.01238, 1.02201, 1.02976, 1.0412, 1.04406, 1.05436, 1.06354, 1.06768, 1.07389, 1.08047
0.965385, 0.965028, 0.9, 0.918936, 0.890423, 0.888969, 0.888794, 0.896549, 0.89748, 0.897489, 0.879554, 0.876339, 0.880825, 0.880667, 0.880138, 0.879822, 0.876551, 0.87291, 0.871531, 0.877168, 0.878875, 0.92106, 0.91881, 0.920292, 0.907932, 0.99908, 0.883391, 0.878442, 0.877458, 0.881241, 0.880305, 0.882971, 0.883333, 0.883473, 0.949392, 0.883715, 0.883546, 0.884261, 0.880625, 1.10967, 0.960004, 0.946859, 0.948081, 0.932765, 0.902151, 0.908244, 0.973782, 0.967202, 0.973848, 0.963907, 0.966254, 0.988924, 1.0002, 1.02376, 1.17154, 1.11187, 1.15334, 1.11869, 1.10841, 1.18163, 1.1603, 1.1475, 1.1598, 1.15147, 1.20502, 1.18453, 1.2171, 1.23006, 1.19663, 1.21907, 1.19895, 1.20875, 1.26497, 1.26197, 1.24018, 1.21303, 1.20264, 1.22708, 1.2569, 1.31815, 1.36103, 1.38172, 1.35354, 1.35189, 1.27156, 1.16748, 1.17722, 1.13397, 1.10558, 1.04992, 1.05904, 1.09974, 1.03042, 0.967778, 0.966572, 0.958062, 0.936023, 0.938415, 0.949384, 1.01235, 0.923262, 0.917931, 0.944936, 0.946379, 0.93954, 0.927064, 0.914856, 0.919109, 0.928968, 0.9236, 0.925486, 0.925303, 0.924419, 0.925163, 0.916971, 0.917834, 0.917136, 0.923254, 0.949168, 0.952027, 0.951485, 0.953691, 0.955178, 0.958498, 0.959921, 1.07335, 1.0777, 0.971896, 0.973576, 1.04866, 0.97065, 1.21142, 0.97079, 0.973003, 1.0041, 1.01828, 0.995327, 0.998977, 1.00616, 1.00517, 1.01344, 1.01512, 1.02213, 1.03733, 1.04776, 1.09617, 1.0637, 1.06325, 1.1184, 1.07028
0.926264, 0.925907, 0.922379, 0.955803, 0.9121, 0.941777, 0.874593, 0.884663, 1.17666, 0.918613, 0.875739, 0.876851, 0.875055, 0.876628, 0.875123, 0.876478, 0.876833, 0.873495, 0.868868, 0.864082, 1.45589, 0.916378, 0.916768, 0.915102, 0.950966, 0.888615, 0.883384, 0.879136, 0.874762, 0.871512, 0.875511, 0.8767, 0.877388, 0.880298, 0.8777, 0.879786, 0.88011, 0.876732, 0.878243, 0.878199, 1.03364, 0.940187, 0.946415, 0.921619, 0.884585, 0.8807, 0.946283, 0.946005, 0.95321, 0.970981, 0.991102, 1.0079, 1.00539, 1.0065, 1.07766, 1.05575, 1.05207, 1.07816, 1.0773, 1.09856, 1.13985, 1.11608, 1.12932, 1.12836, 1.16017, 1.17807, 1.18064, 1.18805, 1.19288, 1.15677, 1.17429, 1.15543, 1.16137, 1.21935, 1.17533, 1.17693, 1.21253, 1.22671, 1.21167, 1.28797, 1.32625, 1.39404, 1.30659, 1.30936, 1.31, 1.13852, 1.12607, 1.0914, 1.11539, 1.08044, 1.0815, 1.03297, 1.02181, 0.966577, 0.94945, 0.914574, 0.959999, 0.927695, 0.925721, 0.921755, 0.907758, 1.07835, 0.972957, 0.970976, 0.992201, 0.918608, 0.914643, 0.921904, 0.923891, 0.923466, 0.924209, 0.925211, 0.923314, 0.925279, 0.924985, 0.915585, 0.917629, 1.07191, 1.19666, 0.947473, 0.950105, 0.949825, 0.953149, 0.95563, 0.959321, 0.959023, 0.968151, 0.968834, 0.968721, 1.10819, 0.97697, 0.980006, 0.974104, 0.974641, 1.0088, 0.97885, 0.990332, 0.999567, 1.00577, 1.00921, 1.01409, 1.01932, 1.0878, 1.03347, 1.04241, 1.0469, 1.052, 1.06151, 1.06195, 1.0648
0.999143, 0.930748, 0.933363, 0.958252, 0.883796, 0.871274, 0.875767, 0.919049, 0.910155, 0.911138, 0.903592, 0.877687, 0.874687, 0.875909, 0.876232, 0.873786, 0.874283, 0.872974, 0.869357, 0.85915, 0.859133, 1.38839, 0.955922, 0.919178, 0.946188, 0.888765, 0.881603, 0.87701, 0.867391, 0.871283, 0.871746, 0.870119, 0.877222, 0.878442, 0.879908, 0.876538, 0.878704, 0.877859, 0.877882, 0.878368, 0.978768, 0.911739, 0.928643, 0.94919, 0.901367, 0.875908, 0.940835, 0.921537, 0.90369, 0.926581, 0.975283, 1.0613, 1.01487, 1.02765, 1.01967, 1.02183, 1.02205, 1.04062, 1.05413, 1.08044, 1.09799, 1.09638, 1.09125, 1.13555, 1.11278, 1.12395, 1.18871, 1.18868, 1.19612, 1.13413, 1.13543, 1.12893, 1.14999, 1.15023, 1.14937, 1.1497, 1.19505, 1.16731, 1.20201, 1.18801, 1.28871, 1.27846, 1.30907, 1.16053, 1.14254, 1.14286, 1.1266, 1.07617, 1.03699, 1.03748, 1.03929, 1.01792, 0.965686, 0.953396, 0.929802, 0.969701, 0.963881, 0.963939, 0.910932, 0.922127, 0.940631, 0.91378, 0.980692, 0.966803, 0.923295, 0.912923, 0.912387, 0.92986, 0.929897, 0.921986, 0.92418, 0.923826, 0.925085, 0.924864, 0.926469, 0.925324, 1.18083, 1.03417, 0.945531, 0.942746, 0.943014, 0.949499, 0.950551, 0.954554, 0.957693, 0.955349, 0.958441, 1.1699, 0.967463, 0.973371, 0.975803, 0.978187, 0.981073, 0.994487, 1.00962, 0.980919, 0.992985, 0.996418, 1.02707, 1.01105, 1.01826, 1.016, 1.05789, 1.079, 1.1152, 1.02643, 1.04077, 1.08515, 1.05626, 1.05774
1.03165, 1.08733, 1.0461, 1.01615, 0.880238, 0.877035, 0.874885, 0.874624, 0.93576, 1.1914, 0.914752, 0.893444, 0.877139, 0.877429, 0.87679, 0.875924, 0.871877, 0.870342, 0.865454, 0.85814, 0.858586, 0.883911, 0.892489, 0.921585, 0.891975, 1.1417, 0.880174, 0.877032, 0.873625, 0.872149, 0.870322, 0.870952, 0.875397, 0.879153, 0.878122, 0.876538, 0.878089, 0.880472, 0.877533, 0.876391, 0.875824, 0.877526, 0.921689, 0.904555, 0.866782, 0.873009, 0.877177, 0.874919, 0.875752, 0.926444, 0.957205, 0.956549, 0.964135, 0.968378, 1.05026, 0.983837, 1.00605, 1.0203, 1.01322, 1.03746, 1.08453, 1.08363, 1.07233, 1.0733, 1.13926, 1.13957, 1.19418, 1.18453, 1.13001, 1.11654, 1.15063, 1.11062, 1.11205, 1.12241, 1.12018, 1.09638, 1.13055, 1.10782, 1.18201, 1.16008, 1.14369, 1.25365, 1.15166, 1.17623, 1.13569, 1.12299, 1.08542, 1.04769, 1.00907, 0.991014, 0.98606, 0.971473, 1.00932, 1.00516, 0.928895, 0.9147, 0.99815, 0.895938, 0.971927, 0.911781, 0.914917, 1.08934, 0.982911, 0.983855, 0.919249, 0.912972, 0.91287, 0.915532, 0.92841, 0.919013, 0.920865, 0.923102, 0.924667, 0.922753, 0.925721, 0.926632, 0.926581, 1.09125, 0.942889, 0.938653, 0.942433, 0.935872, 0.948045, 0.948166, 0.955796, 0.963701, 0.994029, 0.962742, 0.964979, 0.967361, 0.973784, 0.976031, 0.979838, 0.978014, 0.984467, 0.983228, 0.984847, 0.998012, 1.00599, 1.0076, 1.0318, 1.0523, 1.05276, 1.0107, 1.01355, 1.09066, 1.03236, 1.03869, 1.04475, 1.04778
1.05515, 1.09248, 1.07195, 1.054, 1.05515, 0.921872, 0.922266, 0.952616, 0.919401, 0.918465, 0.918064, 0.908481, 0.884339, 0.881731, 0.877608, 0.877388, 0.870405, 0.869752, 0.866204, 0.856459, 0.853542, 0.859509, 0.899066, 0.887331, 0.881204, 0.87458, 0.873127, 0.873393, 0.875417, 0.873341, 0.8705, 0.872983, 0.874179, 0.880955, 0.87797, 0.876275, 0.877394, 0.87866, 0.877248, 0.87362, 0.87306, 0.874081, 0.88614, 0.88761, 0.890815, 0.852379, 0.851469, 0.849241, 0.852932, 0.899526, 0.874611, 0.928716, 0.918466, 0.995208, 1.00048, 0.991652, 0.997563, 0.997762, 1.00901, 1.03958, 1.04963, 1.07909, 1.06619, 1.04967, 1.06762, 1.09392, 1.10432, 1.12305, 1.11595, 1.12304, 1.08809, 1.07045, 1.07592, 1.07452, 1.09564, 1.07744, 1.08226, 1.19468, 1.12468, 1.14034, 1.11953, 1.10951, 1.11273, 1.22943, 1.12285, 1.10952, 1.06812, 1.12628, 0.995281, 0.978377, 0.970283, 0.944278, 0.995057, 0.922184, 0.95228, 0.925098, 0.887988, 0.884359, 0.915898, 0.980457, 0.917533, 0.926572, 1.10463, 1.06462, 0.924989, 0.918223, 0.914213, 0.912445, 1.00843, 0.920758, 0.922405, 0.921918, 0.923365, 0.924451, 0.92684, 0.927696, 0.92694, 0.925209, 0.935236, 0.938649, 0.940791, 0.937435, 0.94598, 0.946696, 0.945835, 0.956172, 1.08786, 0.959003, 0.961449, 0.96544, 0.971739, 0.974202, 0.97671, 0.979484, 0.982081, 0.987134, 0.985403, 0.990704, 0.999504, 1.02124, 1.03368, 1.19935, 0.991637, 0.99779, 1.07837, 1.08103, 1.0267, 1.03573, 1.037, 1.04684
1.08089, 1.08181, 1.06409, 1.05695, 1.08392, 1.02182, 1.15663, 0.938797, 0.937732, 0.952491, 1.1862, 1.18918, 0.896393, 0.883726, 0.882162, 0.882907, 0.871717, 0.866467, 0.86626, 0.856012, 0.854577, 0.853833, 0.886107, 0.885999, 0.881418, 0.877437, 0.876503, 0.875431, 0.876607, 0.869698, 0.8691, 0.867466, 0.873317, 0.878682, 0.874832, 0.874354, 0.873922, 0.873675, 0.876283, 0.875131, 0.873708, 0.874068, 0.874591, 1.00843, 0.89542, 0.835717, 0.854077, 0.856149, 0.850029, 0.83807, 0.875253, 0.861391, 0.876859, 0.949839, 0.967213, 0.97891, 0.956147, 0.973386, 0.990098, 1.00885, 1.02545, 1.01396, 1.04014, 1.02536, 1.02846, 1.07061, 1.0725, 1.04752, 1.03761, 1.0597, 1.05636, 1.06347, 1.05504, 1.04683, 1.0774, 1.05091, 1.08004, 1.08032, 1.15784, 1.16763, 1.12586, 1.25411, 1.09438, 1.11111, 1.13714, 1.11862, 1.05618, 1.0838, 1.02351, 0.963872, 0.960549, 0.940466, 0.919855, 0.921198, 0.949941, 0.936516, 0.907995, 0.905653, 0.895339, 0.927981, 0.92856, 0.921447, 0.942413, 0.932462, 0.923909, 0.916024, 0.912467, 0.911435, 0.915883, 0.917638, 0.918931, 0.922732, 0.923499, 0.923758, 0.924664, 0.927393, 0.927233, 0.92518, 0.960246, 0.939225, 0.93957, 0.940953, 0.943403, 0.943717, 0.946165, 0.947605, 1.2295, 0.961957, 0.959756, 0.963382, 0.967131, 0.971174, 0.973257, 0.977545, 0.980889, 0.983263, 0.983751, 0.989148, 0.991573, 0.993135, 0.995032, 0.991051, 0.988604, 0.998488, 1.00143, 1.07861, 1.11778, 1.10969, 1.03874, 1.04006
0.999987, 1.03736, 1.08183, 1.0596, 1.05731, 1.0479, 1.13272, 1.07521, 0.946611, 0.932814, 0.922529, 0.891233, 0.893785, 0.89283, 0.884142, 0.88002, 0.878915, 0.864155, 0.857169, 0.8581, 0.858905, 0.863663, 0.947509, 0.895115, 0.883726, 0.876204, 0.875252, 0.876246, 0.873493, 0.874821, 0.866039, 0.867255, 0.872858, 0.880166, 0.874993, 0.873999, 0.87076, 0.869912, 0.867438, 0.866178, 0.871517, 0.87109, 0.869431, 0.866446, 0.872166, 0.860428, 0.867068, 0.835972, 0.838896, 0.84026, 0.825846, 0.843764, 0.859585, 0.871211, 0.888166, 0.927622, 0.928189, 0.935242, 0.935555, 0.936508, 0.981456, 0.964451, 0.980366, 0.983741, 0.984634, 1.04028, 1.03266, 1.01558, 1.01287, 1.02585, 1.02249, 1.03975, 1.03422, 1.01023, 1.01876, 1.04212, 1.07209, 1.04548, 1.07268, 1.05622, 1.07399, 1.06851, 1.08584, 1.14081, 1.20806, 1.05418, 1.07258, 1.09501, 0.966537, 0.964084, 0.959584, 0.949306, 0.930163, 0.919852, 0.922127, 0.923119, 0.914473, 0.928775, 0.928569, 0.920888, 0.913812, 0.922913, 0.941575, 0.942092, 0.917991, 0.912808, 0.910002, 0.907545, 0.913776, 0.914594, 0.918544, 0.920635, 0.921817, 0.922891, 0.920191, 0.921873, 0.925077, 0.925758, 0.927393, 0.933253, 0.934557, 0.936895, 0.941952, 0.945422, 0.946426, 0.944604, 0.959498, 1.19103, 1.22919, 0.960017, 0.958034, 0.965969, 0.968715, 0.972376, 0.978823, 0.98159, 0.981902, 0.986658, 0.988504, 0.988392, 0.987979, 0.984881, 0.987077, 0.995502, 0.998713, 1.01082, 1.01179, 1.11583, 1.03249, 1.03196
0.997697, 0.995961, 1.08809, 1.02255, 1.01519, 1.04356, 1.0581, 1.03686, 1.00435, 1.05777, 1.03165, 0.896154, 0.896511, 0.894669, 0.893526, 0.887438, 0.873517, 0.872077, 0.85755, 0.85752, 0.859257, 0.866884, 0.867458, 0.894939, 0.882412, 0.873819, 0.874274, 0.872498, 0.870553, 0.869467, 0.867941, 0.866445, 0.867144, 0.867712, 0.871628, 0.868756, 0.868289, 0.867135, 0.864772, 0.86652, 0.869499, 0.869375, 0.869784, 0.868482, 0.868447, 0.867104, 0.827605, 0.86984, 0.835568, 0.862925, 0.836793, 0.812593, 0.849734, 0.859794, 0.95258, 0.884771, 0.906518, 0.938327, 0.891161, 0.866585, 0.920217, 0.927966, 0.918597, 0.942643, 0.960638, 0.978182, 0.963563, 0.957403, 1.01183, 0.981964, 1.02407, 1.00285, 1.05578, 1.02349, 0.981253, 0.984363, 1.0327, 1.0047, 1.04701, 1.03054, 1.11927, 1.07103, 1.07743, 1.10221, 1.10291, 1.16808, 1.07545, 0.983131, 0.984273, 0.938479, 0.935433, 0.928681, 0.934842, 0.934336, 0.978739, 0.917184, 0.924902, 0.928212, 0.939436, 0.926227, 0.921801, 0.922012, 0.939072, 0.93862, 0.983748, 0.998763, 0.905926, 0.90639, 0.91464, 0.912004, 0.912924, 0.9207, 0.921885, 0.919389, 0.919453, 0.921737, 0.925067, 0.927062, 0.926836, 0.931825, 0.936762, 0.93624, 0.94307, 0.94213, 0.944538, 0.959978, 1.17184, 1.23297, 1.24663, 0.956316, 0.957148, 0.963888, 0.965921, 0.970955, 0.974831, 0.976811, 0.986721, 0.987697, 0.987303, 0.988452, 0.982593, 0.978623, 0.984999, 0.987873, 0.995155, 1.0087, 1.01409, 1.01486, 1.0204, 1.02329
1.01266, 0.99247, 1.07761, 1.05568, 1.01564, 1.05031, 1.03912, 1.11583, 1.01285, 1.00223, 1.07828, 0.897373, 0.897254, 0.894441, 0.894263, 0.887637, 0.870546, 0.86903, 0.862735, 0.863435, 0.863323, 0.865541, 0.885046, 0.884264, 0.883682, 0.881789, 0.875241, 0.871685, 0.870009, 0.869108, 0.869308, 0.869469, 0.86299, 0.862461, 0.870714, 0.872649, 0.872208, 0.860598, 0.857076, 0.854973, 0.866166, 0.869369, 0.869438, 0.873358, 0.866699, 0.863996, 0.832873, 0.826916, 0.858744, 0.877216, 0.813898, 0.868013, 0.876367, 0.835485, 0.836086, 0.877608, 0.887549, 0.863945, 0.860354, 0.886399, 0.879122, 0.873334, 0.905927, 0.89709, 0.936555, 0.937566, 0.929802, 0.937435, 0.966366, 0.932333, 0.98444, 0.986392, 1.04292, 1.01933, 1.06609, 0.990232, 1.00137, 1.01123, 1.02372, 1.02058, 1.04615, 1.14759, 1.07747, 1.10085, 1.09967, 1.13581, 1.14696, 1.09666, 0.965322, 0.964574, 0.944489, 0.925612, 0.92763, 0.942344, 0.96763, 0.93287, 0.927823, 0.911591, 0.911507, 0.926834, 0.917933, 0.921781, 0.938561, 0.938924, 0.912253, 0.911386, 0.905576, 0.904729, 0.907862, 0.910098, 0.917487, 0.921346, 0.921519, 0.918927, 0.919004, 0.918803, 0.923726, 0.929142, 0.929551, 0.928437, 0.929715, 0.930272, 0.935654, 0.937251, 0.940514, 0.941811, 0.941791, 1.23428, 1.22291, 0.949085, 0.953144, 0.96298, 0.964449, 0.969789, 0.969818, 0.9741, 0.977531, 0.98479, 0.985168, 1.26175, 0.978739, 0.980021, 0.979613, 0.983572, 1.0009, 1.00485, 1.08962, 1.01256, 1.0181, 1.02628
0.997665, 0.996455, 1.03978, 1.06766, 1.05658, 1.02776, 1.02715, 1.01778, 1.09412, 1.0186, 0.936786, 0.894455, 0.895, 0.891517, 0.893456, 0.880964, 0.883464, 0.874757, 0.858958, 0.864212, 0.863831, 0.86635, 0.866079, 0.891504, 0.891928, 0.871574, 0.870607, 0.867895, 0.866831, 0.870497, 0.872381, 0.873392, 0.873014, 0.863983, 0.864889, 0.863733, 0.867826, 0.856749, 0.855956, 0.855881, 0.98015, 0.871338, 0.870491, 0.869622, 0.873673, 0.865548, 0.859269, 0.8592, 0.860798, 0.848673, 0.875197, 0.874428, 0.87307, 0.840422, 0.863366, 0.795777, 0.832341, 0.856068, 0.837189, 0.873709, 0.882762, 0.90178, 0.87838, 0.88282, 0.905628, 0.86786, 0.867707, 0.888442, 0.907726, 0.921716, 0.978887, 0.926392, 0.950455, 0.944007, 0.949068, 0.938109, 0.94187, 1.06497, 1.06831, 1.02013, 1.01496, 1.06996, 1.15508, 1.16982, 1.17742, 1.07604, 1.06054, 0.986945, 0.987993, 0.934992, 0.919641, 0.918729, 0.928496, 0.938611, 1.01235, 1.02576, 0.921877, 0.907667, 0.907342, 0.908889, 0.912633, 0.919807, 0.938719, 0.939644, 0.909176, 0.909491, 0.904741, 0.905164, 0.905379, 0.907111, 0.908456, 0.967117, 0.918924, 0.921503, 0.919448, 0.918307, 0.921561, 0.923086, 0.926146, 0.921636, 0.924506, 0.924853, 0.930782, 0.930775, 0.936256, 0.939898, 0.938651, 1.20634, 1.25354, 0.998226, 0.952736, 0.959461, 0.961011, 0.967456, 0.97004, 0.972467, 0.976465, 0.979932, 0.983485, 0.998597, 0.976576, 0.978953, 0.979676, 1.00482, 0.995964, 0.99958, 1.00248, 1.01168, 1.01561, 1.10566
1.00145, 1.00266, 1.0021, 1.02907, 1.05718, 1.05473, 1.03849, 1.01328, 1.07218, 1.10538, 1.00553, 0.896105, 0.89671, 0.890201, 0.88656, 0.880292, 0.881367, 0.883552, 0.880122, 0.8666, 0.86283, 0.86275, 0.862155, 0.892811, 0.983035, 0.864408, 0.863115, 0.864737, 0.863116, 0.863751, 0.873389, 0.872534, 0.872096, 0.878363, 0.913496, 0.866669, 0.868306, 0.852203, 0.851981, 0.852665, 0.863261, 0.863066, 0.867466, 0.868699, 0.876965, 0.862451, 0.859204, 0.858875, 0.84875, 0.846535, 0.851548, 0.858717, 0.857654, 0.888509, 0.889769, 0.803261, 0.825811, 0.821771, 0.824235, 0.797408, 0.820757, 0.835454, 0.838689, 0.837152, 0.873709, 0.862962, 0.863107, 0.890717, 0.890562, 0.96927, 0.899213, 0.971767, 0.923883, 0.934049, 0.940241, 0.935875, 0.940154, 0.994061, 1.00943, 1.00218, 1.01333, 1.12233, 1.16393, 1.14342, 1.11118, 1.05366, 1.04013, 0.988904, 1.0563, 0.924129, 0.931785, 0.935267, 0.938987, 0.933886, 0.93927, 0.942549, 1.01624, 0.90823, 0.909766, 0.908763, 0.909741, 0.918194, 0.984838, 1.00816, 1.1531, 0.908407, 0.904012, 0.904137, 0.902287, 0.905268, 0.907434, 0.912103, 0.913585, 0.915319, 0.91776, 0.916886, 0.916099, 0.920054, 0.920791, 0.918139, 0.918979, 0.918541, 0.925272, 0.92823, 0.9356, 0.935219, 0.936855, 0.939808, 1.26767, 0.948345, 0.950419, 0.956305, 0.960605, 0.964919, 0.968057, 0.970763, 0.973644, 0.979342, 0.98212, 1.44807, 1.00218, 1.01807, 1.01313, 1.03214, 0.996656, 0.996279, 0.997944, 1.00609, 1.00764, 1.0149
