1.22912144603114,1.19673319514294,1.2377939873922,1.17515132338744,1.17638532225851,1.17563824590999,1.21335221443324,1.28384880874601,1.31887874892551,1.32000098593599,1.16281870558224,1.14825159246088,1.14887729811597,1.2225242242175,1.25641435163623,1.2695648850958,1.17568758597378,1.43589085380793,1.2343895562679,1.18879042215979,1.30165437100945,1.32484416062844,1.21043037483106,1.12702539818468,1.12589782786201,1.12084706685512,1.12077331078939,1.13748294964707,1.1895997371198,1.31090298628694,1.10388246856045,1.1036034152799,1.12061875386362,1.16541968467046,1.17597132052629,1.18137781452686,1.15714214359081,1.18889471557301,1.17955802118754,1.15035888841948,1.16555471521866,1.16890476508578,1.19398706689454,1.16707969495523,1.1711886728715,1.17131508955825,1.17098500517957,1.17499078970396,1.09426944276314,1.19768004376744,1.08391848924054,1.10828595007915,1.07307572997716,1.06287234347944,1.06615477221885,1.06400149065406,1.09670838511177,1.18242288895993,1.05803776360971,1.10594510404418,1.05617272643415,1.04659490931643,1.0442665393271,1.04261254187253,1.05928789962209,1.07313506511141,1.07446177776394,1.05629601864965,1.05559892592483,1.0654976575127,1.06544369313127,1.04447035332715,1.05478547544318,1.05579790336483,1.05557805068871,1.07888691717329,1.05749545317315,1.05653468732533,1.07135583339334,1.09036699872532,1.07606328249941,1.03632778093141,1.03700977606,1.03634393370784,1.03555944987275,1.06592219879285,1.05104473805164,1.07284049663156,1.00825182529128,1.06520975391485,1.01370168432673,1.05913528168826,1.04679380412816,1.04698129831669,1.04694418995172,1.03442615123399,1.03427075964782,1.02656968441308,1.04889816028434,1.03687182617863,1.03763798935971,1.02480325653862,1.02417054742585,1.06096595096566,1.03355882067505,1.03349441122418,1.04671350020462,1.06756360728554,1.06911986819328,1.11570023997249,1.07447425518276,1.04605922059431,1.04699868795574,1.0478431244242,1.05385226827346,1.04572178590153,1.04524399341236,1.04645777094241,1.03656161803072,1.06072885781851,1.05732291634521,1.05601035195567,1.06408817598577,1.0644680274326,1.05949912743538,1.05779232979818,1.05905992884168,1.05329290740433,1.05251580067187,1.0516817035657,1.05160354505155,1.05077395291794,1.05115458822255,1.05430798969971,1.05440746994927,1.05514413306749,1.05375142580721,1.05318623168322,1.05259668097407,1.05035666330013,1.04927169196155,1.04978595801368,1.04929727746851,1.12288009593142,1.07179316544967,1.06683053249722,1.06620700033358,1.06706034187086,1.06788587070985,1.07244827263349,1.41296806980463,1.07638160495982,1.07648841335306,1.07672374440943,1.07696118598067,1.07804797869048,1.07853854999142,1.07864740406031,1.08763378809998,1.09284253039471,1.09267599581365,1.35054238569877,1.09892279823151,1.09940392260188,1.10258445961543,1.21670936293712,1.10814600309909,1.25219913307932,1.2888084929112,1.2483497284561,1.13458695308239,1.13466814299586
1.45209787179518,1.18035209195596,1.18148074852578,1.18300454487009,1.18707984262939,1.36613060681733,1.23229715074879,1.17948595400307,1.17882052036943,1.32759913773679,1.16461817939011,1.14942926015699,1.1497068883256,1.15801845919535,1.24918600242141,1.62617089092944,1.18427431262798,1.18433354437953,1.22486355175388,1.22570530033382,1.30116904249076,1.34751216854485,1.39873573188497,1.59343835656664,1.14975338001595,1.16415858151282,1.125063836161,1.1356629009699,1.1784535621788,1.15679107241389,1.1247449669129,1.16692584329746,1.17905079045836,1.19288862815511,1.17856521695099,1.17774983136895,1.20161043554562,1.1878005347402,1.18810628696099,1.16062143623937,1.16488108070995,1.25443786764351,1.25461986909899,1.17012388366612,1.17153506619951,1.18350620873028,1.27908044731927,1.1811836509795,1.17247668766778,1.18591872232004,1.077230684018,1.07785599383228,1.21281333776582,1.06803669466485,1.06736494285528,1.06732872539784,1.06807322602166,1.06840463631032,1.06164658129955,1.06181944010413,1.06207572326796,1.04771723541818,1.06368428234606,1.07368832935693,1.06771537661967,1.07403114333708,1.05604770478666,1.05582955418565,1.05616190035208,1.06226102416947,1.06234608987575,1.0487274761076,1.04755224888911,1.04062807404291,1.05595699896351,1.05782077022309,1.05979656264948,1.0766212218783,1.07078502116315,1.0656483671108,1.06556423523107,1.06709062360076,1.02447631918083,1.024171149116,1.02649189917117,1.02373690129081,1.0336735939649,1.05705108888171,1.05058169133675,1.04899806342615,1.04126075279986,1.03997282451647,1.03822421954422,1.05733508488999,1.05725188542306,1.05820647909396,1.03058001802003,1.02993454784856,1.08004925710238,1.04484808370606,1.05926979688665,1.06724125964403,1.06513996099609,1.03103946179518,1.03183572846621,1.03161611123555,1.04562459949374,1.06903033067029,1.05123241035414,1.07556659082904,1.04957888597518,1.05277750173278,1.05376399808015,1.05616247385933,1.05744907593976,1.06795126423513,1.0682166979828,1.05029028631358,1.05320924199732,1.04462846665584,1.04757695552186,1.05328377311117,1.05287971042739,1.20651741451167,1.06068168032959,1.05887330746152,1.0599594387834,1.06169761876112,1.05068073297121,1.05045799251691,1.05108836807402,1.0494786972464,1.04931566923388,1.05097600282288,1.05261106168872,1.05420170723498,1.05330343754582,1.05258052707076,1.05226979708822,1.05183831051292,1.04976037912267,1.04915132797842,1.04826493030494,1.08654925944106,1.09001071512989,1.09102040162674,1.06398764191389,1.06495372850189,1.06607372645993,1.06644980206962,1.07032025582266,1.07072824654737,1.07238419099925,1.07384247099902,1.0749861791619,1.07518689006286,1.07739720004524,1.07821122927357,1.12573771847335,1.08949138012049,1.09128620966519,1.09576498610091,1.09822855656739,1.09854864360938,1.09940714857999,1.09977787208346,1.10421211677838,1.10446397812086,1.2076913045346,1.39660635260021,1.13698484328593,1.13617144544218
1.26046253327227,1.18173231096817,1.18254889953698,1.18417325124373,1.18672210014026,1.186269971313,1.18477362611877,1.18063494613091,1.17970566723558,1.27424058367618,1.26341748995288,1.24762277660105,1.24670345970831,1.24744706720941,1.24919047899159,1.23388432904111,1.21189898512368,1.20389487475764,1.22597455245917,1.22632355439121,1.26775328358399,1.26976616078619,1.24871757373059,1.21429375488083,1.14441244632367,1.1386443428809,1.13651945792713,1.13647659544178,1.14084593691255,1.14743944068018,1.14177426048057,1.17204937012164,1.17399116043623,1.18539955696099,1.18087791739243,1.17929192436078,1.17736498917847,1.17206284543869,1.1659850460939,1.16261666069062,1.16383807285773,1.19832699718098,1.21793334643848,1.17138121891728,1.17269170771862,1.17432128616479,1.17615630059732,1.17947236239871,1.18191630268112,1.18374350225199,1.19521243420968,1.20124586641717,1.20426682611651,1.07326863295718,1.06790954724495,1.06775287444264,1.06743842175201,1.06660622351685,1.06435896548998,1.06297359528278,1.06255068542504,1.0627912870358,1.06341113218455,1.06204588405947,1.06032980276955,1.05834783873475,1.05689655133034,1.05572650800394,1.05602151198335,1.06114837993796,1.0615890918516,1.04858818653391,1.04906939670532,1.05223771579221,1.05483803721427,1.05683251857711,1.05778722625162,1.06504321085625,1.06818484669702,1.06648869396455,1.06427974047746,1.06228214906861,1.04544523662338,1.04512404752384,1.04683029456844,1.04787074167537,1.04853833142692,1.05657852277494,1.05424467542573,1.04717216766608,1.04507185324539,1.04658990535893,1.04808035510019,1.05632216852598,1.05610351078543,1.04782719221461,1.04234279819134,1.03681087696458,1.07593858874514,1.07304534284866,1.06895986850867,1.06701674466827,1.0648099887593,1.06355882605607,1.06211335877487,1.06014377675733,1.05739808718338,1.05528209355204,1.05267155883296,1.05324500742006,1.05196852136147,1.05248077743017,1.05347472043941,1.05592910213093,1.05941434133633,1.06414923597445,1.06498677224099,1.05781985596686,1.05615285774503,1.05477711011641,1.05116438491779,1.05231031688543,1.05259016581956,1.05231233646603,1.05137777368163,1.05025844095393,1.04954049035623,1.04935010189165,1.0493849700813,1.04968641496867,1.05015749280039,1.04971270673475,1.04891471122963,1.04934520323842,1.05069082879574,1.05224067663788,1.05262067393945,1.05248068168855,1.05226861830799,1.05183118695796,1.05028219639435,1.04904163106308,1.04789159810066,1.08986115738492,1.0912770012928,1.09201240907059,1.06337754469282,1.06421085628461,1.06530029918048,1.06656507458965,1.06874782345136,1.07047116989033,1.0719937306477,1.07299015410914,1.07382200654686,1.07451435151991,1.07618784781359,1.07726547480102,1.08249744336409,1.09022636728611,1.0936853769213,1.09550885054441,1.09746200223647,1.09852857044398,1.09916959684276,1.10020942971811,1.10247757549715,1.10347701970809,1.18429427507075,1.19322887737337,1.14422809763524,1.13638596865582
1.29192017007862,1.18147689422818,1.18150672327467,1.18201308733412,1.18496457772369,1.18323179783154,1.18339376469364,1.17716268875929,1.17797970951311,1.32902250629304,1.32935617127125,1.25015821360581,1.40403191502446,1.33287026518552,1.2510072531375,1.17285646531615,1.22313286569755,1.19381306616945,1.23163903701126,1.18555542919043,1.26396794240002,1.26993260407401,1.15439204325549,1.13765453223478,1.14191083927865,1.13697742919169,1.13636342541197,1.13716250281251,1.13752410475701,1.15674644787345,1.13484462380472,1.18909065655777,1.11566356351529,1.18755162868074,1.18840404690085,1.19057267349752,1.16098937760496,1.17128612114429,1.15607645793564,1.14618397492929,1.06835277409733,1.16306508075149,1.27480353288737,1.17038830080841,1.17229175782773,1.17246020058307,1.17361347331762,1.17485560449361,1.27053559055901,1.06794424318112,1.26947966027088,1.36443801538239,1.30709919559546,1.08491092793855,1.06822271824098,1.06837012228723,1.09204112377404,1.09123180009725,1.09725171201311,1.10916144220341,1.10820156688006,1.07589080434478,1.06510826795906,1.05622753179198,1.05637539374672,1.05748352557312,1.05766673012767,1.05420415725209,1.05380462368498,1.09498901400811,1.06037555532703,1.04884052694525,1.04997779003515,1.07486222348839,1.06542908240948,1.05794926209596,1.0577538779182,1.05574612126881,1.08837731097309,1.07566470481155,1.06287905541225,1.05294657832259,1.04589015964974,1.04215488209384,1.0458585486794,1.04718720286412,1.07770750203382,1.09758331985533,1.13221665600141,1.03209186980409,1.03353855464063,1.05888866228735,1.05895954118549,1.05665096957814,1.05661590608027,1.04281979138741,1.05659355903608,1.03030987411784,1.09420797104179,1.11028217078937,1.06686777446666,1.06604409632672,1.06292730064017,1.06456515808201,1.06487590553254,1.0911813896753,1.05633192149753,1.0399411637672,1.05089573421145,1.05531921151161,1.05329682598924,1.05250696443443,1.06619187073814,1.06670996530173,1.06386091503711,1.06319875704354,1.06276344812813,1.05975793618171,1.05827896726889,1.05663283322334,1.05005082522888,1.04310916692586,1.08377549143104,1.0456744795029,1.04693016693167,1.04531166708791,1.04466763309379,1.04441477106361,1.04769301018981,1.04889810881514,1.05008277560402,1.0512899342429,1.04681054946817,1.04660016617162,1.04849119677473,1.05125497049731,1.05276415564722,1.05218287659108,1.05280591071501,1.05263382883467,1.05055965098064,1.04867506086923,1.04625961365471,1.19604336665749,1.13618763930252,1.19457828414437,1.06161558781385,1.06327432939438,1.06417318803202,1.06575172001912,1.06795318271447,1.07060117272258,1.07173902657611,1.07232836349167,1.07252329124199,1.07275112785912,1.0758066632374,1.0776448817981,1.07912902465267,1.09017346089142,1.10917342278464,1.09473115707566,1.14084365603035,1.09865323538922,1.09808744979253,1.09854216969564,1.10171060432004,1.10303355241452,1.17233463623467,1.22070462594979,1.16231978687972,1.13626652393771
1.32262790964525,1.25479850398283,1.25534193804616,1.27594924440043,1.30953287549027,1.40823469086635,1.4079155550884,1.19378683428229,1.19398179015923,1.18074834463684,1.17984392073006,1.19257326336751,1.34260241009794,1.19356816096804,1.25170593880744,1.26107913647558,1.17628698237662,1.2248711280751,1.22969697795597,1.18841281444945,1.24806790559923,1.28926338130118,1.37080655116079,1.37735227208694,1.14464832588114,1.13723407871974,1.13763243475421,1.13814661405198,1.13904894183289,1.16472983036675,1.13415800732778,1.13356457226335,1.0912750563766,1.21612497983139,1.2031851404545,1.21963793322292,1.16274697494185,1.16369875836891,1.16649212816519,1.18146374884335,1.15894977078523,1.22503890675305,1.17210113655314,1.17109605277016,1.17225302615458,1.1255549185809,1.18030645653155,1.16247350247657,1.20806477543061,1.07110671966544,1.2989004627753,1.06025499907358,1.05260601518411,1.05289540780326,1.05326062703214,1.05341563104133,1.09694929703319,1.36528431109986,1.10152150852908,1.07586049264053,1.07650868184641,1.11720915342773,1.1187682743422,1.05835490237172,1.05632271545871,1.05110814426627,1.05269039928903,1.05292596087733,1.05073836300598,1.05044962975527,1.0532571730797,1.04788661638154,1.07156262566343,1.07230932558431,1.07471341309909,1.07667199030746,1.08579427199996,1.05519382002855,1.06214342833702,1.06062258201968,1.06069349126373,1.07537971877814,1.07595981445787,1.09542976887493,1.09462456187258,1.09384458682015,1.0929565307796,1.09950880660419,1.09020570410713,1.06074620349615,1.05090677366412,1.05008594712054,1.04872647972209,1.05876929276442,1.05755311545488,1.05541900187472,1.08041040688433,1.1395326913559,1.09259423455264,1.07447544635961,1.09316285618173,1.07399561644125,1.03888981388324,1.05469137200279,1.06586120780928,1.09350488231148,1.06183915623354,1.11592765808697,1.0552791519245,1.05679568150251,1.05795173275813,1.10019461223156,1.10271560898935,1.0786365778848,1.08093034724551,1.08312009254184,1.04103705125838,1.07434195278843,1.02756985627604,1.03107936954913,1.03190477126891,1.03090064286194,1.03026332762233,1.05147778477013,1.04923515352534,1.04952715655068,1.04415074465466,1.04351215843598,1.04188660290445,1.04809010028071,1.04752370675048,1.04692133510944,1.04541387849586,1.04431215101924,1.04522900974302,1.04454836284273,1.04900794464032,1.05013519840903,1.05338489184874,1.05322138332585,1.05315970776033,1.04727622674047,1.04771431835197,1.08239267002049,1.08286641001243,1.08361739685447,1.06036783371201,1.06086606640672,1.06355561383507,1.06448035013649,1.06601557453042,1.07008950027897,1.07113995014009,1.07134220269369,1.07102422746998,1.07192097315162,1.07396608505275,1.07552481306636,1.07793220330932,1.08400349099535,1.26206353343036,1.14658514130799,1.09092588852724,1.0964903306862,1.09601649632507,1.09565080028948,1.09542602367627,1.09717887252349,1.09707611691562,1.13454926939242,1.12496035069121,1.14125678580591
1.27998133745164,1.25508919573992,1.2370129774047,1.25669567828201,1.33511902832613,1.4101141035745,1.32670927279377,1.19315006223338,1.34765921198528,1.34668248359451,1.18227490507206,1.18212714777166,1.33835324327967,1.24633833373271,1.25011812509999,1.33236073519117,1.24333598621359,1.18916397018908,1.23305278325348,1.23285662781269,1.27889176753637,1.33880343516176,1.27544043591925,1.16653211626317,1.16289273330327,1.15723361997331,1.15572257826785,1.14141077981867,1.17041510330168,1.16023420420527,1.14109615087292,1.12446935142408,1.12236098741542,1.15161737070315,1.18172362602333,1.19249395032599,1.21276456709586,1.11811117170911,1.21643679260857,1.12255182753065,1.1571692576948,1.22501464228245,1.17861934670428,1.16802912570246,1.17147751564762,1.28215623175481,1.17634468925359,1.16790038554369,1.22719212607845,1.07191182977085,1.06555131749058,1.03790768305258,1.34884069430988,1.05285295495144,1.05381076007271,1.05246168621215,1.11462343144498,1.07532677186521,1.07545128149115,1.07648730899183,1.07698525190578,1.07757523709235,1.05664400355215,1.05263744730677,1.05398616908028,1.0530645811457,1.05427876071359,1.055233558421,1.05786565313231,1.05613340720191,1.05457918604745,1.05440490563773,1.0518947105716,1.08182260353762,1.08267171265009,1.08278267772449,1.0520526046783,1.05318428702712,1.07989853515555,1.07878091361254,1.07719802181897,1.06448354123961,1.09034375194022,1.08984728309856,1.09772185592572,1.10247134994907,1.10883984745046,1.10873516848865,1.16323818844029,1.0817439734999,1.08092495986075,1.07013355496294,1.05529865494988,1.08145532993037,1.0949787051141,1.11671005060929,1.16978262642166,1.15962753546163,1.16546212914875,1.17232296044553,1.14088866227074,1.10593432952004,1.08115560122148,1.06984163967278,1.06796440953551,1.06894435667148,1.1117479184926,1.06439143293813,1.07285787911334,1.09563265371484,1.05844668114296,1.09431438505768,1.10287051393956,1.10353277784394,1.08990108406873,1.07838794284817,1.07628533275631,1.08666373023489,1.02998771231269,1.02403332505044,1.02446975593015,1.02690484890775,1.02790376210163,1.0277589786657,1.03269854620903,1.03416955425095,1.03201207302332,1.03827865532725,1.03669201251454,1.04545871509109,1.04463304958358,1.04847102098773,1.04361927001759,1.04260164170627,1.04334098166538,1.04321113161414,1.04418912647994,1.04971975426858,1.05195255040497,1.05216207784279,1.05388648156623,1.05247834298202,1.05135755248778,1.05211197927738,1.06419081820014,1.082780309617,1.05896987982687,1.05893521095289,1.06361281767676,1.06362102735674,1.06346768207731,1.06432926344382,1.06484669407392,1.06566031282555,1.06779617228617,1.25086149011632,1.07243661437632,1.07402102771554,1.07602981263227,1.07741830394673,1.08133390969372,1.08112685647686,1.11327663965931,1.10604396539373,1.09480986904103,1.09389573667447,1.09378688379629,1.09771867100197,1.09616151641424,1.10583362610283,1.11309498973534,1.24090614049361
1.24435467047689,1.24334244934645,1.25445672105263,1.40413212580438,1.33611383008658,1.35257227335031,1.35348125882865,1.23149224248967,1.22024076984084,1.25618528255699,1.19112182422932,1.19405084878499,1.19725356472129,1.33907642798158,1.22264960541023,1.19789464119182,1.19268579382054,1.27660527859011,1.19488636665699,1.19522148870269,1.27277202290026,1.41568864061286,1.40879149642435,1.16705218502619,1.16831809250377,1.16672097360698,1.16577868219941,1.21220384499313,1.37721435073,1.15635182134729,1.19022810053911,1.20942824701682,1.05694140535301,1.09780936705181,1.16578746830992,1.21234818063278,1.17463171712016,1.1749960490031,1.18245699023784,1.25245398205779,1.16060829482612,1.27219312289597,1.27270777823805,1.27372191515979,1.1722341752197,1.17351886803941,1.17566698021894,1.156053285299,1.13469357779085,1.02049759574116,1.02071819361069,1.06500262877136,1.06216818019115,1.06074178674919,1.05720313289458,1.3359642594688,1.11023120268484,1.12486988701469,1.12240076181542,1.1463100320779,1.0773568444315,1.07814651598537,1.08221570624081,1.05313566206066,1.05412695603359,1.05492612280959,1.08214872224817,1.10716211210708,1.11625133831314,1.10320145868096,1.12399888821651,1.14714335774992,1.14614236107031,1.11076450549125,1.09289908816423,1.06163227751509,1.0610620509987,1.0812008173997,1.09001258481431,1.08542074163943,1.06597676855221,1.10298842576323,1.11071204246713,1.13992510341334,1.14289654956418,1.14434806306081,1.14747603697453,1.11999655078673,1.10042419252701,1.13538283776277,1.09434114882511,1.08368659261281,1.06173625337353,1.08235926005426,1.1116015107933,1.15978326809793,1.17225255836938,1.18130526447561,1.19374309394309,1.17055172779036,1.10083632854631,1.08514845369421,1.07088605911811,1.06879466570733,1.08173815864607,1.09037845530981,1.11911862284419,1.06919464097818,1.09194170662171,1.09237541360555,1.07585369775891,1.09417392353092,1.11413530745405,1.12625349449746,1.11938731435503,1.13302506945237,1.08950946444744,1.05078467094679,1.06290453289699,1.02133435267454,1.01844331903565,1.01702339312057,1.02842369719548,1.05138579493132,1.0325033540073,1.03426123719157,1.031840929681,1.03260988915961,1.03471283943018,1.09685410602389,1.04075344646962,1.04855480548704,1.04789674870646,1.04151578979228,1.0422353086,1.04170192594806,1.04242125530899,1.04400549110103,1.05225143109438,1.05226890740135,1.05813557971184,1.05225806886809,1.05039615646744,1.05020081606759,1.05093306608792,1.05243831763475,1.05904679687179,1.05898724216245,1.06406412834982,1.06305097232908,1.06243124916878,1.06285504534833,1.4782693393591,1.06427528305271,1.06552309753076,1.06485357622203,1.19147519063019,1.07417049081795,1.08298811627007,1.07838154826526,1.08248532741914,1.08092017840003,1.09411529453779,1.09552913422373,1.09557969356626,1.09510945969819,1.0946058893145,1.09079241109049,1.0930774469035,1.09347794114052,1.10330960422975,1.18586903630564
1.26154151922531,1.25995131447338,1.25672356254067,1.32456079431216,1.32814076010294,1.35552792267439,1.35584767822304,1.2327069715274,1.22482628007756,1.2075134483309,1.19397322709576,1.19584488311823,1.1969113015741,1.19774277991187,1.19901750996361,1.19741626807667,1.19570312059064,1.19613372467084,1.1962872689038,1.19634500053718,1.24459895252397,1.32927500836685,1.35179152081032,1.17277974651635,1.17072362971244,1.16831860708431,1.16846741543656,1.18776232527951,1.24600400865485,1.18423329527931,1.18564262684662,1.20635423549056,1.13048310433365,1.14173068803082,1.15010074684482,1.16012921966785,1.17269410858933,1.17290966903804,1.17100126236067,1.1656041770107,1.16332401786744,1.1646357845955,1.16624102962272,1.16943687346611,1.17012962936967,1.17278655655551,1.17446957249511,1.14963412498192,1.1437305205531,1.10102577838328,1.03042388596261,1.03888328605663,1.04687319922918,1.05337249610957,1.05544860025565,1.06060495709469,1.07207306750011,1.08646040389998,1.10045245764042,1.12287446059635,1.11183345313436,1.09866803815719,1.08195687373803,1.08363667302508,1.08554598953919,1.08663156242918,1.08774656519581,1.09919320546328,1.11971708818197,1.12158970623377,1.12421186457469,1.1254539959896,1.12844757439447,1.11353572843603,1.10676454561744,1.10171562112532,1.09172233404144,1.08981719877748,1.09137182709117,1.09368703120824,1.0951083078344,1.11618029001399,1.1288194791302,1.14231112244167,1.14378112320083,1.14516712986292,1.14662449381222,1.11910064162219,1.11802192570652,1.11775723997759,1.11598175771849,1.11318837714021,1.11173549519465,1.11103051533133,1.12447455870873,1.15559894017986,1.17862311766299,1.17861742347469,1.17722502678882,1.16397755451086,1.10179862177286,1.08853173513922,1.07565682794566,1.07883745722005,1.08954699478406,1.09593241309732,1.1052909031806,1.09804650617598,1.09802250075005,1.09785573961669,1.09695195223177,1.0955555239454,1.10311904474086,1.1205102327989,1.11854291887549,1.09890147414812,1.06947691616506,1.0499521513444,1.04751645785175,1.02068428934234,1.01933761568739,1.01779798555046,1.02942091348627,1.03067384697303,1.03154827664285,1.03231184092861,1.03180684680819,1.03241350716985,1.03400750997558,1.03538722433615,1.04460487549665,1.04668844856689,1.04565805506011,1.04330613165658,1.0426009722884,1.04235584055279,1.04279944960634,1.04366799792967,1.05447575284734,1.05497866791203,1.05670059902341,1.05547777859379,1.05062236712932,1.04962595939394,1.05006125154742,1.05179097549263,1.05473455058258,1.06118963044875,1.0619303883486,1.06288188449229,1.06293668473687,1.06373211695475,1.06421893095205,1.06388483250454,1.06406319209905,1.06407505736612,1.06887488793836,1.07290881455816,1.08146208602395,1.07856266962513,1.0793212859069,1.0789349001013,1.09659929934732,1.09680410221597,1.0969188795928,1.096131801233,1.09461357596443,1.09153302568479,1.09145874115808,1.09186933699828,1.09600311564163,1.16470915667869
1.28440869296379,1.26125540325828,1.25446382360303,1.2346960145597,1.32621565379679,1.40477812992455,1.53140397048069,1.2321857502413,1.22873861779076,1.19126126288631,1.191465349298,1.34706620328937,1.19250627835119,1.19305994082118,1.1976733667416,1.19480579591348,1.19443084392087,1.19469887813016,1.19685737280779,1.19685883914064,1.19516572389895,1.31207681638265,1.42653002954012,1.17420362767792,1.17235600558926,1.16721992900763,1.16931330032905,1.16984686493953,1.39585105642225,1.18539004961087,1.10139470648244,1.20935685800758,1.11203404403773,1.19777251572719,1.14273112327989,1.09105713852866,1.17197688279511,1.17362307494429,1.17079185123137,1.10337850659703,1.16255399555893,1.16315205726173,1.16213079801752,1.02893177350073,1.16510505673186,1.17223633542857,1.20427003172956,1.14357244019085,1.17483078230758,1.28004504243811,1.00271994701605,0.995345871743619,0.990821203554197,0.993369276398714,1.01571614999007,1.03297183048377,1.03605835907783,1.03663868444073,1.0791196457154,1.27001701432054,1.23195474299934,1.23047448511537,1.0801245192746,1.08354622395356,1.08687825606576,1.09083240910488,1.08857138481138,1.09017571713495,1.12016904358,1.1219788689186,1.12300907843619,1.12387711204445,1.13065873847989,1.11641976863042,1.11717626902535,1.11632516103774,1.09365025197028,1.08689905467042,1.099381378208,1.09849699275038,1.09541121871038,1.13069707747698,1.15128075898143,1.17753920917297,1.17795357808861,1.17832750915419,1.16855151463241,1.11905380787116,1.11709027437134,1.11966260145101,1.11776937348172,1.129772341958,1.11162160010773,1.11049446991306,1.13962656813483,1.15217453039565,1.18310734851268,1.19136341830838,1.17820681925783,1.1589934760642,1.10260535148163,1.09079319282748,1.07305522927877,1.08265739546213,1.09906548903118,1.13090379423447,1.11906166481632,1.0984779170417,1.12868569358733,1.10362500762468,1.10648597472391,1.08022363128951,1.08377012216121,1.12516023369283,1.11457715507476,1.08840631076167,1.05011360125499,1.05009151439886,1.04079592908344,1.02152728721725,1.02058472200124,1.01706973635196,1.07793436902994,1.03153458496623,1.0315104899376,1.03222706755142,1.03073319584503,1.03082008925942,1.0342787513661,1.02018720791719,1.08316762170949,1.11151416478968,1.04424676864301,1.04322269029078,1.04247305092294,1.04265205384792,1.0429464562431,1.04420066687341,1.15086209614986,1.05619547904997,1.05759558001135,1.05790538847209,1.04417054871951,1.04679607675201,1.04797065332976,1.04846457783413,1.04959454371377,1.09986645833514,1.0588077292664,1.09087491596944,1.0621888864991,1.06399963489119,1.06368480420395,1.06207456146646,1.06190722468244,1.06096123846834,1.06445896521044,1.07195968356697,1.08203604512435,1.07538889070131,1.09246265245493,1.07503682042873,1.09772139512944,1.08247260728185,1.09829333885835,1.09752054882826,1.09646793564874,1.08909302382448,1.08954733440694,1.09099832388217,1.09254225806423,1.28009964216182
1.43309564631597,1.43290758060098,1.22214165729287,1.2567563399751,1.25709058452964,1.27617326188013,1.21657889324133,1.21581705690163,1.21313953946409,1.35657590315952,1.32687433818865,1.19551939704728,1.19485783222807,1.19855190677442,1.19977762429616,1.19986377504018,1.19903764792898,1.19751466459249,1.19941575365838,1.19859549322271,1.27376611794929,1.29631558203573,1.42585056631175,1.18089095479871,1.18204542340864,1.1812139505989,1.18229476243826,1.17590583824224,1.24778569574094,1.19134893114657,1.19152428914262,1.1126344568873,1.11313139424135,1.10643413847703,1.12926810680953,1.18366839407316,1.17163036657878,1.11234197119008,1.03094879927188,1.03061813831654,1.24086064072385,1.03633496444508,1.03657157402061,1.17504018355552,1.16168385445806,1.16037305456279,1.16279133356102,1.18530322349991,1.00347324401253,0.976440147653074,0.995745984573638,0.996021814948878,0.969878156229204,0.980355542435075,0.985001147408842,0.990633782482521,0.998866727172132,1.02170179315776,1.07509700092767,1.07573025445973,1.08835590024514,1.31400607058433,1.23839454326321,1.08545124061449,1.09309343399689,1.10336753637189,1.11227191974928,1.15190875242443,1.11710557280192,1.12066801593572,1.10955109039376,1.11096835377252,1.11933111366901,1.10774893948982,1.12054433821032,1.12475414559895,1.09861236568361,1.09152956163559,1.11449706974114,1.11416342398545,1.1253818325263,1.14354547422902,1.20028000665656,1.18743831825455,1.18724215629957,1.18771318211576,1.2210454127954,1.22046727527086,1.20732629474715,1.13166001911112,1.13430489518218,1.12845728329324,1.12798552929601,1.14046031129861,1.1499398668229,1.16075790707502,1.17653111845484,1.17586888136548,1.17739420235319,1.17823084888684,1.13636582547464,1.09151415318323,1.11210180981235,1.10407832174147,1.10566719439736,1.1221966829441,1.12147569914368,1.12782280511678,1.15142055892999,1.15045181245769,1.1156568947711,1.11727061838839,1.10314843040998,1.10338026197519,1.10676837887979,1.07882031071559,1.09088686785971,1.07764463304097,1.04750073207503,1.02189387530516,1.02091988592091,1.05177015393075,1.05891601870433,1.05894030665872,1.04395096739858,1.03806810593297,1.03081034445702,1.029974378351,1.02789188883977,1.01928077538339,1.01936475547251,1.073758389971,1.04628867369208,1.03963478617409,1.04145396117842,1.04221166365006,1.04320204846394,1.04464777976263,1.04875778570348,1.05641522699738,1.05781887335962,1.04565757999476,1.04538642240854,1.04611074263837,1.04645931846456,1.04649035813937,1.04777104306868,1.04905839292437,1.04989582719596,1.09353211387106,1.05549384157994,1.05480490204819,1.05545573265414,1.05771314787999,1.05952393982672,1.05895543533199,1.17457657614264,1.07221411977117,1.09077608123692,1.06060330964075,1.18192933893528,1.08526028519177,1.09961789622316,1.10070136580106,1.09965098240324,1.09922380378299,1.11268406846018,1.10359892918158,1.10558398611901,1.12778193364379,1.10384721685732,1.11237292087666
1.27767503896893,1.22503088517828,1.33087369227595,1.33368254885125,1.24507862144819,1.23525917843056,1.22612816111505,1.22552346863155,1.29299283068415,1.21803769786894,1.34400740823399,1.26802398338878,1.1991550779132,1.19986040985027,1.20075238553905,1.20085724889093,1.20062249038008,1.19887602362922,1.19956112738729,1.19996157869236,1.23014046369573,1.21033067348819,1.18062183973041,1.18444515309382,1.1849355862215,1.18477129984831,1.18315598077444,1.17945759051773,1.16485011453995,1.16641991955068,1.18161543599486,1.11835493720613,1.10255181809291,1.10235310031711,1.10225548242457,1.10225908432574,1.03765238664051,1.03374013139615,1.03230430920357,1.03055225083126,1.03000908307747,1.09958586140902,1.05967265046472,1.0589359553141,1.02916439774444,0.982759512858698,0.985356972623645,0.98635498200987,1.00582053911655,1.00804560049855,0.998090467437072,0.966558987895443,0.952401987235035,0.961436528627609,0.974149408927753,0.973575236398238,0.981711924425363,1.01314813588323,1.03437364868717,1.04702233451988,1.08706401415827,1.2080370968817,1.08797706546197,1.08684426979365,1.10948579822834,1.12391329989437,1.11946437710922,1.17830702938089,1.17782859455677,1.12123347773554,1.13134486798778,1.1565130952812,1.17814876648056,1.1785673022068,1.1758865529661,1.16963788617853,1.14763548059106,1.15719001132174,1.16858374342751,1.13351825625796,1.1479947034706,1.19318790270133,1.1931851956795,1.20017849889034,1.20106115893527,1.20170338108807,1.22533367807773,1.2193716045491,1.18940391325988,1.15101664601523,1.16374787435921,1.13189215379693,1.1500151592574,1.16443854127406,1.16853922322489,1.17261423586134,1.17838344777678,1.17803501786462,1.17773671665213,1.1770795679769,1.15927031694825,1.12739772728276,1.12978191239396,1.1078078062582,1.10746212763079,1.10890122151356,1.1189446114663,1.1513996992744,1.11919708177779,1.15090855750674,1.18524208965018,1.12852271706519,1.10879037095581,1.13379584844397,1.10734869275202,1.08613978964495,1.09181600980362,1.07583028153031,1.07395114994249,1.11490786353609,1.09094707405149,1.05353868717939,1.08304317332491,1.06917739442303,1.06935505311168,1.07043005541378,1.07520028427521,1.07676655090746,1.07517132576018,1.0559133097083,1.02762069870919,1.02650182756024,1.06372569615343,1.06360588824499,1.06735764731153,1.06860225896818,1.04479698150839,1.04754480888818,1.04900403567017,1.04896148022041,1.04330968273653,1.04409888965352,1.04351407509502,1.24568361631803,1.04571020040896,1.04556002062539,1.04642707612456,1.04429295408035,1.04578262571013,1.04821979910844,1.04919204030868,1.05015303593624,1.16947756364202,1.16840983571173,1.05768175823128,1.05402938590538,1.05237823367484,1.17582326983397,1.05786252324218,1.05913248081908,1.06116656538035,1.06303031418659,1.06402714768663,1.06758668756664,1.08718243093235,1.08448368635644,1.10932874383353,1.10951600143521,1.08572956243116,1.08271925738269,1.09077711659992,1.10016002907249
1.26448614377133,1.23216455467182,1.28549527906139,1.32335389859013,1.23850255048199,1.22706152659909,1.22705019638604,1.2265362345951,1.27616928670601,1.2440039941059,1.40496920042412,1.34533727948429,1.21089701828955,1.27977293593805,1.20786548108157,1.20297710175814,1.20206103743545,1.35781324890585,1.30179404972627,1.23843981545453,1.27793791061614,1.24497432386743,1.1983182240609,1.18367281706866,1.18930206375353,1.19236841332765,1.19923614608161,1.15732445853607,1.15990192840842,1.16746058724588,1.22001306564105,1.10359078482995,1.19033769638628,1.10135215993993,1.10229186682834,1.10167967092114,1.17585205876719,1.19187408959285,1.0296923593308,1.02974947446731,1.03064594488099,1.09069158807075,1.06186976725685,0.990360292169936,0.990057608263885,0.989693845969533,0.99695760832276,0.997021113557119,1.00637723494836,0.987627088679749,0.962267964015473,0.942251853701192,0.934664167951936,0.952554788731151,0.974311136949617,0.974185870301154,0.981163544822621,0.98733172004419,1.00519609652055,1.09139204879185,1.09700598185448,1.09398132170066,1.10012624094997,1.10648005615341,1.12180279195942,1.13796755208468,1.17669755578537,1.17784180398268,1.17706732635915,1.14064268838684,1.19904565984956,1.19950221845863,1.17749824634718,1.17742440515113,1.1812020990599,1.18246208360863,1.15969797294582,1.14314645762786,1.14169341253226,1.17533823412411,1.16987652870139,1.17727057134476,1.26985960416553,1.21568488740596,1.21585592059186,1.21579595330741,1.20356145565026,1.19201943355131,1.17433518194631,1.17683114643684,1.17407374524783,1.19924563147649,1.15964442441748,1.18000946295497,1.17981134219607,1.17954453078817,1.22499135718355,1.22400081906676,1.21862183527513,1.18320632621591,1.17418099907986,1.17601044045108,1.19369586484244,1.13563942896953,1.13652700323748,1.13718276655989,1.16586116849017,1.13890427536584,1.2164911401285,1.15239070615056,1.13473156707429,1.12897166119208,1.10609139148495,1.10635775977946,1.10580377720377,1.10318714026751,1.11579793375444,1.08078405741087,1.07153678725652,1.05260257106502,1.09769726810173,1.07203217752533,1.08092014709341,1.07053263505469,1.07745195963041,1.08268026267523,1.0838616957667,1.08565169630277,1.08013019606696,1.07597234167745,1.04052474432384,1.01608027684058,1.04641024555013,1.06847167421581,1.068741299506,1.09022848068089,1.04434584329872,1.07909934795988,1.04742612886276,1.04776316265472,1.04063450090033,1.03491755899197,1.03780050330578,1.03925407077809,1.03976295146728,1.04032094838221,1.04163313937917,1.04300903074001,1.04375763945809,1.04588473526878,1.04706638166398,1.04607953479287,1.04598773844712,1.04613748187774,1.0493884098358,1.05047355760793,1.05035298417589,1.05843355977428,1.05866138120085,1.05978293035233,1.06161136795206,1.0626941498656,1.06775706959858,1.08790009557039,1.08869937536297,1.06186035557572,1.08409276262992,1.13058277172239,1.1080349376493,1.10605742599183,1.09641318218411,1.10466035757622
1.26330772227692,1.23210514833751,1.23256898338267,1.23287858434496,1.23234175438981,1.23010896100261,1.22800916689359,1.22738423544702,1.24383347585566,1.25213167745749,1.3093158753252,1.2979071695999,1.21471046760654,1.21584890026906,1.2094661996391,1.20738344210278,1.2405478188427,1.24207408216611,1.24697941687857,1.25548660398736,1.26561581037296,1.24933124639021,1.19795850226582,1.19839433574253,1.19686880666002,1.19523476500593,1.19648668008719,1.18051919812416,1.16266565008466,1.16527017800445,1.18305214370999,1.1052132571452,1.10533749347322,1.10382229059014,1.10338276180339,1.10305714601617,1.10363912494557,1.10472158215823,1.03406393778596,1.03570371483025,1.03670032489928,1.04226871519139,1.0272683154858,0.993490184971533,0.989228597428656,0.989018286952299,0.987879056423186,0.988116833962221,0.988987095013349,0.989741741467225,0.96351855541954,0.949794905445331,0.956290640470315,0.963598637286619,0.973929360639051,0.973913972881987,0.985705606925243,0.988436416981428,0.999141671600996,1.06988716516379,1.07731898069211,1.11543492382415,1.12126200895411,1.12890063431731,1.13984205271167,1.15005716712337,1.16094408284411,1.179945406091,1.18082454192815,1.18214798217798,1.18246698306473,1.18045131836465,1.18025884832373,1.18117324425481,1.18219723852867,1.18282367764808,1.16869526912098,1.15963523197177,1.15975059252773,1.183049813815,1.18892313842603,1.19548616368824,1.24029801416619,1.23244794318635,1.22519813113351,1.21990932547061,1.2173124441416,1.20045818675956,1.1858074225033,1.18902503323689,1.19291615158168,1.19647996078055,1.18529875974044,1.1849225477224,1.19862668708469,1.20378593632718,1.22775474045327,1.22741337532798,1.21199418481462,1.19123907678666,1.17402869659447,1.17276430346514,1.17146988602589,1.16657313038769,1.16529208242063,1.1645145280535,1.16481479291216,1.16467013708221,1.16824951672685,1.15564464969164,1.15157138669422,1.14395813012397,1.12184782670282,1.1182994800132,1.11668501058755,1.11642889401282,1.11638345913852,1.10890914977448,1.10472428083078,1.09607945036804,1.09632905315056,1.09029583962656,1.08182163902485,1.08248320087718,1.08305026188444,1.08289834673514,1.08249981839384,1.08221069909892,1.08051175115104,1.07875939984135,1.04538727733892,1.028651830017,1.038868715538,1.05363210050909,1.05681431189078,1.05957624758553,1.06309181959889,1.06896882678606,1.05993414952259,1.05269229650492,1.04628566495051,1.03823155881576,1.03783748167028,1.03819716985118,1.03941218161194,1.04026663712187,1.04131108391135,1.04229120146397,1.04273742513401,1.04381279884199,1.04447825382338,1.04510719124052,1.04594877802317,1.04776739538074,1.04988898992726,1.05019436306607,1.0503280847021,1.05966168618425,1.0591964236015,1.05929577902076,1.0646788818969,1.06930669869844,1.07595250918149,1.08899002513031,1.08876679789236,1.06970566773963,1.07419051348253,1.11897297431738,1.10588505382979,1.10451187304199,1.10515380419859,1.10676686675629
1.2631090071467,1.23037914039737,1.23130500962423,1.2327526879391,1.23285512401825,1.23235720860452,1.22751429084033,1.22776748604451,1.22922789945376,1.27391788720711,1.34508295937787,1.21394352141697,1.21398556762705,1.21222633567811,1.21100102834473,1.20520725894934,1.45965993352871,0.00379437080863155,1.23548242953047,1.32021228542899,1.27312800264013,1.31397918779406,1.1959086966116,1.33357888784778,1.20181354783207,1.19795947595663,1.20498242346643,1.21007806359477,1.14497894691476,1.14456034938129,1.25090711450604,1.08541051966296,1.08396086427286,1.08451247748558,1.08871726624236,1.09058500625281,1.04724964865747,1.1067213997044,1.03172248268726,1.2003294458248,1.08708066995455,1.05283444615562,0.982143871051653,0.99699957819202,0.987499066395724,0.984402257690568,0.97040688730093,0.984847291718748,0.975455403458681,0.992477698749777,0.964262626629552,0.933113812000629,0.97467881246755,0.971871186562088,0.972716907924961,0.972905666418174,0.988612596433684,0.989186060060963,0.994049001086362,1.05336435211354,1.06167382135246,1.26717770755098,1.20064654253297,1.20115007049052,1.15780527065763,1.16430366597052,1.13592279081622,1.18204147909873,1.18235891905557,1.18580799959527,1.18650332583947,1.17583240668217,1.24367245759385,1.18177440033977,1.18258077113024,1.1829135516422,1.1754577060132,1.15995546240856,1.16029319973943,1.18750475215268,1.20000066421377,1.21012702600558,1.24961750177629,1.27708037591558,1.273866503499,1.27264951764882,1.247836474635,1.21367264474993,1.18349713842862,1.20092591180997,1.20030711954944,1.22482693547279,1.1855594257322,1.18445181036817,1.20853259802313,1.2287455524667,1.26978383535074,1.27006065140049,1.20452575950157,1.20716572979772,1.17537196634467,1.1702028866753,1.17127270431589,1.16897119507408,1.16611617197276,1.16362578740136,1.1635846417252,1.16310453211417,1.1732399842599,1.17928596366471,1.1699530500441,1.16045463038159,1.12724061161259,1.17657805430773,1.15225472303054,1.13109563494294,1.16855522638001,1.13520231847231,1.11942264255308,1.09657991103366,1.09610464814647,1.09690228697363,1.08157681290375,1.08190893498434,1.08727671051578,1.09394598259854,1.080941594542,1.08032075848271,1.08100145542689,1.0802295387194,1.0513184413739,1.01826198293579,1.01798304848686,1.04886760638598,1.04888636720886,1.04897326627463,1.08799176613474,1.08578348741764,1.06670222272007,1.07010485645267,1.07104944594452,1.04011184968857,1.03805981540253,1.03641187720521,1.03878105695083,1.03935727573672,1.0405802542378,1.04191078209085,1.04121394113893,1.04231142065264,1.04201796795903,1.04361445901516,1.04434559736227,1.17792535919672,1.05068209044734,1.04899026502338,1.04995865554044,1.10269643002187,1.05854922193145,1.05889490322067,1.08505880002033,1.08450002738082,1.081766824391,1.08774691147825,1.08728604438005,1.06085549444482,1.05910405582935,1.14290925998117,1.10554241718789,1.10017698623184,1.10426177319578,1.12272856701987
1.31514361272648,1.28963654933429,1.23442922200282,1.23290835228856,1.25066639469287,1.2701676812451,1.22963990772234,1.22960488111517,1.33173281461705,1.27518131849481,1.27610767930772,1.21432143335418,1.2145657362896,1.21709296817523,1.2206516964248,1.22161626916733,1.24721318572222,1.37490847694383,1.37420473791771,1.36040782914044,1.2922472806915,1.18954980588815,1.58240011242373,1.33902300780254,1.20926491767142,1.20820786827496,1.21171651232079,1.16102660969272,1.12364034975588,1.12505444721224,1.20636256936502,1.09446706941682,1.10823325813487,1.10510621087604,1.08845755265194,1.09006081158177,1.12462715821995,1.03755785389654,1.02203765800572,1.02497478330715,1.03663941411062,1.0365407058582,0.968955412166613,0.955174950851777,0.980204456978485,0.984301540628159,0.95225247691068,0.952836398371111,0.964499421366393,0.965059157789955,0.944202950229527,0.945484202374342,0.94953346994415,0.951196877432819,0.97204907800424,0.970717931669905,0.997236561242874,0.998357650817755,1.01513993433613,1.03899145318974,1.10296967887339,1.10302620914373,1.18674326496196,1.13296513805494,1.15207934654291,1.1438582982391,1.17640470742045,1.18552348386291,1.18498755417175,1.18402249783124,1.18467257620845,1.18405373872027,1.26763681574309,1.25455584726452,1.22295451434102,1.19984425762104,1.20341577010431,1.19377608292247,1.19461761178185,1.23196781606837,1.21097863902094,1.24127992283967,1.32050361356162,1.2752786724058,1.28260300530063,1.28933465644443,1.25068342833796,1.20296056489646,1.22016975298598,1.22855517453015,1.24005777885376,1.23207045347393,1.21232420407941,1.26241555912263,1.25951013989312,1.25718651737658,1.26972123226867,1.2732820571397,1.3252991738838,1.19653772576923,1.19832960146849,1.18727388535357,1.17868195028244,1.17900248006107,1.18003376405813,1.18016686478725,1.16963220489043,1.1921423555071,1.19501948976152,1.19419750486511,1.17068635055615,1.17209770102069,1.17018593289599,1.2005566777054,1.20293559867373,1.20562351661872,1.15406217005843,1.14498305910112,1.12951867772508,1.11649487569787,1.20376014978087,1.11615206231732,1.10809498015266,1.19439658797697,1.16986136763773,1.19460580135774,1.11260863004577,1.10379234000752,1.0883439792458,1.05688277194382,1.0500836052036,1.05140260555853,1.02040984762209,1.02133791931156,1.03640005953796,1.03690903537931,1.03687146726715,1.02067701979745,1.06125828365072,1.04554032572621,1.02384139802235,1.15830585847773,1.05264507380288,1.06298781088333,1.03959342654552,1.03898881705706,1.03972380345913,1.0401726073265,1.03969955268304,1.03886256124578,1.04120327806674,1.04171680627926,1.0394241599661,1.03920695082873,1.0394145053528,1.04173347297079,1.04381895021652,1.05124083196844,1.05075646066483,1.05526309516737,1.06468711722556,1.04709895660681,1.04715784211309,1.08766697449292,1.08606844767372,1.10363992485579,1.15292792885378,1.10018322740549,1.09211064229161,1.10728291634565,1.10912912004798,1.05549386771531
1.24230610569429,1.25219221329998,1.27545501364502,1.27565098722708,1.27659087833147,1.28690543096115,1.23821693036557,1.29372260511211,1.26493945396017,1.23996911399974,1.27879066683064,1.26416631751376,1.2149180668352,1.21579918862244,1.31582073687309,1.39899972498978,1.26977802171131,1.17396755029116,1.17401255559863,1.18470287000739,1.18689888073582,1.18814852203048,1.31353232536396,1.22984983929024,1.22745002117346,1.22306763599351,1.16448033312239,1.22060521783565,1.12253151580797,1.12280394174042,1.27099968821053,1.06762940750554,0.962011860371024,0.961454410259859,0.961896573710414,0.961891151467802,1.07014555514145,1.03124265245105,1.03059338057258,1.02780773268287,0.978029649984992,0.980169571204955,0.965574726168637,0.971177931823915,0.976497533960964,0.965079314135276,0.952534866998772,0.952664414810021,0.958522466126991,0.956820653129474,0.952817865215847,0.95108274612877,0.976682738553929,0.975516997530312,0.973262110308305,0.96721676993371,0.966179697161496,1.01939110957957,1.01898345471277,1.05072029584195,1.07118256432957,1.11176557926669,1.14723672838566,1.15987963512515,1.16163661569026,1.16264554527498,1.16427398557919,1.15912437726495,1.15453486024589,1.21909382446138,1.18535574037842,1.18309384586327,1.25054642702997,1.25204488264115,1.23451894165953,1.22575494542394,1.27923640353532,1.21825629409034,1.26777689635403,1.24404698576449,1.2925583434155,1.24157376403241,1.24038858665676,1.24171982152025,1.28738720310341,1.29141433877771,1.29269922261614,1.26425699352292,1.24869440366973,1.25391372769779,1.27629084931411,1.25172398981827,1.28099156649562,1.25879252471404,1.25908232142657,1.25919407905104,1.25724723153332,1.24512606574634,1.22592064776031,1.25091165549138,1.1981064083083,1.21300960197184,1.19310200727682,1.19420865566461,1.19418967496609,1.19459884985032,1.20693576011977,1.20173625138961,1.20323078719318,1.20456944510215,1.24834745608901,1.2452328283916,1.23656535461879,1.25638342387357,1.23025265607436,1.21690330135399,1.21720569903076,1.21552737744538,1.16360323559762,1.17640787001759,1.13477842479861,1.13523348542714,1.13581221267008,1.14547098924918,1.1509797252412,1.13034635489961,1.13166987936512,1.11311054352719,1.10142993184247,1.09784078717553,1.07806981688002,1.05539623734226,1.02924533396543,1.03161820545394,1.03463860085557,1.01766433548909,1.01065026433771,1.00877177949717,1.01627214948794,1.02029214177208,1.02791540345563,1.0530657123607,1.03428308960392,1.04084739559272,1.04084683693119,1.04086442775559,1.04075576456258,1.03437209664974,1.03433489580681,1.03568255937081,1.03594967600489,1.03662918929391,1.03764120250819,1.03725272946143,1.0377675018763,1.03705731723809,1.0391123647158,1.03971137946422,1.04875656904712,1.04968669250101,1.06181167413898,1.04519225743818,1.04555194445618,1.07518301301326,1.08071682820319,1.08850771155784,1.08754650809925,1.08943073359451,1.15648599895064,1.10782888993422,1.11158029180738,1.11352814918266
1.32123873450565,1.35132097759369,1.34265967087365,1.27719077158194,1.27778474595019,1.23805757880045,1.23789077048958,1.236882980923,1.23697915935014,1.23963339703834,1.38003537502719,1.31624793417463,1.21658349039908,1.37948981590823,1.35607618222609,1.35561459418815,1.2671875684165,1.20076653397878,1.17593312737791,1.2147741043789,1.29730573341471,1.2838156164462,1.28874394207575,1.3151804195944,1.24458574961491,1.16381957854859,1.15156772288371,1.23307920261444,1.10042778872208,1.03766748676149,1.07201072463547,1.05435306260604,1.02159709436758,0.956961243105578,0.956833715432413,0.955282619306662,0.97308531544035,0.99189372478877,0.987359228655317,0.986761045791649,0.987133658009105,0.977042024999942,0.992570809494379,0.981343165589749,0.978534921277815,0.975411358379601,1.00236357680359,0.978509064486659,1.00721665193462,0.962992072161128,0.963512668106566,0.976141718504647,0.9841570005982,0.97935213898806,0.981681127806556,0.98330832554733,1.01160526139862,0.99311933755767,1.02680190694281,1.05092965565724,1.11245929557386,1.12893133652137,1.17015024939595,1.16983832573849,1.17333409664207,1.17603492532128,1.16039062548173,1.16980130928698,1.21468047813645,1.28417658630814,1.2430990671839,1.20613511233851,1.25916783593373,1.2414134223741,1.24740348864378,1.27615329301866,1.27648985391671,1.27640390910522,1.29316466761165,1.29430388199724,1.29388923864015,1.29403366158794,1.27445269780446,1.2925887628534,1.29265697296685,1.29350507346189,1.26796537425852,1.26791415026876,1.29132869734508,1.28079949957699,1.26471175831567,1.26024265784278,1.25819277553663,1.33398125182536,1.26212785405866,1.25832721657546,1.28517171798308,1.28957840049846,1.27618926865875,1.21909251892278,1.30805478785752,1.21244704263774,1.21082111698024,1.21136708107969,1.21046026566965,1.21039021187236,1.21245747506467,1.21281508841771,1.21185238056268,1.24014161442589,1.32328856513668,1.29327919359291,1.2640502853494,1.27440592330717,1.24504665162536,1.23761802908511,1.25233291501278,1.22803272215127,1.22814284130898,1.1661404852235,1.14766792195328,1.16606592077513,1.19768110370444,1.15229919324177,1.1556364834156,1.16134252117249,1.12898594647511,1.12037224315735,1.12260909908435,1.09694521060423,1.07282301641998,1.09959954221861,1.0997026977916,1.03027997749436,1.04737606605299,1.07976142820089,1.01786894580383,1.00889974255349,1.06759702719721,1.01185032025311,1.02024083771778,1.07744260160085,1.03823420109215,1.04114109939656,1.04189908800099,1.04228626097392,1.04262207460256,1.04855847756056,1.03091684940291,1.0303481419136,1.03320012825354,1.03457282137724,1.038476870392,1.03762282479608,1.03777091563699,1.03755819911473,1.06643173207155,1.05197497079259,1.05003603959449,1.04977086010733,1.06327236837721,1.06796735396318,1.07945523068369,1.06539573978357,1.07772329726249,1.07854809399256,1.08649193656521,1.09166630183044,1.09305376525256,1.09982395182752,1.11594888214905,1.1176069874441
1.32794077976673,1.33565680234475,1.32443367839154,1.30527315965767,1.28085201120807,1.23804163285962,1.23788755290413,1.23757221417705,1.23734142274469,1.29500670209989,1.3175910309726,1.31664559875849,1.33118902862417,1.35924805491391,1.35804974607434,1.3579193401103,1.24289172646374,1.23111377123132,1.19823215256299,1.20122261104071,1.25002133571768,1.28130986643053,1.29645793759804,1.30294792383884,1.24896996306263,1.2255202539605,1.19798241148559,1.1476335457375,1.10338170947533,1.09093998563007,1.08015556878274,1.07259385245452,1.03827539700941,0.957273808985033,0.957194325217695,0.956815939887979,0.957379483859552,0.961224008567305,0.966202828438164,0.976154100848969,0.976412386611837,0.977275630808654,0.979070730491688,0.981572965286235,0.981469201999151,0.979905608004201,0.979596511465993,0.979448032584023,0.993206184382453,0.988569546501084,0.989120328192841,0.989599993554643,0.990156721445511,0.991008755417389,0.991870998901091,0.99202988315443,1.00783394657073,1.01642089395789,1.03408091828242,1.07760844840321,1.11562235035884,1.14814644524767,1.17294514236654,1.17575344416417,1.17816163387963,1.18068697215166,1.18377683920342,1.18761225023489,1.19873825056243,1.21465781239672,1.2232337311336,1.22710600673099,1.24336728245013,1.24301581220435,1.25071231626092,1.26741489470075,1.2827196648323,1.28713396037606,1.29387969231134,1.2946975941699,1.29453839583774,1.29434835555513,1.29426228091378,1.29380184801453,1.29152983686903,1.28912773550415,1.2855750280293,1.28742462229784,1.28894719142685,1.28656793221965,1.28570338942797,1.28657485154235,1.2877846183985,1.28760574260066,1.27163387902754,1.26758873672101,1.26724524139244,1.26897454930095,1.27363407780142,1.22932786244338,1.22920331626364,1.22927381655764,1.22817574060368,1.23098315124198,1.23022238501253,1.22827034715153,1.22704578635511,1.22807588969592,1.23113748738588,1.24664853266835,1.28839473948135,1.28897125115089,1.26228301151313,1.25970845414812,1.25909433959734,1.25848408205508,1.25639757731638,1.23294776028563,1.22249266879379,1.17268622257252,1.16710502935013,1.17131145397353,1.17412526652698,1.17241374973663,1.16841294303089,1.16489973339965,1.15063003377273,1.13440727382714,1.12198986185164,1.09490916488269,1.07672743077179,1.06668703826838,1.06341024413347,1.05252162575788,1.05536324600767,1.06796126220174,1.059581761618,1.0486013273539,1.0354677778584,1.02459307590927,1.02752760326814,1.03922541497246,1.03938167129032,1.04134398593452,1.04328034164862,1.04346059038858,1.0443645426785,1.04573492893224,1.02943846695311,1.02957752221187,1.03162489934998,1.03335801460244,1.03719107640016,1.03816168432803,1.03859303498734,1.03901624414345,1.04892919351682,1.05006924894025,1.05027589410423,1.05155479163778,1.06633197125875,1.06734378078634,1.06637137565865,1.06531101153931,1.07439986063658,1.08153796675586,1.08604683367211,1.09251742930246,1.09344265759271,1.09524758239977,1.07868179073263,1.06690152881668
1.40262159729492,1.3751122893001,1.26138701619528,1.40711679474326,1.28611150762369,1.2382264431155,1.23807972023168,1.23821951135496,1.23744406983579,1.34872189898523,1.31907999583616,1.22876066258357,1.37892831113154,1.36206438387076,1.36030417425031,1.36212446604038,1.22279826718916,1.27965408839283,1.19456387387388,1.18085335038337,1.18009527505598,1.27984559453904,1.35744497116616,1.34947631483006,1.25528650404344,1.25510594192508,1.25529453923259,1.09088139264317,1.10560911715414,1.10150065287761,1.23184409804719,1.23061257094578,1.06403662353618,0.951640622981439,0.949263219027127,0.944195830972528,0.950822873004335,0.95167165498245,0.955433226124115,0.975518458020597,0.955466696489405,0.963885962753949,0.960969537800648,0.984216935856713,0.98323978769226,1.01060746844945,0.981286816813851,0.981472957198384,0.999209890394854,0.98859337892115,0.989487514418805,0.990127758292768,0.989835115594939,0.991116164802226,0.991694812150442,0.991205948407942,1.00192437415566,1.03178348568479,1.04763025989713,1.09827349548937,1.11879715470881,1.16368406869951,1.22074197996236,1.1819252398426,1.18242445432763,1.18187048054569,1.19687362948169,1.19213788019421,1.18567830508211,1.20729787520083,1.21620204898057,1.29546083831177,1.24314649106176,1.2436045121772,1.25535561298345,1.26104895951992,1.30415137279148,1.30326059419111,1.30762658922669,1.29616034797049,1.29541228856342,1.29469822560741,1.30086188804809,1.31758700585603,1.29053495995931,1.2750612576459,1.27879326232431,1.29383972538088,1.29035352438132,1.28880861537715,1.30874375588833,1.3085794911791,1.30694104961231,1.28566995359182,1.27346913844285,1.26688053155194,1.26646732979115,1.26547292906065,1.27710246026326,1.22768026189074,1.22774196157537,1.22892171728888,1.22326460127187,1.23869954027159,1.22725325776786,1.22560352962941,1.22487197647737,1.23342704839714,1.23807250282638,1.26135387126452,1.28700750380174,1.28870782360021,1.26253157463074,1.25562423873087,1.25726461273498,1.25692616428635,1.29302230016879,1.23776677081407,1.21603056926131,1.18361369819661,1.15973071769078,1.21055734420761,1.18028472913803,1.18037448987326,1.18744687408074,1.19282980826908,1.16940783669876,1.14955834795152,1.12141768289608,1.0927734134851,1.07861342871586,1.0598820777276,1.05890377191666,1.04340160628811,1.05677054245797,1.0803735091568,1.08034455539542,1.08057816440931,1.02335878288731,1.01451050913453,1.06265324406017,1.03684358353833,1.0372245489197,1.02079347830239,1.04543850419533,1.04833868373305,1.04416835725814,1.04400852400401,1.02817320579581,1.02770977445152,1.03042344395674,1.03087732796793,1.03792127202518,1.03956100435947,1.03984790306202,1.04153228203788,1.04765784932679,1.04942975704609,1.05043410706771,1.05573506552421,1.06833540866514,1.03713380463394,1.06897915793429,1.06550099730925,1.0721592618192,1.0842973033542,1.08470685369678,1.09217243816091,1.03455944524711,1.09735893076937,1.04031614394238,1.04012019263353
1.28716118654835,1.34896806331057,1.26381366959759,1.32133792803994,1.30251159558467,1.32112364459767,1.23801411909491,1.23908566921245,1.23956954325744,1.24047240678863,1.3511160330744,1.22960999033239,1.36310055097795,1.33263743309958,1.33420737871869,1.33586977114364,1.23664319857535,1.21324316823856,1.18157826328452,1.18123443341808,1.18105354347865,1.31136031016664,1.29550021484422,1.35026588096726,1.26088192671782,1.26008306298137,1.19226738651582,1.06786029572649,1.05108215612471,1.25026089315553,1.13136065222094,1.02753915524387,1.06613567436463,0.95069575475959,0.946788700946594,0.942353089753624,0.951954505812435,0.953072072666694,0.953693703489521,0.953594247674257,0.955310014260952,0.96107981064225,0.961452128515538,0.986053288373565,0.983693075288827,0.981551909419412,1.01323060227621,1.00500158726364,1.02207133789458,1.00331368127426,0.989777983165753,1.00613658571336,0.999263683653224,1.01178031907263,1.00962092336861,1.00714862958154,1.01901104580112,1.03666223127523,1.14535530614658,1.13296496068299,1.17286576492012,1.25156346769906,1.21528807555093,1.2515799625925,1.22156475092912,1.21937176523192,1.1736506128106,1.19219186226028,1.19748580672036,1.25153589112184,1.25073591597337,1.25094841264467,1.27635524010842,1.25810929570822,1.25795468507292,1.26405734404277,1.289154685255,1.32042068756978,1.28331605471404,1.28207644763156,1.30741629206747,1.30873194587501,1.38362071831171,1.28500854976249,1.28750394283499,1.28743376404819,1.2884938189422,1.29875130326478,1.29146694593243,1.29035206516029,1.29017070192102,1.31843276158158,1.31702962091721,1.29076373293566,1.29121016629014,1.28984955558602,1.3330007991292,1.30396010083655,1.26571051568539,1.27659136627694,1.28651494452816,1.30735194384614,1.2504430701712,1.22733903180868,1.22664428277522,1.22618102134757,1.23201862743325,1.24935479391298,1.24480695331831,1.25873424468015,1.25803491165213,1.25700030590068,1.25234396130747,1.2562989141002,1.25703190122881,1.25660475002747,1.25414446196584,1.23993146240083,1.20077013933919,1.19396262810815,1.16096671325977,1.16173767397379,1.19356812929728,1.25579375220412,1.18951515290979,1.18827345101055,1.21228481422759,1.15643214511155,1.14641246326845,1.11595349900582,1.08849792868027,1.09673462569628,1.09053205893383,1.06450673422439,1.06009101240988,1.05895719051513,1.08011607431652,1.07960612595096,1.07105705967264,1.08907254373166,1.02604568785763,1.07541969097162,1.06253465227143,1.06288096929576,1.05225092289553,1.10405214671801,1.05210907118714,1.12489992651927,1.05509352093871,1.02833994117489,1.02826490536431,1.02874594764711,1.03679441252154,1.03883260934491,1.04002892580999,1.04071841291942,1.04693287284639,1.06290389822216,1.0552418266414,1.04941171762416,1.03097431366382,1.03025323394987,1.04398474122855,1.06547514559651,1.0712241110799,1.06728754952092,1.09081583434222,1.09112638744286,1.03033188332253,1.03017862002355,1.07325654293475,1.04080316442889
1.19727697439128,1.19937877797269,1.32956732952299,1.27345661108134,1.29451188307943,1.27223708263111,0.00399716161220365,1.23817716260608,1.23955762437586,1.23919791793715,1.23812726648696,1.27836202187827,1.36525990968945,1.36546772926392,1.31775864023583,1.26112046153753,1.2373237839589,1.2132465176467,1.21246747784797,1.38433961467386,1.27665347982165,1.32063465058104,1.32039194268787,1.36664954873343,1.26564436670992,1.26780589916757,1.21905661140534,1.12304351701645,1.06544973957834,1.13516457707296,1.17216233770695,1.18057649080519,0.957983147590317,0.953956076129768,0.943832927450658,0.937606578862947,1.07124659902572,0.952131863160269,0.989204466611173,0.997875813081084,0.997809057539884,0.982532266712874,0.979890582195055,1.00916549975376,1.01104878496753,1.07529088365648,1.07477420571051,1.06877948033959,1.02641242610282,1.02711008894586,1.05660499164934,1.01322764134506,1.0108009840801,1.04103188907134,1.0424870193496,1.04397968507714,1.04412015396441,1.0759603629877,1.10084850325523,1.15430109243787,1.25460569600427,1.23034489084959,1.25983233405835,1.25311925223035,1.2227201287415,1.19768419175258,1.19996694997665,1.19129211850765,1.20808307205771,1.23341919589537,1.24283204143842,1.25206446407498,1.23878184929977,1.23829689359048,1.25752833320028,1.25672354042531,1.28061803934636,1.38330235077277,1.29541317916672,1.29479618291864,1.31466347064331,1.31369099935651,1.2951651089217,1.28138872633351,1.28636140864442,1.28639061296123,1.28815353118313,1.29660277165889,1.29606965681475,1.36057085328473,1.31976723048891,1.31803017934136,1.31756085392529,1.3040746277349,1.31093029942251,1.36194514851059,1.33450532403835,1.27553747962557,1.27576156698613,1.2651255638854,1.30286752011595,1.30329506453884,1.3336840100012,1.2531655771583,1.25094200044343,1.24930023705883,1.25245542231895,1.2417509743682,1.25352057964029,1.25560836851822,1.33209685104551,1.3866692028854,1.25485117176495,1.2562874155095,1.25816587177554,1.25801875269194,1.26659793153773,1.21054280484362,1.20739031538145,1.19267738173344,1.19771369164759,1.20035317496773,1.18761707387881,1.18840839563728,1.19014714955413,1.19278097997697,1.17890707971511,1.16428499275863,1.14492006765426,1.12073353715219,1.10086675558125,1.11197709369067,1.10400948558284,1.0955343591932,1.08552626739125,1.0765155389162,1.06849095866766,1.08091636775821,1.08806494365961,1.03221842070916,1.03146293289068,1.02146573249401,1.02311832009169,1.03082152337892,1.03274595784628,1.03406405811645,1.03448405845281,1.03394611415347,1.05144145720324,1.02631583673352,1.02668103627088,1.02745369208717,1.02815714299826,1.03841687586711,1.04062669661437,1.0428099912914,1.03460657782729,1.03357948654839,1.03391256716155,1.03512580544418,1.04623613327536,1.02931346228381,1.06758647061638,1.07517720364158,1.07425773514864,1.07542731218331,1.09692133331943,1.20942029982214,1.02994808958393,1.02842206995288,1.02768552552243,1.03360019696481
1.19859023197674,1.19915589170934,1.20046125703998,1.33706906469443,1.33699625887008,1.35750419561185,1.43281505943256,1.47741394368768,1.23848970124093,1.23843130209566,1.31677017100398,1.23426289368846,1.42344211557167,1.2324431257238,1.29984021167125,1.2492110448948,1.34574454194545,1.30877516295869,1.21404815505085,1.29361104518768,1.28420064733521,1.30927511119031,1.30914772334359,1.17363015361057,1.22000934777347,1.21603435922981,1.11823847528252,1.16999785380533,1.16299618010838,1.090849363437,1.11457782442007,0.976876247830198,1.02213441069667,1.07214749423471,0.940645179847582,0.920084020583287,0.92006580290581,0.977143898729246,0.974875002832443,0.984156431700249,1.02316287847484,0.96145055708278,0.977726095617368,0.996852602351297,1.01150356735274,1.04972386519617,1.10476021884005,1.10540725269837,1.0872700139633,1.05623477268828,1.08701100914222,1.04982411524043,1.05257648035985,1.0532356907823,1.0567610027023,1.05999446110071,1.09063339561501,1.10294832329096,1.14424400612958,1.11662114003999,1.22884071880046,1.2683034505337,1.21376262333336,1.21369590302362,1.22542668846031,1.25738371988247,1.22692965416835,1.22470540732203,1.2299872186997,1.23965141460443,1.25090579625545,1.25084547474189,1.26076470899128,1.2745701953612,1.27403948424057,1.27238048322109,1.29190615402061,1.34589197541666,1.28506625264779,1.28478130279684,1.31649077228873,1.29668781557968,1.29725226812123,1.30284724391471,1.30321716563113,1.30214348782169,1.30240146189012,1.30560010382224,1.29722913483123,1.31065252861377,1.32648296984484,1.32647443501993,1.31798112237543,1.3159889276114,1.32172547475129,1.32832392754504,1.2868331667328,1.27566979418828,1.26776569991367,1.26748987006858,1.3663675257352,1.30261858100131,1.31975852756158,1.26683913001625,1.25652890825576,1.24956310080693,1.25029718798403,1.23458301539347,1.23556398123356,1.36217231451543,1.27566242610966,1.28695594273037,1.2894797269142,1.26086526011137,1.26085910662799,1.23457214904911,1.23508720048566,1.22019133785224,1.20673745855913,1.20647573086323,1.27100886749353,1.18626028447073,1.22258628276126,1.20717355155285,1.19662474106461,1.19215603792323,1.19160671417844,1.19547706594031,1.20156230534239,1.14468558857756,1.13566264208426,1.11974898670684,1.10867645297383,1.10367311746806,1.10566554733405,1.10802018886543,1.06747356815326,1.06683661787171,1.07078333939481,1.02801242377042,1.01907510889142,1.01926442805389,1.02666472562129,1.02773058563006,1.03303559990089,1.03519866104149,1.03569627636125,1.02772634880457,1.02580059767317,1.02555346058819,1.02647096962117,1.02581044714862,1.04226916321487,1.04043246024313,1.04075877478128,1.03059146479921,1.02976191835079,1.03104691917,1.03107086238377,1.03381062999197,1.04316143086656,1.04181238418472,1.00755801554336,1.0080372665781,1.07515814287913,1.1426813934915,1.09815512246449,1.10099290353706,1.09515718807118,1.02603412559924,1.08903884703888,1.03238385580503
1.19898807507029,1.19923996093372,1.27531211159893,1.33288555222892,1.33601519766188,1.33703796820764,1.3354710366617,1.33661602427939,1.23751725761353,1.23760635950174,1.31890815903757,1.32033828327136,1.32418721938692,1.31857187619877,1.31339653306598,1.30967464964114,1.30765564492307,1.3075482190793,1.29950418881848,1.29143489575388,1.28736440911552,1.2629235972836,1.25291032912163,1.22253491143855,1.22191071999305,1.22003082139535,1.20090806427278,1.15752715578373,1.12640600839096,1.10571383918042,1.06280549992851,0.982770459897821,0.979931785486554,0.97832994830585,0.937667688381415,0.935859784952609,0.945410504128984,0.952568038806598,0.958583277101168,0.961562848064526,0.963061633903105,0.965397438691877,0.990364957362605,0.997590181694457,1.01044557908137,1.05050156963164,1.09543742816964,1.09837899042801,1.07731799394798,1.0692994272616,1.07271910772511,1.07603595060957,1.07949694890305,1.08290946462349,1.08604431993182,1.08787656063079,1.09026478779069,1.11062726428862,1.16558930705481,1.19421353149621,1.24481502032357,1.24849077464406,1.24932022612976,1.24946853383284,1.24835766958686,1.24806875896538,1.23331680097602,1.24579794286874,1.24741556793885,1.25061227613464,1.25488388687006,1.26113358829101,1.26822595839703,1.27629402209875,1.27875126164695,1.28064947838038,1.28868731118502,1.31983709684004,1.30453675217772,1.29212546231237,1.29348938373096,1.29619113467368,1.2988349707966,1.30226087576594,1.30451694596824,1.30561520484916,1.306073550601,1.30669992044542,1.30750519316432,1.30856260103441,1.32530171356194,1.32558251516709,1.32522454291418,1.32564977989101,1.32679013635903,1.32751210901084,1.30961756326339,1.2740485534067,1.27459415834488,1.27482051737546,1.31537288141073,1.30363628249473,1.30347960776277,1.28067122775845,1.27178484668803,1.27036633929411,1.26909088680496,1.26943915653617,1.27254695226681,1.28432398094678,1.27867370643142,1.2776405860192,1.27705729731406,1.26619282168837,1.26592118566314,1.24440658784515,1.23896077727457,1.22486974818798,1.21857177127777,1.20462243361375,1.20367230015052,1.20211980547568,1.21188698350908,1.20419761951243,1.20410628641642,1.20397060390033,1.20288955758959,1.19959617272605,1.19880788062311,1.18285640556905,1.16845458224898,1.1560775689468,1.14581158215876,1.13019061864668,1.11973725064105,1.1128668029774,1.10163193809098,1.08654597408583,1.06031130148215,1.03059504299374,1.0277213662402,1.02733022945122,1.02782781818179,1.02901040222904,1.03116026280108,1.03331406341244,1.03414604162666,1.02621718755722,1.02534782987517,1.0246199059721,1.02491284556752,1.02486068846946,1.04295349394884,1.0418675333089,1.0409566684754,1.03423684265662,1.02822182927992,1.0284865947635,1.02887412441143,1.03800778038189,1.04147197017449,1.04171304300502,1.02279085688381,1.04542970545657,1.07559571629043,1.09075621044676,1.0954618092476,1.10037121285155,1.09782346377199,1.09423568546405,1.07962456990294,1.05748526958249
1.19891076364187,1.1993669941825,1.39630604865288,1.32998497478566,1.317335790829,1.27666869054017,1.33034237920665,1.33600035118768,1.23512462858616,1.2364001839107,1.40275790422389,1.32111150426923,1.3298640083857,1.39950942533686,1.3542666094626,1.38338420303139,1.25183513651188,1.3869875140009,1.41159414342887,1.22674621728546,1.28876959203175,1.1751952834271,1.19452511487851,1.22084970524725,1.22254182884535,1.26269162171854,1.31217697081043,1.14514537382988,1.10226165106725,1.12032824961581,0.958334139768803,0.992983839759041,0.975244324307397,0.975266300281867,0.93657505116525,0.934709366425325,0.97375927862373,0.912833792695849,0.909745786645697,0.925216437457048,0.926438257870678,0.972839395446596,1.00277992323335,0.998297266511319,1.00905596285292,1.0512162185399,1.0936947077243,1.10254799051897,1.03977309861124,1.04004004020767,1.06910189523872,1.08865685180353,1.07935925499876,1.08338431120429,1.08626754031566,1.08872188015769,1.08931680546685,1.12336316161469,1.25021460878706,1.22478213719027,1.25322025088482,1.2527338310917,1.25306081795072,1.2871707589587,1.24615915234676,1.24589685434058,1.22882341990248,1.2991005840192,1.32606415240363,1.29211241449687,1.29546613646663,1.2979727307339,1.27885913009057,1.2795745561795,1.28016126098217,1.28034348648073,1.28161108073579,1.34623305797134,1.34592367813148,1.29194175161132,1.29170207247546,1.31757968869994,1.39723437102246,1.32469371616238,1.3094975271657,1.30851640527336,1.31081058131765,1.30780673403157,1.30736482112714,1.30751067229127,1.32400810622419,1.32608557570897,1.32405465993654,1.33530670489207,1.33386949699018,1.33031326401342,1.34506485986331,1.27109548880184,1.31163788024665,1.27476487963948,1.33054701801187,1.30639657580193,1.30599941768342,1.30187550656582,1.29386857262972,1.2903521624671,1.26605569543338,1.26595291987373,1.27273423790986,1.28752549670411,1.27847348013084,1.27692773409903,1.27612862128244,1.27718954693918,1.2742468289151,1.26942983001196,1.27229817214637,1.24218562022471,1.24208291575903,1.20099728040689,1.18957888515978,1.19994802190755,1.22060763864043,1.20221574338652,1.20310714671446,1.20285265013765,1.23848604089233,1.20011389764253,1.19541542135973,1.19477725279422,1.1969129594317,1.19680833193234,1.18289354249395,1.13800690680779,1.14601113316473,1.15498624236816,1.11986924912016,1.12427968845073,1.05143950139992,1.0329125963904,1.02798907263523,1.02598597800542,1.02821908157014,1.02982704686839,1.0296754857324,1.06517636901771,1.04479327733505,1.02640532519303,1.02590080336319,1.02312713130399,1.02402975600533,1.02405716426811,1.04458973397814,1.04353577936782,1.04154444740724,1.04999841738589,1.02637704592186,1.02736834464148,1.0280835286342,1.04324304959555,1.04253570165434,1.04132347034061,1.00277008408165,1.07621698400414,1.07585925245841,1.08206970581322,1.0353650622746,1.10276764495059,1.10476560778822,1.10486908885581,1.07259164152189,1.10586634757799
1.19931976189013,1.19983290430847,1.20020581876735,1.20042449609023,1.30414115715062,1.38626155282383,1.40846172485282,1.3477206589304,1.4804351283995,1.2732656798241,1.30146484476956,1.33503660428822,1.33244971901367,1.25759540736305,1.34137920669565,1.4132010988091,1.41489370983709,1.32043309989481,1.2615284576241,1.25687577512862,1.25599236043742,1.15715000603781,1.22028951842338,1.22655136392744,1.1868840545048,1.15404725875133,1.13925057996996,1.10430382792674,1.07899062619262,0.932078287847541,0.938848037465798,0.936481328311763,0.945149040584916,0.903532986584781,0.905629584348044,0.906663067442034,0.906205744068333,0.888960331220749,0.91399167882156,0.914861918730783,0.925547733500066,0.939005781864148,0.962140169488287,0.987475951941612,1.00913501475247,1.03692258385062,1.07263678708167,1.077446138449,1.09296437188041,1.09300662574702,1.09125820317511,1.09048591645862,1.11236705681475,1.09741046972613,1.10836465013686,1.11968793030708,1.12119082464187,1.12905489921357,1.21928180289777,1.19438048845139,1.24743500345243,1.24947375315834,1.26131258342661,1.25070647356481,1.24366611735635,1.22572564527111,1.22570540686146,1.27662578039528,1.27860045686746,1.32242243118155,1.38238351518707,1.3658129920479,1.36345838513604,1.35784763563844,1.28314258099821,1.28201644460477,1.28201038031853,1.28089291685665,1.29770725748476,1.29148422921776,1.31719859883498,1.31386729939849,1.33799333757798,1.41502479527159,1.35248674769421,1.34347723808411,1.32673300833096,1.32926605295373,1.32939695600867,1.3296738901505,1.33091685241698,1.33334416677713,1.44790811361656,1.45797906826913,1.45795197254789,1.45785159626546,1.47128058394521,1.33348761458028,1.33286274983634,1.27606415161474,1.34244244620799,1.34232717633053,1.30234316664369,1.29819012310877,1.29548292637466,1.29347910595267,1.29400683267276,1.28911007726272,1.28369807276052,1.2838424378161,1.28546080662545,1.27676831022907,1.27680134783628,1.28924779122809,1.27623017954367,1.26867110277461,1.23880235320931,1.23136722228031,1.22967103454898,1.19900183768794,1.1979459828684,1.21379694881751,1.19258266368281,1.210433625354,1.21073672751235,1.33232432123589,1.29491429417703,1.23016675963875,1.26371470853722,1.24840174991056,1.23468002317632,1.18262076652623,1.18258583013057,1.18118285386965,1.1781921070524,1.17544928322641,1.16534213913075,1.06742180234927,1.03847356942444,1.03014638184429,1.03036314434617,1.06506723732302,1.02815131567277,1.0292138001382,1.02858498852097,1.08325086238019,1.04815745967926,1.04972368930706,1.02239240614821,1.02372920796357,1.00982965708747,1.01041772788255,1.01289555925765,1.05304039007512,1.03225047284727,1.02383186955102,1.02306430475725,1.02217374146256,1.04431853617252,1.04434630391705,1.04981188312155,1.05170758087495,1.06623012463425,1.00595702611937,1.02368461009759,0.99198578212601,1.0893359646777,1.10310724194749,1.09690011252662,1.09111787580923,1.09161900794423,1.10510631371256
1.20633706752564,1.20382667059452,1.20224563562875,1.20185477139368,1.29268601083699,1.57666714143441,1.25482942022007,1.22291526079473,1.34584662308962,0.00437767305269579,1.28519702104507,1.36719049150164,1.36694946894007,1.37721955148721,1.33207416812935,1.28120923670455,1.43213065312639,1.34033891556907,1.32626361866529,1.28023622255749,1.24754050096368,1.11124213463804,1.11390538045048,1.09377282164052,1.13624702869054,1.11399708573282,1.11894927729447,1.09602853921456,0.919543531123721,0.909553398867697,0.919506310244608,0.905136236390127,0.940981663727079,0.906671271614504,0.905642446015554,0.905208033275694,0.89263053516119,0.907772828242034,0.906905278609722,0.923949171904081,0.957805005606708,0.960791718967033,0.973573787814188,1.04040535083055,1.01197123190751,1.01728525448442,1.02782182968236,1.05077353273307,1.08355684129068,1.20954557796332,1.20882268650289,1.20786271461749,1.14995020973151,1.16124514532556,1.14580282914096,1.13631273575484,1.12330721648654,1.20434044903397,1.17940158295091,1.23329105470853,1.23017517484357,1.22962192022261,1.25410823437182,1.24817071206215,1.24084933448392,1.22578233428126,1.22731066069368,1.25393723606301,1.27922103926013,1.31341565805529,1.35075437651309,1.37424395477068,1.35517981095197,1.30072830339562,1.3003854764738,1.29543719602244,1.28201779140289,1.29662589259848,1.29625711869689,1.34742666724909,1.32699914379513,1.42331637578037,1.35871267790319,1.36556042877631,1.36053328757947,1.35691284878202,1.35678362302744,1.34335100555183,1.3643787530005,1.36263741680608,1.33672755000724,1.35111773196041,1.44761905456343,1.45574111251542,1.45725582626079,1.45869374121345,1.47141747784302,1.47119238542768,1.3745208035046,1.35699766109442,1.35496680781578,1.2993015906311,1.29917036147354,1.29876258448622,1.29950256424536,1.30213011256595,1.32003387152685,1.3178150025473,1.3110306970936,1.28734840270216,1.28405755225924,1.30449917894364,1.29496011952844,1.29067376223956,1.29149752436304,1.29190317621254,1.2555483304013,1.27906859299819,1.24129449398301,1.2331582813563,1.21981349809274,1.25159765067959,1.21282702225515,1.20942250074941,1.22428412397733,1.25210670499398,1.23841798199393,1.23131942782099,1.23017804744637,1.24859796205559,1.20390692340769,1.24603927628594,1.34104204233235,1.28810474209092,1.27591886217867,1.27683612972227,1.15871416921263,1.0697676305978,1.06502085801535,1.04930481014916,1.03257792206014,1.03497615890835,1.02905219382394,1.02749464606859,1.02739096471194,1.08394820954237,1.04547316155755,1.06378082949885,1.01745243367566,1.02468890791256,1.02528700423362,1.01085056952585,1.01231498487023,1.01015195208784,1.0230916691769,1.02217355157326,1.02164207151672,1.02082894481134,1.02022319331958,1.01993986979209,1.26986219396662,1.04657385223685,0.999285878091649,0.999013895996991,1.0284997987957,1.09468847128855,1.08653627172712,1.15701370773795,1.09547257873298,1.10342121596589,1.10297509374017,1.10327520250202
1.39096453174728,1.2093705126542,1.20314670230874,1.20304394732181,1.2828032326628,1.37280086312379,1.21485846880149,1.41531588939069,1.37158160431829,1.32166386213377,1.40533320843949,1.30426632608265,1.30391164738673,1.32570985032361,1.32413676548748,1.32355502996516,1.27591059501473,1.27677205499422,1.15182517589045,1.13408019729213,1.13665642578112,1.19819120840486,1.14429957064254,1.10061762425414,1.15020565669272,1.19450724645818,1.15016112374831,1.2181019959044,0.908437935691599,0.898320545525589,0.906077314552622,0.905392187816476,0.919865827358342,0.911933793626399,0.904886630159207,0.899935075683181,0.901601724434978,0.921607712533048,0.934672740146931,0.933282735620612,0.93308587116928,0.983176809280039,0.97973700463372,0.979847469250827,0.985097550332773,0.980975159805748,1.00245760222535,1.0481296775561,1.0624839528991,1.13870588971624,1.20610864213024,1.20481193468203,1.26041658818539,1.20335613860781,1.18205133653116,1.17536560450617,1.17558916535627,1.18164389262751,1.26835195060514,1.22019111654347,1.24161333725145,1.23312865978457,1.23304636050796,1.23311805593882,1.23781383433316,1.2344773318315,1.26850363293497,1.2796808966547,1.32078778985669,1.3427918189441,1.37112502536017,1.37389667195128,1.37373840129573,1.3443725227075,1.32913306639151,1.29791010102504,1.30769046287654,1.33014403516428,1.32829854865914,1.32919336677521,1.3453453188962,1.42059648915395,1.41504786219986,1.37240221867883,1.3706717802081,1.36803651503236,1.35344184244957,1.35190997350287,1.34760406221246,1.35263033728048,1.35058431116129,1.357662062016,1.42628476540321,1.43493532115113,1.43345710346661,1.41959080102542,1.50962711137069,1.49109219716098,1.40997286843517,1.36838063372003,1.31149159237542,1.30899281516454,1.29917001065632,1.2983198010136,1.29869446110786,1.29850544196469,1.32624399063284,1.33328950904439,1.33384586243076,1.35527424730448,1.39578483093186,1.40196941361014,1.31479719970101,1.30510863513477,1.29314858491805,1.25865367909572,1.26283210206908,1.24956983526947,1.23845472959871,1.2506421643193,1.20703837851094,1.22460146264008,1.2135311085424,1.25740267005365,1.24652675803172,1.24389441724713,1.24405756802415,1.27170257484458,1.2357904029902,1.23815008739568,1.23901699404892,1.26079095927642,1.2729057976774,1.27311341294046,1.27449137945529,1.26447938548981,1.13832728529653,1.09662482936323,1.09123912119903,1.05939745299147,1.04796365978822,1.058169849159,1.02702874130577,1.02640757033223,1.02667920781324,1.0816564473543,1.06948157749412,1.01805619776255,1.01597635077927,1.01699150337199,1.018154912624,1.01208286356084,1.0136869819561,1.02375739628928,1.02336812082107,1.02309895646713,1.02052438558384,1.01908495249483,1.01849572424575,1.0185947152055,1.01668430803324,1.03387990450247,1.05671064844177,1.00417218559652,1.0312300647538,1.16296503490079,1.08026291408905,1.01708722013622,1.00361203336555,1.05506729171159,1.0626414719488,1.03990672639676
1.30582160416604,1.2106960354057,1.20814919084736,1.20512671706412,1.20215173444371,1.20451316328315,1.2105118856351,1.29754475709204,1.34095171797046,1.33718621450126,1.33494139400288,1.3274321307104,1.29979341308212,1.2513681645641,1.22537520638864,1.20552788339942,1.19321113233398,1.18658514920916,1.14339907615912,1.13595717242793,1.13611606240701,1.15829721521124,1.15354728698265,1.15858333487797,1.16283072286892,1.19080716347759,1.1961257786667,1.20108079152728,0.955859053714051,0.909009986287896,0.90615764727282,0.905422203463961,0.905541898251753,0.906715112760198,0.903252060920858,0.901926239951731,0.912171276044046,0.933559421714728,0.949157844118372,0.964152199351508,0.974533779293119,0.983309385063973,0.981424815215446,0.980351808251066,0.988990938606431,0.990826484333,1.00759842123352,1.03020067748869,1.08606111386312,1.15437888772071,1.20421243510567,1.20382742532601,1.20015056916537,1.19897527002688,1.19434300770661,1.19384679823525,1.19193109185383,1.1927538114296,1.24086422044989,1.22613132908437,1.2312667688379,1.23167709399698,1.23224523834036,1.23242714380007,1.24176347430204,1.24325475227713,1.2673852608253,1.30264179818173,1.32651556356838,1.33616611676108,1.37170156161182,1.37261623869512,1.37294408733896,1.35882349916444,1.34828894340161,1.32049750916566,1.32041564075559,1.32871220061029,1.33264927441902,1.33550135824344,1.3651576950829,1.41761944299668,1.4155413549643,1.39784524368924,1.38853853485948,1.37247092259781,1.35238927091128,1.35109296571772,1.34843957798508,1.36458771531765,1.37271082175301,1.37716639651711,1.42615497709092,1.43335698094396,1.43364850254183,1.4206394008318,1.42531419991218,1.42621600788321,1.39287142122199,1.36895197238211,1.31479208325572,1.31159654209603,1.30585096641084,1.30718131834006,1.31485172340884,1.32487052906362,1.3337489457674,1.33860625552013,1.34159723304186,1.34685448325409,1.37049962260015,1.37505201540495,1.3581552618542,1.32278030071485,1.31492818706077,1.28533404902786,1.26065416013022,1.2576808108762,1.23888909464368,1.23060628446958,1.21806644401197,1.22650196970155,1.23171012625118,1.24702627100179,1.24705613745782,1.24609484103751,1.24564116589594,1.25993972257463,1.24261833041083,1.24077134606193,1.24048075016485,1.25852726044915,1.27238227799374,1.27334679549263,1.27297908351399,1.269108311598,1.13271750709621,1.09514009980291,1.08020977289168,1.05992149471651,1.05879089952596,1.05831344250665,1.02458295512635,1.02423400250713,1.02350306725929,1.02098570042593,1.01986990515499,1.01896827355378,1.0185179625758,1.01886305497295,1.01955562329979,1.0195455414372,1.01754750777858,1.0237088596907,1.02345550118276,1.02291014189907,1.02126109439728,1.01787077323476,1.01676190731426,1.01658628660471,1.01592884121655,1.02839789170726,1.03302426069785,1.03404622729146,1.03681659645096,1.05466039033253,1.05981028702885,1.05792905756427,1.05769940061562,1.05914487201308,1.06117754418873,1.05211205172314
1.2164337055391,1.21394272634258,1.20840272219951,1.2049198936542,1.20252870008774,1.20553160831854,1.21431803956425,1.21529837332937,1.34607642722285,1.39076420674376,0.00401857362749668,1.33961581199037,1.28579369572829,1.1691529561218,1.15234416445353,1.09669004928415,1.15865281909088,1.177562366386,1.07861699216707,1.13789293043094,1.10462475581267,1.1738011120822,1.12171473921041,1.20870165565002,1.17171439399589,1.18141679693404,1.1972936503152,1.22517271380802,0.995920806963612,0.910726922322616,0.903753251924025,0.905341968074768,0.906880538610547,0.926835920509114,0.901839274557195,0.900646073534228,0.923607873460001,0.969859090366119,0.959585792459649,0.981102555130516,1.00104044298365,1.03481871265828,1.05562352361066,0.974727706097015,0.990060461260465,0.994685175749379,1.01098227729405,1.01145477143528,1.10178600866894,1.17271869659979,1.21625144795277,1.21606624434971,1.19260385395442,1.19213067909813,1.19373930197371,1.19365309374659,1.18741105560853,1.19190931301812,1.25165988169883,1.21694710399875,1.23187941574574,1.23058505830805,1.2318783846745,1.23205055637285,1.24397553195494,1.24858337736865,1.26621046968591,1.33501088032699,1.33038688524354,1.33023755547298,1.38714233228558,1.38660941646182,1.4107870870728,1.41057207791331,1.36806608804989,1.3206496064103,1.32042146229697,1.32738041940744,1.34293947253942,1.34324993540698,1.38898948274282,1.43329203705481,1.44091334069175,1.44460752448507,1.39288657847159,1.37865496375993,1.35251444313294,1.35207355796332,1.34621076999503,1.42355160501399,1.42322400955521,1.38705403544941,1.42769956538039,1.44653429564718,1.43643133438838,1.41994821449588,1.42955730947401,1.42987642956204,1.37455210014656,1.36958783074034,1.3231572870056,1.32272186043226,1.30021796756327,1.40172061442603,1.34784392815963,1.35082833986397,1.34977864845699,1.34948406666036,1.37091657020432,1.33867410022661,1.36371497384914,1.38016886083656,1.40487397812949,1.33878609833405,1.32153138461316,1.30654263919823,1.25810284938438,1.26307226533784,1.23958497349772,1.20459148792652,1.2040940341383,1.27651232661899,1.24598464735742,1.24492352123494,1.24691749504144,1.24748172295216,1.2470355446645,1.26608026237495,1.24516185069091,1.22376941657044,1.22381393306671,1.25765907395712,1.26990261930505,1.2541797175614,1.27409242770533,1.35813193764301,1.12844069139904,1.09346344292129,1.06918866660373,1.06158843777309,1.0683524241405,1.06838895355056,1.0219604853628,1.02231366103746,1.02430319101714,1.01870890366186,1.01864507513578,1.01871514410603,1.05260725697732,1.09736146639426,1.06791527538967,1.02561566779219,1.01565684323516,1.02434018187266,1.02389504437828,1.0237987649521,1.02345814028266,1.015032514273,1.01362870332231,1.01570326974694,1.01506583156453,1.01450169434032,1.01443363723113,1.16608631910609,1.04167944720646,1.05050631705356,1.06268723687304,1.0866215568073,1.08595447707494,1.08823044106712,1.10417321141982,1.11045354071334
1.34323488338369,1.26519388777009,1.48927118368621,1.38847358946196,1.38113793772945,1.37951034594977,1.21189110524041,1.21501148316001,1.250188011748,1.27358772375676,1.1434638137035,1.33834079423234,1.3450097111925,1.34315836184437,1.1182135075826,1.06331376521926,1.06878349221575,1.06358615996737,1.0633865684431,1.20377842167925,1.25155763162367,1.25183063024221,1.09437290258353,1.08784153689261,1.08369966655668,1.07831263066072,0.971689334115927,0.971634724767331,0.994519392883473,0.911105341455766,0.909826827452262,0.909730588960515,0.909338477305842,0.900477827968124,0.901124387912389,0.901446194913555,0.951827959628052,1.00418663100631,1.00297941461766,1.03165922967919,1.03076259262999,1.00200686897765,1.04127286577028,0.996080815105029,0.996462104861004,0.99499170935992,1.03176791586454,1.03208338064354,1.12704770473342,1.13601079520155,1.18354375170622,1.20486228065439,1.2074782610112,1.19174930818595,1.19717267551736,1.20316321967322,1.20129972183241,1.23505862493093,1.21213071534969,1.22513130854294,1.23443107838192,1.22875651095044,1.22965739226064,1.25524773072247,1.25610642478321,1.26329683263061,1.28588978148672,1.3138702807733,1.34819000424558,1.34777136406496,1.34588992769522,1.37453854958524,1.37532814547736,1.41112268315391,1.40504029442614,1.4126146601454,1.41436182536097,1.3343757224418,1.33151609419278,1.33576442560871,1.36093292419337,1.43333010373341,1.43929401219711,1.40242451502661,1.3956957162502,1.3867249743642,1.39003849857013,1.3520949211955,1.35425313799908,1.36121302131034,1.37646802458261,1.44108785459188,1.44307753305828,1.44338168457008,1.4400171005568,1.43212099254522,1.43012062688811,1.42959291233298,1.39506542895416,1.41354383129152,1.36152938961046,1.31682232616458,1.30169820299776,1.30191425447625,1.34458258479768,1.34170202133152,1.3396378083973,1.35694329706717,1.35470945631251,1.36480803142636,1.36424182880443,1.40221118197437,1.39154229089187,1.42952001624419,1.42494724952536,1.40869215053865,1.33429025726668,1.3171428707354,1.29254844411232,1.29409338858377,1.30192818910891,1.26092663853792,1.24895689458483,1.26078482920631,1.26552693887747,1.26750761031958,1.26034460808459,1.26306869723002,1.24907729104154,1.22431745754179,1.22417588596797,1.29164738548934,1.29182357751422,1.29893529650131,1.29889452828824,1.32038513203276,1.11481320691225,1.11427328230506,1.08040069271892,1.07896844163231,1.0695155990731,1.07697027268767,1.07539126056985,1.031529510994,1.02661671748041,1.01924612702725,1.06382938743795,1.04329881981029,1.02769891543148,1.10913206841708,1.07074425422695,1.01751114289851,1.01747528627796,1.042005299733,1.04190085507148,1.04132281621289,1.03075427571684,1.01764769929766,1.01462655446511,1.01433208213678,1.01349488515499,1.0137929415066,1.01463910962566,1.04318244829462,1.03168250261851,1.01694772178729,1.01696518745418,1.00921321607015,1.0818653069949,1.02140618252089,1.10302527312259,1.02022232413421
1.2633738870399,1.40377711428085,1.30380172998084,1.38713527867341,1.38416478163683,1.38688803344419,1.21203039383266,1.21261096871692,1.20394098681422,1.28219820765376,1.07529109153232,1.07242765999117,1.08976279920976,1.03512873860142,1.08139772142958,1.30757240314077,1.02814126360081,1.15440196067224,1.08862769929884,1.18201112669055,1.1606354254533,0.987213456065772,0.987690386525935,1.07498665992122,1.02928746656336,0.943121680632429,1.00093343414715,0.954327740880831,0.973122872900039,0.917469926014267,0.909137272812131,0.902707534268442,0.900888148319781,0.923393319359979,0.911850766694017,0.907517618461654,1.01497943687227,1.0038910999385,1.02091353692678,1.03078079639289,1.02763551994809,1.03505425612446,1.0343159282151,1.07460388536019,1.03717336457724,1.01808617450732,1.05035128440445,1.06480971359611,1.07180151221123,1.19837925815901,1.17526693390878,1.32036015167736,1.32241765460977,1.3298390395575,1.25911327195147,1.22508398362381,1.21365462453682,1.21546296595572,1.20936991582675,1.23380655253098,1.23293321342281,1.23174941479624,1.23187108950791,1.23400158628685,1.25438820454485,1.25030593356845,1.29169650417799,1.28985028811311,1.34108776537567,1.33897516389135,1.33168456158472,1.39154555734077,1.40515059777026,1.3810051635094,1.37958001793504,1.38499273793976,1.40188371123526,1.33348432790873,1.3352831600799,1.3388312901533,1.34815287377664,1.37321073451507,1.41796610228603,1.46096383203361,1.49291480888639,1.51287660031578,1.37986193970689,1.37763939911749,1.36545261620511,1.43117859391178,1.43100266585302,1.44613845532105,1.47761451165912,1.47472539382167,1.47247186409966,1.50514000795596,1.49984516708115,1.41822012278321,1.37005184942776,1.33892285714787,1.35505185919145,1.35477907873662,1.3337631663389,1.3366023446812,1.35091273908868,1.42974094078948,1.42269425478721,1.35861166698703,1.37912292313239,1.34809520251296,1.38739662346094,1.47795089304495,1.53086707319756,1.43521293251165,1.43108402797097,1.44653614279747,1.29480170511754,1.29438313340114,1.34172473388784,1.28735709682135,1.32606701542793,1.30215760080752,1.29164093076918,1.30684933985039,1.29029307064971,1.28316216275298,1.27076192154271,1.25301316502249,1.25589855595442,1.24898891176611,1.25711371159742,1.23041683618838,1.25234181355147,1.30610345592958,1.29806840921902,1.2956728975065,1.13839648047224,1.13219412531086,1.10338793762194,1.08809590834995,1.08181425025427,1.07344275383638,1.07326618759103,1.05446518728494,1.05708664834295,1.05946652673335,1.10672623336481,1.06557305841394,1.06559126650942,1.08171923671865,1.06477945435909,1.01246920836326,1.00490662922628,1.04067412504127,1.05504828732405,1.07971887804427,1.02784869205675,1.02768523228098,1.06178262128108,1.01289241304956,1.01103536518569,1.00914250816085,1.02249400305398,1.15729576358914,1.02421852048919,1.01755523329686,1.01779441099757,1.00777385241079,1.00728198259996,1.00684476561454,1.03748429259183,1.01889927315391
1.37112427908756,1.32985915857214,1.30101223304795,1.24440046521579,1.38284186505541,1.38486124174758,1.23862669094899,1.22996456169126,1.2561582196122,1.09923789440795,1.0362500477824,1.03489853180979,1.02006820068638,1.02021895059645,1.02123133519185,1.02174167572691,1.04105564885391,1.19769046679948,1.02178247780919,1.03897472024802,0.982678207059616,0.986218776379541,0.974567612964324,0.940346212398386,0.942578818634351,0.941749653754437,1.00581301186166,1.0054151869825,0.969597401964937,0.948007571073642,0.911337584775305,0.905655019046415,0.910265418631551,0.909518262884929,0.930102496474344,0.945528850772984,1.00400871420152,1.03038875980183,1.03823114821248,1.03752793593946,1.05651739606931,1.05856577841317,1.06161384152954,1.07596280341492,1.04334994834496,1.03013317379617,1.05228177080976,1.06341448243482,1.09712232642507,1.23189349975419,1.23206052265032,1.49597784974831,1.32820183049162,1.32779710983419,1.27529850767247,1.27114403506683,1.27071861507978,1.24072497472716,1.21848989845695,1.24837131863438,1.23284588914244,1.23247470465342,1.23293480788352,1.24215942921667,1.2556243773211,1.29190254740423,1.29388025471809,1.28485905792827,1.33831744243881,1.35105883598463,1.37981533656663,1.43344343848331,1.40553202213408,1.40584013035996,1.37549128574878,1.36133070508296,1.38445579764087,1.37999613623509,1.33485670296175,1.34103252117602,1.34143623952971,1.3984630987163,1.51794333266599,1.52427202779862,1.51411825690075,1.48455372393699,1.4288862295339,1.40175060153105,1.40165353676659,1.45810458395329,1.49602361853055,1.66387211831055,1.63321412718699,1.48783038018754,1.47330988191844,1.47873198449773,1.50714537208241,1.46995197150778,1.38735780008734,1.34815570298531,1.38579593062307,1.33578294206895,1.34902611223596,1.3612654582056,1.35774607275001,1.35587045035118,1.3556827698324,1.40140724521273,1.40143151188364,1.37892482208316,1.35196282989753,1.44942741616351,1.43615646220829,1.43262096327709,1.42957540922758,1.42456481039382,1.42216687492761,1.33552470036822,1.30512439547579,1.30459716425518,1.31027557932049,1.3031488296455,1.30638293008129,1.29597250345873,1.29556652252312,1.35784439902245,1.37557829639971,1.36971319209341,1.36487297822567,1.37621580143204,1.25255070354645,1.2824897605679,1.23003331963692,1.29027542222104,1.28919105458664,1.28963309701911,1.20579314312504,1.12291810119029,1.11443937003316,1.10425106305828,1.10655029416853,1.09042119230163,1.12754231434229,1.09123993923399,1.09077589823623,1.09176320108562,1.10753916123511,1.09025592803057,1.04807730010556,1.00424238283253,1.00260148150946,1.00142871110463,1.00231727346192,1.09137394134937,1.06539745159981,1.19021939698491,1.0540966874321,1.07839728424096,1.02448769054368,1.100138952523,1.00918979635551,1.00129542886387,1.00192680253976,1.02395841754723,1.02221677088305,1.01775040209236,1.01796325677208,1.01831097021956,1.00706016837614,1.00700395100912,1.01176192944534,1.0196107670091
