1.13013, 1.12712, 1.12692, 1.12356, 1.34386, 1.12602, 1.17288, 1.2349, 1.11514, 1.11421, 1.1147, 1.3031, 1.0986, 1.09774, 1.09864, 1.10064, 1.09639, 1.0956, 1.10322, 1.10316, 1.10384, 1.10483, 1.10376, 1.10463, 1.10638, 1.37505, 1.27411, 1.14042, 1.14131, 1.14356, 1.14378, 1.14269, 1.13693, 1.13522, 1.15943, 1.16005, 1.16056, 1.55472, 1.21869, 1.17211, 1.23007, 1.22992, 1.3441, 1.35145, 1.32618, 1.35209, 1.21671, 1.2193, 1.22138, 1.22198, 1.22188, 1.23394, 1.18105, 1.18088, 1.18373, 1.18385, 1.18044, 1.18168, 1.19518, 1.18933, 1.22324, 1.19471, 1.25099, 1.21696, 1.20303, 1.23384, 1.23926, 1.25002, 1.25002, 1.21295, 1.28582, 1.15815, 1.2602, 1.20455, 1.19598, 1.10577, 1.14716, 1.06168, 1.06204, 1.06078, 1.34452, 1.09939, 1.23413, 1.25285, 1.27122, 1.22627, 1.207, 1.11461, 1.08291, 1.08363, 1.08404, 1.08808, 1.09262, 1.09965, 1.09759, 1.0975, 1.09775, 1.09815, 1.10167, 1.1016, 1.10316, 1.10447, 1.10459, 1.10702, 1.18497, 1.12481, 1.1258, 1.12519, 1.1516, 1.1279, 1.12772, 1.12601, 1.1257, 1.12534, 1.20226, 1.12487, 1.12546, 1.12168, 1.12173, 1.11916, 1.1183, 1.1175, 1.1163, 1.11718, 1.16581, 1.12132, 1.15131, 1.14759, 1.13936, 1.14348, 1.14485, 1.14883, 1.15125, 1.2098, 1.14177, 1.14469, 1.14662, 1.15399, 1.15281, 1.15283, 1.15213, 1.15224, 1.15279, 1.15001, 1.1503, 1.15183, 1.1535, 1.15407, 1.15431, 1.15569, 1.15837, 1.16107, 1.16181, 1.1598, 1.16072, 1.16178, 1.18266, 1.18149, 1.17711, 1.17696, 1.17822, 1.18079, 1.17885, 1.18134, 1.18113, 1.18199, 1.18174, 1.18103, 1.18095, 1.18155, 1.17791, 1.1756, 1.36401, 1.22534, 1.19896, 1.18441, 1.18649, 1.18848, 1.19376, 1.19448, 1.19468, 1.19701, 1.19754, 1.19921, 1.19956, 1.2018, 1.20304, 1.20525, 1.20642, 1.20919, 1.20984, 1.21288, 1.21302, 1.2152, 1.20828, 1.20657, 1.2106, 1.2114, 1.21052, 1.21484, 1.21338, 1.21249, 1.21853, 1.21881, 1.25385, 1.22204, 1.22429, 1.22446, 1.22691, 1.22795, 1.23624, 1.28058, 1.24653, 1.31366, 1.24469, 1.33412, 1.33049, 1.34179, 1.35102, 1.34191, 1.31389, 1.3668, 1.35797, 1.30355, 1.38197, 1.33297, 1.32467, 1.35321, 1.36746, 1.36918, 1.30336, 1.30831, 1.30516, 1.30692, 1.3092, 1.30998, 1.2949, 1.29381, 1.29481, 1.29309, 1.29214, 1.29112, 1.28845, 1.28901, 1.28518, 1.28425, 1.28403, 1.2821, 1.28187, 1.28191, 1.29747, 1.29065, 1.29256, 1.33669, 1.32457, 1.29594, 1.29869, 1.39858, 1.2883, 1.289, 1.28512, 1.28406, 1.28327, 1.28268, 1.28747, 1.28745, 1.28823, 1.29127, 1.29147, 1.29517, 1.299, 1.29761, 1.305, 1.30356, 1.30295, 1.30504, 1.30702, 1.30859, 1.31344, 1.31404, 1.31666, 1.31824, 1.31921, 1.31977, 1.3205, 1.35329, 1.35702, 1.33105, 1.33011, 1.33132, 1.33691, 1.33607, 1.34434, 1.3445, 1.34326, 1.34518, 1.34619, 1.34804, 1.35359, 1.35225
1.13928, 1.19254, 1.19315, 1.33245, 1.32811, 1.17532, 1.34818, 1.20966, 1.11373, 1.11422, 1.11561, 1.11714, 1.27424, 1.17158, 1.10179, 1.10094, 1.09859, 1.09291, 1.09384, 1.2318, 1.22312, 1.12621, 1.13299, 1.1278, 1.14007, 1.16534, 1.16437, 1.16508, 1.16072, 1.14334, 1.14363, 1.14264, 1.13985, 1.14063, 1.1436, 1.14569, 1.14729, 1.16668, 1.16878, 1.17851, 1.28853, 1.24134, 1.23178, 1.24396, 1.45862, 1.46463, 1.35417, 1.23021, 1.16348, 1.31679, 1.23657, 1.19479, 1.18468, 1.18789, 1.19131, 1.35058, 1.20546, 1.20548, 1.21195, 1.20655, 1.31679, 1.25569, 1.20857, 1.20861, 1.21125, 1.25606, 1.23593, 1.27138, 1.23382, 1.24728, 1.29827, 1.27237, 1.33316, 1.23744, 1.23423, 1.32217, 1.14865, 1.16297, 1.16824, 1.16995, 1.17384, 1.15529, 1.33498, 1.13971, 1.22875, 1.22319, 1.28586, 1.20167, 1.2414, 1.0885, 1.08862, 1.11213, 1.11632, 1.09673, 1.09685, 1.09673, 1.09732, 1.09755, 1.09826, 1.0994, 1.10532, 1.10199, 1.1213, 1.12232, 1.11117, 1.17719, 1.22287, 1.32019, 1.12053, 1.12188, 1.12176, 1.12203, 1.12096, 1.12082, 1.12162, 1.11861, 1.12108, 1.12258, 1.12067, 1.11969, 1.11901, 1.1184, 1.11822, 1.11754, 1.11691, 1.11892, 1.11963, 1.15696, 1.16455, 1.3809, 1.14599, 1.14641, 1.13894, 1.13896, 1.16251, 1.15587, 1.17114, 1.14701, 1.14953, 1.14954, 1.15292, 1.15343, 1.14973, 1.14943, 1.14842, 1.14931, 1.15774, 1.15799, 1.166, 1.17139, 1.17077, 1.1696, 1.17016, 1.16998, 1.17718, 1.17951, 1.18327, 1.18202, 1.17734, 1.17682, 1.17689, 1.17712, 1.17736, 1.17758, 1.17782, 1.17873, 1.17755, 1.17993, 1.18089, 1.17884, 1.17961, 1.17966, 1.17715, 1.17788, 1.38541, 1.18294, 1.18478, 1.18558, 1.1872, 1.19076, 1.1905, 1.19278, 1.19523, 1.19599, 1.19926, 1.19998, 1.2014, 1.20165, 1.20676, 1.33742, 1.34165, 1.36156, 1.2805, 1.2254, 1.20656, 1.20057, 1.20609, 1.20666, 1.20803, 1.20711, 1.2101, 1.20925, 1.20862, 1.20929, 1.21502, 1.21744, 1.21852, 1.21904, 1.26777, 1.29903, 1.28898, 1.22668, 1.22758, 1.24247, 1.32679, 1.24765, 1.25089, 1.25971, 1.25043, 1.2509, 1.2544, 1.25303, 1.36901, 1.37601, 1.38895, 1.28095, 1.3406, 1.2964, 1.39906, 1.30737, 1.30747, 1.30643, 1.31239, 1.45938, 1.31497, 1.38134, 1.38823, 1.29316, 1.29042, 1.28938, 1.28669, 1.28497, 1.28439, 1.28908, 1.2808, 1.27961, 1.27957, 1.2809, 1.28082, 1.27924, 1.2807, 1.28183, 1.29213, 1.31478, 1.32885, 1.33065, 1.39108, 1.46916, 1.30474, 1.30378, 1.30416, 1.3124, 1.31092, 1.28469, 1.28446, 1.28686, 1.28783, 1.28947, 1.28886, 1.2925, 1.29299, 1.29635, 1.29921, 1.29977, 1.29927, 1.3054, 1.305, 1.30576, 1.31563, 1.31367, 1.31272, 1.31333, 1.31401, 1.31686, 1.31896, 1.31919, 1.3486, 1.39837, 1.3289, 1.32803, 1.33112, 1.33742, 1.33594, 1.33732, 1.33869, 1.34301, 1.3417, 1.34654, 1.3546, 1.3531
1.41636, 1.19117, 1.15021, 1.15126, 1.15096, 1.15144, 1.23165, 1.2856, 1.18887, 1.11713, 1.11738, 1.11836, 1.12004, 1.34621, 1.1118, 1.11176, 1.10039, 1.09932, 1.09807, 1.19533, 1.23317, 1.15118, 1.20921, 1.21105, 1.21018, 1.19602, 1.15678, 1.15232, 1.14468, 1.14695, 1.32941, 1.14651, 1.14388, 1.13952, 1.14098, 1.14437, 1.1494, 1.27214, 1.32592, 1.29184, 1.18899, 1.3034, 1.33094, 1.25964, 1.26076, 1.24465, 1.37128, 1.17598, 1.17539, 1.1731, 1.18196, 1.18362, 1.27848, 1.2073, 1.21923, 1.22809, 1.23853, 1.23729, 1.24003, 1.45482, 1.34387, 1.32783, 1.21477, 1.21113, 1.21217, 1.21506, 1.28207, 1.20893, 1.20863, 1.27142, 1.30258, 1.25182, 1.26782, 1.14396, 1.14308, 1.28435, 1.16076, 1.27885, 1.18676, 1.15503, 1.18555, 1.25821, 1.14054, 1.23739, 1.17641, 1.21377, 1.30499, 1.2507, 1.16133, 1.08549, 1.08264, 1.08439, 1.23305, 1.28434, 1.09715, 1.09674, 1.09596, 1.09666, 1.09722, 1.09765, 1.09843, 1.09876, 1.10135, 1.10097, 1.1084, 1.11186, 1.14033, 1.1405, 1.15783, 1.1197, 1.12182, 1.1184, 1.11858, 1.11837, 1.11851, 1.11926, 1.1195, 1.11949, 1.11926, 1.12025, 1.12052, 1.1207, 1.1196, 1.11873, 1.1183, 1.11798, 1.11763, 1.27083, 1.12799, 1.17671, 1.18604, 1.14146, 1.14145, 1.14022, 1.13881, 1.1491, 1.16683, 1.14727, 1.14747, 1.14619, 1.14592, 1.14973, 1.15619, 1.15589, 1.14973, 1.14971, 1.14982, 1.23606, 1.16048, 1.16856, 1.18047, 1.1793, 1.17124, 1.18418, 1.18046, 1.18448, 1.18535, 1.18511, 1.18139, 1.17703, 1.17366, 1.17442, 1.17697, 1.17725, 1.17526, 1.17668, 1.17596, 1.17665, 1.17697, 1.1776, 1.18067, 1.18047, 1.17755, 1.17879, 1.17904, 1.17993, 1.18117, 1.18188, 1.18253, 1.18519, 1.18853, 1.19088, 1.19192, 1.19194, 1.19517, 1.19534, 1.20081, 1.30598, 1.20665, 1.23294, 1.34416, 1.26025, 1.3043, 1.30039, 1.20528, 1.20553, 1.20492, 1.20428, 1.20541, 1.20701, 1.20661, 1.20581, 1.2064, 1.20813, 1.21144, 1.21216, 1.22045, 1.21275, 1.21199, 1.21348, 1.26472, 1.25748, 1.32249, 1.31095, 1.30962, 1.33825, 1.2403, 1.2432, 1.24416, 1.24762, 1.25069, 1.25323, 1.34427, 1.35455, 1.27697, 1.38946, 1.38897, 1.28862, 1.28949, 1.41612, 1.41066, 1.41007, 1.42682, 1.34265, 1.31646, 1.31182, 1.31273, 1.33333, 1.29606, 1.28842, 1.28605, 1.28943, 1.31343, 1.27811, 1.27737, 1.27592, 1.27757, 1.28057, 1.28235, 1.28029, 1.28043, 1.28254, 1.28792, 1.28798, 1.28184, 1.34347, 1.35304, 1.38953, 1.37402, 1.3853, 1.32496, 1.31074, 1.31545, 1.31308, 1.31862, 1.29247, 1.2903, 1.29058, 1.28734, 1.28291, 1.28611, 1.28864, 1.29586, 1.29659, 1.29725, 1.29641, 1.3084, 1.30662, 1.31387, 1.31302, 1.30988, 1.31153, 1.31241, 1.31451, 1.31677, 1.31672, 1.34281, 1.32897, 1.32538, 1.3265, 1.32821, 1.33052, 1.33391, 1.33488, 1.3398, 1.34269, 1.34176, 1.34233, 1.34348, 1.35896
1.22804, 1.1613, 1.20193, 1.22053, 1.2273, 1.14918, 1.27461, 1.1796, 1.18477, 1.11714, 1.11449, 1.11523, 1.12057, 1.12172, 1.12155, 1.25724, 1.14208, 1.17074, 1.10805, 1.10834, 1.31742, 1.13588, 1.13582, 1.37121, 1.15654, 1.1513, 1.15197, 1.16472, 1.1676, 1.16742, 1.15412, 1.15581, 1.32376, 1.19261, 1.25247, 1.14836, 1.27211, 1.1634, 1.16452, 1.28852, 1.19517, 1.2029, 1.30109, 1.2311, 1.23236, 1.33141, 1.24019, 1.17926, 1.18003, 1.1828, 1.1842, 1.18788, 1.26782, 1.25476, 1.43462, 1.23307, 1.33277, 1.33421, 1.2408, 1.26269, 1.24616, 1.29768, 1.23369, 1.21426, 1.21463, 1.21693, 1.21753, 1.21306, 1.21309, 1.26436, 1.23945, 1.23808, 1.23901, 1.29099, 1.29765, 1.29867, 1.15399, 1.24647, 1.25748, 1.26449, 1.27326, 1.23984, 1.24316, 1.1368, 1.13803, 1.20846, 1.15076, 1.33043, 1.32772, 1.32855, 1.08106, 1.08147, 1.31889, 1.09142, 1.09317, 1.09427, 1.09625, 1.09636, 1.09665, 1.09557, 1.09544, 1.09645, 1.09554, 1.09598, 1.10318, 1.11171, 1.11254, 1.12337, 1.1139, 1.11904, 1.11835, 1.11853, 1.11758, 1.11694, 1.11741, 1.11702, 1.11742, 1.11931, 1.12263, 1.12203, 1.12152, 1.1216, 1.11983, 1.1192, 1.1194, 1.11913, 1.11911, 1.11977, 1.12093, 1.12241, 1.12309, 1.12448, 1.13886, 1.13961, 1.13651, 1.13763, 1.19247, 1.14605, 1.14676, 1.14545, 1.14496, 1.14595, 1.15024, 1.15323, 1.15342, 1.15504, 1.15179, 1.15188, 1.15338, 1.15427, 1.15447, 1.1554, 1.1574, 1.16129, 1.28583, 1.24268, 1.18236, 1.18378, 1.18409, 1.1775, 1.17292, 1.17492, 1.17467, 1.17433, 1.1752, 1.17351, 1.17364, 1.17422, 1.17465, 1.17591, 1.17689, 1.17911, 1.18065, 1.18044, 1.18038, 1.18113, 1.18463, 1.18394, 1.18292, 1.28474, 1.29207, 1.18735, 1.18823, 1.18999, 1.18981, 1.19462, 1.1926, 1.30086, 1.30297, 1.32952, 1.21037, 1.21644, 1.2693, 1.20206, 1.20323, 1.20711, 1.20689, 1.2064, 1.20618, 1.24985, 1.21969, 1.24499, 1.25157, 1.23559, 1.27106, 1.22282, 1.28549, 1.20512, 1.20522, 1.26176, 1.25756, 1.27312, 1.29602, 1.29696, 1.29591, 1.23244, 1.23244, 1.28146, 1.28574, 1.28283, 1.30551, 1.30164, 1.31374, 1.32997, 1.28529, 1.2848, 1.33677, 1.29476, 1.28904, 1.32905, 1.30196, 1.30257, 1.39177, 1.39819, 1.31042, 1.31349, 1.31329, 1.32084, 1.35939, 1.2945, 1.29472, 1.29455, 1.29217, 1.28822, 1.28439, 1.28367, 1.28318, 1.28453, 1.28584, 1.28722, 1.28306, 1.29092, 1.29069, 1.29081, 1.27784, 1.27854, 1.66476, 1.36496, 1.36768, 1.35569, 1.33988, 1.32048, 1.31678, 1.31673, 1.31938, 1.3262, 1.34636, 1.2893, 1.28761, 1.28613, 1.28856, 1.28909, 1.28824, 1.29007, 1.39503, 1.32258, 1.29745, 1.29759, 1.3341, 1.30978, 1.30837, 1.30632, 1.3082, 1.30997, 1.41218, 1.32033, 1.3218, 1.32362, 1.32659, 1.32545, 1.32513, 1.32652, 1.32592, 1.3265, 1.33545, 1.33641, 1.48881, 1.4393, 1.35922, 1.35977
1.12073, 1.12118, 1.2087, 1.38585, 1.14081, 1.17851, 1.21538, 1.16788, 1.27391, 1.1168, 1.11712, 1.11935, 1.1188, 1.11894, 1.11902, 1.11869, 1.11872, 1.1172, 1.11351, 1.11128, 1.11213, 1.14382, 1.21491, 1.19497, 1.18788, 1.19896, 1.20031, 1.41203, 1.16566, 1.17219, 1.17182, 1.15875, 1.1591, 1.19882, 1.19033, 1.24093, 1.47462, 1.18151, 1.17097, 1.28507, 1.29932, 1.18587, 1.20228, 1.20617, 1.20828, 1.20813, 1.20835, 1.23791, 1.18898, 1.21446, 1.40857, 1.30583, 1.2215, 1.30454, 1.282, 1.48319, 1.42588, 1.33012, 1.27048, 1.26122, 1.24913, 1.25296, 1.33916, 1.24139, 1.20704, 1.2083, 1.21837, 1.21803, 1.2191, 1.21814, 1.24628, 1.24535, 1.22959, 1.2298, 1.2677, 1.26886, 1.25812, 1.26037, 1.26136, 1.24991, 1.1658, 1.16628, 1.24146, 1.24241, 1.22233, 1.22281, 1.32641, 1.35351, 1.0942, 1.08434, 1.08422, 1.08233, 1.08388, 1.08734, 1.08746, 1.1695, 1.18173, 1.19836, 1.09903, 1.18933, 1.09368, 1.09818, 1.09449, 1.0945, 1.25303, 1.10756, 1.10832, 1.13767, 1.11319, 1.11531, 1.11821, 1.11859, 1.11852, 1.11526, 1.11247, 1.11628, 1.1185, 1.1193, 1.11984, 1.12259, 1.121, 1.12012, 1.12151, 1.11989, 1.12048, 1.12066, 1.12034, 1.15006, 1.1228, 1.12449, 1.14043, 1.12636, 1.12703, 1.13196, 1.13409, 1.13572, 1.13888, 1.2195, 1.14364, 1.14386, 1.14381, 1.14315, 1.14354, 1.14475, 1.15441, 1.15375, 1.15312, 1.15183, 1.15326, 1.15361, 1.15937, 1.16079, 1.16025, 1.15994, 1.1613, 1.16319, 1.24476, 1.19468, 1.19448, 1.17703, 1.16982, 1.17019, 1.17849, 1.17328, 1.17322, 1.1727, 1.17079, 1.17137, 1.17222, 1.17249, 1.17445, 1.17392, 1.17674, 1.17732, 1.17652, 1.17199, 1.17115, 1.17197, 1.17784, 1.17969, 1.18085, 1.1803, 1.18377, 1.1857, 1.18666, 1.18899, 1.18908, 1.31017, 1.31922, 1.33009, 1.20403, 1.20467, 1.36146, 1.19963, 1.20051, 1.20499, 1.20627, 1.20622, 1.23691, 1.23638, 1.1951, 1.19342, 1.19244, 1.19138, 1.19329, 1.19548, 1.27512, 1.28388, 1.20206, 1.24796, 1.2086, 1.21112, 1.2673, 1.27662, 1.27179, 1.24829, 1.24621, 1.24708, 1.27196, 1.27793, 1.26918, 1.28197, 1.28687, 1.28718, 1.28503, 1.28464, 1.27842, 1.27805, 1.28095, 1.34518, 1.38497, 1.32441, 1.36444, 1.30834, 1.30953, 1.31129, 1.31152, 1.30921, 1.38724, 1.29571, 1.28843, 1.2883, 1.28972, 1.29207, 1.28506, 1.28506, 1.28484, 1.28404, 1.28287, 1.27749, 1.27746, 1.30271, 1.31066, 1.285, 1.27901, 1.27743, 1.2777, 1.28166, 1.35369, 1.41812, 1.3093, 1.32695, 1.32494, 1.32409, 1.32307, 1.83183, 1.33081, 1.28644, 1.2852, 1.28693, 1.2867, 1.28748, 1.28636, 1.28657, 1.28602, 1.28857, 1.29128, 1.29291, 1.30175, 1.3087, 1.31112, 1.30867, 1.30846, 1.30505, 1.30834, 1.37721, 1.3225, 1.32041, 1.31885, 1.32088, 1.32042, 1.32249, 1.32112, 1.32317, 1.32886, 1.33274, 1.33004, 1.32819, 1.38069, 1.33356
1.29176, 1.11342, 1.11399, 1.20655, 1.24422, 1.17203, 1.19646, 1.20523, 1.10646, 1.10626, 1.1122, 1.11508, 1.1158, 1.11575, 1.11647, 1.11709, 1.11812, 1.14987, 1.14439, 1.17779, 1.2191, 1.25606, 1.24932, 1.22013, 1.20992, 1.16326, 1.16342, 1.16335, 1.16841, 1.17007, 1.17017, 1.17719, 1.27772, 1.27083, 1.19597, 1.26116, 1.16361, 1.29816, 1.28795, 1.29322, 1.17926, 1.18298, 1.18408, 1.35496, 1.31504, 1.24204, 1.2295, 1.23221, 1.20511, 1.201, 1.20173, 1.23017, 1.21865, 1.30813, 1.30676, 1.26848, 1.24578, 1.24726, 1.25052, 1.24996, 1.25029, 1.25802, 1.24728, 1.24193, 1.23314, 1.25901, 1.22463, 1.28617, 1.2194, 1.21881, 1.21741, 1.21772, 1.23596, 1.23576, 1.26815, 1.26568, 1.26443, 1.37632, 1.25792, 1.25953, 1.25899, 1.16421, 1.16504, 1.29619, 1.27162, 1.27821, 1.21771, 1.20237, 1.31365, 1.35453, 1.31555, 1.2617, 1.08359, 1.08384, 1.08643, 1.08691, 1.41866, 1.11263, 1.12381, 1.13748, 1.10606, 1.10461, 1.10353, 1.10428, 1.1021, 1.10339, 1.10447, 1.10901, 1.11524, 1.11481, 1.11516, 1.11273, 1.11319, 1.11352, 1.11545, 1.11548, 1.11484, 1.11707, 1.11749, 1.11931, 1.11981, 1.12297, 1.12362, 1.1208, 1.1196, 1.12071, 1.12175, 1.12194, 1.24433, 1.12641, 1.12898, 1.12865, 1.12796, 1.12889, 1.13199, 1.13383, 1.13573, 1.30588, 1.20634, 1.21546, 1.14305, 1.14345, 1.14336, 1.14451, 1.14593, 1.15107, 1.15032, 1.14981, 1.15029, 1.15122, 1.15211, 1.15184, 1.16074, 1.15888, 1.15977, 1.15911, 1.16148, 1.26406, 1.17555, 1.17417, 1.17065, 1.16977, 1.17039, 1.16964, 1.16938, 1.16343, 1.16384, 1.17139, 1.16909, 1.17008, 1.17031, 1.17058, 1.1722, 1.17609, 1.17992, 1.17719, 1.17803, 1.17364, 1.17408, 1.1745, 1.17709, 1.17767, 1.17734, 1.17919, 1.18222, 1.18385, 1.18495, 1.17731, 1.18068, 1.18077, 1.33288, 1.19968, 1.33217, 1.20035, 1.20344, 1.20309, 1.2028, 1.2016, 1.22587, 1.18907, 1.18891, 1.18989, 1.19309, 1.19229, 1.19272, 1.19172, 1.19455, 1.19549, 1.19858, 1.20119, 1.24703, 1.25785, 1.27882, 1.27676, 1.24626, 1.24785, 1.24694, 1.26373, 1.25346, 1.27788, 1.28156, 1.28062, 1.28283, 1.28876, 1.28627, 1.28498, 1.28558, 1.34072, 1.27886, 1.34337, 1.38785, 1.31588, 1.4088, 1.35347, 1.31188, 1.31529, 1.3156, 1.32226, 1.45259, 1.37193, 1.28842, 1.28821, 1.28961, 1.29531, 1.29289, 1.28911, 1.28803, 1.28236, 1.27775, 1.27502, 1.276, 1.27519, 1.27397, 1.28182, 1.28067, 1.28105, 1.28205, 1.28228, 1.28329, 1.28826, 1.43308, 1.45136, 1.50477, 1.30886, 1.28621, 1.28746, 1.28839, 1.2941, 1.29446, 1.29419, 1.28998, 1.28919, 1.29093, 1.29099, 1.29117, 1.28876, 1.28812, 1.29057, 1.29161, 1.36851, 1.40782, 1.30589, 1.30572, 1.30606, 1.30543, 1.37498, 1.4331, 1.31825, 1.31797, 1.31654, 1.31658, 1.31595, 1.31686, 1.32035, 1.31957, 1.31975, 1.33321, 1.33073, 1.32953, 1.33036
1.12281, 1.29708, 1.11645, 1.11619, 1.11603, 1.33998, 1.14377, 1.1158, 1.10753, 1.10633, 1.10664, 1.11583, 1.11535, 1.11448, 1.11554, 1.11658, 1.1167, 1.17457, 1.07786, 1.1957, 1.28313, 1.28477, 1.27848, 1.30917, 1.19201, 1.22287, 1.29958, 1.31783, 1.22321, 1.22289, 1.17989, 1.38823, 1.33301, 1.28067, 1.29, 1.29492, 1.29467, 1.28786, 1.17679, 1.17715, 1.1869, 1.206, 1.19572, 1.19971, 1.22322, 1.22758, 1.2482, 1.34432, 1.2152, 1.20232, 1.20519, 1.20587, 1.21187, 1.29274, 1.34797, 1.34894, 1.27893, 1.24848, 1.2486, 1.24833, 1.25101, 1.25082, 1.42251, 1.45443, 1.45384, 1.28756, 1.22619, 1.22557, 1.22536, 1.23535, 1.21927, 1.21747, 1.21784, 1.2185, 1.26036, 1.26919, 1.23988, 1.24072, 1.18277, 1.26332, 1.17716, 1.17493, 1.17697, 1.21743, 1.27042, 1.33177, 1.32639, 1.31989, 1.34299, 1.16164, 1.23452, 1.12898, 1.08588, 1.0853, 1.08596, 1.08656, 1.22633, 1.07576, 1.07728, 1.07899, 1.44051, 1.4413, 1.21403, 1.09605, 1.09888, 1.10119, 1.10265, 1.10828, 1.10882, 1.12928, 1.1117, 1.11352, 1.11307, 1.11434, 1.11056, 1.26047, 1.11283, 1.11273, 1.26652, 1.11905, 1.12005, 1.12104, 1.12091, 1.11986, 1.11926, 1.11991, 1.12007, 1.11981, 1.12418, 1.13057, 1.12928, 1.12912, 1.12924, 1.12895, 1.13054, 1.13216, 1.13469, 1.13522, 1.14652, 1.17106, 1.19108, 1.14476, 1.1447, 1.14469, 1.14646, 1.1457, 1.14532, 1.14687, 1.14651, 1.14715, 1.14892, 1.14836, 1.14999, 1.1564, 1.15737, 1.15899, 1.16442, 1.16471, 1.17048, 1.17508, 1.17574, 1.16946, 1.17016, 1.16757, 1.16774, 1.16824, 1.16797, 1.1677, 1.16873, 1.16889, 1.16974, 1.16993, 1.1709, 1.17015, 1.17103, 1.2166, 1.17971, 1.1798, 1.17969, 1.17872, 1.176, 1.17684, 1.17522, 1.17564, 1.17731, 1.25099, 1.1844, 1.17717, 1.17704, 1.17803, 1.33689, 1.19438, 1.19555, 1.19834, 1.1974, 1.19786, 1.19907, 1.19977, 1.20158, 1.20118, 1.20106, 1.23624, 1.23628, 1.20328, 1.26425, 1.2609, 1.23039, 1.25488, 1.28065, 1.28046, 1.26306, 1.26401, 1.26778, 1.24401, 1.24245, 1.24622, 1.24591, 1.26241, 1.25227, 1.25806, 1.28825, 1.29038, 1.28056, 1.28605, 1.29172, 1.28536, 1.28754, 1.28514, 1.28567, 1.28118, 1.40895, 1.40851, 1.38092, 1.39889, 1.31344, 1.31313, 1.31608, 1.31575, 1.39191, 1.30254, 1.2916, 1.29031, 1.28931, 1.29331, 1.29459, 1.28392, 1.28422, 1.27998, 1.2799, 1.27705, 1.27728, 1.27734, 1.27556, 1.28128, 1.28482, 1.28616, 1.28832, 1.28743, 1.28742, 1.28763, 1.28654, 1.28483, 1.28469, 1.28776, 1.28621, 1.28671, 1.28885, 1.29713, 1.30296, 1.30131, 1.30232, 1.29154, 1.28916, 1.28848, 1.29113, 1.29105, 1.29103, 1.2912, 1.28958, 1.28906, 1.29329, 1.30785, 1.3048, 1.30463, 1.30208, 1.30196, 1.30814, 1.30836, 1.30789, 1.30978, 1.31162, 1.3192, 1.31569, 1.31305, 1.32141, 1.31881, 1.3189, 1.32816, 1.32622, 1.32546
1.12001, 1.11933, 1.11437, 1.11425, 1.11492, 1.118, 1.11932, 1.12357, 1.12295, 1.12286, 1.11718, 1.11623, 1.1156, 1.11341, 1.11242, 1.11134, 1.1114, 1.31142, 1.20235, 1.17158, 1.19107, 1.19154, 1.19342, 1.20802, 1.27886, 1.30302, 1.17963, 1.17467, 1.17721, 1.37613, 1.38519, 1.18778, 1.1896, 1.19049, 1.19053, 1.19118, 1.26116, 1.1932, 1.19177, 1.19443, 1.1954, 1.20236, 1.20144, 1.22607, 1.33892, 1.33861, 1.22216, 1.22363, 1.23344, 1.25308, 1.2045, 1.20452, 1.24003, 1.23961, 1.51737, 1.35337, 1.28963, 1.24464, 1.24613, 1.45093, 1.25376, 1.27867, 1.27081, 1.21058, 1.21304, 1.31445, 1.21883, 1.22163, 1.22242, 1.38522, 1.21392, 1.21596, 1.21606, 1.22977, 1.22092, 1.32586, 1.21603, 1.21591, 1.25781, 1.21117, 1.27078, 1.27546, 1.26915, 1.2117, 1.31552, 1.30603, 1.24999, 1.20053, 1.19663, 1.35498, 1.24996, 1.22251, 1.22169, 1.15022, 1.22753, 1.12441, 1.07753, 1.07688, 1.07963, 1.0802, 1.12676, 1.59337, 1.55802, 1.26138, 1.09719, 1.10068, 1.10095, 1.10428, 1.10506, 1.12936, 1.10855, 1.10933, 1.11058, 1.11062, 1.1012, 1.12588, 1.26557, 1.12204, 1.12155, 1.13261, 1.13301, 1.11956, 1.12109, 1.12154, 1.11992, 1.12031, 1.12022, 1.12227, 1.12753, 1.12677, 1.12705, 1.12922, 1.12863, 1.12962, 1.13048, 1.13274, 1.1359, 1.13583, 1.13371, 1.14088, 1.14269, 1.15473, 1.14337, 1.14417, 1.14285, 1.14304, 1.14255, 1.14541, 1.26469, 1.14944, 1.14976, 1.14972, 1.1528, 1.15466, 1.15564, 1.16093, 1.25872, 1.27307, 1.17205, 1.17485, 1.1755, 1.17063, 1.16698, 1.16671, 1.16646, 1.16535, 1.16396, 1.16416, 1.21671, 1.17687, 1.17712, 1.17926, 1.16889, 1.16998, 1.16998, 1.16715, 1.16778, 1.23592, 1.18167, 1.1804, 1.17846, 1.17702, 1.17865, 1.17551, 1.17441, 1.17411, 1.1756, 1.17742, 1.17744, 1.17879, 1.33978, 1.33971, 1.18974, 1.19311, 1.19174, 1.19176, 1.19549, 1.19582, 1.20184, 1.27105, 1.20289, 1.22866, 1.22759, 1.20828, 1.3565, 1.24029, 1.22999, 1.25411, 1.22658, 1.26398, 1.25964, 1.26653, 1.26337, 1.23697, 1.27379, 1.27263, 1.24467, 1.24509, 1.24687, 1.26438, 1.25969, 1.25982, 1.45499, 1.28229, 1.27489, 1.28793, 1.28357, 1.28529, 1.28497, 1.34315, 1.28913, 1.28845, 1.29114, 1.29542, 1.29843, 1.29896, 1.30543, 1.30459, 1.30571, 1.30667, 1.37649, 1.29006, 1.28909, 1.28813, 1.28746, 1.28621, 1.28475, 1.28199, 1.28555, 1.28604, 1.27722, 1.2757, 1.27593, 1.27801, 1.28654, 1.28781, 1.28871, 1.28825, 1.28789, 1.28787, 1.28615, 1.28566, 1.28554, 1.2857, 1.28468, 1.28552, 1.29278, 1.29384, 1.3058, 1.29853, 1.30278, 1.29197, 1.2922, 1.28976, 1.28898, 1.28964, 1.2836, 1.2872, 1.28644, 1.28678, 1.29264, 1.29271, 1.30255, 1.30628, 1.30495, 1.30332, 1.30447, 1.30861, 1.3129, 1.31351, 1.31195, 1.31335, 1.31277, 1.31507, 1.31447, 1.31538, 1.31538, 1.46841, 1.32823, 1.3273
1.11415, 1.11628, 1.11602, 1.11624, 1.11844, 1.11927, 1.11725, 1.11954, 1.12152, 1.12384, 1.12434, 1.20812, 1.21983, 1.19121, 1.10788, 1.10838, 1.10918, 1.1102, 1.11103, 1.11012, 1.10066, 1.30669, 1.40608, 1.21226, 1.31107, 1.21139, 1.23226, 1.30356, 1.27859, 1.28783, 1.27603, 1.2943, 1.49018, 1.1916, 1.19189, 1.19202, 1.19157, 1.62082, 1.20457, 1.30023, 1.31686, 1.21488, 1.36164, 1.33359, 1.21027, 1.34414, 1.37107, 1.37302, 1.22259, 1.34682, 1.24015, 1.19841, 1.20456, 1.26484, 1.25552, 1.24234, 1.25842, 1.25887, 1.24339, 1.42928, 1.23971, 1.47027, 1.21277, 1.21231, 1.21335, 1.49814, 1.49888, 1.35351, 1.35143, 1.35135, 1.35684, 1.35996, 1.21254, 1.21959, 1.22289, 1.22263, 1.22315, 1.27862, 1.2144, 1.21541, 1.23965, 1.20932, 1.20976, 1.21015, 1.20973, 1.212, 1.21217, 1.21082, 1.21139, 1.26358, 1.22271, 1.25414, 1.37357, 1.19771, 1.27228, 1.13773, 1.13714, 1.08581, 1.14557, 1.11562, 1.17191, 1.19419, 1.19435, 1.62295, 1.09799, 1.09929, 1.1017, 1.10149, 1.10288, 1.10499, 1.10667, 1.10774, 1.10798, 1.10833, 1.10441, 1.10209, 1.10244, 1.12294, 1.28475, 1.11499, 1.12318, 1.12257, 1.1205, 1.12068, 1.12102, 1.12099, 1.12235, 1.12348, 1.12402, 1.12588, 1.12425, 1.12347, 1.12746, 1.12877, 1.13175, 1.13228, 1.1374, 1.13817, 1.13735, 1.13725, 1.1466, 1.14114, 1.14411, 1.14522, 1.14485, 1.14437, 1.14511, 1.14438, 1.14665, 1.14836, 1.14972, 1.14935, 1.15089, 1.15359, 1.15477, 1.16006, 1.15985, 1.28957, 1.2952, 1.17161, 1.17354, 1.17417, 1.16342, 1.16742, 1.16791, 1.1681, 1.16177, 1.16169, 1.16378, 1.2328, 1.17405, 1.17264, 1.17265, 1.16936, 1.16801, 1.1659, 1.16369, 1.16578, 1.22186, 1.24814, 1.24517, 1.24397, 1.17744, 1.17693, 1.18041, 1.18187, 1.17669, 1.17613, 1.17736, 1.17982, 1.18137, 1.1844, 1.52069, 1.19313, 1.19258, 1.19325, 1.19183, 1.19206, 1.19204, 1.19796, 1.28422, 1.20099, 1.20095, 1.20221, 1.21228, 1.20462, 1.21201, 1.2158, 1.21326, 1.21162, 1.21213, 1.25256, 1.23709, 1.22577, 1.22647, 1.23353, 1.24009, 1.26855, 1.27221, 1.2718, 1.25867, 1.2569, 1.29199, 1.2812, 1.2717, 1.27185, 1.27516, 1.27387, 1.27682, 1.27725, 1.33515, 1.33329, 1.34025, 1.33896, 1.30599, 1.30547, 1.30234, 1.30161, 1.30187, 1.30241, 1.30322, 1.28939, 1.28755, 1.28751, 1.28794, 1.28807, 1.49183, 1.28417, 1.28286, 1.28469, 1.27878, 1.27684, 1.27838, 1.28115, 1.60963, 1.29253, 1.30041, 1.38202, 1.39617, 1.33984, 1.33727, 1.33176, 1.65103, 1.29147, 1.28834, 1.28739, 1.28504, 1.28435, 1.28649, 1.28988, 1.29044, 1.2876, 1.28376, 1.28394, 1.2856, 1.28571, 1.28744, 1.28349, 1.28797, 1.28532, 1.28485, 1.28588, 1.28845, 1.28885, 1.30331, 1.30868, 1.30994, 1.30835, 1.30962, 1.31079, 1.30902, 1.33378, 1.3012, 1.2997, 1.59885, 1.32332, 1.31867, 1.31646, 1.32047, 1.32065
1.11463, 1.11536, 1.11536, 1.12353, 1.11517, 1.11701, 1.11935, 1.11803, 1.1184, 1.11556, 1.21726, 1.22254, 1.22382, 1.212, 1.23523, 1.22938, 1.22415, 1.1166, 1.22979, 1.11268, 1.26748, 1.26707, 1.19889, 1.19748, 1.19801, 1.32304, 1.34783, 1.35018, 1.36405, 1.30906, 1.27283, 1.27097, 1.36993, 1.37014, 1.33358, 1.31503, 1.31538, 1.21768, 1.23065, 1.30172, 1.20515, 1.47568, 1.22654, 1.32343, 1.21851, 1.35127, 1.30879, 1.29929, 1.26455, 1.3528, 1.28771, 1.21135, 1.30632, 1.21689, 1.222, 1.23074, 1.32248, 1.23318, 1.23272, 1.41363, 1.41051, 1.21476, 1.21193, 1.20856, 1.206, 1.30994, 1.37916, 1.39979, 1.38564, 1.34543, 1.2699, 1.21341, 1.21034, 1.21632, 1.21514, 1.21625, 1.26537, 1.40076, 1.25237, 1.2325, 1.24477, 1.21212, 1.21583, 1.25333, 1.25554, 1.27495, 1.21668, 1.21353, 1.2134, 1.22701, 1.26362, 1.23915, 1.28798, 1.3467, 1.41862, 1.37399, 1.12489, 1.09727, 1.09477, 1.09582, 1.1644, 1.09427, 1.09455, 1.09644, 1.09665, 1.09767, 1.09831, 1.0992, 1.099, 1.10144, 1.10537, 1.10583, 1.10777, 1.1103, 1.10252, 1.10123, 1.10284, 1.11891, 1.12094, 1.12046, 1.11823, 1.12166, 1.12091, 1.11999, 1.12, 1.12026, 1.12101, 1.12166, 1.122, 1.12883, 1.12903, 1.1297, 1.13013, 1.12978, 1.1303, 1.13085, 1.13462, 1.13624, 1.13874, 1.13867, 1.16352, 1.14642, 1.14593, 1.14561, 1.14489, 1.1442, 1.1425, 1.14248, 1.14337, 1.14591, 1.14599, 1.14836, 1.15083, 1.15267, 1.15353, 1.15512, 1.15707, 1.1599, 1.16158, 1.3052, 1.17402, 1.17387, 1.17164, 1.17275, 1.17741, 1.19144, 1.16438, 1.1631, 1.16177, 1.16815, 1.16694, 1.16613, 1.16651, 1.16796, 1.16985, 1.16744, 1.16336, 1.16322, 1.16382, 1.33674, 1.1693, 1.17024, 1.17809, 1.17602, 1.17862, 1.18494, 1.187, 1.18724, 1.18714, 1.18335, 1.1787, 1.17991, 1.18277, 1.18572, 1.34074, 1.19861, 1.20023, 1.20275, 1.19437, 1.19438, 1.20505, 1.19776, 1.19866, 1.20047, 1.20191, 1.20353, 1.20328, 1.20598, 1.21205, 1.21132, 1.20995, 1.2296, 1.22654, 1.23958, 1.23409, 1.23345, 1.27061, 1.241, 1.2468, 1.24744, 1.26147, 1.28107, 1.28129, 1.26476, 1.25843, 1.26655, 1.27864, 1.32747, 1.27047, 1.27033, 1.3338, 1.33334, 1.33439, 1.32703, 1.3516, 1.36816, 1.3683, 1.36864, 1.30266, 1.29741, 1.29826, 1.30603, 1.29232, 1.29151, 1.29183, 1.2913, 1.29349, 1.29323, 1.28309, 1.28241, 1.28088, 1.2795, 1.28406, 1.2829, 1.2874, 1.29965, 1.30115, 1.30162, 1.30196, 1.30589, 1.31375, 1.31255, 1.34402, 1.36067, 1.29083, 1.28774, 1.28792, 1.2876, 1.28769, 1.28571, 1.28733, 1.2841, 1.28278, 1.28612, 1.28838, 1.28631, 1.28679, 1.28494, 1.2845, 1.28451, 1.28597, 1.28526, 1.28811, 1.29339, 1.29258, 1.29584, 1.29725, 1.30944, 1.30339, 1.30817, 1.30234, 1.30474, 1.3048, 1.30296, 1.30244, 1.60195, 1.31574, 1.31401, 1.3181, 1.32234
1.17685, 1.18779, 1.18097, 1.12703, 1.10664, 1.11287, 1.27819, 1.24989, 1.39601, 1.10809, 1.11055, 1.15299, 1.18154, 1.24685, 1.2024, 1.2127, 1.09184, 1.31827, 1.31099, 1.20954, 1.22678, 1.2717, 1.27166, 1.32573, 1.31708, 1.29996, 1.22837, 1.24059, 1.24003, 1.33827, 1.26013, 1.28774, 1.27509, 1.36835, 1.30486, 1.33488, 1.32328, 1.31221, 1.47633, 1.21033, 1.29923, 1.41581, 1.63467, 1.63295, 1.62686, 1.35346, 1.24991, 1.38269, 1.29806, 1.42249, 1.46734, 1.38274, 1.22729, 1.32078, 1.22597, 1.22076, 1.22067, 1.22033, 1.21833, 1.21838, 1.3192, 1.21315, 1.30578, 1.49933, 1.50038, 1.19467, 1.19562, 1.19234, 1.19273, 1.23251, 1.26725, 1.37547, 1.38101, 1.21699, 1.21616, 1.21696, 1.21803, 1.22089, 1.24332, 1.25758, 1.27845, 1.2989, 1.27377, 1.2778, 1.30416, 1.25461, 1.2664, 1.2747, 1.40631, 1.27982, 1.28039, 1.24997, 1.25083, 1.27736, 1.32061, 1.46735, 1.43202, 1.14944, 1.09628, 1.09641, 1.0973, 1.09567, 1.09553, 1.09757, 1.09753, 1.09496, 1.09144, 1.09776, 1.10115, 1.10238, 1.10522, 1.19492, 1.11091, 1.10366, 1.10446, 1.10438, 1.10479, 1.10821, 1.11186, 1.11775, 1.1178, 1.11922, 1.12177, 1.11987, 1.12037, 1.12, 1.12005, 1.12161, 1.12195, 1.12322, 1.13151, 1.13356, 1.13295, 1.1337, 1.13357, 1.13546, 1.13926, 1.13747, 1.13685, 1.13753, 1.13918, 1.1458, 1.14551, 1.14298, 1.1436, 1.14336, 1.14443, 1.14431, 1.14342, 1.14601, 1.1459, 1.14656, 1.14972, 1.15072, 1.1515, 1.15613, 1.15684, 1.1599, 1.20516, 1.16945, 1.29481, 1.34011, 1.17694, 1.17507, 1.17524, 1.17768, 1.17374, 1.1785, 1.17021, 1.17022, 1.16384, 1.16349, 1.16391, 1.16345, 1.16388, 1.16526, 1.16577, 1.16682, 1.1676, 1.16768, 1.16856, 1.17045, 1.17243, 1.17458, 1.17294, 1.17374, 1.17494, 1.22501, 1.17872, 1.17933, 1.17824, 1.17813, 1.1794, 1.18152, 1.18355, 1.37833, 1.18832, 1.19638, 1.19491, 1.19462, 1.19177, 1.1931, 1.24516, 1.20141, 1.20005, 1.19962, 1.20443, 1.20487, 1.20503, 1.20881, 1.20805, 1.20838, 1.21892, 1.2387, 1.23041, 1.23117, 1.26113, 1.24081, 1.26546, 1.25166, 1.25135, 1.25428, 1.25558, 1.25648, 1.25996, 1.26114, 1.25846, 1.25981, 1.26109, 1.32405, 1.33756, 1.2613, 1.26341, 1.26336, 1.27099, 1.26951, 1.35639, 1.35623, 1.34445, 1.34378, 1.30643, 1.30609, 1.30851, 1.29476, 1.29313, 1.29288, 1.29487, 1.29486, 1.28655, 1.28667, 1.28461, 1.28357, 1.28094, 1.28037, 1.28458, 1.30714, 1.29475, 1.29528, 1.298, 1.29588, 1.30503, 1.30436, 1.30865, 1.30873, 1.36431, 1.29477, 1.29832, 1.29473, 1.29476, 1.29354, 1.28184, 1.28158, 1.28229, 1.27779, 1.28459, 1.28307, 1.28158, 1.28037, 1.28171, 1.28858, 1.2866, 1.28698, 1.28373, 1.28312, 1.29129, 1.29085, 1.29134, 1.46889, 1.45358, 1.3016, 1.30533, 1.30372, 1.30661, 1.30531, 1.30397, 1.31185, 1.31002, 1.31048, 1.31465, 1.31587
1.20435, 1.19144, 1.09069, 1.25055, 1.21957, 1.19432, 1.196, 1.29989, 1.21693, 1.24351, 1.11018, 1.2043, 1.16859, 1.19137, 1.24823, 1.2489, 1.45852, 1.11604, 1.37828, 1.25484, 1.32332, 1.20203, 1.27878, 1.21661, 1.24339, 1.32337, 1.33972, 1.35034, 1.35035, 1.41626, 1.43591, 1.23998, 1.24119, 1.37389, 1.52324, 1.30016, 1.33634, 1.25109, 1.29059, 1.33814, 1.47422, 1.21986, 1.22003, 1.21766, 1.32934, 1.42603, 1.43134, 1.2825, 1.3946, 1.25516, 1.38086, 1.23175, 1.2316, 1.2324, 1.32099, 1.22769, 1.2183, 1.2184, 1.21689, 1.21667, 1.21702, 1.45224, 1.29473, 1.33094, 1.19709, 1.19613, 1.19853, 1.31056, 1.21786, 1.39568, 1.23923, 1.56806, 1.38031, 1.24026, 1.34449, 1.2411, 1.24122, 1.23783, 1.24304, 1.2459, 1.25306, 1.27462, 1.25133, 1.20165, 1.28388, 1.25599, 1.29158, 1.20482, 1.40442, 1.26776, 1.27983, 1.26314, 1.25334, 1.26876, 1.27661, 1.37188, 1.39863, 1.51197, 1.39329, 1.15784, 1.09802, 1.09601, 1.09389, 1.09321, 1.09424, 1.09199, 1.0926, 1.09101, 1.08977, 1.091, 1.09936, 1.10004, 1.10187, 1.10137, 1.10511, 1.10635, 1.10736, 1.10818, 1.22107, 1.11481, 1.11481, 1.3314, 1.3365, 1.12939, 1.12003, 1.12011, 1.12019, 1.1238, 1.12382, 1.12367, 1.13194, 1.13243, 1.21664, 1.16235, 1.3851, 1.35174, 1.3862, 1.14217, 1.14104, 1.14058, 1.14169, 1.14454, 1.15317, 1.14467, 1.14361, 1.14399, 1.14918, 1.1497, 1.14784, 1.14684, 1.14723, 1.14691, 1.14889, 1.14931, 1.15167, 1.15439, 1.15546, 1.16682, 1.18166, 1.1678, 1.34984, 1.18132, 1.1815, 1.18154, 1.17702, 1.17695, 1.17343, 1.17345, 1.28194, 1.18575, 1.16559, 1.1647, 1.16459, 1.166, 1.16252, 1.16502, 1.16591, 1.16402, 1.16418, 1.1668, 1.16795, 1.16849, 1.17066, 1.17123, 1.17088, 1.17107, 1.17111, 1.17442, 1.17918, 1.17689, 1.17586, 1.17583, 1.17705, 1.17748, 1.17942, 1.1821, 1.18456, 1.38997, 1.18663, 1.18956, 1.18934, 1.19153, 1.19185, 1.20144, 1.20873, 1.19761, 1.19782, 1.21333, 1.20626, 1.20636, 1.22085, 1.22084, 1.23789, 1.22636, 1.24646, 1.24674, 1.24465, 1.24482, 1.34611, 1.25375, 1.25306, 1.25278, 1.25317, 1.25304, 1.25334, 1.25762, 1.25689, 1.25549, 1.25426, 1.24854, 1.25195, 1.25509, 1.25553, 1.26408, 1.26224, 1.2638, 1.32443, 1.32318, 1.27879, 1.35716, 1.36452, 1.30878, 1.30846, 1.30198, 1.30128, 1.29696, 1.29789, 1.28907, 1.29024, 1.29063, 1.28541, 1.28484, 1.28648, 1.28491, 1.28068, 1.40446, 1.296, 1.29498, 1.29156, 1.29102, 1.38503, 1.30525, 1.30515, 1.31063, 1.31077, 1.31022, 1.29174, 1.29189, 1.29266, 1.34993, 1.47864, 1.27976, 1.27829, 1.27847, 1.27823, 1.27896, 1.27978, 1.28115, 1.28004, 1.28071, 1.28785, 1.28472, 1.28617, 1.28398, 1.28569, 1.2909, 1.28985, 1.32679, 1.31145, 1.30181, 1.30368, 1.30256, 1.30365, 1.30492, 1.30422, 1.3053, 1.31003, 1.30957, 1.31066, 1.31536
1.14443, 1.13337, 1.19271, 1.14356, 1.1791, 1.07352, 1.07343, 1.28693, 1.29836, 1.21906, 1.10782, 1.24052, 1.33973, 1.26033, 1.25509, 1.25524, 1.25746, 1.10832, 1.34285, 1.23663, 1.2401, 1.26103, 1.1987, 1.62017, 1.36324, 1.22236, 1.26376, 1.36063, 1.39235, 1.25095, 1.44024, 1.39341, 1.2495, 1.24951, 1.59511, 1.30663, 1.30631, 1.25735, 1.49579, 1.31279, 1.42351, 1.42359, 1.22475, 1.22178, 1.46217, 1.41378, 1.32534, 1.29834, 1.29852, 1.27566, 1.26978, 1.236, 1.23594, 1.23597, 1.23929, 1.23645, 1.22173, 1.22104, 1.30561, 1.36521, 1.42375, 1.35042, 1.21572, 1.23712, 1.20485, 1.20515, 1.22618, 1.21928, 1.25319, 1.24756, 1.25861, 1.24354, 1.24697, 1.2448, 1.23989, 1.34325, 1.33752, 1.24285, 1.22168, 1.25407, 1.2142, 1.26631, 1.26859, 1.2672, 1.27357, 1.23686, 1.41554, 1.2771, 1.275, 1.23485, 1.24443, 1.28633, 1.27665, 1.28177, 1.3335, 1.28827, 1.31273, 1.47029, 1.51365, 1.20612, 1.18432, 1.17515, 1.17677, 1.18643, 1.09604, 1.09444, 1.09267, 1.09304, 1.09318, 1.09062, 1.09098, 1.09156, 1.0926, 1.11345, 1.10642, 1.10459, 1.10438, 1.10545, 1.11613, 1.29442, 1.13693, 1.12418, 1.12555, 1.12948, 1.13, 1.12899, 1.12624, 1.12374, 1.12758, 1.12956, 1.19807, 1.13366, 1.21642, 1.20459, 1.15324, 1.15378, 1.15386, 1.14389, 1.14163, 1.14223, 1.14185, 1.14225, 1.15464, 1.15386, 1.18226, 1.14466, 1.14504, 1.14445, 1.14723, 1.16927, 1.21856, 1.21638, 1.15117, 1.15146, 1.15205, 1.15271, 1.15353, 1.155, 1.15712, 1.36849, 1.17595, 1.18704, 1.18054, 1.18365, 1.18296, 1.18254, 1.17913, 1.18001, 1.1805, 1.18481, 1.18761, 1.16494, 1.16567, 1.16691, 1.1674, 1.16495, 1.16672, 1.16586, 1.16301, 1.16544, 1.16682, 1.16754, 1.16914, 1.17067, 1.17102, 1.17128, 1.17085, 1.17087, 1.17191, 1.17106, 1.16483, 1.16455, 1.17253, 1.17377, 1.17704, 1.17835, 1.18021, 1.18144, 1.18549, 1.18537, 1.18586, 1.18643, 1.18606, 1.18796, 1.24046, 1.19749, 1.21004, 1.20856, 1.20967, 1.20995, 1.20396, 1.20278, 1.20028, 1.20314, 1.20634, 1.20921, 1.20871, 1.25376, 1.25116, 1.254, 1.46177, 1.25117, 1.25398, 1.25376, 1.2567, 1.25637, 1.28126, 1.24808, 1.25022, 1.25094, 1.24982, 1.24652, 1.24487, 1.25124, 1.25367, 1.32373, 1.25938, 1.34081, 1.34983, 1.28344, 1.31417, 1.35982, 1.3894, 1.29566, 1.29489, 1.30503, 1.30378, 1.30575, 1.36055, 1.29252, 1.29076, 1.28687, 1.2844, 1.27778, 1.27396, 1.29125, 1.29562, 1.29358, 1.29035, 1.29081, 1.29166, 1.38883, 1.44848, 1.40565, 1.40736, 1.31022, 1.30903, 1.35144, 1.78398, 1.2863, 1.28114, 1.27858, 1.27707, 1.27615, 1.27891, 1.27814, 1.28587, 1.28433, 1.28421, 1.28424, 1.28452, 1.28527, 1.28518, 1.28656, 1.28791, 1.28762, 1.29119, 1.29247, 1.29616, 1.30205, 1.30181, 1.29813, 1.29904, 1.30189, 1.30408, 1.30617, 1.31029, 1.30984, 1.3089, 1.31137
1.1609, 1.13561, 1.06291, 1.06323, 1.12414, 1.07358, 1.07402, 1.2201, 1.333, 1.29137, 1.21353, 1.19072, 1.26081, 1.26084, 1.10874, 1.11009, 1.11119, 1.11124, 1.21314, 1.23997, 1.32386, 1.25862, 1.40149, 1.29702, 1.41915, 1.28946, 1.38934, 1.40561, 1.30076, 1.28234, 1.25843, 1.25991, 1.2599, 1.25583, 1.25564, 1.26008, 1.26078, 1.26348, 1.36612, 1.36926, 1.50086, 1.2938, 1.42784, 1.22534, 1.2259, 1.53981, 1.24592, 1.25021, 1.25117, 1.37414, 1.23972, 1.23843, 1.23822, 1.36737, 1.22928, 1.3616, 1.46019, 1.46037, 1.46123, 1.29306, 1.35422, 1.30141, 1.32575, 1.45926, 1.26275, 1.26252, 1.26817, 1.23519, 1.23558, 1.37794, 1.29968, 1.36821, 1.26827, 1.30603, 1.30892, 1.25721, 1.24398, 1.24639, 1.25298, 1.25034, 1.25735, 1.21684, 1.23691, 1.22267, 1.22332, 1.23953, 1.23396, 1.23211, 1.27842, 1.26126, 1.30849, 1.24648, 1.24664, 1.30493, 1.26146, 1.26643, 1.26659, 1.26733, 1.38531, 1.38782, 1.34081, 1.19108, 1.36373, 1.15202, 1.11066, 1.11507, 1.23623, 1.09338, 1.09235, 1.09241, 1.08843, 1.09441, 1.09421, 1.09592, 1.10012, 1.10079, 1.10346, 1.10643, 1.10846, 1.11032, 1.2435, 1.32011, 1.14347, 1.13459, 1.13564, 1.1786, 1.12482, 1.12549, 1.12532, 1.12616, 1.24712, 1.13794, 1.14305, 1.14945, 1.14957, 1.15036, 1.14699, 1.14717, 1.14379, 1.14288, 1.14367, 1.20555, 1.1514, 1.15842, 1.15702, 1.1448, 1.1437, 1.1444, 1.14465, 1.32272, 1.20153, 1.16385, 1.16455, 1.15382, 1.15372, 1.15424, 1.15867, 1.1587, 1.16755, 1.17148, 1.18116, 1.20381, 1.18298, 1.18219, 1.18326, 1.18388, 1.18407, 1.18047, 1.18035, 1.18207, 1.20317, 1.30223, 1.16964, 1.16505, 1.16708, 1.17014, 1.16547, 1.16535, 1.16679, 1.16718, 1.16667, 1.16961, 1.17144, 1.17183, 1.16884, 1.16939, 1.16796, 1.16739, 1.16874, 1.17403, 1.16998, 1.17016, 1.17125, 1.17209, 1.17381, 1.17492, 1.17537, 1.17621, 1.18225, 1.18199, 1.18263, 1.18422, 1.1843, 1.18403, 1.18475, 1.18788, 1.2509, 1.19432, 1.34043, 1.2125, 1.21589, 1.19817, 1.19826, 1.19806, 1.20402, 1.23348, 1.22984, 1.22245, 1.22639, 1.2535, 1.24301, 1.25658, 1.25718, 1.2401, 1.23914, 1.23759, 1.23603, 1.23604, 1.28898, 1.23938, 1.24012, 1.24182, 1.24267, 1.24467, 1.24693, 1.24985, 1.33861, 1.33711, 1.34684, 1.30346, 1.37024, 1.36538, 1.36138, 1.29636, 1.29709, 1.36802, 1.3051, 1.30519, 1.30584, 1.31872, 1.30419, 1.34647, 1.35796, 1.28596, 1.28212, 1.29241, 1.28967, 1.28837, 1.28875, 1.28737, 1.28773, 1.28397, 1.28243, 1.42306, 1.46846, 1.29515, 1.30891, 1.3052, 1.3065, 1.35056, 1.45536, 1.27897, 1.27761, 1.27762, 1.27615, 1.27753, 1.27925, 1.28118, 1.28216, 1.28271, 1.28477, 1.2844, 1.28456, 1.28872, 1.28802, 1.28994, 1.28921, 1.28962, 1.29271, 1.30294, 1.30142, 1.30176, 1.30028, 1.30168, 1.30314, 1.30709, 1.30803, 1.31291, 1.31194, 1.3102
1.11676, 1.14368, 1.13249, 1.25607, 1.1158, 1.23696, 1.23543, 1.2601, 1.27456, 1.27428, 1.12558, 1.12553, 1.26082, 1.11581, 1.11875, 1.11552, 1.11574, 1.22387, 1.17719, 1.19756, 1.25781, 1.25886, 1.32317, 1.32189, 1.25426, 1.39631, 1.22625, 1.23593, 1.24397, 1.42636, 1.25085, 1.25154, 1.25799, 1.25652, 1.25688, 1.26095, 1.25599, 1.25527, 1.25848, 1.27465, 1.24507, 1.25038, 1.24385, 1.4274, 1.44007, 1.34972, 1.24714, 1.24842, 1.30327, 1.3772, 1.28397, 1.22578, 1.22152, 1.22798, 1.44296, 1.4516, 1.24615, 1.37151, 1.26022, 1.26129, 1.26135, 1.25928, 1.28423, 1.26485, 1.47136, 1.23374, 1.29957, 1.24001, 1.24175, 1.37128, 1.25628, 1.2604, 1.26291, 1.35821, 1.25589, 1.32337, 1.31413, 1.24588, 1.24302, 1.25371, 1.25736, 1.25397, 1.22207, 1.22277, 1.22943, 1.22064, 1.22269, 1.27468, 1.26532, 1.2776, 1.28826, 1.2448, 1.24639, 1.31971, 1.25394, 1.32442, 1.3495, 1.32179, 1.40973, 1.43086, 1.44415, 1.40427, 1.44982, 1.16573, 1.15249, 1.20645, 1.12055, 1.1593, 1.10224, 1.10151, 1.1216, 1.38131, 1.1014, 1.09915, 1.10358, 1.10539, 1.2818, 1.29041, 1.17086, 1.11502, 1.11408, 1.12212, 1.1417, 1.13575, 1.13637, 1.17021, 1.28418, 1.18909, 1.11307, 1.11255, 1.13638, 1.13525, 1.23358, 1.14659, 1.13903, 1.13945, 1.14094, 1.15401, 1.1569, 1.13656, 1.13452, 1.13549, 1.13617, 1.13752, 1.16015, 1.16667, 1.18433, 1.14586, 1.14555, 1.1446, 1.15435, 1.34602, 1.16501, 1.15727, 1.15738, 1.15285, 1.1527, 1.15402, 1.15629, 1.16074, 1.18926, 1.19595, 1.22111, 1.19833, 1.24039, 1.17583, 1.17486, 1.16782, 1.31576, 1.18419, 1.18722, 1.19165, 1.19765, 1.166, 1.1666, 1.16583, 1.16735, 1.16355, 1.16516, 1.16598, 1.1701, 1.17064, 1.16661, 1.16876, 1.16654, 1.16851, 1.16578, 1.16584, 1.16624, 1.16852, 1.17003, 1.1682, 1.16848, 1.17071, 1.1721, 1.17534, 1.17617, 1.1847, 1.43274, 1.18599, 1.17636, 1.18047, 1.18092, 1.18237, 1.18379, 1.18067, 1.18418, 1.18801, 1.19307, 1.19543, 1.18988, 1.19808, 1.19633, 1.20004, 1.20135, 1.20263, 1.22702, 1.3549, 1.36167, 1.34485, 1.24367, 1.23966, 1.23644, 1.23584, 1.23955, 1.23921, 1.2404, 1.239, 1.23767, 1.23697, 1.23751, 1.23675, 1.24031, 1.24122, 1.2456, 1.24712, 1.25193, 1.25746, 1.30212, 1.34756, 1.35976, 1.29855, 1.34904, 1.35725, 1.29911, 1.42626, 1.36144, 1.31957, 1.31607, 1.31942, 1.31798, 1.33722, 1.34659, 1.2965, 1.2951, 1.28596, 1.2847, 1.28594, 1.28507, 1.28484, 1.28317, 1.28248, 1.28208, 1.28092, 1.28093, 1.29106, 1.30481, 1.30874, 1.30697, 1.44464, 1.32349, 1.2797, 1.27794, 1.27876, 1.28221, 1.28187, 1.28067, 1.28106, 1.28488, 1.28439, 1.28294, 1.28172, 1.28204, 1.2854, 1.28921, 1.28902, 1.29149, 1.30133, 1.30167, 1.30198, 1.2962, 1.3074, 1.30822, 1.30768, 1.30982, 1.30529, 1.30563, 1.3077, 1.30756, 1.60581
1.11844, 1.03631, 1.28809, 1.37862, 1.04616, 1.13105, 1.11892, 1.24066, 1.28456, 1.28425, 1.13227, 1.13214, 1.28164, 1.26746, 1.13669, 1.12942, 1.12087, 1.12262, 1.21529, 1.23269, 1.37348, 1.37458, 1.21689, 1.22547, 1.30802, 1.29209, 1.29404, 1.2334, 1.23573, 1.2874, 1.49539, 1.30926, 1.30239, 1.26826, 1.2811, 1.24899, 1.24864, 1.31579, 1.253, 1.25288, 1.32699, 1.24246, 1.24213, 1.34419, 1.34815, 1.34814, 1.2499, 1.24998, 1.38151, 1.38726, 1.22073, 1.22039, 1.32203, 1.30872, 1.43886, 1.49901, 1.28867, 1.35944, 1.33645, 1.33643, 1.46432, 1.44836, 1.39218, 1.48679, 1.42628, 1.42694, 1.2654, 1.31969, 1.2502, 1.25356, 1.25387, 1.35107, 1.30498, 1.30466, 1.30903, 1.25805, 1.25521, 1.25298, 1.24774, 1.24791, 1.22992, 1.23013, 1.27747, 1.23302, 1.30545, 1.22135, 1.22134, 1.22241, 1.47321, 1.24045, 1.29866, 1.23957, 1.24129, 1.25229, 1.3058, 1.29619, 1.32748, 1.3547, 1.25773, 1.3512, 1.44385, 1.25181, 1.25321, 1.2302, 1.20695, 1.21175, 1.14161, 1.49274, 1.10925, 1.11801, 1.18582, 1.11633, 1.12278, 1.13309, 1.1172, 1.11551, 1.11402, 1.11602, 1.12271, 1.13708, 1.3057, 1.13035, 1.13744, 1.14011, 1.14093, 1.14137, 1.28079, 1.10643, 1.10623, 1.24059, 1.23258, 1.23376, 1.14438, 1.14712, 1.16592, 1.13072, 1.13051, 1.19662, 1.14263, 1.13138, 1.13233, 1.13279, 1.13648, 1.14035, 1.17328, 1.18536, 1.17186, 1.17279, 1.27789, 1.14765, 1.26704, 1.26584, 1.16638, 1.16686, 1.14925, 1.14941, 1.14981, 1.15194, 1.19303, 1.18501, 1.16485, 1.17018, 1.16693, 1.16859, 1.16689, 1.16698, 1.16621, 1.16401, 1.16482, 1.16339, 1.1657, 1.1672, 1.16789, 1.16473, 1.1651, 1.16662, 1.17271, 1.16473, 1.16445, 1.16504, 1.16757, 1.16472, 1.16065, 1.32237, 1.18113, 1.16644, 1.16636, 1.16634, 1.16658, 1.16672, 1.16664, 1.16491, 1.16533, 1.16449, 1.16569, 1.1676, 1.43121, 1.44072, 1.16189, 1.16159, 1.31303, 1.17723, 1.17807, 1.17809, 1.18261, 1.1829, 1.18247, 1.18127, 1.18123, 1.18521, 1.18643, 1.18806, 1.1967, 1.19552, 1.20439, 1.20645, 1.21527, 1.21394, 1.2348, 1.23378, 1.23692, 1.23895, 1.2318, 1.23463, 1.23584, 1.23667, 1.23748, 1.2422, 1.2431, 1.24007, 1.24082, 1.23912, 1.2385, 1.24018, 1.24296, 1.33323, 1.31108, 1.31592, 1.34002, 1.33452, 1.3173, 1.32059, 1.3289, 1.35422, 1.29564, 1.3479, 1.34652, 1.32804, 1.39411, 1.39457, 1.40234, 1.30847, 1.30737, 1.348, 1.3447, 1.29026, 1.28898, 1.2871, 1.28075, 1.28042, 1.27928, 1.27993, 1.27871, 1.27492, 1.27771, 1.52839, 1.28123, 1.28991, 1.2958, 1.29498, 1.2968, 1.28031, 1.27905, 1.27875, 1.27876, 1.27769, 1.27921, 1.28064, 1.28523, 1.28463, 1.28598, 1.28048, 1.27865, 1.27936, 1.28434, 1.28536, 1.29229, 1.29849, 1.29882, 1.29269, 1.29175, 1.29497, 1.37252, 1.36371, 1.35653, 1.31274, 1.31192, 1.30872, 1.30593, 1.31167
1.20023, 1.15765, 1.17109, 0.997863, 1.30769, 1.35308, 1.35399, 1.10445, 1.25693, 1.20475, 1.13028, 1.13013, 1.13065, 1.13629, 1.13767, 1.13689, 1.1335, 1.13369, 1.21441, 1.39087, 1.26709, 1.2601, 1.26224, 1.22603, 1.26764, 1.31067, 1.23552, 1.23444, 1.23552, 1.23686, 1.23786, 1.22705, 1.22717, 1.22609, 1.22647, 1.3107, 1.25379, 1.2537, 1.25732, 1.25762, 1.25178, 1.25205, 1.3447, 1.55415, 1.34921, 1.25673, 1.2885, 1.36158, 1.38482, 1.452, 1.32306, 1.44783, 1.33082, 1.32788, 1.43652, 1.26004, 1.26108, 1.28803, 1.27774, 1.27076, 1.27031, 1.31717, 1.27207, 1.43769, 1.43948, 1.26363, 1.26166, 1.25587, 1.25583, 1.45951, 1.3539, 1.51082, 1.28139, 1.28126, 1.28862, 1.53778, 1.25844, 1.25787, 1.25262, 1.26446, 1.2401, 1.23382, 1.26721, 1.23207, 1.23115, 1.22954, 1.22086, 1.22027, 1.27777, 1.25633, 1.30466, 1.30987, 1.28187, 1.28941, 1.30572, 1.30801, 1.3202, 1.23358, 1.22714, 1.39513, 1.29111, 1.29513, 1.44384, 1.22629, 1.22635, 1.29887, 1.17202, 1.40287, 1.14409, 1.15655, 1.15437, 1.18773, 1.12194, 1.13083, 1.1398, 1.14257, 1.12998, 1.13101, 1.13328, 1.13209, 1.2659, 1.13537, 1.13805, 1.14141, 1.32972, 1.32707, 1.18419, 1.28867, 1.25189, 1.25391, 1.15096, 1.15714, 1.15692, 1.15168, 1.15211, 1.18439, 1.17795, 1.13659, 1.13681, 1.18526, 1.13069, 1.12977, 1.12776, 1.11851, 1.17064, 1.17132, 1.17187, 1.18205, 1.17596, 1.16599, 1.16737, 1.16972, 1.22341, 1.13143, 1.13202, 1.15497, 1.1558, 1.13133, 1.13936, 1.12237, 1.15256, 1.18994, 1.16333, 1.16336, 1.16542, 1.16905, 1.17406, 1.26474, 1.16117, 1.16043, 1.16319, 1.16156, 1.15455, 1.16142, 1.16433, 1.16443, 1.1649, 1.16987, 1.1635, 1.16162, 1.16322, 1.16527, 1.15795, 1.1565, 1.15667, 1.15753, 1.16059, 1.16746, 1.16506, 1.16434, 1.16355, 1.16305, 1.16395, 1.22011, 1.16188, 1.16545, 1.15179, 1.1509, 1.15333, 1.15339, 1.27595, 1.1756, 1.17715, 1.17497, 1.17709, 1.17938, 1.17948, 1.18105, 1.18167, 1.18368, 1.18332, 1.18512, 1.18957, 1.19389, 1.22462, 1.22004, 1.21508, 1.22288, 1.21541, 1.42968, 1.30255, 1.23925, 1.23718, 1.3617, 1.24319, 1.2374, 1.24097, 1.24238, 1.24305, 1.24345, 1.2436, 1.23957, 1.23925, 1.23957, 1.2421, 1.2442, 1.24938, 1.25078, 1.27243, 1.27411, 1.34599, 1.28276, 1.28404, 1.52564, 1.29292, 1.30122, 1.33996, 1.39186, 1.39057, 1.34163, 1.36076, 1.30244, 1.3036, 1.30231, 1.30454, 1.30422, 1.36324, 1.28591, 1.28499, 1.28065, 1.28091, 1.27774, 1.27785, 1.2768, 1.27556, 1.27728, 1.27754, 1.28386, 1.28166, 1.296, 1.29573, 1.29741, 1.47207, 1.47365, 1.28435, 1.28142, 1.28188, 1.28268, 1.28535, 1.28395, 1.28427, 1.28055, 1.27976, 1.2799, 1.27898, 1.28436, 1.28448, 1.28668, 1.43752, 1.2896, 1.29225, 1.29178, 1.29188, 1.34979, 1.35071, 1.34216, 1.32009, 1.31925, 1.3305, 1.30535
1.17872, 1.13008, 1.16199, 1.16688, 1.02354, 1.09455, 1.12296, 1.08556, 1.34997, 1.11918, 1.12948, 1.12958, 1.14296, 1.13964, 1.14015, 1.14048, 1.13572, 1.13569, 1.13714, 1.19611, 1.26148, 1.38101, 1.31928, 1.32085, 1.32096, 1.24705, 1.23767, 1.23698, 1.23614, 1.23976, 1.23921, 1.23953, 1.23279, 1.44533, 1.23574, 1.33726, 1.34235, 1.25567, 1.25544, 1.25473, 1.25672, 1.25614, 1.25554, 1.34988, 1.35096, 1.26557, 1.27921, 1.3681, 1.37007, 1.35882, 1.26725, 1.33644, 1.33321, 1.26389, 1.26369, 1.34623, 1.48932, 1.27567, 1.37423, 1.28059, 1.27727, 1.27651, 1.277, 1.27516, 1.27756, 1.45482, 1.26921, 1.25991, 1.25991, 1.46063, 1.52924, 1.42685, 1.29154, 1.29185, 1.42658, 1.52473, 1.28441, 1.33312, 1.25156, 1.27406, 1.641, 1.23153, 1.23556, 1.2357, 1.29423, 1.2362, 1.23492, 1.23981, 1.30236, 1.23321, 1.23013, 1.23035, 1.28897, 1.29916, 1.30614, 1.26703, 1.27919, 1.32766, 1.29019, 1.28875, 1.41762, 1.28556, 1.4014, 1.38897, 1.4316, 1.36494, 1.23337, 1.18399, 1.16946, 1.16437, 1.16394, 1.18403, 1.26044, 1.27964, 1.14617, 1.14077, 1.14182, 1.15284, 1.14197, 1.14162, 1.14309, 1.14751, 1.15642, 1.15664, 1.15073, 1.16394, 1.14995, 1.15374, 1.15771, 1.15617, 1.24534, 1.25691, 1.15355, 1.15284, 1.15434, 1.16346, 1.19902, 1.14376, 1.14561, 1.13597, 1.13602, 1.1683, 1.11199, 1.1228, 1.11336, 1.12918, 1.12663, 1.14114, 1.14497, 1.14515, 1.14452, 1.13226, 1.13236, 1.1162, 1.12439, 1.12341, 1.1195, 1.11995, 1.1524, 1.15161, 1.16313, 1.11839, 1.16815, 1.17459, 1.17502, 1.17421, 1.17767, 1.16335, 1.16472, 1.16719, 1.17832, 1.17789, 1.15142, 1.15047, 1.15215, 1.1617, 1.16101, 1.16126, 1.1679, 1.16839, 1.15895, 1.15967, 1.16845, 1.15836, 1.15623, 1.15622, 1.15536, 1.15617, 1.15793, 1.15844, 1.15694, 1.15773, 1.1572, 1.15595, 1.15532, 1.15143, 1.15027, 1.14993, 1.15159, 1.15264, 1.27391, 1.1694, 1.17134, 1.17233, 1.17813, 1.17944, 1.18034, 1.17883, 1.1812, 1.18123, 1.18332, 1.18395, 1.18518, 1.18537, 1.20214, 1.19911, 1.1992, 1.23065, 1.21542, 1.40615, 1.21974, 1.21845, 1.2513, 1.25382, 1.25685, 1.36832, 1.24999, 1.24461, 1.24514, 1.24601, 1.24534, 1.24332, 1.24295, 1.24206, 1.243, 1.24808, 1.25001, 1.25427, 1.55641, 1.34997, 1.29953, 1.28086, 1.31348, 1.29271, 1.29243, 1.29334, 1.29454, 1.28549, 1.28407, 1.28837, 1.29501, 1.29455, 1.29438, 1.2959, 1.35084, 1.34977, 1.29688, 1.29632, 1.28599, 1.27908, 1.27765, 1.2772, 1.27578, 1.27347, 1.27386, 1.27425, 1.27419, 1.27507, 1.55072, 1.49278, 1.3004, 1.33691, 1.30509, 1.37677, 1.30103, 1.29837, 1.2887, 1.27878, 1.27669, 1.28026, 1.27864, 1.28136, 1.28058, 1.27946, 1.28049, 1.28146, 1.28722, 1.28494, 1.2872, 1.28804, 1.29303, 1.29313, 1.29179, 1.29121, 1.29458, 1.29389, 1.37537, 1.31528, 1.30894, 1.44396
1.06309, 1.10488, 1.17344, 1.20782, 1.04621, 1.03824, 1.04043, 1.22694, 1.12665, 1.22227, 1.28542, 1.13457, 1.14713, 1.13914, 1.13983, 1.14134, 1.12972, 1.13032, 1.23888, 1.28237, 1.28154, 1.27303, 1.31847, 1.32053, 1.23301, 1.23324, 1.23723, 1.23651, 1.23906, 1.23907, 1.23988, 1.23272, 1.23227, 1.23388, 1.2328, 1.23358, 1.31443, 1.2775, 1.3544, 1.32265, 1.25635, 1.25346, 1.25352, 1.26007, 1.35833, 1.53333, 1.37571, 1.28054, 1.2953, 1.28849, 1.27606, 1.27423, 1.27141, 1.27548, 1.28186, 1.27101, 1.40073, 1.37413, 1.29328, 1.30229, 1.29037, 1.5013, 1.33661, 1.41352, 1.45059, 1.36082, 1.27977, 1.26104, 1.26105, 1.26411, 1.46185, 1.78699, 1.41416, 1.57959, 1.34471, 1.34333, 1.3118, 1.45602, 1.56161, 1.27205, 1.26719, 1.23427, 1.23423, 1.30512, 1.29865, 1.26489, 1.28655, 1.21258, 1.21302, 1.28561, 1.30176, 1.32756, 1.33409, 1.29286, 1.24458, 1.3404, 1.27389, 1.28144, 1.28483, 1.3884, 1.28727, 1.34199, 1.40315, 1.41618, 1.36391, 1.28089, 1.19123, 1.21577, 1.21696, 1.19903, 1.16699, 1.16777, 1.20529, 1.22122, 1.16245, 1.17729, 1.16254, 1.16581, 1.14773, 1.14762, 1.17794, 1.17924, 1.18105, 1.15893, 1.15821, 1.17025, 1.17042, 1.14937, 1.15081, 1.14971, 1.14113, 1.1409, 1.16293, 1.16089, 1.17627, 1.16981, 1.1702, 1.13912, 1.13902, 1.17207, 1.12318, 1.1266, 1.13308, 1.13214, 1.12618, 1.14972, 1.11326, 1.11314, 1.14515, 1.14715, 1.15733, 1.1612, 1.13627, 1.12506, 1.13585, 1.13651, 1.15958, 1.13334, 1.12357, 1.16223, 1.1362, 1.13893, 1.1469, 1.18567, 1.17837, 1.15757, 1.18922, 1.15385, 1.16235, 1.14979, 1.15089, 1.17395, 1.16624, 1.1505, 1.13714, 1.1648, 1.22701, 1.1559, 1.15672, 1.27014, 1.16159, 1.16004, 1.16408, 1.16529, 1.15582, 1.15368, 1.15552, 1.15195, 1.15324, 1.15348, 1.1576, 1.15745, 1.15633, 1.15288, 1.1545, 1.15445, 1.15168, 1.14978, 1.15226, 1.15169, 1.2467, 1.16926, 1.16871, 1.16981, 1.17041, 1.17218, 1.17484, 1.17585, 1.18269, 1.18115, 1.18557, 1.18409, 1.18279, 1.18404, 1.23358, 1.19525, 1.20279, 1.20663, 1.20317, 1.20625, 1.20594, 1.21239, 1.21646, 1.41194, 1.37626, 1.37441, 1.24647, 1.24681, 1.24563, 1.24545, 1.24628, 1.27408, 1.2479, 1.24673, 1.24466, 1.24901, 1.25207, 1.27796, 1.27711, 1.27607, 1.27574, 1.37765, 1.28288, 1.2838, 1.29829, 1.29813, 1.32005, 1.28483, 1.28431, 1.34024, 1.3205, 1.29791, 1.29797, 1.29608, 1.39565, 1.2762, 1.27595, 1.27398, 1.3925, 1.27838, 1.2779, 1.27491, 1.27616, 1.2754, 1.27447, 1.27376, 1.27263, 1.2724, 1.27423, 1.48706, 1.48817, 1.48879, 1.30935, 1.30658, 1.50752, 1.60577, 1.28945, 1.28921, 1.27761, 1.27714, 1.27679, 1.27732, 1.27977, 1.28067, 1.27978, 1.27845, 1.27882, 1.28063, 1.27995, 1.28169, 1.28412, 1.28534, 1.29105, 1.28998, 1.29285, 1.29166, 1.29135, 1.30203, 1.39888, 1.30634
1.12907, 1.10642, 1.01238, 1.18663, 1.13942, 1.11114, 1.1186, 1.42601, 1.22367, 1.12604, 1.12908, 1.35643, 1.22036, 1.1371, 1.13744, 1.13, 1.12805, 1.12771, 1.36493, 1.24757, 1.43995, 1.2879, 1.31693, 1.46827, 1.46891, 1.33323, 1.24446, 1.24836, 1.25156, 1.37725, 1.44068, 1.43948, 1.22661, 1.22834, 1.22869, 1.22927, 1.45799, 1.30276, 1.30008, 1.31893, 1.24589, 1.24733, 1.36713, 1.27598, 1.32406, 1.30916, 1.28196, 1.36774, 1.28525, 1.40066, 1.2888, 1.28904, 1.66378, 1.66451, 1.28803, 1.47552, 1.44836, 1.36479, 1.29719, 1.29603, 1.2968, 1.54513, 1.29721, 1.29142, 1.29221, 1.46031, 1.28782, 1.37186, 1.32654, 1.54287, 1.54125, 1.38578, 1.34296, 1.30018, 1.45163, 1.35566, 1.39888, 1.42773, 1.27559, 0.00463471, 1.24804, 1.24727, 1.24642, 1.24898, 1.24927, 1.26992, 1.24346, 1.24234, 1.20461, 1.31041, 1.29177, 1.30122, 1.27439, 1.2842, 1.23958, 1.27841, 1.25991, 1.27707, 1.27896, 1.36353, 1.30012, 1.28809, 1.3053, 1.41221, 1.41281, 1.17156, 1.17053, 1.18998, 1.37462, 1.33754, 1.20478, 1.16386, 1.18926, 1.20001, 1.22677, 1.21853, 1.21778, 1.18089, 1.18186, 1.16018, 1.15975, 1.16302, 1.15802, 1.15639, 1.15676, 1.20349, 1.2298, 1.1512, 1.1523, 1.18161, 1.18146, 1.15984, 1.22095, 1.15736, 1.16119, 1.18136, 1.16557, 1.16472, 1.1779, 1.14975, 1.13232, 1.14456, 1.18217, 1.20684, 1.20567, 1.13291, 1.19859, 1.16191, 1.16203, 1.16441, 1.15838, 1.14431, 1.15908, 1.16271, 1.19818, 1.21893, 1.21824, 1.1687, 1.13955, 1.13952, 1.1484, 1.15828, 1.1777, 1.14102, 1.16135, 1.15874, 1.15751, 1.15463, 1.16864, 1.18251, 1.17385, 1.16765, 1.16035, 1.16225, 1.16152, 1.16053, 1.16045, 1.157, 1.18775, 1.14619, 1.14559, 1.1442, 1.15099, 1.14574, 1.1494, 1.15089, 1.15064, 1.15416, 1.14779, 1.14777, 1.14972, 1.15331, 1.15498, 1.1555, 1.15544, 1.15624, 1.1582, 1.15013, 1.14623, 1.14699, 1.31275, 1.16351, 1.16359, 1.16664, 1.16742, 1.16832, 1.16966, 1.17498, 1.17484, 1.17765, 1.17585, 1.17707, 1.18187, 1.18261, 1.18475, 1.19549, 1.20083, 1.20094, 1.19657, 1.25116, 1.20368, 1.20576, 1.21552, 1.21125, 1.28582, 1.22059, 1.41041, 1.34123, 1.24766, 1.2543, 1.25352, 1.25238, 1.25407, 1.31205, 1.31236, 1.24708, 1.33053, 1.33264, 1.27266, 1.2638, 1.27761, 1.2789, 1.29581, 1.29456, 1.2258, 1.30954, 1.31798, 1.30505, 1.34984, 1.34645, 1.32561, 1.39497, 1.38, 1.41812, 1.28351, 1.28193, 1.28059, 1.27122, 1.27031, 1.27966, 1.2783, 1.27782, 1.27821, 1.27725, 1.27533, 1.2746, 1.27104, 1.27061, 1.27124, 1.55508, 1.28885, 1.28954, 1.29519, 1.33732, 1.33307, 1.28683, 1.28745, 1.28778, 1.27914, 1.27672, 1.2781, 1.27777, 1.27873, 1.28072, 1.27949, 1.28056, 1.27984, 1.27714, 1.27711, 1.27631, 1.27791, 1.27908, 1.28551, 1.28519, 1.28588, 1.29306, 1.29191, 1.28823, 1.28758, 1.42046
1.00538, 1.0071, 1.11179, 1.00141, 1.00197, 1.14733, 1.23733, 1.23816, 1.23473, 1.40632, 1.20887, 1.21261, 1.28455, 1.1353, 1.13534, 1.1318, 1.13198, 1.12985, 1.14607, 1.36441, 1.2119, 1.22334, 1.31732, 1.47396, 1.46782, 1.516, 1.3657, 1.4714, 1.25975, 1.29212, 1.36869, 1.38667, 1.22375, 1.22429, 1.2996, 1.22621, 1.35392, 1.36113, 1.24278, 1.24497, 1.24587, 1.24489, 1.24406, 1.27308, 1.26178, 1.2771, 1.35091, 1.36919, 1.36954, 1.29172, 1.29369, 1.29429, 1.29258, 1.2947, 1.40355, 1.47928, 1.44804, 1.31638, 1.37795, 1.39287, 1.55071, 1.54905, 1.40002, 1.30613, 1.29469, 1.33058, 1.29769, 1.29905, 1.46958, 1.46895, 1.35114, 1.30876, 1.30597, 1.30469, 1.34136, 1.36008, 1.40305, 1.46873, 1.54264, 1.27551, 1.27883, 1.27371, 1.26413, 1.25464, 1.26452, 1.27583, 1.25049, 1.25327, 1.25268, 1.21287, 1.2539, 1.31188, 1.27632, 1.28569, 1.3346, 1.27726, 1.26822, 1.28421, 1.281, 1.28587, 1.27944, 1.28218, 1.28067, 1.23387, 1.32926, 1.17789, 1.17121, 1.2123, 1.37195, 1.1877, 1.1561, 1.15305, 1.14964, 1.21594, 1.20549, 1.18114, 1.18077, 1.18174, 1.34393, 1.15586, 1.15581, 1.15194, 1.15677, 1.15961, 1.16115, 1.15786, 1.15691, 1.15342, 1.15252, 1.17452, 1.18761, 1.17028, 1.15493, 1.15679, 1.16319, 1.18475, 1.18259, 1.1672, 1.19709, 1.19571, 1.19294, 1.20893, 1.18712, 1.20893, 1.25816, 1.14444, 1.14311, 1.17766, 1.1519, 1.15861, 1.18277, 1.17082, 1.22696, 1.31238, 1.27786, 1.28935, 1.19116, 1.22146, 1.2206, 1.17038, 1.17156, 1.20876, 1.20909, 1.21008, 1.2117, 1.15916, 1.21235, 1.19733, 1.20603, 1.20998, 1.28121, 1.18117, 1.17461, 1.20552, 1.18485, 1.16144, 1.12225, 1.12541, 1.14588, 1.12684, 1.13573, 1.13572, 1.136, 1.13102, 1.14309, 1.19113, 1.14475, 1.14795, 1.15079, 1.1427, 1.14343, 1.14456, 1.14737, 1.15158, 1.14971, 1.15207, 1.15562, 1.15546, 1.15398, 1.15393, 1.1878, 1.20599, 1.16095, 1.16078, 1.16753, 1.16659, 1.16695, 1.16785, 1.73749, 1.58597, 1.17412, 1.17845, 1.17805, 1.17975, 1.18041, 1.18161, 1.18711, 1.1867, 1.22236, 1.22047, 1.20899, 1.19864, 1.19916, 1.20217, 1.20278, 1.21493, 1.2191, 1.33982, 1.36174, 1.25636, 1.26596, 1.24795, 1.2574, 1.25003, 1.24126, 1.31884, 1.31691, 1.31368, 1.3344, 1.28066, 1.22249, 1.21629, 1.21748, 1.21168, 1.21283, 1.21451, 1.21775, 1.22118, 1.30631, 1.30895, 1.34193, 1.34407, 1.34647, 1.4164, 1.44497, 1.28867, 1.27762, 1.27284, 1.27101, 1.27018, 1.27406, 1.2806, 1.28136, 1.27953, 1.27731, 1.27533, 1.27223, 1.2708, 1.27072, 1.27201, 1.27781, 1.27725, 1.27906, 1.28631, 1.28704, 1.28735, 1.28677, 1.27711, 1.27465, 1.27748, 1.27716, 1.27753, 1.2762, 1.27697, 1.27538, 1.27529, 1.27581, 1.27574, 1.27411, 1.27723, 1.27552, 1.27543, 1.28044, 1.32063, 1.28892, 1.29058, 1.28884, 1.28821, 1.28788, 1.28875
1.02603, 1.11863, 1.10048, 1.09856, 1.15518, 1.1553, 1.14264, 1.09759, 1.09083, 1.20493, 1.20628, 1.21222, 1.17324, 1.17524, 1.19434, 1.13211, 1.13263, 1.13241, 1.18187, 1.24085, 1.28775, 1.36506, 1.28818, 1.29951, 1.40021, 1.30388, 1.3088, 1.30599, 1.30646, 1.29317, 1.29501, 1.29543, 1.32006, 1.21814, 1.22016, 1.22201, 1.62444, 1.42497, 1.35463, 1.41671, 1.41792, 1.41981, 1.48935, 1.37032, 1.26178, 1.32233, 1.35782, 1.47552, 1.33953, 1.36729, 1.31409, 1.30893, 1.29997, 1.42396, 1.4432, 1.4098, 1.3677, 1.51997, 1.47835, 1.37409, 1.54395, 1.35011, 1.35905, 1.43292, 1.33981, 1.30967, 1.30526, 1.47152, 1.30547, 1.402, 1.30743, 1.3081, 1.3091, 1.30912, 1.31247, 1.39238, 1.38378, 1.56058, 1.56002, 1.55524, 1.27805, 1.28083, 1.2836, 1.30911, 1.33476, 1.28149, 1.20905, 1.32654, 1.3096, 1.21803, 1.20797, 1.31896, 1.28084, 1.28579, 1.3072, 1.21045, 1.36607, 1.26781, 1.39408, 1.27549, 1.28791, 1.28787, 1.3104, 1.28514, 1.29929, 1.27496, 1.10595, 1.16927, 1.17092, 1.15853, 1.12275, 1.12844, 1.10603, 1.15154, 1.18541, 1.28316, 1.25387, 1.31931, 1.19693, 1.16531, 1.16134, 1.15972, 1.18953, 1.21298, 1.22738, 1.23219, 1.23332, 1.23557, 1.25914, 1.21692, 1.21766, 1.20291, 1.17364, 1.17512, 1.19806, 1.20024, 1.20145, 1.21563, 1.23716, 1.26128, 1.24685, 1.25599, 1.25825, 1.22516, 1.20539, 1.19209, 1.19869, 1.1789, 1.18309, 1.19724, 1.20682, 1.27473, 1.29216, 1.30246, 1.30105, 1.26799, 1.22954, 1.21695, 1.17614, 1.17686, 1.20559, 1.23934, 1.22847, 1.19485, 1.20459, 1.21574, 1.20853, 1.19954, 1.18424, 1.28726, 1.30199, 1.24384, 1.19407, 1.15319, 1.1722, 1.11856, 1.11887, 1.11514, 1.12689, 1.13304, 1.1335, 1.13108, 1.12996, 1.13098, 1.13582, 1.14352, 1.13783, 1.13965, 1.15203, 1.14331, 1.14236, 1.14207, 1.14444, 1.14621, 1.1538, 1.15542, 1.16187, 1.16196, 1.15083, 1.14933, 1.14966, 1.15318, 1.15667, 1.16057, 1.19117, 1.16755, 1.16444, 1.16395, 1.16874, 1.18666, 1.16634, 1.17083, 1.17781, 1.17837, 1.1897, 1.19134, 1.18839, 1.18202, 1.18286, 1.19938, 1.19961, 1.19356, 1.19321, 1.19494, 1.20461, 1.20165, 1.30461, 1.30248, 1.24161, 1.25579, 1.25863, 1.25006, 1.23985, 1.3495, 1.25993, 1.25721, 1.27951, 1.1917, 1.19187, 1.19479, 1.19979, 1.20492, 1.33469, 1.33554, 1.21048, 1.20991, 1.22016, 1.22089, 1.2241, 1.22933, 1.23208, 1.32497, 1.24797, 1.2554, 1.39562, 1.39739, 1.27148, 1.27041, 1.2728, 1.27247, 1.27024, 1.47473, 1.28253, 1.28525, 1.29341, 1.28527, 1.27838, 1.27421, 1.2725, 1.27764, 1.27807, 1.28079, 1.5123, 1.28934, 1.28842, 1.28484, 1.28, 1.27895, 1.27805, 1.27793, 1.27615, 1.27634, 1.27779, 1.27777, 1.28053, 1.2836, 1.27136, 1.27088, 1.27142, 1.27046, 1.27163, 1.27153, 1.27507, 1.33788, 1.28918, 1.29097, 1.29109, 1.28596, 1.28757, 1.2875
1.0353, 1.03496, 1.00975, 1.13358, 1.08475, 1.17734, 1.12621, 1.27102, 1.27016, 1.30373, 1.20597, 1.20443, 1.13619, 1.23653, 1.16852, 1.16715, 1.32542, 1.32593, 1.30589, 1.17095, 1.28705, 1.19514, 1.28853, 1.47097, 1.28429, 1.30336, 1.29121, 1.32973, 1.49872, 1.3274, 1.36376, 1.21876, 1.31376, 1.21658, 1.21375, 1.40005, 1.43861, 1.23241, 1.23296, 1.24508, 1.22914, 1.22934, 1.35072, 1.3584, 1.25178, 1.26521, 1.47144, 1.28531, 1.3685, 1.45385, 1.45335, 1.31116, 1.31336, 1.31376, 1.31453, 1.40669, 1.40002, 1.5749, 1.39356, 1.40574, 1.35525, 1.34857, 1.33663, 1.33479, 1.33018, 1.37495, 1.53208, 1.46697, 1.31191, 1.31335, 1.31642, 1.31675, 1.3131, 1.31398, 1.31633, 1.31514, 1.31202, 1.42333, 1.56724, 1.56714, 1.30233, 1.29544, 1.2962, 1.28915, 1.3665, 1.25794, 1.30847, 1.3199, 1.21609, 1.21024, 1.19952, 1.29858, 1.28561, 1.22102, 1.13137, 1.13136, 1.3618, 1.13607, 1.13824, 1.13919, 1.33044, 1.27301, 1.306, 1.27454, 1.15874, 1.07113, 1.09231, 1.09238, 1.06455, 1.07589, 1.07713, 1.09643, 1.08038, 1.12726, 1.1811, 1.18127, 1.19529, 1.35128, 1.36103, 1.24388, 1.22329, 1.21294, 1.22268, 1.26544, 1.21142, 1.22671, 1.23582, 1.22266, 1.21667, 1.21628, 1.21629, 1.25781, 1.25726, 1.19917, 1.22921, 1.22251, 1.25157, 1.2234, 1.2541, 1.30561, 1.30402, 1.29615, 1.30833, 1.29087, 1.30139, 1.24812, 1.22989, 1.23938, 1.23814, 1.23961, 1.27513, 1.29094, 1.2905, 1.29041, 1.29293, 1.3236, 1.24471, 1.21886, 1.19887, 1.26534, 1.21463, 1.24745, 1.23796, 1.23939, 1.22047, 1.22694, 1.22351, 1.2254, 1.21195, 1.21132, 1.19062, 1.18321, 1.19749, 1.18255, 1.19464, 1.15812, 1.11912, 1.15537, 1.16175, 1.16304, 1.13965, 1.1391, 1.13092, 1.12896, 1.1264, 1.11855, 1.1191, 1.17784, 1.14976, 1.13966, 1.14211, 1.14399, 1.14413, 1.14607, 1.15016, 1.15935, 1.16086, 1.16175, 1.14722, 1.14747, 1.14706, 1.14769, 1.14973, 1.15101, 1.15277, 1.20147, 1.2017, 1.15702, 1.15641, 1.16039, 1.15998, 1.16195, 1.28865, 1.17688, 1.19687, 1.16352, 1.17548, 1.19136, 1.20562, 1.20842, 1.18484, 1.18596, 1.22277, 1.21033, 1.21381, 1.2377, 1.2226, 1.20381, 1.21941, 1.24088, 1.25236, 1.24744, 1.22325, 1.24447, 1.17887, 1.17988, 1.18082, 1.22865, 1.19296, 1.19156, 1.29585, 1.20223, 1.20193, 1.20563, 1.20577, 1.21116, 1.22148, 1.22044, 1.22413, 1.23194, 1.23118, 1.2332, 1.32748, 1.24632, 1.38892, 1.39046, 1.26281, 1.26427, 1.26818, 1.26661, 1.26723, 1.26889, 1.30955, 1.29257, 1.28338, 1.2828, 1.28481, 1.27909, 1.28, 1.27928, 1.27953, 1.49549, 1.29184, 1.2911, 1.29281, 1.27889, 1.27575, 1.27573, 1.27755, 1.27306, 1.27297, 1.27378, 1.27963, 1.28144, 1.28342, 1.70939, 1.7086, 1.27155, 1.26892, 1.26767, 1.26887, 1.27036, 1.27745, 1.29766, 1.3074, 1.31074, 1.28955, 1.28897, 1.28615, 1.28646
1.18816, 1.19081, 1.1151, 1.08627, 1.08458, 1.12042, 1.15796, 1.13273, 1.19433, 1.22445, 1.2084, 1.21544, 1.0794, 1.16868, 1.17394, 1.17106, 1.15923, 1.29649, 1.33783, 1.33767, 1.35159, 1.1939, 1.20659, 1.20762, 1.47786, 1.39433, 1.39467, 1.41269, 1.50236, 1.48144, 1.40367, 1.30162, 1.20878, 1.20995, 1.21058, 1.21195, 1.26854, 1.23163, 1.23254, 1.42797, 1.22134, 1.22232, 1.43007, 1.40958, 1.43091, 1.51604, 1.55373, 1.47531, 1.37415, 1.47542, 1.36962, 1.30689, 1.51095, 1.43356, 1.44752, 1.60138, 1.38827, 1.35061, 1.35164, 1.57319, 1.39062, 1.55244, 1.35063, 1.50684, 1.34099, 1.34694, 1.55041, 1.4786, 1.40178, 1.40742, 1.32032, 1.31917, 1.31957, 1.318, 1.31844, 1.34948, 1.38502, 1.35093, 1.39222, 1.29462, 1.295, 1.30595, 1.29956, 1.26943, 1.26974, 1.28998, 1.29882, 1.21926, 1.20704, 1.20447, 1.20925, 1.20813, 1.13948, 1.13347, 1.13257, 1.1301, 1.13038, 1.13215, 1.16614, 1.25041, 1.14118, 1.08696, 1.09215, 1.09846, 1.1043, 1.05685, 1.08379, 1.08502, 1.05982, 1.03416, 1.07324, 1.06713, 1.09139, 1.09134, 1.10517, 1.15622, 1.15788, 1.19743, 1.19978, 1.311, 1.31423, 1.23728, 1.29273, 1.29191, 1.28994, 1.22988, 1.23063, 1.27505, 1.25276, 1.29445, 1.29591, 1.27011, 1.2594, 1.2713, 1.26044, 1.24626, 1.25548, 1.25706, 1.3337, 1.3188, 1.34838, 1.35043, 1.32782, 1.30578, 1.32655, 1.29417, 1.27083, 1.27732, 1.31959, 1.27551, 1.29672, 1.28818, 1.28722, 1.29482, 1.29548, 1.29652, 1.29445, 1.29314, 1.31073, 1.31079, 1.25489, 1.24332, 1.26055, 1.26821, 1.26486, 1.33646, 1.27968, 1.24338, 1.29104, 1.2428, 1.21872, 1.21195, 1.20152, 1.18319, 1.18261, 1.15472, 1.15412, 1.19148, 1.17107, 1.18764, 1.1856, 1.1906, 1.19084, 1.1754, 1.13312, 1.20118, 1.16842, 1.12695, 1.15489, 1.1451, 1.14454, 1.14582, 1.14646, 1.15513, 1.14647, 1.14941, 1.14415, 1.13269, 1.14063, 1.14035, 1.14142, 1.14406, 1.14606, 1.14509, 1.1448, 1.14751, 1.14969, 1.15012, 1.15024, 1.14674, 1.14796, 1.15338, 1.1546, 1.16104, 1.16042, 1.16098, 1.16402, 1.16452, 1.16558, 1.16817, 1.16935, 1.21341, 1.18722, 1.22675, 1.21532, 1.21433, 1.19966, 1.23741, 1.22352, 1.18218, 1.23226, 1.17085, 1.1701, 1.17097, 1.17389, 1.28856, 1.29552, 1.28496, 1.27055, 1.19282, 1.1951, 1.195, 1.19912, 1.20128, 1.20204, 1.20594, 1.20966, 1.21308, 1.21662, 1.21875, 1.22176, 1.22775, 1.23575, 1.23651, 1.24927, 1.24724, 1.30637, 1.44726, 1.41449, 1.26929, 1.26657, 1.26452, 1.27172, 1.27191, 1.28318, 1.28397, 1.28419, 1.27881, 1.27805, 1.27822, 1.27781, 1.27839, 1.34283, 1.29144, 1.29037, 1.29136, 1.35851, 1.27223, 1.27158, 1.27244, 1.27195, 1.27016, 1.27117, 1.27795, 1.40168, 1.28796, 1.28733, 1.30933, 1.32132, 1.26445, 1.26449, 1.26633, 1.26739, 1.26958, 1.47861, 1.49852, 1.28543, 1.2881, 1.28771, 1.2847
1.08407, 1.11284, 1.11119, 1.09281, 1.09285, 1.10391, 1.03934, 1.11502, 1.05232, 1.05173, 1.05148, 1.22383, 1.09462, 1.15358, 1.18517, 1.08015, 1.15228, 1.15837, 1.17125, 1.33513, 1.3055, 1.21043, 1.20963, 1.23121, 1.25441, 1.56476, 1.38491, 1.52902, 1.30307, 1.29273, 1.20232, 1.20426, 1.20498, 1.20836, 1.3337, 1.4479, 1.45879, 1.25751, 1.23403, 1.28251, 1.37861, 1.22228, 1.22297, 1.42969, 1.35821, 1.35628, 1.58866, 1.47089, 1.47233, 1.31002, 1.30857, 1.30474, 1.30502, 1.30507, 1.42551, 1.36087, 1.44417, 1.35118, 1.35037, 1.35211, 1.35336, 1.35475, 1.34739, 1.34806, 1.3517, 1.40375, 1.47823, 1.50897, 1.33253, 1.33268, 1.32535, 1.57879, 1.31373, 1.50656, 1.50646, 1.48711, 1.39156, 1.42404, 1.46157, 1.38908, 1.32324, 1.31944, 1.27887, 1.33617, 1.33013, 1.25681, 1.37371, 1.37419, 1.19511, 1.18905, 1.19805, 1.19774, 1.10167, 1.21581, 1.13326, 1.13203, 1.31505, 1.22065, 1.15443, 1.0782, 1.0707, 1.0938, 1.05911, 1.08104, 1.07112, 1.09096, 1.03205, 1.05895, 1.02516, 1.06029, 1.06942, 1.08451, 1.08603, 1.08653, 1.09065, 1.11062, 1.21907, 1.18861, 1.32061, 1.31878, 1.23613, 1.24837, 1.25635, 1.29908, 1.29822, 1.29913, 1.30431, 1.29104, 1.37988, 1.29821, 1.29815, 1.35845, 1.29306, 1.30145, 1.30572, 1.30634, 1.32581, 1.3301, 1.35796, 1.40036, 1.39866, 1.39796, 1.37062, 1.31452, 1.29866, 1.31066, 1.31754, 1.34609, 1.31933, 1.31001, 1.35043, 1.34983, 1.3954, 1.39476, 1.32087, 1.32414, 1.30883, 1.29901, 1.28543, 1.27619, 1.28542, 1.27754, 1.27733, 1.28066, 1.29245, 1.29359, 1.28653, 1.25762, 1.24151, 1.2414, 1.2921, 1.25771, 1.24663, 1.24954, 1.27807, 1.20455, 1.20606, 1.22269, 1.2204, 1.18767, 1.18864, 1.21648, 1.21589, 1.18462, 1.18531, 1.18778, 1.1537, 1.11744, 1.11684, 1.12305, 1.15107, 1.1513, 1.19468, 1.19371, 1.15201, 1.1744, 1.17473, 1.14248, 1.14135, 1.13849, 1.13695, 1.13972, 1.14298, 1.14267, 1.14134, 1.14389, 1.14616, 1.14053, 1.14495, 1.14352, 1.29217, 1.1492, 1.15083, 1.20894, 1.1583, 1.21561, 1.19006, 1.18322, 1.15009, 1.18542, 1.26152, 1.20177, 1.16002, 1.16141, 1.20322, 1.214, 1.24479, 1.169, 1.22216, 1.16397, 1.16186, 1.16485, 1.16507, 1.1658, 1.16892, 1.16912, 1.17129, 1.27425, 1.18133, 1.18368, 1.18626, 1.18797, 1.1907, 1.1955, 1.4523, 1.32959, 1.33357, 1.33912, 1.34706, 1.26506, 1.35103, 1.31874, 1.34066, 1.34005, 1.34022, 1.23946, 1.24064, 1.2406, 1.41178, 1.25691, 1.25838, 1.25882, 1.2601, 1.35155, 1.42409, 1.28345, 1.28309, 1.28409, 1.27807, 1.28122, 1.28114, 1.2793, 1.27955, 1.28541, 1.29038, 1.29005, 1.29207, 1.32999, 1.2735, 1.27113, 1.27002, 1.26833, 1.26973, 1.27151, 1.29529, 1.36776, 1.45396, 1.45471, 1.26888, 1.2676, 1.26575, 1.2653, 1.26442, 1.26401, 1.26584, 1.26508, 1.34478, 1.28574, 1.28471, 1.28847
1.03457, 1.06045, 1.0147, 1.04307, 1.06396, 1.16321, 1.04542, 1.14754, 1.04957, 1.22371, 1.2265, 1.33612, 1.09109, 1.1378, 1.14404, 1.15362, 1.26855, 1.16103, 1.17439, 1.15894, 1.15922, 1.21455, 1.2161, 1.2165, 1.39869, 1.30206, 1.56592, 1.28425, 1.37902, 1.196, 1.19922, 1.20215, 1.20263, 1.21746, 1.21019, 1.46187, 1.26652, 1.25815, 1.25675, 1.22752, 1.22281, 1.22081, 1.22093, 1.29451, 1.23651, 1.41312, 1.4134, 1.47284, 1.47192, 1.47889, 1.30658, 1.31077, 1.31373, 1.30877, 1.47932, 1.47536, 1.36513, 1.35026, 1.35819, 1.40035, 1.52517, 1.41839, 1.35102, 1.35173, 1.39076, 1.42603, 1.37935, 1.38934, 1.3342, 1.33347, 1.53733, 1.39293, 1.39087, 1.28822, 1.288, 1.50329, 1.50292, 1.30344, 1.39757, 1.37326, 1.33684, 1.27847, 1.2771, 1.2726, 1.2323, 1.21923, 1.39542, 1.39512, 1.17075, 1.05561, 1.05486, 1.18109, 1.08818, 1.13265, 1.13209, 1.09472, 1.07381, 1.09821, 1.05399, 1.05831, 1.06526, 1.06685, 1.04853, 1.04953, 1.05172, 1.05622, 1.0481, 1.03509, 1.063, 1.07309, 1.05718, 1.06555, 1.09243, 1.09271, 1.13666, 1.13058, 1.1759, 1.21197, 1.25853, 1.26473, 1.27538, 1.27594, 1.27113, 1.26784, 1.26759, 1.32714, 1.3024, 1.29807, 1.29812, 1.37632, 1.40809, 1.41021, 1.33265, 1.34788, 1.34066, 1.37283, 1.36734, 1.36478, 1.36294, 1.36186, 1.36465, 1.36422, 1.37815, 1.35352, 1.37804, 1.44111, 1.36766, 1.37933, 1.41286, 1.35673, 1.38539, 1.38447, 1.37931, 1.36607, 1.34302, 1.37256, 1.31613, 1.31129, 1.31828, 1.30966, 1.29591, 1.37728, 1.30418, 1.30247, 1.31258, 1.31124, 1.37352, 1.36694, 1.36353, 1.3783, 1.38005, 1.33484, 1.34488, 1.33497, 1.30395, 1.29285, 1.25729, 1.23852, 1.24588, 1.24667, 1.28135, 1.26419, 1.223, 1.19954, 1.20933, 1.16456, 1.15046, 1.1581, 1.15758, 1.13083, 1.1669, 1.17161, 1.1808, 1.17408, 1.12509, 1.12435, 1.11767, 1.13104, 1.13534, 1.13547, 1.14115, 1.14047, 1.14176, 1.13612, 1.13493, 1.13855, 1.13833, 1.1399, 1.13907, 1.13702, 1.13609, 1.13707, 1.14074, 1.14895, 1.14916, 1.15017, 1.16655, 1.18168, 1.14608, 1.18209, 1.18506, 1.19231, 1.1913, 1.26792, 1.26817, 1.21696, 1.21884, 1.22052, 1.22235, 1.15663, 1.15685, 1.15666, 1.15658, 1.15707, 1.16675, 1.16559, 1.16454, 1.17174, 1.17711, 1.17749, 1.18172, 1.18775, 1.29846, 1.4532, 1.35839, 1.32671, 1.32555, 1.32786, 1.31971, 1.34283, 1.27306, 1.34578, 1.28715, 1.37325, 1.34132, 1.3778, 1.34655, 1.34817, 1.34907, 1.25153, 1.26128, 1.26028, 1.25483, 1.25526, 1.34129, 1.47101, 1.28492, 1.28457, 1.27848, 1.27477, 1.27738, 1.27903, 1.27965, 1.28223, 1.28659, 1.29302, 1.29216, 1.53539, 1.27795, 1.27568, 1.27217, 1.27072, 1.27058, 1.26918, 1.26663, 1.26425, 1.26102, 1.2614, 1.26209, 1.26293, 1.26322, 1.26481, 1.26425, 1.26604, 1.26362, 1.26673, 1.2655, 1.34076, 1.33153, 1.28518
1.04311, 1.04162, 1.13951, 1.07165, 1.07229, 1.06097, 1.0569, 1.04801, 1.0489, 1.04911, 1.05102, 1.3556, 1.09542, 1.12733, 1.1887, 1.18105, 1.29691, 1.31589, 1.07795, 1.08437, 1.1008, 1.20095, 1.20074, 1.12727, 1.13259, 1.23242, 1.23564, 1.5045, 1.19866, 1.19929, 1.19885, 1.19872, 1.19937, 1.20141, 1.45706, 1.40984, 1.25504, 1.22307, 1.22364, 1.22104, 1.22056, 1.22112, 1.22156, 1.37766, 1.4059, 1.51809, 1.47945, 1.31956, 1.47124, 1.28911, 1.77578, 1.30073, 1.30398, 1.30586, 1.30616, 1.48224, 1.36924, 1.5086, 1.47527, 1.37818, 1.51743, 1.35917, 1.35869, 1.35731, 1.35742, 1.3703, 1.41827, 1.44637, 1.51486, 1.51466, 1.33361, 1.34069, 1.31915, 1.50934, 1.51236, 1.29288, 1.29555, 1.39844, 1.41673, 1.48241, 0.00436613, 1.36031, 1.37814, 1.18206, 1.18524, 1.13878, 1.23391, 1.35432, 1.15872, 1.04936, 1.04964, 1.07717, 1.10865, 1.13621, 1.08357, 1.08356, 1.04647, 1.09509, 1.05489, 1.05403, 1.04564, 1.07145, 1.07123, 1.07176, 1.11798, 1.07102, 1.07067, 1.07723, 1.07115, 1.08685, 1.08905, 1.0776, 1.11028, 1.10801, 1.13046, 1.18801, 1.22694, 1.24392, 1.26912, 1.27554, 1.30028, 1.27439, 1.30929, 1.30687, 1.41275, 1.35801, 1.3658, 1.38469, 1.38799, 1.44042, 1.36263, 1.3636, 1.40211, 1.38479, 1.38524, 1.42132, 1.42269, 1.42273, 1.42667, 1.38893, 1.43522, 1.39749, 1.39286, 1.39147, 1.42328, 1.40696, 1.40637, 1.39595, 1.4579, 1.38449, 1.42887, 1.42944, 1.39386, 1.39551, 1.39307, 1.34687, 1.33879, 1.34303, 1.34796, 1.33379, 1.33714, 1.33554, 1.38364, 1.3828, 1.35936, 1.3521, 1.38022, 1.41669, 1.38724, 1.37924, 1.37743, 1.44096, 1.44467, 1.35678, 1.30921, 1.27862, 1.27792, 1.27816, 1.31587, 1.26428, 1.26888, 1.26811, 1.23898, 1.25674, 1.25083, 1.20921, 1.19419, 1.15589, 1.20812, 1.1324, 1.13259, 1.18267, 1.12936, 1.14803, 1.17222, 1.13894, 1.11306, 1.18194, 1.13932, 1.13757, 1.144, 1.14566, 1.14538, 1.1301, 1.12959, 1.12826, 1.12889, 1.12854, 1.12919, 1.13917, 1.1497, 1.15075, 1.15766, 1.15201, 1.1503, 1.14946, 1.16137, 1.25477, 1.17546, 1.15578, 1.18839, 1.18816, 1.19316, 1.20076, 1.13776, 1.13932, 1.14444, 1.2175, 1.14259, 1.2254, 1.14905, 1.15064, 1.15505, 1.15636, 1.25314, 1.27984, 1.32262, 1.16775, 1.16862, 1.17547, 1.17591, 1.18462, 1.30711, 1.48402, 1.30137, 1.26051, 1.26169, 1.3195, 1.32753, 1.32819, 1.37549, 1.27916, 1.34655, 1.35327, 1.36458, 1.34703, 1.32528, 1.24456, 1.2436, 1.24383, 1.2523, 1.25411, 1.25555, 1.25567, 1.42047, 1.37398, 1.37326, 1.28567, 1.37193, 1.27626, 1.27439, 1.27386, 1.27507, 1.28281, 1.28263, 1.4077, 1.29543, 1.29487, 1.52366, 1.35405, 1.38567, 1.27309, 1.27169, 1.27235, 1.27806, 1.26495, 1.26368, 1.26207, 1.26103, 1.26185, 1.26319, 1.26432, 1.26328, 1.2667, 1.26604, 1.26516, 1.26922, 1.26823, 1.26706, 1.34673
1.13995, 1.16692, 1.04984, 1.12483, 1.09064, 1.12349, 1.10846, 1.0473, 1.11917, 1.11601, 1.40888, 1.08361, 1.05265, 1.13552, 1.13771, 1.03585, 1.17706, 1.15032, 1.14849, 1.14943, 1.2049, 1.32918, 1.32604, 1.10565, 1.20222, 1.2404, 1.24041, 1.36768, 1.33077, 1.2011, 1.20093, 1.20088, 1.19957, 1.19928, 1.20182, 1.2035, 1.33006, 1.23319, 1.23093, 1.21903, 1.21956, 1.2198, 1.22868, 1.23723, 1.23445, 1.49477, 1.49698, 1.3021, 1.30983, 1.3255, 1.3219, 1.49707, 1.54355, 1.50403, 1.30846, 1.30901, 1.41385, 1.3985, 1.35397, 1.4573, 1.45181, 1.51383, 1.35816, 1.36018, 1.36011, 1.36103, 1.38432, 1.34984, 1.34934, 1.49681, 1.46486, 1.33699, 1.35877, 1.33293, 1.38434, 1.29666, 1.29658, 1.44063, 1.42087, 1.41982, 1.63299, 1.38823, 1.30971, 1.19812, 1.17091, 1.37191, 1.22442, 1.28854, 1.17172, 1.04228, 1.04422, 1.03426, 1.04575, 1.0468, 1.04682, 1.04618, 1.04774, 1.05535, 1.06872, 1.08339, 1.08235, 1.11196, 1.111, 1.1053, 1.13417, 1.09228, 1.09439, 1.1042, 1.10233, 1.09983, 1.10447, 1.10436, 1.12021, 1.13919, 1.18969, 1.25414, 1.2532, 1.36826, 1.32849, 1.32899, 1.31301, 1.37019, 1.28938, 1.2923, 1.33345, 1.33379, 1.37496, 1.35796, 1.40327, 1.40285, 1.40263, 1.40012, 1.45221, 1.40884, 1.41012, 1.44899, 1.44786, 1.44069, 1.42943, 1.41283, 1.44882, 1.41306, 1.41565, 1.42027, 1.42008, 1.41752, 1.41714, 1.44963, 1.42661, 1.41986, 1.41691, 1.41602, 1.46389, 1.43291, 1.44407, 1.39581, 1.40628, 1.43616, 1.36139, 1.36497, 1.34769, 1.34642, 1.38148, 1.38177, 1.36504, 1.37962, 1.37484, 1.3797, 1.37616, 1.37492, 1.38037, 1.3813, 1.3644, 1.36055, 1.3054, 1.29488, 1.27411, 1.27377, 1.31692, 1.37928, 1.37941, 1.30342, 1.32879, 1.2745, 1.23264, 1.22927, 1.2433, 1.20195, 1.20627, 1.19193, 1.16045, 1.16178, 1.18242, 1.16996, 1.19897, 1.18333, 1.194, 1.21556, 1.12027, 1.16662, 1.1933, 1.21748, 1.2344, 1.13594, 1.15647, 1.12659, 1.12307, 1.12288, 1.1362, 1.13643, 1.1398, 1.14361, 1.1476, 1.16616, 1.18907, 1.1511, 1.17558, 1.12949, 1.12966, 1.16714, 1.16351, 1.19054, 1.19554, 1.28903, 1.13127, 1.13166, 1.17767, 1.14266, 1.14209, 1.14263, 1.14556, 1.14696, 1.14922, 1.14979, 1.15147, 1.15502, 1.15735, 1.16388, 1.1657, 1.16777, 1.17083, 1.17632, 1.18105, 1.18225, 1.29202, 1.30525, 1.3053, 1.20495, 1.20466, 1.26409, 1.20786, 1.2084, 1.20924, 1.34014, 1.30278, 1.35055, 1.26701, 1.23999, 1.24028, 1.24928, 1.24641, 1.25026, 1.30568, 1.41833, 1.36175, 1.35216, 1.36389, 1.35878, 1.39237, 1.4196, 1.33763, 1.35148, 1.35531, 1.27747, 1.27969, 1.28852, 1.33602, 1.29635, 1.29656, 1.29852, 1.3407, 1.27736, 1.27444, 1.27688, 1.27665, 1.27172, 1.26236, 1.26127, 1.26031, 1.26148, 1.26416, 1.26594, 1.26682, 1.26463, 1.26398, 1.26876, 1.26902, 1.27019, 1.26861, 1.27104
1.19565, 1.22963, 1.06025, 1.06634, 1.03593, 1.0979, 1.20644, 1.20518, 1.1961, 1.23606, 1.29338, 1.03912, 1.01754, 1.01725, 1.12325, 1.1371, 1.20538, 1.22592, 1.14458, 1.34507, 1.17193, 1.5021, 1.21853, 1.11688, 1.12437, 1.21271, 1.23593, 1.28999, 1.20443, 1.33278, 1.35882, 1.19988, 1.20057, 1.20039, 1.20047, 1.20123, 1.40657, 1.2504, 1.21776, 1.21705, 1.21787, 1.22067, 1.49678, 1.45793, 1.34229, 1.34311, 1.44784, 1.48017, 1.45858, 1.47507, 1.58901, 1.36841, 1.47338, 1.47319, 1.4989, 1.31728, 1.31731, 1.31407, 1.31874, 1.31916, 1.39905, 1.49903, 1.56789, 1.35813, 1.37575, 1.3583, 1.44554, 1.49251, 1.51942, 1.45867, 1.35251, 1.35737, 1.35823, 1.35512, 1.33255, 1.39615, 1.45073, 1.46028, 1.45813, 1.45644, 1.29625, 1.33704, 1.33657, 1.27536, 1.15161, 1.31994, 1.28795, 1.28504, 1.07698, 1.04931, 1.18118, 1.06647, 1.02801, 1.07214, 1.1091, 1.05446, 1.05452, 1.0814, 1.06676, 1.10195, 1.10996, 1.21564, 1.22019, 1.22004, 1.17064, 1.13368, 1.12001, 1.13976, 1.14959, 1.18965, 1.14837, 1.14834, 1.16861, 1.18515, 1.25522, 1.22071, 1.35119, 1.32995, 1.33466, 1.33416, 1.3785, 1.32027, 1.32016, 1.32635, 1.32601, 1.3508, 1.39804, 1.38409, 1.36622, 1.36314, 1.38859, 1.40959, 1.41886, 1.47891, 1.47862, 1.42094, 1.42049, 1.4244, 1.42387, 1.4309, 1.40537, 1.40496, 1.41522, 1.42756, 1.42368, 1.44022, 1.44123, 1.44404, 1.44743, 1.44576, 1.44471, 1.42669, 1.39927, 1.3992, 1.39004, 1.38897, 1.48606, 1.4852, 1.44094, 1.44023, 1.38224, 1.37953, 1.36494, 1.35352, 1.39523, 1.38651, 1.49627, 1.40909, 1.42979, 1.3811, 1.3804, 1.34709, 1.35546, 1.33969, 1.33673, 1.30973, 1.31709, 1.31671, 1.31051, 1.31085, 1.34318, 1.36268, 1.3056, 1.28444, 1.26002, 1.2477, 1.25088, 1.21495, 1.20865, 1.20784, 1.2168, 1.18122, 1.16788, 1.16278, 1.16392, 1.21148, 1.1256, 1.11897, 1.11871, 1.12563, 1.16344, 1.13592, 1.13543, 1.1351, 1.15856, 1.15373, 1.12687, 1.12552, 1.14404, 1.14364, 1.14402, 1.13137, 1.1324, 1.13288, 1.13051, 1.35096, 1.36912, 1.15768, 1.16709, 1.10578, 1.10651, 1.26113, 1.20206, 1.20493, 1.20633, 1.12634, 1.12884, 1.13158, 1.13297, 1.13798, 1.14167, 1.14262, 1.15048, 1.15058, 1.15051, 1.15313, 1.15664, 1.16447, 1.16313, 1.16689, 1.16884, 1.17263, 1.17473, 1.23034, 1.23299, 1.23318, 1.23335, 1.31274, 1.30337, 1.23605, 1.23722, 1.30162, 1.34336, 1.32175, 1.23272, 1.2327, 1.23925, 1.2374, 1.23792, 1.24319, 1.36192, 1.30491, 1.26498, 1.28126, 1.31811, 1.34018, 1.35802, 1.32706, 1.3285, 1.42287, 1.4201, 1.40223, 1.33965, 1.30636, 1.3061, 1.36174, 1.28755, 1.29512, 1.29878, 1.29742, 1.29801, 1.33734, 1.27614, 1.27472, 1.2748, 1.41247, 1.26354, 1.26354, 1.26017, 1.26083, 1.26431, 1.67709, 1.29183, 1.26415, 1.27135, 1.27069, 1.26577, 1.2656, 1.3708, 1.29005
1.17766, 1.05414, 1.2024, 1.06683, 1.06819, 1.02901, 1.08166, 1.08144, 1.05376, 1.12616, 1.12692, 1.0185, 1.01853, 1.02017, 1.13428, 1.14357, 1.14375, 1.05421, 1.08163, 1.21984, 1.21992, 1.21964, 1.2259, 1.22718, 1.17535, 1.1358, 1.137, 1.18323, 1.43819, 1.24989, 1.40592, 1.42328, 1.19584, 1.19519, 1.35208, 1.35273, 1.40973, 1.4103, 1.21869, 1.21747, 1.21822, 1.21938, 1.22119, 1.50907, 1.24331, 1.39453, 1.45212, 1.34858, 1.45787, 1.44223, 1.33309, 1.33555, 1.47857, 1.48124, 1.47849, 1.31593, 1.31582, 1.31578, 1.31695, 1.43945, 1.5307, 1.41691, 1.45627, 1.48068, 1.35319, 1.3881, 1.45417, 1.41778, 1.50278, 1.48257, 0.00447654, 1.51197, 1.37084, 1.34149, 1.34114, 1.40641, 1.42335, 1.3134, 1.37183, 1.35109, 1.26032, 1.13299, 1.25551, 1.25712, 1.17962, 1.29485, 1.06158, 1.06096, 1.0416, 1.06773, 1.02898, 1.02579, 1.03643, 0.972086, 0.996392, 1.01274, 1.01753, 1.01927, 1.10239, 1.1031, 1.13229, 1.15497, 1.21072, 1.17455, 1.16921, 1.19794, 1.17363, 1.16776, 1.1767, 1.17602, 1.19985, 1.20294, 1.21911, 1.23626, 1.34755, 1.34665, 1.34711, 1.36918, 1.37105, 1.42239, 1.4142, 1.34745, 1.34804, 1.43013, 1.41536, 1.41543, 1.41939, 1.49621, 1.40524, 1.406, 1.40587, 1.40894, 1.40889, 1.40648, 1.47855, 1.41969, 1.4194, 1.4471, 1.47019, 1.47166, 1.53009, 1.4544, 1.45298, 1.44209, 1.43699, 1.43607, 1.44629, 1.46154, 1.4951, 1.4746, 1.46791, 1.47905, 1.43052, 1.43774, 1.43712, 1.39878, 1.39863, 1.44745, 1.44576, 1.4819, 1.41694, 1.41584, 1.39139, 1.37574, 1.39658, 1.41285, 1.47423, 1.40382, 1.39992, 1.40075, 1.39246, 1.39313, 1.3987, 1.34943, 1.36498, 1.30968, 1.31306, 1.31438, 1.31594, 1.34312, 1.32007, 1.42299, 1.33157, 1.38114, 1.33301, 1.31196, 1.31201, 1.30544, 1.3086, 1.28723, 1.29603, 1.29576, 1.22541, 1.15663, 1.15433, 1.12901, 1.12736, 1.12883, 1.12639, 1.1298, 1.17472, 1.16617, 1.14916, 1.13286, 1.12645, 1.12184, 1.17104, 1.12345, 1.15631, 1.14856, 1.14635, 1.12324, 1.12278, 1.12148, 1.14626, 1.14411, 1.14265, 1.14225, 1.17192, 1.10073, 1.19581, 1.19528, 1.13746, 1.208, 1.20905, 1.21255, 1.19488, 1.33826, 1.13365, 1.13463, 1.13833, 1.141, 1.14656, 1.14723, 1.15031, 1.15079, 1.15622, 1.16524, 1.16547, 1.16659, 1.1738, 1.17477, 1.17694, 1.27073, 1.26691, 1.23647, 1.23969, 1.23832, 1.24455, 1.24771, 1.24673, 1.30908, 1.30973, 1.24074, 1.23605, 1.23781, 1.23849, 1.24007, 1.24225, 1.24568, 1.24932, 1.31253, 1.27098, 1.27137, 1.27217, 1.32885, 1.42605, 1.34511, 1.44819, 1.44122, 1.44741, 1.41618, 1.51971, 1.6892, 1.48471, 1.33706, 1.34381, 1.29067, 1.29025, 1.2939, 1.29597, 1.36416, 1.36665, 1.33663, 1.32509, 1.32555, 1.25791, 1.25336, 1.25132, 1.25634, 1.25779, 1.61218, 1.29215, 1.26052, 1.2567, 1.25416, 1.25686, 1.26201, 1.40956, 1.28139
1.01833, 1.01481, 1.01559, 1.02741, 1.01894, 1.02693, 1.02767, 1.01163, 1.14427, 1.1582, 1.15897, 1.15003, 1.29467, 1.29643, 1.30677, 1.20225, 1.25327, 1.16767, 1.37602, 1.25972, 1.25004, 1.18594, 1.08076, 1.10737, 1.16605, 1.16578, 1.19638, 1.22638, 1.27559, 1.31374, 1.21857, 1.36113, 1.36118, 1.19565, 1.19519, 1.55116, 1.29658, 1.29889, 1.2787, 1.21366, 1.21295, 1.21419, 1.31614, 1.50502, 1.60233, 1.37107, 1.41986, 1.45755, 1.45601, 1.49867, 1.47304, 1.34453, 1.47913, 1.47869, 1.33029, 1.3325, 1.5907, 1.32238, 1.31906, 1.31829, 1.4501, 1.33368, 1.34137, 1.39101, 1.47886, 1.538, 1.42315, 1.43206, 1.43326, 1.50246, 1.51333, 1.43825, 1.57501, 1.42222, 1.43735, 1.3785, 1.36986, 1.21949, 1.24043, 1.20176, 1.32646, 1.23931, 1.22791, 1.20477, 1.08489, 1.00528, 1.00658, 0.993885, 1.01837, 0.995925, 0.995981, 0.978013, 0.971563, 0.994756, 0.993733, 1.01554, 1.02301, 1.03428, 1.05784, 1.04414, 1.14297, 1.12015, 1.14996, 1.16466, 1.18093, 1.24104, 1.32856, 1.32821, 1.33022, 1.22951, 1.24449, 1.25103, 1.23319, 1.29565, 1.29681, 1.33256, 1.36556, 1.34829, 1.38081, 1.41668, 1.3454, 1.34426, 1.34701, 1.42258, 1.40483, 1.44095, 1.51628, 1.49674, 1.45827, 1.48932, 1.42394, 1.40952, 1.40872, 1.40929, 1.4344, 1.4433, 1.485, 1.52446, 1.56388, 1.50058, 1.50569, 1.48038, 1.47921, 1.476, 1.46455, 1.49768, 1.48272, 1.4613, 1.59155, 1.59647, 1.60228, 1.60268, 1.63062, 1.43622, 1.44357, 1.48973, 1.4896, 1.44486, 1.42448, 1.42577, 1.41903, 1.45289, 1.45192, 1.45841, 1.42981, 1.41544, 1.39124, 1.43049, 1.43233, 1.43308, 1.39486, 1.37942, 1.37151, 1.40528, 1.38963, 1.32437, 1.32385, 1.32639, 1.33342, 1.33021, 1.47031, 1.39136, 1.34775, 1.3529, 1.35075, 1.34737, 1.32222, 1.36877, 1.4743, 1.47428, 1.40148, 1.41971, 1.2747, 1.17146, 1.17045, 1.16766, 1.13323, 1.13548, 1.12952, 1.12919, 1.13077, 1.18974, 1.14454, 1.17436, 1.11593, 1.12326, 1.12447, 1.10758, 1.1102, 1.1061, 1.1078, 1.12076, 1.11966, 1.11889, 1.11891, 1.11956, 1.39505, 1.1739, 1.14881, 1.09651, 1.09681, 1.08921, 1.20718, 1.27, 1.20154, 1.20929, 1.20959, 1.20902, 1.1633, 1.20487, 1.20442, 1.13831, 1.14018, 1.146, 1.15049, 1.15552, 1.15641, 1.15938, 1.16117, 1.30544, 1.17776, 1.18322, 1.18442, 1.25657, 1.24842, 1.22659, 1.24016, 1.22969, 1.28154, 1.27584, 1.23249, 1.22994, 1.23038, 1.23409, 1.23815, 1.23757, 1.23746, 1.24086, 1.24457, 1.24996, 1.2482, 1.37388, 1.30911, 1.26901, 1.27373, 1.27578, 1.28557, 1.28898, 1.28954, 1.28903, 1.4147, 1.50754, 1.44634, 1.55544, 1.32272, 1.32237, 1.49868, 1.49255, 1.43728, 1.3379, 1.28903, 1.28802, 1.50701, 1.36417, 1.33281, 1.37772, 1.32144, 1.25338, 1.25223, 1.25308, 1.46983, 1.60935, 1.26132, 1.2592, 1.25237, 1.25223, 1.25528, 1.24981, 1.24951, 1.25807
1.01501, 1.01334, 1.01243, 1.00646, 1.24528, 1.10165, 0.994866, 0.994223, 0.994218, 0.995297, 0.995969, 1.17267, 1.005, 1.13272, 1.13717, 1.16444, 1.24295, 1.24778, 1.06153, 1.06008, 1.21614, 1.21903, 1.06002, 1.41253, 1.30867, 1.19155, 1.18886, 1.19441, 1.35006, 1.30856, 1.21361, 1.21893, 1.18169, 1.21321, 1.21525, 1.35975, 1.35161, 1.22167, 1.21654, 1.2065, 1.20826, 1.30496, 1.3153, 1.4675, 1.39803, 1.25114, 1.25319, 1.32633, 1.47625, 1.47726, 1.478, 1.47826, 1.48043, 1.48121, 1.46535, 1.48092, 1.46295, 1.3273, 1.32381, 1.32206, 1.32208, 1.33696, 1.33582, 1.5222, 1.51276, 1.46138, 1.41263, 1.45905, 1.43129, 1.2953, 1.2769, 1.32352, 1.28147, 1.31019, 1.54047, 1.23609, 1.21391, 1.22178, 1.23301, 1.23015, 1.32554, 1.25237, 1.34174, 1.3434, 1.08481, 0.990704, 0.988286, 0.991707, 0.992595, 0.998361, 1.00466, 0.985463, 1.01858, 1.0579, 1.034, 1.05009, 1.04933, 1.06748, 1.07318, 1.09567, 1.08084, 1.13282, 1.14043, 1.15369, 1.19667, 1.24295, 1.33686, 1.33613, 1.31322, 1.33639, 1.31179, 1.3123, 1.32166, 1.29586, 1.41201, 1.34071, 1.3262, 1.35165, 1.35511, 1.35244, 1.35264, 1.39468, 1.39538, 1.4509, 1.45138, 1.45775, 1.50119, 1.51557, 1.50974, 1.4897, 1.47858, 1.43785, 1.44074, 1.44625, 1.46629, 1.48075, 1.48246, 1.56523, 1.51277, 1.51851, 1.50983, 1.50855, 1.48583, 1.48558, 1.49213, 1.46916, 1.56378, 1.49037, 1.55963, 1.56909, 1.5599, 1.55859, 1.56788, 1.53001, 1.51904, 1.50379, 1.50398, 1.43472, 1.42907, 1.43662, 1.42142, 1.4551, 1.45535, 1.50266, 1.49375, 1.49378, 1.48201, 1.53935, 1.52286, 1.43753, 1.47049, 1.38897, 1.37957, 1.36759, 1.36787, 1.34452, 1.32727, 1.35364, 1.37002, 1.344, 1.35695, 1.36135, 1.37449, 1.3649, 1.36163, 1.34308, 1.35968, 1.3787, 1.39627, 1.3953, 1.37613, 1.4918, 1.22998, 1.20398, 1.19547, 1.16706, 1.15652, 1.15986, 1.13375, 1.12491, 1.12173, 1.11775, 1.11652, 1.11673, 1.11188, 1.11291, 1.11469, 1.11513, 1.11143, 1.11289, 1.12249, 1.12222, 1.12063, 1.11311, 1.11671, 1.11491, 1.11579, 1.17371, 1.17742, 1.17729, 1.15718, 1.55541, 1.1264, 1.11724, 1.1055, 1.19279, 1.14444, 1.14275, 1.12261, 1.12444, 1.12976, 1.13667, 1.13731, 1.1418, 1.21991, 1.15229, 1.15705, 1.15855, 1.16634, 1.1671, 1.31578, 1.22819, 1.22639, 1.49415, 1.23638, 1.22228, 1.22628, 1.43189, 1.225, 1.2221, 1.22996, 1.22895, 1.22864, 1.23063, 1.22971, 1.23287, 1.23333, 1.239, 1.24297, 1.24258, 1.24728, 1.32774, 1.30712, 1.36464, 1.30781, 1.38307, 1.3822, 1.28228, 1.28293, 1.28778, 1.41698, 1.41698, 1.34318, 1.42606, 1.38746, 1.3244, 1.32555, 1.32662, 1.60607, 1.40962, 1.32693, 1.3364, 1.36322, 1.36832, 1.249, 1.37912, 1.24599, 1.2457, 1.24855, 1.24876, 1.24727, 1.25055, 1.25044, 1.25054, 1.25031, 1.24913, 1.24666, 1.24518, 1.24655, 1.24811
1.22295, 1.10211, 1.00157, 0.996625, 0.99644, 0.994047, 0.993895, 0.994486, 0.994198, 0.994325, 0.993668, 0.994388, 0.995807, 1.12648, 1.12758, 1.14345, 1.00841, 1.10266, 1.10253, 1.10586, 1.13115, 1.15944, 1.14444, 1.15031, 1.20223, 1.14367, 1.14331, 1.15983, 1.16103, 1.45731, 1.16707, 1.22761, 1.22824, 1.22908, 1.23859, 1.19078, 1.19123, 1.40559, 1.20577, 1.20811, 1.20807, 1.20849, 1.32184, 1.22139, 1.31822, 1.3188, 1.31812, 1.32541, 1.51401, 1.51433, 1.32316, 1.48915, 1.48009, 1.4806, 1.48116, 1.47803, 1.47564, 1.39148, 1.36465, 1.63677, 1.52602, 1.51511, 1.32901, 1.33027, 1.37296, 1.50098, 1.25441, 1.46903, 1.48463, 1.4734, 1.45888, 1.16683, 1.21761, 1.16671, 1.16684, 1.32101, 1.48043, 1.31277, 1.19392, 1.18267, 1.33042, 1.16353, 1.06713, 1.06661, 1.02912, 0.999236, 1.00163, 0.98442, 0.998766, 0.995948, 0.988402, 0.989161, 1.11207, 1.11181, 1.10363, 1.12706, 1.12344, 1.12994, 1.12031, 1.10268, 1.10231, 1.09214, 1.13303, 1.13362, 1.23694, 1.24663, 1.30548, 1.32032, 1.3266, 1.30932, 1.30921, 1.34906, 1.39281, 1.33096, 1.32684, 1.33622, 1.3518, 1.37876, 1.34732, 1.36317, 1.37697, 1.39202, 1.41229, 1.4431, 1.48128, 1.48096, 1.4844, 1.48367, 1.51241, 1.54125, 1.55223, 1.55108, 1.46854, 1.46816, 1.46588, 1.50863, 1.49619, 1.66492, 1.575, 1.5425, 1.55868, 1.5351, 1.51278, 1.48467, 1.48877, 1.50719, 1.51764, 1.56417, 1.58338, 1.58828, 1.5887, 1.5732, 1.57198, 1.57239, 1.53278, 1.53945, 1.50534, 1.49198, 1.43072, 1.42948, 1.47066, 1.49417, 1.4918, 1.49151, 1.48687, 1.54413, 1.49733, 1.53945, 1.52863, 1.57047, 1.57006, 1.52686, 1.46518, 1.40345, 1.40481, 1.41605, 1.43423, 1.37813, 1.3771, 1.38283, 1.3953, 1.38173, 1.38829, 1.41596, 1.38549, 1.34353, 1.34285, 1.35829, 1.4179, 1.48373, 1.50006, 1.45042, 1.22835, 1.18742, 1.21844, 1.18848, 1.17515, 1.17922, 1.17571, 1.15966, 1.11826, 1.11872, 1.16728, 1.12702, 1.12636, 1.15058, 1.17582, 1.17778, 1.11554, 1.11641, 1.12057, 1.18242, 1.20281, 1.11275, 1.11277, 1.1127, 1.11172, 1.11204, 1.11198, 1.12875, 1.13971, 1.11639, 1.11622, 1.10753, 1.13507, 1.19879, 1.20947, 1.11879, 1.12187, 1.12612, 1.12919, 1.13116, 1.14371, 1.14486, 1.62329, 1.23102, 1.15914, 1.24469, 1.24692, 1.17725, 1.28924, 1.23268, 1.28541, 1.26573, 1.25661, 1.23308, 1.23407, 1.24074, 1.21608, 1.23868, 1.23633, 1.23657, 1.28879, 1.22803, 1.22864, 1.28253, 1.23148, 1.28759, 1.27141, 1.2755, 1.27429, 1.31525, 1.31247, 1.25802, 1.26443, 1.3122, 1.2742, 1.42713, 1.30548, 1.41418, 1.41388, 1.32856, 1.32092, 1.42618, 1.3136, 1.31368, 1.51555, 1.32397, 1.32273, 1.42791, 1.47125, 1.43986, 1.34989, 1.32271, 1.24641, 1.24438, 1.24282, 1.24104, 1.24262, 1.24489, 1.24654, 1.24912, 1.24806, 1.24551, 1.24478, 1.24329, 1.24328, 1.24552, 1.24616, 1.24585
1.09987, 1.08444, 1.23321, 1.22662, 1.17361, 1.10979, 0.99094, 0.991127, 0.990635, 0.99113, 0.990294, 0.990515, 1.16013, 1.19072, 1.19077, 1.13885, 1.12421, 1.11226, 1.06085, 1.10487, 1.10851, 1.41913, 1.27825, 1.45769, 1.41605, 1.21321, 1.09853, 1.09953, 1.46025, 1.15321, 1.25661, 1.16418, 1.12782, 1.13193, 1.20616, 1.26712, 1.19092, 1.19043, 1.28883, 1.36798, 1.20817, 1.20822, 1.32978, 1.22602, 1.22713, 1.23996, 1.32189, 1.27766, 1.57687, 1.38035, 1.5293, 1.47749, 1.47815, 1.36501, 1.48585, 1.4851, 1.45811, 1.45527, 1.42325, 1.50908, 1.35551, 1.52262, 1.36767, 1.33822, 1.40527, 1.40806, 0.00445215, 1.17351, 1.19892, 1.13921, 1.12563, 1.40995, 1.43159, 1.27117, 1.24163, 1.22396, 1.13732, 1.08214, 1.0839, 1.17401, 1.04058, 1.04041, 1.10439, 1.02204, 1.06096, 1.10179, 0.9955, 0.997342, 1.00744, 0.99467, 0.995791, 0.996294, 1.1033, 1.10481, 1.10996, 1.15259, 1.12537, 1.1397, 1.13365, 1.18116, 1.18248, 1.1328, 1.13279, 1.15427, 1.20254, 1.34803, 1.34709, 1.47467, 1.45891, 1.45877, 1.45687, 1.33908, 1.32869, 1.33122, 1.32847, 1.34093, 1.38809, 1.35316, 1.35314, 1.35418, 1.37984, 1.40656, 1.42444, 1.4093, 1.48463, 1.47472, 1.46167, 1.52607, 1.50864, 1.5439, 1.52633, 1.53058, 1.52355, 1.46572, 1.46613, 1.47328, 1.47296, 1.53094, 1.52951, 1.66526, 1.58205, 1.68579, 1.52011, 1.53404, 1.53334, 1.60208, 1.60082, 1.61831, 1.5887, 1.76486, 1.64742, 1.64949, 1.64884, 1.53443, 1.51281, 1.48089, 1.52165, 1.46538, 1.47907, 1.48416, 1.47545, 1.48956, 1.48143, 1.58564, 1.55485, 1.50436, 1.4848, 1.55028, 1.59657, 1.58204, 1.57686, 1.69533, 1.57142, 1.45855, 1.46929, 1.4339, 1.42865, 1.4305, 1.42862, 1.42953, 1.42153, 1.41117, 1.39936, 1.51169, 1.49935, 1.39172, 1.40642, 1.35132, 1.3522, 1.44038, 1.41735, 1.41676, 1.26346, 1.23687, 1.2359, 1.20221, 1.1961, 1.21126, 1.2125, 1.19256, 1.21217, 1.19836, 1.18373, 1.17369, 1.11544, 1.17162, 1.16911, 1.09905, 1.09868, 1.14664, 1.16464, 1.16364, 1.12625, 1.12681, 1.1169, 1.20226, 1.10683, 1.10774, 1.09827, 1.13282, 1.1141, 1.11611, 1.11701, 1.10735, 1.10585, 1.10558, 1.11105, 1.16091, 1.12073, 1.12725, 1.12771, 1.23011, 1.14617, 1.14728, 1.15066, 1.15839, 1.15965, 1.16092, 1.36395, 1.225, 1.30166, 1.22157, 1.22342, 1.22315, 1.51707, 1.2095, 1.5344, 1.53464, 1.28693, 1.23335, 1.23715, 1.23818, 1.29561, 1.32792, 1.24386, 1.24415, 1.25268, 1.27884, 1.22928, 1.22806, 1.23332, 1.28554, 1.31115, 1.31186, 1.31615, 1.30642, 1.35152, 1.34231, 1.27035, 1.27143, 1.29885, 1.42623, 1.49943, 1.60185, 1.40535, 1.40568, 1.47774, 1.31439, 1.48103, 1.48163, 1.35828, 1.4033, 1.30753, 1.24373, 1.23951, 1.23935, 1.23928, 1.23999, 1.23994, 1.24287, 1.24348, 1.24294, 1.24299, 1.2406, 1.24439, 1.24472, 1.2437, 1.24663, 1.2451, 1.2471
