0.99219403985367,0.992744838633936,0.992739235134224,0.994568658996314,0.997451480927275,0.999206324847317,0.99913097900659,0.997505352338646,0.995983152023169,0.994486576116262,0.996006047001413,0.997233639789615,0.998306266232102,1.0000799525029,1.03905676405984,1.04605129423638,1.07930967502393,1.0793601809494,1.07900568284485,1.06872098886108,1.0332676643739,1.02751659524649,1.02530798253431,1.02417805766166,1.02436836798643,1.10690445206554,1.10688772161439,1.10684417129848,1.10750663702411,1.10102925427883,1.09619878625463,1.08888918559775,1.08349015396563,1.07884787131917,1.07625906151843,1.07047355557703,1.07149776431131,1.07346106516938,1.07406700888725,1.07340335054323,1.06997008471813,1.0667333795221,1.06408365800549,1.062450027409,1.06177344607594,1.06170085548969,1.04697982931259,1.04433066130989,1.03601071226564,1.03805698023666,0.978421873453802,0.921750976935044,0.90029444237529,0.862132320756516,0.864733900450891,0.866861300624384,0.886003731415999,0.887018679161013,0.887607496361404,0.909775584620811,0.921802723453217,1.00619772142045,1.00649875336518,1.00592730895384,1.01975826239563,1.06643173728867,1.07472741430801,1.07512478297843,1.07536685750358,1.08850787168031,1.10056426197877,1.11265941463989,1.11882496095035,1.12557895840346,1.15550144915488,1.17847927036316,1.18261215729003,1.18401831465499,1.20333190990177,1.2065648180107,1.23635984391781,1.25724686349233,1.27052146373755,1.31214538036539,1.31039069376969,1.30997313589427,1.29946098134145,1.29268081200679,1.28702128658428,1.28212079117609,1.28666023095003,1.29664514653139,1.3011252646628,1.30842923974935,1.31906513457034,1.33320581404472,1.33322392972666,1.33359628502069,1.33418256196285,1.3429222160879,1.34625735488628,1.37268018160334,1.38434855955354,1.39420018280082,1.42511634137528,1.42195556024264,1.41878471301204,1.41525003988288,1.41509963032551,1.40939590707679,1.41023106620407,1.42878875498761,1.4418809343043,1.4628479489203,1.46734139979969,1.47594571101446,1.48747595277406,1.4965334350839,1.49983476410755,1.51317286901105,1.5421984084411,1.52621798418461,1.52566986193033,1.52516703129416,1.52515274555818,1.52634944669854,1.52799651302681,1.52794833100256,1.54750502570941,1.55188396435573,1.55343320014131,1.56004384824332,1.55970265601031,1.56130681073562,1.56141317418747,1.42712997415273,1.42679926584324,1.4262600906638,1.74716794975195,1.74321762168734,1.73683781571412,1.73229813041479,1.74922175201655,1.74932486683684,1.69172857407919,1.69360659997182,1.52796370640611,1.49271342147149,1.48800215400053,1.47834034140661,1.44668119401693,1.44347086980756,1.41863216497987,1.41273091447195,1.41226021366627,1.41138624177903,1.43127742097387,1.4322722381081,1.45027527311206,1.37180469882949,1.33796195950511,1.31469560734581,1.31389027853555,1.31382860246642,1.29803368019914,1.29502219423941,1.29247423301255,1.28953028319019,1.28470075183636,1.28178696010111,1.27799228373032,1.27860949052849
0.991918415931537,0.991253500009894,1.0348589232242,1.06042799035791,1.23033086725918,1.06161098449019,1.11589151677664,1.10642977378586,1.28874730443029,1.09299010221877,0.987191006234122,0.995453119374808,0.996317941049241,0.994970425224919,1.04455511732951,1.0590526468297,1.07930551703662,1.07930336961608,1.10300757452163,1.05605247008765,1.04775542586938,1.02858445768623,1.02659785507959,0.00425283903554558,1.0251694935606,1.12209798112283,1.04674551009415,1.10553888372517,1.11711757129878,1.11750302616665,1.10176180720383,1.04694293334203,1.03584435458162,1.01184507137933,1.03925732155165,1.04095115299906,1.03006492684718,1.05951245760295,1.06333496271356,1.12402166101127,1.1128601880433,1.19335518834647,1.11107374175943,1.17470227889497,1.10328199477944,1.17176770120349,0.882395415337065,0.992494632748106,1.03539976971967,1.03829654217282,1.01119984330102,0.860523570918603,0.857777494012336,0.852890249833355,0.852700755200599,0.858542849257518,0.894180899249302,0.889872385509597,0.887312895021614,0.921680451653813,0.94335994811479,1.01430557585341,1.00797370606008,0.981243227948678,0.986292165404374,1.06086438178093,1.07367769376716,1.07422062797946,1.07408740970069,1.1622995808893,1.11916263328436,1.11977572151718,1.12383684761458,1.13435424680031,1.16048875914166,1.21424918231905,1.17997469393283,1.183184890174,1.28052131633898,1.19328304803944,1.23691649384984,1.21905395045672,1.25707741405625,1.31204143867895,1.30958228967447,1.31195184099216,1.42491170931517,1.31744831175853,1.33291817208281,1.27461869524717,1.29293560262973,1.31030844085054,1.3184125198416,1.37250664471703,1.33235419619307,1.33279954044472,1.34255302302013,1.33817240196077,1.33372738313596,1.35317896438128,1.35130946646646,1.35033939522085,1.38386972651191,1.4061034050323,1.42905572435275,1.44953937059864,1.40927577221449,1.41249065287384,1.40633713346587,1.40856284076836,1.41045225650471,1.4518340718311,1.44751890741681,1.46037754440229,1.46016729157652,1.46665429767848,1.52365543494226,1.501113456529,1.50811987952075,1.54963954303542,1.54796334218063,1.52662336133536,1.52553608094773,1.60644284490064,1.60457206704806,1.57491448424415,1.53010887642223,1.52813281759696,1.58362651596635,1.51714390380985,1.58111062388065,1.56099943454996,1.56089133735896,1.5627016717653,1.5612937984725,0.00445715900095813,1.79906119442415,1.42603661000449,1.88412726525606,1.72437074331235,1.73410335117994,1.72640720127575,1.73357051619973,1.72751879248282,1.78319613400505,1.83384511062353,1.68108159491615,1.4960606311051,1.49204524706774,1.53267491278803,1.4187340083168,1.4358585863344,1.42552642698782,1.41338696263151,1.41270378636262,1.41041072987493,1.43470483542521,1.4348682914045,1.67271845425046,1.35749455607684,1.33735040743092,1.3168911414207,1.3156479909447,1.31685114312293,1.30264594269684,1.30335223043484,1.35560983304398,1.29465851609533,1.29196929196829,1.279710323607,1.27807817232315,1.27800669239344
1.02681763930219,1.03790207372205,1.04039048229333,1.08636936945198,1.11239714175901,1.10874800160752,1.10705900083355,1.10303755042406,1.09855890449191,1.09320427643937,1.01299773818213,1.02032548613937,1.02918898949869,1.03635531113295,1.04348942879377,1.0418659402521,1.04040846063201,1.03703898060939,1.03385790352971,1.03120331436257,1.0290959535503,1.02783054854143,1.02666667859105,1.03407779453859,1.03860041651781,1.09012002623703,1.09532742721264,1.10408928917901,1.10868193152839,1.09412397090825,1.08358823970336,1.0623151406538,1.03004084188043,1.0281497972572,1.03258238293308,1.03674254298859,1.04108793959461,1.0578189246896,1.0613284085903,1.06287437825396,1.06438951903024,1.06736927927081,1.0714014971631,1.07769527130603,1.00654920560756,0.977634499507094,0.946941816796887,0.957145547029573,0.971351421786175,0.983520298083687,0.995482802524561,0.879613643817754,0.854662328772782,0.853914810254647,0.865449373944476,0.872006772585744,0.892711025025774,0.890794598418217,0.890129070801068,0.926634185346115,0.93222522226885,1.00793183093311,1.00818102155323,0.995606870496051,1.03093150612789,1.05756898279436,1.07595297594986,1.0778889758136,1.0819838219239,1.15798703933072,1.15324792796768,1.16205513765166,1.16640355690039,1.16850012521307,1.17266245271827,1.17834660550058,1.17914132379302,1.18243251204912,1.1894050646882,1.19183382856989,1.20420649978253,1.21264470514416,1.24362595742111,1.26299087731991,1.28239383665398,1.30650079694309,1.31969777493101,1.30855135924302,1.30092735206362,1.29709161046067,1.30195965803957,1.32024878144652,1.33168118044059,1.35690380744754,1.34232233873814,1.34281386086588,1.34247658714153,1.34397142652625,1.34936907563616,1.35532094037555,1.35614216466106,1.36271786820582,1.3826973063701,1.41660034134077,1.42692983326367,1.43286518040334,1.4263825301487,1.41980759159685,1.40730558199136,1.40714523926594,1.41352743980759,1.45037692064442,1.44875828519212,1.45600216991128,1.46957243228785,1.47693637010419,1.49383646648181,1.49861371023182,1.50170450878105,1.50859175427035,1.51414912414323,1.52213009461615,1.52436077820553,1.52791088868877,1.52862525224338,1.53121542955868,1.53050669158909,1.52783954648901,1.52358083387389,1.52170007632937,1.5366629577329,1.53624115862102,1.53814209870196,1.54099153486437,1.54628215642765,1.33053774071918,1.33064323975475,1.33108733250308,1.33036235908772,1.72845221897973,1.72724411333755,1.72889812837321,1.72920134371278,1.73630215900645,1.73636334669216,1.73572877864203,1.70979435429632,1.50284992803716,1.49001535233823,1.47691355795186,1.47223103249163,1.46283134342616,1.44912447222552,1.44501393129298,1.43518060846901,1.42451263655322,1.43549903544863,1.43844629743237,1.47325589947405,1.41837903774139,1.34803919922341,1.31594151762282,1.31608992411172,1.31585747779588,1.31480706021671,1.31471190857042,1.31738249836249,1.30280375271453,1.30224899159372,1.30113872160366,1.3009318201126,1.30118432370171
1.00080078187777,1.05164022352347,1.05035971498539,1.25515556041808,1.13711924959864,1.12754939189445,0.00391336343053473,0.952571282043428,0.944463217806026,1.08772190577435,0.984295915896062,1.11878023441518,1.06536447002875,1.12508040424364,1.06471386685117,1.04061117358352,1.04121099941807,1.03288619097282,1.02706240864864,1.02669333597906,0.980784256938332,0.969904796816629,1.00230990973264,1.05742638363154,1.05839260805874,1.08070266212262,1.09991688469221,1.10255848117261,1.18084655093652,0.950995751046906,1.01759465601905,1.15537074835232,1.02735280991118,1.02320563340724,1.01833373488556,1.01747932650196,1.07717748698281,1.05434370986921,1.05101523480547,1.04209807590453,1.03522555548414,1.05472299654025,1.06876951159062,1.0864222382526,0.90767726879928,0.904063124562723,0.927242319982451,0.926493698300522,0.911149802226146,0.911821932822505,1.0997513305434,0.897782355829298,0.852879405352508,0.85317586851953,0.881582190605114,0.878555365340839,0.906338644134947,0.890905442056425,0.890540659893454,0.947686674658132,0.91841519719099,1.04770843718446,1.00815065652536,0.987522746387645,1.07298475815911,1.0546122096911,1.09184332685612,1.08942027697153,1.08795277574596,1.16851611394251,1.14231589876625,1.16855309709073,1.16906239457763,1.16907219351652,1.19025087389996,1.17793433653143,1.17808461725546,1.18413646927901,1.1866366437284,1.19115167591314,1.18973251879707,1.21025403558376,1.21297401276066,1.22038037367857,1.25490014641035,1.30143644528562,1.3443707210811,1.29822021310245,1.28190371891728,1.29183101393882,1.30830226898233,1.36591454649529,1.34378410165366,1.39802364584678,1.34162955885847,1.34411773872644,1.34110113139264,1.34631014048317,1.36337320477973,1.36841850977628,1.35873026300236,1.37756530520694,1.38117454783135,1.42884240714018,1.42380255877684,1.45728245785274,1.43598621136483,1.4232126227268,1.40846407424912,1.40555966997698,1.42040081316295,1.45051314148751,1.44966650138169,1.45064959857022,1.49967852413909,1.48889826274631,1.48817373385501,1.4872274131503,1.48634241670815,1.47974349612437,1.47932568464224,1.49520895295904,1.52395754148822,1.52627544280829,1.52743838574076,1.53360498196583,1.5339997200438,1.52587973547323,1.51941772709311,1.51998990705395,1.52015957775945,1.5195388807627,1.53910942639221,1.54127237665193,1.55259851876226,1.56085405436214,1.71808519124975,1.33259257314583,0.00397384324076345,1.73108445907392,1.73156957807459,1.72952748380773,1.72783029840336,1.73163128259933,1.72869015692552,1.74104244237125,1.73051760808582,1.51002730229525,1.48394348684864,1.4653569855295,1.52934293884313,1.53021108157181,1.45713797671874,1.45741360337931,1.4576574651959,1.41018249368463,1.45735855888622,1.44718690143015,1.50168007113152,1.50838047418061,1.35900288317496,1.30113389738249,1.30663728247933,1.30254001663117,1.3138581797746,1.31386943405524,1.33171287585065,1.30294514106975,1.30259027050553,1.29836018715452,1.29960669681675,1.32197886098901
1.09362454813938,1.05091802786229,1.0496735375383,1.07450207261051,1.09014684943082,1.10605766960834,0.970628949242357,0.971115811620165,0.971031823907519,0.981570141932095,0.984920225068302,0.998703374323047,1.00291440566598,1.009807813738,1.01247852712617,1.0166383269734,1.02907178986976,1.02848063500592,1.02849680141665,1.02869018629339,0.978069431422524,0.974018781789229,0.980173459409672,0.979873665311425,0.976329925107046,0.974319156866024,0.974895373163015,0.978027377478969,0.981303585032086,0.982361554028208,1.00491956704048,1.01065427182389,1.01111040557323,1.02164126677298,1.01936317679126,1.01766388156801,1.01604981343394,1.01553657125431,1.01646077736224,1.01610952141252,1.01469904070534,1.01263240384668,1.01177582977193,0.978170790501437,0.95469816124522,0.917286963902773,0.926852995503352,0.92669595188588,0.914323055218524,0.904866087063815,0.904570363101977,0.900706888417427,0.852561091991187,0.852896395182998,0.867377879149417,0.872608977406983,0.877932103317568,0.890828341915158,0.891086591723815,0.919971226816965,0.927286332931722,0.992215495784934,1.00756188578113,1.00974806185799,1.04681378902845,1.05341494448372,1.10446685395329,1.11682143239734,1.13153411872276,1.16671537031153,1.16746577177726,1.16862527003281,1.16910405939098,1.16926590166764,1.18742314635334,1.1854418991953,1.18406983494626,1.18388166696293,1.18598770213228,1.19289662520457,1.19496472403907,1.20351253456212,1.21096430714854,1.21275104766971,1.24241402911002,1.26490947978505,1.27118181438199,1.27423546781424,1.28308897686187,1.28697315654803,1.29480150070351,1.30872799821879,1.32455226361976,1.33849234331067,1.34254773439637,1.34304987695762,1.34247737391721,1.34935582815848,1.3650112717498,1.36673201300469,1.36867151539682,1.37393342472935,1.37961201054936,1.40157019004117,1.42847409997196,1.43629462585918,1.43710423039218,1.42645543568375,1.4264640828053,1.42536009664002,1.42344465374059,1.43120006801443,1.43546671136672,1.44168498212918,1.47722352244698,1.48381672083525,1.48683397838902,1.48530218898018,1.48426454134742,1.48101503841311,1.4939622031529,1.50581263392136,1.52162969536514,1.52800213800914,1.52814176132256,1.52997280324744,1.52933157121338,1.5272940799882,1.52690495415276,1.52620066507919,1.53690108785107,1.53603570289296,1.53813253750795,1.53962741694131,1.55398059020209,1.55486650726891,1.57174289688243,1.3339046551955,1.33466885085171,1.60139034567401,1.60745906742891,1.61552219125932,1.63625098473763,1.73558198274228,1.7345491855865,1.57578384363566,1.56443302890994,1.51407023259059,1.47307787582844,1.46329736168134,1.46147060372065,1.45971564235941,1.45710460501252,1.45664989946412,1.45737152774218,1.44225479879544,1.44191599810234,1.44118392856371,1.44098924464165,1.42923346366147,1.37781618480222,1.33663321047701,1.33118163379066,1.32556804333278,1.31523967378183,1.31781435253426,1.31931284584083,1.30799783444557,1.30133619357481,1.30080788195553,1.3069096932297,1.31311192549627
1.16605261016564,1.04529844310714,1.04765196152522,1.06155211765188,0.89031235527282,1.17562850497885,0.969449059095124,0.970740094213236,0.970127129900242,0.976215573095496,0.985271446448761,0.985438091503788,0.989169932543306,0.990431353367825,0.99825529138583,1.00812486432693,1.0269424672779,1.02772113389515,1.03062275717452,1.03201082122654,0.976487168389852,0.959499517369502,0.980937573172809,0.98355021381944,0.923108092784499,0.963103532846583,0.972488879198197,0.979786033571071,0.984172521004542,0.984642396078751,0.984836199730283,1.00955770819738,1.01065846110453,1.16782436243056,0.931040623643355,1.03789835738756,1.00047757600111,1.0092542835623,1.01764627853828,0.852165443937115,0.85388889696051,1.01224015927514,1.01001896105152,0.902136869700786,0.998259820819745,0.904665856352647,1.04731409541869,0.970007184434633,1.01447434142773,0.895214571966931,0.894767348678663,0.904089147194568,0.852454142129929,0.829872891415533,0.831395766244389,0.840716821340865,0.869254407447379,0.890534697220101,0.892222661002978,0.90518477371721,0.935178335236672,0.981860520354279,1.00639491463125,1.02386464757827,1.02546909857224,1.05185947561777,1.14996131122081,1.14112887528675,1.14249391062195,1.16450370063504,1.19902398079494,1.1694308361657,1.16938892959422,1.16971081443474,1.18717653034619,1.190376952252,1.18359684934096,1.18275544121241,1.17822139754416,1.21474260328449,1.19647796222768,1.19730831464537,1.20653346482393,1.20040535518514,1.22989111863402,1.2484390189042,1.26864136841247,1.26985161811439,1.28501432041306,1.27997101021961,1.27955786639711,1.29351293805075,1.29416817872154,1.2949523872352,1.37251024755815,1.37199711397007,1.34278961913127,1.35238814188716,1.36494218908149,1.36530064665512,1.37063398935475,1.37086369738895,1.37827219633727,1.37746950073998,1.43351621349738,1.43456715469827,1.47699721520952,1.45705662506275,1.55625240273542,1.4251154099154,1.41038680339556,1.42499244205488,1.4278875488904,1.42610608143016,1.46743995461019,1.47911225621857,1.54839324034951,1.48325280136783,1.47983481555861,1.48030895094238,1.50855180526963,1.51989026737008,1.51968281942546,1.61827286751814,1.54852327271696,1.540176171974,1.52689962173565,1.52680111181587,1.52565877856788,1.52520378707746,1.58701083958437,1.59354866464043,1.54473283934219,1.54093634584625,1.55196764266838,1.5502249495863,1.57333037140768,1.56951360423751,1.65388213369324,1.57631182571227,1.57287754886688,1.57407121649644,1.62202239291831,1.7871316078004,1.77159407576521,1.54300596830874,1.53791353310799,1.51431682200836,1.45326000797441,1.45254106197617,1.45291890421106,1.45448860677157,1.45493373094666,1.45450092391727,1.48930327791886,1.44239325570881,1.44106741993843,1.44102092882169,1.44067042873496,1.42628982138824,1.3999406768877,1.34361728647197,1.34492205474588,1.34593843332011,1.31365797162431,1.32106469562267,1.32035176118149,1.31281053599792,1.30151050655266,1.3009297696375,1.38304201085852,1.38287082716283
0.987023539686146,0.97706072995587,0.967222715332569,0.957197916196576,0.94663081886687,1.01256467277105,0.971100832728187,0.971523694442411,0.971481884644429,0.982372876779386,0.985685639489395,0.986711790652714,0.988263011689878,0.988847438408321,0.994428607229433,1.01143268158961,1.02472758721955,1.02580043885503,1.02783742049598,1.0077521932141,0.977495073829357,0.978808145001959,0.979695839870547,0.980289152754218,0.977721677553149,0.976417555080105,0.976557039862584,0.978807553915773,0.982045521413143,0.983305924706943,0.983670394430814,0.99944170911888,0.996602009925544,0.992876895020586,0.988781999138828,0.997607319165258,0.998486542724659,0.996918127652398,0.996646047755259,0.897521542397303,0.900128599984216,1.01159389452158,1.00961793991371,0.996382811399849,0.997660779945355,0.905935138395315,0.895141768105056,0.891079353500587,0.888160759513028,0.878557179878751,0.866224417703814,0.855451820433536,0.845999049387011,0.830402084250827,0.830963773091599,0.84313470421195,0.859572874954086,0.889053668102302,0.889607071433292,0.902788205141546,0.93376819824147,0.971116114289898,1.00446435333749,1.02109991613823,1.03080189238411,1.07646317829989,1.14044231285808,1.14043354066656,1.15985489573098,1.1766964219641,1.19584281973987,1.19462375481844,1.19418463545326,1.19467195205802,1.19558492200296,1.19638635977547,1.19680580807005,1.19822053106893,1.19990667984717,1.21042107633337,1.21677821227368,1.2194260998687,1.22061121677605,1.22403668122688,1.23985614155047,1.24855061017366,1.26423555889724,1.26482186161258,1.26906486304658,1.27149278398213,1.27506469742313,1.28414044782659,1.29397158369302,1.29388551588746,1.33305314233203,1.33997461840768,1.34272223180785,1.35544504995303,1.36447245776878,1.37117597345028,1.37607330051574,1.38064083633974,1.39083150612184,1.39975906913829,1.43210512674189,1.43213494333997,1.44363471054757,1.44720138383023,1.49597600072974,1.45859099825482,1.43143516931077,1.4317815074281,1.43073549154764,1.43125008674688,1.47049083491871,1.47215225560828,1.47328772903515,1.47543348437495,1.47848726497742,1.47944403483722,1.49463068544537,1.51867898897226,1.51827930925429,1.52630161722723,1.54014981734081,1.54037188802788,1.53823835957967,1.5392493834294,1.540334901976,1.54155938601171,1.55516716006184,1.55342109538822,1.54838691023487,1.54859410627481,1.55001847271275,1.5501854153572,1.57012035394378,1.56810487651735,1.56856335885203,1.56822973476292,1.56994741962268,1.58739953739466,1.58799091802263,1.58743780836712,1.58758308932464,1.57327922766881,1.53020526214525,1.51541115352912,1.49160039549882,1.46758723477564,1.46337769990165,1.45964348707246,1.46333684055145,1.46566124479017,1.47251030473949,1.46067207867596,1.44045521875562,1.44046907035723,1.4403779243783,1.41309044630244,1.39050236501734,1.3428188446674,1.34446210700493,1.34499998811175,1.33150637791316,1.33057580041928,1.32931316806305,1.32765494382928,1.32654140294444,1.32898433855303,1.33131774843605,1.33288096892244
0.951384392731721,0.949458015484382,0.923989430425129,0.849231013734384,0.931177879727208,1.15010684961822,0.934531920277416,0.955807764597774,1.13928559438087,0.995822113168114,0.995944046494195,0.998100773762988,0.9835628813091,0.978453280869523,0.976857003813011,1.01447582869452,1.02176277035776,1.02351843304915,1.16050625931242,0.981217784844818,0.977127692240733,0.97931723135487,0.979421665870936,0.978261383137369,1.02939081652813,1.02708089773334,1.02593827016685,1.01350295798849,1.02872811413189,1.12610750643505,0.923786716619707,1.07764112174914,0.993571747678672,0.97666852916419,0.986733741357434,0.903827003039973,1.01676606337432,0.996515221910229,0.99809012693844,0.894507580164739,0.90274249515123,1.01701558944926,1.00336446153574,0.994480874802882,1.00255510590677,0.908241641346615,0.8876027905001,0.868376896133464,0.800787949893586,0.795589258384706,0.796700268594219,0.79490737886344,0.82714348687078,0.827484855155777,0.801428647977816,0.845806232781343,0.84661151939596,0.887990649769757,0.886356732626632,0.90010106894315,0.932377024089929,0.951151355183338,1.00218356970712,1.01863453025618,1.03626578864847,1.10140419328771,1.13806007338919,1.1388679225,1.19248690293695,1.1925383935145,1.19397228466016,1.20445525343605,1.20945232589727,1.2535303245678,1.22350309638714,1.2135884418804,1.19594752475626,1.19817125387423,1.20116794147682,1.2070521910476,1.21724230651558,1.23928163143067,1.23495418862955,1.23080257304944,1.24844315851052,1.24870286565265,1.25732945330978,1.26174807407645,1.25578483630743,1.27035770244422,1.27088523186742,1.27015400801779,1.29361465631216,1.29279478488326,1.29721515868274,1.33795244824046,1.34401389561495,1.35789478956263,1.36443511985251,1.38414138179538,1.38468949344841,1.38812544693076,1.39934560712703,1.41587558904115,1.43096674360633,1.42977806966887,1.43447084856278,1.43714520059261,1.54171707714124,1.48357576293299,1.43193343686962,1.43227607744549,1.43213826644461,1.43178190896634,1.48912136471942,1.47259627749554,1.47205535148147,1.47200555734259,1.47033250034834,1.47209662383785,1.48677249470966,1.51787160853481,1.51500528691867,1.51261354101079,1.54179043402584,1.52876107216465,1.53309249561557,1.5390973385732,1.54503174776426,1.54602414863885,1.55686256662311,1.55711292487336,1.56617518205394,1.57903608061608,1.54615816416459,1.544902624777,1.63445889759773,1.56537643440215,1.55318297431176,1.55436737857606,1.56956491489011,1.6501405471366,1.58841541289497,1.57386102714586,1.57395169582479,1.58474859864006,1.52268886358965,1.51835015289754,1.5047322198205,1.47340320137885,1.47667482496651,1.45724060184565,1.46426977988004,1.46652724403508,1.51222781440929,1.48646401364972,1.43920031050567,1.43988187437393,1.43964577855144,1.39564239291095,1.38079920519325,1.33974051742621,1.34789394368251,1.36259149008729,1.33733920776846,1.35638645599878,1.40640553554308,1.32746167639516,1.32435799292781,1.33758185375591,1.29261484178742,1.2995182358874
0.951259542005655,0.918330543083689,0.905254010564277,0.887468223776971,0.932452865141058,0.935088150406297,0.9396746407301,0.94668890459018,0.951771533539764,0.958298269208582,0.964673235850311,0.969519299059385,0.9700520074518,0.971849788362048,0.974425310553636,0.991157188587207,1.00766692398618,1.00254633688684,0.999359780111641,0.98118284015096,0.980388088866031,0.980222490993077,0.979953620701088,0.979399434348032,0.990922585524741,1.00754427138576,1.01308183698244,1.00874949187531,1.00237251468975,1.00202618586674,1.00069048589113,0.997316227857123,0.991772609914633,0.986958737214601,0.989298887210213,0.990507793961843,0.993004354644932,0.953695813224891,0.931145297689585,0.89666927054245,0.898523116290647,0.895719654128408,0.892918531440424,0.889977969826851,0.887652729877615,0.886770460544246,0.885246634321355,0.853554829087181,0.799600130536575,0.796865854040741,0.797109467039467,0.797771198045334,0.827195005224671,0.82701309178033,0.833576043991709,0.845875557825886,0.86007486188865,0.897075983160702,0.898997744197973,0.901640261707064,0.933303474944315,0.973277851823464,1.00080853597731,1.00970830128055,1.04483267321361,1.08469995450126,1.12836551568785,1.13020474467756,1.16132287837599,1.19943808996255,1.20325949650871,1.20763527881314,1.21404231041584,1.22447494024834,1.22472763586022,1.22422584683799,1.22406371518088,1.22700630740157,1.227372382027,1.23177147291097,1.23379347466017,1.24212487673371,1.24444123580958,1.24541534035087,1.24675599895955,1.25662596155346,1.26045840899015,1.26291525809073,1.26991281912156,1.2758269404689,1.28162571418299,1.29406257125132,1.29801405138708,1.30672117796182,1.31077877915566,1.34674448811251,1.35245421078689,1.35996690203768,1.36425638595776,1.3744035345637,1.37938979764364,1.39292349884416,1.40651906803501,1.41887732774709,1.42960916384332,1.42971105986783,1.43321763257239,1.43543464544109,1.43473673704652,1.43374585467921,1.43270270827362,1.43460748351563,1.43595316825788,1.43765731133888,1.48112619881405,1.47152581859643,1.47184113259633,1.47178395421755,1.4714195107104,1.47246585594766,1.48511206122782,1.51125102172668,1.51266158150277,1.51220092527212,1.53021953816347,1.53884783964967,1.54734730993677,1.55438856129565,1.55926161492212,1.55908508587587,1.56084666277265,1.56351145065289,1.56745138792261,1.57296948993043,1.54605624287916,1.5455234275856,1.56041302297322,1.56445471970595,1.56501746955749,1.58481022689542,1.58999854559289,1.59070380876293,1.58830707260393,1.58647988176288,1.58665569460367,1.58874283321782,1.56601765057622,1.54991628166831,1.52947102205103,1.50671646223606,1.48757830956452,1.48166091034989,1.48517421874028,1.48877351750721,1.49863005073083,1.49365073827235,1.47932861169899,1.46327573383592,1.45104460493471,1.41312830225051,1.40531503676484,1.39724595927839,1.38579774717397,1.37265841995998,1.3609416416309,1.35921596650084,1.34643747998095,1.32966056431063,1.3178467440146,1.31328614319987,1.30904837269435,1.30588281548253
0.950225788715263,0.848590396766998,0.848943166158346,0.848654471356501,1.07905338726315,0.923695009388882,1.18962277234511,0.944692008115335,0.81319267040702,0.803244415643366,0.801948390403907,0.928742394516503,0.935516078447721,0.937604572945731,0.928491695619823,0.975169663911737,1.01352586567662,0.99999745607751,0.994471084892612,0.982334699849773,0.98286584624102,0.958727278747106,0.958421918621444,0.922530342256718,0.963090488290766,1.00065381837814,1.10487767094821,0.984529265837686,0.947860696528518,0.948658904812818,1.13366404399062,0.938185295270092,0.936728458079276,0.935739874297296,0.990633305290495,1.00545307563667,0.996819117705213,0.894016360547392,0.799338067215947,0.806752627035261,1.02623098881643,0.866963456972161,0.85352595162128,0.819995237420266,0.797129103657002,0.796185172249557,0.880219251232144,0.839592758017617,0.793119989049696,0.795053456513087,0.798403280646643,0.79991196912426,0.826329214964167,0.825143796516657,0.841410544428883,0.846441976839266,0.871452780335455,0.902276332234623,0.914400342330369,0.904129946840891,0.934757673395867,0.997025794257353,1.00064848281968,1.00038834209441,1.05530090538185,1.07341948860535,1.11525671838989,1.1273704983565,1.12577041975301,1.20713370053248,1.33970808015398,1.22320216147709,1.22240035619014,1.22405402275607,1.22717537699097,1.22375686654085,1.22092662248753,1.22916987585158,1.22877963547704,1.27318413278534,1.24852923040321,1.25103946891374,1.24961175972206,1.24850610528266,1.24652140106636,1.30000953240914,1.30037021080312,1.31264906886796,1.37108972681626,1.28682729312432,1.28800452900894,1.31305673431705,1.31343347908338,1.31405161321681,1.32102497204869,1.36934287623549,1.35927976518218,1.36216827686975,1.36476694831056,1.36666515708418,1.36326449526689,1.40615776532526,1.41992995468543,1.5397729143981,1.49162750557108,1.42629210259489,1.42572755059638,1.43549104753752,1.43488665962786,1.43349742144741,1.43087423831576,1.43734763755403,1.43736526346112,1.43873016944998,1.4947727642875,1.47210877331905,1.47199681883992,1.47150107224356,1.47023467618771,1.47425536627596,1.48393048056899,1.51057841573486,1.51145960640947,1.51132552417719,1.52142663937876,1.5690752751441,1.58151580497292,1.58204526145296,1.61586102158321,1.57964614630213,1.57969625329555,1.60263857065239,1.59521871622366,1.60595629080396,1.54532617929882,1.54523942011696,1.54439591649676,1.56489010604739,1.56712589760186,1.59665130518932,1.59604706773213,1.59404822612656,1.63178691387577,1.66335588587491,1.60348991815056,1.67070825565526,1.60473082739545,1.59950250447859,1.59864347303953,1.52375195463419,1.49455676866574,1.47888539748721,1.48814856668104,1.49085684244746,1.54439488571983,1.50602759323846,1.50434712291873,1.50332986978755,1.50206360417388,1.422572420832,1.43101358521397,1.41730602958907,1.41668814761173,1.44142436622867,1.36177634125939,1.41309090230305,1.34101681574917,1.3339761404626,1.3132490943766,1.29566254311821,1.33605750641534,1.33071101640132
0.875470418098633,0.848718480278157,0.849202222219189,0.849205715174994,0.888321142349462,0.908706113142977,0.928510390040264,0.928735876420468,0.927721114986604,0.927492372165449,0.928185538840829,0.929578104855019,0.932800502885571,0.934865119416205,0.95673023597712,0.974577335889781,0.974217504262656,0.974072331928463,0.974439588927397,0.974884642825917,0.967519921133699,0.957929777148057,0.958740536255531,0.959770932199034,0.961929641317677,0.952631291092932,0.949492252294002,0.948665945809397,0.949424511469867,0.951023792292509,0.94348482550993,0.936595606212369,0.936562485448135,0.936797071945348,0.930989563212386,0.928399256297791,0.894016360179306,0.864786480947282,0.81449170660428,0.816115589619378,0.814570577516691,0.813730576584801,0.814222392237264,0.816055499285432,0.814774903264725,0.815403034559794,0.818108181139815,0.819586065582179,0.819106399712687,0.814809374187762,0.821779769627102,0.822987369535776,0.833314149867306,0.834179546651425,0.839383598555466,0.850863913135438,0.888477731822709,0.906541814960882,0.912192276823612,0.923939427203618,0.940040493821173,0.988514469880841,1.01167821345572,1.01463496770141,1.05261462864272,1.06656520506126,1.11354785499219,1.12889334373199,1.12862906674287,1.24849430887482,1.28015556705323,1.22334698289149,1.22181149518163,1.22814317558928,1.23326356352718,1.2396745509939,1.24652003844635,1.2531790514835,1.26059945520017,1.26679637535685,1.26394699308785,1.27172613796583,1.28140313868701,1.29167570634214,1.30069207950613,1.30771283925619,1.31901642565675,1.32939207224624,1.33470348284585,1.33185065518264,1.32934696416855,1.32298079430164,1.33587083303407,1.3484398587979,1.3567834983497,1.37326827190036,1.37515214336426,1.38590280737689,1.39951006905723,1.41302812457499,1.42199972986652,1.42535486223998,1.42934988778608,1.44306421469932,1.44374894393475,1.43496323670262,1.43573384954313,1.43632549494142,1.43584818523601,1.4435773913664,1.44816829475892,1.45382968178001,1.45910201712106,1.46522426561479,1.47148447619165,1.47162023574585,1.47937962329117,1.4847008651202,1.49085923823674,1.49642858463551,1.50107858627529,1.50822482006119,1.51132247853226,1.52696452634487,1.55339469551998,1.5769723975785,1.58183717102092,1.58202748249994,1.58156944747107,1.58035100440609,1.57974897957847,1.57952890165094,1.57908715764191,1.57910268542997,1.57795639802748,1.57664434658255,1.56498897647434,1.56461347367717,1.56496846241342,1.58295955346433,1.61621480038692,1.62794009604947,1.65138810779301,1.66229873075274,1.6631608532272,1.66588578244813,1.63495189521528,1.61891497926836,1.59216302944368,1.54742236162516,1.51915135992737,1.48705968768911,1.48758194565492,1.48802814281665,1.49494563688307,1.49962250275459,1.5052150979374,1.50412226055557,1.50267980287304,1.4366870843804,1.43496069659554,1.42296231416862,1.4170072744949,1.41229513819288,1.39043409872897,1.3795795233994,1.36559887647377,1.34613836667637,1.31501089076756,1.30695755252866,1.30685371810726,1.29682907790707
0.847930801997669,0.847689764130731,0.849150256098466,0.840442940752869,0.837888610874446,0.837513423271024,0.928486759034799,0.929648356353321,0.952374773603189,0.952617360118245,0.928266489000832,0.78877688091125,0.832992325756661,0.785429628687668,0.976494060586603,0.994951429044923,0.787700183749466,0.787403160840997,0.786819827454713,0.973826869988266,0.802915586818095,0.954157704061,0.960046951389154,1.10432743763106,1.05097314720325,0.940939401124765,0.941895961959676,0.94723019794853,0.909683584277887,0.953142148391408,0.864398862294705,0.864231379995622,0.913248076948522,0.985348660931613,0.92714686907713,0.925707455961589,0.798222164273685,0.79798432845052,0.798428323591161,1.06731507649721,0.798664347534403,0.797173771716997,0.81414932493034,0.852975386150341,0.871518064487906,0.879741384482895,0.80710414404517,0.815991040147016,0.821116870649401,0.811539332405123,0.849865101245985,0.850866473210091,0.834025063161339,0.840756963184621,0.83774104091915,0.854971564344459,0.912344000563063,0.910686068762532,0.909320815665057,0.940679779882138,0.945033681618905,0.979960372236405,1.0199820351334,1.02324343604692,1.05009590259573,1.05868698162081,1.11151365301078,1.13074015658829,1.13133467708279,1.33333148741718,1.33166856024031,1.217371395628,1.22090988468444,1.236257183337,1.24869073799806,1.27152208753145,1.31083001032117,1.26636512144272,1.26882373000988,1.26897531052118,1.26044860742467,1.31392778186542,1.32508145743434,1.33508198225311,1.33548579812031,1.33591460592842,1.34256250346273,1.34183623696345,1.33990785562921,1.35458917154488,1.333514639752,1.31515233071962,1.36475569937034,1.40979744815043,1.40128436578701,1.37591630437348,1.37698539706177,1.41392370854596,1.43809578598639,1.4450997399334,1.45416429725263,1.45269774361337,1.44608401529924,1.44140633897569,1.44249971485097,1.43347115675145,1.44115201728821,1.43778542285908,1.43522192065393,1.45308504069542,1.45303695194966,1.46877890326878,1.47271021991575,1.55565631834587,1.4711913756829,1.47094506128308,1.4981433365233,1.49825706790687,1.5337232672174,1.578619389335,1.50605111000008,1.5059443616389,1.51208926849259,1.54129023928237,1.58866467850919,1.58970498635296,1.58385755317162,1.58198304619123,1.58231162364676,1.58037866752256,1.58022190672532,1.58006420036862,1.57962858372389,1.58019303620362,1.58171868563295,1.67669847524453,1.56445959528851,1.56422177782586,1.56440668717869,1.57263512804126,1.6599141655056,1.66110552300423,1.65546980561763,1.67469989242889,1.79690611393197,1.67939189669739,1.67918395830088,1.6266655678612,1.58651185013387,1.58090026503072,1.53679616478257,1.48617294320287,1.48690932967531,1.48779567737691,1.48785140668468,1.48843468799036,1.51374456845263,1.5067608531013,1.5107343256142,1.43987521693536,1.44968882389284,1.45817363798914,1.41793631500313,1.40490560123704,1.40423971292827,1.36305843791996,1.3915176268325,1.34706911617906,1.31715850229277,1.30483609372448,1.30616197055591,1.28596141907335
0.848634251676808,0.848466315198725,0.849618234821283,0.840365639769193,0.839840554281262,0.838580081321206,0.897445338108295,0.920771483421066,0.952266354733434,0.952493887529938,0.940271168366403,0.85099093291029,0.841946024597018,0.834227561945961,0.826653434256503,0.813450442439973,0.787839390704124,0.787292529754053,0.786956228215909,0.788494460337486,0.794071342881794,0.946463591540894,0.961754361535547,1.00287959596368,0.981742719499661,0.95018195556425,0.949302702540155,0.950977121076543,0.935310054179729,0.941517091407281,0.889101251850466,0.880347290126139,0.896306798722455,0.907824118189556,0.926216289185891,0.925533760700207,0.796922003105657,0.796976580282055,0.796876671533403,0.797809142151323,0.798331310409097,0.797789401581594,0.815137648592614,0.854167952490099,0.866620804177313,0.872476375245937,0.809563891034029,0.813228270642973,0.813342049588771,0.812350498409899,0.819437503057946,0.822354757539272,0.824953269634351,0.827352995754999,0.829851292620937,0.869927322963589,0.925379942403764,0.930090349332022,0.940925947077712,0.960340426957521,0.980309648109136,0.999859982045089,1.02679233828629,1.0368152918909,1.0509353961715,1.06654295324308,1.12026072674817,1.132208054209,1.13243507379834,1.19537820555268,1.21780692370438,1.21907596830218,1.21985557065666,1.229133176632,1.23217032648601,1.25258153935086,1.26161539945238,1.26374195287731,1.26572874146055,1.2678093002745,1.26803652388389,1.32507188515719,1.32564447134371,1.33490218005002,1.335190811106,1.33732567555515,1.34404759046132,1.34570479901607,1.34765420023094,1.34993430999991,1.34999365543248,1.36177670646245,1.37647763210033,1.40706482079117,1.40388516865245,1.41663710044408,1.42526981896407,1.42946892665473,1.44097572793702,1.44737191434571,1.45346376857105,1.45261144415059,1.45134275248049,1.45009346527167,1.44973730673432,1.45043228143099,1.45126901061202,1.45136277433265,1.45119529692065,1.4513965627413,1.45147683669622,1.47234763485313,1.47533485049724,1.48663210124295,1.48888414262327,1.49125214045245,1.49906316999462,1.49839353469186,1.52601690077659,1.51762078332287,1.51047500575155,1.51329465290717,1.51418471149959,1.52676401948539,1.58894935568688,1.58850023010265,1.58591337020882,1.58030897194578,1.58075653821492,1.5800856657858,1.57961323774729,1.57954032148701,1.57912576401958,1.58201717215801,1.58531585609633,1.5887814997117,1.56389444841224,1.56365587907987,1.56450215008411,1.56598005511227,1.6440560088241,1.64920243464797,1.65196032134273,1.67741926271959,1.67887762813258,1.67956275168132,1.67932691634311,1.63308627724087,1.61250438413141,1.57414627771482,1.53973485991323,1.48583482063301,1.48571740946911,1.48663624031365,1.48704514305526,1.48474492501128,1.48298323842833,1.4817204983203,1.48094284001583,1.44374073797006,1.44648442056181,1.44800383758715,1.41931775532083,1.40549796609209,1.40513243670045,1.40043979392596,1.39723815148849,1.34933581750735,1.33036991659328,1.30203067194177,1.29316314736271,1.28382666966867
0.849805577966745,1.08470244931926,0.851071543480296,0.840344799522402,0.946740615598345,0.838762083331368,0.867721143664888,0.917296942786988,0.969086622848149,0.982471283805047,0.977693226899115,0.858147333631911,0.864823731181024,0.8844031128134,0.783774915333062,0.783829657184875,0.784079571136896,0.786521737120604,0.786148819743241,0.787384543387496,0.793911890371924,0.932214380523467,0.963642651773975,1.04945084105391,0.903032830973324,0.956099905686008,0.960091830926229,0.955749696426448,0.926134715451432,0.947873731892066,0.905765316993215,0.842546414577388,0.839516446833361,0.829082404418693,0.937312348704337,0.950248692136092,0.795416084721432,0.796251893796314,0.793821198965263,0.792689039262753,0.791993733499285,0.792462280230642,0.815738830371993,0.854888387056186,0.855085949722164,0.887083319310635,0.808642624752931,0.798769916831336,0.783826372253463,0.760700345556114,0.776857350110205,0.782755491765551,0.815194698935297,0.816608851145433,0.825647207534308,0.887431684119455,0.931483499334044,0.935595662679606,0.966175381065422,0.982210868317542,1.01780304162728,1.01753125034007,1.03306953094343,1.05217086695446,1.05169816679813,1.07674182966224,1.1820592792827,1.14585260166073,1.11712805410177,1.16542692151116,1.21740351772539,1.22209791284464,1.21958236680084,1.21690264644204,1.22617325911579,1.24782731476342,1.25926936885566,1.26117682662937,1.25976259352735,1.2588723725656,1.27771397732893,1.33969504828134,1.32842718957853,1.33449854368117,1.3347190745939,1.34049593444526,1.37293241068363,1.35237780782615,1.36047789214779,1.34728714946666,1.35165176928109,1.45182729506171,1.38561074779473,1.41211713227061,1.38286731214149,1.45240504428976,1.50977986508493,1.4838923393386,1.51611177894282,1.47627794944307,1.4655201540905,1.4655602235423,1.46575732238411,1.4929601453788,1.49183304800031,1.53673746645909,1.45913773377931,1.46207030382576,1.46511933071579,1.44980192247488,1.44965245957446,1.50438350308094,1.48544245494219,1.48411708687089,1.54355184312024,1.54755807117597,1.49999386039262,1.49878914655883,1.53569386310152,1.50547264452131,1.50497637369661,1.51977410315287,1.51785086646147,1.51909447657016,1.61686344665361,1.61841612291363,1.61130619083489,1.57871423527753,1.57657201588073,1.56455551154728,1.56403278174511,1.5798951448772,1.5771045360585,1.64369364938085,1.58746749774668,1.59681168077511,1.56329279307639,1.56113787201537,1.55779866369415,1.56181395442631,1.62365858390875,1.60981960148483,1.64923836969647,1.68908923508492,1.67971839954912,1.68020247462626,1.67855799390864,1.64277451070875,1.78976225136426,1.56389802375584,1.54263597365235,1.4812796240827,1.48421608221968,1.48521505359721,1.48879417653421,1.47327506186821,1.48183810881301,1.48132417214911,1.48015123006803,1.42030132496319,1.42049795101533,1.44973455594109,1.42089715968789,1.39359277558887,1.40465307519768,1.42954650057736,1.42281635318127,1.35315163043134,1.34365817877292,1.29947861664604,1.2827944987508,1.27451019048863
0.851716508071402,0.853226973874095,0.852486122503,0.851669491994424,0.851625249725591,0.853085989938353,0.85690499864051,0.912913318429316,0.963510472954876,0.973190266218847,0.97279257586556,0.865772725247215,0.868276118607749,0.875278900176166,0.784684297201676,0.784969447360803,0.785806790840907,0.787261658192565,0.788245372019299,0.789658128999565,0.792381581195544,0.952505872981747,0.965591702438856,1.00465684259699,0.98906982428343,0.973581991488551,0.961389738768845,0.958936743390447,0.904164846131136,0.887277096906002,0.870386932876652,0.839517173268526,0.838378619334234,0.834798914767532,0.874235433192042,0.894389773552841,0.85973625997502,0.810613453932726,0.793214231895063,0.792548857617693,0.792846652166669,0.793104605249331,0.813921031139106,0.83341503515093,0.827045173767641,0.814076613119372,0.796885679400877,0.789143705750694,0.78334690774492,0.782061813799925,0.779861742918056,0.784080575375089,0.813942733256968,0.816242702222154,0.854536484465299,0.892208323936655,0.935098149321669,0.937643303998579,0.971137245135332,0.97690403056399,1.00803582937207,1.03181640015108,1.04478390834571,1.05738804044054,1.073626847222,1.07938040923349,1.17292440941494,1.16846729898033,1.15979497354327,1.16245160318085,1.18929881168349,1.19552361905584,1.20322996623534,1.21205963282243,1.21684868183758,1.23629660925297,1.24024193630874,1.24380224030928,1.24842864999007,1.25451413072602,1.29139022668358,1.29644262545128,1.31058018862049,1.32899840046259,1.3312975880666,1.34491211001346,1.34836114034402,1.35023668094463,1.35297537736501,1.35500181138114,1.35807740981333,1.37586703487264,1.37783621866069,1.38004176671392,1.38224339591171,1.42017882469818,1.44859420674363,1.46325475566028,1.48401866238739,1.47413334370508,1.46646075886356,1.4661589644558,1.46610100640478,1.46956049977065,1.47843397779272,1.4744920031319,1.46937009730629,1.46784062576629,1.46410687268671,1.45742440065317,1.46062583244075,1.4748990687695,1.48687891575644,1.48950406320049,1.50212719191942,1.49919967644021,1.49830925073148,1.49815657553827,1.5046677164203,1.5106868002504,1.51481299290122,1.52602630612207,1.53195890782268,1.5379110608462,1.55789317414053,1.56536776831052,1.56516505491653,1.56506536246683,1.5654301918013,1.5651644587474,1.56494732142514,1.56990751055822,1.57363751700217,1.61856560671371,1.59055396434353,1.59397702293569,1.56078877212631,1.55958488394875,1.5583664503827,1.59187410931248,1.61807182592739,1.61969626807394,1.64851018476411,1.66856254849078,1.66988329004237,1.66955855116577,1.66633686217178,1.64760768178064,1.56726305070485,1.54442182823221,1.52246423908436,1.4829091201527,1.48382454651392,1.48427732250912,1.48380096789666,1.46898028434734,1.46143822048559,1.45188156303201,1.44648149692177,1.42051024671786,1.42052396801362,1.4262961516264,1.4219805314897,1.42231674544759,1.42343579289308,1.42371668554766,1.42350359842067,1.35807813984053,1.35766764935896,1.31017670897681,1.31317301203502,1.31577136062848
0.853878295672324,0.854209611897926,0.852959282050975,0.8499243067946,0.848389803557369,1.0889025636402,0.837318462778533,0.904084191302179,0.951345868883955,0.972907969762431,0.973273338642347,0.813431004427366,0.881506736462691,1.59048608500189,0.785114977692119,0.842676303852304,0.77411454159161,0.814860834007006,0.94011947490742,1.03600680075119,0.781493992073512,0.968843091961526,0.967372353225004,1.04210494798163,1.0437179522933,1.04382167522906,0.962981717536839,0.960218165955601,0.763827181094171,0.763921295922878,0.855000220540843,0.826208510039613,0.826253861638727,0.826878534039916,0.826626711503939,0.923988476467044,0.991593801501628,0.81938394233558,0.783814024885444,0.79040698171236,0.880847424702993,0.785574232945491,0.802159705924477,0.973793753691718,0.768005464019657,0.767602588319235,0.788235529961244,0.785469738933438,0.761617123971368,0.782165040063312,0.760139318714377,0.785901954162687,0.810249608285019,0.808832883087458,0.875285356382354,0.896583793998099,0.947163345003022,0.945426835648135,0.975498215595214,0.971313980656778,0.995781139215543,1.03960845165102,1.05506889781107,1.0652391594431,1.09543086241762,1.08975367485635,1.21088929994702,1.17042460054814,1.14765518589835,1.15923883100774,1.182166486957,1.17998729306794,1.1857678944548,1.18751606581403,1.20956877445211,1.23065212741201,1.22792611594382,1.22954768883243,1.23130737200855,1.23940574883565,1.3016991106799,1.26518061372184,1.2901815337026,1.32510025302845,1.32314730491789,1.37825193330437,1.33245164082348,1.33395041235902,1.33195089826528,1.39901408501402,1.36390350664639,1.37405199585773,1.37425326520761,1.37417148941592,1.38395529601483,1.38361345140272,1.4112412389143,1.4477030652602,1.56866016342148,1.47160117994214,1.4683084352272,1.46833652976369,1.46661364801083,1.46602701726493,1.4812739245094,1.47176064830851,1.48889912980469,1.47483862953385,1.46314268653867,1.45462732318648,1.46291730755326,1.45250716210264,1.48705296107394,1.4992958071607,1.50475519635119,1.49678564629065,1.49643584983897,1.49719781500644,1.4973419399749,1.52093164561286,1.52143398713441,1.53937086166838,1.5429635467349,1.54873597192819,1.52842867283117,1.56550122358577,1.56566783977768,1.56493448400052,1.56500703642255,1.56449125997681,1.56545748226978,1.56509093536045,1.57275346864778,1.64263903510863,1.57452171755637,1.61882993703643,1.5582510075685,1.55809024923619,1.55748409462043,1.62893912308266,1.61164870346994,1.62939741868437,1.63104702284304,1.62964779099161,1.67075319491214,1.67180829766439,1.66495720106009,1.64720698253141,1.53768988589236,1.52156649524529,1.50046978424175,1.48349868492986,1.48376446184181,1.48326900197361,1.48340026123811,1.45461560448609,1.43903780955081,1.44111149628149,1.43788712358525,1.41035547606489,1.4109593043024,1.47271783206428,1.4217386941515,1.42063137665852,1.44121848015799,1.35661858083856,1.42405765218973,1.36457183824956,1.37805639856192,1.30658357734867,1.32806302960506,1.32084424335853
0.85347274676719,0.854411314900564,0.85390214852196,0.852216324866626,0.84932069536054,0.902303313368372,0.886264529137313,0.895896601444467,0.96190944123144,0.968188004549245,0.921623027730399,0.892393380902345,0.892173628993748,0.902414495059076,0.869860375569708,0.830057084559467,0.822002326770281,0.816817620855957,0.81421990322589,0.809835622155833,0.80040227286559,0.824376586901442,0.843959873392622,0.864085653067982,0.884822573424335,0.906130870413523,0.959673618471977,0.959867588774488,0.826295739734527,0.786640796321848,0.803820866219989,0.814842414361525,0.818175053414488,0.859014969230558,0.878077913278805,0.90044363218563,0.887147683275573,0.82783684021504,0.785342210932145,0.784424167486398,0.783940770958032,0.785111555627756,0.771544384366027,0.771767616806875,0.771170688646244,0.774329214130676,0.778821746496943,0.78389571479492,0.783027117955509,0.782105082998029,0.78657400315265,0.788196735224553,0.820166156660956,0.822652488679212,0.891053710127886,0.897607063282628,0.921154867008283,0.94226698654162,0.967889553107131,0.978721208954942,1.00859690069789,1.05702785719277,1.07556836894541,1.0884777972267,1.11894416518296,1.14015169763486,1.18657718686463,1.18490865311881,1.17368220076095,1.1769706350062,1.17906909194824,1.18206279030586,1.18485368269152,1.1862467893686,1.1988341475168,1.20606401384871,1.21353542569631,1.22071152910765,1.22544013324551,1.25163050320553,1.25599945120226,1.2609625224631,1.27847223021997,1.29137944223231,1.31982425022249,1.32532798716659,1.3274724271632,1.33708095819046,1.34632587236702,1.35851398592969,1.3613822782141,1.37236233858196,1.37410579326586,1.37656175356839,1.37867347532845,1.38208106039458,1.40755477213215,1.43365044076389,1.44384512393973,1.46890024901168,1.46952085317779,1.46802525702701,1.46719663824802,1.46701907453827,1.48229050599177,1.48368752931253,1.48692346622891,1.47863656401382,1.47426224321118,1.47027754375206,1.46653013945705,1.46385205254395,1.48633585299484,1.48880591833961,1.49162711512905,1.49355466980971,1.50265312267217,1.50469294350482,1.50781490077474,1.5176998534426,1.53050210051832,1.54358655368398,1.5448366641546,1.54869166864851,1.55154590095591,1.55293882276469,1.55461715073502,1.5558941505339,1.55800143834994,1.56111074021736,1.56900381078033,1.57213746772918,1.57342578509836,1.59952587109409,1.60514999488846,1.61049997565427,1.55719294082238,1.55664716851514,1.55722940763534,1.57455139627554,1.58730669592245,1.59862871362039,1.63024063070052,1.62878747413189,1.64211402831337,1.64869707345158,1.65173610259871,1.64497358026611,1.53947724352716,1.53260076047023,1.50639929375399,1.49488920218684,1.49149788332545,1.48800836259003,1.48062289813902,1.45503101635511,1.4463918272072,1.44360340495735,1.44021812261522,1.41707902500637,1.4144787151579,1.41738657815606,1.41941522248876,1.42017503757678,1.41989796743256,1.41872563750473,1.41654131979771,1.3588569112465,1.35674465668281,1.32331412526466,1.32364187184851,1.32225066646542
0.853432454695614,0.855340851002246,0.855220021655321,0.854750417973522,0.845900521956177,0.934296186402585,0.855549536884565,0.887192365020819,0.995216171540028,1.10162212382172,0.845797558666931,0.893087503730108,0.892293808768241,0.910321506106572,0.910413560073604,0.818885759653531,0.875912361427083,0.845462793593707,0.76982847041158,0.771217027808099,0.773032557076979,0.774452701877793,0.773951667541805,0.774232757545956,0.772885831656572,0.764818467799406,0.959521043130855,0.959250407832901,0.958559762485936,0.758243752265013,0.758857632129092,0.758808119330063,0.812201878116438,0.997426274663453,0.949574318733221,0.918435477834314,0.874248804498731,0.837786342082022,0.779688002926039,0.77845581149426,0.779011805734017,0.909277063144432,0.771058996890556,0.770822162561823,0.76941579464209,0.813812492687649,0.74820449775561,0.785116385631181,0.786098119692835,0.744416142776236,0.791604548684541,0.790998163693517,0.823400274743637,0.82965023401183,0.916456610561967,0.898472202763787,0.896356047849426,0.939799672519251,0.96053699125808,0.984815072881483,1.02047537089339,1.1038705340539,1.10427518919994,1.1030270854092,1.1568655720006,1.16173617962306,1.19077434120524,1.18685166465238,1.17015311591026,1.21657229903955,1.1745256054115,1.18854774968441,1.18559718111216,1.18199272685356,1.19069504744887,1.19103689418089,1.19921276690097,1.19894425493595,1.19955587808428,1.25983875483772,1.22762422412943,1.23386110199721,1.24712164539442,1.24772676083403,1.31734673762765,1.29320615703109,1.32447365097965,1.33920408598245,1.36349673537026,1.35401477831082,1.35304684326045,1.36893295902822,1.3731430367848,1.37863234891811,1.37713187613928,1.37598798717329,1.40274406736349,1.40706168776653,1.4163883088813,1.46729129789406,1.4712129984906,1.50487115188127,1.46661053104246,1.46050009981028,1.52019463601454,1.49564819232339,1.4882932207995,1.48774366351269,1.48778618258806,1.52140407724228,1.47547993772802,1.4571259169353,1.48458610975742,1.48420321940005,1.49176182062459,1.48441763833353,1.50901964246362,1.51167251883716,1.51437468557093,1.51453380565137,1.57042872634701,1.54952647973316,1.55052338546835,1.55046263653117,1.55227683219703,1.54090458241384,1.54099577184528,1.54627971816985,1.54471048973706,1.56102479423715,1.57130782624988,1.64973704270402,1.57591134492207,1.57889696051282,1.63817135972452,1.65351692449172,1.55103642896128,1.55393404338813,1.55134689642146,1.55024890701659,1.54867081303346,1.54785420253002,1.63005863272028,1.62556780660376,1.56881445956915,1.5683865691548,1.72260627500569,1.64233830464698,1.54153802788565,1.54225318978936,1.51231359307598,1.5014548093292,1.50121119435021,1.50108196672885,1.47783836257058,1.45555876172369,1.45017998263549,1.45153196604913,1.45188712338227,1.41852276724719,1.41149371454596,1.41869774708344,1.40239507579514,1.39676443119922,1.38161077629804,1.42881387741687,1.41409154439363,1.35645547705024,1.35521828045908,1.32344984651859,1.29834409780807,1.28801808109893
0.855067557957394,0.856571437255375,0.857830861594899,0.859949892708153,0.861072673255517,0.901338648167822,0.867971098141498,0.869416656287519,0.872338523379595,0.877278281062258,0.883939152618608,0.893508322650317,0.892312835950778,0.90110926426675,0.89763964389698,0.892114810021895,0.885148561695465,0.856406454799541,0.824678540400019,0.772378531336048,0.772901039211397,0.773135851483681,0.772873739725147,0.772009740393442,0.769769835539461,0.764331169971932,0.759641408952247,0.757457484470715,0.756945680435096,0.756928365997541,0.757348070747911,0.757860346860978,0.799599192659632,0.83197316212988,0.86607232270437,0.890518121728472,0.866116930106448,0.847554394699636,0.820874724073278,0.776608416667433,0.775251551620941,0.773530967208738,0.772095101466809,0.771018574972517,0.770537550936743,0.771432045301042,0.774032257329955,0.786345635348316,0.786566001035329,0.787546728837173,0.789217796702327,0.811406572711235,0.826522714061999,0.835542719123515,0.871772510090185,0.886983209981898,0.902939689064475,0.93802526524428,0.959960014044086,0.983641676773258,1.03240458554308,1.08926583714182,1.10594667599716,1.13362630252895,1.16912439962003,1.17586745438749,1.19062880299451,1.19033852613964,1.19763155787354,1.20113324889732,1.20049806376562,1.198812961284,1.1968720701161,1.19532458806608,1.1929269368404,1.19331936497907,1.19647847864646,1.19788478096025,1.19913198630822,1.20945995898679,1.21767568712635,1.22282676868368,1.24660275968789,1.24719019136356,1.27241985932554,1.28542368533489,1.3189013949462,1.34044135576814,1.35368571295465,1.35368852776581,1.3530900461292,1.36425668198029,1.3709369232186,1.37521991500612,1.37803517635309,1.37723417803041,1.38740384288452,1.3924453763669,1.39979378974704,1.43559212057794,1.46938085774318,1.46757106201352,1.4667923834766,1.46713719691321,1.49089829235972,1.4988800187208,1.50016385738194,1.50318683371434,1.50823671775119,1.5135493685907,1.50597796256081,1.49969595598393,1.49113730114045,1.48701715681914,1.48874573264597,1.48720278166079,1.51084239444594,1.51282052249843,1.52744382587624,1.54040420175419,1.54534257351357,1.54877855437145,1.55136016960955,1.55164085399546,1.55201033705343,1.55090277171083,1.54923023744097,1.54797126131347,1.55599566536854,1.56487075769557,1.56857026545181,1.56762018388009,1.56878417122202,1.57297219873264,1.57189828544695,1.57080184777549,1.5591851921753,1.55658676926861,1.55269205662252,1.55088700872656,1.54872940191695,1.54784528620855,1.63338543721259,1.6299930127931,1.59590502652526,1.59558900283671,1.64157829703393,1.64015800124027,1.5712337471921,1.52683796391151,1.51002678621533,1.50632605343895,1.50412901594656,1.50222408805658,1.48712223398159,1.48055595987469,1.47221985585808,1.46423852858627,1.46009870110464,1.43442895288401,1.41782333224448,1.41362255448873,1.39581943963737,1.3890755219187,1.37853150661172,1.36768887205116,1.35813293611003,1.35507637826566,1.34815099109786,1.3126608023422,1.3115117695794,1.31553708913417
0.870625682193172,0.859932660173712,0.862494309344673,1.10898607971629,0.86130682954503,1.02799173543132,0.86696026154229,0.863846424420514,0.856209626600447,0.871631720443218,1.15998353766112,0.892114003244402,0.891779636525055,0.90388520939483,0.894975531638072,0.898078713961092,0.930829714779394,0.879356034762802,0.877169938831933,0.773050356814586,0.772717813218209,0.772367842274165,0.77192065905608,0.771052971344845,0.966355451101047,0.959461158259174,0.749823109248272,0.75753863839474,0.756693013665925,0.756532246002624,0.756701281455021,0.75809648987665,0.758125994816329,0.758042335308284,0.842878573164444,0.965430207270987,0.857214403375383,0.853119357260155,0.868653458518625,0.767633301705062,0.767631888761514,0.765987912464924,0.764317109492553,0.763087211715214,0.763130105746256,0.762881743540724,0.830475724840443,0.808284632082726,0.830185306360221,0.824110190981965,0.748755659116965,0.83471230043097,0.8316258466201,0.839393230573389,0.850667713660908,0.87450568395705,0.909635379603757,0.936399470801823,0.959351998620572,0.982322931530267,1.04604298121686,1.07032607463389,1.10764969843632,1.17493154465066,1.19215299279418,1.20265153871513,1.19101500252302,1.19050193358738,1.21921757722405,1.20201690028544,1.20367478453221,1.35592162189942,1.20085839057868,1.19943856467499,1.19153898611471,1.19262681794256,1.19487970533987,1.1965649188817,1.18944337016171,1.18891607068227,1.20947173190529,1.2178009851072,1.24501046709758,1.24770543215311,1.24293363642972,1.26153080554596,1.30931315771217,1.34144475351526,1.34648510965666,1.36667036303053,1.35597756439136,1.35108544853174,1.36880738896084,1.36464958704228,1.37933332499387,1.37738235739882,1.3740952906577,1.37722657810564,1.37302390349683,1.37246319990556,1.48736109410579,1.46336425925711,1.46714294209386,1.46886195011784,1.47072350322855,1.51522072765258,1.56664619789724,1.54626961322056,1.57564813340908,1.5192984447372,1.50838769156745,1.55153874832347,1.49571747658474,1.48868153107368,1.47875825702578,1.48633180893329,1.51578894754205,1.51510603932169,1.68746470715017,1.5526041699822,1.54292264766599,1.5581889457875,1.55475047629121,1.552980889019,1.55263525602302,1.55004940119302,1.54938089629135,1.54867287533093,1.60967089366032,1.56700223592155,1.5666989464089,1.56552225755254,1.56682354192033,1.6687934565881,1.56414460696722,1.56280879893975,1.56241316573733,1.55905076372143,1.55198238878263,1.55092260273119,1.54818493136905,1.54709409608659,1.6383338176191,1.65977880074207,1.59710053088639,1.59625491401897,1.65048902840114,1.63709059512402,1.65864165188662,1.50904035074391,1.50911800045115,1.53135329433345,1.51555561925977,1.50835330287325,1.49242523237527,1.50017309041132,1.50908750462941,1.48925374564812,1.46888339124962,1.45139103871961,1.42303380546655,1.40598455945881,1.38830123917962,1.34330097376009,1.34349195744712,1.33845915947798,1.34946927427407,1.34992096471612,1.33341578350814,1.30277987657399,1.30218185467548,1.3582417854315
0.866405470533675,0.864455849255457,0.863719087512666,0.86329517394209,0.862103689855612,0.861488057739383,0.860963373028417,0.860459078610215,0.858094967887205,0.865380971411661,0.869980150504509,0.878425430604501,0.88331956680986,0.899214651053985,0.893545954705286,0.894219496157627,0.892892341625676,0.880663640561922,0.879386260215912,0.849356995912495,0.822857913481131,0.771808948723912,0.771244339501559,0.769894378820862,0.767952932098812,0.76610250088028,0.761224671346941,0.758332391185542,0.756704780176544,0.756409594294911,0.756848646471475,0.757869292121178,0.758118618532586,0.757783561524397,0.790119424797071,0.802215284176346,0.815719807591474,0.830347793020596,0.845069064950437,0.767374819061897,0.766991870184448,0.765973091729782,0.763658871419369,0.762563225718823,0.762377955643049,0.762141867259863,0.78141394745068,0.795543698603523,0.827547524691131,0.827055654109681,0.830158416771385,0.830602150658241,0.829801485181336,0.843927258926647,0.846598397202825,0.88008109710724,0.894413609937256,0.934717271123521,0.943395942414832,1.01007454795625,1.04881224318112,1.0969198865585,1.10903604490284,1.14328675207389,1.19362369950169,1.19247998569066,1.19165319499249,1.19080417044943,1.20017318240548,1.20706344785659,1.21084318065977,1.22009025415687,1.21835212764701,1.21573681312291,1.21427461578297,1.21490129789423,1.21495023184146,1.21466600885519,1.21413716251788,1.2128586512508,1.21535374737681,1.21955154541238,1.24244349969601,1.24622368609809,1.24459024308157,1.26890483845409,1.31055718212882,1.34246818828509,1.34368452029733,1.35381483322575,1.3611391881419,1.36449437764746,1.36989655601305,1.37249844737238,1.38121550295752,1.38309251638494,1.38475445526376,1.38647252533493,1.38883394539642,1.43968202554295,1.48498929227492,1.48259129750583,1.4821191869314,1.4809441033234,1.48168180812956,1.51931658172015,1.52328065366236,1.51907927009064,1.5169761007982,1.5169670971149,1.51319195704508,1.51274991872955,1.49897927383588,1.4898420969361,1.48965506752133,1.4879574565679,1.49916029108822,1.51623205138086,1.5410310102508,1.55328469137781,1.55446108245056,1.55613568620079,1.55592520670638,1.55392731803336,1.55253562699393,1.55111797292653,1.55018995797401,1.54906663723316,1.55483121518932,1.55925173696763,1.56418310923447,1.56544857953655,1.56665520435846,1.56738344756324,1.56477081912587,1.56386130896335,1.56246557994483,1.56151470551804,1.56134967483067,1.56139929269422,1.57634045826761,1.59349189690087,1.64099678509813,1.64142934331828,1.62501760244669,1.59583404424578,1.59414105211888,1.58977984012827,1.58988468796432,1.5685503538502,1.54961844772196,1.54734891673358,1.54404709703891,1.53479622291813,1.52504364084232,1.5158416345716,1.50949614300146,1.50165034747906,1.49355430600302,1.47302412067613,1.42448648028568,1.39009857930163,1.38153270123146,1.34280812633766,1.34307506046959,1.34137615511142,1.34909303751598,1.34930186078886,1.34464209294353,1.31360437103517,1.30861777079192,1.31417033195949
0.86442065071475,0.864164936244905,0.864248611831169,0.863547144518156,0.862985602463628,0.860622977146497,0.85815467055063,0.858791601175783,0.857017488335448,0.857187796632633,0.862942971970284,0.862579277402267,0.87530094590786,1.14301801038223,0.887034098935322,0.886787324227007,0.889725222363999,0.884595018911236,0.90661453067856,0.919183095634371,0.918720939835824,0.771734699250813,0.770833127455761,0.769221226189358,0.768424907043034,0.767944773858875,1.09537697567203,0.819900631601401,0.75717244254972,0.756611051694124,0.757929630632817,0.758039181970181,0.758522111485269,0.757171734148872,0.755541286999754,0.776279224082691,0.775819521892757,0.815827410207357,0.947180802252068,0.756332369251182,0.986100638998124,0.986614190094133,0.761887279861666,0.761185153682388,0.761037922639893,0.761647400648697,0.760848798137733,0.780094082548195,0.825290774426445,0.834491315539628,0.832401441617429,0.775437381861091,0.826660397059149,0.88144099619264,0.833827797634353,0.884260920166796,0.884364431393731,0.932934475315919,0.931154153976897,1.03909189655232,1.05164107386322,1.1470508274827,1.11017254438082,1.10801295892994,1.19651840328636,1.16254453376818,1.19268817879259,1.19076563406132,1.19058460822459,1.23891002087539,1.2130372754437,1.22144849149522,1.21811680476343,1.21341642401529,1.2115875179056,1.22304607190751,1.21641642212253,1.21765834714056,1.21888153985348,1.21155575221465,1.22027912139838,1.22055476664435,1.23967278583093,1.27009376627076,1.24394504653224,1.27592498007975,1.3115275933367,1.3425190776716,1.34264320048801,1.34277486661342,1.37270331599949,1.39175442516829,1.39497406823247,1.40222181421492,1.38187867421518,1.43363041130735,1.38980814782947,1.39046797036734,1.39066962119794,1.49304400888522,1.48670089560346,1.48017339799639,1.48024692574921,1.47856756405937,1.48604673909597,1.52852160893908,1.5270973614919,1.51725025906416,1.51654808172105,1.51453990624342,1.51450493946781,1.51170480844364,1.50109482355514,1.49099976445569,1.49024273506969,1.48772701389037,1.48700188054351,1.51652282611915,1.51679656315268,1.56532476850401,1.62232625685574,1.58687289322413,1.55804367968855,1.56054274927947,1.54252496836087,1.56497101878297,1.56488293602052,1.54934758602303,1.55079747456991,1.55095991127479,1.56507394634561,1.5652634032375,1.5667468454317,1.57004029433166,1.56420668611257,1.56370544969903,1.56375738811206,1.56203724919898,1.56152415649017,1.5613145398287,1.61966722298812,1.64191725364019,1.64163346474532,1.63974206483288,1.65333614678955,1.59715794424122,1.59542691204383,1.58927712875973,1.59308282023355,1.59446639375066,1.55469296355936,1.55353239566158,1.5536579745688,1.66023732622031,1.69473696000341,1.5921764861156,1.58468228177653,1.54954026675564,1.55845299480894,1.53079789134025,1.42582385844568,1.38700831235191,1.3745764021161,1.34207499504257,1.34521440366995,1.31789284072643,1.38181172698673,1.36680573609315,1.38357770777878,1.3222811678845,1.30071765700443,1.3022551704961
0.865092409299721,0.865616833519849,0.864713949508082,0.864383816152559,0.863566974179392,0.862668475190174,0.860752536787173,0.859993279773829,0.858805236988826,0.859651958384945,0.862885913346168,0.864315183505164,0.87059938356488,0.873330820730942,0.875048764802025,0.876367882695179,0.878347947881479,0.881414328090436,0.892884664091013,0.922157718686236,0.925449025081814,0.927639461211906,0.929667532763722,0.931676495036514,0.933481091903942,0.935329696050938,0.937450336486991,0.84482805437537,0.757652653901311,0.758249093840275,0.75906837039055,0.759596126208827,0.760376658791096,0.759756415709031,0.760504318996918,0.775768925392416,0.776174772763059,0.776531703237167,0.77803468518043,0.766024195242005,0.761401094440614,0.759935375086087,0.760825305743988,0.760841690451297,0.76108316384483,0.761147015875739,0.761069327390889,0.773643593168731,0.779524756062411,0.791035088463672,0.801715649886464,0.801749918446647,0.823899662749172,0.858204588406575,0.851491939703719,0.888345990976789,0.928600945133183,0.961368595300427,0.987851944185686,1.0313012288051,1.07462126972429,1.10714540245096,1.11359496673333,1.12095844184936,1.16209971862029,1.16671698379091,1.18421859518233,1.18908400450202,1.19921946678052,1.23849301190316,1.23782507385129,1.23703093030492,1.23621224391711,1.23550221541665,1.23500546556224,1.23476908371477,1.23488715863335,1.23520341981714,1.23531999898111,1.23516256585727,1.23488078016224,1.23434326719018,1.23722731303092,1.24647643198294,1.27735162360954,1.28838183002193,1.32988140440041,1.35128751033721,1.35316440710443,1.35791891916163,1.37373953031711,1.39416258455448,1.39616867162442,1.39870563814597,1.39683099257667,1.40160318003512,1.40316613742635,1.40944645495982,1.41183495537534,1.47242122997646,1.47900546565058,1.48324944916436,1.48708075257412,1.48785897621471,1.50240209398743,1.5155265035489,1.51480313942794,1.51517222158166,1.51570620445973,1.5158073057776,1.51439383987704,1.51269043748522,1.50408767164072,1.5001025294292,1.49183484355431,1.4917849229101,1.51108451371832,1.52226865334779,1.52504789166667,1.5435186623463,1.54769705428413,1.55716329162348,1.55223247044093,1.54729342629587,1.54428259272865,1.54404948088242,1.54516442283599,1.54690599901639,1.54817444942838,1.54893085172661,1.55716119382359,1.56414080885566,1.56437706631409,1.56319265738612,1.56300876645857,1.56248962043134,1.56211559083302,1.56167735458679,1.5611355678996,1.56126452035061,1.62685972456299,1.629586546068,1.36049033899348,1.36120267344534,1.64690410141779,1.64229596421537,1.63777821608318,1.62724080978633,1.62010239288673,1.6124487253499,1.55318438345406,1.55374666465573,1.55371867410434,1.55464067725109,1.55833467313016,1.56473141777586,1.56397194874922,1.54409448953736,1.54074117579637,1.53270477886009,1.43723409779266,1.37380788011565,1.37240110963418,1.3426098936716,1.34398969849618,1.31726246362783,1.31647495231319,1.31606641125412,1.31739547054801,1.31890667590306,1.31614833425586,1.31524116817544
0.865269999188282,0.871692852824724,0.871232527291644,1.06173937888339,0.877027509886446,0.863811043703742,0.863356316578139,0.861043411425023,0.859647495883241,0.859409598794243,0.864804811443391,0.86597187962627,0.867850204195807,0.86608675520446,0.865201824553033,0.875091105910822,0.8766369344707,0.881825091142956,0.885222423284933,1.15029026094942,1.61506317316807,1.0075333315247,1.00052470381693,0.985206066360692,0.938100934667681,1.08813223699618,0.939798533076096,0.870084282270672,0.758251949204565,0.758874858132918,0.76042992267926,0.76488344866371,0.762401787858143,0.762059385923759,0.760766903723989,0.775080594333476,0.776736933402795,0.77640788146981,0.777561114016912,0.9331223409988,0.740056710106812,0.739974922794489,0.740642861253066,0.740902515223778,0.788581473910475,0.711921780355957,0.709370092019727,0.75263787511402,0.757211729894946,0.756875212116967,0.801344788261837,0.801642704106816,0.821768307330827,0.868875362720754,0.842778055437934,0.89420163521275,1.01767164819601,1.00822348619566,1.02203739416885,1.02414676976117,1.10912743718577,1.08236678236999,1.11716882167031,1.12824826918258,1.15378671245082,1.17065302368794,1.17647230989187,1.18732387125811,1.21673222269165,1.25477485485804,1.26604898190428,1.26398266558373,1.26269560740726,1.27570884527688,1.27558510083975,1.2473918021331,1.24767708429792,1.25518892580825,1.26584869495245,1.25139674513885,1.24616408547365,1.23358580948318,1.23491212030583,1.23420843369535,1.29303559855924,1.30456909304527,1.35873337995477,1.36080278131664,1.36298241953805,1.36529415974644,1.37508924394206,1.42333664291372,1.39821257402571,1.45264348667743,1.39457049420299,1.3930747058628,1.42007870247526,1.42022846000888,1.42773419954974,1.46496291440009,1.46188368684699,1.50112054696017,1.48901180736392,1.49151135030209,1.52656852575946,1.51724487321089,1.50533910480912,1.50507614142424,1.5048119409897,1.50536057687327,1.55024570726844,1.51938342856738,1.50799513476347,1.51827876689716,1.49195901178274,1.49176881139129,1.52552114728,1.52378957553658,1.53044082116668,1.53720046660755,1.53688443830681,1.56488177835372,1.54613008133895,1.53292982723568,1.52543673489939,1.53940868884262,1.54601850962622,1.54667746754617,1.54727484882358,1.54821346275542,1.54853120651357,1.56248439581512,1.56246251196624,1.564030930339,1.56026911810564,1.5613046743919,1.55946270422484,1.56064167836492,1.5596277897087,1.56097544215391,1.71920399899463,1.64693359823395,1.3596387819424,0.0042710609283317,1.70147731585249,1.74432215014817,1.86851898015947,1.66206438360844,1.71702599222697,1.71653078224154,1.55096294788563,1.55367886417019,1.55444965143987,1.55482086245268,1.55526985642521,1.57751473408719,1.55668430838223,1.53323318696804,1.5160289433377,1.53630651224564,1.45674059434639,1.36574650381442,1.36720400603957,1.34176242945716,1.39009112695855,1.30942995814252,1.31633251887334,1.31488075620442,1.31283509855178,1.32070433851432,1.33996580186683,1.36532172155896
0.868023732370811,0.870932217422481,0.871278914339519,0.87023932129071,0.867418066410515,0.863862906205868,0.863169157957289,0.862393401584475,0.861009059818643,0.861870425839893,0.864135269107069,0.867230143502441,0.868210893541946,0.869172744006472,0.871126559357083,0.873817932691268,0.875953483623933,0.88014088523174,0.881816669546545,0.921380623185805,1.03198448710665,1.01895213439701,1.00583534293726,0.997709895502058,0.946065068400103,0.942816661862236,0.941417494040703,0.895735284705759,0.833117172389081,0.771822262366922,0.765210420113461,0.764658850379833,0.764091986305797,0.763305404567739,0.76518575390281,0.774473985032967,0.775163980964446,0.774978322469038,0.775311926842021,0.827323878484366,0.788751687203575,0.735070896627315,0.731574725491625,0.72725548278954,0.721206132455914,0.710859752860224,0.709946701312853,0.749675606599454,0.751020261953152,0.773961360748972,0.80193289402126,0.802362293003634,0.820071817139536,0.832228378102733,0.840699361759892,0.874497032357925,0.953294530065331,1.0067191891647,1.02226940995219,1.05009420223538,1.10381402442763,1.10605367681996,1.12120898534779,1.1263514572886,1.15499300346976,1.16450329816966,1.16924931745917,1.18548642713561,1.19564542993535,1.24908522296364,1.26434804464076,1.26317570593245,1.26230192696457,1.27563811598539,1.27532877189444,1.27433679472758,1.27428913382351,1.27370144892459,1.27285215914138,1.2719793116453,1.27126100540069,1.27088632024362,1.27097302770075,1.2715822425288,1.3219852645455,1.34928888201886,1.35941548187941,1.36201345576086,1.3644562396585,1.37118965345196,1.37937645735664,1.39226576963027,1.39402462633827,1.39480766277065,1.39529927652625,1.39498104045149,1.42051643337003,1.42062243113683,1.42323309552127,1.45468174607794,1.45743102967443,1.46425468420837,1.47441396724294,1.48296127541926,1.49253064152017,1.50715540281241,1.50555044935703,1.50492533687715,1.50480778712832,1.5049996113841,1.50375684892499,1.50035256172959,1.49735165926951,1.49713009558433,1.49376166643752,1.49308895029759,1.52294482153499,1.52309948937098,1.53269349852706,1.53616830115595,1.53562505394651,1.53465954012618,1.53316786544374,1.53201293279006,1.53077395414141,1.5416906432342,1.54674105560592,1.54734897020841,1.54868868872419,1.54997591773267,1.55149692538209,1.55693071090219,1.5614299719891,1.56212258099809,1.56233187760478,1.56223783846585,1.56175415598552,1.57173562965169,1.59639544794279,1.60554312093272,1.6322025075127,1.62117849416375,1.35910430956928,1.35872795613018,1.35835775931033,1.35835767574129,1.35872796946252,1.35910388944928,1.61690335323181,1.62397392012843,1.55235093785615,1.55427236074772,1.55473844895265,1.55520222715185,1.55827191104012,1.56419710175586,1.52954989482342,1.50703879976146,1.48744387964871,1.46365345871192,1.43978430255802,1.36729093936633,1.3677386645134,1.35600905302128,1.34740353923819,1.34650643758532,1.3143568434939,1.31357149514775,1.31312089416246,1.31477934816463,1.31245171254824,1.31219583232574
0.874274171651568,0.873266265847019,0.872856557761538,0.872995909404541,0.865375103967271,0.864523150009027,0.865414329140615,0.862851179211834,0.860866651216732,0.86235888050261,0.863299720458586,0.870462777365877,0.8691685849637,0.889945307687925,0.891300259796774,0.89456758658527,0.873888259638361,0.87710261238387,0.851610282426531,0.851700366289097,1.04775382389346,1.04694513558418,1.04854222512463,1.18188282368382,0.948852413216042,0.940454885140902,0.971231841963227,0.921854293394777,0.969685348209148,0.779254619370415,0.76559743052399,0.765695203876797,0.764863821768748,0.764736471419595,0.766254415255908,0.77328168089818,0.772730251564862,0.773873739418395,0.773336456113437,0.918211013409668,0.943448391170474,0.669915075063769,0.669931355258039,0.669331570674549,0.669203138499447,0.705826471949944,0.705516162715245,0.743326089287766,0.746064219903879,0.786384778647658,0.801824022012503,0.803284935142511,0.818518579986005,0.816273984319464,0.839276746943104,0.836348920724694,0.912975921912512,1.00673734872401,1.02256467342036,1.0731084596406,1.09883946789337,1.10723231004876,1.12495402507263,1.12482874876048,1.15575881814596,1.15601585054254,1.16285098220706,1.18377797001414,1.17990875303488,1.24426678260761,1.263827696063,1.26228876737227,1.26223665120088,1.29295383692499,1.30254440838977,1.27286922652054,1.31921672501005,1.31946910045788,1.32027452800012,1.32039247554964,1.30790844560653,1.30816916960626,1.29406446885736,1.27270033816697,1.39402337137415,1.400557109644,1.47429515349548,1.41508436475571,1.43463169882528,1.43444148394792,1.38849071637937,1.38830983902018,1.39460368994042,1.39382323451052,1.38411413464538,1.38513654714846,1.41968428731519,1.41916134121426,1.41732088329429,1.45184878284071,1.4501532911273,1.45644481246669,1.46073319852506,1.46440782614728,1.48027222920974,1.50947013890838,1.49288017438794,1.50451600579027,1.50595371779817,1.50628924591508,1.50710841751809,1.49561197071895,1.49568246660642,1.49503458308208,1.49547640509111,1.48629529742855,1.51975330729264,1.52279908780547,1.53445814081531,1.61518451619066,1.62836752565648,1.53529261648718,1.53238080409377,1.53081252101516,1.53078735883538,1.6128622400122,1.61498980883853,1.55684433725987,1.55083064583183,1.55004104021827,1.5849577399185,1.55338866375283,1.56848762317544,1.5893760750345,1.58925810624122,1.56417740893247,1.5617893306609,1.57334786403893,1.59974615706651,1.66304351486692,1.69265524522439,1.59019733356051,1.56693641069457,1.57113072159707,1.56453388392702,1.61476054489726,0.00405525942805845,1.3596372913691,1.58968619709466,1.62612484098063,1.5522116223761,1.55456812179525,1.55542709686418,1.55544958694526,1.62120286004472,1.62144129448215,1.47120124969837,1.47056767504964,1.46034042559255,1.43178536507752,1.42591195024899,1.36818016332566,1.36815453219923,1.3684473088334,1.33929998152586,1.37650759368404,1.30800428191738,1.3431126484047,1.35150365669597,1.34949902206244,1.30341792771602,1.31365771336853
0.872879112794789,0.873162386485371,0.87330526268394,0.873565298158119,0.865758525031249,0.865516940839389,0.864407880218497,0.863776299657034,0.862817499846299,0.863212598466379,0.864850271505656,0.867734230786533,0.869778905889811,0.871788887627141,0.873052535681011,0.873223955906609,0.87295452403068,0.8802724225285,0.881384583027902,0.921405249926654,1.04760909073987,1.0482413906394,1.05027967772713,1.05225538008889,0.946203219351507,0.94359845539881,0.924327660708419,0.898299695211467,0.834155858140099,0.77903306943042,0.776034435979388,0.773622785964741,0.769765448249448,0.762803168217656,0.767201954333599,0.771655031197815,0.77333869682753,0.773298607946153,0.772979921053305,0.772800432431446,0.739115631917267,0.671021276160718,0.670290058693508,0.668397226656186,0.667917457206651,0.710944939962419,0.717752528875095,0.740217998146335,0.754666513647879,0.793549187010647,0.808278052095899,0.81338735273271,0.819117565755263,0.848407954559252,0.864535730052349,0.890121859296639,0.926941498523538,1.00653005606778,1.02755042852578,1.08683145005485,1.09745896562678,1.11133584827149,1.1273975888458,1.13499907945876,1.15536031468564,1.15572775889105,1.16933631128219,1.18573095248551,1.20453087838178,1.24299256333502,1.2496194075209,1.25236657482847,1.255742214899,1.27554844553929,1.29805687020711,1.30124393971797,1.31895327672536,1.31912669615347,1.31938939609315,1.31936913325368,1.31556172226871,1.31407041954428,1.31726673188306,1.3183519504652,1.38304893089588,1.38597510501448,1.41207887854176,1.41073074390237,1.40273247818098,1.40262657818444,1.4006657494832,1.39815023424637,1.39637147173433,1.3980631444165,1.40474577709154,1.40820552390794,1.4112289621311,1.41813846838252,1.41674370814648,1.45427835847221,1.45531450788258,1.45687546280583,1.45890342168288,1.46191875026515,1.47592393171966,1.48102472788697,1.48846701453609,1.50412976871414,1.50479722168811,1.5049762519827,1.50336544383238,1.49910715240461,1.49619587523928,1.4950280395473,1.49448490477655,1.49352701510079,1.51846480868373,1.52288153956538,1.5420426899982,1.57759468448894,1.59715447288107,1.57595843508488,1.52961967468248,1.52981044936404,1.52964722623699,1.55434498808507,1.57732299265564,1.57622058815132,1.57435993197271,1.57183216625654,1.56985766480733,1.56789332178231,1.57255570684296,1.58627560729709,1.58647631420761,1.58443039233944,1.580649576035,1.57724935841443,1.5728946147551,1.57227162721408,1.57410783501367,1.57131059115737,1.55984278275941,1.5581333630666,1.55983823290177,1.55497714697355,1.36119952988326,1.36048781009873,1.57052642841212,1.57067094404933,1.55312968443486,1.55507234399761,1.55569566418674,1.5556968386138,1.55458935566601,1.55532984613531,1.47045071027703,1.46895043985486,1.45272109926588,1.43422126376589,1.43298213168488,1.40702603277308,1.39001711628434,1.37853344075837,1.36511215274715,1.36200504523252,1.35282639434737,1.34671664388816,1.34816899429777,1.34893392950393,1.33198209210606,1.31288096722348
1.02011117170172,1.02141950425584,0.943045388304736,1.03289798250927,0.866709599301943,0.864602441647207,0.864817246894643,0.86407068614654,0.863478209369014,0.86306691161287,1.09336862406442,0.847058203885329,0.847013300349537,0.847163450712592,0.847940277156381,0.848094089509357,0.849414080673012,0.8813361851339,0.881913398489262,1.04639930820549,1.04684445553311,1.16157004372558,1.05225538008892,1.05439247049787,0.902923611948841,1.05435708187825,0.848045256876539,0.879676436958411,0.778377994283473,0.778686041533387,0.778264155958249,0.778123426933416,0.774032095253456,0.761034995613863,0.760445394843349,0.761050234599512,0.773354956075543,0.773177973105684,0.772815518590595,0.772219059173194,0.670625171657536,0.672304463483699,0.671604868973625,0.66621256554817,0.666409494726292,0.732934943987807,0.7228086204869,0.735996419292541,0.76127654674133,0.800936041622661,0.825824331961322,0.821688622767152,0.81971591654645,0.880592849090343,0.881052451890575,0.921502164301122,0.943381087094985,1.00522696960641,1.03305898099233,1.09495501500329,1.09548574887442,1.11556284167928,1.12868011478495,1.14801191339665,1.15416967214369,1.15553191592539,1.17549383418179,1.18813960697541,1.22572203981043,1.24118627746103,1.24484323675491,1.24943892127745,1.24934779965133,1.24816222609968,1.28915548523428,1.30340117734472,1.33739236002669,1.33329534126125,1.3487728935921,1.34777128100643,1.31719636576414,1.30968412657288,1.3191996398766,1.32029919959842,1.36884751210388,1.37268248814804,1.41509176145223,1.40837093802192,1.38604841532991,1.38570603730251,1.39926746715778,1.39618677770879,1.39648267429952,1.40042255160812,1.41666848035614,1.41502556315376,1.39276405251171,1.41710581116998,1.41390904817698,1.45474365361265,1.46772959837212,1.4695986368881,1.45742841405406,1.42934076283416,1.42880303268902,1.45686472276013,1.4551656146341,1.52755428124182,1.6053828567371,1.59061877536099,1.54611009381609,1.57634998729546,1.55598598373479,1.5956674508456,1.53368444065695,1.48015932464891,1.51655895199724,1.52330309992729,1.5504443957372,1.54990500994531,1.66684929886749,1.60797433415757,1.52767221378644,1.52195072006494,1.52101288886307,1.52407217508468,1.57624813690089,1.57606070337915,1.57498280376587,1.62745259376788,1.57026565200599,1.56657486727295,1.57966419410795,1.58450989346496,1.58625618681399,1.58580421353888,1.58608322594044,1.57850830135002,1.57244570096083,1.57147212649898,1.57877786198202,1.55473909657501,1.55638055364919,1.55662457784253,1.56122954441465,1.55322164062904,1.58625944651665,1.56748577626347,1.5698711603018,1.57033115729005,1.55290438304872,1.55608543499706,1.55679963665839,1.5572011628037,1.5036598139076,1.55808301635358,1.46059377062974,1.4649321358041,1.4457462218576,1.43709969712632,1.43785286258469,1.42672371739639,1.42595559869513,1.42800557681664,1.36896573234078,1.35863242351168,1.35833447702371,1.34557544822127,1.34512616429297,1.36331256789905,1.36314878329952,1.31182823640815
0.864382269531475,0.863870298454483,0.864191742625252,0.8643296768323,0.864996766246644,0.864972139239027,0.864688869427751,0.864684425781835,0.864466117016054,0.864224732560295,0.914904234153169,0.847077888437068,0.84720792989297,0.847311005494854,0.847462423880256,0.847255092787427,0.886497946205112,0.886220444552785,0.887049871318004,0.889337470689522,0.889661570661867,0.888500452015331,0.889327310092748,0.892714803228368,0.897239594956168,0.899733666826925,0.890198692950565,0.886776673630769,0.870357258388501,0.845931876564697,0.821620198627658,0.78049992994973,0.780030717596835,0.779367704792425,0.777729985840711,0.775349886948564,0.774298282119332,0.773510573364098,0.772819641824759,0.772616508442739,0.671157723597332,0.673034870213603,0.673970406256303,0.680853288041049,0.685379204809645,0.714459578050959,0.725251782601846,0.731837186002713,0.778044491968518,0.787528554078298,0.811058406253416,0.814914596855808,0.818233779569553,0.854023511892762,0.886113840631811,0.917708266624067,0.922818494978428,1.00177887860868,1.01351181654084,1.09290774541732,1.09327752169835,1.11575152347244,1.12930713776208,1.14316473032877,1.14604062065135,1.15720163045091,1.18801461386956,1.19089269477293,1.21075732665408,1.24213615476416,1.24627449004644,1.24838232144374,1.24984626678089,1.24992747300843,1.27305633235863,1.30873105770998,1.32808052764317,1.32959157126209,1.34152617634902,1.34419381892151,1.33151415075694,1.3208599282099,1.32051571946002,1.32086479628788,1.35090408300273,1.38971194598179,1.40622042378891,1.40517810208031,1.40293697768637,1.40264725269739,1.40085497289435,1.39831646928763,1.39827677869456,1.40002215560005,1.4038917336804,1.41591828195724,1.41518386935197,1.41847277967269,1.44189504851612,1.45958832979004,1.46197462667168,1.45974053813255,1.45611574265291,1.45043080732962,1.4531904610456,1.45566437435004,1.49950645816819,1.53752178501395,1.57151746158709,1.57369697548662,1.56279368264191,1.55605612868243,1.54355802974663,1.53108157100183,1.51784482469995,1.50291619492017,1.50809066376109,1.52367351345141,1.53505606421127,1.53412016065744,1.530511362625,1.52856372142283,1.52685514377949,1.52498031518448,1.52673976634089,1.52600066244429,1.53681558283436,1.54683120598811,1.55691518172011,1.56450187513185,1.56694430618413,1.57883435695787,1.58143784746886,1.58308522892353,1.58448245639522,1.58405654095215,1.5823335092321,1.57971666577945,1.57804255722788,1.57702290283821,1.57666719577161,1.57506609991041,1.55407569198788,1.55501616592144,1.55321735613017,1.55233693216949,1.5630339718305,1.56495811285541,1.56893970180411,1.56812281548332,1.56516343625602,1.56126581620018,1.55816642840515,1.55735201369895,1.51841830101583,1.51222127572297,1.48555633781816,1.475657637863,1.46629654355503,1.4552513639211,1.42890573094187,1.42519227567757,1.42360787521074,1.39120055228672,1.36863728619637,1.36443046689717,1.35057152342736,1.34436188286025,1.34499389471878,1.34473478469907,1.34296139888048,1.32187663404561
0.860981113363487,0.862714438932357,0.863157683958304,0.863082396290481,0.86391998587689,0.86428528867026,0.865047652692981,0.865212013938346,0.865005435955361,0.865336600108836,1.11240669683793,0.846769671122864,0.847252933995333,0.847325123889959,0.847176647489702,0.846228829845723,0.988944319866241,0.968528325358758,1.02323221723794,0.89173123490071,0.891711895593337,0.873336621949295,0.875316528623844,0.877070512913344,0.878009562937998,0.902416908135355,0.959508640475107,0.939303946604917,0.959304280306277,0.980357779669049,0.970815426479144,0.781556451885294,0.782543493814683,0.784001950418635,0.781775873029433,0.774565949979044,0.774392768364979,0.773720468685246,0.772967282935234,0.772142982668099,0.668965463179298,0.675199472249837,0.675204079825517,0.690194914328306,0.689803214298118,0.695132717996379,0.728184507076178,0.73027496312528,0.805890988429349,0.76841860507692,0.798461736048952,0.809825383180806,0.816898839365572,0.815369806527706,0.89161876716344,0.914609954322987,0.910823504259884,0.996240196151982,0.992097560203581,1.09035494114991,1.09129019051549,1.11616917907221,1.12973155196415,1.13856560072007,1.14015094348743,1.15922071085731,1.19954563269921,1.197108181991,1.19935987985106,1.25763342056633,1.29506779560329,1.31265297463117,1.2515967208232,1.25217187259614,1.25706995258064,1.31512071740711,1.32742434241473,1.32818121900979,1.33777626032744,1.38131489790523,1.34515855360427,1.32117587753036,1.32085380395874,1.32131293495138,1.32068798595677,1.40737335496419,1.40703190620568,1.40293311992602,1.40064698551886,1.4571859548254,1.45892224497902,1.36711133824204,1.37806013357849,1.39510504782615,1.35901861271496,1.41662548098638,1.41379628509243,1.41937578773173,1.49464717590385,1.46715285178178,1.55338201831588,1.44895325759591,1.45016822879078,1.44856137314375,1.47227902610635,1.44890051120989,1.55110200612242,1.5619611676573,1.56989415812612,1.57508903194393,1.66922447268653,1.5102313724328,1.51556158884018,1.52231066503723,1.49527560326113,1.49644028711639,1.49816069966255,1.5241683100295,1.53610606796836,1.53639219726779,1.52886587743264,1.52828777136306,1.52675555153028,1.52460035703947,1.52877460233217,1.52761877965161,1.52716607970038,1.52703683885936,1.51631020528194,1.51607770559341,1.52673032959471,1.61485243532975,1.5880996603242,1.59639656899495,1.59823412714279,1.58449589344063,1.61837426229427,1.61396053703459,1.61811656561509,1.57777109871477,1.68500699833355,1.58819595893725,1.55223469229821,1.54092677010493,1.53991718999957,1.52953468387983,1.53840549994203,1.56332910424053,1.57759373877265,1.56933173818328,1.5687356599082,1.67562253119843,1.6741909248403,1.67492409619081,1.5294486774551,1.50583354453649,1.49302631759759,1.50199214176737,1.52404229271111,1.47089361702007,1.42048638499878,1.41117814367851,1.41762231192032,1.37389918472481,1.36840362809285,1.38066451768977,1.34143001306177,1.34310296043934,1.32808779212215,1.32671973451016,1.34060624802651,1.32609258465846
0.860871727752358,0.861602489192322,0.86233178653366,0.862346621677536,0.862876973325038,0.863365548095199,0.864399278344815,0.865845555119026,0.865882952830887,0.866340460203787,1.00289343150685,0.977288858103181,0.957192477491027,0.944282296857744,0.930187659983235,0.914609510156194,0.973070588699386,0.964204023561926,0.957717588061992,0.886796172835437,0.881438738541436,0.87504214429734,0.875786427551143,0.876884620997587,0.877637081860032,0.889054916612982,0.905680824874482,0.921882923016802,0.939724764756108,0.943619587345866,0.928880276796693,0.895705881615558,0.870393047041794,0.844364482142477,0.817656699866147,0.774367597706719,0.77436420077538,0.773636362115347,0.773055927977399,0.770252046547036,0.677496469128269,0.676435490882833,0.676425362623354,0.682378706602237,0.70494642699753,0.715418615511728,0.728358929191945,0.729239782466837,0.751851546165059,0.761798243796322,0.806631104303554,0.811481955554528,0.827562167878237,0.839337384664445,0.877635967848145,0.909696911589172,0.911294094019215,0.993921837199654,1.0152334731291,1.06131993657482,1.07606907872268,1.12970822371939,1.13016872123047,1.14149331530692,1.14217597055071,1.15415332106494,1.19273878824342,1.19422936650372,1.20824215906296,1.25087410804593,1.25142792509846,1.25205357172368,1.25258968580136,1.2537138461189,1.25588217032417,1.2675377279581,1.27650329037181,1.28185948887593,1.28740416984424,1.29287828105743,1.29853672778856,1.30386604930365,1.30960345694265,1.31694519817089,1.31855048753559,1.3474221996337,1.34757596751845,1.34896605538107,1.35104354454919,1.35439212603691,1.35910202840051,1.36516090685958,1.36412109988843,1.36280368879706,1.36250691101704,1.41762966824614,1.41871206292651,1.42000238297889,1.45156266773868,1.45686224397767,1.45455804023813,1.45105866973101,1.45334164118461,1.45573610319282,1.45509527674005,1.45155134474217,1.56183261930189,1.56443351323012,1.57020010897886,1.57064545027288,1.55774178216237,1.50841732328626,1.5062882301118,1.50528191841414,1.50672386104978,1.5076776892071,1.51572824421225,1.52484967708487,1.52685985718509,1.52855199398561,1.52940202650165,1.52743422876723,1.52720046953375,1.52864242911001,1.52922794301594,1.5291452616494,1.52823026325561,1.52777964981906,1.53975694556964,1.54405197532807,1.54803047773157,1.56921486102106,1.57933773287563,1.58553082833655,1.58953671608514,1.58471160425692,1.58058790117867,1.57888879670101,1.57468134908586,1.56680871831241,1.55954317440758,1.55397041081643,1.54657628896229,1.53922138600606,1.53727404996103,1.53358514063168,1.53657643653009,1.5623136924781,1.56249983888237,1.56417041464465,1.56674813426102,1.67502664285075,1.67405529677435,1.6743449450496,1.56468721894096,1.51397265170946,1.50627684223928,1.50617977352185,1.50599651894459,1.48569451110114,1.4308549136425,1.42259928690899,1.42222635145846,1.37914012019508,1.37492998286242,1.37766217767006,1.36064918126438,1.35478861689949,1.34730679492447,1.34083543950913,1.32827109528167,1.31873336587258
0.859686387722952,0.860336855333517,0.861110216151189,0.861088719525214,0.861102281838336,0.862001282775707,0.863286166709835,0.86765944983544,1.03183419809611,0.86775757123165,1.08727020502479,1.20444238968711,0.981294436964868,1.09362539961243,1.02027012810609,0.88949950437623,0.983694034958447,0.957705434810657,0.943725124094693,0.875739121642525,0.876470996332785,0.876199190811427,0.876418801741679,0.877068556662433,0.878494284287577,0.883093893012328,0.887970169698181,0.908512033286619,0.933251943059265,0.947634039858591,0.906988584450379,0.925184620524894,0.916827339736917,0.905247438855651,0.931112997817293,0.774407074069228,0.773934072970598,0.773898839834443,0.773318098895708,0.767067029503037,0.678240558733014,0.676393756692599,0.678011675166717,0.677267928618238,0.730617955662109,0.728541281052293,0.72709024132302,0.728634326876043,0.718883117364799,0.717628763130425,0.81413889422976,0.813543853222188,0.83469941914236,0.856241603890975,0.860904170534316,0.907528594389031,0.912572774949746,0.991381604968452,1.04249223506045,1.04173257498702,1.06125607662743,1.13260853055175,1.13084273394611,1.14369066706752,1.14577431577419,1.14925656030495,1.19184663606029,1.19312555191312,1.22316309686417,1.24978273520796,1.2512743890678,1.22944175475247,1.23049285074031,1.23070616804561,1.23604040484425,1.23631703132192,1.25992074330265,1.26172044830321,1.26403638418189,1.28522510213462,1.28290612505545,1.28284440229314,1.30643121647732,1.31494860759613,1.30933619644696,1.34841020917484,1.34686498072147,1.34733942504593,1.34787343236631,1.34437888375376,1.34320252880269,1.36760524315749,1.3656684410662,1.36232994572522,1.36207598417105,1.43416453643747,1.4423946381439,1.42345615600871,1.42937217955583,1.52412795357476,1.44588706044345,1.44472562046548,1.45546036594096,1.45699400015789,1.45696796756489,1.4435171503117,1.57047352927845,1.57051839434021,1.57075248633221,1.57135278747797,1.53945586682202,1.498609267768,1.50208250729561,1.49940765841465,1.50788389555859,1.50802436558086,1.52403525477285,1.52499930629099,1.52472125396416,1.53113981321626,1.53351244877251,1.52492494499428,1.52591405048804,1.59702469092073,1.53431407842252,1.53059355370462,1.53023746793568,1.52939360115202,1.54636689763662,1.55401415447243,1.55180740513929,1.55070914832787,1.56502570546377,1.57118292879388,1.64641730169053,1.58454677520602,1.53729408287363,1.54355388568168,1.53329703960597,1.53189721146131,1.53112295168819,1.53643124130779,1.53457603718281,1.51604662749417,1.51583370133267,1.51577826161509,1.53524922793424,1.56163263823535,1.56186164335782,1.56090207086439,1.56101887582066,1.67677907958206,1.67536964594056,1.67610511759094,1.67650650092539,1.52847311991355,1.50700144583133,1.50625374773283,1.50584787282206,1.54930252291205,1.45097380942955,1.44437093162209,1.42489514933291,1.3911352573537,1.37093140396224,1.38038383516812,1.43842911339096,1.37837497133922,1.37864370521653,1.37806136149791,1.29918031993106,1.2981727853967
