0.940802, 0.963355, 0.961049, 0.966059, 0.976973, 0.889266, 0.893413, 0.892864, 0.892503, 0.989592, 0.980766, 0.974357, 1.0265, 1.02984, 0.977489, 1.0126, 1.03432, 0.978412, 0.984877, 1.0616, 1.0688, 0.897957, 1.10315, 0.891052, 0.883563, 0.877933, 0.871911, 0.869684, 0.864731, 0.863238, 0.863128, 0.858443, 0.857056, 0.925476, 0.849072, 0.84526, 0.844798, 0.845028, 0.842527, 1.02305, 0.845633, 0.840205, 0.839894, 0.842339, 0.849488, 0.973102, 0.860009, 0.919551, 0.850032, 0.847369, 0.850039, 0.849892, 0.901703, 1.39475, 0.831516, 0.829766, 0.829089, 0.832073, 0.8318, 0.829334, 0.827722, 0.830464, 0.843396, 0.844426, 0.842376, 0.841347, 0.828557, 0.827142, 0.824816, 0.82147, 0.821934, 0.823495, 0.824891, 0.824774, 0.824239, 0.823892, 0.825715, 0.985721, 0.838855, 0.839796, 0.83919, 0.841038, 0.840506, 0.837728, 0.836464, 0.83995, 0.844053, 0.845449, 0.845026, 0.842591, 0.850087, 0.850177, 0.851749, 0.852521, 0.842007, 0.840248, 0.840468, 0.840558, 0.840727, 0.841443, 0.841384, 0.839499, 0.840531, 0.840936, 0.841171, 0.841881, 0.841309, 0.84159, 0.841523, 0.848754, 0.845178, 0.842845, 0.841102, 0.841147, 0.859045, 0.859387, 0.859739, 0.860251, 0.864677, 0.869557, 0.869628, 0.869883, 0.870721, 0.873696, 0.879954, 0.88372, 0.887695, 1.00971, 0.894297, 0.894152, 0.894099, 0.901441, 0.942957, 0.916021, 0.921099, 0.90785, 0.909247, 0.960711, 0.960791, 0.921619, 0.921604, 0.99238, 1.19218, 1.02181, 0.967507, 0.964756, 1.10976, 1.1191, 0.98599, 0.985762, 1.04565, 1.00006, 1.00462, 0.961024, 0.962442, 0.963199, 0.9645, 0.964435, 0.964244, 0.964593, 0.948732, 0.947644, 0.946148, 0.943359, 0.939595, 0.925516, 0.925175, 0.924501, 0.919704, 0.918287, 0.918781, 1.28813, 1.16154, 0.932939, 0.908544, 1.43264, 0.900187, 0.899993, 0.8997, 0.89897, 0.897729, 0.895917, 0.894337, 0.894386, 0.889785, 0.889738, 0.890179, 1.45739, 0.894741, 0.893454, 0.892784, 0.891825, 0.89151, 0.890314, 0.890551, 0.890685, 0.889354, 0.887322, 0.887879, 0.881364, 1.00359, 1.24448, 0.904361, 0.897939, 1.04254, 0.892427, 0.893693, 0.89004, 0.890302, 0.889971, 0.893949, 1.05012, 0.898414, 0.90087, 0.903001, 0.905523, 1.12273, 1.01242, 1.11826, 0.932043, 0.935847, 1.07063, 0.945955, 0.953537, 0.916235, 0.915615, 1.18572, 1.18797, 0.918881, 0.921288, 0.921319, 0.925785, 0.927079, 0.928336, 0.932277, 0.935369, 0.938974, 0.938586, 0.938073, 0.938513, 0.939018, 0.940316, 0.940999, 0.944104, 0.945533, 0.945437, 0.945305, 0.946439, 0.949417, 0.950123, 0.95084, 0.954591, 0.956088, 0.956114, 0.956085, 0.960608, 0.962216, 0.966191, 0.965902, 1.13194, 0.970223, 0.97227, 0.973723, 0.976002, 0.977386, 0.980859, 0.983337, 0.985542, 0.986794, 0.987395
0.959954, 0.970368, 0.939225, 0.937153, 0.884818, 0.960396, 0.890793, 0.893775, 0.990989, 0.964788, 0.975885, 0.961612, 0.982314, 0.995281, 0.999432, 1.0355, 1.03376, 1.04654, 0.980204, 1.03989, 1.09501, 0.8972, 0.891221, 0.890687, 0.890377, 0.878776, 1.1423, 1.14483, 0.863812, 0.86183, 0.860512, 0.854595, 0.854321, 0.853926, 0.844667, 0.844871, 0.844463, 0.843902, 0.839849, 0.838533, 0.836595, 0.839197, 0.839108, 0.838416, 0.850778, 0.858597, 0.90715, 0.926655, 0.842439, 0.84745, 0.849063, 0.971642, 0.842228, 0.833545, 0.831713, 0.828337, 0.828138, 0.829203, 0.829619, 0.827424, 0.82457, 0.822996, 0.836381, 0.839043, 0.8362, 0.894007, 0.829308, 0.824102, 0.821699, 0.821175, 0.825145, 0.824453, 0.823616, 0.824634, 0.823631, 0.824459, 0.827779, 0.828405, 0.837464, 0.837473, 0.837585, 0.838822, 0.840565, 0.837006, 0.835008, 0.8348, 0.839934, 0.844991, 0.843419, 0.844434, 0.843441, 0.851335, 0.852404, 0.851145, 0.843216, 0.84319, 0.841947, 0.841743, 0.839655, 0.839022, 0.839183, 0.84018, 0.840805, 0.84117, 0.842031, 0.839785, 0.839588, 0.842084, 0.842836, 0.848391, 0.84384, 0.845601, 0.841948, 0.838245, 0.838185, 0.859344, 0.861343, 0.860148, 0.866303, 0.866371, 0.866665, 0.871085, 0.870958, 0.872617, 0.874036, 0.888095, 0.888019, 0.988513, 0.896636, 0.897149, 0.896934, 0.899336, 0.901026, 0.89984, 1.08949, 0.947578, 0.962498, 0.90715, 0.965329, 0.921467, 0.922667, 1.0047, 0.978211, 1.01898, 0.956902, 0.957804, 0.959555, 1.1184, 0.938634, 0.938322, 0.938816, 1.12567, 0.997744, 0.962747, 0.961016, 0.959969, 0.959399, 0.962985, 0.964398, 0.964434, 1.08325, 0.952545, 0.946409, 0.946228, 1.05339, 0.929161, 0.9291, 0.919645, 0.919449, 0.917816, 0.915675, 1.28926, 0.911223, 0.907697, 0.969565, 1.38605, 0.897596, 0.896485, 0.897635, 0.893273, 0.894155, 0.895603, 0.894546, 0.892087, 0.890978, 0.889882, 0.892582, 0.895263, 0.89342, 0.892311, 0.892216, 0.893777, 0.894424, 0.889613, 0.890455, 0.890228, 0.888633, 0.890709, 0.887514, 0.998406, 0.924269, 0.923978, 0.892934, 0.894547, 0.893963, 0.891437, 0.892201, 0.89038, 0.890522, 0.890531, 0.892547, 1.06543, 0.892637, 1.11364, 0.903586, 0.904239, 0.906215, 1.01867, 1.22052, 0.872583, 0.936702, 0.938969, 1.65753, 0.952783, 0.958001, 0.967817, 1.1364, 1.09775, 0.918617, 0.918568, 0.923125, 0.92352, 0.925651, 0.926102, 0.928965, 0.929645, 0.932652, 1.11992, 1.02775, 1.03103, 0.939058, 0.939688, 0.940749, 0.94151, 0.9449, 0.945609, 0.945905, 0.945744, 0.947106, 0.94904, 0.952192, 0.95335, 0.954722, 0.956559, 0.955796, 0.959692, 0.959669, 0.962258, 0.964129, 0.966554, 0.970234, 0.971924, 0.973429, 0.973312, 0.975585, 0.979466, 0.983569, 0.985125, 0.9871, 0.98717
0.946907, 0.94181, 0.895767, 0.970293, 0.887112, 0.886883, 0.88697, 0.984437, 0.996112, 0.978686, 1.01146, 1.01269, 0.992193, 1.00211, 1.00939, 1.014, 0.925976, 0.946605, 1.06613, 1.05075, 1.04943, 0.895351, 0.891195, 0.890533, 0.887331, 0.887356, 1.022, 1.15022, 0.858164, 0.858679, 0.859179, 0.855349, 0.854616, 0.853866, 0.845534, 0.841844, 0.840846, 0.84016, 0.839936, 0.842275, 1.11542, 1.11568, 0.83841, 0.832929, 1.00155, 0.915718, 0.895467, 0.845757, 0.843184, 0.842085, 0.84128, 0.841058, 0.836264, 0.834866, 0.829562, 0.82894, 0.828772, 0.829269, 0.829039, 0.826834, 0.825687, 0.825047, 0.828044, 0.835588, 0.832869, 0.829797, 0.824947, 0.824427, 0.823982, 0.82349, 0.824113, 0.824432, 0.823746, 0.822529, 0.822096, 0.821419, 0.826765, 0.829182, 0.837272, 0.837926, 0.83698, 0.837744, 0.839726, 0.840055, 0.836051, 0.835312, 0.836852, 0.846547, 0.843825, 0.842805, 0.844019, 0.850946, 0.844409, 0.84276, 0.843327, 0.842232, 0.841865, 0.841902, 0.83897, 0.835748, 0.836434, 0.839232, 0.839693, 0.839085, 0.839288, 0.838657, 0.838604, 0.843123, 0.842943, 0.849259, 0.845732, 0.844634, 0.843246, 0.837977, 0.838356, 0.908153, 0.858383, 0.858422, 0.858714, 0.860486, 0.861413, 0.863963, 0.871077, 0.872965, 0.87321, 0.873712, 0.891327, 1.14276, 0.937093, 0.894302, 1.34453, 1.12623, 0.953385, 0.897051, 0.899726, 0.948001, 0.964554, 0.965771, 0.96975, 0.919516, 0.918337, 0.984396, 0.995448, 1.03651, 0.958334, 0.955755, 0.942805, 0.936385, 0.937037, 1.12546, 1.12536, 1.12651, 0.952312, 0.95399, 0.959637, 0.956907, 0.958058, 0.95779, 0.962722, 1.07807, 0.952976, 0.950229, 0.949645, 0.947176, 0.939795, 0.932794, 0.929571, 0.919038, 0.921392, 0.915723, 0.907575, 0.90807, 0.906393, 0.907648, 0.908256, 0.980394, 0.89407, 0.895357, 0.894241, 0.89394, 0.894482, 0.895867, 0.894997, 0.892167, 0.892005, 0.890388, 0.891703, 0.893841, 0.890447, 0.89007, 0.890803, 0.893868, 0.895334, 0.889583, 0.890553, 0.890091, 0.890361, 0.890647, 0.885792, 0.884888, 0.885032, 0.878241, 0.892075, 0.891813, 0.89325, 0.892535, 0.89177, 0.89129, 0.890849, 0.888863, 0.891609, 0.893851, 1.11534, 1.11578, 0.903052, 1.13349, 1.13423, 1.02095, 1.02663, 1.05615, 0.938967, 0.941925, 1.07484, 0.957467, 1.08903, 0.908442, 0.906428, 1.19153, 0.914102, 0.918992, 0.921759, 0.922989, 0.920214, 0.926631, 0.928506, 0.928787, 0.930339, 1.10274, 0.940306, 1.08258, 1.0842, 1.03716, 0.938772, 0.939791, 0.942214, 0.943121, 0.944025, 0.944654, 0.946058, 0.947383, 0.94897, 0.950812, 0.950257, 0.95534, 0.956241, 0.957724, 0.959787, 0.962604, 0.96404, 0.966106, 0.96716, 0.96904, 0.973602, 0.97195, 0.974527, 0.979662, 0.981144, 0.983731, 0.985146, 0.986384
0.953723, 0.950771, 0.89492, 0.891138, 0.889304, 0.890153, 0.995908, 0.97235, 0.977329, 0.991188, 1.00446, 0.981333, 1.01103, 0.936927, 1.00154, 0.92318, 0.922904, 0.921445, 0.921287, 1.0392, 1.06477, 1.04693, 0.88885, 0.887116, 0.886776, 0.890177, 0.890369, 0.887367, 0.894084, 0.858403, 0.857464, 0.853703, 0.853681, 1.23001, 0.845718, 0.8422, 0.840367, 0.839218, 1.02377, 0.842533, 0.842099, 0.828708, 0.835125, 0.833421, 0.832334, 0.831703, 0.846567, 0.843133, 0.842988, 0.839568, 0.839951, 0.837235, 0.834314, 0.833193, 0.831774, 0.828837, 0.828709, 0.828652, 0.828484, 0.822327, 0.822379, 0.821505, 0.823967, 0.903927, 0.826398, 0.826608, 0.826256, 0.824738, 0.823631, 0.822164, 0.824783, 0.824634, 0.823062, 0.823344, 0.822322, 0.820073, 0.819164, 0.831434, 0.832734, 0.838502, 0.838319, 0.833561, 0.838123, 0.836881, 0.836297, 0.84662, 0.848395, 0.847745, 1.13323, 0.842658, 0.844374, 0.963567, 0.842391, 0.840522, 0.841404, 0.838552, 0.838707, 0.840889, 0.836485, 0.838926, 0.831842, 0.832111, 0.839262, 0.838841, 0.837038, 0.837973, 0.838386, 0.839758, 0.844224, 0.845769, 0.843893, 0.84646, 0.844867, 0.839768, 0.844031, 0.842233, 0.856216, 0.859937, 0.857252, 0.858047, 0.861496, 0.862816, 0.863421, 0.871877, 0.874394, 0.873148, 0.891197, 0.888706, 0.901607, 1.06768, 0.887462, 0.887687, 0.890524, 0.89663, 1.09523, 0.956713, 0.894785, 0.896761, 0.970165, 0.96915, 1.03295, 1.03198, 0.990851, 1.16116, 0.957999, 0.955234, 0.923868, 0.935413, 0.9269, 0.927006, 1.03869, 1.12965, 1.23566, 0.951456, 0.95287, 0.955844, 0.957321, 0.959648, 0.959881, 0.954931, 0.958979, 0.957466, 0.950287, 1.01221, 0.939201, 0.933508, 0.931104, 0.93246, 1.2504, 0.914176, 0.907454, 0.904228, 0.906061, 0.907736, 0.907621, 0.894133, 0.89413, 0.89307, 0.894251, 0.892667, 0.893624, 0.891525, 0.890737, 0.893872, 0.892759, 0.893692, 0.893648, 0.894056, 0.889633, 0.890172, 0.890672, 0.889601, 0.894278, 0.893913, 0.894143, 0.88832, 0.889321, 0.88723, 0.883987, 0.885834, 0.886347, 0.887088, 0.884302, 0.886549, 0.88765, 0.890371, 1.05946, 0.890619, 0.889622, 0.889211, 0.889638, 0.892915, 1.03593, 1.11724, 0.904525, 0.886087, 0.876075, 0.905184, 0.90555, 0.920377, 0.920489, 0.918387, 0.930053, 0.936149, 1.102, 0.980802, 0.995756, 0.91146, 0.915191, 0.917096, 0.918558, 0.921266, 0.921702, 0.926948, 0.959515, 0.912018, 0.938887, 1.0552, 1.07068, 1.07164, 1.08535, 0.943094, 0.935483, 0.937009, 0.938834, 0.942055, 0.944906, 0.944513, 0.946316, 0.946941, 0.948781, 0.949926, 0.950408, 0.953834, 0.953966, 0.957645, 0.959303, 0.960976, 0.963044, 0.964884, 0.96697, 0.971807, 0.970181, 0.972509, 0.974487, 0.975552, 0.978562, 0.982975, 0.982082, 0.985474
0.960747, 0.893949, 0.891655, 0.891764, 0.890859, 0.890201, 0.905793, 0.978249, 0.918085, 0.918233, 0.98903, 1.0015, 0.925717, 0.922655, 0.921775, 1.0082, 1.01069, 0.921196, 0.966461, 1.04525, 1.03063, 0.903239, 0.887785, 0.888296, 0.890253, 0.890591, 0.890728, 1.02742, 1.17448, 1.17824, 0.853103, 0.852882, 0.852153, 0.847474, 0.844406, 0.842379, 0.839049, 0.838695, 0.841909, 1.00805, 0.825563, 0.825361, 0.829091, 0.829315, 0.831588, 0.831265, 0.842304, 0.842647, 0.946073, 0.837221, 0.834258, 0.835158, 0.833625, 0.834287, 0.829013, 0.828661, 0.824974, 0.826667, 0.825408, 0.825131, 0.822711, 0.821105, 0.820036, 0.827142, 0.825435, 0.825892, 0.827242, 0.826147, 0.82035, 0.820041, 0.822751, 0.823466, 0.823764, 0.821445, 0.820881, 0.821042, 0.826875, 1.00878, 1.02389, 0.837309, 0.834206, 0.83279, 0.835348, 0.835315, 0.835309, 0.845561, 0.847147, 0.845342, 1.12764, 1.13318, 1.17119, 1.17127, 0.839476, 0.841159, 0.838966, 0.838994, 0.836423, 0.836647, 0.837412, 0.83855, 0.833994, 0.834082, 0.833043, 0.834642, 0.835243, 0.8373, 0.839844, 0.840338, 0.840764, 0.843435, 0.844148, 0.847246, 0.845523, 0.936283, 0.840714, 0.841201, 0.854599, 0.855618, 0.855765, 0.857921, 0.859533, 0.862756, 0.863102, 0.865039, 0.870886, 0.871325, 0.880629, 1.14411, 0.896353, 0.899118, 0.884464, 0.889383, 0.890435, 0.889051, 0.890791, 0.891512, 0.893151, 0.895065, 0.89365, 1.01593, 0.91165, 1.17064, 1.17144, 0.976516, 0.957391, 0.958008, 0.924969, 0.924804, 0.925497, 0.927821, 0.983926, 1.12879, 1.02283, 0.952467, 0.951726, 0.953402, 0.956699, 0.957855, 0.954677, 0.953345, 0.95948, 0.959267, 1.15411, 0.946786, 0.942337, 0.932509, 0.93247, 0.932126, 0.933296, 1.0288, 1.0226, 0.905203, 0.908207, 1.1698, 0.910656, 0.90197, 0.893047, 0.893741, 0.894591, 0.89429, 0.893728, 0.892045, 0.89266, 0.89369, 0.894045, 0.894186, 0.89571, 0.896308, 0.889832, 0.890263, 0.888807, 0.890084, 0.893326, 0.893866, 0.892877, 0.893313, 0.883425, 0.88457, 0.885023, 0.886036, 0.887142, 0.887478, 0.885131, 0.886271, 0.886341, 0.884898, 0.885774, 0.886729, 0.887163, 0.887944, 0.886603, 0.887466, 1.07223, 1.04041, 0.899144, 0.901036, 1.14003, 1.03997, 1.04944, 1.1514, 1.15394, 0.914733, 1.57914, 0.943421, 1.10354, 0.908339, 1.18729, 0.90846, 0.910263, 0.915303, 0.91794, 0.919959, 0.92027, 0.921682, 0.909881, 0.911656, 1.0228, 0.940387, 0.939634, 0.941943, 0.942318, 0.940003, 0.937514, 0.935933, 0.935387, 0.936199, 0.942016, 0.943311, 0.942304, 0.945779, 0.948012, 0.950129, 0.950146, 0.950889, 0.956175, 0.956328, 0.959886, 0.959134, 0.961474, 0.962787, 0.963617, 0.967429, 0.968096, 0.968798, 0.972334, 0.972885, 0.979403, 0.980092, 0.981737, 0.980345
0.956351, 0.891489, 0.891485, 0.890916, 0.889831, 0.88972, 0.960389, 0.981284, 0.981101, 0.987963, 0.990532, 0.987511, 0.923715, 0.922022, 0.923096, 1.0366, 0.91511, 0.918555, 1.03634, 1.04331, 0.904113, 1.04979, 1.04787, 1.05566, 1.05697, 0.954597, 1.0186, 0.885338, 0.888143, 0.912616, 0.867103, 1.1571, 0.847337, 0.844488, 0.845722, 0.844944, 0.842084, 0.841919, 0.842352, 1.04309, 0.825828, 0.827951, 0.831414, 0.83009, 0.831361, 0.830966, 0.843718, 0.839577, 0.836927, 0.837871, 0.833033, 0.832708, 0.836592, 0.827329, 0.828053, 0.826095, 0.825187, 0.827024, 0.82615, 0.822828, 0.821631, 0.821649, 0.819322, 0.819414, 0.825897, 0.82734, 0.82783, 0.825802, 0.821301, 0.820027, 0.82153, 0.823572, 0.824435, 0.820875, 0.821009, 0.819872, 0.818995, 1.01037, 0.832544, 0.834576, 0.833838, 0.834934, 0.832625, 0.830867, 0.896996, 0.844611, 0.845827, 0.821513, 0.843369, 0.842069, 0.908764, 0.980089, 0.838962, 0.838894, 0.838765, 0.832891, 0.83516, 0.836612, 0.837474, 0.835173, 0.835157, 0.833756, 0.834299, 0.832796, 0.836118, 0.836038, 0.835597, 0.839577, 0.839517, 0.847268, 0.845491, 0.846099, 0.847078, 0.835882, 0.834561, 0.834205, 0.853506, 0.853218, 0.854343, 0.855083, 0.860597, 0.861703, 0.863739, 0.864823, 0.865259, 0.869485, 0.867914, 0.877549, 0.876593, 0.882648, 0.882986, 0.884275, 0.887336, 0.887822, 0.894251, 0.893068, 0.892316, 0.891914, 0.894267, 0.968935, 0.910646, 0.911388, 0.997765, 1.00428, 0.976975, 0.982473, 0.959125, 0.951322, 0.922222, 0.984692, 0.929905, 1.02502, 1.05375, 0.957273, 1.00113, 0.95086, 0.955054, 0.95708, 0.957849, 0.9548, 0.959472, 0.959893, 0.950162, 0.94869, 0.946066, 1.03772, 0.930632, 0.932142, 1.03017, 1.02916, 0.938308, 1.1411, 1.07311, 1.46685, 0.919875, 1.43301, 0.891697, 0.892574, 0.894041, 0.893099, 0.893469, 0.893333, 0.893597, 0.893281, 0.894558, 0.89493, 0.895927, 0.897202, 0.896897, 0.891205, 0.888118, 0.889843, 0.892431, 0.892013, 0.890018, 0.890069, 0.888831, 0.886681, 0.887079, 0.886867, 0.887903, 0.887548, 0.887385, 0.885893, 0.887163, 0.886272, 0.886174, 0.889064, 0.890432, 0.891869, 0.887913, 0.88799, 0.890574, 0.889877, 0.892708, 1.15865, 1.00488, 0.880097, 0.906416, 0.911662, 1.21912, 0.910077, 0.90894, 0.953418, 1.11161, 0.908272, 0.908184, 0.906221, 0.911915, 0.914553, 0.916898, 0.918157, 0.921282, 0.921162, 0.956298, 1.04712, 1.02221, 0.939586, 1.05379, 1.05731, 0.943118, 0.941894, 0.937899, 0.934187, 0.934949, 0.935649, 0.938755, 0.939683, 0.939197, 0.941849, 0.943141, 0.948911, 0.950289, 0.951038, 0.953285, 0.95617, 0.957694, 0.960069, 0.960995, 0.961043, 0.964147, 0.96672, 0.968738, 0.969594, 0.967751, 0.970442, 0.977626, 0.980082, 0.989282, 0.977883
0.884747, 0.885647, 0.89002, 0.890547, 0.890042, 0.955741, 0.973515, 0.975725, 1.14986, 0.919249, 0.968377, 0.918145, 0.91799, 0.909773, 0.90931, 0.912221, 0.913433, 0.917265, 0.915826, 0.912369, 1.04986, 1.07495, 1.09145, 1.12208, 0.995779, 1.1144, 1.04092, 1.04983, 1.05656, 0.968525, 0.866428, 0.865898, 0.856752, 0.845221, 0.845139, 0.843593, 0.841325, 0.843351, 0.842207, 0.818399, 0.818631, 1.05585, 0.82941, 0.828626, 0.831642, 0.83432, 0.842926, 0.843117, 0.837803, 0.835491, 0.829512, 0.830677, 0.828013, 0.827868, 0.828439, 0.827542, 0.827752, 0.828039, 0.826277, 0.824973, 0.820971, 0.819614, 0.820185, 0.822057, 0.823016, 0.825781, 0.825093, 0.823195, 0.822488, 0.821641, 0.822332, 0.821495, 0.821444, 0.8211, 0.8207, 0.820407, 0.817799, 0.818349, 0.832891, 0.834294, 0.83383, 0.832558, 0.832265, 0.831562, 1.19452, 0.821473, 0.820234, 0.82066, 1.20879, 0.829215, 0.829901, 0.835565, 0.838968, 0.83925, 0.838052, 0.835525, 0.837246, 0.839252, 0.834437, 0.834543, 0.834145, 0.834566, 0.834018, 0.833957, 0.836965, 0.835982, 0.836817, 0.836683, 0.837833, 0.842169, 0.846549, 0.846441, 0.839567, 0.836366, 0.835382, 0.83694, 0.855644, 0.852562, 0.854191, 0.854643, 0.855726, 0.859848, 0.859906, 0.8614, 0.862756, 0.864044, 0.866423, 0.876401, 0.877061, 0.880782, 0.880159, 0.880398, 0.881001, 0.887992, 0.887801, 0.888168, 0.890564, 0.890307, 1.112, 0.909199, 0.966758, 1.07424, 0.985655, 1.03589, 1.19602, 0.958161, 0.949493, 0.971811, 0.985559, 0.983209, 1.18014, 1.02596, 1.14835, 1.00123, 0.991141, 0.994833, 0.953233, 0.956328, 0.956471, 0.952873, 0.953318, 0.959505, 0.958973, 0.946414, 0.946188, 1.14664, 1.14478, 0.928064, 1.03663, 0.939467, 0.93906, 0.941144, 0.942222, 0.932723, 0.957149, 0.958685, 0.894588, 0.89534, 0.894302, 0.894057, 0.891219, 0.89344, 0.890181, 0.890137, 0.892065, 0.896992, 0.896332, 0.897369, 0.896915, 0.887725, 0.890979, 0.890679, 0.889051, 0.889369, 0.890254, 0.889555, 0.88797, 0.887135, 0.886041, 0.886881, 0.889852, 0.887224, 0.88736, 0.88783, 0.886991, 0.885411, 0.886814, 0.889146, 0.891491, 0.890292, 0.890943, 0.892272, 0.890714, 0.890662, 0.891075, 0.891936, 0.885924, 0.886125, 0.882378, 0.883403, 0.909942, 0.910134, 0.910038, 0.922908, 1.13282, 0.910895, 0.906766, 0.907532, 0.911603, 0.912668, 0.915247, 0.917996, 0.915104, 0.91501, 1.17487, 0.924966, 1.16842, 0.940152, 0.939614, 0.93937, 0.938605, 0.939207, 1.46354, 1.2063, 0.934151, 0.933424, 0.937132, 0.938399, 0.939768, 0.941308, 0.942688, 0.944389, 0.947917, 0.949799, 0.952493, 0.954492, 0.955881, 0.957678, 0.959083, 0.960264, 0.961828, 0.963788, 0.96637, 0.96632, 0.966669, 0.966716, 0.969894, 0.973966, 0.975902, 0.97512
0.884936, 0.883524, 0.887562, 0.887851, 0.952524, 0.953663, 0.980983, 0.9178, 0.916647, 0.91841, 0.920002, 0.917486, 0.917023, 0.911299, 0.910747, 0.911284, 0.909794, 0.915516, 0.916416, 1.03963, 1.04673, 1.0364, 0.98134, 1.00272, 1.10541, 1.0111, 0.86171, 0.86142, 0.856142, 0.856882, 0.866471, 0.865878, 0.879362, 0.84356, 0.845854, 0.841779, 0.840494, 1.04735, 0.817779, 0.818241, 0.817837, 0.825111, 0.826847, 0.827856, 0.828295, 0.822865, 0.839533, 0.864256, 0.835593, 0.832577, 0.831151, 0.82904, 0.827623, 0.82751, 0.826539, 0.824625, 0.823903, 0.824832, 0.825832, 0.825257, 0.82401, 0.822929, 0.820238, 0.82227, 0.823719, 0.824349, 0.826138, 0.823946, 0.822745, 0.821406, 0.82026, 0.812083, 0.811825, 0.826684, 0.818089, 0.818652, 0.819153, 0.819219, 0.829322, 0.831477, 0.831515, 0.83242, 0.832798, 0.831616, 0.822397, 0.820755, 0.820428, 0.821444, 1.14591, 0.826297, 0.827442, 0.829829, 0.841486, 0.841898, 0.840116, 0.837664, 0.836664, 0.837617, 0.83505, 0.832836, 0.834619, 0.835553, 0.83491, 0.834661, 0.835164, 0.836769, 0.838446, 0.83986, 0.839103, 0.842511, 0.847886, 0.848795, 0.84908, 0.837291, 0.837029, 0.836778, 0.845555, 0.850836, 0.855169, 0.856427, 0.856318, 0.856847, 0.858571, 0.859764, 0.860992, 0.865805, 0.867314, 0.915056, 0.875859, 0.872983, 0.874178, 0.879578, 0.879244, 0.879886, 0.885989, 0.884114, 0.888853, 0.885783, 0.885736, 0.964139, 0.907628, 0.907977, 0.987833, 0.917057, 0.915644, 0.96432, 0.910185, 0.909355, 0.912012, 0.972298, 1.16736, 1.02754, 0.929063, 0.931857, 1.00835, 1.0022, 0.995725, 0.950914, 0.952819, 0.952806, 0.952853, 0.958974, 0.958645, 1.09042, 0.946913, 1.03934, 0.934998, 1.04317, 1.04435, 1.0534, 1.183, 0.942113, 0.942288, 0.942123, 0.937599, 0.90615, 0.89828, 0.898284, 0.892938, 0.892128, 0.890848, 0.878118, 0.886626, 0.889233, 0.889703, 0.894585, 0.894668, 0.895172, 0.897223, 0.891789, 0.891655, 0.888491, 0.888727, 0.889585, 0.89165, 0.889596, 0.890072, 0.888569, 0.887076, 0.886678, 0.886015, 0.889038, 0.887983, 0.889215, 0.886289, 0.888259, 0.887192, 0.887756, 0.889093, 0.889724, 0.891602, 0.893478, 0.89354, 0.892198, 0.892421, 0.892573, 0.886526, 0.886838, 0.883352, 0.883921, 0.908111, 0.909508, 0.910848, 1.11502, 0.949473, 0.914428, 0.906775, 0.90741, 0.907551, 0.911489, 0.913243, 0.917925, 0.916249, 0.914986, 1.15531, 1.15757, 1.17428, 1.06324, 1.06049, 0.939502, 0.937847, 0.936576, 0.991055, 0.938188, 0.995612, 0.932107, 0.932205, 0.935133, 0.938445, 0.941813, 0.944044, 0.94399, 0.946319, 0.948041, 0.951899, 0.953458, 0.955338, 0.956492, 0.95883, 0.960176, 0.962185, 0.965371, 0.966542, 0.963775, 0.964299, 0.96448, 0.966427, 0.97209, 0.974002, 0.975506
0.881659, 0.888307, 0.88898, 0.88832, 0.884757, 0.949812, 0.953615, 0.916362, 0.917797, 0.919192, 0.973253, 0.918107, 0.917131, 0.991723, 0.956682, 0.905699, 0.904674, 0.914436, 0.914351, 0.912473, 1.03943, 1.04368, 0.980032, 0.878517, 1.0356, 0.861603, 0.862064, 0.862408, 0.856357, 0.855922, 0.86254, 0.860239, 0.861998, 0.851827, 0.843053, 0.841883, 0.842221, 0.841854, 1.06072, 0.816985, 1.11214, 0.827707, 0.828527, 0.826786, 0.822949, 0.823377, 0.82448, 0.82553, 0.833744, 0.831742, 0.828616, 0.825546, 0.828053, 0.82814, 0.827691, 0.82506, 0.823861, 0.823841, 0.823172, 0.823893, 0.824951, 0.824383, 0.824037, 1.00137, 0.823918, 0.825217, 0.824601, 0.822376, 0.821271, 1.0664, 0.811979, 0.81068, 0.810975, 0.936789, 0.818874, 0.819975, 0.818178, 0.820582, 0.824465, 0.831585, 0.832018, 0.831979, 0.831889, 0.831469, 0.843361, 0.819402, 0.819367, 0.821242, 0.823925, 0.826421, 0.827411, 0.828108, 0.839656, 0.840423, 0.840293, 0.838016, 0.836878, 0.832666, 0.833623, 0.834685, 0.833972, 0.833073, 0.832375, 0.832801, 0.837431, 0.837148, 0.838882, 0.839158, 0.839527, 0.839595, 0.849378, 0.848606, 0.847347, 0.840143, 0.83763, 0.837526, 0.851406, 0.852321, 0.852568, 0.851421, 0.853695, 0.85508, 0.858927, 0.860017, 0.860009, 0.862052, 0.863423, 0.865266, 0.874315, 0.875089, 0.87498, 0.880235, 0.880037, 0.879991, 0.881377, 0.884411, 0.884804, 0.886903, 0.888443, 0.984263, 0.953413, 0.949721, 0.997757, 0.915982, 0.914827, 0.988703, 0.91056, 0.946446, 0.948381, 0.916846, 0.918498, 0.926283, 0.929599, 0.932576, 1.02234, 0.942061, 0.944031, 0.948948, 0.952317, 0.952716, 0.952503, 0.953063, 0.957934, 0.957882, 1.16234, 0.940122, 1.14429, 0.926553, 0.921443, 0.921505, 1.07651, 1.16517, 0.947169, 0.936987, 0.929082, 1.27539, 0.899503, 0.899947, 0.892522, 0.891942, 0.892502, 0.8802, 0.880164, 0.887615, 0.889055, 0.889822, 0.89534, 0.897307, 0.898365, 0.890798, 0.891378, 0.889639, 0.890285, 0.891736, 0.895708, 0.891189, 0.888474, 0.888278, 0.887788, 0.888182, 0.887686, 0.88602, 0.889515, 0.893842, 0.886516, 0.886618, 0.886854, 0.887389, 0.889594, 0.890278, 0.892427, 0.893776, 0.893823, 0.892932, 0.889728, 0.891721, 0.891178, 0.886732, 0.886819, 0.886767, 0.906763, 0.911042, 0.911651, 0.90756, 1.13871, 0.903532, 0.90534, 0.906156, 0.910696, 0.908073, 0.911402, 0.914496, 0.91457, 0.914542, 0.915947, 0.917543, 0.962911, 1.172, 0.935398, 0.938989, 0.939418, 1.09464, 0.93603, 0.935643, 1.058, 0.930317, 0.931686, 0.935437, 0.938377, 0.938869, 0.943669, 0.945351, 0.945735, 0.946974, 0.949691, 0.952297, 0.956117, 0.956041, 0.957972, 0.95979, 0.959896, 0.958999, 0.961775, 0.963698, 0.965982, 0.965296, 0.966317, 0.975454, 0.972524, 0.975192
0.884712, 0.885203, 0.888661, 0.887069, 0.886598, 0.963495, 0.940605, 0.960652, 0.960788, 0.914314, 0.914146, 0.952342, 0.991971, 0.905146, 0.905508, 0.904494, 0.904225, 0.914416, 0.914539, 0.913827, 1.01873, 1.04299, 1.02242, 1.06131, 0.873831, 0.863517, 0.86398, 0.861686, 0.859548, 0.855834, 0.8536, 0.84075, 0.839903, 0.847432, 0.839349, 0.839912, 0.839742, 1.05022, 1.06696, 1.09643, 0.828215, 0.828867, 0.829193, 0.825747, 0.824482, 0.824343, 0.824607, 0.825066, 0.829898, 0.826204, 0.825443, 0.824813, 0.82496, 0.82543, 0.82541, 0.825876, 0.824678, 0.824409, 0.822824, 0.822548, 0.821304, 0.820992, 0.822604, 0.834048, 0.83637, 0.823934, 0.822827, 0.821783, 0.821253, 0.820189, 0.812848, 0.812292, 0.812134, 0.818811, 0.818747, 0.819587, 0.819113, 0.821634, 0.821016, 0.832263, 0.832276, 0.833273, 0.832136, 0.831813, 0.830051, 0.822226, 0.820608, 0.824528, 0.826035, 0.826636, 0.825631, 0.823468, 0.830977, 0.831923, 0.83984, 0.838811, 0.838439, 0.832711, 0.832949, 0.833573, 0.834873, 0.833365, 0.832573, 0.832846, 0.835363, 0.834849, 0.840012, 0.839386, 0.839741, 0.836264, 0.847764, 0.848281, 0.848253, 0.836994, 0.836849, 0.836829, 0.850527, 0.850645, 0.852914, 0.852518, 0.852343, 0.85205, 0.854654, 0.851692, 0.862396, 0.86297, 0.863569, 0.866026, 0.866965, 0.873527, 0.874952, 0.882066, 0.881603, 0.87994, 0.880376, 0.881781, 0.883647, 0.8841, 0.991844, 0.982421, 0.970883, 0.950215, 0.992593, 0.988678, 0.989629, 0.930121, 0.957945, 0.902637, 0.904014, 0.957214, 1.13935, 1.2131, 1.03235, 0.936653, 1.16858, 1.01968, 1.01337, 1.06598, 0.950949, 0.95298, 0.952215, 0.952602, 0.957561, 0.958861, 0.943648, 0.933373, 0.933621, 1.14298, 1.21636, 0.912819, 0.912166, 0.912282, 1.021, 0.923952, 0.926478, 0.905235, 0.904264, 0.90165, 1.00944, 0.891126, 0.90048, 0.894601, 0.89389, 0.888197, 0.890476, 0.889077, 0.887693, 0.888413, 0.891343, 0.891994, 0.89404, 0.88417, 0.887334, 0.897486, 0.897389, 0.897538, 0.881325, 0.886395, 0.888252, 0.887841, 0.888843, 0.890517, 0.890777, 0.893863, 0.89041, 0.886119, 0.883073, 0.88182, 0.889393, 0.882218, 0.883388, 0.889987, 0.889574, 0.889214, 0.89125, 0.892639, 0.891821, 0.890552, 0.886662, 0.904271, 0.975061, 1.11678, 0.905679, 0.908274, 1.10061, 0.903392, 0.904802, 0.905776, 0.907831, 0.908438, 0.909978, 0.912267, 0.912883, 0.914779, 1.17942, 1.1778, 0.946152, 1.12004, 1.14346, 1.16233, 1.12912, 1.12618, 1.05562, 0.93479, 0.935918, 0.931445, 0.932235, 0.934874, 0.939159, 0.937824, 0.941538, 0.943383, 0.944748, 0.945377, 0.949493, 0.9513, 0.95506, 0.955812, 0.956645, 0.959382, 0.95975, 0.96162, 0.958421, 0.960451, 0.96432, 0.964485, 0.964479, 0.965617, 0.971575, 0.974673
0.885643, 0.8843, 0.925329, 0.951606, 0.9565, 0.950363, 0.939469, 0.950444, 0.951407, 0.982042, 0.950022, 0.899689, 0.902855, 0.905338, 0.904089, 0.896481, 0.896534, 0.977936, 0.914388, 0.913103, 1.03332, 0.952982, 0.935748, 1.09588, 1.10795, 0.863965, 0.864622, 0.86318, 0.859829, 0.856156, 0.859663, 0.840976, 0.849338, 0.847329, 0.846058, 0.84011, 0.840412, 0.837561, 0.835313, 0.832196, 0.828174, 0.828048, 0.829064, 0.828646, 0.824502, 0.824569, 0.824726, 0.824636, 0.826549, 0.828174, 0.824267, 0.823001, 0.824307, 0.825538, 0.826074, 0.825273, 0.823677, 0.823707, 0.822522, 0.822612, 0.821461, 0.821885, 0.999333, 0.836071, 0.836564, 0.835966, 0.821357, 0.819588, 0.820249, 0.818425, 0.818043, 0.817386, 0.818557, 0.82002, 0.820495, 0.818901, 0.818044, 0.821158, 0.822305, 0.8317, 0.83204, 0.834442, 0.830732, 0.829877, 0.829604, 0.828342, 1.03596, 0.825103, 0.825637, 0.825298, 0.823826, 0.824585, 1.06823, 0.831168, 0.987518, 0.845967, 0.834979, 0.834811, 0.834326, 0.835102, 0.835229, 0.835467, 0.833336, 0.833184, 0.833749, 0.832633, 0.840609, 0.83972, 0.837735, 0.836471, 0.845745, 0.84627, 0.84756, 0.836775, 0.832002, 0.831985, 0.845344, 0.852062, 0.852095, 0.852275, 0.851887, 0.850352, 0.85, 0.852295, 0.851153, 0.851479, 0.865113, 0.867611, 0.869964, 0.872087, 0.874133, 0.867527, 0.880357, 0.876946, 0.877046, 0.87825, 0.881499, 0.88065, 0.882615, 0.981172, 0.980206, 1.11597, 1.40893, 1.21296, 0.99041, 0.991056, 0.902851, 0.900504, 0.905042, 0.907689, 0.913905, 0.915112, 1.03531, 0.937627, 0.938722, 1.01456, 0.961338, 0.951348, 0.952685, 0.953387, 0.954283, 0.951264, 0.953311, 0.955158, 0.940364, 0.934037, 0.932026, 1.15154, 0.916127, 0.913764, 0.912071, 0.913745, 1.09207, 0.923448, 1.20694, 1.20677, 0.90657, 0.906225, 0.910985, 0.911192, 1.45359, 0.905175, 0.901173, 0.900671, 0.890676, 0.888527, 0.888086, 0.887674, 0.889887, 0.890434, 0.888603, 0.887433, 0.887353, 0.897714, 0.90035, 0.880503, 0.881813, 0.887183, 0.88663, 0.889393, 0.890335, 0.889498, 0.891397, 0.890423, 0.890482, 0.879409, 0.881331, 0.880781, 0.876873, 0.884265, 0.881254, 0.88439, 0.886088, 0.890003, 0.890117, 0.890556, 0.89241, 0.895898, 0.89723, 0.895346, 0.894661, 0.892769, 0.892065, 0.905366, 0.897242, 0.901842, 0.904048, 0.904571, 0.904918, 0.907659, 0.910132, 0.910521, 0.910553, 0.930296, 1.11801, 0.9241, 0.968433, 1.10651, 1.11309, 0.942503, 0.939107, 0.938513, 1.11273, 0.935609, 1.06466, 1.06472, 0.932787, 0.935453, 0.936514, 0.938593, 0.940607, 0.941901, 0.942555, 0.943063, 0.946767, 0.95201, 0.953645, 0.957076, 0.958154, 0.95596, 0.957651, 0.959421, 0.959569, 0.961388, 0.962553, 0.963122, 0.964251, 0.967875, 0.97043, 0.973459
0.883619, 0.883053, 0.88253, 0.880565, 0.950947, 1.05936, 0.946864, 0.945193, 0.946823, 0.96801, 0.902706, 0.902223, 0.902802, 0.904968, 0.902414, 0.898286, 0.899694, 0.90125, 0.911894, 0.911246, 0.911458, 0.996274, 1.06656, 1.09567, 1.085, 0.876296, 0.865928, 0.862706, 0.862653, 0.861896, 0.854648, 0.854041, 0.853625, 0.849073, 0.838983, 0.838564, 0.838745, 0.837632, 0.831749, 0.83225, 0.82947, 0.829725, 0.826883, 0.826682, 0.826345, 0.826322, 0.824959, 0.826263, 0.826964, 0.826475, 0.822878, 0.822716, 0.822923, 0.823843, 0.82649, 0.825899, 0.824338, 0.823716, 0.822349, 0.821992, 0.818624, 0.815993, 0.816497, 0.835883, 0.836388, 0.836323, 0.82048, 0.821822, 0.818184, 0.81835, 0.818049, 0.818968, 0.82046, 0.821142, 0.819295, 0.818311, 0.81948, 0.821336, 0.860601, 0.854083, 0.830481, 0.83106, 0.831822, 0.831281, 0.827815, 0.827937, 0.828303, 0.828266, 0.826743, 0.82473, 0.825541, 0.825082, 0.991258, 0.837614, 0.839774, 0.845644, 0.841907, 0.833924, 0.835126, 0.83547, 0.834978, 0.833007, 0.832737, 0.833543, 0.834981, 0.832651, 0.833379, 0.83307, 0.83788, 0.840971, 0.842409, 0.847462, 0.843401, 0.842454, 0.832222, 0.833403, 0.845992, 0.848541, 0.850324, 0.850408, 0.849047, 0.849605, 0.85039, 0.852127, 0.852394, 0.852311, 0.853159, 0.878322, 0.871194, 0.871052, 0.871112, 0.872018, 0.87447, 0.875275, 0.877724, 0.877725, 0.878431, 0.877992, 0.880099, 0.880556, 0.984889, 0.984824, 0.990339, 1.00365, 0.992131, 1.22953, 0.902713, 0.900392, 0.901443, 0.904181, 0.912212, 0.991178, 1.07125, 1.17058, 0.93642, 0.947029, 0.993933, 0.951197, 0.955348, 0.955179, 0.955795, 0.953521, 0.952888, 0.95282, 0.942457, 0.936158, 0.932975, 1.03619, 0.918211, 0.916725, 0.911828, 0.91336, 0.912407, 1.09498, 1.04661, 0.90819, 0.908456, 0.911546, 0.910786, 0.910936, 1.26313, 1.26256, 1.41874, 1.4625, 0.90182, 0.90167, 0.903804, 0.886868, 0.887445, 0.891242, 0.888685, 0.887678, 0.887055, 0.885846, 0.882392, 0.882028, 0.883977, 0.886017, 0.886228, 0.888052, 0.888453, 0.889456, 0.889814, 0.888553, 0.905846, 0.954226, 0.878153, 0.87899, 0.87886, 0.880228, 0.882185, 0.883124, 0.885119, 0.886704, 0.887228, 0.888078, 0.89056, 0.891902, 0.897284, 0.896629, 0.895934, 0.896274, 0.893626, 0.894559, 1.13952, 0.900183, 0.902062, 0.90394, 0.90459, 0.904888, 0.906911, 0.911947, 0.960913, 0.960677, 1.1681, 1.12337, 0.889381, 0.88823, 0.891306, 0.93988, 0.936757, 0.938667, 1.12255, 0.933286, 0.931793, 0.928986, 0.929725, 0.935498, 0.935855, 0.93757, 0.93907, 0.940445, 0.941718, 0.943328, 0.944176, 0.955043, 0.95529, 0.956527, 0.959745, 0.956276, 0.957266, 0.961406, 0.960653, 0.960984, 0.9639, 0.963209, 0.963138, 0.966135, 0.969933, 0.971352
0.883931, 0.883846, 0.881275, 0.88124, 0.946548, 0.947378, 0.898628, 0.943845, 0.945537, 0.902549, 0.902359, 0.902886, 0.902912, 0.90279, 0.901722, 0.898886, 0.899092, 0.900264, 0.911922, 0.912224, 1.02934, 1.03535, 1.06028, 1.05632, 0.978269, 0.985179, 0.866637, 0.865184, 0.863616, 0.857663, 0.853705, 0.854315, 0.852771, 0.850768, 0.841924, 0.839633, 0.838351, 0.837306, 0.832738, 0.831563, 0.830866, 0.829622, 0.826295, 0.825933, 0.826379, 0.833784, 0.823721, 0.824147, 0.822771, 0.829106, 0.829523, 0.822329, 0.821829, 0.821892, 0.823276, 0.825109, 0.823827, 0.822769, 0.815478, 0.81802, 0.81843, 0.815517, 0.815204, 0.816015, 0.813136, 0.981902, 0.824913, 0.818718, 0.816799, 0.817306, 0.817524, 0.819465, 0.818442, 0.819499, 0.819543, 0.819694, 0.817587, 0.818118, 0.86873, 0.905973, 0.827407, 0.828089, 0.829626, 0.828767, 0.828619, 0.828099, 0.828651, 0.829282, 0.828124, 0.827641, 0.828869, 1.13682, 0.841019, 0.839276, 0.840034, 0.845249, 0.843657, 0.835949, 0.835654, 0.834999, 0.833666, 0.833856, 0.833173, 0.83362, 0.831448, 0.832206, 0.834339, 0.834239, 0.833132, 0.842505, 0.843816, 0.843424, 0.842006, 0.849585, 0.833232, 0.832097, 0.832061, 0.8474, 0.84733, 0.846957, 0.845734, 0.84391, 0.844276, 0.8465, 0.846783, 0.850415, 0.853411, 1.10313, 0.867457, 0.86817, 0.870317, 0.872729, 0.873698, 0.870171, 0.874056, 0.87764, 0.877541, 0.879984, 0.880029, 0.877635, 0.888413, 0.98465, 0.926711, 0.926181, 0.929119, 0.940131, 0.902872, 0.901073, 0.902087, 0.90312, 0.910928, 0.916243, 1.17001, 0.933826, 0.935948, 0.94246, 0.943267, 0.947035, 0.949517, 0.9547, 0.956062, 0.955946, 0.955965, 1.03452, 1.17374, 0.934426, 0.934432, 0.923569, 0.92146, 0.914708, 0.90694, 0.907834, 0.910477, 0.914048, 1.10955, 0.903316, 0.902158, 0.911601, 0.911126, 0.918381, 1.26316, 0.914595, 0.913959, 0.91479, 0.903721, 0.904403, 0.904704, 0.883675, 0.957493, 0.893259, 0.888431, 0.886547, 0.885157, 0.886887, 0.887021, 0.88603, 0.886669, 0.885323, 0.885465, 0.886759, 0.887926, 0.889684, 0.889849, 0.905697, 0.936206, 0.877263, 0.878996, 0.878648, 0.880056, 0.880797, 0.881722, 0.886807, 0.891412, 0.888393, 0.888973, 0.888786, 0.888787, 0.892416, 0.894981, 0.893381, 0.895558, 0.896978, 0.894937, 0.894847, 1.14688, 0.900204, 0.900701, 0.901244, 0.901073, 0.90396, 0.904629, 0.906603, 0.909127, 0.902472, 0.902457, 1.04931, 0.889144, 0.888096, 0.89036, 0.939038, 0.936426, 0.935777, 0.933163, 0.933084, 0.929855, 0.928351, 0.929965, 0.932286, 0.933428, 0.935917, 0.938356, 0.938993, 0.939067, 0.941429, 0.94233, 0.953742, 0.955074, 0.956957, 0.958091, 0.957346, 0.956528, 0.958062, 0.961164, 0.96364, 0.964968, 0.963358, 0.958246, 0.959574, 0.968689, 0.969819
0.885615, 0.883374, 0.880674, 0.882525, 0.882191, 0.89085, 0.893322, 0.894551, 0.946639, 0.975572, 0.9037, 0.903384, 0.902677, 0.956348, 0.899225, 0.899495, 0.900144, 0.902337, 0.90207, 1.00712, 1.0301, 1.02939, 0.891829, 0.951522, 0.966554, 1.09254, 0.864238, 0.865084, 0.861549, 0.860665, 0.854033, 0.85375, 0.853896, 0.850708, 0.843332, 0.840016, 0.837089, 0.835546, 0.835002, 0.831813, 0.832425, 0.829306, 0.828483, 0.828214, 0.828261, 0.835486, 0.833414, 0.821966, 0.822867, 0.831402, 0.830742, 0.822323, 0.821382, 0.820316, 0.820804, 0.821228, 0.821471, 0.82143, 0.818222, 0.817949, 0.818308, 0.815003, 0.815242, 0.812621, 0.812997, 0.814157, 0.821499, 0.817006, 0.817507, 0.814696, 0.815413, 0.816078, 0.817863, 0.818864, 0.819159, 0.817953, 0.81765, 0.817808, 0.82449, 0.824673, 0.826372, 0.828896, 0.828537, 0.8286, 0.82855, 0.8283, 0.829221, 0.829111, 0.828253, 0.827842, 0.82667, 0.839626, 0.840252, 0.891439, 0.892876, 0.911792, 0.837018, 0.833028, 0.831951, 0.832061, 0.832447, 0.832303, 0.833006, 0.833484, 0.831249, 0.835882, 0.833865, 0.833685, 0.832612, 0.842047, 0.84266, 0.841083, 0.841772, 0.838364, 0.831317, 0.831883, 0.832572, 0.83767, 0.845642, 0.845044, 0.842556, 0.843107, 0.844303, 0.845433, 0.845402, 0.845754, 0.854772, 1.2987, 0.867151, 0.867031, 0.863093, 1.25096, 0.869368, 0.869713, 0.869198, 0.870215, 0.871832, 0.878677, 0.878805, 1.00198, 1.00135, 0.990684, 0.99311, 0.925125, 0.92583, 0.944549, 0.94749, 0.901717, 0.902187, 0.903608, 0.903043, 0.916845, 1.06053, 1.13247, 1.13231, 0.940264, 0.944043, 0.986523, 0.950234, 0.994584, 0.954611, 0.997389, 1.01924, 1.19064, 1.18496, 0.933163, 1.16549, 1.16421, 1.02965, 0.913433, 0.909498, 0.909267, 0.908697, 0.908764, 0.911337, 0.904984, 0.899895, 0.900484, 0.912076, 0.918127, 0.920387, 1.03651, 0.915301, 0.915875, 0.926956, 0.907418, 0.907769, 0.908783, 0.911162, 0.894606, 0.887394, 0.886852, 0.887354, 0.885235, 0.886768, 0.886882, 0.886068, 0.884307, 0.885606, 0.886558, 0.887104, 0.891068, 0.890513, 0.890139, 0.918135, 0.882539, 0.877064, 0.878131, 0.879923, 0.888088, 0.890311, 0.89216, 0.893369, 0.889108, 0.887913, 0.889929, 0.888224, 0.888818, 0.893409, 0.894661, 0.896317, 0.89552, 0.892341, 0.894171, 1.01497, 0.90024, 0.901299, 0.90129, 0.901437, 0.901435, 0.905112, 0.90738, 0.909639, 1.14817, 0.959486, 1.16615, 0.887322, 0.889695, 0.935706, 0.936528, 0.932749, 0.935239, 0.933564, 0.930336, 0.925394, 0.926499, 0.928408, 0.930338, 0.932005, 0.935007, 0.93717, 0.938952, 0.939421, 0.941653, 0.942677, 0.943304, 0.950099, 0.952761, 0.954258, 0.95515, 0.95704, 0.958519, 0.96156, 0.964255, 0.967137, 0.960569, 0.957515, 0.965502, 0.967043, 0.967676
0.882132, 0.883547, 0.881974, 0.884153, 0.884745, 0.938811, 0.893315, 0.936114, 0.941037, 0.893613, 0.893318, 0.995214, 0.927834, 0.977458, 0.897926, 0.898873, 0.898184, 0.898305, 0.924806, 0.923985, 1.02824, 0.893421, 0.892205, 1.0403, 1.10901, 1.09083, 1.11144, 1.09345, 0.860585, 0.859044, 0.855604, 0.854242, 0.853397, 0.852703, 0.843035, 0.842096, 0.840326, 0.837377, 0.836309, 0.843483, 0.822377, 0.822241, 0.825931, 0.827883, 0.827741, 0.827104, 0.825891, 0.823172, 0.822, 0.822001, 0.83026, 0.8298, 0.821462, 0.821328, 0.820711, 0.822723, 0.822764, 0.820702, 0.819315, 0.81938, 0.819218, 0.818035, 0.814632, 0.813677, 0.812911, 0.813477, 0.814794, 0.815619, 0.815159, 0.814823, 0.818043, 0.815205, 0.815065, 0.81652, 0.81656, 0.816685, 0.817817, 0.824088, 0.824712, 0.82451, 0.825239, 0.827981, 0.828006, 0.828102, 0.828878, 0.828031, 0.821931, 0.824697, 0.824218, 0.825745, 0.826783, 0.83413, 0.833172, 0.886533, 0.963872, 0.96844, 1.07013, 0.831877, 0.831724, 0.831551, 0.833543, 0.834343, 0.832911, 0.829174, 0.831059, 0.830188, 0.832806, 0.833495, 0.834561, 0.844961, 0.844487, 0.833761, 0.834949, 0.837626, 0.833717, 0.835523, 0.832833, 0.838899, 0.839077, 0.842848, 0.842268, 0.842324, 0.843024, 0.842902, 0.844223, 0.846372, 1.18437, 1.06738, 0.854246, 1.12005, 0.860411, 0.861539, 0.864963, 0.868278, 0.868526, 0.869765, 0.869399, 0.870107, 0.880619, 0.880612, 0.986829, 0.994685, 0.909723, 0.93232, 0.924982, 0.945807, 0.947973, 0.901886, 0.901892, 0.900709, 1.03664, 1.03682, 0.92537, 0.928255, 0.928763, 1.19313, 0.933216, 0.984773, 0.944307, 0.943869, 0.991322, 1.03277, 1.03257, 1.05346, 1.07155, 0.934952, 0.935509, 0.91187, 0.910728, 0.911256, 0.911337, 0.908294, 0.908609, 1.11211, 1.09425, 0.906547, 0.90062, 0.900732, 1.1612, 0.918052, 0.918628, 0.927568, 0.931625, 0.922757, 0.921444, 0.911695, 0.910982, 0.91238, 0.913487, 1.03001, 0.88578, 0.885239, 0.884241, 0.884368, 0.886015, 0.886849, 0.886605, 0.886595, 0.886582, 0.886964, 0.88826, 0.888001, 0.890438, 0.89121, 0.915199, 0.88174, 0.88051, 0.879491, 0.879893, 0.885055, 0.891395, 0.892581, 0.893771, 0.887293, 0.88828, 0.889546, 0.889369, 0.893097, 0.895218, 0.896983, 0.898591, 0.894552, 0.89295, 0.893743, 1.01334, 1.14436, 0.900415, 0.901764, 0.904192, 0.901984, 0.901702, 0.906151, 0.908408, 0.9753, 1.17691, 0.925912, 0.887619, 1.17491, 1.09185, 0.932262, 1.13723, 0.932978, 1.21129, 0.928557, 0.928271, 0.926951, 0.928192, 0.931622, 0.93059, 0.93301, 0.934936, 0.937408, 0.93945, 0.941715, 0.941451, 0.946502, 0.946321, 0.95063, 0.953577, 0.955672, 0.955752, 0.95532, 0.956777, 0.956773, 0.959244, 0.962529, 0.964617, 0.967653, 0.967458, 0.968081
0.881971, 0.879202, 0.878431, 0.883771, 0.883597, 0.890821, 0.889237, 0.890205, 0.89377, 0.892877, 0.893632, 0.889246, 0.888806, 0.889138, 0.98373, 0.992489, 0.896197, 0.897857, 0.906301, 0.906979, 0.906354, 1.02934, 0.897936, 1.04602, 0.885901, 1.09218, 1.09416, 0.866703, 0.862914, 0.858166, 0.854455, 0.853239, 0.851886, 0.851358, 0.84306, 1.27747, 0.841021, 0.831919, 0.831993, 0.842452, 0.821985, 0.821968, 0.825507, 0.827706, 0.827318, 0.825049, 0.82842, 0.823246, 0.821863, 0.821786, 0.831631, 0.821351, 0.822996, 0.821326, 0.819327, 0.819447, 0.819854, 0.819423, 0.818694, 0.816279, 0.815188, 0.815067, 0.814439, 0.814764, 0.814082, 0.814124, 0.813623, 0.813506, 0.814554, 0.814092, 0.811641, 0.81521, 0.817472, 0.817953, 0.817633, 0.817742, 0.817735, 0.998404, 0.824431, 0.824569, 0.824773, 0.824293, 1.00406, 0.935682, 0.821126, 0.822122, 0.822455, 0.822562, 0.820488, 0.82458, 0.825655, 0.826244, 0.90191, 0.80967, 0.811002, 0.808738, 0.978848, 0.823198, 0.825538, 0.835557, 0.836527, 0.835081, 0.826538, 0.830126, 0.829405, 0.829885, 0.831501, 0.832663, 0.83275, 0.844055, 0.844574, 0.835002, 0.829881, 0.831848, 0.833519, 0.833994, 0.833465, 0.835252, 0.839477, 0.840619, 0.841523, 0.840271, 0.84265, 0.844752, 0.844825, 0.845319, 0.876354, 0.855942, 0.850416, 0.852503, 0.854948, 0.862254, 0.864219, 0.869221, 0.866929, 0.866593, 0.86666, 0.86712, 1.02655, 1.15504, 0.947366, 0.99895, 0.91092, 0.929182, 0.928631, 0.897603, 0.905062, 0.901569, 0.893275, 0.899091, 1.03651, 1.03599, 0.922381, 0.923793, 1.20118, 0.950216, 0.931028, 0.9336, 0.984399, 0.98261, 1.13319, 0.990233, 1.00925, 0.931892, 0.93241, 1.1669, 0.912025, 0.910953, 0.911515, 0.911237, 0.909104, 0.90623, 1.20462, 0.89261, 0.894576, 1.21537, 0.898282, 0.954235, 1.22934, 1.16382, 1.34662, 0.92895, 0.932186, 1.32165, 1.38075, 1.10234, 0.921879, 0.921269, 0.984009, 0.988654, 0.987979, 0.908637, 0.894398, 0.895506, 0.884887, 0.886834, 0.886401, 0.885849, 0.886538, 0.887549, 0.886812, 0.887709, 0.890376, 0.890218, 1.26459, 0.876808, 0.877259, 0.883293, 0.870811, 0.883907, 0.888294, 0.891236, 0.892932, 0.886656, 0.886773, 0.88915, 0.889334, 0.889496, 0.891135, 0.896798, 0.898779, 0.897486, 0.894716, 0.894269, 0.895242, 1.08809, 1.01486, 0.901493, 0.90458, 0.902437, 0.901277, 0.902788, 0.903057, 0.903796, 0.968012, 1.16471, 1.3629, 0.937355, 0.938605, 0.930059, 0.932735, 0.932847, 0.931909, 1.06148, 1.12229, 0.926401, 0.928775, 0.930162, 0.930571, 0.932775, 0.933812, 0.937416, 0.936785, 0.938764, 0.940808, 0.943413, 0.945541, 0.945915, 0.951509, 0.952104, 0.953414, 0.954395, 0.954727, 0.957833, 0.958423, 0.959632, 1.18114, 0.966991, 0.966806, 0.967888
0.878148, 0.876852, 0.87707, 0.876326, 0.883565, 0.883474, 0.887148, 0.887532, 0.934071, 0.89168, 0.891957, 0.89031, 0.89028, 0.892137, 0.894372, 0.894429, 0.894661, 0.894594, 0.907645, 0.906488, 0.905975, 0.901637, 0.90123, 1.04964, 1.06851, 1.09325, 0.870277, 0.870246, 1.13753, 0.85932, 0.85593, 0.85367, 0.850174, 0.849295, 0.844163, 0.842678, 0.838613, 0.833653, 0.833619, 0.833411, 0.820428, 0.827273, 0.828237, 0.828021, 0.828632, 0.82486, 0.828166, 0.828658, 0.824771, 0.824202, 0.833366, 0.833341, 0.824992, 0.818217, 0.818111, 0.819818, 0.821197, 0.81314, 0.813856, 0.814788, 0.816083, 0.815863, 0.814438, 0.814542, 0.813755, 0.813526, 0.814252, 0.813606, 0.814344, 0.812412, 0.814685, 0.815086, 0.817772, 0.817508, 0.81583, 0.815782, 0.817256, 0.820683, 0.82114, 0.822277, 0.822305, 0.823181, 0.819905, 0.817554, 0.817772, 0.821867, 0.822264, 0.822596, 0.822474, 0.825282, 0.82577, 0.824589, 0.822576, 0.811243, 0.811096, 0.98349, 0.821925, 0.823018, 0.828593, 0.828207, 0.838448, 0.823629, 0.828246, 0.828129, 0.825484, 0.831733, 0.831483, 0.832877, 0.834242, 0.834348, 0.834798, 0.828702, 0.8287, 0.828182, 0.830958, 0.831507, 0.832627, 0.836734, 0.838913, 0.840449, 0.837458, 0.837377, 0.837236, 0.83732, 0.840638, 0.840949, 0.845056, 0.845616, 0.845896, 0.85518, 0.857269, 0.858672, 0.862176, 0.865666, 0.865996, 0.866223, 0.866803, 0.868248, 0.86858, 1.02692, 0.888767, 0.891035, 1.01564, 1.01724, 1.01664, 0.895213, 0.893701, 0.887239, 0.893786, 0.894033, 0.947386, 1.03614, 0.915835, 0.922706, 1.28571, 0.926501, 0.928219, 0.926514, 0.984329, 0.98501, 0.994872, 0.991858, 1.05481, 0.928094, 0.926578, 1.15382, 0.915008, 0.910305, 0.91397, 0.909762, 0.908802, 1.20182, 0.902155, 0.892509, 0.893977, 0.894215, 0.893775, 0.893313, 1.18791, 1.28504, 1.2887, 0.929793, 0.933165, 0.936344, 1.40671, 1.30905, 0.924465, 0.926001, 1.39839, 1.01166, 0.974636, 0.905246, 0.943915, 1.16538, 0.908692, 0.885519, 0.886031, 0.885885, 0.887053, 0.886772, 0.887048, 0.888386, 0.88958, 0.890196, 0.888851, 0.958615, 0.877616, 0.880462, 0.882843, 0.883901, 0.885268, 0.890627, 0.891199, 0.883966, 0.8827, 0.883711, 0.88739, 0.890231, 0.891387, 0.892873, 0.893902, 0.895774, 0.896295, 0.896529, 0.892863, 0.894107, 0.912411, 0.900988, 0.902138, 0.902881, 0.900905, 0.90244, 0.904733, 0.902788, 0.918678, 0.922223, 0.92888, 0.95998, 0.939298, 0.932186, 0.92637, 1.05684, 1.06299, 1.06471, 1.06742, 0.926829, 0.92954, 0.929605, 0.930203, 0.931949, 0.934635, 0.934169, 0.937984, 0.940181, 0.939969, 0.943826, 0.946763, 0.948397, 0.948972, 0.951849, 0.951054, 0.952153, 0.953168, 0.958122, 0.956582, 0.953844, 0.986319, 0.966654, 0.969138, 0.962955
0.87504, 0.873658, 0.873631, 0.877066, 0.881364, 0.881801, 0.882307, 0.96354, 0.885179, 0.890252, 0.891352, 0.887594, 0.886958, 0.893885, 0.894196, 0.894166, 0.893223, 0.895088, 0.973962, 0.906431, 0.906205, 0.905704, 1.00191, 0.894112, 0.893092, 1.09309, 0.876984, 1.11592, 0.887416, 0.858904, 0.856438, 0.854641, 0.852231, 0.846771, 0.846014, 0.840586, 0.837126, 0.834638, 0.834006, 0.829241, 0.828574, 0.828089, 0.827976, 0.829586, 0.829589, 0.827387, 0.829766, 0.828192, 0.824787, 0.823936, 0.832137, 0.83249, 0.822023, 0.818603, 0.818982, 0.818802, 0.818415, 0.818325, 0.816634, 0.816024, 0.815025, 0.814915, 0.812701, 0.812045, 0.81111, 0.812548, 0.81209, 0.813276, 0.811804, 0.811571, 0.811912, 0.811685, 0.811673, 0.814145, 0.813558, 0.809584, 0.810025, 0.818225, 0.81687, 0.821591, 0.821213, 0.821004, 0.816396, 0.818174, 0.817802, 0.817919, 0.818375, 0.819768, 0.819153, 0.819244, 0.825023, 0.824262, 0.824029, 0.823067, 0.819951, 0.821759, 0.82056, 0.820811, 0.828633, 0.828436, 0.827924, 0.825307, 0.828632, 0.829239, 0.828294, 0.831048, 0.833355, 0.832336, 0.835023, 0.834485, 0.835429, 0.835853, 0.825675, 0.830093, 0.829594, 0.832335, 0.83487, 0.835098, 0.839622, 0.83877, 0.835714, 0.838279, 0.837298, 0.837393, 0.838124, 0.840353, 0.840916, 0.849006, 0.853838, 0.855708, 0.857502, 0.857871, 0.859897, 0.863217, 0.864883, 0.865966, 0.865125, 0.867441, 0.865799, 0.867448, 0.888686, 1.00683, 1.01802, 1.01947, 0.928793, 0.93572, 0.886994, 0.886941, 0.886718, 0.889386, 0.950437, 0.91387, 0.913989, 0.915288, 0.920887, 1.17383, 0.925245, 0.926182, 0.926459, 0.930164, 0.930847, 0.93259, 0.927319, 0.928226, 1.08266, 0.917251, 0.916708, 0.915862, 0.91668, 0.91968, 0.921167, 0.908452, 0.901649, 0.896531, 0.895025, 0.887621, 0.892576, 0.891211, 1.10131, 0.971757, 1.17767, 1.30336, 1.2096, 0.939413, 0.940986, 0.940483, 0.931235, 0.928405, 0.985887, 1.39615, 1.45808, 1.04856, 0.907965, 0.961459, 0.906719, 0.883755, 0.884142, 0.8845, 0.884637, 0.885302, 0.884397, 0.8891, 0.888052, 0.888829, 0.890232, 0.958869, 1.01152, 0.898646, 0.882715, 0.884168, 0.883472, 0.892345, 0.891565, 0.900969, 0.890265, 0.88659, 0.887047, 0.888344, 0.890406, 0.89177, 0.896525, 0.897172, 0.898525, 0.899061, 0.900316, 0.896546, 0.897377, 0.900911, 0.903321, 0.903117, 0.903058, 0.903166, 0.904315, 0.905016, 0.905858, 0.931873, 1.17699, 0.936399, 1.06772, 1.06461, 0.933244, 1.14024, 0.92032, 0.921327, 0.923277, 0.926151, 0.93198, 0.929579, 0.930408, 0.930164, 0.932206, 0.933558, 0.936688, 0.939756, 0.942003, 0.943404, 0.948244, 0.948515, 0.951008, 0.951827, 0.952971, 0.952283, 0.954007, 0.955545, 0.955614, 0.953762, 0.954288, 0.956403, 0.959044, 0.960441
0.871135, 0.872584, 0.876309, 0.874679, 0.875248, 0.875071, 0.880136, 0.877362, 0.877235, 0.894428, 0.894798, 0.888697, 0.888488, 0.893061, 0.892907, 0.892944, 0.892546, 0.893541, 0.975151, 0.906612, 0.907395, 1.02162, 1.02008, 1.01116, 1.04094, 1.06706, 0.873216, 1.09498, 1.03888, 0.858162, 0.856631, 0.854884, 0.849018, 0.848966, 0.8457, 0.835423, 0.836232, 0.835904, 0.833464, 0.831323, 0.829825, 0.828391, 0.827893, 0.825323, 0.82147, 0.820479, 0.820413, 0.827039, 0.826, 0.825006, 0.825186, 0.881041, 0.880761, 0.903706, 0.818236, 0.817837, 0.818042, 0.81886, 0.819214, 0.817836, 0.815307, 0.814253, 0.812041, 0.810636, 0.81078, 0.80854, 0.80821, 0.812408, 0.812597, 0.811494, 0.811239, 0.811853, 0.812664, 0.814142, 0.813405, 0.809057, 0.809207, 0.815506, 0.816632, 0.817581, 0.817674, 0.817062, 0.815066, 0.817742, 0.81686, 0.816538, 0.821342, 0.820426, 0.819778, 0.819767, 0.821302, 0.823513, 0.823305, 0.823483, 0.820774, 0.820946, 0.821772, 0.822772, 0.825644, 0.82854, 0.829138, 0.826729, 0.826494, 0.827339, 0.830321, 0.832134, 0.83507, 0.83046, 0.828806, 0.827891, 0.832832, 0.825794, 0.826026, 0.825922, 0.830204, 0.831937, 0.834445, 0.836186, 0.838626, 0.839579, 0.838926, 0.83768, 0.839378, 0.839374, 0.839464, 0.839105, 0.843056, 0.847323, 0.850605, 0.854939, 0.859514, 0.858712, 0.860059, 0.86133, 0.866247, 0.866877, 0.863682, 0.866317, 0.868296, 0.868336, 0.967161, 1.02324, 1.02279, 0.925364, 0.934656, 0.9401, 0.888939, 0.888954, 0.888497, 0.888796, 0.94788, 0.991412, 0.909551, 0.91551, 1.02442, 0.92251, 0.922948, 0.925428, 0.925151, 0.925997, 0.930674, 0.932317, 0.928026, 0.928, 0.923745, 0.915911, 0.91681, 0.918301, 0.916316, 0.919162, 0.920005, 1.0046, 1.20421, 0.983822, 1.11136, 1.1119, 0.894173, 0.894767, 1.16029, 1.18428, 1.19202, 1.18078, 1.18426, 1.24596, 0.942086, 0.941811, 0.933316, 0.947338, 1.40003, 0.95296, 0.953273, 0.954693, 0.911931, 0.912742, 0.909174, 0.912069, 1.05043, 0.884554, 0.884081, 0.882218, 0.88456, 0.884992, 0.888625, 0.889938, 0.887611, 0.887374, 0.902048, 0.902028, 0.882843, 0.883501, 0.884206, 0.891596, 0.923599, 0.00407414, 0.990637, 0.887021, 0.886778, 0.887156, 0.890935, 0.891961, 0.89399, 0.89604, 0.898039, 0.899617, 0.900883, 0.899467, 0.898475, 0.900191, 0.900427, 0.898214, 0.901628, 0.901172, 0.903673, 0.905127, 0.90605, 0.908294, 0.921923, 1.18543, 1.16783, 0.952643, 0.920527, 0.921519, 0.922404, 0.922064, 0.923639, 0.925291, 0.928158, 0.930348, 0.931982, 0.930608, 0.932964, 0.932501, 0.936101, 0.940973, 0.94043, 0.943812, 0.946005, 0.948426, 0.949937, 0.950678, 0.951494, 0.950556, 0.951911, 0.950941, 0.952347, 0.954398, 0.956374, 0.956658, 0.956493, 0.96177
0.872719, 0.872138, 0.871784, 0.872872, 0.876733, 0.876805, 0.877621, 0.877286, 0.876982, 0.880982, 0.922995, 0.883569, 0.883596, 0.889196, 0.894408, 0.887008, 0.885754, 0.991177, 0.990793, 0.905547, 0.991614, 0.994568, 0.895027, 1.04409, 1.06403, 0.969337, 1.09949, 0.86286, 0.862509, 0.855008, 0.855549, 0.849041, 0.848893, 0.845909, 0.843194, 0.838328, 0.836537, 0.836191, 0.834901, 0.831531, 0.828967, 0.826914, 0.82399, 0.821642, 0.821696, 0.820067, 0.820185, 0.821243, 0.825368, 0.826005, 0.883637, 0.836245, 0.836415, 0.836354, 1.00782, 0.818463, 0.817901, 0.81772, 0.817742, 0.817733, 0.816215, 0.815943, 0.812832, 0.811941, 0.811158, 0.810719, 0.808612, 0.809276, 0.812111, 0.811802, 0.811874, 0.810833, 0.811277, 0.813121, 0.813214, 0.812169, 0.812142, 0.812617, 0.814997, 0.815718, 0.816349, 0.817605, 0.81619, 0.815519, 0.814558, 0.815942, 0.816317, 0.820925, 0.819716, 0.820908, 0.822721, 0.823668, 0.823696, 0.82343, 0.822969, 0.821504, 0.821221, 0.824329, 0.823836, 0.825873, 0.825755, 0.826459, 0.82475, 0.823931, 0.836189, 0.835582, 0.835631, 0.833463, 0.825011, 0.825303, 0.829024, 0.82822, 0.827371, 0.830205, 0.831533, 0.83095, 0.832259, 0.835708, 0.835734, 0.841267, 0.84101, 0.840833, 0.84156, 0.842254, 0.838942, 0.841047, 0.84173, 0.845194, 0.847001, 0.850277, 0.856177, 0.859808, 0.858422, 0.860467, 0.866873, 0.869234, 0.866643, 0.86594, 0.86697, 0.867077, 0.871332, 0.872857, 0.89886, 1.0185, 1.00328, 0.934634, 0.88395, 0.884258, 0.889058, 0.890819, 0.89481, 0.959356, 0.908494, 0.915943, 0.916717, 1.26341, 0.922241, 0.922971, 0.926153, 0.929, 0.930748, 0.931978, 0.926804, 0.92562, 0.925243, 0.915281, 0.915445, 0.914508, 0.914233, 0.919298, 1.03183, 1.04225, 0.929303, 1.16841, 0.984825, 1.17301, 0.896209, 0.895863, 1.21881, 1.18037, 0.917134, 1.2582, 1.25985, 0.939165, 1.01888, 1.01155, 0.998484, 1.30517, 1.12989, 1.01925, 0.954496, 0.954904, 0.91327, 0.914938, 0.919448, 0.918043, 1.05117, 0.882695, 0.883655, 0.883779, 0.88619, 0.885854, 0.888534, 0.888045, 0.888081, 0.887843, 0.900845, 0.902675, 0.882526, 0.886345, 0.88456, 0.883015, 0.961655, 0.925884, 0.999371, 0.996278, 0.885858, 0.885953, 0.888461, 0.890975, 0.89401, 0.896341, 0.89744, 0.89795, 0.900527, 0.899779, 0.898533, 0.898421, 0.900515, 0.899893, 0.899838, 0.902401, 0.905344, 0.905197, 0.907232, 0.907705, 0.910322, 0.912642, 0.914979, 0.918471, 0.92023, 0.923345, 0.926678, 0.922038, 0.923889, 0.923982, 0.927376, 0.929365, 0.930997, 0.93188, 0.931934, 0.933003, 0.933399, 0.936246, 0.942549, 0.945923, 0.946338, 0.945777, 0.946933, 0.948121, 0.949542, 0.951729, 0.949953, 0.949049, 0.969909, 0.953523, 0.956744, 0.958691, 0.960359, 0.9619
0.868627, 0.896312, 0.867538, 0.873196, 0.870063, 0.872933, 0.877039, 0.875862, 0.875802, 0.874243, 0.875768, 0.883285, 0.884472, 0.949682, 0.947873, 0.971242, 0.884072, 0.991231, 0.991203, 0.988846, 0.89786, 0.897619, 0.922902, 1.0379, 1.0671, 0.865957, 0.864903, 0.864021, 0.860631, 0.856082, 0.854436, 0.852008, 0.84893, 0.845347, 0.844813, 0.841877, 0.839163, 0.836067, 0.835823, 0.834535, 0.830279, 0.828501, 0.825186, 0.822797, 0.819694, 0.820753, 0.821647, 0.821141, 0.824724, 0.823479, 0.836187, 0.836707, 0.837059, 0.836884, 1.0087, 0.816754, 0.819864, 0.816094, 0.816517, 0.817776, 0.814616, 0.814477, 0.813333, 0.814009, 0.811985, 0.810106, 0.809275, 0.808506, 0.81179, 0.81445, 0.811342, 0.811724, 0.810885, 0.81301, 0.813275, 0.81232, 0.812379, 0.81401, 0.811957, 0.813118, 0.809004, 0.815862, 0.816708, 0.817528, 0.81555, 0.815696, 0.815278, 0.816615, 0.817769, 0.820219, 0.82118, 0.822242, 0.829906, 0.826789, 0.820196, 0.820336, 0.820549, 0.821567, 0.824691, 0.828318, 0.828628, 0.818733, 0.920986, 0.921255, 0.83842, 0.837898, 0.837512, 0.846289, 0.825505, 0.827389, 0.828081, 0.826504, 0.825618, 0.830163, 0.8305, 0.829083, 0.828966, 0.830409, 0.834667, 0.840964, 0.842879, 0.843909, 0.844621, 0.844564, 0.843701, 0.841627, 0.84292, 0.845535, 0.846967, 0.853319, 0.852227, 0.853703, 0.858441, 0.86197, 0.863329, 0.869909, 0.869398, 0.87013, 0.869116, 0.869203, 0.876554, 0.874171, 1.02581, 1.04219, 0.932833, 0.884013, 0.879939, 0.878821, 0.878704, 0.892272, 0.893989, 0.927903, 0.963652, 0.93214, 1.26396, 0.921752, 0.922019, 0.924137, 0.925789, 0.928167, 0.932563, 0.986175, 1.15108, 1.15068, 1.04685, 0.914353, 0.916243, 0.91459, 0.910866, 0.910903, 1.11514, 1.11532, 1.12742, 0.933914, 0.934648, 1.14965, 0.8921, 0.891342, 0.932535, 1.22674, 1.25816, 1.35088, 1.48559, 1.0005, 1.02471, 1.02684, 0.889199, 1.13302, 0.89716, 1.0368, 0.985331, 1.41393, 0.913977, 0.918383, 0.919707, 0.920128, 1.03717, 0.884605, 0.883477, 0.883597, 0.8866, 0.887582, 0.885487, 0.884834, 0.885907, 1.04267, 0.902157, 0.902376, 0.884621, 0.884001, 0.881291, 0.88211, 1.04616, 1.06046, 0.918902, 0.91233, 0.953924, 0.8867, 0.887786, 0.88968, 0.892052, 0.894827, 0.896155, 0.898859, 0.89922, 0.899897, 0.899592, 0.898697, 0.900516, 0.901848, 0.902669, 0.902811, 0.904652, 0.905, 0.906041, 0.91062, 0.911395, 0.912661, 0.91843, 0.918649, 0.921401, 0.925874, 0.92668, 0.928246, 0.924427, 0.925366, 0.925746, 0.92975, 0.931373, 0.931391, 0.929696, 0.933096, 0.935178, 0.93868, 0.941788, 0.942378, 0.944128, 0.945803, 0.94853, 0.949721, 0.950309, 0.952797, 0.953343, 0.953432, 0.952597, 0.959306, 0.959523, 0.960163, 0.960836, 0.962805
0.880376, 0.88006, 0.86954, 0.867853, 0.86946, 0.867093, 0.870854, 0.872231, 0.87305, 0.872305, 0.872234, 0.934788, 0.949059, 0.949633, 0.949555, 0.973319, 0.878709, 0.964514, 0.986141, 0.985747, 0.947086, 0.929537, 0.928217, 0.92803, 1.06439, 0.868218, 0.865087, 0.863186, 0.862656, 0.854958, 0.855379, 0.854443, 0.845417, 0.845685, 0.844833, 1.2254, 0.835976, 0.837344, 0.837356, 0.836288, 0.835573, 0.835386, 0.977274, 0.822252, 0.821796, 0.821355, 0.82133, 0.820125, 0.816858, 0.821679, 0.821609, 0.837388, 0.838311, 0.837507, 0.837467, 0.916986, 0.815528, 0.81728, 0.814698, 0.816174, 0.814292, 0.811063, 0.811194, 0.812264, 0.811904, 0.811761, 0.810862, 0.809744, 0.809032, 0.809714, 0.810545, 0.810295, 0.810731, 0.813679, 0.813491, 0.812445, 0.814072, 0.812147, 0.81193, 0.812422, 0.812257, 0.814448, 0.814652, 0.818246, 0.814202, 0.815007, 0.817003, 0.817533, 0.81863, 0.818328, 0.821461, 0.821859, 0.830311, 0.832046, 0.827945, 0.819594, 0.820111, 0.81677, 0.816976, 0.816587, 0.944379, 0.816129, 0.816861, 0.921701, 0.83929, 0.841328, 0.84124, 0.84334, 0.841568, 0.826816, 0.827814, 0.826091, 0.826523, 0.825215, 0.82881, 0.828337, 0.828093, 0.827877, 0.830896, 0.839685, 0.842512, 0.844016, 0.845657, 0.845633, 0.845671, 0.841834, 0.8423, 0.842885, 0.845748, 0.850036, 0.851476, 0.856249, 0.858406, 0.862909, 0.863863, 0.869405, 0.872899, 0.873301, 0.872701, 0.872852, 0.872962, 0.87515, 1.42336, 1.04457, 0.922363, 0.8799, 0.879638, 0.88179, 0.88644, 0.88611, 0.96334, 0.964816, 1.47443, 1.06804, 1.06884, 1.03184, 0.922821, 0.923322, 0.924731, 0.928229, 0.932214, 0.932655, 0.93902, 0.939784, 1.0032, 1.03829, 1.06531, 0.909147, 0.909367, 0.909969, 0.911096, 1.12891, 1.13094, 0.933977, 0.935023, 0.935838, 1.19843, 0.893664, 0.896348, 1.19916, 0.975972, 0.997877, 1.03287, 1.01283, 1.03307, 1.33089, 0.889286, 0.891144, 0.890904, 0.892463, 0.894209, 0.894998, 0.942293, 0.918496, 0.918585, 0.923529, 0.885769, 0.886652, 0.882839, 0.883431, 0.884482, 0.884855, 0.886071, 0.884906, 0.885711, 0.896059, 0.894192, 1.0453, 1.01069, 0.882827, 0.883223, 0.88342, 0.883464, 1.10583, 0.915178, 0.916119, 0.919274, 0.888181, 0.890439, 0.890309, 0.892567, 0.895615, 0.897479, 0.895072, 0.896433, 0.898653, 0.900348, 0.901273, 0.903029, 0.902192, 0.903741, 0.902162, 0.903657, 0.904342, 0.905376, 0.908281, 0.908985, 0.912593, 0.91531, 0.917091, 0.920892, 0.921515, 0.924223, 0.928226, 0.925778, 0.92465, 0.92618, 0.928283, 0.933797, 0.934984, 0.935025, 0.93219, 0.933334, 0.935112, 1.05814, 0.942293, 0.944686, 0.945846, 0.946968, 0.94794, 0.9493, 0.952136, 0.95305, 0.954236, 0.956338, 0.957292, 0.958451, 0.961865, 0.962148, 0.962612
0.887312, 0.885362, 0.87035, 0.866353, 0.865635, 0.867584, 0.867759, 0.87009, 0.870993, 0.872956, 0.871508, 0.907892, 0.877182, 0.930919, 0.957422, 0.874039, 0.880992, 0.881632, 0.918591, 0.991461, 0.994614, 0.992109, 0.994634, 1.02557, 1.03138, 0.863757, 0.866375, 0.863663, 0.862305, 0.860605, 0.854454, 0.853351, 0.844512, 0.84368, 0.844011, 0.840925, 0.83592, 0.834997, 0.835416, 0.834759, 0.833497, 0.829723, 0.828591, 0.827019, 0.826408, 0.825563, 0.821788, 0.819368, 0.818739, 0.821578, 0.818467, 0.838017, 0.838562, 0.837081, 0.836437, 0.933009, 0.815402, 0.814602, 0.814232, 0.81374, 0.813389, 0.811088, 0.811054, 0.81105, 0.810643, 0.812041, 0.810958, 0.810777, 0.809454, 0.810745, 0.809596, 0.810853, 0.81082, 0.812945, 0.812852, 0.811799, 0.812496, 0.811033, 0.811124, 0.815495, 0.815539, 0.815376, 0.813456, 0.814433, 0.816049, 0.814907, 0.817557, 0.819264, 0.819677, 0.819878, 0.820954, 0.821276, 0.821203, 0.821628, 0.818846, 0.818929, 0.819368, 0.816436, 0.817511, 0.818253, 0.810766, 0.811591, 0.818008, 0.939537, 1.01971, 0.840951, 0.845727, 0.845974, 0.912565, 0.874422, 0.959747, 0.895473, 0.836691, 0.824612, 0.825194, 0.827625, 0.826666, 0.828126, 0.832801, 0.83455, 0.844626, 0.843906, 0.846286, 0.840077, 0.845352, 0.845091, 0.843531, 0.845415, 0.847382, 0.848703, 0.850985, 0.856319, 0.857904, 0.866116, 0.867413, 0.870267, 0.873668, 0.877017, 0.878549, 0.876814, 0.87619, 0.876929, 1.04102, 0.970593, 0.880812, 0.880687, 0.876397, 0.878167, 0.882468, 0.883944, 0.886754, 0.888768, 0.973809, 0.974477, 0.99419, 0.928985, 0.922017, 0.92069, 0.924713, 0.930817, 0.932528, 0.936643, 0.938466, 0.939093, 0.939555, 1.04283, 1.04257, 1.05352, 0.911296, 0.911135, 0.91059, 1.11171, 1.10776, 0.933954, 0.935409, 1.14978, 0.891233, 0.891625, 0.891995, 0.883437, 0.828732, 0.829154, 1.00934, 1.01245, 1.01345, 1.33748, 1.0189, 0.889987, 0.892983, 0.895634, 0.895131, 0.870955, 0.871644, 0.928418, 0.98388, 1.4976, 1.02427, 0.882473, 0.882852, 0.883105, 0.881933, 0.882993, 0.883883, 0.883758, 0.884104, 0.88896, 0.9939, 0.876099, 0.874138, 0.878814, 0.881395, 0.884256, 1.05109, 1.04982, 0.914957, 0.916626, 0.916812, 0.901705, 0.887841, 0.889975, 0.891112, 0.895092, 0.897515, 0.895267, 0.895645, 0.899031, 0.89954, 0.900878, 0.901429, 0.90456, 0.903003, 0.90433, 0.90559, 1.0042, 0.907997, 0.908747, 0.910282, 0.911094, 0.913422, 0.915456, 0.918811, 0.92255, 0.923446, 0.925119, 0.927734, 0.925662, 0.928053, 0.927664, 0.930449, 0.934708, 0.935019, 0.93185, 0.932509, 1.05929, 1.06018, 1.05968, 0.944237, 0.946456, 0.946857, 0.946185, 0.946454, 0.948692, 0.953252, 0.952581, 0.952363, 0.955535, 0.957338, 0.95911, 0.960899, 0.961863
0.895527, 0.861854, 0.861843, 0.862605, 0.863705, 0.864534, 0.866106, 0.868274, 0.868083, 0.869724, 0.869769, 0.862648, 0.862299, 0.863431, 0.904636, 0.875988, 0.874279, 0.976992, 0.889021, 0.889246, 0.889268, 0.887115, 0.988179, 0.871148, 1.02928, 1.04263, 0.972604, 0.859291, 0.858812, 0.86241, 0.861437, 0.860122, 0.845313, 0.844898, 0.842558, 0.838069, 0.835436, 0.834014, 0.8335, 0.829041, 0.827998, 0.826815, 0.828204, 0.826726, 0.826481, 0.82634, 0.824161, 0.820113, 0.817984, 0.81741, 0.817017, 0.995283, 0.826928, 0.835376, 0.835381, 0.835701, 0.818318, 0.813764, 0.813806, 0.813386, 0.814248, 0.811069, 0.810856, 0.809175, 0.809228, 0.809546, 0.810751, 0.80942, 0.806618, 0.806331, 0.806554, 0.81087, 0.810878, 0.812387, 0.814528, 0.814902, 0.812584, 0.811477, 0.811718, 0.81553, 0.816686, 0.817418, 0.814614, 0.812231, 0.812751, 0.814389, 0.815071, 0.820173, 0.820981, 0.821306, 0.819602, 0.818907, 0.821423, 0.818225, 0.819532, 0.817955, 0.81852, 0.818045, 0.816707, 0.812913, 0.812016, 0.813739, 0.814176, 0.814196, 0.971953, 0.848664, 0.847771, 0.854209, 0.867914, 0.898712, 0.894491, 0.894652, 0.830889, 0.824471, 0.82241, 0.824631, 0.827947, 0.828185, 0.829625, 0.833637, 0.835661, 0.839649, 0.840751, 0.842192, 0.846591, 0.844535, 0.84441, 0.845637, 0.845846, 0.849944, 0.849941, 0.850581, 0.862343, 0.870303, 0.866642, 0.872936, 0.875735, 0.883242, 0.882808, 0.879878, 0.875744, 0.883913, 0.884166, 0.885638, 0.888481, 0.941642, 0.873107, 0.878269, 0.88059, 0.880639, 0.880509, 0.882197, 0.977646, 0.978402, 0.966873, 0.968008, 0.911868, 1.1486, 1.14886, 0.92661, 0.929973, 0.982021, 0.940355, 0.9402, 0.939502, 1.05611, 1.0344, 0.911185, 0.911513, 0.910956, 0.909773, 0.910761, 1.04885, 1.04681, 1.15036, 0.922861, 1.12186, 0.891102, 0.892277, 0.882106, 0.830358, 0.809258, 0.809714, 1.31912, 1.33248, 1.33239, 1.01684, 0.891274, 1.41243, 1.40966, 1.41243, 0.873045, 0.872482, 0.870503, 0.970248, 0.977937, 1.0081, 0.882318, 0.881489, 0.880892, 0.880922, 0.883277, 0.880748, 0.881471, 0.881298, 0.883631, 0.885011, 0.875982, 0.873509, 0.880186, 0.880613, 0.885182, 0.888459, 1.04462, 0.983985, 0.917656, 1.02096, 0.90858, 0.888646, 0.891604, 0.892047, 0.890673, 0.895176, 0.89686, 0.897636, 0.89768, 0.900243, 0.90086, 0.902848, 0.902701, 0.906714, 0.906741, 0.906407, 0.912727, 0.9135, 0.915305, 0.912132, 0.913124, 0.913257, 0.914773, 0.918178, 0.9201, 0.922698, 0.924761, 0.92383, 0.924638, 0.925091, 0.925633, 0.931893, 0.933453, 0.934249, 0.931846, 0.931893, 1.05627, 0.952644, 1.07734, 0.944827, 0.945327, 0.946768, 0.946582, 0.946256, 0.948719, 0.950144, 0.951863, 0.952136, 0.957912, 0.958845, 0.959392, 0.95957, 0.958167
0.860423, 0.860014, 0.862064, 0.860569, 0.861485, 0.862248, 0.862506, 0.861273, 0.86651, 0.864629, 0.8655, 0.863749, 0.862579, 0.862657, 0.856648, 0.868797, 0.880497, 0.879499, 0.970372, 0.890631, 0.88931, 0.995236, 0.871015, 0.870775, 1.04322, 0.855839, 0.855816, 0.856243, 0.862791, 0.862617, 0.862707, 0.861911, 0.845409, 0.845613, 0.842605, 0.837584, 0.836435, 0.833193, 0.831511, 0.82836, 0.826869, 0.828005, 0.824893, 0.825873, 0.828226, 0.825475, 0.821962, 0.820943, 0.818877, 0.815872, 0.815562, 0.817464, 0.828988, 0.835754, 0.837791, 0.837076, 0.820978, 0.814603, 0.812972, 0.813095, 0.813491, 0.80999, 0.810293, 0.810448, 0.809179, 0.809368, 0.80835, 0.808622, 0.807421, 0.807433, 0.807252, 0.806224, 0.807698, 0.813674, 0.815006, 0.811068, 0.811268, 0.812176, 0.812896, 0.814798, 0.818207, 0.817684, 0.811974, 0.811681, 0.811785, 0.813962, 0.814574, 0.815176, 0.819571, 0.821635, 0.819431, 0.817926, 0.817934, 0.818779, 0.818156, 0.818432, 0.818481, 0.817411, 0.818197, 0.813835, 0.814107, 0.814167, 0.813991, 0.813153, 0.973397, 0.973344, 1.08838, 0.900956, 0.885499, 0.816918, 0.82808, 0.90164, 0.904654, 0.904813, 0.823304, 0.8225, 0.829945, 0.828423, 0.830501, 0.830688, 0.839309, 0.840594, 0.841636, 0.838734, 0.84553, 0.845443, 0.845781, 0.847877, 0.848793, 0.850557, 0.850201, 0.863058, 0.864067, 0.870092, 0.869894, 0.870408, 0.880094, 0.883894, 0.883671, 0.883742, 0.935027, 0.883285, 0.884307, 0.88411, 0.869533, 0.869957, 0.873305, 0.870053, 0.940117, 0.94093, 0.877121, 0.913664, 0.980136, 0.97987, 0.966904, 0.929669, 0.957967, 1.03596, 1.12627, 0.947434, 0.930515, 1.0386, 0.938927, 0.939526, 1.01041, 0.936156, 0.936597, 1.06652, 0.913019, 0.912087, 0.911172, 0.907766, 0.906723, 1.04654, 1.13671, 0.905649, 1.09634, 0.890945, 0.891113, 0.88889, 0.984063, 0.811713, 0.809451, 0.808978, 0.810692, 1.32708, 1.30816, 0.890641, 0.860442, 0.860388, 0.867832, 0.869312, 0.864106, 0.86303, 0.856962, 0.850372, 0.850525, 1.00599, 0.897944, 0.879972, 0.880031, 0.876783, 0.879662, 0.880062, 0.88109, 0.884359, 0.875499, 0.876561, 0.873839, 0.874247, 0.885557, 0.887434, 0.890513, 0.891627, 0.895119, 0.923036, 0.922066, 1.11551, 0.893952, 0.894846, 0.894107, 0.894405, 0.895589, 0.896727, 0.896707, 0.897481, 0.899727, 0.907596, 0.902715, 0.904011, 0.903374, 0.906772, 0.905134, 0.911977, 0.913568, 0.91794, 0.917979, 0.918446, 0.91476, 0.916733, 0.916077, 0.916107, 0.920626, 0.921878, 0.924819, 0.92368, 0.924886, 0.922461, 0.928265, 0.930811, 0.931882, 0.931664, 0.932081, 1.17461, 1.30531, 1.19219, 1.1299, 0.944611, 0.945598, 0.945453, 0.946782, 0.948259, 0.949718, 0.950707, 0.952036, 0.953781, 0.959144, 0.95894, 0.958668, 0.960613
0.861413, 0.862874, 0.861114, 0.859787, 0.859353, 0.859271, 0.85775, 0.859061, 0.860927, 0.860583, 0.863032, 0.865557, 0.864668, 0.863898, 0.866687, 0.866768, 0.870094, 0.880105, 0.966383, 0.890162, 0.884488, 0.883021, 0.872368, 0.872317, 1.04396, 0.857692, 0.855546, 0.851802, 1.05037, 0.864451, 0.862849, 0.862439, 0.845156, 0.844459, 0.841518, 0.839117, 0.836316, 0.832218, 0.82936, 0.827874, 0.823096, 0.822883, 0.82489, 0.824549, 0.826896, 0.824064, 0.82223, 0.815772, 0.81613, 0.814746, 0.815813, 0.814223, 0.981227, 0.83704, 0.838288, 0.838315, 0.949978, 0.814732, 0.814189, 0.814178, 0.812751, 0.811324, 0.81075, 0.812901, 0.812949, 0.811397, 0.808572, 0.809199, 0.808072, 0.806659, 0.805291, 0.804257, 0.808532, 0.808002, 0.812254, 0.812852, 0.811523, 0.811252, 0.814621, 0.81424, 0.814272, 0.814485, 0.811546, 0.810839, 0.812118, 0.814388, 0.815171, 0.814501, 0.815604, 0.827448, 0.824973, 0.823439, 0.823678, 0.822096, 0.819028, 0.818603, 0.818955, 0.817791, 0.817692, 0.81281, 0.814281, 0.812404, 0.81274, 0.811229, 1.11855, 0.921403, 0.910605, 0.963802, 0.961746, 0.807916, 0.807043, 0.807956, 0.908063, 0.904942, 0.819993, 0.819633, 0.830336, 0.831016, 0.831083, 0.830221, 0.830502, 0.839917, 0.839745, 0.839322, 0.839121, 0.846102, 0.847348, 0.852201, 0.858104, 0.863366, 0.863411, 0.864682, 0.864057, 0.870002, 0.869917, 0.870732, 0.881617, 0.882751, 0.897626, 0.862603, 0.863166, 0.862317, 0.884864, 0.885929, 0.863249, 0.864621, 0.865476, 0.86795, 0.872966, 0.871872, 0.942133, 0.96651, 0.880067, 1.01478, 1.08168, 1.30945, 1.30288, 1.02933, 0.947266, 0.946773, 0.95428, 0.92868, 0.92902, 0.929612, 0.930116, 0.935638, 0.935619, 0.936273, 1.08539, 0.912827, 0.910562, 0.911468, 0.905735, 0.905538, 0.905016, 0.905358, 0.897115, 0.890578, 0.895621, 0.885201, 0.883658, 1.3076, 0.808395, 0.808398, 0.807317, 0.807906, 0.859547, 0.855125, 0.862689, 0.862311, 0.869524, 0.869442, 0.864605, 0.86287, 0.859235, 0.850825, 0.852631, 0.852303, 0.864885, 0.865926, 0.876453, 0.876784, 0.880391, 0.880259, 0.883233, 0.888745, 0.891633, 0.88987, 0.889549, 1.00555, 1.00177, 0.939756, 0.890788, 0.89494, 0.906149, 0.911058, 0.924615, 0.923484, 1.03557, 0.894934, 0.893919, 0.894539, 0.891824, 0.89553, 0.897276, 0.899274, 0.901598, 0.91186, 0.904543, 0.904386, 0.90431, 0.900758, 0.904779, 0.906231, 0.913976, 0.915997, 0.914944, 0.915618, 0.922314, 0.915236, 0.916806, 0.91828, 0.919888, 0.921122, 0.921636, 0.9227, 0.924835, 0.925943, 0.926764, 0.928089, 0.930456, 0.931967, 0.925869, 0.92289, 0.924173, 1.13336, 0.947258, 0.94603, 0.943367, 0.94293, 0.942676, 0.949359, 0.949164, 0.948752, 0.950895, 0.953603, 0.956023, 0.956717, 0.957369, 0.960128
0.861917, 0.861771, 0.859926, 0.857954, 0.857891, 0.858631, 0.854061, 0.859998, 0.861036, 0.858436, 0.861473, 0.862392, 0.863096, 0.863045, 0.862515, 0.859025, 0.904247, 0.948471, 0.882965, 0.884982, 0.884583, 0.884616, 0.872721, 0.872266, 1.04602, 0.855415, 0.851435, 0.852164, 0.852623, 0.863742, 0.862791, 0.851772, 1.15448, 0.844368, 0.843274, 0.838582, 0.83397, 0.831586, 0.824696, 0.824723, 0.822749, 0.821606, 1.30497, 1.16509, 1.35784, 0.822543, 0.819698, 0.818154, 0.815307, 0.813778, 0.813622, 0.814785, 0.817321, 0.838456, 0.838927, 0.838424, 0.837566, 0.813958, 0.814455, 0.814609, 0.808872, 0.80424, 0.804167, 0.813268, 0.814679, 0.809054, 0.809302, 0.808225, 0.807067, 0.804898, 0.8044, 0.805248, 0.806381, 0.80825, 0.812749, 0.812235, 0.807915, 0.808055, 0.808356, 0.81374, 0.814219, 0.814973, 0.812204, 0.811582, 0.809791, 0.809438, 0.810248, 0.809661, 0.827002, 0.825894, 0.824886, 0.824937, 0.824257, 0.824597, 0.824788, 0.819306, 0.817761, 0.819011, 0.817877, 0.814513, 0.812365, 0.811796, 0.813132, 0.812785, 0.814802, 0.930085, 0.956963, 0.804753, 0.804849, 0.80708, 0.8076, 0.807758, 0.906117, 1.04325, 0.834665, 0.823081, 0.822795, 0.829865, 0.831554, 0.829735, 0.829319, 0.843198, 0.842853, 0.842752, 0.843251, 0.84379, 1.16321, 0.857887, 0.859249, 0.864886, 0.864803, 0.865153, 0.86623, 0.86988, 0.873016, 0.870907, 0.926178, 0.852843, 0.852131, 0.852961, 0.855799, 0.863135, 0.861794, 0.854915, 0.857722, 0.863695, 0.866355, 0.861782, 0.861019, 0.863565, 0.968041, 0.876577, 1.0773, 0.981312, 1.06718, 0.904123, 0.904886, 0.908869, 0.946089, 0.946472, 1.06177, 0.922156, 0.921556, 0.925233, 0.934146, 0.93528, 0.935173, 0.932568, 0.925631, 1.01233, 0.913867, 0.912237, 0.908592, 0.905347, 0.906224, 0.905816, 0.896174, 0.896209, 0.901597, 0.884455, 0.985768, 0.896885, 0.897645, 0.807293, 0.855956, 0.856102, 0.862008, 0.871092, 0.863667, 0.869929, 0.873062, 0.874354, 0.875604, 0.880519, 0.87821, 0.877022, 0.874357, 0.875163, 0.872409, 0.87371, 0.881778, 0.885613, 0.887327, 0.888827, 0.89105, 0.889026, 0.892334, 0.894413, 0.89187, 0.893871, 0.896156, 0.900115, 0.903009, 0.902191, 0.902871, 0.922356, 0.924898, 0.916089, 0.911427, 1.13559, 0.892688, 0.897508, 0.894862, 0.898366, 0.897791, 0.89743, 0.900132, 0.903967, 0.906315, 0.905689, 0.905094, 0.901232, 0.903317, 0.904719, 1.139, 0.913105, 0.915134, 0.915922, 0.92362, 0.928473, 0.929032, 0.925305, 0.919115, 0.920614, 0.921298, 0.923483, 0.924555, 0.925416, 0.926231, 0.926745, 0.928877, 0.93003, 0.923829, 0.922611, 0.924126, 1.08361, 1.0849, 0.942858, 0.942, 0.9437, 0.945392, 0.947528, 0.949307, 0.949891, 0.947728, 0.96961, 0.952571, 0.954306, 0.957611, 1.22258
0.859912, 0.859164, 0.85791, 0.856476, 0.853146, 0.85403, 0.853034, 0.854072, 0.85445, 0.855072, 0.86328, 0.862952, 0.861336, 0.861143, 0.859999, 0.857441, 0.857033, 0.868459, 0.881582, 0.884418, 0.884498, 0.884632, 0.871044, 0.87019, 1.0377, 0.85386, 0.85262, 0.852154, 0.852435, 0.85138, 0.851237, 0.852314, 0.845537, 0.844019, 0.842802, 0.836968, 0.834319, 0.832829, 0.825882, 0.825277, 0.824334, 0.82478, 0.823877, 1.02917, 1.03118, 0.82445, 0.818573, 0.817804, 0.814892, 0.813132, 0.813579, 0.813288, 0.811801, 0.919103, 0.838456, 0.838633, 0.860565, 0.815025, 0.815744, 0.814087, 0.809925, 0.805161, 0.806821, 0.809026, 0.810894, 0.808648, 0.808357, 0.807784, 0.801948, 0.803833, 0.80401, 0.801405, 0.801045, 0.809433, 0.810968, 0.811003, 0.809862, 0.811064, 0.80888, 0.812853, 0.813314, 0.812994, 0.811776, 0.811056, 0.809782, 0.810002, 0.808582, 0.809536, 0.827095, 0.828007, 0.827576, 0.825071, 0.823736, 0.822826, 0.819416, 0.820454, 0.818499, 0.81761, 0.817346, 0.81713, 0.812594, 0.812457, 0.810948, 0.810977, 0.811523, 0.806589, 0.806938, 0.807688, 0.806329, 0.805657, 0.811368, 1.04938, 0.983767, 0.819632, 0.821452, 0.822409, 0.821431, 0.821685, 0.828281, 0.825873, 0.823696, 0.83782, 0.845502, 0.845147, 0.844588, 0.84522, 0.85169, 0.856797, 0.859653, 0.865385, 0.864823, 0.864715, 0.866661, 0.868818, 0.870626, 0.870443, 0.853705, 0.848701, 0.847749, 0.849427, 0.849884, 0.857042, 0.888912, 0.854851, 0.856733, 0.862953, 0.85994, 0.859386, 0.858335, 0.92644, 0.871874, 0.873847, 1.07853, 1.0745, 1.03354, 0.897893, 1.04219, 0.909057, 0.962828, 0.910266, 0.911925, 0.911859, 0.917007, 0.921852, 0.998543, 0.933384, 0.934043, 0.933419, 1.1775, 0.914277, 0.914156, 0.913992, 0.911595, 0.912644, 0.912852, 0.898852, 0.897286, 0.900425, 0.902754, 1.36496, 0.887605, 0.887714, 0.93222, 1.06673, 0.857282, 0.856786, 0.88009, 0.875161, 0.875515, 0.87669, 0.871018, 0.87465, 0.876631, 0.878467, 0.877024, 0.876992, 0.876144, 0.874426, 0.871122, 0.873326, 0.878031, 0.885511, 0.88619, 0.890468, 0.89096, 0.891566, 0.89086, 0.891042, 0.894159, 0.893076, 0.898186, 0.901673, 0.905176, 0.892594, 0.893823, 0.894719, 0.923921, 0.923471, 0.979789, 0.911172, 0.91065, 0.893981, 0.894703, 0.898129, 0.899677, 0.897856, 0.898406, 0.903219, 0.904529, 0.906913, 0.904442, 0.903356, 0.90457, 0.904723, 0.910502, 0.911528, 0.915063, 0.917185, 0.924419, 0.928037, 0.929042, 0.928708, 0.92132, 0.921595, 0.921665, 0.922972, 0.925191, 0.92623, 0.926503, 0.92754, 0.928761, 0.928868, 0.929156, 0.92119, 1.18214, 1.1223, 1.1461, 0.937207, 0.937167, 0.938974, 0.939218, 0.945508, 0.945828, 0.945151, 0.945793, 0.947005, 0.949898, 0.953771, 0.954298, 0.955913
0.889005, 0.890097, 0.855958, 0.852451, 0.852861, 0.851528, 0.850932, 0.851274, 0.851135, 0.853394, 0.857771, 0.862857, 0.861594, 0.925911, 0.858114, 0.856835, 0.857626, 0.968402, 0.877414, 0.886466, 0.885627, 0.884569, 0.870455, 0.939906, 1.00651, 0.853538, 0.851873, 0.852197, 0.853003, 0.851963, 0.852122, 0.849644, 0.845577, 0.847098, 0.952978, 0.946192, 0.830921, 0.828389, 0.826773, 0.826008, 0.822879, 1.34468, 1.08603, 0.805589, 0.805414, 0.816904, 0.817619, 0.81776, 0.81538, 0.814542, 0.812491, 0.811265, 0.810914, 0.925389, 0.838065, 0.831707, 0.833303, 0.816136, 0.814611, 0.811237, 0.811069, 0.810078, 0.810706, 0.810501, 0.80861, 0.792752, 0.792854, 0.792502, 0.802945, 0.803742, 0.801778, 0.800564, 0.801143, 0.802132, 0.810788, 0.811439, 0.810177, 0.80907, 0.808903, 0.813976, 0.813798, 0.811735, 0.810846, 0.808909, 0.809113, 0.811124, 0.809642, 0.809117, 1.06748, 0.828485, 0.829061, 0.818984, 0.817482, 0.818387, 0.818807, 0.820226, 0.81803, 0.818544, 0.818418, 0.815256, 0.814384, 0.812297, 0.809944, 0.810825, 0.812178, 0.812926, 0.808677, 0.809339, 0.808206, 0.806602, 0.806722, 0.984648, 0.821049, 0.82168, 0.821951, 0.822178, 0.822845, 0.821794, 0.823621, 0.824745, 0.824625, 0.823537, 1.00127, 0.843171, 0.843386, 0.843398, 0.848714, 0.849686, 0.858858, 0.861398, 0.862482, 0.863507, 0.86615, 0.869392, 0.871188, 0.870658, 0.86012, 0.849901, 0.849535, 1.06874, 0.884398, 0.876372, 0.84653, 0.855364, 0.855377, 0.860047, 0.859198, 0.858216, 0.859432, 0.861556, 0.873061, 0.874154, 0.96046, 0.952008, 0.893976, 0.895753, 0.900888, 0.905463, 1.0313, 0.911958, 0.912225, 0.913767, 0.914962, 0.915542, 1.2063, 0.933013, 1.06394, 0.934668, 0.99751, 0.91541, 0.91539, 0.91488, 0.914233, 0.914274, 0.912485, 0.903428, 0.895886, 0.897575, 0.894636, 0.893488, 0.887482, 0.887865, 0.919029, 1.06783, 1.06692, 0.946448, 0.876743, 0.876718, 0.876727, 0.876702, 0.876461, 0.87245, 0.877345, 0.877544, 0.878051, 0.876551, 0.876374, 0.87469, 0.874571, 0.876126, 1.01083, 0.885752, 0.886679, 0.887348, 0.891947, 0.893568, 0.874115, 0.869686, 0.890331, 0.891686, 1.07441, 0.909198, 0.911943, 0.894419, 0.89489, 0.895704, 0.925351, 0.925132, 0.922569, 0.914935, 0.914825, 0.893096, 0.897615, 0.898866, 0.8999, 0.898645, 0.898156, 0.901515, 0.902833, 0.904924, 0.903937, 0.904302, 0.905012, 0.904124, 0.905583, 0.90865, 0.91376, 0.926172, 0.919792, 0.928028, 0.928651, 0.922284, 0.920599, 0.921362, 0.921976, 0.925038, 0.923628, 0.92815, 0.926376, 0.92721, 0.927564, 0.928884, 0.930167, 1.08438, 1.08179, 0.935554, 0.933867, 0.936584, 0.938722, 0.938564, 0.939102, 0.941888, 0.94152, 0.943884, 0.943383, 0.945428, 0.950603, 0.954132, 0.9556, 0.955224
0.885626, 0.946134, 0.887314, 0.853455, 0.852267, 0.849156, 0.849788, 0.849177, 0.850905, 0.850815, 0.852615, 0.923186, 0.923417, 0.928348, 0.854643, 0.856149, 0.965867, 0.93797, 0.94004, 0.885065, 0.88463, 0.977949, 0.977704, 1.02003, 0.983351, 0.855697, 0.851665, 0.851452, 0.850705, 0.849476, 0.85014, 0.852595, 0.861663, 0.86048, 1.07407, 0.945711, 0.829833, 0.830021, 0.828628, 0.821733, 0.821536, 0.821382, 0.804532, 0.804829, 0.804938, 0.816233, 0.818002, 0.81621, 0.815557, 0.813225, 0.811265, 0.810556, 0.810118, 0.809804, 0.953548, 0.830002, 0.829819, 0.823186, 0.815896, 0.813152, 0.814047, 0.815161, 0.809403, 0.797592, 0.796949, 0.792268, 0.793877, 0.792361, 0.88253, 0.80314, 0.80067, 0.800386, 0.800544, 0.800374, 0.810131, 0.809317, 0.80785, 0.80801, 0.809471, 0.810812, 0.812919, 0.811051, 0.810046, 0.807212, 0.806055, 0.808009, 0.808031, 0.808828, 0.806607, 0.807632, 0.813913, 0.813371, 0.816802, 0.817278, 0.817936, 0.817388, 0.817949, 0.819062, 0.819288, 0.818412, 0.815142, 0.813963, 0.814154, 0.811273, 0.811602, 0.812152, 0.812989, 0.811193, 0.809719, 0.80756, 0.80653, 0.817001, 0.818464, 0.822675, 0.822079, 0.821263, 0.821516, 0.819124, 0.819412, 0.821353, 0.823491, 0.820538, 0.820635, 0.842405, 0.844188, 0.849062, 0.849202, 0.851613, 0.854163, 0.857418, 0.861418, 0.862659, 0.864297, 0.867353, 0.869355, 0.891294, 0.860444, 0.846693, 0.845343, 0.843381, 0.841956, 0.877708, 0.846129, 0.898131, 0.850217, 0.856042, 0.854105, 0.85553, 0.854889, 0.92941, 0.928512, 0.876643, 0.878262, 0.889473, 0.893588, 0.897367, 1.08995, 0.96873, 0.897061, 0.980639, 0.947163, 0.94886, 0.916034, 0.915463, 0.930701, 0.956235, 0.937706, 0.938395, 0.938895, 0.914334, 0.915622, 0.915421, 0.914561, 0.912, 1.11988, 0.901716, 0.895903, 0.893723, 0.891828, 0.889013, 0.88925, 0.890449, 0.883401, 0.882567, 1.06679, 1.06429, 0.876383, 0.877478, 0.877651, 0.876802, 0.874459, 0.869438, 0.869011, 0.876601, 0.876822, 0.876761, 0.875732, 0.876816, 0.879047, 0.877952, 0.884108, 0.886796, 0.887899, 0.888515, 0.870499, 0.868155, 0.866773, 0.870119, 0.870148, 0.884474, 1.03756, 0.911364, 0.912909, 0.913188, 0.896692, 0.897517, 0.933117, 0.926542, 0.927711, 1.15818, 1.29142, 0.923586, 0.909047, 1.054, 0.89745, 0.897622, 0.897759, 0.901414, 0.903844, 0.903982, 0.904488, 0.905097, 0.904215, 0.904721, 0.90542, 0.909178, 0.911376, 0.910548, 0.912042, 0.913643, 0.966418, 0.924705, 0.923474, 0.920987, 0.922828, 0.922965, 0.925653, 0.925319, 0.925277, 0.926383, 0.928924, 0.927988, 0.929378, 0.932917, 0.93446, 0.935388, 0.934328, 0.935954, 0.936892, 0.937047, 0.939888, 0.942468, 0.941185, 0.94228, 0.943524, 0.945899, 0.950127, 0.954788, 0.958243, 0.957384
0.886987, 0.885516, 0.885432, 0.847392, 0.847293, 0.84853, 0.846779, 0.848813, 0.848709, 0.848664, 0.853572, 0.853177, 0.924008, 0.856156, 0.855097, 0.853677, 0.853488, 0.936812, 0.887304, 0.879295, 0.879195, 0.978752, 0.994353, 0.877463, 1.01716, 0.852828, 0.851969, 0.848981, 0.849755, 0.851034, 0.850844, 1.07197, 0.865433, 0.866003, 0.86525, 0.873793, 0.836005, 1.1327, 0.825192, 0.82209, 0.820622, 0.820443, 0.80416, 0.8036, 1.04213, 0.812031, 0.813284, 0.81295, 0.812322, 0.81261, 0.812334, 0.811018, 0.809737, 0.81092, 0.832493, 0.833637, 0.83199, 0.826177, 0.814969, 0.812897, 0.812769, 0.815411, 0.815476, 0.792543, 0.792597, 0.790816, 0.782926, 0.795623, 0.795315, 0.800384, 0.80131, 0.802149, 0.800569, 0.80045, 0.800763, 0.810252, 0.811673, 0.81365, 0.813372, 0.812442, 0.901058, 0.909035, 0.819116, 0.807488, 0.805804, 0.806298, 0.804794, 0.806279, 0.805634, 0.807598, 0.807786, 0.810068, 0.814083, 0.81789, 0.816723, 0.815851, 0.817236, 0.81673, 0.817022, 0.821405, 0.820797, 0.818221, 0.814712, 0.812728, 0.813373, 0.811987, 0.813012, 0.813395, 0.80799, 0.806332, 0.808199, 0.808924, 0.817447, 0.821541, 0.821371, 0.822431, 0.821585, 0.818453, 0.819993, 0.819974, 0.820681, 0.820668, 0.823315, 0.824349, 0.844286, 0.848975, 0.850222, 0.849949, 0.853883, 0.853856, 0.858452, 0.860363, 0.863876, 0.863441, 0.861463, 0.853996, 0.919365, 0.845757, 0.844455, 0.842111, 0.841637, 0.837155, 0.835256, 0.84318, 0.850014, 0.849405, 0.853064, 0.855592, 0.856516, 0.86094, 0.870347, 0.87648, 0.878485, 0.888776, 0.891249, 0.894056, 0.985214, 0.973473, 0.892678, 1.03749, 0.945597, 0.912234, 0.964984, 0.963197, 0.956488, 0.958061, 0.964842, 0.939623, 0.937616, 1.026, 0.922331, 0.914136, 0.91425, 0.91019, 0.907769, 0.900084, 0.900643, 0.892574, 0.89101, 0.89102, 0.888911, 0.887625, 0.884356, 0.882639, 0.886002, 0.888562, 0.889594, 0.883088, 0.882455, 0.874315, 0.872465, 0.873347, 0.86522, 0.865227, 0.876946, 0.883525, 0.879391, 0.879698, 0.880334, 0.880849, 0.883361, 0.887509, 0.89076, 0.890461, 0.886016, 0.861716, 0.866609, 0.868047, 0.883627, 0.911, 1.04757, 1.0221, 0.891084, 0.883317, 0.939095, 0.946695, 0.932231, 0.930679, 0.93041, 0.933711, 0.923041, 0.924756, 0.908895, 0.909344, 0.897834, 0.898188, 0.900557, 0.904667, 0.904494, 0.903245, 0.906066, 0.905929, 0.905692, 0.905934, 0.904559, 0.905591, 0.908567, 0.910512, 0.913662, 0.91568, 0.918011, 0.923414, 0.923982, 0.920158, 0.922228, 0.923073, 0.924828, 0.924786, 0.925849, 0.925849, 0.92601, 0.928109, 0.928947, 0.931763, 0.932848, 0.933477, 0.935988, 0.935646, 0.935837, 0.937008, 0.939295, 0.940111, 0.940807, 0.942079, 0.941932, 0.94301, 0.943441, 0.943769, 0.949762, 0.9542
0.8899, 0.88774, 0.886553, 0.885042, 0.847007, 0.849471, 0.846457, 0.846592, 0.849145, 0.847374, 0.850229, 0.852319, 0.853092, 0.855386, 0.854489, 0.852597, 0.852651, 0.870446, 0.871069, 0.873092, 0.872938, 0.882971, 0.883607, 0.882303, 0.871306, 1.02933, 0.849376, 0.849969, 0.849048, 0.849199, 1.06862, 1.07788, 0.867832, 0.866371, 0.865785, 0.876258, 0.875931, 1.1236, 0.822113, 0.821349, 0.820003, 0.820159, 0.815639, 0.811649, 0.810154, 0.810686, 0.811244, 0.810867, 0.815025, 0.815187, 0.814464, 0.808564, 0.80882, 0.808902, 0.818487, 0.883834, 0.83119, 0.865342, 0.813069, 0.813736, 0.81489, 0.814314, 0.793861, 0.793123, 0.793098, 0.791386, 0.78324, 0.783214, 0.79708, 0.795823, 0.800898, 0.800894, 0.80087, 0.799641, 0.800398, 0.812313, 0.81155, 0.811148, 0.815395, 0.814711, 0.815663, 0.82018, 0.819432, 0.818846, 0.806652, 0.807719, 0.802701, 0.80372, 0.806576, 0.808325, 0.809747, 0.810918, 0.812685, 0.811319, 0.812983, 0.816906, 0.815829, 0.816619, 0.818775, 0.821022, 0.821805, 0.818719, 0.816023, 0.814934, 0.812529, 0.81268, 0.814879, 0.814903, 0.811852, 0.807378, 0.811246, 0.991063, 0.819289, 0.819526, 0.820964, 0.821287, 0.821159, 0.817867, 0.819375, 0.819116, 0.81903, 0.821186, 0.822299, 0.823688, 0.822705, 0.84692, 1.06076, 0.848133, 0.85433, 0.854405, 0.856153, 0.859485, 0.862695, 0.860925, 0.85401, 0.854763, 1.00773, 0.842725, 0.842023, 0.84084, 0.839955, 0.838439, 0.834566, 0.838722, 0.84009, 0.844884, 0.846125, 0.847374, 0.850729, 0.92558, 0.974902, 0.8762, 0.879443, 0.886646, 0.892404, 0.892553, 0.986526, 0.886231, 0.891185, 0.975047, 1.04967, 1.04929, 0.997789, 0.953781, 0.975635, 0.941597, 0.941935, 0.942888, 0.975754, 1.04663, 0.924928, 1.00764, 0.915731, 0.915653, 0.908903, 0.908047, 0.908884, 0.897044, 0.897381, 0.89012, 0.890138, 0.889783, 0.890167, 0.888351, 0.886649, 0.886739, 0.890461, 0.884086, 0.884269, 0.874905, 0.873084, 0.873811, 0.863874, 0.864602, 0.982577, 0.883079, 0.878839, 0.886231, 0.887314, 0.886655, 0.883029, 0.883622, 0.886512, 0.886984, 0.886616, 0.866185, 0.869613, 0.869235, 0.866697, 0.871275, 0.874694, 0.891428, 0.886226, 0.879894, 0.951088, 1.04317, 0.977129, 0.930917, 0.932627, 0.934349, 0.932879, 0.928896, 0.93982, 0.899907, 0.899662, 0.901964, 0.89787, 0.900802, 0.901302, 0.904077, 0.904537, 0.906941, 0.908129, 0.90576, 0.907931, 0.906613, 0.909573, 0.911774, 0.914927, 0.915558, 0.91833, 0.922181, 0.923047, 0.922607, 0.921532, 0.923656, 0.925081, 0.922745, 0.924812, 0.925626, 0.92727, 0.927183, 0.929965, 0.932042, 0.932742, 0.932499, 0.935961, 0.936157, 0.93616, 0.938997, 0.940153, 0.941282, 0.942333, 0.942144, 0.943422, 0.943815, 0.944795, 0.946157, 0.952226, 0.953004
0.849545, 0.888021, 0.890829, 0.846227, 0.849247, 0.84798, 0.848761, 0.846002, 0.846533, 0.846469, 0.846543, 0.852394, 0.852619, 0.854736, 0.85491, 0.854129, 0.863359, 0.870952, 0.869339, 0.868499, 0.876507, 0.874556, 0.874912, 0.87286, 0.871493, 0.851185, 0.846103, 0.844529, 0.845797, 0.847459, 1.05817, 1.12217, 0.864431, 0.863997, 1.07454, 0.884016, 0.870398, 1.16313, 0.825134, 0.822008, 0.819488, 0.817507, 0.814442, 0.813257, 0.81083, 0.810709, 0.810122, 0.81093, 0.811975, 0.813021, 0.812467, 0.811322, 0.810816, 0.81095, 0.814682, 0.825452, 0.825504, 0.825845, 0.816397, 0.812323, 0.812357, 0.796034, 0.793715, 0.793689, 0.794235, 0.792183, 0.79104, 0.792933, 0.794884, 0.794322, 0.799569, 0.797666, 0.798103, 0.800733, 0.801082, 0.802551, 0.811219, 0.810992, 0.81395, 0.817804, 0.817051, 0.924923, 0.822515, 0.824713, 0.805263, 0.804919, 0.802893, 0.801992, 0.80501, 0.8077, 0.808007, 0.810092, 0.811002, 0.812643, 0.813592, 0.813067, 0.814425, 0.813573, 0.815869, 0.821594, 0.82136, 0.821289, 0.814975, 0.814546, 0.813501, 0.814164, 0.814677, 0.815351, 0.812057, 0.807713, 0.807465, 0.817404, 0.818026, 0.821639, 0.821262, 0.821396, 0.821122, 0.815561, 0.815513, 0.815626, 0.821615, 0.821613, 0.821555, 0.821299, 0.818717, 0.818856, 0.844623, 0.843869, 0.853874, 0.85455, 0.852984, 0.865875, 0.866851, 0.870059, 0.976465, 0.919524, 0.838472, 0.840139, 0.838378, 0.840033, 0.838084, 0.838455, 0.887836, 0.836637, 0.837338, 0.84186, 0.842143, 0.844368, 0.924892, 0.924965, 0.858842, 0.926271, 0.879083, 0.880301, 1.1066, 0.932777, 1.00168, 0.999178, 0.996586, 0.87742, 0.977547, 1.00775, 0.930441, 0.98189, 0.94744, 0.946278, 0.942617, 0.943513, 0.979691, 0.988394, 0.925388, 0.923632, 0.915296, 0.915284, 0.908816, 0.908862, 0.908582, 0.896173, 0.896142, 0.89099, 0.887674, 0.88876, 0.893902, 0.900445, 0.899537, 0.889269, 0.890406, 0.890085, 0.889227, 0.872786, 0.87298, 0.87151, 0.870734, 0.865448, 0.874146, 0.875409, 0.878177, 0.885317, 0.888178, 0.888065, 0.891329, 0.89241, 0.891445, 0.892322, 0.926687, 0.864415, 0.870097, 0.891124, 0.869608, 0.870601, 0.875373, 0.876541, 0.887595, 0.950419, 0.954744, 0.941646, 0.920083, 0.940293, 0.938663, 0.936198, 0.941775, 1.11335, 0.934586, 0.899212, 0.900324, 0.903203, 0.901078, 0.899236, 0.901729, 0.904389, 0.902471, 0.903779, 0.907381, 0.907302, 0.909078, 0.911633, 0.90936, 0.91095, 0.912375, 0.917551, 0.918438, 0.920579, 0.922028, 0.922538, 0.922555, 0.923286, 0.92333, 0.92487, 0.924162, 0.925538, 0.926998, 0.928435, 0.93063, 0.931148, 0.931691, 0.932022, 0.932574, 0.932966, 0.936641, 0.938341, 0.938204, 0.940877, 0.942436, 0.942232, 0.944696, 0.946335, 0.946532, 0.947867, 0.949749, 0.951184
0.84873, 0.848234, 0.8465, 0.845412, 0.843797, 0.849532, 0.848683, 0.845201, 0.84611, 0.845701, 0.846057, 0.850028, 0.853092, 0.852927, 0.854829, 0.854537, 0.86274, 0.863024, 0.868363, 0.867368, 0.87028, 0.87465, 0.873918, 0.872259, 0.873005, 1.00169, 1.03282, 0.841895, 0.84021, 0.841237, 1.01331, 1.08877, 1.01663, 1.01675, 0.925573, 0.897822, 1.18165, 0.865834, 0.889072, 0.821487, 0.818499, 0.81475, 0.816671, 0.811713, 0.810874, 0.809343, 0.808731, 0.806673, 0.806116, 0.806189, 0.805956, 0.810714, 0.810027, 0.812004, 0.815705, 0.817101, 0.827008, 0.827953, 0.831413, 0.811954, 0.813309, 0.797319, 0.795761, 0.793997, 0.793917, 0.793116, 0.790418, 0.793557, 0.795874, 0.796104, 0.798082, 0.799002, 0.799184, 0.799361, 0.803346, 0.803125, 0.80975, 0.814971, 0.81566, 0.816898, 0.817667, 0.821858, 0.826057, 0.826598, 0.826935, 0.802429, 0.801187, 0.799899, 0.800652, 0.802488, 0.804817, 0.806407, 0.808161, 0.808339, 0.814883, 0.815405, 0.813564, 0.815444, 0.817761, 0.820475, 0.820499, 0.826103, 0.826459, 0.827101, 0.814321, 0.81422, 0.813225, 0.813022, 0.813158, 0.807116, 0.80714, 0.818524, 0.818489, 0.807195, 0.816318, 0.81895, 0.820269, 0.819506, 0.815301, 0.817239, 0.817716, 0.825866, 0.826806, 0.826935, 0.819955, 0.81922, 0.843626, 0.843419, 0.843742, 0.849886, 0.851264, 0.874957, 0.873536, 0.838793, 0.832748, 0.863988, 0.832027, 0.832815, 0.837876, 0.835495, 0.833829, 0.832003, 0.835309, 0.834962, 0.836018, 0.842203, 0.842667, 0.845569, 0.847411, 0.918696, 0.920025, 0.973808, 0.876802, 0.879159, 0.880554, 0.969961, 0.876495, 0.871459, 0.873017, 0.876233, 0.876255, 0.940058, 0.93899, 0.939033, 0.938524, 0.943513, 0.944586, 0.944561, 0.942115, 0.931897, 0.931323, 0.920021, 0.921144, 0.919257, 0.909695, 0.909967, 0.908799, 0.90911, 0.895154, 0.897728, 0.897356, 0.893779, 0.895791, 0.898146, 0.898164, 0.897418, 0.897312, 0.889368, 0.890623, 0.890733, 0.880488, 0.871183, 0.872241, 0.870347, 0.873632, 0.872889, 0.874812, 0.876555, 0.878116, 0.881783, 0.891687, 0.893422, 0.89364, 0.859594, 0.858381, 0.925149, 0.936289, 0.891599, 0.883759, 0.884461, 0.876079, 0.876461, 1.00127, 1.00239, 0.913292, 0.919038, 0.921033, 1.15164, 0.94635, 0.940904, 0.943508, 0.943634, 0.939706, 0.936436, 0.900745, 0.901761, 0.898715, 0.900645, 0.901421, 0.902498, 0.90407, 0.905053, 0.90504, 0.907621, 0.908501, 0.91113, 0.912638, 0.91164, 0.913243, 0.916581, 0.918157, 0.917345, 0.919472, 0.92133, 0.920983, 0.921406, 0.923404, 0.924782, 0.925015, 0.926124, 0.926833, 0.927636, 0.927784, 0.928499, 0.929783, 0.932678, 0.932931, 0.933814, 0.93554, 0.938411, 0.938569, 0.939234, 0.939639, 0.94374, 0.945961, 0.944292, 0.944955, 0.947929, 0.949279, 0.952797
0.847492, 0.847048, 0.846529, 0.846023, 0.844721, 0.844334, 0.845126, 0.845613, 0.845866, 0.846486, 0.846582, 0.846897, 0.852184, 0.851616, 0.855694, 0.854652, 0.861734, 0.863721, 0.869216, 0.869811, 0.869541, 0.874966, 0.876102, 0.875315, 0.903817, 1.01344, 1.00907, 0.842839, 0.84217, 0.840757, 0.840787, 0.83631, 0.990147, 0.83544, 0.835099, 1.10222, 1.18531, 0.843507, 0.856101, 0.820357, 0.818409, 0.816485, 0.812737, 0.811491, 0.809293, 0.809201, 0.808951, 0.806036, 0.807503, 0.806784, 0.80658, 0.810291, 0.809596, 0.807692, 0.844487, 0.820734, 0.828566, 0.828104, 0.828153, 0.820512, 0.801332, 0.79832, 0.796261, 0.794569, 0.792739, 0.793337, 0.79392, 0.793368, 0.794213, 0.794185, 0.793246, 0.797814, 0.798213, 0.797601, 0.797372, 0.874162, 0.868128, 0.80626, 0.840507, 0.868817, 0.869723, 0.924714, 0.826261, 0.82844, 0.865275, 0.808551, 0.800627, 0.799436, 0.799308, 0.803821, 0.803961, 0.807286, 0.808264, 0.80825, 0.81432, 0.813987, 0.812857, 0.812706, 0.819515, 0.82154, 0.825138, 0.825518, 0.828257, 0.82729, 0.815052, 0.818426, 0.8136, 0.81357, 0.815591, 0.815529, 0.809956, 0.813534, 0.814774, 0.807286, 0.817503, 0.818745, 0.822024, 0.820683, 0.815288, 0.816377, 0.81816, 0.816546, 0.828775, 0.828199, 0.821425, 0.819152, 0.818871, 0.843474, 0.843641, 0.846367, 0.861907, 0.870632, 0.87461, 0.870517, 0.826005, 0.825846, 0.854261, 0.828964, 0.94611, 0.83042, 0.830659, 0.831996, 0.833613, 0.835305, 0.837132, 0.841334, 0.845526, 0.846192, 0.852355, 0.854591, 0.91802, 0.922384, 0.923198, 0.880174, 0.880991, 0.871549, 0.871435, 0.871022, 0.873205, 0.873276, 1.03508, 1.03608, 0.932487, 1.01088, 0.936102, 0.942698, 0.943044, 0.943835, 0.94426, 0.939054, 0.924623, 0.922368, 0.922693, 0.919367, 0.91029, 0.910185, 0.909855, 0.90973, 0.897692, 0.897874, 0.897216, 0.896039, 0.896309, 0.898556, 0.899364, 0.898327, 0.896261, 0.895224, 0.898552, 1.01596, 0.880111, 0.880672, 0.878389, 0.877419, 0.873749, 0.873824, 0.874642, 0.874216, 0.873844, 0.879427, 0.881582, 0.883166, 0.85631, 0.856888, 0.858895, 0.931697, 1.08539, 0.885541, 0.885151, 0.886954, 0.879032, 0.879819, 1.00025, 0.998421, 0.908834, 0.919889, 0.921677, 0.924955, 0.930974, 0.943255, 0.942884, 0.943449, 0.941309, 0.935967, 0.967625, 0.948993, 0.901652, 0.901295, 0.902288, 0.90176, 0.903805, 0.904113, 0.906062, 0.907583, 0.90862, 0.911711, 0.913643, 0.914581, 0.914218, 0.915056, 0.916404, 0.916048, 0.915849, 0.921565, 0.918807, 0.919974, 0.9227, 0.923441, 0.922874, 0.924908, 0.924833, 0.925888, 0.928658, 0.931619, 0.929278, 0.929365, 0.932262, 0.933477, 0.935809, 0.938891, 0.941873, 0.940026, 0.938476, 0.939242, 0.960987, 0.945896, 0.945192, 0.946738, 0.948826, 0.951042
0.846783, 0.847088, 0.847396, 0.846137, 0.845692, 0.844654, 0.8421, 0.842794, 0.846035, 0.846451, 0.84398, 0.845671, 0.849498, 0.849896, 0.853958, 0.852746, 0.863536, 0.863207, 0.866978, 0.86919, 0.868003, 0.875668, 0.8765, 0.87601, 0.861275, 0.860833, 0.851598, 0.843957, 0.843482, 0.841766, 0.8385, 0.836406, 0.833568, 0.832812, 0.833203, 0.957976, 1.171, 0.861108, 0.833324, 0.831675, 0.832029, 0.833127, 0.813512, 0.809232, 0.808516, 0.808992, 0.807908, 0.807197, 0.807531, 0.805044, 0.806796, 0.80792, 0.808961, 0.808216, 0.807354, 0.808463, 0.828347, 0.827917, 0.815883, 0.815304, 0.802593, 0.79858, 0.797724, 0.796715, 0.7953, 0.794406, 0.793974, 0.794308, 0.794555, 0.797004, 0.796871, 0.798758, 0.799079, 0.798804, 0.799239, 0.895394, 0.803207, 0.806275, 0.805503, 0.808594, 1.06132, 0.856351, 0.80749, 0.821557, 0.821308, 0.822054, 0.798778, 0.79886, 0.801683, 0.801014, 0.80519, 0.805647, 0.807468, 0.807299, 0.81547, 0.814214, 0.813628, 0.814019, 0.81747, 0.818968, 0.823139, 0.829159, 0.824231, 0.819262, 0.819431, 0.814631, 0.815487, 0.814702, 0.814755, 0.815308, 0.812364, 0.813677, 0.814143, 0.808895, 0.819964, 0.821172, 0.821162, 0.818441, 0.815625, 0.814144, 0.814016, 0.810029, 0.828697, 0.829192, 0.818584, 0.819511, 0.81807, 0.851569, 0.855179, 0.859425, 0.862056, 0.88281, 0.824529, 0.824636, 0.820865, 0.821886, 0.822968, 0.826368, 0.831696, 0.829113, 0.829028, 0.830725, 0.835462, 0.836282, 0.839309, 1.00828, 0.844874, 0.852518, 0.852653, 0.85629, 0.858859, 0.859889, 0.968954, 0.919661, 0.956675, 0.870287, 0.871499, 0.871885, 0.873534, 0.873587, 0.905367, 0.933561, 1.00159, 0.928266, 0.939734, 0.942495, 0.942689, 0.944579, 0.944441, 0.944439, 1.00204, 0.920691, 0.921314, 0.921476, 0.913335, 0.911701, 0.911094, 0.911008, 0.912637, 0.97397, 0.894565, 0.893973, 0.893886, 0.894584, 0.895913, 0.898139, 0.897495, 0.896005, 0.897188, 0.88131, 0.87989, 0.881282, 0.881149, 0.879958, 0.880952, 0.879422, 0.873366, 0.874142, 0.875837, 0.87805, 0.880257, 0.881568, 0.862547, 0.858328, 0.860582, 0.970831, 0.886206, 1.12937, 0.8776, 0.88819, 0.865107, 0.864821, 0.866807, 0.922405, 1.01102, 1.0385, 0.926016, 0.928237, 0.930893, 0.932488, 0.951445, 0.952877, 0.944948, 1.21905, 0.915713, 0.915155, 0.916758, 0.900669, 0.902056, 0.903144, 0.901368, 0.904519, 0.905231, 0.908299, 0.910768, 0.910887, 0.913676, 0.917956, 0.919159, 0.919206, 0.919644, 0.91496, 0.91683, 0.917617, 0.91803, 0.918499, 0.919355, 0.924478, 0.922078, 0.922129, 0.924822, 0.927567, 0.927284, 0.929443, 0.929041, 0.929831, 0.931691, 0.932884, 0.935076, 0.936216, 0.939385, 0.940678, 0.940569, 0.95132, 0.944803, 0.947081, 0.948059, 0.949088, 0.949401, 0.952688
