0.828969008697448,0.823422436693722,0.823400096706595,0.82381472686766,0.823470691065915,0.823282141574568,0.823412607099386,0.847922253775431,0.838147169008432,0.84112464249263,0.966615498977137,0.934749741340132,0.99509451456579,0.913267609719448,0.914170145199352,0.919513870119971,0.92249849240005,0.911140842945021,0.91079233914585,1.05775371045774,1.097375911625,1.09630359224294,1.12141373777294,1.12514898362046,1.12345114459886,1.13331648291385,1.13601515335871,1.15553136611228,1.14260991755841,1.15852492438721,1.16996299779589,1.21315959690338,1.20241853109303,1.24136159665166,1.22791292440161,1.24007481339319,1.32572632403556,1.32337615738987,1.34673484792916,1.35134582127204,1.33442104702513,1.36445492571777,1.3824788273313,1.40934936384686,1.47557402168416,1.47488595008067,1.45075876398423,1.45554845722412,1.47513615793649,1.54791983599409,1.6200333144379,1.53496264346082,1.51058524950856,1.52419476966592,1.52342627410878,1.52316713025811,1.55837494996921,1.53739323406016,1.53667835447212,1.53457839568224,1.59120579505008,1.55348696078597,1.55279888918248,1.58954370000788,1.59004411571951,1.6358768333079,1.64080056647054,1.62348260845021,1.6149576693628,1.60301918024248,1.62426897599705,1.60556593877489,1.60495829112505,1.6048957391611,1.67448926705706,1.68309463009812,1.68316611805693,1.66872555037846,1.66904724619308,1.67080763717864,1.67143315681817,1.72525465380294,1.57163596632741,1.57146618242525,1.57630949163424,1.62409919209489,1.5765865074746,1.56771306458802,1.56561310579815,1.52979763843721,1.52809086342075,1.51732298962586,1.5171532057237,1.53187972523738,1.51934252446208,1.48691379914949,1.49269538781779,1.49158732445632,1.50257859812248,1.48767335871179,1.44179596114915,1.44089342566924,1.39302330125493,1.4109310349354,1.41040381123922,1.39699981896342,1.41133315470367,1.41043955521862,1.35132794928234,1.34410766544311,1.31779116060828,1.35163177310725,1.2845850037437,1.27084144366357,1.23514214423569,1.2260542374727,1.20730652027628,1.17213444454457,1.18605672452171,1.17603053829941,1.17502970687615,1.14532645999297,1.16049084325433,1.12117246591198,1.08012944156347,1.04368845456299,1.04562756544556,1.04561862945071,0.99709617741231,0.957062920481916,0.955374017455165,0.972468575604237,0.978276972257084,0.898657258138824,0.965757643471486,0.870983375686205,0.871355113071987,0.871356006671472,0.98254837779564,0.860794554357626,0.863357397680759,0.935947164650104,1.11461344569169,1.01333288005573,1.0028241501115,1.12645363886864,1.01422647954078,1.01378861579311,1.01571879068082,1.01275204039045,1.0120192888127,1.01417286357168,1.01480731920607,1.10156689320991,1.05010449886568,1.04406376634672,1.0053351646645,1.06984411149051,1.1357470735132,0.991761388486541,0.995076642576089,1.43556757273832,0.966695922930792,0.971333704258219,0.972557935552743,0.97284388738796,0.973567702970853,1.02953383871975,1.02179526717919
0.823857619642943,0.823458180673124,0.823345587138007,0.823374182321529,0.823419755895267,0.822668238728337,0.818888312906561,0.830426469457571,0.832736424126434,0.836107081384055,0.966427843085276,0.849210824232879,0.812342696678544,0.767174817107034,0.767971014248217,0.766898694866153,0.817404937761372,0.912659962069612,0.937421603800442,1.00416454933908,1.08323916777146,1.0855089104635,1.15856960436146,1.15722026913903,1.13021569270072,1.13369179469758,1.14042059882003,1.14381627686323,1.14316394923914,1.17311740397813,1.18746861170809,1.2160280512504,1.22176495994444,1.22223856767152,1.24935931204289,1.24995802369788,1.32670928346911,1.32520803633423,1.32070429492956,1.33985413189425,1.33335766363791,1.3498713821217,1.39913552173269,1.3992070096915,1.40308523145663,1.40262949571925,1.46655760287998,1.4577556479522,1.47610124538035,1.52528496103769,1.49532257030385,1.49437535484969,1.52186247500993,1.52469518537755,1.52324755421176,1.52314032227356,1.59476232100059,1.59595974431056,1.53930553695817,1.53947532086033,1.5866484376763,1.5866305656866,1.58000005750751,1.61796909962743,1.64197118179596,1.63003269267565,1.62644042274573,1.62602043098776,1.633419434724,1.61267005468106,1.61211602300033,1.60551232280578,1.60499403510445,1.6040825636297,1.67367609152566,1.67246973222084,1.66757280704274,1.67085231715289,1.66991403769358,1.70848179146849,1.73224260177606,1.72494189398317,1.72471849411191,1.57195766214203,1.5882926607288,1.57706011520168,1.57981240161565,1.55629286316904,1.5465079488077,1.55320994494561,1.55000192279426,1.51780553334779,1.51773404538898,1.52069185968451,1.53703579426614,1.59664781591405,1.53968978473675,1.50957548209045,1.50095224705968,1.48001521112488,1.47261620738864,1.42100190113195,1.40871490821247,1.40441669468936,1.40122654452772,1.39778618651026,1.413406305509,1.40892937208888,1.41337949752445,1.38402475444044,1.32229490201295,1.31511929814797,1.27511284920213,1.26382668770591,1.23487406439017,1.23457024056526,1.20412530610949,1.16940003012031,1.16830090275369,1.17319782793179,1.16106274692476,1.175038642871,1.13844574395806,1.11852741143622,1.05612735939494,1.03989959274637,1.01641579827916,1.00294031804456,0.968384825957543,0.948627341343012,0.944793799552133,0.956169320996863,0.983200705419729,0.900730408944149,0.901311248609433,0.872285350135928,0.916949239597868,0.914062913261145,0.982003282109757,0.977428052746284,0.965972107347899,0.934365493561559,1.02479776144897,1.14680089914331,1.00243990233293,1.07855670646978,1.01543283884561,1.10456938747968,1.10187965302967,1.01212652075091,1.01190312087964,1.01413711959228,1.01265374444709,1.09941331845093,1.11300496661859,1.11848273146197,1.06884328006725,1.03801409783291,0.989402285846,0.986131711730704,0.987355943025227,0.974961718167536,0.97468470232717,0.974595342378664,0.974255774574344,0.974497046435309,1.04181189564438,1.03057935011726,1.05695840691604
0.823302694362725,0.822712025103104,0.822359053306508,0.822268799758518,0.822962232958919,0.822326883725046,0.829957329727917,0.837434076619359,0.827815371762244,0.850734411354895,0.771070910861867,0.833148373489043,0.76836419802164,0.767745827177983,0.769017419245214,0.923606555761516,0.823655666159321,0.863831899007323,1.00311903794157,1.00327988584888,1.08042432939354,1.09859120692468,1.12862508561732,1.11590022895016,1.13605089733812,1.13298585110438,1.15020551318136,1.14513880410111,1.14625580345743,1.19123066554017,1.20327638659869,1.20550144931647,1.26013612183263,1.24334538750848,1.26942062048234,1.27771322370364,1.30519140786903,1.3114823482438,1.32294722963704,1.34912075855425,1.33580612622696,1.35250750060261,1.35847674516276,1.3825681872798,1.41037700325467,1.44172447319034,1.44914134891628,1.46561038742582,1.56294124333784,1.48980012548621,1.4887903580681,1.51081758537467,1.50036247139955,1.55611414327203,1.50479472484541,1.51848466895643,1.60068688558649,1.59900691855459,1.59753247940426,1.54035998435054,1.53985063264406,1.59568272847019,1.58608547000072,1.62373281630602,1.73190303397174,1.61408194186745,1.62681573452946,1.62646723073029,1.62600255899806,1.61945247477262,1.61183900715996,1.60586082660495,1.60479744321774,1.59317171391719,1.6744267150931,1.67277355604575,1.66131761064737,1.68568606860478,1.68518565289315,1.68514097291889,1.74193815618889,1.72597846938583,1.72559422160726,1.58931136414176,1.58847138062581,1.60009710992636,1.59881926266273,1.59834565493565,1.59944478230227,1.56421909060146,1.54072636013941,1.54107486393858,1.54994830682516,1.53764344191598,1.53713409020949,1.61698614019387,1.54790196400439,1.55302228905374,1.48820058240797,1.47947905143385,1.4594713589635,1.44824774943123,1.43832879514714,1.40314778342058,1.39662450717969,1.39807213834548,1.41030551529586,1.42861536874461,1.41914321420304,1.39296968528583,1.39204034182137,1.35113135739562,1.28497818751712,1.2504048234404,1.23999438943953,1.21474126799192,1.20081898801479,1.20710992838956,1.16618307197412,1.16926599019755,1.24519513844254,1.15147442445014,1.15092932876426,1.07743970711346,1.05009556287083,1.01551326279926,1.00350328572014,1.02774663974964,0.960503278499372,0.945669527047485,0.939485818610915,0.959922438834087,0.953551074505656,0.904966070503302,1.00974061012582,0.871134393999179,0.906931989370419,0.906663909524903,0.866610099806354,0.898693002118227,0.967115914688767,0.935589724856083,1.01830129319263,1.02747855990413,1.08109452900733,1.08149664877561,1.08490126281366,1.00017015964089,1.11451514974833,1.01570985468597,1.08241705624521,1.09674145599062,1.10090562959097,1.11153052746825,0.997462553201181,0.996488529762473,0.994049003168277,1.11483684556295,0.98858017431975,0.98706105519516,0.986176391704957,0.987293391061274,0.975899997626842,0.975971485585647,0.974729382301422,1.04342931071233,1.09207686667864,0.951531539669435,0.951638771607642
0.832767700108411,0.830098518446556,0.839282933953935,0.827300658458854,0.851986344233454,0.856085285071394,0.951165163880564,0.866818308486371,0.851944345057657,0.772862577829399,0.771148654017067,0.770740279052397,0.782652853787644,0.782307924386414,0.769412390217608,0.928673264841769,0.870034373033078,0.872000291900196,0.900846576877205,0.981368826475369,1.03911322519952,1.1015490212202,1.09969927028614,1.11819677962675,1.13614919328147,1.18090065549295,1.16850643063526,1.17877388871852,1.20119429979851,1.2010513238809,1.23549064803486,1.26400540760292,1.24730403322727,1.28578242705367,1.29822133188561,1.37083522604105,1.36012990421011,1.32731693111895,1.32740629106746,1.35032711785908,1.35969204046244,1.38858211181421,1.36849399539021,1.38540089764742,1.46665589882333,1.43630926031092,1.45679056050834,1.45847052754024,1.51935146045693,1.4827943055234,1.48322323327622,1.48416151273553,1.4912835006314,1.50321305375687,1.50265008608128,1.52805511944135,1.59794353516738,1.59955201424048,1.60209877277288,1.60341236401591,1.60511913903236,1.58580845416035,1.58416423110786,1.59839033490991,1.59800608713133,1.61517213323921,1.61524362119801,1.61686103626596,1.61725422003938,1.74586105792827,1.62972886885073,1.60920288867905,1.60684378603851,1.63319603485274,1.62132009769638,1.77251713056742,1.77906721479286,1.77816467931295,1.68800049127106,1.68590053248119,1.75754933919277,1.74089264479138,1.65301607143122,1.65084462468254,1.61164241527325,1.59946265429197,1.55851792588682,1.59864054276572,1.57024195113072,1.57583588390716,1.56460333838004,1.55035936258829,1.53990424861316,1.53089676580382,1.52983338241661,1.52559772085745,1.53112910166994,1.50983462594111,1.48863844615565,1.47837992406723,1.44499504730564,1.43554970074862,1.41180676243075,1.39770576255661,1.39691045901491,1.39821511426309,1.47767398047404,1.41229824214753,1.40478307047823,1.37048672224188,1.35278451644297,1.35105093344197,1.29707752454474,1.25304094192131,1.24557938622111,1.22915502768583,1.19828116547724,1.1784879368833,1.16779155104721,1.17956025626537,1.14989275336159,1.12150309772145,1.09345300988562,1.05467972822915,1.03157124554567,1.02427947374763,0.999964631759331,0.985863631885188,0.968778009730967,0.94742098203819,0.94558016709898,0.920246621697715,0.907816652860622,0.901838472305615,0.931675759111549,0.877158148127924,0.888823195805812,0.864308187532856,0.902294208042992,0.900801896902953,0.963907892537425,1.00047398346581,0.987150415143665,0.985836823900637,1.08029922546563,1.08138048084255,1.10448896352603,1.00239522235868,1.07181003035763,1.08852034072812,1.30746115056106,1.09935076648697,1.04905005147332,1.06237361979546,0.994835370715124,1.08951223615653,1.11206668715928,1.07533974832359,0.98858017431975,0.987695510829547,0.98589937586459,0.98489854444133,1.10453364350028,1.030355950246,1.03947066499354,1.04345611869688,1.06116726049064,0.951880043468606,0.952800450938211
1.04268762313974,0.846928571148052,0.991144804841854,0.851006959197836,0.852196340112442,0.967258890606376,0.870271176896617,0.872970740940964,0.857652658568178,0.773333504758022,0.772297822954845,0.807960484803842,0.765549359643722,0.766998778008479,0.766723549367082,0.84847717905565,0.870056713020205,0.918048366964484,0.945767822990841,1.00680066781999,1.04070383228292,1.05213296969675,1.09332790595771,1.11464918967109,1.14485285226589,1.14711365896308,1.19048897796757,1.1893630426164,1.23527618415845,1.24096841287824,1.24392622717377,1.26976912428151,1.26819638918782,1.34612720027933,1.35794952146658,1.35764569764166,1.36459790163538,1.35817292133785,1.35941502462207,1.34382171360789,1.37481174374954,1.39279096538882,1.3858387613951,1.44567418291428,1.45601312895635,1.44856944524585,1.45735352818393,1.45731778420452,1.48464405645746,1.48067647474382,1.48656529535032,1.48566275987042,1.49770848092894,1.49833400056848,1.51573238254247,1.51519622285143,1.59360064167002,1.59178663471536,1.59187599466387,1.55539926368399,1.61125816749468,1.57790903471248,1.60564636272854,1.59841714289446,1.59813119105924,1.61355471817126,1.7020657471658,1.61771889177161,1.61761165983341,1.62977354882498,1.62963057290737,1.69851815721014,1.61775463575101,1.6183176034266,1.64291839725012,1.64887870581543,1.77938891060748,1.77871871099369,1.68637414020827,1.68557883666657,1.60854162506011,1.64860168997506,1.62991652474259,1.62434046395586,1.59711248764628,1.58104556890502,1.55952769330493,1.56110042839863,1.5899368837813,1.58935604411602,1.58483443072165,1.58100982492562,1.53280906870184,1.53099506174718,1.52861808711694,1.52514198512008,1.51770723740443,1.54011871248957,1.50053225530171,1.44672863030664,1.44458399154251,1.41125273075002,1.41286120982312,1.44545078304301,1.39779512250511,1.39730364278834,1.47026604074295,1.42261038020505,1.41718623133077,1.36814549159104,1.42423673126785,1.36883356319453,1.37592874310586,1.25132523091001,1.25010099961548,1.22895843579912,1.25585578029923,1.17832708897599,1.17217018852398,1.16367205742112,1.09904694266205,1.09914523860541,1.09263983435422,1.05988941322701,1.02802365559001,1.03013255037473,0.989018038067427,0.995460890354662,0.962460261371639,0.962621109278949,0.947662253899154,0.914420353055167,0.908987268186042,1.01034825777565,0.882731528116202,0.877617458263242,0.864031171692489,0.865216978209155,0.869142560746995,0.900721472949298,0.913151441786391,0.893165195703686,0.982021154099458,0.983906649012921,0.9852291762508,1.10289835644263,1.06695778515379,1.0864829339022,0.994138363116783,0.995139194540043,0.999339112119794,1.03893450530251,1.04359015861964,0.995148130534893,0.990224397372249,0.989196757964437,0.985810015916085,0.985997671807946,0.986944887262103,0.987391687004629,0.983236449399131,0.982619865754444,1.15898066012459,1.18657501222304,1.18799583540427,0.963032165042073,0.959520319065813,0.954721689831076,0.953568946495357
1.03746006615217,0.851255379854681,0.994308147018943,0.854539357962252,0.857835846462614,0.872537345190713,0.848656792552145,0.87332371273756,0.871121883606388,0.774740030347496,0.774780242324324,0.778435957817677,0.76535634215495,0.851319719017605,0.85107844715664,0.851788858747258,0.953265122670439,0.935973972634656,0.957071856476767,1.04425142223858,1.04579734934772,1.12897358941649,1.13270883526402,1.12110991394802,1.13306627505804,1.16138444273938,1.17131233301832,1.19170427326724,1.24716999330451,1.2519954305238,1.27747195184267,1.35537595494963,1.31141979627985,1.34677059190856,1.35866440105463,1.37632192687928,1.36122009558188,1.4335659098918,1.34478680105175,1.37756403016351,1.37723339835404,1.38365837865157,1.45021366829835,1.47379575870891,1.47254471942983,1.45393997815102,1.45092854788639,1.45050855612842,1.49929015201748,1.49845910449638,1.50462494094325,1.55473800006505,1.50696617159409,1.53491796348656,1.52271139452073,1.51651875008931,1.51590216644463,1.59051772344659,1.59330575383995,1.58110812086897,1.61150837535049,1.57594311584536,1.59007985969891,1.59866735075027,1.59693376774927,1.77047078774664,1.75686126758928,1.61812101153989,1.76566322251706,1.62960376492282,1.62974674084043,1.62375068829572,1.61770101978191,1.61705762815267,1.66641112771217,1.64295414122952,1.63965675912967,1.63939761527901,1.65498199029834,1.63229349937283,1.64175671791955,1.60796078539483,1.66127293067312,1.5999809419933,1.60922076066875,1.55858941384563,1.56185998796092,1.56100213245527,1.56089490051707,1.55953662929978,1.58356551945287,1.58117960882778,1.5807596170698,1.54142336773775,1.54123571184589,1.51472261512435,1.5180378692139,1.51051376154975,1.4946434346952,1.47989010719697,1.48153433024947,1.42563968245938,1.41360289739571,1.4385700670081,1.43817688323468,1.45311786662477,1.37622363093592,1.39849213010346,1.39660663518999,1.36424939783621,1.4235397236695,1.37137138573208,1.30078596240772,1.26018973780174,1.24203179626545,1.22636699729247,1.20497422562029,1.19295531254632,1.16579882419555,1.15562966205564,1.15790834074252,1.09596402443862,1.07171173441427,1.04989003498927,1.05526950388929,1.02536072912455,1.01945403652835,0.976007229565049,0.956258680945368,0.958867991441724,0.95127239581877,0.918745374562826,0.896521555369547,0.897531322787657,0.882333876345354,0.889277144344219,0.929146872568847,0.901820600315914,0.870885079742849,0.909773635732889,0.908683444361124,0.924795043076637,0.980305443088156,0.981967538130355,1.06590333776142,0.990546093186868,1.07445508483338,1.08334639970967,1.04429610221283,1.00397689344722,1.00568366846367,0.987329135040676,0.989125270005633,0.989831213598825,0.990000997500985,0.990206525382548,0.990474605228064,0.991144804841854,0.993602203425751,0.991010764919096,1.06742245688601,0.982691353713248,1.03591413904303,1.07928052205267,0.961209222092564,0.961897293696055,0.957196960404674,0.956982496528261,1.2880164257663
0.997051497438057,0.859791935735396,0.854613526719512,0.858493535683613,0.863990066116177,0.870113903387248,0.82565018020996,0.861166291743408,0.786151295771629,0.774013533966148,0.778539615357944,0.779015903883477,0.816016284161599,0.855047816069248,0.854710035463897,0.837062339233577,0.936063332583161,0.936519068320538,1.01264480845224,1.01225162467882,1.08961053209989,1.08680462971682,1.09420363345306,1.13143098800039,1.13170800384076,1.20296362677892,1.19747692594069,1.20172152349469,1.27214609891175,1.26383562370076,1.27912511089002,1.29640732493095,1.32265234180697,1.40053847292423,1.40270098367806,1.3992248816812,1.34917437452336,1.43230593461788,1.35775292957987,1.35861972108037,1.37762658212746,1.3833992348009,1.44163511324184,1.46468997995621,1.45826499965868,1.45010643636014,1.44978474054552,1.46309043687797,1.49937057597114,1.49859314441914,1.50533088453644,1.54946576310323,1.5087712425539,1.52170162710262,1.52462369741875,1.52305096232505,1.59689802376987,1.55616775924113,1.55838388596407,1.61745974792095,1.58709523741883,1.59506614482551,1.59091090722001,1.59103601114792,1.60007030194181,1.76868358877654,1.58991007579675,1.59243896233945,1.7129051089195,1.72825714807272,1.65808278051148,1.72554954163301,1.62388472821848,1.7221002476207,1.68154870298898,1.64109545430061,1.64057716659928,1.63980867104213,1.61474320548638,1.60485105918684,1.61510064528041,1.61516319724436,1.65796661257842,1.63627001708132,1.63555513749328,1.55986726110925,1.56007278899082,1.5615025481669,1.56078766857886,1.56057320470245,1.59659419994495,1.59007985969891,1.60371618784083,1.66484732861333,1.51522303083598,1.51516047887203,1.51353412780923,1.50593853218628,1.5380723696688,1.48350024911659,1.48347344113204,1.42872260068281,1.43998195419449,1.44505759926959,1.39034250279977,1.43986578626143,1.37712616641583,1.38902891155674,1.39153992610974,1.34030093163678,1.3456267845677,1.30582586350342,1.25872423464625,1.24869804842395,1.23247921777023,1.22538403785891,1.21029114255635,1.19724459007458,1.18765626759995,1.16746091923774,1.15475393456028,1.08620591806184,1.06459868251325,1.06559057794165,1.03331376454152,1.02482456943352,1.00403050941632,0.968384825957543,0.958099495884578,0.949681788735375,0.993289443605982,0.927029041789271,0.899667025556935,0.892108961112353,0.881288364947841,0.887950149108914,0.888224484150826,0.944945711464592,0.876670242809085,0.921292133095228,0.898165778422045,0.910032779583555,1.08051368934205,1.08049581735235,1.08249748019886,1.06993347143901,1.10761656172372,1.16403843320999,1.06233787581606,1.06864668818054,0.991162676831555,0.989706109670918,1.12576556726515,0.98756147090679,1.08643825392795,0.989482709799654,0.98975078964517,0.991341396728566,0.99308391572442,0.993182211667776,1.00123354302811,0.980823730789487,1.08180940859537,1.08111240099703,0.961879421706354,0.962370901423134,0.959037775343884,1.3339385033032,0.950798788091692
0.851388526177954,0.860648004042077,0.861849001749989,0.83151398003088,0.830877737197522,0.891676458961587,0.892343084177437,0.792936396661639,0.856116561053371,0.781400920909085,0.782672512976316,0.782193543652327,0.799073637924986,0.854748460241755,0.855203302379647,0.941174721637666,0.942041513138168,0.961244966071966,1.01007124193529,1.11716020422409,1.1048553393149,1.10495363525826,1.14720301891158,1.18485036521688,1.18644097230028,1.20310660269653,1.20891499934937,1.2161352831886,1.25403283734972,1.2780081115337,1.30894452570625,1.30838155803067,1.30402972853846,1.31486015429731,1.3189260319543,1.39725896281408,1.34382171360789,1.34254386634426,1.34227578649875,1.36699274825532,1.38298817903778,1.38942209533016,1.40654346146379,1.46441296411585,1.45963220687081,1.46084750217048,1.4502762202623,1.45023154028805,1.47301832715691,1.57484398847875,1.5991856384516,1.57883837817694,1.58655014173295,1.57330699736446,1.5355970990952,1.53789364977179,1.53481073154836,1.56200296387853,1.66386436917977,1.62340218449655,1.58857861256402,1.59219769047849,1.59858692679662,1.59132196298313,1.59427084128381,1.58860542054857,1.58774756504292,1.59276065815407,1.64535792384431,1.57689033129952,1.59788991919828,1.72673802894813,1.72167131986788,1.72203769565675,1.66426648894805,1.6852839488365,1.64032695874346,1.67138847684392,1.60349278796956,1.60561061874914,1.60343917200046,1.6050029710993,1.63401814637899,1.58847138062581,1.6485212660214,1.56129702028534,1.56122553232653,1.55991194108351,1.55911663754181,1.56211019581674,1.5974520554506,1.73839056623323,1.60561955474399,1.51323030398432,1.51239032046837,1.51438304732003,1.50972739400291,1.53162951738157,1.59897117457519,1.48594871170563,1.48107859451209,1.48391130487971,1.43973174633867,1.39770576255661,1.39675854710245,1.44070576977738,1.43543353281556,1.35539382693933,1.34792333524428,1.3256637720716,1.31012407702652,1.26593558249063,1.25655278789757,1.26170885692633,1.27672132827523,1.29504011771882,1.24320241159087,1.23348004919349,1.18881794693052,1.17279570816351,1.11183435129317,1.08910118039341,1.09551722469609,1.14479923629679,1.05251721747532,1.02047273994131,0.97586425364744,0.975783829693786,0.957339936322283,0.956714416682745,0.941415993498631,0.918236022856345,0.916413079906836,0.920952565290907,0.876815005925664,0.894350108620867,0.889191358793654,0.888311163300876,0.909478747902822,0.909630659815281,0.948573725373909,1.07929839404237,1.08053156133175,1.05224020163496,1.0721942781362,1.04666414084822,1.09539212076819,1.06544760202405,1.21038050250486,1.11877761929203,1.12372816043923,1.13642620912184,1.08681356571167,1.13006378078826,0.984809184492825,1.07528613235448,1.08314980782295,0.992306484172423,0.99325369962658,1.06627864954515,1.07416019700332,0.976954445019205,0.97535490194096,0.965981043342749,0.96297854907297,0.961825805737251,0.956839520610653,0.95611570502776,0.954703817841375
0.851020363190112,0.95746504025019,0.866348275157233,0.831644445555698,0.831120796257457,0.857281814781881,0.791074135334788,0.791740760550638,0.791292173609141,0.783735896363529,0.782126523690948,0.78173780791495,0.830108348040892,0.827649162258025,0.827215766507774,0.873719577309439,0.946965246300813,0.941889601225709,1.0370400743942,1.0420621035002,1.05545715978115,1.09628572025324,1.17579820243329,1.18051640771438,1.1935361522116,1.21909309748413,1.22458873431721,1.24382793123041,1.26262032840108,1.29689880464773,1.30229614553746,1.29984768294841,1.30033916266519,1.29825707586501,1.31864008011908,1.32396593305,1.41062721111048,1.38969911117053,1.42720348155822,1.37580363917795,1.38080779629425,1.40752642089735,1.40705281317027,1.48799505452641,1.47871949187155,1.45161661948988,1.45088386791214,1.46524401163695,1.54006509652047,1.53604389883773,1.58418210309756,1.57951751378558,1.58948114804392,1.5740040049628,1.53634772266265,1.53847448943707,1.53533795524454,1.54737474030821,1.6326062591926,1.61401938990349,1.59122366703978,1.5974163114712,1.59639760805824,1.59760396736306,1.59623676015093,1.59027645158562,1.58889137238379,1.71153790170737,1.57420059684951,1.57686352331497,1.57608609176297,1.596531647981,1.72050964053731,1.59676398384711,1.59639760805824,1.66696515939291,1.86279748654236,1.59956988623018,1.60197366884497,1.60510126704266,1.59873883870908,1.61204453504152,1.61460916556363,1.6091045927357,1.62375068829572,1.62321452860469,1.56180637199182,1.55737411854595,1.55676647089612,1.56256593155412,1.64251627748184,1.65523219815415,1.54001148055137,1.51338221589677,1.51242606444777,1.51527664680509,1.50896783444061,1.5129800961285,1.51234564049411,1.55011809072732,1.49718125723276,1.47503786199313,1.44644267847142,1.47479659013217,1.39949296152672,1.39774150653601,1.36847612340051,1.34278513820523,1.33627079795919,1.31278700349198,1.31298359537869,1.26378200773165,1.2930384548723,1.28798961778175,1.25552514848976,1.25340731771018,1.22881545988151,1.27219971488086,1.19517143926925,1.17368930764857,1.1199214266329,1.08928883628527,1.07349893338438,1.06763692076243,1.02713005610496,1.02863130323984,0.991886492414448,0.991323524738864,0.955811881202841,0.940772601869392,0.938118611398784,0.916904559623616,0.99609534598905,0.886816171362382,0.886013719024804,0.935830996717047,1.01476263923182,1.01496816711338,0.992967747791363,0.948082245657129,0.948502237415104,0.942649160788005,1.0805941132957,1.02300162648401,1.05329464902732,1.05257083344443,1.02237610684447,1.02419011379913,1.19221362497372,1.14852554614946,1.00142119891997,1.08527657459738,1.04988109899442,1.08687611767563,1.17309059599358,1.25651704391817,1.08630421400519,1.07602781992708,1.06577823383352,1.03121380575165,1.03642349074951,1.35746697774465,1.28243142898472,0.963550452743404,0.963050037031774,0.958054815910326,0.957983327951521,0.954828921769283,0.955865497171945
0.85199438662882,0.957688440121454,0.881545721599537,0.879670949879894,0.866409933521702,0.909183860072754,0.791056263345087,0.791310939198327,0.791162601683808,0.781880783832558,0.782296307593108,0.781796785480963,0.82791009330766,0.823996127563126,0.824165911465286,0.889058212470381,0.95728632035318,0.950566452225578,1.03361758836644,1.06478633840511,1.06215915591905,1.12675746269356,1.14885617795893,1.21161366979423,1.2318894421101,1.29460225397115,1.28000083838537,1.25483707688627,1.27467498545445,1.2713061153958,1.29299377489805,1.29117083194854,1.29913280336037,1.29959747509259,1.30646925513265,1.31174149209447,1.34282981817948,1.38522217775041,1.36547362913073,1.3825324433004,1.38496303389975,1.45670120055984,1.39576665167404,1.47678931698384,1.44800647757027,1.44569205490398,1.44547759102757,1.55259336130092,1.55203932962019,1.54274589497563,1.59232279440639,1.59373468159278,1.56441568248818,1.53494477147111,1.58459315886068,1.53562390707975,1.53605283483258,1.55376397662634,1.5539158885388,1.59889968661639,1.60447574740312,1.60188430889647,1.72067942443947,1.59847075886356,1.59569166446505,1.59117005107068,1.58943646806967,1.57211851004934,1.5740933649113,1.57378954108639,1.62233880110934,1.58364594340653,1.59888181462669,1.59723759157419,1.59682653581106,1.66751919107364,1.66479371264423,1.60005242995211,1.59924819041556,1.59899798255974,1.59857799080177,1.59807757509014,1.58768501307897,1.61063264785514,1.61103476762341,1.56199402788368,1.55656987900941,1.55800857418034,1.55836601397436,1.56261954752322,1.55508650386422,1.52684876013653,1.52248799464947,1.4986914403625,1.49810166470236,1.49742252909372,1.52618749651759,1.51356093579379,1.55323675293016,1.52202332291724,1.46834480185008,1.47576167757603,1.44991878046828,1.47236599953282,1.41802621484672,1.37037055430883,1.36567915701229,1.36793102771463,1.33711078147514,1.32827308256796,1.31435080259083,1.28328928449037,1.28835599357062,1.2871496342658,1.27240524276242,1.22846695608234,1.22829717218018,1.24701808139205,1.20135514770582,1.17702243372782,1.17742455349609,1.10196007698333,1.07378488521959,1.03196442931909,1.03151762957657,1.00571941244308,0.981029258671049,0.987168287133366,0.953524266521105,0.947072478239019,0.928503480939609,0.995112386555491,0.909612787825579,0.903813327167583,0.917217319443384,0.892091089122652,0.890124276656049,1.01795278939346,0.943337232391496,1.07121131870264,0.956491016811482,1.01569198269627,0.930835775595598,1.11741934807475,1.21961138518546,1.02142889139031,1.02267099467454,1.10507873918616,1.18055215169378,1.13808830416404,1.1458804916737,1.05757499056073,1.09263089835937,1.0956602006137,1.10835824929631,1.17066894138909,1.08612549410818,1.08401659932346,1.4259435062843,1.15138506450163,1.10224602881855,1.02516413723784,0.964461924218158,0.962612173284098,0.963050037031774,0.957214832394375,0.954212338124596,0.955213169547856,0.956151449007162
0.871532045770028,0.880083792841989,0.870139817772315,0.885751894375683,0.892419040133667,0.888617667924249,0.791001753776499,0.792966779044131,0.79345110996503,0.783282841424607,0.783457093324193,0.783088036736866,0.811529521147146,0.837598498924609,0.847344094908602,0.846954485533119,0.950968571993852,0.971905607928654,1.00854318681584,1.0429467669904,1.06509909822488,1.12845530171516,1.33660142976866,1.35719889789914,1.37288156886183,1.39935892160396,1.3658400049196,1.26561388667601,1.37058501818524,1.28405778004752,1.29074190419571,1.29203762344904,1.29204655944389,1.29575499730686,1.30220678558895,1.30338633690922,1.3515334771639,1.35119390935958,1.34567146454195,1.38946677530442,1.38281839513562,1.38574940144659,1.38725064858148,1.41952746198161,1.51100524126653,1.47990797918667,1.53708047424039,1.55246825737301,1.55235208943995,1.53626729870899,1.53656218653906,1.59175089073596,1.63531386563231,1.63374113053862,1.53373841216629,1.53589198692527,1.5364281466163,1.5539158885388,1.58966880393579,1.58414635911816,1.5965852639501,1.60619145841442,1.61065945583969,1.6091045927357,1.59628144012518,1.60716548185313,1.5933325618245,1.59216194649908,1.56468376233369,1.56504120212771,1.66920809410039,1.58427146304606,1.58340467154556,1.59737163149695,1.59693376774927,1.66621453582546,1.60811269730729,1.5966210079295,1.59603123226937,1.60235791662354,1.60183069292736,1.60892587283869,1.6132598303412,1.6115798633093,1.58411061513875,1.57473675654054,1.61356365416611,1.56123446832139,1.56138638023384,1.55660562298881,1.52667897623437,1.52758151171427,1.51914593257537,1.51850254094613,1.50257859812248,1.49212348414735,1.49526895433474,1.50932527423463,1.51172905684943,1.50015694351798,1.46905074544327,1.47227663958432,1.45415444202743,1.4577020319831,1.45074982798938,1.38910039951554,1.38588344136935,1.37729595031799,1.35811036937389,1.33879968450189,1.3089177177217,1.28199356523704,1.27212822692205,1.28429905190848,1.28120719769019,1.24026246928505,1.25068183928077,1.24679468152079,1.20287426683041,1.20507252156364,1.13176161980986,1.1065531783365,1.06325828328566,1.06327615527537,1.01477157522667,1.00009867168209,0.988633790288854,0.96246919736649,0.942854688669567,0.935098245139303,0.932712334514211,0.922963164132278,0.909854059686544,0.904501398771074,0.90460863070928,0.894993500250105,0.970770736582636,1.01824767722352,1.0629276514762,0.966088275280956,0.954382122026756,1.0095440182391,1.05632395128165,1.2512358709615,1.24313985962692,1.02170590723068,1.01616559042335,1.11622192476478,1.13776660834942,1.0947576651338,1.09592828045922,1.05181127388213,1.06744926487057,1.04629776505935,1.04583309332712,0.957000368517963,0.954408930011307,0.953980002258482,1.02177739518949,1.21081836625254,0.971700080047091,1.03005212642108,0.967580586420995,1.03765665803888,0.962594301294397,0.960154774700201,0.956803776631251,0.956035281074105,1.03788005791015
0.883181902256669,0.877282358456347,0.885579429675068,0.901641880418903,0.890869538626584,0.910318731418772,0.790401254922543,0.79461636369354,0.795062269836581,0.851760263563736,0.783767172345506,0.782980804798659,1.23204135402256,1.23301537746126,0.849454776892298,0.847496006821061,0.928968152671837,0.972236239738123,1.0069078997582,1.03640561875981,1.05059597858246,1.21921820141204,1.29613924508544,1.2779723675543,1.30014257077848,1.39650833924664,1.36614382874452,1.36696594027077,1.26472028719096,1.26185183284394,1.28510329144503,1.31524440207588,1.28434373188273,1.28505861147077,1.30656755107601,1.31192914798633,1.32443954077708,1.34058688347199,1.35215899680344,1.41457692083442,1.41370119333907,1.38389071451768,1.38494516191005,1.47824588414447,1.47798674029381,1.47980968324332,1.53734855408591,1.53602602684803,1.54709772446784,1.54784834803529,1.60847013710131,1.60031157380277,1.60494041913535,1.63551939351388,1.53371160418174,1.5354719951673,1.549001091371,1.55307590502285,1.57201127811113,1.57222574198754,1.72520997382869,1.59847969485841,1.61099902364401,1.61081136775215,1.637664032278,1.57378954108639,1.56425483458087,1.56374548287439,1.56328974713701,1.66899363022398,1.66883278231667,1.67150464477698,1.67080763717864,1.93920024251443,1.94831495726198,1.6677068469655,1.88631702498897,1.624152808064,1.59749673542485,1.59844395087901,1.60101751739596,1.60900629679234,1.60831822518885,1.5840659351645,1.57792690670218,1.57726564308324,1.61465384553788,1.6140908778623,1.5740754929216,1.57337848532326,1.58367275139108,1.58280595989057,1.51893146869896,1.49747614506282,1.49116733269835,1.49334771544188,1.49163200443057,1.49600170591249,1.49422344293723,1.48219559386841,1.4752612618644,1.48200793797655,1.45641524872462,1.44896262901927,1.46345681266684,1.42775751323896,1.38877870370093,1.37856486158677,1.39264798947121,1.34663655198581,1.31089257258367,1.28571987508971,1.27603325667174,1.28084082190132,1.26056504958546,1.20758353611664,1.19992538852974,1.19783436573471,1.2034729784854,1.17360888369491,1.18559205278948,1.13622068124028,1.07657291561296,1.04766497227148,1.00691683575305,0.991797132465943,0.971083496402405,0.95361362646961,0.947975013718923,0.947447790022741,0.923544003797562,0.916699031742053,0.916368399932583,0.903286103471401,0.901463160521892,0.90996129162475,0.906931989370419,1.04276804709339,0.966767410889596,1.00688109177364,0.971789439995597,0.913875257369284,0.918834734511331,0.919120686346548,0.919058134382594,0.966517203033781,1.09601764040772,1.1290986933444,1.09658060808331,0.923409963874804,1.07032665521244,1.06524207414248,1.07948604993424,0.936572684289641,1.10052138181239,0.954551905928916,0.954721689831076,0.955391889444866,1.29566563735836,0.96950182531386,0.962460261371639,0.962773021191408,1.04857644374624,1.05043513067515,1.00123354302811,1.0254054090988,0.946813334388353,0.947474598007293,0.948001821703475
0.880835310008919,0.88628179887032,0.891426251105772,1.06680587324133,0.982190938001618,0.90845110849501,0.898192586406597,0.794508238155848,0.79721227019762,0.86043622096412,0.842644655216706,0.854986157704779,0.817393320968066,0.83393295383692,0.873045803297708,0.882543872224341,0.927895833289773,0.962835573155361,0.957554400198696,1.03340312449003,1.04476970993991,1.06182852410958,1.13199395567597,1.40026145708386,1.37894017337049,1.37649171078144,1.40411287086444,1.31284955545594,1.26803554128051,1.26516708693349,1.26561388667601,1.27744514385812,1.27825831938952,1.2796165906068,1.29279718301134,1.32540462822094,1.33358106350918,1.35638572236774,1.37372155237778,1.45722842425602,1.38032525257232,1.38868934375242,1.38745617646305,1.47737015664912,1.47577954956573,1.52306883431475,1.50512535665488,1.51854722092038,1.58387827927264,1.54943895511868,1.54476542981185,1.60068688558649,1.63210584348097,1.57703330721713,1.56337017109066,1.73194771394599,1.57611289974752,1.57390570901944,1.56584544166426,1.57891880213059,1.57747117096481,1.57764989086182,1.57487973245815,1.69046682584981,1.56622075344798,1.56617607347373,1.57437038075167,1.56575608171576,1.5640135627199,1.56177956400727,1.66711707130537,1.6660983678924,1.66398947310768,1.66337288946299,1.94839538121563,1.88882803954197,1.88618298506621,1.67313993183463,1.66701877536201,1.59267129820556,1.59195641861752,1.59125047502433,1.5865590777278,1.58411061513875,1.58359232743742,1.57809669060434,1.61407300587259,1.62963057290737,1.56026938087753,1.53817960160701,1.53960936078309,1.53864427333923,1.51472261512435,1.52542793695529,1.48472448041111,1.48342876115778,1.48639551144816,1.48621679155115,1.49050606907941,1.48712826302591,1.46335851672348,1.44394059991327,1.44407463983603,1.45068727602543,1.45102684382975,1.45928370307164,1.42732858548613,1.42145763686933,1.39656195521574,1.35638572236774,1.33530571051533,1.30287698520274,1.28272631681479,1.29134955184555,1.28756962602378,1.20922775916914,1.20938860707645,1.20400913817643,1.21926288138629,1.16524479251481,1.18165127906039,1.19205277706641,1.14857022612372,1.05551077575025,1.04094510414388,0.984460680693654,0.968608225828806,0.963380668841244,0.94558910309383,0.937993507470876,0.917798159108669,0.91782496709322,0.918137726912989,1.02971255861676,0.899041505917398,0.915966280164309,0.900641048995643,1.00057227940917,0.902875047708277,0.905287766317921,0.911444666769939,0.914545456983074,0.915028000705003,1.13534495374492,0.944275511850802,1.09262196236452,1.09547254472184,1.1415465341712,1.14935659367056,1.16585244016465,1.06103322056788,1.15260035980131,1.10741103384215,1.10499831523251,1.14813236237604,1.15689857332441,0.954971897686891,0.956633992729091,1.14973190545428,0.972200495758721,0.970609888675326,0.959287983199699,0.957849288028763,0.956642928723941,0.952979170835222,0.950861340055645,0.94725119813603,0.947483534002144,0.950843468065944
0.877340442422875,0.879038281444477,0.895100732188312,0.885413220170848,1.16968598195553,0.889155614814252,0.861055485407262,0.797529498014814,0.796490241813697,0.795959443719575,0.849494988869126,0.852042641001013,0.821395753061621,0.885294371439336,0.88127406735608,0.86244503260652,0.94390913606193,0.944463167742663,0.97953694753101,1.01150100111137,1.05165042597482,1.06909348792306,1.12054694627244,1.12200351343308,1.44730946997192,1.39056590267103,1.39101270241356,1.29343163864573,1.27678388023918,1.26224501661736,1.27841916729683,1.27185121108169,1.30984706118616,1.29674689273527,1.31869369608819,1.33378659139074,1.34310683401985,1.34268684226187,1.37071012211315,1.36899441110184,1.3976342745978,1.40141420041958,1.48853121421744,1.48225814583236,1.48780739863455,1.49097967680649,1.51035291364244,1.52433774558353,1.58278808790087,1.56637266536044,1.56698924900513,1.63250796324925,1.63155181180024,1.58393189524174,1.56079660457371,1.57072449485265,1.56616713747888,1.56951813554783,1.56904452782075,1.56764157662922,1.57390570901944,1.57681884334072,1.57601460380417,1.68341632591274,1.56922324771776,1.56689988905662,1.6543385986691,1.57528185222643,1.63652916093199,1.67105784503445,1.64868211392871,1.66495456055154,1.66424861695834,1.66212185018392,1.87381556819307,1.8734670643939,1.88991823091374,1.65550027799967,1.67256802816419,1.67036977343096,1.59209939453513,1.59231385841154,1.5848791106959,1.58358339144257,1.64419624451375,1.5715466063789,1.57168064630166,1.62342005648625,1.56694456903088,1.5622978517086,1.53927872897362,1.54079784809821,1.57213638203904,1.50237307024092,1.48410789676642,1.4912298846623,1.48511766418453,1.48276749753884,1.47074858446488,1.45326977853723,1.45249234698523,1.44232318484533,1.44624608658471,1.44563843893487,1.44618353462076,1.44620140661046,1.41084167498689,1.41350460145235,1.40240609584799,1.35840525720396,1.33333979164821,1.36075542384965,1.34530508875308,1.29312781482081,1.24708956935086,1.20114068382941,1.197637773848,1.16544138440152,1.19140938543718,1.21833353792184,1.20952264699921,1.10807229746109,1.07502698850382,1.08993222791451,0.990027805485537,0.981636906320885,0.956544632780585,0.94574995100114,0.942390016937339,0.934830165293787,0.911096162970768,0.922918484158025,0.90376864719333,0.890022406314753,0.892157215484546,1.00121567103841,1.06161406023317,0.893867564898938,0.903715031224227,1.06265957163068,0.913008465868782,0.954936153707489,0.898380242298458,0.9007572169287,0.899810001474543,1.09263089835937,0.906583485571248,0.910658299223092,1.14296735735243,1.17079404531699,1.39460497234347,1.0806298572751,0.931765119060054,0.933757845911723,1.14790896250478,1.25680299575339,1.18358145394811,1.20079218003024,1.18814774731673,1.29365503851699,0.996533209736726,1.06769053673153,1.00200203858525,0.954721689831076,1.007756819269,0.948555853384208,0.950512836256475,1.00101907915169,1.07962008985699
1.11544449321278,1.20286533083556,0.873835745242496,0.871776892028932,0.874335267354641,0.875538945861008,0.85333121145846,0.805297558338383,0.804537105176603,0.800107532529193,0.842734015165211,0.850676327388366,0.815271022191064,0.815978752983227,0.929129000579146,0.872607045950547,0.916019896133413,0.944445295752962,0.97670423716339,0.990858853006637,1.04450163009439,1.06537611406524,1.08786801310404,1.14806981041209,1.21769908228745,1.21448212414126,1.25269243812214,1.29294015892895,1.25287115801915,1.27755237579633,1.27752556781177,1.27826725538437,1.31138405230045,1.35790484149233,1.35542063492388,1.34828971103315,1.34858459886322,1.35872695301858,1.37002205050965,1.43196636681356,1.39032463081007,1.40727621304153,1.49349069135949,1.49355324332344,1.49426812291148,1.50090756708543,1.50083607912662,1.52560665685231,1.52437348956293,1.56755221668071,1.56369186690528,1.5740933649113,1.57418272485981,1.57877582621298,1.57846306639322,1.56469269832854,1.56463908235944,1.56369186690528,1.56948239156843,1.56774880856743,1.57139469446644,1.57690820328922,1.56591692962307,1.57144831043555,1.56828496825846,1.56777561655198,1.6534539351789,1.88369877849776,0.00384031527497589,1.63649341695258,1.60951564849882,1.6092118246739,1.66717068727447,1.66402521708708,1.65698365314486,1.87488788757514,1.87285941674407,1.74796101671815,1.74775548883659,1.67220165237532,1.59208152254543,1.59084835525606,1.58276127991632,1.59411892937135,1.59252832228796,1.57426314881346,1.57356614121512,1.58312765570519,1.58279702389572,1.57190404617292,1.58378891932413,0.00382317603685256,1.55190528969743,1.56847262415032,1.50676957970738,1.48055137081591,1.47936288350079,1.47316130307452,1.47454638227635,1.45378806623856,1.45240298703673,1.45686204846715,1.4502226042932,1.44561163095032,1.44768478175565,1.42152912482813,1.43815007525013,1.41353140943691,1.41169953049255,1.37299773679488,1.38850168786056,1.32751352300566,1.32787096279968,1.36372217414003,1.26485432711372,1.20397339419703,1.17707604969692,1.16728219934073,1.15620156572607,1.13584536945655,1.15545094215863,1.15680027738106,1.05401846461021,1.04754880433843,0.971941351908056,0.957482912239891,0.950593260210129,0.947885653770418,0.965087443857696,0.922757636250715,0.925590346618335,0.924955890983947,0.912731450028416,0.939244546749951,0.888991192509002,0.880299150317887,0.88192996937811,0.881743207085734,0.902553351893657,0.87700891701392,0.878076768398559,0.885802829546331,0.89440372458997,0.893751396965881,0.899372137726867,0.903795455177882,0.905707758075896,1.23363196110595,0.916243296004676,1.15798876469618,1.10496257125311,0.928753688795424,0.930183447971509,1.10181710106572,1.17418078736535,1.20372318634121,1.18980984235893,1.15087571279515,1.16262654602361,1.05233849757831,1.27233375480361,1.03048105417391,1.00302967799306,1.00260075024024,1.00874871469741,0.999053160284576,1.14476349231739,0.956258680945368,0.960315622607511
0.858319283784028,0.856688464723806,0.855389171072538,0.848156376840515,0.848190333620948,0.895368812033828,0.873194140812227,0.87015322176459,0.80925084246026,0.801771414770362,0.801914390687971,0.839637692949501,0.815086047097658,0.816136920092081,0.862608561312284,0.862271674306419,0.923311667931448,0.943712544175218,0.962746213206856,1.00433433324124,1.11500662946511,1.09504361696902,1.11463131768139,1.13933040744826,1.18978303437438,1.22885120386091,1.42038531748726,1.23507065627689,1.2369472151955,1.30222465757865,1.27433541765013,1.31409165874016,1.31023130896473,1.32057919100165,1.3590307768435,1.34799482320309,1.36856548334902,1.36761826789486,1.37476706377529,1.40572134993754,1.41492542463359,1.49087244486828,1.49332984345218,1.49332984345218,1.49932589599688,1.49777103289289,1.59136664295739,1.52857340714268,1.63949591122236,1.56474631429765,1.56446036246243,1.56291443535329,1.58043792125518,1.57605928377842,1.5790975220276,1.56461227437489,1.56529140998353,1.56815986433055,1.56209232382704,1.57966048970319,1.5714572464304,1.5715108623995,1.5656041698033,1.56495184217921,1.57108193464667,1.56673010515446,1.9236158674951,1.95968154271186,1.90170480812159,0.00385868768038858,1.60965862441643,1.60987308829284,1.61154411932989,1.66390011315917,1.65742151689254,1.6568496132221,1.63724404052003,1.63778913620591,1.75661105973347,1.61715592409603,1.57973197766199,1.58378891932413,1.58300255177729,1.59471764102634,1.59443168919112,1.57268147772492,1.57795371468674,1.58352977547347,1.58292212782363,1.58863222853312,1.58125109678658,1.58059876916249,1.57177000625017,1.55127977005789,1.52460582542905,1.50635852394425,1.47178515986754,1.46676313076154,1.46536911556485,1.45586121704389,1.45594164099754,1.45667439257528,1.46027559850005,1.46933669727849,1.45351998639305,1.42206528451917,1.43644330023368,1.39931424162971,1.41710580737712,1.41624795187147,1.37591980711101,1.37129096177843,1.36491066145515,1.32412678095731,1.23417705679183,1.2344898166116,1.20475082574902,1.2043218979962,1.1216192656545,1.1048374673252,1.07428530093122,1.06839648032472,1.0403463924889,1.01862298900725,0.990957148949993,0.997757441031249,0.950736236127738,0.938449243208253,0.921247453120975,0.920943629296057,0.901150400702124,0.889411184266977,0.915358632514473,0.898827042040985,0.916019896133413,0.876361057387257,0.873241501584935,0.873335329530866,0.869484809349771,0.870062074617115,0.895753059812401,0.896700275266558,0.87666220041372,0.892023175561788,0.899121929871052,0.901802728326213,0.90610094184932,0.909666403794683,0.914062913261145,1.10207624491639,0.922811252219819,0.928825176754228,0.930076216033303,0.933471894076506,1.16889067841383,1.18968473843102,1.18771881956391,1.16945364608941,1.15107230468186,1.02554838501641,1.00889169061501,1.0162102703976,1.29696135661169,1.15096507274366,1.13588111343596,0.978777387968714,0.959422023122457,0.960583702453027,0.960539022478774
0.856415916880864,0.855790397241327,0.855692101297971,0.854548293957103,0.856291706552442,0.870355175248213,0.881463510446912,0.809404541571689,0.809107866542651,0.801941198672523,0.802569399110515,0.806702296728887,0.858724084350757,0.865289359767445,0.87382591564816,0.87542099072898,0.93538419697452,0.91096212304801,0.957590144178098,1.08640250994855,1.08647399790735,1.09549041671154,1.16792559096997,1.16850643063526,1.19628843862557,1.20050622819502,1.21676080282814,1.21922713740689,1.23798379059816,1.25383624546301,1.32326892545166,1.34895991064694,1.31870263208304,1.34546593666039,1.35332961212886,1.3532849321546,1.36491959745,1.36825272352925,1.37374836036233,1.41413012109189,1.44891794904502,1.48498362426178,1.55815155009795,1.62192774534621,1.49763699297013,1.49735997712977,1.59144706691104,1.53148654146396,1.53104867771628,1.57109980663638,1.56463014636459,1.59506614482551,1.5724312698691,1.57711373117078,1.5798034656208,1.58369062338078,1.75363537344824,1.63658277690109,1.64794936235097,1.64728809873203,1.7003321641648,1.57163596632741,1.57193085415748,1.57877582621298,1.59352915371122,1.59294831404593,1.94213124882541,1.86989266645369,1.87730954217963,1.87672870251435,1.85453169130562,1.6125360147583,1.61234835886644,1.61727209202909,1.61794229164288,1.72092963229528,1.59713035963598,1.61980097857179,1.57131427051279,1.57142150245099,1.61834441141115,1.58940072409027,1.5789902900894,1.64634088327787,1.6451077159885,1.57818605055285,1.57898135409455,1.57801626665069,1.5682224162945,1.56769519259832,1.58235916014805,1.58117067283293,1.54587349317332,1.54410416619291,1.57200234211628,1.51361455176289,1.51222053656621,1.48505511222058,1.47716462876756,1.48493000829267,1.46023985452065,1.45833648761748,1.46597676321469,1.4661912270911,1.42025127756451,1.41552413628857,1.41345098548325,1.40212014401277,1.41792791890337,1.41788323892912,1.3658221329299,1.37204158534587,1.3641600378877,1.33341127960702,1.33230321624555,1.24123649272376,1.16660306373209,1.15128676855828,1.12937570918477,1.07575080408671,1.0756257001588,1.05821838218996,1.08373958348309,1.05676181502933,0.972745591444604,0.969537569293262,0.946223558728218,0.929325592465858,0.921292133095228,0.908397492525907,0.890200232612279,0.882046137311167,0.882409832301583,0.8990772498968,0.871180861172402,0.872968060142509,0.875841876086441,0.874147611462779,0.866975581995741,0.86269792126079,0.863423524042653,0.999911015790228,0.933311046169196,0.891656799772916,0.8929730718144,0.899532985634177,0.904581822724729,0.909827251701992,0.913785897420779,1.09931502250757,1.10011032604927,0.930335359883968,0.931211087379321,1.18863029103866,1.15752409296395,1.18305423025193,1.16993618981134,1.54329992665636,1.14539794795178,1.11388963010879,0.990519285202316,0.991502244635875,1.11826826758555,0.994272403039541,1.07353467736378,0.972647295501248,0.95947563909156,0.959859886870133,0.959225431235745
0.851798688341593,0.851079340756125,0.851959536248903,0.852509993531696,0.852629735862693,0.867374127366074,0.868992436033506,0.808518090882516,0.809054250573548,0.807858614462546,0.835531603315681,0.900953808815412,0.861087654988723,0.831166369831195,0.878355571437896,0.876811431527724,0.877314528037809,0.938949658919883,0.938833490986826,1.081353672858,1.1691676942542,1.16891748639838,1.173483779767,1.19129321750412,1.19208852104582,1.19458166360912,1.22575041364778,1.22091604043364,1.23393578493087,1.23702763914915,1.26465773522701,1.28636326671895,1.34025625166252,1.34680633588797,1.33284831193143,1.32874669029504,1.37755509416865,1.36435662977442,1.36863697130782,1.38596386532301,1.50200669445204,1.45376125825401,1.56595267360247,1.62325920857894,1.49851272046549,1.52260416258253,1.52207693888634,1.59151855486985,1.59091090722001,1.52694705607989,1.57130533451794,1.59201003458663,1.59694270374412,1.58176938448791,1.58291319182878,1.58218044025104,1.75645021182616,1.7622228644996,1.64854807400596,1.64873572989782,1.57697075525318,1.57673841938706,1.57794477869188,1.63948697522751,1.59336830580391,1.59313596993779,1.66355160936,1.66309587362263,1.8842885541579,1.87707720631352,1.87718443825172,1.64437496441076,1.61258069473255,1.61279515860897,1.60905991276144,1.60891693684384,1.68540011676956,1.58438763097912,1.57854349034687,1.56463014636459,1.56454972241093,1.57165383831711,1.55871451777353,1.58780118101202,1.65112164052291,1.58800670889359,1.65915509989354,1.57144831043555,1.56973259942424,1.56800795241809,1.56860666407308,1.58646078178444,1.54582881319906,1.54504244565222,1.57161809433771,1.53282694069154,1.48571637583952,1.48495681627723,1.47937181949564,1.47863013192305,1.45839010358659,1.45789862386981,1.48506404821543,1.4116905944977,1.39702662694797,1.42405801137083,1.39554325180278,1.39249607755875,1.38970804716538,1.38958294323747,1.36647446055399,1.35919162475081,1.35855716911642,1.34876331876023,1.234525560591,1.25859019472349,1.16706773546432,1.14010783900026,1.12077928213855,1.09666103203696,1.06527781812189,1.05736946267916,1.03695965044054,1.05084618643827,0.991189484816106,0.962433453387087,0.944168279912595,0.922704020281612,0.915733944298195,0.90342907938901,0.899488305659924,0.882137284458642,0.87264457712892,0.873736555699655,0.875880300864298,0.861216333314571,0.861151994151647,0.871717914462919,0.874003741945686,1.03121380575165,0.868484871525996,0.869583105293126,0.890996429753461,0.891478973475391,0.896923675137821,0.898004930514736,0.906699653504305,0.911936146486719,0.916359463937733,0.920353853635922,1.01159929705473,1.06285616351739,0.934615701417374,1.07317723756976,1.06206979597054,1.10280899649413,1.17238465240039,1.11440791781012,1.11145903950945,1.11077990390081,0.990706941094178,0.99041205326411,1.06119406847519,1.06838754432987,1.0722478941053,1.07315042958521,0.960816038319141,0.962630045273799,0.964595964140917
0.851045383975693,0.850705816171373,0.850045446151918,0.849746090324425,0.850175018077251,0.850327823589195,0.862352991859559,0.870534788744708,0.808969358622468,0.807306369980783,0.883205135843281,0.849226909023609,0.836879151339141,0.831874994222842,0.832934803212116,0.90727155717474,1.01022315384774,0.94742098203819,1.04728966048776,1.11412196597491,1.12498813571316,1.12714171047213,1.17237571640554,1.17454716315422,1.19385784802622,1.22201516780026,1.20633249683757,1.2161352831886,1.21281109310421,1.24729509723242,1.25262988615819,1.26606068641854,1.34585018443896,1.3516228371124,1.3272186351756,1.32766543491812,1.34899565462635,1.34812886312585,1.36224773498969,1.41507733654605,1.41363864137511,1.42681923377965,1.45656716063708,1.50649256386701,1.50920910630158,1.50907506637882,1.5948695529388,1.59096452318911,1.57958006574953,1.55045765853164,1.5589200456551,1.55961705325344,1.53355075627443,1.58306510374124,1.65230119184318,1.68627584426491,1.68660647607438,1.69313868831012,1.69993004439653,1.70043939610301,1.57672948339221,1.67297014793247,1.67333652372134,1.58898966832714,1.58947221204907,1.62735189422049,1.64533111585976,1.66374820124671,1.88469960992102,1.88408302627634,1.65327521528189,1.67305950788097,1.61258069473255,1.61077562377275,1.61147263137109,1.61069519981909,1.60994457625165,1.61384960600133,1.57757840290301,1.57262786175582,1.5647909942719,1.55931322942852,1.56026044488268,1.58192129640037,1.54823259581386,1.56196721989913,1.58612121398012,1.58643397379989,1.57470994855599,1.5615025481669,1.56261954752322,1.53993105659771,1.59568272847019,1.56395101075595,1.56248550760046,1.50480366084026,1.53330948441347,1.48538574403005,1.47991691518152,1.47686974093749,1.45037451620566,1.45028515625715,1.42549670654177,1.42542521858297,1.45977518278842,1.39029782282552,1.42915152843564,1.39898360982024,1.35022882191572,1.36423152584651,1.33245512815801,1.29323504675901,1.26440752737119,1.23921695788753,1.23697402318005,1.21349022871285,1.18152617513249,1.21082730224739,1.11554278915614,1.09283642624093,1.07019261528968,1.09858227092983,1.0386842974467,1.00876658668711,0.977946340447615,0.950164332457304,0.962755149201707,0.929986856084798,0.914911832771946,0.906208173787526,0.886213885309456,0.894787972368543,0.870667041468496,0.875092146118481,0.886316649250237,0.860942891872145,0.862309205484792,1.02281397059215,0.879442188411721,0.878835434361369,0.879032919847566,0.864886346399686,0.892349339373832,0.892420827332637,0.896843251184166,0.901346992588835,1.01663919815043,0.996729801623438,0.916493503860491,1.09845716700192,0.927877961300071,1.06608205765843,0.994862178699676,0.950664748168934,1.14515667609081,1.06858413621658,1.13947338336587,1.11206668715928,1.11290667067523,1.10320218026755,1.22438320643565,1.11136074356609,1.12813360590054,1.13539856971403,1.07087175089832,0.965936363368497,0.962674725248052,0.962996421062671,0.965596795564176
0.850706709770858,0.848753301296531,0.849872087851818,0.850460969912468,0.850384120356754,0.850384120356754,0.844432747786298,1.06813733647406,0.86446456744274,0.923374219895402,0.868582273869867,0.874657856768745,0.854997774498084,0.834664811815179,0.906976669344672,0.905636270117092,1.00911509048628,0.946536318547987,1.02799684760546,1.08630421400519,1.12477367183674,1.1574794129897,1.15353863926061,1.17750497744974,1.17709392168662,1.23493661635413,1.24047693316146,1.21006774268509,1.2109881501547,1.22575934964263,1.24106670882159,1.33138280877594,1.28896364122046,1.30785433433449,1.31838093626842,1.33034623337328,1.34887948669329,1.34771780736272,1.39187055791921,1.40976935560483,1.41081486700234,1.42081424524009,1.46640569096752,1.47530594183865,1.46635207499841,1.55338866484262,1.57502270837576,1.605020843089,1.60527105094482,1.54308546277995,1.59522699273282,1.53406010798091,1.53372947617144,1.58197491236948,1.65543772603572,1.68714263576541,1.68626690827006,1.68503374098069,1.70077896390733,1.71068898219657,1.65351648714285,1.67797430504876,1.659307011806,1.58934710812117,1.5890522202911,1.62131116170153,1.64488431611724,1.63464366601852,1.63871847967037,1.65701939712426,1.65519645417475,1.58465571082464,1.59005305171436,1.60453829936707,1.60436851546491,1.61093647168006,1.60805908133818,1.61728102802394,1.57363762917393,1.57358401320482,1.5640314347096,1.56130595628019,1.55811580611855,1.62188306537196,1.58218937624589,1.5564626470712,1.55617669523598,1.55539032768914,1.54580200521451,1.54344290257397,1.61039137599417,1.54027956039688,1.53954680881914,1.56853517611427,1.55442524024528,1.55361206471388,1.50388325337066,1.49024692522874,1.48227601782207,1.4753863657923,1.47485914209612,1.50632277996485,1.42529117866021,1.42543415457782,1.38103119616551,1.38372986661037,1.37536577543027,1.35555467484664,1.36474981354784,1.35903971283835,1.28273525280964,1.27771322370364,1.26163736896752,1.2261078534418,1.22291770328016,1.21075581428858,1.18531503694911,1.15075060886725,1.0990558786569,1.07694822739668,1.06416975476042,1.05241892153197,1.04921089938063,1.02139314741091,0.974899166203583,0.953461714557151,0.944150407922894,0.943855520092827,0.910434899351829,0.89005010789879,0.892010665168997,0.901132528712423,0.875801664109613,0.903661415255124,0.876337823800645,0.857978822380223,0.856818036649138,0.853601972102431,0.879902392146523,0.87976209702737,0.883903037041108,0.890862389830704,0.891900752432336,0.892264447422752,0.896834315189315,0.900632113000793,0.90175804835196,1.01876596492486,0.923061460075633,0.925215034834612,1.05951410144329,1.06819988843801,0.94709035022872,0.95178174752525,0.955043385645695,1.04572586138892,1.07265001387358,1.08998584388361,1.15369948716792,1.13759682444726,1.13599728136901,1.06438421863683,1.02814875951792,0.987543598917088,0.96196878165486,0.963800660599219,0.963094717006027,1.08067453724936,0.961110926149208
0.850099955720507,0.85057981864398,0.850798750517819,0.849782727903313,0.848243949590051,0.84497605627321,0.845436260008013,0.86304106346305,0.861840959354623,0.862437883810639,0.868239131667606,0.874547944032083,0.835172376322689,0.835643303251312,0.835090165170064,0.873752640490386,0.872920699369801,0.945821438959944,1.02734451998137,1.12110097795317,1.11872400332293,1.15087571279515,1.15401224698769,1.16452097693192,1.1800249279976,1.20366063437726,1.31611119357638,1.23482938441592,1.21710930662731,1.24414962704503,1.25658853187697,1.33189216048242,1.34621656022783,1.29683625268378,1.29074190419571,1.3825324433004,1.3698701385972,1.34579656846986,1.42839196887334,1.43210934273117,1.41565817621133,1.41539009636582,1.50997760185872,1.57354826922542,1.46265257313029,1.52818915936411,1.57513887630882,1.60565529872339,1.51613450231074,1.58754203716136,1.57798052267129,1.57803413864039,1.57703330721713,1.57892773812544,1.66037039519321,1.65600962970615,1.65536623807691,1.71892796944876,1.69716882198771,1.70737372810702,1.65406158282874,1.5990962785031,1.6601380593271,1.58923094018811,1.63219520342948,1.61541340510017,1.61507383729585,1.83734777320804,1.61513638925981,1.65642068546928,1.58630886987198,1.58512931855171,1.58446805493277,1.60416298758335,1.6559113337628,1.60197366884497,1.60698676195612,1.60067794959164,1.5740933649113,1.56877644797524,1.56712328892789,1.56570246574665,1.54637390888495,1.62186519338226,1.5497427789436,1.55623031120509,1.55565840753465,1.55610520727718,1.54374672639889,1.54456883792514,1.54071742414456,1.54136975176865,1.59287682608713,1.53242482092326,1.5314418614897,1.53066442993771,1.48430448865314,1.48342876115778,1.48215091389416,1.47753994055128,1.57110874263123,1.51166650488547,1.43869517093601,1.37742999024075,1.38143331593379,1.38133501999043,1.42202060454491,1.37955675701517,1.29675582873012,1.28100166980863,1.27617623258934,1.26924190058533,1.25594514024773,1.2536753975557,1.21124729400536,1.19558249503238,1.18541333289247,1.18488610919629,1.12377284041348,1.08463318296814,1.07225683010015,1.07183683834218,1.01970424438416,1.01828342120293,0.969394593375653,0.967285698590927,0.945151239346154,0.945866118934197,0.902276336053291,0.917753479134416,0.879740650639729,0.898451730257262,0.873800894862579,0.873619494167113,0.87910083340843,0.865685224339323,0.860640855246197,0.868107772543303,0.872562365976295,0.881748568682644,0.883236411825258,0.885907380686082,0.892017813964878,0.896164115575525,0.898791298061583,0.902803559749472,1.04026596853524,0.931711503090951,0.922391260461843,0.996372361829416,0.993566459446348,0.944561463686019,0.951227715844517,0.953935322284229,0.955534865362475,1.1358543054514,1.11373771819633,1.00170715075519,1.13781128832367,1.07793118683024,1.13874956778298,1.13141311601069,1.19413486386659,0.968259722029636,0.963925764527127,0.964068740444735,1.21264130920205,0.956356976888724,0.959681166973123
0.849116102687463,0.849685325559442,0.851183891895876,0.850029361361187,0.84847717905565,0.846865125584613,0.850293866808763,0.854815480203133,0.858004736765289,0.858928718632834,0.866370615144359,0.914330993106662,0.836953320096401,0.835895298306097,0.838483162414812,1.03718305031181,0.938154355378186,0.967080170709365,1.04608330118294,1.04604755720354,1.13345052283661,1.14723876289099,1.19123066554017,1.29660391681767,1.29655030084856,1.20207002729386,1.21092559819074,1.23748337488653,1.22493723811638,1.34046177954409,1.315655457839,1.26810702923931,1.26817851719812,1.38654470498829,1.38586556937965,1.42921408039959,1.42881196063132,1.34836119899196,1.37573215121915,1.47410851852868,1.46651292290572,1.44269849662905,1.43308336616987,1.46043644640736,1.46045431839706,1.46947073720125,1.57567503599985,1.59983796607569,1.54856322762333,1.57706011520168,1.58040217727578,1.58016090541482,1.57047428699684,1.60636124231658,1.60972117638038,1.66677750350105,1.65550027799967,1.65505347825714,1.70416570595568,1.64446432435926,1.68671370801259,1.59943584630742,1.6015715490767,1.6676532309964,1.64685023498435,1.61567254895084,1.83376443927298,1.8341397510567,1.83658821364575,1.62015841836581,1.58577271018095,1.5857280302067,1.58462890284008,1.60248302055145,1.60269748442786,1.67335439571104,1.63743169641189,1.6376461602883,1.61509170928556,1.57353933323057,1.57503164437061,1.57956219375983,1.54805387591685,1.54691006857598,1.60880076891078,1.55873238976324,1.51855615691523,1.51801106122935,1.53416733991912,1.53270183676363,1.53698217829704,1.53976127269555,1.52263990656193,1.5195927323179,1.53185291725283,1.51448134326339,1.4870389030774,1.52144248325196,1.58992794778645,1.46377850848146,1.46301001292431,1.46416275626003,1.46040963842281,1.38296137105323,1.38347965875456,1.41415692907644,1.33715546144939,1.29053637631415,1.28098379781893,1.27534518506824,1.26463092724245,1.26686492595509,1.25330902176683,1.23745656690198,1.20212364326297,1.18208020681322,1.18205339882867,1.15281482367772,1.11344283036627,1.08275662404953,1.07364190930199,1.05724435875126,1.09112965122448,1.01348479196819,0.963791724604368,0.957071856476767,0.941648329364745,0.941675137349296,0.899854681448796,0.887318374272982,0.909344707980063,0.889205656385414,0.875883875262238,0.871364942666323,0.863434247236474,0.862316354280672,0.862441458208579,0.861052804608807,0.872518579601527,0.883847633873034,0.886176354131083,0.890473674054705,0.892884605465379,0.935536108886979,0.902499735924554,0.91046170733638,0.913071017832736,0.919576422083925,0.921694252863502,0.993879219266117,1.03657540266197,1.02873853517805,0.951540475664286,0.953014914814624,1.11738360409535,1.36968248270533,1.23888632607806,1.13416540242465,1.07973625779005,0.959743718937076,1.13948231936072,1.23897568602657,0.971530296144931,0.968447377921497,0.965400203677464,0.963085781011176,0.959609679014319,1.08285491999289,0.962442389381938
0.850268846023182,0.849525371251617,0.85098461921071,0.850343014780441,0.850420757935641,0.859615896636841,0.854158684581619,0.854303447698198,0.855375767080262,0.857948439997731,0.842362277779429,0.843151326124731,0.841325702376767,0.839582289781428,0.83962339535774,0.91714583148458,0.938207971347289,0.972584743537294,0.986444471550473,1.05305337716635,1.12356731253192,1.14191290996007,1.19283914461326,1.24154031654867,1.19018515414265,1.22251558351189,1.21129197397961,1.26269181635989,1.31645969737555,1.31210786788334,1.32709353124769,1.33283937593658,1.3056292716167,1.38733107253514,1.31438654657023,1.39466752430743,1.39461390833832,1.35813717735844,1.35627849042953,1.4436278400935,1.51315881602551,1.48778952664484,1.50519684461369,1.48513553617424,1.46907755342783,1.47569912561207,1.60418085957305,1.60483318719714,1.59576315242385,1.53935021693243,1.57857923432627,1.60130346923118,1.57050109498139,1.57268147772492,1.57273509369402,1.66494562455669,1.64283797329646,1.64286478128102,1.64214990169297,1.67133486087482,1.59758609537336,1.59657632795525,1.59944478230227,1.60007030194181,1.66432010491715,1.8341397510567,1.83386273521633,1.83376443927298,1.73485191227241,1.74314451549371,1.61362620613007,1.61396577393439,1.60760334560081,1.59820267901805,1.67557945842882,1.6518633280955,1.69395186384152,1.69445227955315,1.69369271999085,1.58043792125518,1.57520142827277,1.56744498474251,1.56257486754897,1.55433588029677,1.5647552502925,1.55537245569944,1.55497033593116,1.53355969226928,1.53329161242376,1.5247041213724,1.52790320752889,1.53754514597262,1.53636559465235,1.49776209689804,1.49684168942844,1.49366047526165,1.50101479902364,1.50105947899789,1.50763637120788,1.46905968143812,1.46137472586667,1.46078495020653,1.4695511611549,1.4418763851028,1.41288801780767,1.41221781819388,1.34247237838546,1.31230445977005,1.28789132183839,1.26927764456473,1.25760723528993,1.26052930560606,1.30262677734693,1.24238030006462,1.24775083296979,1.17143743694623,1.17078510932214,1.14851661015461,1.17827347300689,1.10811697743535,1.0721406621671,1.09805504723364,1.07181896635248,1.04325952681017,0.968590353839105,0.953318738639542,1.05954090942784,0.925456306695577,0.913928873338388,0.890371803713409,0.889675689714553,0.897593874751611,0.905180534379715,0.934463789504915,0.869703741223609,0.863135785008466,0.858249583024194,0.857722359328012,0.874447860889757,0.876904365874169,0.967312506575479,0.966418907090426,1.08121963293524,0.908710252345675,0.909192796067604,0.910113203537209,0.913035273853334,0.921989140693569,0.92215892459573,1.02135740343151,0.980957770712245,0.946938438316261,0.948725637286368,1.17548544261352,1.06444677060079,0.969457145339607,0.96883162570007,1.13589898542566,0.955516993372774,0.956821648620952,1.17663818594924,0.973558766976002,0.975068950105743,0.967178466652721,0.967526970451892,1.05367889680589,0.966686986935942,0.967687818359201,0.961924101680607
0.851158871110295,0.85115976470978,0.849861364657997,0.850078509332865,0.854142599790888,0.854264129320856,0.854358850866271,0.854682333879861,0.854847649784595,0.849635283988279,0.841743013336287,0.842254152241737,0.842095985132883,0.839934367978539,0.838749455061358,0.93020131996121,0.948636277337862,0.965266163754707,0.967080170709365,1.03160698952507,1.11736573210565,1.12021631446297,1.14702429901457,1.19558249503238,1.23855569426859,1.22049604867567,1.21973648911337,1.24179052440449,1.24187094835814,1.27505029723818,1.28687261842543,1.28706027431729,1.30872112583499,1.38574046545174,1.32548505217459,1.3240195490191,1.34969266222469,1.3482092870795,1.41648028773758,1.40908128400134,1.44460186353221,1.45754118407579,1.50592066019658,1.45841691157114,1.45796117583376,1.48816483842857,1.60471701926408,1.50589385221203,1.59636186407884,1.53932340894788,1.55907195756756,1.61100795963886,1.57703330721713,1.57590737186596,1.57330699736446,1.57375379710698,1.64566174766923,1.64358859686391,1.64543834779797,1.63331220278579,1.59596868030541,1.59798821514163,1.59908734250825,1.60150899711274,1.60116942930842,1.65239055179169,1.60838971314765,1.66580348006234,1.73254642560098,1.73272514549799,1.61379599003223,1.61432321372841,1.61531510915682,1.59932861436921,1.6484497780626,1.6652315763919,1.69756200576114,1.69673095824004,1.69699903808555,1.71102855000089,1.60239366060295,1.6023847246081,1.55259336130092,1.55209294558929,1.57634523561364,1.55598010334927,1.55599797533897,1.57652395551065,1.53843874545767,1.53398862002211,1.5355077391467,1.53497157945567,1.50204243843145,1.49803911273841,1.49725274519156,1.47588678150393,1.4794879874287,1.5155447266506,1.51506218292868,1.50693042761469,1.50173861460653,1.46396616437332,1.46278661305305,1.41072550705384,1.41030551529586,1.39430114851856,1.32836244251646,1.29979406697931,1.28855258545733,1.2679640533217,1.26455943928365,1.2696440203536,1.26934913252354,1.24139734063106,1.23143370637272,1.21955776921636,1.15705942123172,1.11297815863404,1.11284411871128,1.09299727414824,1.06261489165643,1.08591996622662,1.06836073634532,0.976114461503255,0.976293181400266,0.947278006120581,0.947188646172076,0.938279459306093,0.923311667931448,0.913124633801839,0.912910169925427,0.880779013241361,0.879581589931389,0.877630862255518,0.876558542873453,0.916439887891388,0.861649729064822,0.90560946213254,0.875782004920942,0.874967042190573,0.96816142608628,1.03057041412241,0.909523427877074,0.907825588855473,0.909326835990362,1.02553944902156,1.00006292770269,0.92935240045041,1.0129039523029,1.02815769551277,1.12038609836513,0.945544423119578,1.07556314819485,1.1475604587056,0.972709847465202,0.968036322158372,0.968688649782461,1.07528613235448,0.956499952806332,0.957572272188397,1.28318205255216,0.973317495115038,1.05087299442282,1.0738742451681,0.973138775218027,0.970270320871006,0.970243512886454,0.972504319583639,0.961262838061667
0.857022670931216,0.858103032708645,0.859126204119031,0.858372006153646,0.859577471858983,0.860276266656295,0.857667849759424,0.854719865058233,0.851744178773005,0.849508392861401,0.845332602467747,0.842624996028035,0.841684929369759,0.85734168594738,0.836507413953359,0.935670148809737,0.934606765422524,0.932471062653246,0.972200495758721,1.02218845095261,1.09860014291953,1.11819677962675,1.15771174885581,1.15766706888156,1.24330964352908,1.19711055015182,1.18785285948666,1.24303262768871,1.23242560180113,1.25965357811071,1.2754434810116,1.27773109569334,1.308899845732,1.31487802628701,1.31460101044664,1.3221966060696,1.33090026505402,1.36144349545314,1.45990028671633,1.46217896540321,1.46326022078013,1.45412763404288,1.45686204846715,1.48415257674068,1.46578910732283,1.51348944783498,1.49832506457362,1.5347839235638,1.49748508105767,1.50445515704109,1.54481904578095,1.56499652215346,1.57714947515019,1.57727457907809,1.56051065273849,1.55913450953151,1.56761476864467,1.59400276143829,1.60469021127953,1.61858568327211,1.60115155731872,1.60028476581822,1.6593248837957,1.60141070116939,1.61229474289734,1.61155305532474,1.60947990451942,1.60934586459666,1.65920871586264,1.63274923511021,1.60634337032688,1.60573572267705,1.63704744863332,1.64362434084331,1.65105908855896,1.65761810877925,1.65826150040849,1.70498781748193,1.69214679288171,1.64011249486705,1.58285063986483,1.66474903266997,1.55691838280858,1.55617669523598,1.57500483638606,1.58713098139823,1.58159960058575,1.55285250515158,1.55262016928547,1.5431480147439,1.5631467712194,1.51994123611707,1.50912868234792,1.51603620636738,1.48736059889202,1.4762352853031,1.46628058703961,1.44398527988753,1.51592897442918,1.48507298421028,1.44978474054552,1.44960602064851,1.45127705168556,1.4109131629457,1.43312804614413,1.39381860479663,1.42976811208033,1.29026829646864,1.27761492776028,1.29859664366933,1.2737635139797,1.26522963889744,1.24371176329735,1.24255008396678,1.22678698905044,1.19149874538568,1.15231440796609,1.11888485123024,1.09549041671154,1.06124768444429,1.04481438991416,1.04900537149906,1.05011343486053,0.978455692154095,0.965578923574475,0.95311321075798,0.941040681714909,0.922587852348555,0.923159756018989,0.911641258656651,0.907646868958462,0.887718706842286,0.906529869602145,0.911569770697847,0.866972901197285,0.885665215225633,0.891799775690525,0.891687182155408,0.876634498829683,0.874975084585939,0.878305529866733,0.915564160396035,0.916618607788398,1.10977907247755,1.11086926384931,0.985282792219903,1.00815000304242,1.0127967203647,1.00431646125154,1.08701909359324,1.09867163087833,0.943757224149471,1.14764981865411,1.07674269951512,0.967982706189269,0.968241850039935,0.96900140960223,0.953291930654991,0.953649370449012,1.19166852928784,1.2252946779104,0.980430547016063,0.979242059700942,1.06884328006725,0.970734992603234,0.971700080047091,0.972638359506397,0.972629423511547,1.08960159610504
0.857931461607515,0.879375168450342,0.879870222565061,0.860919658285534,0.861246715697063,0.861091229386664,0.856377492103007,0.854937903332586,0.852722670209138,0.849582561618661,0.845712382248894,0.8423819369681,0.842493636903732,0.857276453184971,0.832091245298225,0.832112691685866,0.88260195619087,0.98858017431975,0.986855527313597,1.00416454933908,1.06127449242885,1.11797337975549,1.17805007313563,1.20592144107444,1.20618952091996,1.24213009220881,1.18611034049081,1.2077711920085,1.32077578288836,1.32229490201295,1.31561077786475,1.27931276678188,1.27983105448321,1.37142500170119,1.31277806749713,1.36083584780331,1.35824440929665,1.39168290202735,1.42286952405571,1.44485207138803,1.43476333320177,1.43463822927387,1.46989072895922,1.46071346224773,1.45887264730852,1.55078829034111,1.48567169586527,1.52559772085745,1.49306176360666,1.49181072432759,1.58396763922114,1.55945620534613,1.56434419452937,1.5639599467508,1.56376335486409,1.55858941384563,1.55820516606705,1.6292284531391,1.60049922969463,1.5974520554506,1.6016251650458,1.59377042557218,1.59334149781936,1.68226358257702,1.61265218269136,1.61149050336079,1.60998032023105,1.60935480059151,1.60705824991493,1.60441319543917,1.60600380252256,1.60630762634748,1.60507445905811,1.65398115887508,1.65257820768355,1.65867255617161,1.65812746048573,1.67087018914259,1.63364283459526,1.63383049048713,1.60290301230943,1.57512100431912,1.55875026175294,1.55688263882918,1.55532777572518,1.55542607166854,1.55544394365824,1.55518479980757,1.54978745891785,1.5398059526698,1.56476418628735,1.50879805053845,1.50842273875473,1.48619891956145,1.47864800391275,1.47411745452353,1.44243935277838,1.44199255303586,1.44207297698951,1.42387035547897,1.44671969431179,1.44812264550332,1.44168872921094,1.44176021716974,1.43815901124498,1.385785145426,1.2796344625965,1.27709664005895,1.26235224855557,1.27425499369648,1.25920677836818,1.26018080180689,1.25886721056386,1.23339962523984,1.23230943386807,1.19312509644848,1.13376328265638,1.1206809861952,1.08758206126882,1.0512572422014,1.03929194509653,1.00739937947498,1.00298499801881,0.972986863305568,0.959600743019468,0.940343674116567,0.934892717257741,0.924410795298064,0.933275302189794,0.909711083768935,0.890708690719274,0.891239488813396,0.893342128401727,0.872338072505546,0.870605383104028,0.884083544137088,0.884574130254383,0.871410516240061,0.876722071579218,0.953667242438713,0.908236644618597,0.954230210114297,0.970127344953397,0.930335359883968,0.928780496779975,0.925331202767669,0.925760130520495,0.928485608949908,0.930478335801577,0.933829333870527,1.15165314434715,1.07639419571595,1.01533454290225,1.17193785265786,0.965525307605372,1.05265125739808,1.07301638966245,0.953104274763129,0.9534527785623,1.00997294599193,1.04969344310255,0.97836633220559,0.979224187711241,0.979778219391974,0.972075391830814,0.972298791702077,0.972575807542444,0.969609057252066,0.965069571867995
0.874944702203447,0.879026664651171,0.879380530047252,0.862128698388811,0.861243141299123,0.857650871369208,0.855240833558019,0.854638547505093,0.852170425727375,0.85123750786498,0.838889750180511,0.935670148809737,0.842337256993848,0.899372137726867,0.830792845246442,0.830499744615345,0.865112427069404,0.866487676676901,0.977991020421867,1.00036675152761,1.03412694007292,1.1023443247619,1.1307071724175,1.14483498027619,1.20426828202709,1.18330443810774,1.200926219953,1.20907584725668,1.22162198402683,1.26010931384808,1.31821115236626,1.28562157914636,1.28623816279105,1.31072278868151,1.36171157529866,1.34164133086436,1.36873526725118,1.3874651124579,1.42084998921949,1.42325377183429,1.44150107331908,1.44301125644882,1.50814572291436,1.46250066121783,1.46081175819108,1.55023425866038,1.54905470734011,1.49576043405152,1.49516172239654,1.49199838021945,1.49086350887343,1.51533919876904,1.564067178689,1.56328081114216,1.56328081114216,1.56023363689813,1.55939365338218,1.57612183574238,1.69489907929568,1.59759503136821,1.59534316066587,1.59462828107783,1.59455679311903,1.59555762454229,1.59436913722717,1.66054017909537,1.60770164154416,1.60883651289018,1.60573572267705,1.60630762634748,1.60900629679234,1.60774632151842,1.60857736903952,1.60906884875629,1.665106472464,1.65722492500582,1.6634801214012,1.66335501747329,1.63406282635324,1.63379474650772,1.63245434728014,1.58047366523459,1.69576587079618,1.56464801835429,1.56463014636459,1.55572095949861,1.55608733528748,1.56850836812972,1.54879556348944,1.56474631429765,1.54993043483546,1.52757257571942,1.5665603212523,1.48509979219483,1.47527019785925,1.49282942774055,1.45532505735285,1.44300232045397,1.40461328657607,1.42388822746867,1.4234682357107,1.44737202193588,1.44207297698951,1.44293976849001,1.41277184987461,1.27513072119183,1.25916209839393,1.25885827456901,1.23988715750132,1.23686679124184,1.2595106021931,1.25929613831668,1.25271031011184,1.25222776638991,1.26304925615391,1.19289276058236,1.12969740499939,1.10017287801322,1.09239856249326,1.04600287722928,1.03128529371045,1.00079567928043,0.972888567362212,0.958305023766141,0.94541038319682,0.937323307857086,0.929129000579146,0.926090762329965,0.91045277134153,0.907173261231384,0.906217109782376,0.881866523814671,0.878788967188147,0.875382565951123,0.874498796060405,0.916252231999526,0.915680328329092,0.881921033383259,0.983102409476373,0.952585987061798,0.942113001096972,0.943221064458439,0.942023641148467,0.954006810243034,0.95562422531098,0.956214000971116,1.16967704596068,1.0947576651338,0.960574766458176,1.11800018774004,0.947474598007293,0.949118821059791,1.18691458002736,1.18978303437438,1.13928572747401,1.05813795823631,1.08712632553144,0.950298372380062,0.952067699360468,1.07114876673869,1.06870030414964,1.06861988019599,1.06826244040196,0.971387320227323,0.971646464077988,0.968858433684621,0.96699081076086,1.33317000774605,0.959216495240895
0.870217560927514,0.864717456097011,0.862326183875008,0.860535410506961,0.858070863127183,0.857450705084556,0.855290875129182,0.854634079507668,0.854386552450308,0.851894303486494,0.852154340936645,0.84245789292433,0.842277385828349,0.904823094585693,0.832615788195951,0.832290517983392,0.832446897893276,0.865695947533144,0.971986031882308,1.01212652075091,1.06452719455444,1.09693804787733,1.10861739314698,1.13932147145341,1.20519762549155,1.19141832143203,1.2043755139653,1.20640398479637,1.21364214062531,1.26299564018481,1.27364734604664,1.29270782306283,1.30751476653017,1.27471072943386,1.30018725075273,1.29745283632847,1.39847425811376,1.38014653267531,1.43065277557053,1.39039611876887,1.56842794417607,1.56819560830995,1.47494850204463,1.50859252265689,1.4610619660469,1.58656801372265,1.49752976103193,1.49697572935119,1.50094331106483,1.49210561215765,1.49152477249237,1.4920073162143,1.5748529244736,1.57090321474966,1.56295017933269,1.56185998796092,1.56547906587539,1.57430782878772,1.69465780743471,1.69465780743471,1.59144706691104,1.64794042635612,1.64895912976908,1.64934337754765,1.68911749062738,1.60007030194181,1.60665613014665,1.60326045210345,1.61826398745749,1.61128497547923,1.61065051984484,1.60961394444218,1.61312579041844,1.65693897317061,1.65670663730449,1.66428436093775,1.66322097755053,1.66313161760203,1.63848614380425,1.63161436376419,1.63232030735739,1.57498696439636,1.57414698088041,1.59586144836721,1.58009835345086,1.58011622544056,1.55546181564794,1.62658339866334,1.55387120856455,1.55124402607849,1.62905866923694,1.53141505350515,1.57094789472392,1.56913388776926,1.48489426431327,1.45962327087596,1.4761637973443,1.40669537337625,1.40566773396844,1.40496179037524,1.4185355665532,1.41944703802796,1.44310955239217,1.44250190474234,1.28491563555317,1.24665170560318,1.24620490586065,1.2478044489389,1.20969243090137,1.21634081107017,1.22008499291254,1.22373087881156,1.22307855118747,1.26291521623115,1.1860209805423,1.14030443088697,1.14567496379214,1.08245280022461,1.0622395798727,1.03748687413672,1.01806895732651,1.00151055886847,0.981073938645302,0.95143324372608,0.931523847199089,0.925054186927302,0.926832449902559,0.917780287118968,0.92417845943195,0.925206098839762,0.88436681517385,0.882572467407863,0.882068477298293,0.874537220838263,0.88811903941159,0.867761949542588,0.872752702666611,0.907235813195338,1.18174957500375,0.955686777274934,0.95362256246446,0.968849497689771,0.950566452225578,0.947680125888855,0.952067699360468,0.952854066907315,1.16155422664154,1.11682957241462,1.10429237163932,1.09870737485773,0.947546085966097,0.948287773538692,1.13633684917333,0.980814794794636,0.980779050815234,1.04608330118294,1.08054943332145,1.05096235437133,1.10881398503369,1.07329340550281,1.06821776042771,1.02828279944067,1.03010574239018,0.969555441282963,1.02749643189383,0.965507435615671,0.965918491378795,0.961530917907183,0.960163710695051
0.863474459213301,0.864191126000314,0.863492331203002,0.860760597577194,0.857840314460039,0.855541976584482,0.855169345599215,0.85450897557976,0.854628717910757,0.851124020730378,0.847466518038054,0.846800786421689,0.842986010219996,0.97536383793581,0.895190092136817,0.833227010243728,0.833362837365456,0.885797467949421,0.892429763327487,1.0011084391002,1.03720092230151,1.08402553531831,1.10303239636539,1.18191042291106,1.17914920050224,1.24329177153938,1.24381899523556,1.21456254809491,1.24613341790185,1.26514027894893,1.23896675003172,1.30473567213165,1.30496800799777,1.27569368886741,1.31514610613252,1.29174273561897,1.38501664986885,1.38019121264956,1.39124503827967,1.39030675882037,1.42052829340487,1.50484834081451,1.50483940481966,1.44013386610695,1.46704908259675,1.46625377905506,1.4854304240043,1.49657360958292,1.4945898187261,1.49223071608556,1.49293665967875,1.53656218653906,1.50573300430472,1.52770661564218,1.56441568248818,1.56628330541194,1.56446036246243,1.57414698088041,1.57462952460234,1.68765198747189,1.69836624529768,1.59251938629311,1.59101813915822,1.59115217908097,1.59098239517881,1.63330326679094,1.63039013246967,1.60199154083467,1.60435064347521,1.6116156072887,1.61106157560796,1.61716486009088,1.61463597354818,1.61279515860897,1.65528581412326,1.65815426847028,1.64212309370842,1.67387268341237,1.59050878745174,1.58785479698113,1.58629993387713,1.65425817471545,1.65065696879068,1.65037101695546,1.59867628674512,1.6150291573216,1.56927686368687,1.55421077636887,1.55379078461089,1.55010915473247,1.54962661101054,1.56211913181159,1.5572758226026,1.47905012368102,1.45458336978026,1.45470847370817,1.45542335329621,1.46294746096036,1.4068115413093,1.42321802785488,1.42066233332763,1.52458795343934,1.35434831554182,1.31609332158668,1.26895594875011,1.24384580322011,1.24377431526131,1.20727971229172,1.19997006850399,1.20776225601365,1.20022921235465,1.18787966747122,1.19622588666161,1.2034908504751,1.18622650842387,1.13783809630822,1.14472774833799,1.14125164634113,1.05594863949793,1.02847939132739,1.00994613800738,0.991654156548334,0.96431894830055,0.957733120095706,0.929986856084798,0.924196331421651,0.91697604758242,0.908245580613448,0.901454224527042,0.890622905168709,0.89808535446839,0.907602188984209,0.878926581508845,0.873478305448474,0.873125333651878,0.869327535840401,0.90510904642091,0.908361748546505,0.938574347136161,0.951326011787873,1.07164918245032,1.14369117293532,0.947438854027891,0.909907675655647,0.914393545070615,0.915796496262149,0.9534527785623,1.12763319018891,1.12957230107148,1.1181878436319,1.08503530273642,1.08399872733376,0.962281541474628,0.962880253129614,1.08120176094554,0.957188024409824,0.954882537738386,1.17040979753842,1.07186364632673,1.07283766976544,1.51142523302451,1.03017723034899,1.06248085173367,1.11434536584617,1.163439721555,0.96348790077945,0.964756812048226,0.965400203677464,0.965614667553877
0.86311701941928,0.863112551421855,0.861045655812926,0.860508602522409,0.858399707737683,0.855802014034633,0.854993306500659,0.855049603268218,0.854947732926921,0.854365999662152,0.852319656841379,0.846884784773284,0.841634887798596,0.836307247668707,0.885838573525733,0.887471179784926,0.834204608080376,0.864161637217307,0.876052765564913,0.954641265877422,1.00470070903011,1.09942225444578,1.12100268200982,1.18279508640126,1.16291249785882,1.24316666761147,1.23894887804202,1.23993183747558,1.22702826091141,1.22726953277237,1.23162136226458,1.23154093831093,1.23605361571045,1.31463675442604,1.31510142615827,1.26529219086139,1.37356964046532,1.36382047008338,1.45106258780915,1.4444052716455,1.4041754228284,1.47788844435045,1.47792418832986,1.45656716063708,1.44484313539318,1.48543935999915,1.48423300069433,1.49523321035534,1.49486683456647,1.49095286882193,1.49153370848722,1.53601709085318,1.52826064732291,1.53338990836712,1.53208525311894,1.56289656336358,1.562333595688,1.56188679594547,1.56829390425331,1.69751732578688,1.69715988599286,1.6242064240331,1.59003517972466,1.59058027541054,1.59555762454229,1.62967525288163,1.62949653298462,1.62757529409175,1.5941278653662,1.59422616130956,1.61972055461813,1.61439470168721,1.61099902364401,1.61054328790663,1.65231012783803,1.61715592409603,1.61868397921547,1.59009773168861,1.59038368352383,1.58972241990489,1.5873365092798,1.59222449846304,1.65480327040133,1.58830159672365,1.67606200215075,1.62349154444506,1.5706261989093,1.55424652034827,1.54814323586535,1.55263804127517,1.56322719517305,1.56400462672505,1.55355844874478,1.55551543161704,1.53367586020234,1.45405614608408,1.45656716063708,1.4059626217985,1.45727310423027,1.43343186996905,1.39748236268535,1.37383772031083,1.33767374915072,1.29960641108744,1.24240710804917,1.21875352967981,1.23119243451175,1.21737738647283,1.19949646077691,1.19235660089133,1.19560036702208,1.16983789386799,1.1583819484696,1.16570052825219,1.15427139083836,1.11809848368339,1.13563984157499,1.05990728521671,1.04106127207694,1.00760490735654,1.00626450812896,0.984639400590665,0.959833078885582,0.94860053335846,0.936787148166054,0.929075384610043,0.922266156533936,0.920407469605025,0.909997035604153,0.899810001474543,0.883328452572218,0.880850501200165,0.887875980351655,0.880030176872886,0.882318685154108,0.871327411487951,0.931640015132146,0.945517615135026,0.907164325236533,0.907995372757633,0.903044831610437,0.903643543265423,0.906565613581547,0.908013244747334,0.911846786538213,1.1927229766802,0.952344715200834,1.11366623023753,1.08877948457879,0.963121524990578,1.05667245508082,1.09308663409675,0.964095548429287,0.962424517392237,0.95996711880834,1.06144427633101,1.06034514896439,0.965936363368497,0.987355943025227,0.990626517140523,1.10013713403382,1.02744281592472,1.02629900858386,1.16772899908326,1.14895447390229,1.02387735397936,1.01479838321122,1.01766683755824,0.984380256739999
0.863237655349762,0.862067933623827,0.861051017409836,0.860728427995732,0.857875164839957,0.856692932721231,0.855807375631543,0.856106731459036,0.856194304208571,0.85442765802662,0.852694968625102,0.854249831729095,0.836158910154188,0.836016827836065,0.832671191364025,0.831827633450134,0.831144029844069,0.871178180373947,0.880580634155679,0.906449445648491,1.0687807281033,1.06936156776858,1.14235077370774,1.14228822174379,1.18493078917054,1.1759054343715,1.19080173778734,1.21651059497233,1.24738445718092,1.24106670882159,1.23475789645712,1.28366459627409,1.25575748435587,1.24355091539004,1.24454281081845,1.27232481880876,1.36256943080431,1.30198338571769,1.37329262462495,1.4410095936023,1.43460248529446,1.42229762038528,1.48270494557489,1.5063317159597,1.48431342464799,1.4811679544606,1.48832568633588,1.49709189728425,1.50316837378261,1.50911081035822,1.49299027564786,1.55235208943995,1.55146742594975,1.53346139632593,1.53275545273273,1.55631073515874,1.56994706330066,1.71658673879792,1.63713680858182,1.66969957381717,1.58330637560221,1.59555762454229,1.59540571262983,1.61930056286016,1.59560230451654,1.59383297753613,1.59249257830855,1.59259981024676,1.59401169743314,1.59436020123232,1.59338617779361,1.65843128431065,1.60941735255547,1.60966756041128,1.61023946408172,1.61622658063157,1.64785106640761,1.6509786646053,1.59220662647334,1.59208152254543,1.58900754031685,1.59283214611287,1.59247470631885,1.63828955191754,1.76345603178898,1.76327731189196,1.62999694869625,1.66734047117663,1.54771430811253,1.59834565493565,1.59749673542485,1.50609938009359,1.52416796168137,1.52183566702538,1.43921345863734,1.43839134711109,1.46886308955141,1.45636163275552,1.37410580015635,1.3867055528956,1.35633210639864,1.36216731103603,1.33775417310437,1.25634726001601,1.23759954281959,1.21897692955107,1.21702888267366,1.19838839741544,1.19876370919917,1.18224999071538,1.16149167467759,1.15747047699485,1.16468182483923,1.15763132490216,1.14595197963251,1.0973401676456,1.06609099365328,1.04940749126734,1.04256251921183,1.00393221347297,0.977794428535156,0.966624434971988,0.956973560533411,0.946786526403802,0.938484987187655,0.922543172374303,0.910711915192195,0.891275232792798,0.891861434054993,0.88770351565104,0.882456299474806,0.879569079538598,0.880231236757023,0.885198756294435,0.907959628778231,0.875944640027222,0.941809177272054,0.903589927296319,0.901266568635181,0.900632113000793,0.901534648480697,0.909916611650498,0.906252853761779,0.907557509009957,0.910184691496014,1.13882999173663,1.09338152192682,1.215992307271,1.01835490916173,1.08311406384355,1.04926451534973,0.970520528726821,0.9559459211256,1.13572026552865,1.00111737509505,0.978982915850277,0.967714626343753,0.967026554740262,0.966955066781458,1.09014669179092,1.30713051875159,1.31132150033649,1.16587031215435,1.02279609860245,1.16931067017181,1.16924811820785,1.16651370378359,1.1675770871708,0.974550662404412
0.862850726772734,0.861672962651434,0.861630069876151,0.860881233507676,0.857078074099289,0.856516893622675,0.856042392296112,0.857061095709073,0.856688464723806,0.855130027221872,0.85525155675184,0.854686801877286,0.861319097255352,0.834549537481607,0.834171544899429,0.830001116102685,0.829706228272617,1.01466434328846,0.881047986686362,0.905832862003804,1.01008911392499,1.09269345032332,1.14298522934213,1.14463838838948,1.23683998325729,1.19484080745978,1.21042518247911,1.26088674540008,1.25463154900471,1.25329114977713,1.22044243270656,1.21241790933078,1.25848296278529,1.2545421890562,1.24440877089569,1.28933895300418,1.33970221998179,1.31476185835395,1.37213988128923,1.37180924947976,1.43572842064563,1.45700502438475,1.42700688967151,1.4702571047481,1.48186496205894,1.48261558562639,1.46124962193876,1.46183939759889,1.50765424319758,1.50998653785357,1.51012057777633,1.54820578782931,1.54084252807247,1.53377415614569,1.54676709265837,1.54614157301883,1.57192191816262,1.56882112794949,1.57079598281146,1.57029556709983,1.58934710812117,1.58929349215206,1.59687121578532,1.59245683432915,1.59707674366688,1.590732187323,1.59141132293164,1.59024070760622,1.59554868854744,1.59636186407884,1.59718397560508,1.66955659789956,1.68553415669232,1.60892587283869,1.61049860793238,1.60978372834434,1.60931905661211,1.62436727194041,1.59649590400159,1.59234960239095,1.5923585383858,1.59365425763912,1.59350234572666,1.63837891186605,1.63785168816987,1.76338454383017,1.76333986385592,1.70060024401032,1.59548613658348,1.5991498944722,1.50457132497415,1.50351687758178,1.49509917043258,1.49419663495268,1.50500918872182,1.43893644279697,1.43005406391554,1.4494809167206,1.41960788593527,1.42098402914225,1.3398809398788,1.33428700710237,1.32779947484088,1.27804385551311,1.27757918378088,1.22239941557883,1.22735889272088,1.19883519715797,1.1985403093279,1.20712780037927,1.16117891485782,1.14902596186109,1.17068681337879,1.16155422664154,1.14548730790028,1.105686386836,1.04432291019738,1.027844935693,1.04627989306965,0.986927015272402,0.969993305030639,0.969734161179974,0.958582039606507,0.947671189894005,0.930397911847922,0.932721270509061,0.901463160521892,0.89356731547196,0.886481071555487,0.888445203223634,0.888950980532174,0.876610371643586,0.878399357812664,0.87699640662113,0.875830259293135,0.876001830394265,0.898505346226365,0.898049610488988,0.899148737855604,0.899425753695971,0.909630659815281,0.899649153567234,0.903625671275722,1.08623272604639,1.18933623463185,1.10843867324997,1.02769302378054,1.02268886666424,0.93353444604046,0.930621311719186,1.05511759197683,1.28179697335033,1.1483200182679,0.969957561051237,0.970592016685625,0.970082664979145,0.968652905803059,0.968867369679472,1.09250579443146,1.09832312707916,1.14806981041209,1.30860495790193,0.945222727304958,0.946545254542838,1.17144637294108,1.17122297306982,0.972414959635134,0.991001828924245,1.01183163292084
