0.894786, 0.896106, 0.893384, 1.06215, 0.911704, 1.18476, 1.02581, 0.921947, 1.20246, 0.901207, 0.901236, 0.901457, 0.901056, 0.901051, 0.900542, 0.898944, 0.89908, 0.898423, 0.899648, 0.90183, 0.904094, 0.903925, 0.905027, 0.904287, 0.901724, 0.902579, 0.903195, 0.903115, 0.903019, 0.904021, 0.904181, 0.904082, 0.903985, 0.902884, 0.901912, 0.902597, 0.902577, 0.905609, 0.905239, 0.907393, 0.909565, 0.909547, 0.910066, 0.911033, 0.911343, 0.915901, 0.917863, 0.917331, 0.913138, 0.915727, 0.919874, 0.918768, 0.917501, 0.917309, 0.914507, 0.913008, 0.909747, 0.909136, 0.907404, 0.907911, 0.907026, 0.906764, 0.905543, 0.904212, 0.901038, 0.902657, 0.907111, 0.905607, 0.946122, 0.899542, 0.899982, 0.96471, 1.016, 1.05337, 1.05023, 1.08508, 1.1334, 1.14619, 1.21031, 1.23307, 1.26471, 1.36778, 1.36686, 1.3189, 1.27372, 1.27212, 1.26858, 1.26742, 1.27431, 1.28154, 1.32239, 1.35234, 1.35649, 1.38263, 1.48477, 1.48901, 1.49571, 1.52946, 1.51751, 1.56402, 1.59038, 1.58996, 1.65884, 1.64721, 1.60343, 1.60285, 1.60294, 1.60019, 1.59877, 1.62172, 1.63058, 1.63488, 1.65521, 1.65827, 1.66132, 1.70676, 1.70655, 1.69237, 1.70863, 1.70848, 1.77382, 1.77385, 1.74701, 1.74681, 1.74569, 1.73499, 1.73409, 1.73425, 1.73302, 1.73899, 1.73803, 1.73788, 1.73183, 1.73081, 1.73178, 1.72867, 1.68952, 1.68822, 1.68874, 1.69766, 1.69674, 1.73338, 1.69674, 1.62489, 1.62357, 1.74122, 1.70248, 1.65149, 1.63932, 1.6193, 1.59362, 1.59298, 1.57638, 1.56495, 1.55237, 1.53511, 1.53408, 1.50515, 1.51192, 1.48842, 1.44699, 1.42703, 1.48109, 1.37173, 1.36978, 1.34895, 1.32367, 1.31589, 1.32194, 1.26055, 1.23433, 1.23442, 1.18788, 1.21978, 1.14601, 1.11532, 1.11617, 1.10613, 1.05877, 1.05149, 1.1301, 1.12993, 0.977763, 0.978936, 0.978367, 0.98537, 1.02637, 1.01784, 1.01739, 1.01998, 1.0227, 1.13758, 1.14231, 1.11568, 1.06043, 1.39147, 1.15408, 1.05979, 1.06071, 1.4419, 1.40202, 1.07706, 1.53183, 1.34447, 1.32689, 1.53561, 1.53422, 1.08156, 1.15562, 1.19687, 1.22263, 1.2228, 1.22541, 1.09358, 1.1708, 1.20652, 1.37307, 1.1135, 1.11361, 1.26084, 1.12537, 1.29285, 1.13272, 1.06888, 1.06919, 1.07002, 1.15611, 1.15577, 1.06969, 1.06999, 1.07108, 1.07834, 1.08002, 1.07825, 1.07865, 1.06623, 1.06657, 1.06633, 1.1544, 1.13785
0.900629, 0.900551, 0.900163, 0.900402, 0.898032, 0.897539, 0.89775, 0.899142, 0.900419, 0.899855, 0.899732, 0.899892, 0.899016, 0.899763, 0.899969, 0.899061, 0.900837, 0.900642, 0.900447, 0.901075, 0.902269, 0.900729, 0.901624, 0.902618, 0.903119, 0.901972, 0.902265, 0.901213, 0.900771, 0.90066, 0.901053, 0.90022, 0.901035, 0.901797, 0.904041, 0.903379, 0.902827, 0.903933, 0.90686, 0.908847, 0.921547, 0.921844, 0.921222, 0.921673, 0.91879, 0.917784, 0.918107, 0.915536, 0.916116, 0.916228, 0.915449, 0.915539, 0.914832, 0.914515, 0.914265, 0.910719, 0.911062, 0.90978, 0.907453, 0.906402, 0.903738, 0.904308, 0.902487, 0.901744, 0.901999, 0.905724, 0.90709, 0.888834, 0.890663, 0.919611, 0.990582, 0.963939, 1.01849, 1.04196, 1.11367, 1.17243, 1.16502, 1.16643, 1.23565, 1.30541, 1.30478, 1.37098, 1.36701, 1.3714, 1.32958, 1.30392, 1.3012, 1.2861, 1.321, 1.34379, 1.30803, 1.31641, 1.34984, 1.39085, 1.52964, 1.43107, 1.47092, 1.4956, 1.50553, 1.51708, 1.56522, 1.60632, 1.60134, 1.57796, 1.68639, 1.6057, 1.60507, 1.61148, 1.64775, 1.70348, 1.68197, 1.68927, 1.67114, 1.67462, 1.7004, 1.69188, 1.69064, 1.73417, 1.69449, 1.82316, 1.88635, 1.77456, 1.74789, 1.74709, 1.79076, 1.73202, 1.73028, 1.734, 1.73865, 1.76511, 1.74757, 1.74771, 1.75108, 1.7516, 1.72325, 1.70281, 1.68958, 1.68919, 1.68862, 1.68779, 1.68774, 1.69131, 1.68009, 1.67149, 1.634, 1.63423, 1.63335, 1.62241, 1.64375, 1.69511, 1.58338, 1.68142, 1.57733, 1.57134, 1.63782, 1.55859, 1.57844, 1.60943, 1.56545, 1.51751, 1.46764, 1.45667, 1.45449, 1.39815, 1.37767, 1.37928, 1.40132, 1.36438, 1.34587, 1.34923, 1.27367, 1.27365, 1.25519, 1.25987, 1.25947, 1.15518, 1.12637, 1.13318, 1.15656, 1.07414, 1.07381, 1.14722, 1.10199, 0.983899, 0.986804, 0.988153, 1.11289, 1.14218, 1.10895, 1.10777, 1.04317, 1.03884, 1.31874, 1.04431, 1.29924, 1.38386, 1.29877, 1.15802, 1.70328, 1.08461, 1.5634, 1.07788, 1.08269, 1.32077, 1.32105, 1.20484, 1.21455, 1.21458, 1.10202, 1.10205, 1.28206, 1.10194, 1.10552, 1.10699, 1.10711, 1.10463, 1.10618, 1.11185, 1.11148, 1.10827, 1.22, 1.08542, 1.21865, 1.07617, 1.08049, 1.08077, 1.08038, 1.07807, 1.19198, 1.20376, 1.16708, 1.09458, 1.09676, 1.09659, 1.13659, 1.13027, 1.08559, 1.08563, 1.12562, 1.36682
0.897238, 0.897524, 0.898744, 0.897499, 0.897198, 0.897507, 0.897141, 0.897707, 0.89806, 0.898566, 0.899559, 0.899674, 0.900759, 0.898736, 0.901731, 0.902538, 0.900973, 0.902385, 0.901978, 0.90337, 0.902664, 0.902244, 0.902701, 0.902669, 0.902661, 0.902893, 0.902939, 0.901947, 0.901896, 0.9025, 0.903491, 0.904314, 0.904236, 0.909758, 0.907916, 0.94443, 0.945913, 0.922521, 0.923373, 0.921733, 0.922037, 0.921495, 0.921557, 0.920812, 0.920569, 0.918669, 0.916387, 0.905965, 0.906762, 0.910011, 0.911025, 0.941119, 0.914733, 0.91317, 0.911638, 0.911236, 0.911041, 0.909379, 0.909209, 0.906167, 0.905886, 0.904724, 0.902776, 0.90108, 0.896249, 0.898897, 0.891893, 0.884261, 0.883935, 0.936292, 1.00017, 1.0149, 1.04414, 1.08717, 1.16729, 1.22938, 1.23668, 1.23278, 1.30138, 1.38925, 1.38126, 1.44361, 1.42248, 1.46481, 1.46777, 1.36152, 1.34176, 1.35852, 1.33669, 1.32274, 1.3265, 1.34473, 1.35012, 1.4011, 1.42675, 1.43888, 1.44691, 1.48361, 1.50687, 1.52276, 1.53779, 1.55127, 1.60169, 1.59035, 1.59136, 1.6935, 1.69049, 1.75914, 1.68641, 1.69381, 1.69314, 1.66742, 1.66998, 1.67537, 1.66815, 1.75637, 1.69796, 1.69694, 1.72878, 1.73695, 1.73698, 1.734, 1.774, 1.77379, 1.77134, 1.83837, 1.74701, 1.74729, 1.74652, 1.76778, 1.76716, 1.76666, 1.748, 1.71558, 1.70122, 1.69917, 1.70008, 1.68911, 1.68943, 1.6897, 1.68925, 1.69248, 1.73047, 1.73061, 1.67184, 1.6522, 1.64504, 1.62092, 1.67144, 1.60563, 1.60435, 1.63649, 1.58556, 1.57358, 1.57178, 1.72721, 1.58091, 1.54317, 1.54457, 1.49961, 1.43829, 1.4326, 1.45377, 1.4114, 1.40969, 1.41772, 1.49215, 1.53061, 1.5034, 1.48221, 1.27274, 1.23621, 1.21624, 1.1857, 1.18603, 1.16109, 1.14116, 1.11771, 1.08828, 1.09021, 1.06152, 1.0493, 1.05017, 0.990623, 0.991173, 0.99084, 1.00211, 1.03302, 1.03358, 1.03507, 1.03573, 1.03661, 1.0395, 1.53676, 1.27205, 1.28752, 1.0948, 1.04645, 1.12997, 1.06378, 1.06443, 1.32681, 1.15055, 1.22393, 1.20613, 1.18143, 1.22647, 1.18682, 1.18823, 1.10959, 1.22741, 1.27449, 1.25502, 1.11188, 1.11173, 1.11066, 1.11182, 1.10995, 1.10968, 1.10606, 1.10537, 1.19448, 1.196, 1.19877, 1.08125, 1.08202, 1.08681, 1.07906, 1.3097, 1.23369, 1.14131, 1.13373, 1.12424, 1.15866, 1.12036, 1.11293, 1.16342, 1.165, 1.25808, 1.25411
0.901744, 0.901133, 0.901605, 0.900466, 0.901217, 0.90421, 0.899323, 0.900353, 0.90282, 0.902633, 0.902359, 0.902591, 0.90202, 0.904318, 0.902869, 0.902544, 0.903111, 0.903655, 0.904264, 0.903763, 0.902591, 0.902076, 0.901872, 0.902469, 0.901762, 0.902061, 0.903613, 0.901969, 0.903565, 0.906328, 0.904747, 0.9044, 0.911307, 0.913618, 0.914374, 0.915038, 0.914808, 0.921013, 0.916824, 0.917891, 0.91932, 0.920039, 0.920271, 0.919997, 0.920088, 0.918333, 0.915379, 0.914813, 0.907448, 0.908744, 0.907235, 0.915291, 0.911664, 0.912572, 0.912593, 0.911785, 0.90824, 0.910019, 0.909051, 0.90736, 0.906946, 0.904357, 0.903991, 0.904685, 0.904238, 0.920151, 0.912571, 0.885291, 0.883288, 0.91616, 1.00184, 1.04217, 1.05371, 1.08381, 1.18879, 1.31317, 1.29389, 1.35067, 1.35076, 1.36101, 1.40932, 1.46013, 1.47273, 1.47071, 1.47212, 1.50049, 1.47247, 1.51598, 1.38761, 1.38213, 1.37907, 1.37116, 1.4027, 1.42575, 1.48597, 1.48918, 1.48188, 1.50266, 1.51804, 1.52394, 1.5322, 1.57213, 1.56858, 1.58649, 1.64084, 1.63304, 1.68669, 1.67191, 1.67167, 1.67305, 1.67365, 1.74196, 1.6777, 1.67445, 1.85298, 1.70465, 1.70372, 1.74548, 1.78561, 1.74079, 1.73832, 1.7998, 1.7975, 1.79659, 1.95566, 1.95471, 1.82411, 1.76172, 1.75946, 1.80963, 1.80935, 1.81316, 1.72177, 1.7053, 1.70494, 1.70467, 1.70689, 1.69592, 1.68314, 1.68314, 1.69126, 1.69647, 1.73794, 1.73758, 1.74165, 1.7068, 1.65874, 1.62118, 1.61972, 1.60646, 1.60725, 1.61659, 1.57643, 1.57266, 1.57281, 1.65509, 1.5607, 1.53409, 1.54596, 1.45563, 1.45533, 1.43193, 1.4306, 1.42421, 1.42365, 1.41413, 1.41028, 1.48364, 1.44012, 1.4398, 1.2686, 1.23922, 1.213, 1.19101, 1.15738, 1.14018, 1.10746, 1.10071, 1.11741, 1.05723, 1.06308, 1.05382, 1.07417, 1.00924, 1.03189, 1.0324, 0.994153, 1.01166, 1.01049, 1.01623, 1.22187, 1.02502, 1.0272, 1.03099, 1.38806, 1.42097, 1.05372, 1.05478, 1.27488, 1.34813, 1.3508, 1.25613, 1.2393, 1.23692, 1.13896, 1.13929, 1.14055, 1.23445, 1.24394, 1.26547, 1.25012, 1.17832, 1.18381, 1.18207, 1.11124, 1.1105, 1.1078, 1.10397, 1.10437, 1.10439, 1.27213, 1.31166, 1.07291, 1.27969, 1.05756, 1.06059, 1.0613, 1.05774, 1.21531, 1.18845, 1.26744, 1.14724, 1.19645, 1.19651, 1.10999, 1.24147, 1.11372, 1.06098, 1.22315, 1.32088
0.908436, 0.907456, 0.907337, 0.906586, 0.907597, 0.907622, 0.907183, 0.907276, 0.904819, 0.905715, 0.905641, 0.905474, 0.904699, 0.905136, 0.905043, 0.905923, 0.905682, 0.906927, 0.904737, 0.906462, 0.906897, 0.906052, 0.907726, 0.908347, 0.906267, 0.905387, 0.905272, 0.904591, 0.907117, 0.907629, 0.910363, 0.911141, 0.911215, 0.911233, 0.910392, 0.909988, 0.911527, 0.914794, 0.915449, 0.91639, 0.917685, 0.918834, 0.920256, 0.921368, 0.91947, 0.919253, 0.91803, 0.911469, 0.911614, 0.911263, 0.908657, 0.908651, 0.911399, 0.911188, 0.913772, 0.911783, 0.91146, 0.911014, 0.908603, 0.905156, 0.904259, 0.904356, 0.903878, 0.903313, 0.886309, 0.886067, 0.872346, 0.871228, 0.963435, 0.964839, 0.940821, 1.06795, 1.09097, 1.13013, 1.33345, 1.31086, 1.31004, 1.32663, 1.31607, 1.33977, 1.41281, 1.41174, 1.40999, 1.45177, 1.51785, 1.53641, 1.54074, 1.51167, 1.54394, 1.48996, 1.50377, 1.51132, 1.49771, 1.51596, 1.51382, 1.53794, 1.54418, 1.57185, 1.55993, 1.56907, 1.57899, 1.58939, 1.6202, 1.62047, 1.72784, 1.72787, 1.7633, 1.76404, 1.69096, 1.69378, 1.69999, 1.70575, 1.70652, 1.6999, 1.68625, 1.742, 1.74025, 1.72819, 1.72606, 1.72722, 1.73784, 1.8198, 1.80321, 1.79679, 1.79608, 1.99577, 1.94316, 1.9322, 1.96556, 1.83768, 1.80881, 1.80702, 1.75094, 1.70669, 1.71324, 1.71533, 1.74729, 1.75505, 1.75433, 1.68534, 1.68497, 1.68398, 1.78032, 1.7212, 1.66777, 1.66926, 1.65816, 1.66415, 1.60614, 1.60526, 1.6966, 1.62346, 1.56775, 1.56757, 1.61485, 1.57268, 1.59612, 1.54235, 1.51593, 1.45354, 1.45316, 1.44386, 1.44466, 1.43845, 1.43349, 1.41282, 1.4036, 1.395, 1.39198, 1.29153, 1.28005, 1.21673, 1.2023, 1.18187, 1.14281, 1.14226, 1.11662, 1.10919, 1.10305, 1.07314, 1.07013, 1.06066, 1.05975, 1.01861, 1.0183, 1.02189, 1.0238, 0.991659, 0.992136, 0.994666, 1.05832, 1.07367, 1.12981, 1.04048, 1.04014, 1.13865, 1.04975, 1.256, 1.26356, 1.19177, 1.12838, 1.12901, 1.12875, 1.12958, 1.13288, 1.13527, 1.13453, 1.13599, 1.14875, 1.14946, 1.15304, 1.13476, 1.13746, 1.13918, 1.1381, 1.14001, 1.17816, 1.1369, 1.08842, 1.08882, 1.32979, 1.26405, 1.06619, 1.06139, 1.06125, 1.06072, 1.063, 1.05611, 1.05627, 1.05451, 1.05428, 1.05374, 1.05467, 1.05702, 1.12052, 1.12567, 1.31322, 1.05177, 1.05382, 1.05318
0.91361, 0.911433, 0.912364, 0.912312, 0.909415, 0.908982, 0.907982, 0.90758, 0.908477, 0.907722, 0.907968, 0.907331, 0.907572, 0.907849, 0.906075, 0.906716, 0.906934, 0.906636, 0.908164, 0.907736, 0.907996, 0.907749, 0.907693, 0.908265, 0.908809, 0.916942, 0.921639, 0.919334, 0.914873, 0.911138, 0.911359, 0.911309, 0.909914, 0.909221, 0.910164, 0.909732, 0.911485, 0.911246, 0.912648, 0.913172, 0.912534, 0.914603, 0.939534, 0.929351, 0.91347, 0.912861, 0.914312, 0.911903, 0.911804, 0.917438, 0.919361, 0.921389, 0.920676, 0.916193, 0.916728, 0.917685, 0.912465, 0.910608, 0.908142, 0.906832, 0.906877, 0.906562, 0.909624, 1.11971, 0.894922, 0.871654, 0.911336, 0.9099, 0.911181, 0.956616, 1.00464, 1.09735, 1.09944, 1.27762, 1.34762, 1.31498, 1.31271, 1.35771, 1.3176, 1.31769, 1.31976, 1.40693, 1.40529, 1.50643, 1.52298, 1.49244, 1.49277, 1.53, 1.51755, 1.58077, 1.58095, 1.60706, 1.51942, 1.51875, 1.65718, 1.63399, 1.61982, 1.69165, 1.71187, 1.6762, 1.67627, 1.72443, 1.71654, 1.62745, 1.62675, 1.65631, 1.6831, 1.69973, 1.86603, 1.86782, 1.70672, 1.70353, 1.7027, 1.69528, 1.6943, 1.75652, 1.81978, 1.72618, 1.7379, 1.73029, 1.72977, 1.82024, 1.79457, 1.79998, 1.80015, 1.80048, 1.78776, 1.79718, 1.83403, 1.81371, 1.7758, 1.75374, 1.75261, 1.79337, 1.75696, 1.75744, 1.75125, 1.75113, 1.75437, 1.73693, 1.67891, 1.68512, 1.68504, 1.68567, 1.66906, 1.67854, 1.6786, 1.6734, 1.61065, 1.6992, 1.61258, 1.57732, 1.57179, 1.57069, 1.55858, 1.55081, 1.53007, 1.54503, 1.53723, 1.45319, 1.45141, 1.44948, 1.44363, 1.43647, 1.43003, 1.4278, 1.37472, 1.32318, 1.30883, 1.27078, 1.25365, 1.21875, 1.21291, 1.1856, 1.16338, 1.16028, 1.12883, 1.10546, 1.10823, 1.14039, 1.07748, 1.09206, 1.03105, 1.03528, 1.0627, 1.06328, 0.981792, 0.975748, 0.974859, 0.975532, 0.985807, 1.06301, 1.13039, 1.04253, 1.04284, 1.20309, 1.2576, 1.25526, 1.23017, 1.15441, 1.12522, 1.1261, 1.12766, 1.12955, 1.13725, 1.23816, 1.15515, 1.15529, 1.1512, 1.13917, 1.13874, 1.13958, 1.14011, 1.14501, 1.17562, 1.12874, 1.08498, 1.08533, 1.08853, 1.08982, 1.0879, 1.07992, 1.21331, 1.18676, 1.06638, 1.06323, 1.06329, 1.06139, 1.05755, 1.05787, 1.05659, 1.05643, 1.05286, 1.05272, 1.05296, 1.05241, 1.05119, 1.05183, 1.05301, 1.0557
0.915828, 0.914975, 0.915637, 0.916556, 0.914848, 0.914507, 0.911608, 0.912017, 0.911677, 0.910831, 0.909444, 0.908473, 0.908159, 0.908072, 0.909217, 0.908386, 0.905216, 0.908873, 0.909187, 0.910556, 0.90892, 0.907978, 0.907574, 0.911041, 0.914328, 0.916505, 0.918517, 0.921133, 0.920322, 0.91872, 0.919011, 0.918174, 0.918364, 0.918525, 0.920726, 0.921644, 0.922835, 0.930561, 0.915614, 0.914466, 0.915051, 0.909258, 0.911421, 0.912103, 0.911354, 0.915704, 0.937458, 0.93932, 0.932507, 0.933028, 0.928529, 0.926908, 0.920224, 0.919966, 0.91872, 0.934456, 0.911326, 0.911639, 0.91248, 0.907813, 0.911498, 0.911163, 1.12357, 1.12544, 0.887505, 0.870084, 0.869481, 0.914694, 0.934847, 0.995929, 1.10488, 1.15635, 1.15634, 1.20985, 1.37166, 1.26263, 1.26153, 1.29477, 1.27775, 1.28827, 1.2916, 1.30494, 1.32887, 1.35404, 1.375, 1.44382, 1.43433, 1.48651, 1.50218, 1.48372, 1.49701, 1.55548, 1.54524, 1.54567, 1.59011, 1.69053, 1.73385, 1.6751, 1.67472, 1.66248, 1.70298, 1.70381, 1.70099, 1.6984, 1.64845, 1.65752, 1.71303, 1.72734, 1.72673, 1.72428, 1.72035, 1.70277, 1.70293, 1.72046, 1.72081, 1.82334, 1.77153, 1.77618, 1.77671, 1.75174, 1.95894, 1.9574, 1.95267, 1.90386, 1.89951, 1.79305, 1.79254, 1.7924, 1.85608, 1.88631, 1.85402, 1.90581, 1.8106, 1.80504, 1.75768, 1.75565, 1.75309, 1.75241, 1.7866, 1.73005, 1.74732, 1.74729, 1.74159, 1.71109, 1.69331, 1.6784, 1.67263, 1.66499, 1.66816, 1.70603, 1.60387, 1.71052, 1.57062, 1.56904, 1.56199, 1.53566, 1.51246, 1.50379, 1.50653, 1.4642, 1.46287, 1.44718, 1.43781, 1.42774, 1.4243, 1.42468, 1.42583, 1.32628, 1.28454, 1.28312, 1.25542, 1.25141, 1.2128, 1.20625, 1.2067, 1.18138, 1.14726, 1.13445, 1.11088, 1.09082, 1.06512, 1.05439, 1.04912, 1.02234, 1.00592, 0.994807, 0.989587, 0.977944, 0.981051, 0.986829, 0.987262, 1.07318, 1.48532, 1.24107, 1.20833, 1.18454, 1.27419, 1.17421, 1.23358, 1.11357, 1.24152, 1.34801, 1.19202, 1.14959, 1.15211, 1.15299, 1.47523, 1.25742, 1.20474, 1.18068, 1.1802, 1.16898, 1.10567, 1.08326, 1.08392, 1.08633, 1.08762, 1.0896, 1.0904, 1.09105, 1.08591, 1.08435, 1.08585, 1.19419, 1.18102, 1.18239, 1.06398, 1.06311, 1.06069, 1.06316, 1.06322, 1.06279, 1.20194, 1.05902, 1.05544, 1.05658, 1.05516, 1.05717, 1.05499, 1.05716
0.916926, 0.915642, 0.915445, 0.916689, 0.915365, 0.914479, 0.914549, 0.913396, 0.910993, 0.909917, 0.908953, 0.909959, 0.909069, 0.909223, 0.907711, 0.9082, 0.910627, 0.910738, 0.911002, 0.911128, 0.91048, 0.922301, 0.922978, 0.92414, 0.924269, 0.924214, 0.924428, 0.913755, 0.915531, 0.915427, 0.914522, 0.915213, 0.917637, 0.918289, 0.920724, 0.921524, 0.921688, 0.916734, 0.917282, 0.91643, 0.91745, 0.918561, 0.921244, 1.17428, 0.921698, 0.950267, 0.928752, 0.929806, 0.930694, 0.931239, 0.928585, 0.925802, 0.920029, 0.920624, 0.921772, 0.923398, 0.925696, 0.935438, 0.904528, 0.904805, 0.900552, 0.922678, 1.0031, 1.01588, 1.02914, 0.872934, 1.02145, 0.919869, 0.984776, 1.23031, 1.16119, 1.19125, 1.25493, 1.25597, 1.25513, 1.2601, 1.27165, 1.3019, 1.30151, 1.29079, 1.30268, 1.30394, 1.33947, 1.35448, 1.43061, 1.37753, 1.40632, 1.48521, 1.46106, 1.47589, 1.49266, 1.56199, 1.56213, 1.55778, 1.61523, 1.65473, 1.63475, 1.63547, 1.62883, 1.65425, 1.65446, 1.72099, 1.66409, 1.68892, 1.70392, 1.70649, 1.72234, 1.72503, 1.72391, 1.7222, 1.72277, 1.73845, 1.73824, 1.74446, 1.75608, 1.76114, 1.75868, 1.87611, 1.8203, 1.79245, 1.82544, 1.80901, 1.79663, 1.79531, 1.87492, 1.79474, 1.79298, 1.852, 1.86789, 1.86901, 1.87071, 1.8701, 1.83884, 1.75918, 1.76428, 1.76167, 1.75906, 1.75619, 1.74775, 1.71673, 1.71603, 1.71622, 1.71459, 1.71497, 1.71068, 1.66504, 1.66441, 1.66973, 1.66853, 1.70354, 1.70929, 1.63481, 1.67242, 1.55915, 1.55124, 1.55924, 1.56397, 1.61027, 1.49994, 1.47515, 1.46597, 1.46315, 1.51565, 1.42825, 1.40787, 1.4008, 1.36855, 1.41556, 1.34398, 1.27806, 1.26505, 1.24985, 1.26846, 1.25333, 1.27731, 1.23291, 1.15513, 1.1563, 1.12209, 1.09937, 1.09063, 1.06384, 1.04264, 1.02581, 0.997575, 0.993974, 0.97716, 0.976804, 0.976396, 1.07751, 1.09973, 1.05, 1.13908, 1.24875, 1.19307, 1.12185, 1.22562, 1.19807, 1.17935, 1.13769, 1.13969, 1.54743, 1.14374, 1.14211, 1.14535, 1.17066, 1.5827, 1.12948, 1.11894, 1.11408, 1.19792, 1.0962, 1.08215, 1.08181, 1.08368, 1.08846, 1.08986, 1.09071, 1.15326, 1.1534, 1.26517, 1.17827, 1.08093, 1.07819, 1.07925, 1.07957, 1.08135, 1.08137, 1.10191, 1.22792, 1.25738, 1.13427, 1.11359, 1.331, 1.04439, 1.04756, 1.04743, 1.04948, 1.0489, 1.0497
0.914846, 0.914919, 0.914864, 0.914422, 0.912761, 0.914651, 0.915981, 0.912392, 0.912858, 0.911824, 0.911122, 0.911699, 0.911251, 0.911371, 0.920729, 0.923454, 0.925717, 0.924012, 0.922653, 0.923209, 0.921557, 0.922064, 0.921778, 0.920736, 0.91974, 0.917838, 0.91753, 0.917111, 0.914785, 0.914286, 0.913361, 0.913937, 0.914168, 0.91376, 0.914467, 0.914551, 0.915082, 0.916918, 0.918726, 0.918936, 0.920386, 0.921749, 0.921708, 0.930977, 0.929413, 0.928232, 0.92866, 0.927267, 0.925799, 0.924901, 0.92485, 0.923244, 0.922558, 0.922425, 0.923029, 0.921994, 0.919391, 0.943582, 0.930914, 0.927116, 1.08343, 1.08235, 0.910601, 0.908138, 1.02533, 0.859894, 0.987376, 1.02304, 1.03887, 1.04995, 1.12472, 1.21414, 1.21534, 1.2965, 1.26847, 1.26617, 1.27535, 1.28469, 1.27888, 1.28102, 1.31288, 1.32966, 1.3613, 1.36785, 1.40228, 1.39899, 1.40006, 1.48475, 1.48281, 1.4861, 1.49684, 1.49159, 1.51195, 1.56632, 1.56629, 1.57072, 1.64483, 1.62351, 1.64165, 1.68442, 1.6824, 1.67319, 1.69628, 1.70429, 1.70604, 1.70534, 1.78531, 1.78516, 1.78643, 1.72304, 1.72319, 1.77556, 1.77723, 1.76768, 1.81026, 1.84905, 1.82351, 1.81964, 1.8197, 1.80721, 1.80442, 1.80408, 1.79748, 1.7966, 1.79081, 1.8731, 1.87074, 1.87629, 1.86963, 1.86829, 1.91133, 1.9312, 1.93123, 1.93052, 1.77772, 1.7772, 1.76807, 1.75385, 1.74083, 1.72112, 1.73802, 1.72078, 1.69891, 1.69981, 1.71973, 1.74306, 1.72164, 1.71361, 1.68907, 1.67984, 1.6726, 1.64962, 1.58865, 1.57441, 1.58004, 1.56636, 1.56273, 1.58062, 1.57447, 1.58198, 1.54915, 1.49946, 1.44662, 1.42657, 1.41946, 1.38155, 1.34827, 1.36782, 1.3087, 1.31316, 1.30066, 1.30578, 1.28966, 1.27333, 1.20106, 1.17866, 1.16499, 1.13722, 1.08425, 1.08111, 1.06322, 1.06917, 1.07005, 1.10136, 1.00904, 1.0099, 0.976739, 1.0264, 1.02339, 0.962752, 1.09491, 1.08194, 1.04659, 1.14729, 1.07323, 1.1228, 1.13502, 1.13592, 1.23333, 1.23365, 1.13325, 1.13474, 1.13578, 1.13508, 1.24701, 1.25213, 1.2023, 1.15483, 1.16387, 1.10447, 1.1047, 1.09693, 1.09154, 1.09142, 1.09117, 1.09069, 1.09072, 1.16746, 1.14724, 1.1832, 1.26834, 1.07176, 1.07388, 1.38152, 1.46248, 1.09182, 1.08142, 1.43459, 1.09118, 1.08985, 1.09077, 1.08912, 1.04461, 1.04255, 1.04361, 1.04665, 1.04684, 1.04763, 1.04924, 1.0524
0.916433, 0.917869, 0.916469, 0.914552, 0.915609, 0.913708, 0.91461, 0.914471, 0.91606, 0.916124, 0.91764, 0.918467, 0.916158, 0.917889, 0.918314, 0.921489, 0.924486, 0.918568, 0.918294, 0.921091, 0.918393, 0.917883, 0.919058, 0.919077, 0.920551, 0.919526, 0.918987, 0.920378, 0.921309, 0.922024, 0.923189, 0.922749, 0.924167, 0.920564, 0.938756, 0.926987, 0.925871, 0.926749, 0.928627, 0.928277, 0.928694, 0.930794, 0.931524, 0.931279, 0.92994, 0.929238, 0.93099, 0.928934, 0.929386, 0.991596, 0.922364, 0.922195, 0.92231, 0.922099, 0.943411, 0.933871, 0.957988, 0.967836, 0.955535, 0.952541, 0.864533, 0.864286, 0.863434, 0.879504, 0.860379, 0.861939, 1.03912, 0.973501, 0.989738, 1.04041, 1.16268, 1.21379, 1.23355, 1.25029, 1.25197, 1.32154, 1.32227, 1.3273, 1.35699, 1.34436, 1.33824, 1.41459, 1.4149, 1.42587, 1.45406, 1.43681, 1.53277, 1.48871, 1.4851, 1.48565, 1.50954, 1.52082, 1.52716, 1.55116, 1.56869, 1.61396, 1.6077, 1.63112, 1.66849, 1.69332, 1.66037, 1.65985, 1.67913, 1.66828, 1.68148, 1.69264, 1.7095, 1.79082, 1.78982, 1.7934, 1.7254, 1.74805, 1.7753, 1.7887, 1.78864, 1.93731, 1.80624, 1.80956, 1.80938, 1.81684, 1.95439, 1.81612, 1.80015, 1.80013, 1.80647, 1.98312, 1.98979, 1.9905, 1.88895, 1.88894, 1.88644, 1.94102, 1.9398, 1.85032, 1.77839, 1.78853, 1.79034, 1.78884, 1.78838, 1.76646, 1.73725, 1.74135, 1.73387, 1.72107, 1.71367, 1.7067, 1.75083, 1.71488, 1.68904, 1.6853, 1.6556, 1.6322, 1.6068, 1.58241, 1.56419, 1.56452, 1.65462, 1.65354, 1.5931, 1.53721, 1.54553, 1.51274, 1.51189, 1.41714, 1.39576, 1.39642, 1.36081, 1.3317, 1.30799, 1.30705, 1.31993, 1.28131, 1.2545, 1.24277, 1.17956, 1.15488, 1.14629, 1.11948, 1.1096, 1.06813, 1.06399, 1.05664, 1.02856, 1.01685, 1.04351, 1.04351, 1.12895, 0.966615, 0.967605, 1.00615, 1.00823, 1.05852, 1.01046, 1.14671, 1.2117, 1.20983, 1.21083, 1.23593, 1.24651, 1.18491, 1.21559, 1.20204, 1.22968, 1.23563, 1.24775, 1.11455, 1.11336, 1.11141, 1.28112, 1.10862, 1.10769, 1.10494, 1.15319, 1.12509, 1.29557, 1.16906, 1.17777, 1.06769, 1.06663, 1.06671, 1.06804, 1.07032, 1.05772, 1.06265, 1.23349, 1.2747, 1.35914, 1.0604, 1.05713, 1.05762, 1.04386, 1.04389, 1.04564, 1.04588, 1.04606, 1.04802, 1.17244, 1.31873, 1.24376, 1.2755
0.919839, 0.918419, 0.918111, 0.921865, 0.921095, 0.917173, 0.918072, 0.918971, 0.919034, 0.915809, 0.914864, 0.913229, 0.914279, 0.915424, 0.915135, 0.915176, 0.915345, 0.916656, 0.917519, 0.920173, 0.920549, 0.921176, 0.92122, 0.921474, 0.921259, 0.921914, 0.922734, 0.923367, 0.924271, 0.924979, 0.925871, 0.925326, 0.923984, 0.929706, 0.929808, 0.929208, 0.928143, 0.928757, 0.929089, 0.930427, 0.930727, 0.931719, 0.931195, 0.929819, 0.9311, 0.934286, 0.934326, 0.93354, 0.937546, 0.939006, 1.12214, 0.942351, 1.15304, 0.959359, 0.954457, 0.953364, 0.980487, 0.974891, 0.975856, 0.867739, 0.868853, 0.86843, 0.905115, 0.858453, 0.952689, 0.953011, 0.948996, 0.977043, 1.02419, 1.07235, 1.15252, 1.19426, 1.23782, 1.23156, 1.25338, 1.29972, 1.2997, 1.31564, 1.34081, 1.38578, 1.41702, 1.42422, 1.4611, 1.49616, 1.52055, 1.5169, 1.51591, 1.52228, 1.52268, 1.54268, 1.54143, 1.5533, 1.54804, 1.67812, 1.63385, 1.62101, 1.62093, 1.62365, 1.64166, 1.67744, 1.65757, 1.66412, 1.68652, 1.6975, 1.71703, 1.69557, 1.69725, 1.78269, 1.78527, 1.78174, 1.80442, 1.80378, 1.76399, 1.93458, 1.78927, 1.78841, 2.00027, 1.90622, 1.97609, 2.0352, 1.82475, 1.82421, 1.81121, 1.81027, 2.02256, 1.80829, 1.8376, 1.8356, 1.99004, 1.91781, 1.80106, 1.8269, 1.79912, 1.83874, 1.82037, 1.76262, 1.76912, 1.74841, 1.74723, 1.74666, 1.74558, 1.77215, 1.77052, 1.71642, 1.71078, 1.71243, 1.69901, 1.69895, 1.70583, 1.68813, 1.61902, 1.6034, 1.58246, 1.58182, 1.61071, 1.56438, 1.61498, 1.59818, 1.55732, 1.54593, 1.54405, 1.52597, 1.54047, 1.44782, 1.40003, 1.37972, 1.36919, 1.34168, 1.37452, 1.31924, 1.27036, 1.23041, 1.22945, 1.19454, 1.17341, 1.15121, 1.14712, 1.11303, 1.11504, 1.0769, 1.06426, 1.04661, 1.01697, 1.01833, 0.992885, 0.987735, 1.04058, 1.04118, 0.97184, 1.00465, 1.01233, 1.02206, 1.00085, 1.09832, 1.10551, 1.10781, 1.1093, 1.20945, 1.1138, 1.11448, 1.12506, 1.11215, 1.16347, 1.10935, 1.10839, 1.10801, 1.10894, 1.10519, 1.10546, 1.10673, 1.10829, 1.10127, 1.13457, 1.16047, 1.20874, 1.07725, 1.07548, 1.0716, 1.0719, 1.47362, 1.0657, 1.05898, 1.05819, 1.05839, 1.04429, 1.04624, 1.0508, 1.0561, 1.05209, 1.04869, 1.04808, 1.04718, 1.04841, 1.06826, 1.80405, 1.7839, 1.3068, 1.38207, 1.28418, 1.28532
0.925225, 0.925823, 0.925504, 0.924881, 0.926305, 0.923723, 0.921905, 0.922179, 0.923308, 0.924804, 0.925317, 0.926747, 0.926751, 0.925197, 0.920463, 0.923348, 0.923097, 0.922311, 0.918171, 0.918014, 0.921885, 0.920246, 0.920938, 0.92136, 0.919248, 0.91888, 0.918115, 0.91917, 0.918239, 0.91994, 0.922752, 0.925152, 0.925815, 0.92928, 0.929893, 0.928614, 0.930401, 0.9301, 0.928833, 0.929406, 0.929448, 0.93179, 0.927377, 0.928403, 0.929335, 0.929297, 0.942785, 1.12976, 1.09243, 0.956872, 0.950012, 0.964423, 0.959573, 1.08194, 0.969701, 0.97013, 0.984964, 0.966032, 0.881292, 0.972592, 0.943197, 0.887851, 0.894759, 0.959436, 0.957408, 0.957073, 1.02659, 1.04957, 1.04993, 1.13443, 1.2262, 1.23712, 1.21583, 1.26568, 1.2674, 1.37927, 1.3463, 1.34841, 1.3539, 1.42556, 1.40876, 1.45173, 1.4849, 1.50528, 1.51922, 1.5626, 1.5657, 1.50177, 1.50213, 1.65122, 1.53591, 1.54896, 1.6007, 1.64875, 1.63971, 1.63386, 1.62324, 1.62278, 1.64115, 1.67806, 1.7621, 1.68616, 1.73725, 1.72425, 1.70775, 1.70698, 1.80444, 1.72038, 1.74145, 1.74357, 1.81723, 1.77929, 1.7821, 1.78163, 1.78191, 1.78894, 1.97922, 1.78116, 1.78184, 1.83142, 1.93366, 1.82069, 1.93214, 1.92635, 1.92722, 1.88225, 1.8368, 1.8361, 1.83484, 1.80354, 1.79573, 1.80785, 1.86622, 1.77828, 1.84505, 1.83206, 1.74701, 1.74641, 1.74485, 1.74741, 1.74664, 1.78862, 1.79562, 1.86207, 1.71029, 1.69559, 1.69595, 1.697, 1.67564, 1.74173, 1.66372, 1.6593, 1.6108, 1.60584, 1.61945, 1.61288, 1.61136, 1.53779, 1.52357, 1.50411, 1.50171, 1.53697, 1.41887, 1.40885, 1.39939, 1.38138, 1.3679, 1.34146, 1.34159, 1.32754, 1.31622, 1.21943, 1.2199, 1.19153, 1.15701, 1.15637, 1.12703, 1.08397, 1.07218, 1.07221, 1.07051, 1.03811, 1.0822, 0.998431, 0.999354, 1.03549, 0.994424, 0.995329, 0.980897, 1.01984, 1.01897, 1.00634, 1.2104, 1.2095, 1.21079, 1.17025, 1.15636, 1.30339, 1.29155, 1.19812, 1.1953, 1.11238, 1.10524, 1.18451, 1.40583, 1.21857, 1.20572, 1.10912, 1.11164, 1.1126, 1.11218, 1.09879, 1.09813, 1.20534, 1.07846, 1.07753, 1.07832, 1.07195, 1.49169, 1.06426, 1.0636, 1.06147, 1.45846, 1.12498, 1.3095, 1.0469, 1.04755, 1.05089, 1.05393, 1.05191, 1.05288, 1.357, 1.06073, 1.54168, 1.85248, 1.27164, 1.26144, 1.25231, 1.26079, 1.33768
0.925851, 0.926848, 0.924511, 0.925453, 0.926077, 0.924667, 0.924768, 0.924766, 0.924298, 0.923306, 0.921621, 0.920276, 0.920335, 0.919449, 0.921425, 0.92136, 0.9212, 0.921218, 0.918997, 0.918122, 0.917012, 0.91805, 0.917745, 0.917049, 0.918421, 0.916113, 0.917051, 0.917247, 0.92055, 0.921077, 0.923774, 0.923141, 0.922863, 0.922804, 0.924687, 0.924776, 0.925517, 0.926277, 0.925542, 0.924955, 0.925769, 0.926971, 0.945462, 0.94683, 1.10129, 1.10498, 0.950624, 0.950177, 0.956755, 0.953107, 0.953425, 0.953573, 1.07514, 0.932664, 0.932676, 0.954765, 0.959876, 0.886885, 0.886914, 0.886391, 0.87702, 0.876419, 1.06055, 0.929359, 0.926297, 1.01433, 0.978413, 1.06144, 1.08872, 1.16078, 1.1671, 1.217, 1.30991, 1.31645, 1.39139, 1.34961, 1.36542, 1.4006, 1.40062, 1.41424, 1.45135, 1.45796, 1.45515, 1.45395, 1.45384, 1.47703, 1.48181, 1.49041, 1.52296, 1.54058, 1.5471, 1.5487, 1.62965, 1.66571, 1.66602, 1.65555, 1.62482, 1.6244, 1.64128, 1.72056, 1.71963, 1.77378, 1.78018, 1.82973, 1.76148, 1.72017, 1.72136, 1.74836, 1.74674, 1.80587, 1.78701, 1.78589, 1.78863, 1.78764, 1.7886, 1.7858, 1.77947, 1.91599, 1.76252, 1.76184, 1.76524, 1.81465, 1.78804, 1.78793, 1.78761, 1.88017, 1.86586, 2.08484, 1.78993, 1.79523, 1.79668, 1.78883, 1.80475, 1.80078, 1.80963, 1.81771, 1.74766, 1.74209, 1.74544, 1.7432, 1.74818, 1.83884, 1.80609, 1.72416, 1.69377, 1.69218, 1.68949, 1.68885, 1.69379, 1.73647, 1.67584, 1.64234, 1.64419, 1.65121, 1.65105, 1.56629, 1.56356, 1.53015, 1.51062, 1.49552, 1.46961, 1.44804, 1.41404, 1.44181, 1.44172, 1.39546, 1.37339, 1.37825, 1.42456, 1.34498, 1.3155, 1.24766, 1.20139, 1.20176, 1.16369, 1.14983, 1.11889, 1.11054, 1.07961, 1.06976, 1.05164, 1.11481, 1.11474, 1.02376, 0.993253, 1.04805, 1.04906, 1.1364, 1.13625, 1.0619, 1.0623, 1.06, 1.05447, 1.20068, 1.14568, 1.17857, 1.14528, 1.14597, 1.1471, 1.33588, 1.06427, 1.12162, 1.21474, 1.18317, 1.22328, 1.3133, 1.40711, 1.21686, 1.20476, 1.20431, 1.1955, 1.16059, 1.45863, 1.08075, 1.07835, 1.07835, 1.07338, 1.07119, 1.06992, 1.07037, 1.06856, 1.06989, 1.07074, 1.07141, 1.06656, 1.06722, 1.05945, 1.05756, 1.05236, 1.05229, 1.63759, 1.07041, 1.25744, 1.24739, 1.25007, 1.29292, 1.2469, 1.30159, 1.14183, 1.14406
0.925986, 0.925429, 0.924866, 0.92578, 0.925143, 0.924898, 0.92281, 0.921958, 0.921605, 0.922551, 0.921421, 0.922058, 0.921025, 0.921531, 0.921376, 0.921396, 0.921349, 0.919545, 0.918969, 0.918504, 0.917507, 0.918007, 0.916052, 0.916302, 0.914945, 0.914438, 0.916865, 0.915938, 0.918532, 0.926203, 0.925637, 0.926245, 0.922689, 0.921144, 0.920698, 0.922697, 0.924826, 0.926227, 0.927058, 0.925641, 1.07402, 0.955542, 0.948092, 1.00806, 0.953446, 0.954599, 0.958208, 0.956745, 0.95898, 0.957478, 0.988494, 0.976243, 0.985257, 0.975345, 0.979517, 0.973862, 1.03365, 0.886946, 0.889243, 0.965677, 0.878491, 0.877578, 1.04504, 0.890077, 0.949297, 0.949311, 1.06467, 1.06505, 1.08816, 1.16799, 1.19889, 1.1933, 1.26379, 1.4969, 1.51818, 1.5169, 1.52841, 1.52881, 1.41732, 1.42629, 1.43696, 1.44428, 1.44588, 1.44655, 1.45029, 1.45771, 1.46464, 1.51369, 1.5095, 1.5065, 1.61108, 1.55002, 1.55188, 1.58849, 1.59833, 1.69102, 1.65695, 1.72043, 1.73761, 1.72795, 1.72017, 1.78202, 1.74362, 1.8301, 1.71711, 1.71709, 1.71955, 1.71961, 1.74008, 1.92495, 1.77326, 1.78701, 1.79735, 1.80275, 1.80261, 1.78644, 1.79846, 1.78404, 1.7953, 1.75091, 1.75133, 1.77369, 1.77315, 1.78845, 1.78824, 1.78665, 1.86537, 1.79901, 1.79335, 1.7865, 1.79374, 1.79225, 1.80049, 1.80515, 1.80301, 1.77267, 1.80389, 1.80604, 1.74735, 1.74825, 1.77157, 1.70995, 1.70957, 1.69994, 1.69934, 1.6704, 1.67478, 1.67314, 1.68976, 1.65806, 1.67893, 1.64392, 1.64866, 1.62737, 1.69939, 1.6233, 1.55334, 1.53082, 1.56542, 1.51011, 1.4984, 1.46383, 1.43406, 1.42175, 1.43019, 1.44741, 1.38853, 1.39744, 1.35144, 1.34736, 1.32374, 1.26671, 1.20997, 1.19078, 1.15293, 1.13597, 1.11982, 1.10744, 1.07703, 1.0563, 1.04645, 1.03282, 1.03362, 1.01853, 1.01347, 1.01343, 1.00152, 1.08757, 1.20324, 1.15468, 1.1505, 1.06841, 1.18158, 1.13878, 1.39027, 1.35828, 1.14476, 1.2485, 1.25002, 1.2266, 1.22552, 1.22646, 1.17837, 1.21907, 1.24317, 1.17099, 1.06971, 1.06888, 1.06926, 1.35311, 1.08771, 1.08835, 1.08505, 1.08393, 1.07862, 1.07792, 1.07397, 1.07072, 1.07044, 1.0601, 1.05959, 1.26805, 1.06645, 1.06747, 1.06649, 1.11166, 1.06026, 1.06344, 1.06448, 1.13407, 1.12032, 1.29211, 1.29593, 1.3023, 1.33635, 1.33562, 1.46522, 1.48066, 1.22123, 1.2227
0.924865, 0.925124, 0.924722, 0.920268, 0.921409, 0.921438, 0.921201, 0.92148, 0.919307, 0.918956, 0.918988, 0.918929, 0.917939, 0.917863, 0.91865, 0.918147, 0.917898, 0.919018, 0.921486, 0.919476, 0.918464, 0.917087, 0.915744, 0.917602, 0.915712, 1.01289, 0.927106, 0.927958, 0.929065, 0.929851, 0.930513, 0.93418, 0.938939, 0.953478, 1.4391, 0.93677, 0.93729, 0.971011, 0.934045, 0.935242, 0.942619, 0.953123, 0.953557, 0.95664, 0.957995, 0.95951, 0.956623, 0.95802, 0.96362, 0.967782, 0.987632, 0.98609, 0.992075, 0.995086, 1.19567, 1.01658, 1.01707, 0.8903, 0.891704, 0.96344, 0.942366, 0.957129, 1.37889, 0.914994, 0.934652, 0.983375, 1.03996, 1.07724, 1.07741, 1.14934, 1.16994, 1.17034, 1.23603, 1.4287, 1.4641, 1.54561, 1.576, 1.47099, 1.46126, 1.41696, 1.41568, 1.42394, 1.43029, 1.43271, 1.44018, 1.46028, 1.49226, 1.49379, 1.51138, 1.53765, 1.54623, 1.5453, 1.55229, 1.55039, 1.65244, 1.65246, 1.7047, 1.71808, 1.77279, 1.73385, 1.73353, 1.79314, 1.7911, 1.79591, 1.75083, 1.75125, 1.93768, 1.76256, 1.76138, 1.76598, 1.76645, 1.76771, 1.76564, 1.88336, 1.89082, 1.9013, 1.76462, 1.76359, 1.75167, 1.74999, 1.86635, 1.86544, 1.86681, 1.86358, 2.23941, 2.1148, 2.11375, 2.11119, 1.87248, 1.82007, 1.77741, 1.83282, 1.84822, 1.77398, 1.7728, 1.76652, 1.76837, 1.80624, 1.82393, 1.74626, 1.72227, 1.77175, 1.7218, 1.75116, 1.66273, 1.66126, 1.66146, 1.66411, 1.67079, 1.7546, 1.64495, 1.63709, 1.61617, 1.62319, 1.622, 1.64162, 1.61722, 1.59655, 1.55824, 1.56419, 1.49519, 1.52422, 1.4579, 1.43481, 1.44121, 1.41317, 1.36065, 1.344, 1.34883, 1.31388, 1.30558, 1.28815, 1.25948, 1.23018, 1.17423, 1.11013, 1.10126, 1.08354, 1.05007, 1.04393, 1.05014, 1.02751, 1.02875, 1.04318, 1.00636, 1.01866, 1.01953, 1.00906, 1.01488, 1.01133, 1.1914, 1.02178, 1.02453, 1.02699, 1.31558, 1.272, 1.22669, 1.2765, 1.28686, 1.1927, 1.25537, 1.29946, 1.27857, 1.23958, 1.27498, 1.30916, 1.23406, 1.07023, 1.28862, 1.21679, 1.09027, 1.07791, 1.07362, 1.07432, 1.17125, 1.06746, 1.06209, 1.06112, 1.06133, 1.06093, 1.06141, 1.06372, 1.06441, 1.06445, 1.06314, 1.06622, 1.098, 1.2233, 1.08983, 1.08993, 1.21348, 1.09539, 1.09788, 1.22586, 1.20547, 1.39289, 1.37621, 1.21574, 1.21593, 1.21994
0.92422, 0.921136, 0.919181, 0.919487, 0.918743, 0.918377, 0.915857, 0.916443, 0.917964, 0.917775, 0.914462, 0.917792, 0.917865, 0.916301, 0.916202, 0.916315, 0.917098, 0.917208, 0.917839, 0.91827, 0.917653, 0.9206, 0.919304, 0.923275, 0.943337, 0.940219, 0.941521, 0.960809, 0.958569, 0.938369, 0.940386, 0.950814, 0.942208, 0.942205, 0.942569, 0.942585, 0.942822, 0.942992, 0.936179, 0.935493, 0.949007, 0.949567, 1.20325, 1.01038, 0.973082, 1.22721, 0.977801, 0.967175, 0.969813, 0.969679, 0.979796, 0.977292, 1.23132, 0.985943, 0.978069, 0.978285, 0.970651, 0.976879, 0.892459, 0.893673, 0.89695, 0.966024, 0.929303, 0.913404, 0.991206, 1.1686, 0.967333, 1.05743, 1.05754, 1.09983, 1.12296, 1.19439, 1.19595, 1.25767, 1.36056, 1.44206, 1.4127, 1.52479, 1.44783, 1.40218, 1.41566, 1.42341, 1.46786, 1.4662, 1.45345, 1.51643, 1.50884, 1.50972, 1.53005, 1.52325, 1.53905, 1.57627, 1.56672, 1.67082, 1.66615, 1.66558, 1.6819, 1.70809, 1.70684, 1.7063, 1.75766, 1.75055, 1.76191, 1.76225, 1.76671, 1.8183, 1.75154, 1.75095, 1.75833, 1.75554, 1.75445, 1.76139, 1.76499, 1.75257, 1.75883, 1.75405, 1.75328, 1.85092, 1.78903, 1.83664, 1.83765, 1.80109, 1.86927, 1.86107, 1.86171, 2.09725, 2.09763, 2.09615, 1.954, 1.87145, 1.87139, 1.78153, 1.78173, 1.77503, 1.77336, 1.76631, 1.76046, 1.76039, 1.77155, 1.75223, 1.75484, 1.72457, 1.75096, 1.75574, 1.68807, 1.68601, 1.66499, 1.66201, 1.65435, 1.6543, 1.62666, 1.6261, 1.62429, 1.61753, 1.61954, 1.62806, 1.61964, 1.57914, 1.58978, 1.57506, 1.52812, 1.55379, 1.48568, 1.51932, 1.41641, 1.37785, 1.33277, 1.30718, 1.30527, 1.29137, 1.31353, 1.26155, 1.17814, 1.17729, 1.12307, 1.10543, 1.07109, 1.09292, 1.11909, 1.05714, 1.06384, 1.01852, 1.03538, 1.05642, 0.995565, 0.995384, 1.06053, 0.987103, 0.986329, 1.11286, 0.983653, 0.993153, 1.0051, 1.002, 1.00776, 1.00746, 1.01277, 1.0188, 1.02177, 1.29267, 1.29233, 1.29026, 1.04331, 1.04378, 1.23308, 1.28217, 1.31943, 1.31278, 1.28641, 1.48003, 1.4847, 1.2995, 1.3027, 1.12226, 1.12204, 1.17909, 1.06615, 1.12089, 1.17192, 1.07565, 1.07509, 1.10576, 1.06969, 1.07048, 1.10518, 1.20814, 1.09599, 1.08796, 1.08917, 1.08831, 1.08818, 1.09556, 1.09983, 1.10068, 1.09581, 1.095, 1.09587, 1.09549, 1.08408, 1.08574
0.923692, 0.922411, 0.921869, 0.921513, 0.92004, 0.919399, 0.919116, 0.921562, 0.919236, 0.921079, 0.920216, 0.919906, 0.920406, 0.918761, 0.917912, 0.917779, 0.916977, 0.918406, 0.917984, 0.917041, 0.928429, 0.928418, 0.92893, 0.929922, 0.929403, 0.931891, 0.953173, 0.955913, 0.93711, 0.941978, 0.94299, 0.943607, 0.944482, 0.944661, 0.944032, 0.945647, 0.945517, 0.94473, 0.939935, 0.942564, 1.49207, 1.52676, 1.24353, 1.23999, 0.963552, 0.96759, 0.967835, 0.968057, 0.965347, 0.962774, 0.962963, 0.959503, 0.959235, 0.958981, 0.950341, 0.974083, 1.13017, 0.979944, 0.905977, 0.90545, 0.898745, 0.93315, 0.958469, 0.973412, 0.971454, 0.980543, 0.980657, 1.03576, 1.07198, 1.07327, 1.21932, 1.22585, 1.22658, 1.28564, 1.30677, 1.33935, 1.37467, 1.36468, 1.38575, 1.38535, 1.41632, 1.42528, 1.47904, 1.4751, 1.47834, 1.52299, 1.51569, 1.52934, 1.53012, 1.53622, 1.58946, 1.58348, 1.66911, 1.67118, 1.67355, 1.67572, 1.67599, 1.78125, 1.71296, 1.71345, 1.75102, 1.75133, 1.76924, 1.7609, 1.76642, 1.76797, 1.75128, 1.75346, 1.75523, 1.74903, 1.84124, 1.75973, 1.75904, 1.7586, 1.75361, 1.84108, 2.10453, 2.11131, 0.00431459, 2.10073, 2.08294, 1.8021, 1.80403, 1.80437, 1.80847, 1.80633, 1.83349, 1.78781, 1.95779, 1.8158, 1.80952, 1.76939, 1.77263, 1.77119, 1.84174, 1.84559, 1.76658, 1.76681, 1.76512, 1.76162, 1.77802, 1.77031, 1.76964, 1.73081, 1.78238, 1.72428, 1.66164, 1.64694, 1.64862, 1.65464, 1.62958, 1.62834, 1.64408, 1.63981, 1.64465, 1.59953, 1.59914, 1.59258, 1.55965, 1.58616, 1.55478, 1.53772, 1.53426, 1.52794, 1.49244, 1.38041, 1.38232, 1.31601, 1.26324, 1.24617, 1.24578, 1.19406, 1.19082, 1.1515, 1.13397, 1.11102, 1.08069, 1.06337, 1.0409, 1.03063, 1.01949, 1.02737, 1.05775, 1.0274, 1.00784, 0.976904, 0.980216, 0.977788, 1.03638, 0.973758, 0.973899, 1.0033, 1.00408, 1.08353, 0.999536, 1.00549, 1.01109, 1.01714, 1.02159, 1.27402, 1.23304, 1.03507, 1.04167, 1.04258, 1.23588, 1.3083, 1.30671, 1.31756, 1.2886, 1.22048, 1.39217, 1.11012, 1.11144, 1.12281, 1.12025, 1.12624, 1.076, 1.07661, 1.07616, 1.07578, 1.07695, 1.07707, 1.07812, 1.08071, 1.0825, 1.08347, 1.08616, 1.09052, 1.09264, 1.09156, 1.09423, 1.09638, 1.09776, 1.09896, 1.10081, 1.09786, 1.10072, 1.10222, 1.20867, 1.20718
0.921705, 0.921523, 0.920239, 0.920893, 0.919675, 0.919483, 0.919678, 0.919251, 0.919455, 0.91865, 0.919726, 0.917172, 0.916828, 0.916439, 0.919951, 0.921909, 0.922686, 0.926648, 0.93215, 0.932743, 0.932032, 0.939662, 0.944517, 0.928397, 0.930026, 0.929165, 0.927402, 0.932765, 0.936506, 0.936764, 0.938369, 0.939138, 0.937865, 0.943044, 0.945579, 0.946216, 0.946007, 0.943865, 0.939789, 0.944295, 0.950825, 1.07087, 0.958385, 0.958616, 0.961899, 0.963265, 0.963027, 0.962567, 0.959211, 0.957679, 0.955693, 0.953701, 0.953075, 0.95335, 0.955686, 0.955655, 0.974199, 0.976213, 0.907154, 0.906235, 0.904336, 0.966088, 1.00816, 1.0115, 0.932351, 0.986781, 0.970929, 0.983552, 1.05172, 1.15642, 1.20698, 1.30841, 1.30858, 1.31415, 1.33417, 1.34098, 1.33805, 1.36613, 1.3823, 1.38094, 1.38595, 1.41686, 1.44031, 1.47114, 1.47832, 1.49047, 1.54309, 1.52646, 1.52011, 1.52862, 1.58904, 1.60039, 1.62865, 1.74449, 1.68576, 1.691, 1.76809, 1.69667, 1.7804, 1.78027, 1.70938, 1.75876, 1.7889, 1.78679, 1.77049, 1.77241, 1.96578, 1.96638, 1.96635, 1.84515, 1.84521, 1.7645, 1.76486, 1.76608, 1.83725, 1.7851, 1.86315, 1.86178, 2.11097, 2.10899, 2.10111, 2.09942, 1.84039, 1.80495, 1.80275, 1.80213, 1.80166, 1.88603, 1.76593, 1.76725, 1.75114, 1.7508, 1.74518, 1.74402, 1.77607, 1.8431, 1.76896, 1.75506, 1.76138, 1.75556, 1.75465, 1.75853, 1.73088, 1.72981, 1.75784, 1.72407, 1.66923, 1.66339, 1.66351, 1.65494, 1.6679, 1.63226, 1.64713, 1.64186, 1.57964, 1.57421, 1.56874, 1.56071, 1.55774, 1.56763, 1.47849, 1.52914, 1.52102, 1.45408, 1.39429, 1.41055, 1.31938, 1.29946, 1.27722, 1.25541, 1.19652, 1.24209, 1.16581, 1.16017, 1.17698, 1.11464, 1.0768, 1.07498, 1.03333, 1.01492, 1.00964, 1.01233, 0.987864, 0.977365, 0.979821, 0.980369, 0.964503, 0.964864, 0.976737, 1.11912, 1.13129, 0.972883, 0.969644, 0.999253, 0.99979, 1.0047, 1.51913, 1.01553, 1.11535, 1.23053, 1.03198, 1.13284, 1.299, 1.20355, 1.1918, 1.0646, 1.23468, 1.34307, 1.24714, 1.24422, 1.24332, 1.1095, 1.10848, 1.14932, 1.19633, 1.20096, 1.08292, 1.07816, 1.08009, 1.08119, 1.08361, 1.07949, 1.07634, 1.0781, 1.08712, 1.08889, 1.08954, 1.20081, 1.20077, 1.19793, 1.08418, 1.19456, 1.17699, 1.09691, 1.0989, 1.09821, 1.10069, 1.1141, 1.1746, 1.11709
0.922211, 0.920688, 0.921791, 0.921019, 0.920632, 0.921313, 0.921443, 0.919781, 0.919723, 0.918682, 0.916707, 0.918899, 0.921966, 0.928877, 0.929873, 1.26111, 0.932507, 0.938609, 1.13263, 0.942098, 0.941123, 0.940889, 0.944455, 0.948518, 0.942651, 0.938567, 0.938756, 0.934034, 0.934247, 0.932967, 0.933815, 0.936821, 0.936409, 0.936584, 0.936961, 0.94063, 0.942734, 0.94444, 0.942798, 0.946665, 1.13758, 0.963657, 0.966067, 0.960676, 0.96252, 0.962025, 0.962036, 0.958985, 0.958548, 0.949476, 0.950791, 0.952826, 0.951472, 0.952542, 0.952767, 0.952609, 0.947142, 0.945952, 1.01214, 0.98806, 1.0081, 0.972715, 0.954358, 0.935955, 0.935994, 1.01541, 0.955907, 1.05973, 1.05182, 1.15089, 1.21613, 1.25942, 1.29089, 1.29151, 1.3177, 1.31908, 1.38351, 1.38875, 1.35511, 1.35674, 1.38551, 1.48276, 1.49034, 1.44373, 1.52964, 1.47569, 1.48993, 1.50987, 1.59546, 1.60322, 1.57813, 1.61793, 1.58354, 1.70401, 1.63041, 1.65207, 1.66975, 1.76321, 1.79661, 1.79706, 1.78183, 1.78618, 1.71728, 1.75428, 1.85521, 1.85189, 1.8881, 1.88704, 1.89716, 1.91793, 1.91263, 1.8786, 1.87643, 1.77908, 1.77884, 1.81487, 1.81457, 1.84066, 1.82927, 1.83402, 1.85414, 1.77469, 1.86954, 1.90999, 1.79558, 1.80295, 1.80259, 1.7992, 1.79393, 1.76136, 1.76104, 1.75048, 1.79617, 1.81655, 1.815, 1.77045, 1.74282, 1.74135, 1.88031, 1.72852, 1.73728, 1.80247, 1.72382, 1.75661, 1.75567, 1.73955, 1.72489, 1.66794, 1.66818, 1.65735, 1.65121, 1.68675, 1.68582, 1.59545, 1.54705, 1.54624, 1.54989, 1.55235, 1.51671, 1.51312, 1.52244, 1.4352, 1.42936, 1.40848, 1.37104, 1.35756, 1.32664, 1.31267, 1.27441, 1.23013, 1.20569, 1.17928, 1.17678, 1.17481, 1.12231, 1.06807, 1.06761, 1.05668, 1.05745, 1.00965, 0.997356, 0.998565, 0.979394, 0.989676, 1.01178, 0.98214, 0.961543, 0.95666, 0.971279, 0.985896, 0.985789, 0.990904, 0.997723, 0.999695, 1.00353, 1.00607, 1.00943, 1.13663, 1.02996, 1.03562, 1.03698, 1.18707, 1.06001, 1.1737, 1.06763, 1.07404, 1.17103, 1.24605, 1.26428, 1.27377, 1.22593, 1.26366, 1.19212, 1.15131, 1.19257, 1.07833, 1.08014, 1.20947, 1.07383, 1.07879, 1.08076, 1.08214, 1.08037, 1.19423, 1.37666, 1.19485, 1.07992, 1.08054, 1.08008, 1.14712, 1.09233, 1.15319, 1.33502, 1.18147, 1.09107, 1.09425, 1.09131, 1.11189, 1.11514, 1.43867
0.923925, 0.923897, 0.922637, 0.922096, 0.92295, 0.92311, 0.923252, 0.923559, 0.924694, 0.924999, 0.926048, 0.925393, 0.93167, 0.931669, 0.935582, 1.1404, 0.942194, 0.943978, 0.945264, 0.945385, 0.943838, 0.943619, 0.943132, 0.941942, 0.942757, 0.94124, 0.939319, 0.957476, 0.974088, 0.981246, 0.959537, 0.96983, 1.09438, 1.10773, 0.94519, 0.94589, 0.945667, 0.946706, 0.945293, 0.949652, 0.950883, 0.952866, 0.952661, 0.955873, 0.954206, 0.953027, 0.953068, 0.952552, 0.952369, 0.952607, 0.952727, 0.952457, 0.952443, 0.953541, 0.952821, 0.948093, 0.947666, 0.952853, 0.967111, 0.965969, 0.968564, 0.970465, 0.933859, 0.935808, 0.935949, 1.08937, 0.980933, 1.05143, 1.08307, 1.17151, 1.26864, 1.2685, 1.28406, 1.45074, 1.44523, 1.34217, 1.34534, 1.38571, 1.38518, 1.37144, 1.41309, 1.49928, 1.41937, 1.42132, 1.5584, 1.5511, 1.59935, 1.59981, 1.58495, 1.53829, 1.64973, 1.6399, 1.61601, 1.6626, 1.63489, 1.63427, 1.78019, 1.77307, 1.79552, 1.73301, 1.76551, 1.76751, 1.76863, 1.76637, 1.798, 1.80294, 1.85262, 1.85307, 1.86787, 1.90019, 1.81644, 1.79567, 1.79094, 1.85857, 1.868, 1.84398, 1.80903, 2.05239, 2.05769, 1.81279, 1.81437, 1.77456, 1.77473, 1.7739, 1.80344, 1.79427, 1.8319, 1.83228, 1.83512, 1.80815, 1.76226, 1.7618, 1.76827, 1.73248, 1.73072, 1.74329, 1.74467, 1.69923, 1.72991, 1.71513, 1.72989, 1.72119, 1.72025, 1.75249, 1.71419, 1.71406, 1.69613, 1.6624, 1.7025, 1.65777, 1.63818, 1.63647, 1.63747, 1.63329, 1.54841, 1.57811, 1.58178, 1.49656, 1.44358, 1.43346, 1.42759, 1.41692, 1.41794, 1.40269, 1.38381, 1.34471, 1.32435, 1.32402, 1.2889, 1.21288, 1.20131, 1.21201, 1.18635, 1.13618, 1.13647, 1.07857, 1.07729, 1.05407, 1.00868, 1.00914, 0.993532, 0.994513, 0.98067, 0.980366, 0.979191, 0.966817, 0.966482, 0.966083, 0.990745, 0.976828, 0.990213, 0.995148, 0.997493, 1.00124, 1.00619, 1.01122, 1.02125, 1.02251, 1.02898, 1.11373, 1.15993, 1.15996, 1.15311, 1.06638, 1.06801, 1.2507, 1.41788, 1.32048, 1.2092, 1.20895, 1.27424, 1.37402, 1.18975, 1.08765, 1.08232, 1.08122, 1.07786, 1.07379, 1.19107, 1.07765, 1.21648, 1.08055, 1.08222, 1.0821, 1.08005, 1.0808, 1.16107, 1.15015, 1.09673, 1.0972, 1.09471, 1.13264, 1.18149, 1.07853, 1.38742, 1.38758, 1.16536, 1.11843, 1.1256, 1.1948
0.925562, 0.924889, 0.924989, 0.924858, 0.93062, 0.932153, 0.93356, 0.933863, 0.935064, 0.932282, 0.932553, 0.937287, 0.937973, 0.93718, 0.935705, 0.936205, 0.938833, 0.939705, 0.940979, 0.941808, 0.942285, 0.950156, 0.956318, 0.958126, 0.96727, 0.967385, 0.96848, 0.968413, 0.966441, 0.966386, 0.958134, 0.956238, 0.953014, 0.951451, 0.956931, 0.956856, 0.960378, 0.955731, 0.963188, 0.953395, 0.954397, 0.954768, 0.954947, 0.955752, 0.954291, 0.953276, 0.954059, 0.955185, 0.955766, 0.954994, 0.953391, 0.953233, 0.953126, 0.952857, 0.952992, 0.957204, 0.957568, 0.956915, 0.957736, 0.953798, 0.951585, 0.944156, 0.943848, 0.942856, 0.940816, 0.94107, 1.05275, 1.06325, 1.08123, 1.09509, 1.17981, 1.25698, 1.2749, 1.34223, 1.39157, 1.34377, 1.3668, 1.361, 1.39179, 1.38755, 1.39209, 1.44108, 1.46079, 1.46179, 1.47062, 1.48239, 1.55888, 1.51016, 1.55759, 1.52275, 1.60949, 1.61696, 1.68585, 1.61471, 1.63009, 1.64334, 1.6751, 1.79605, 1.79635, 1.78614, 1.72291, 1.76995, 1.77491, 1.85894, 1.76197, 1.7622, 1.76184, 1.83949, 1.83926, 1.83221, 1.79046, 1.78842, 1.78868, 1.79043, 1.79233, 1.8027, 0.00425074, 1.80017, 1.94943, 1.9415, 1.90052, 1.80619, 1.8058, 1.79988, 1.78884, 1.85192, 1.96565, 1.89804, 1.89896, 1.91692, 1.89979, 1.75448, 1.75495, 1.7372, 1.75586, 1.72239, 1.74229, 1.7409, 1.72407, 1.7074, 1.71681, 1.71002, 1.70286, 1.67895, 1.67671, 1.6751, 1.65953, 1.68026, 1.67866, 1.68928, 1.64013, 1.63988, 1.63797, 1.63662, 1.57832, 1.57954, 1.55044, 1.47251, 1.44518, 1.444, 1.41621, 1.41676, 1.4253, 1.40548, 1.40356, 1.36081, 1.3123, 1.30718, 1.24575, 1.24775, 1.20141, 1.21843, 1.19627, 1.14927, 1.09344, 1.09436, 1.0616, 1.06074, 1.03323, 1.03362, 1.02293, 0.993899, 1.00577, 0.986306, 1.04577, 1.02398, 0.967475, 0.966263, 1.01475, 0.980692, 1.04607, 1.08388, 1.0821, 1.01813, 1.01773, 1.01716, 1.10816, 1.11398, 1.07924, 1.13439, 1.12853, 1.05828, 1.05952, 1.20242, 1.19351, 1.1917, 1.08469, 1.0857, 1.2026, 1.07126, 1.07318, 1.08921, 1.0919, 1.09193, 1.2027, 1.08704, 1.08724, 1.08786, 1.0851, 1.07527, 1.07563, 1.08024, 1.07919, 1.07988, 1.07691, 1.0779, 1.07909, 1.09482, 1.09605, 1.12562, 1.13001, 1.07801, 1.17624, 1.17489, 1.06441, 1.06273, 1.05508, 1.05326, 1.05453, 1.11212
0.931007, 0.930792, 0.93073, 0.93234, 0.935151, 0.93599, 0.933837, 0.935864, 0.937197, 0.938126, 0.941651, 0.941613, 0.941655, 0.941225, 0.942118, 0.94124, 0.939868, 0.942241, 0.943096, 0.945729, 0.944649, 0.944609, 1.0223, 0.962198, 0.963863, 0.968174, 0.967064, 0.965922, 0.965046, 0.963471, 0.961014, 0.957701, 0.957843, 0.958075, 0.959249, 0.959205, 0.959419, 0.959689, 0.954004, 0.953552, 0.955246, 0.954833, 0.955423, 0.955682, 0.95553, 0.959195, 0.959001, 0.958912, 0.958777, 0.960504, 0.959732, 0.959899, 0.960689, 0.96367, 0.963399, 0.965554, 0.966559, 0.95927, 0.95794, 0.951703, 0.952652, 0.946506, 0.943913, 0.960628, 0.960243, 0.932518, 1.05422, 1.03127, 1.08839, 1.08796, 1.14636, 1.17674, 1.25514, 1.27889, 1.35815, 1.34121, 1.34186, 1.32828, 1.39488, 1.47733, 1.41665, 1.47084, 1.43126, 1.47726, 1.53827, 1.48152, 1.49813, 1.4907, 1.55661, 1.62575, 1.61752, 1.60542, 1.62985, 1.63063, 1.63237, 1.63215, 1.67596, 1.71982, 1.67709, 1.6787, 1.68342, 1.74877, 1.74665, 1.75102, 1.75098, 1.74549, 1.74425, 1.74361, 1.78849, 1.79653, 1.79286, 1.79272, 1.85317, 1.85754, 1.80457, 1.80479, 1.80301, 1.80164, 1.8012, 1.79633, 1.79688, 1.79748, 1.79669, 1.84117, 1.84958, 1.84615, 1.85644, 1.85533, 1.90788, 1.82908, 1.83488, 1.7934, 1.86514, 1.74253, 1.74177, 1.74196, 1.74047, 1.73434, 1.73886, 1.73331, 1.74423, 1.75037, 1.6857, 1.68936, 1.66412, 1.65688, 1.65499, 1.615, 1.61447, 1.69922, 1.62002, 1.61855, 1.62165, 1.62556, 1.66068, 1.58483, 1.56175, 1.44827, 1.43338, 1.44005, 1.41723, 1.41321, 1.41106, 1.41494, 1.38152, 1.3751, 1.30419, 1.26853, 1.25411, 1.21734, 1.18715, 1.17863, 1.17587, 1.09917, 1.07489, 1.07365, 1.0548, 1.05314, 1.03856, 1.01864, 1.01965, 1.00318, 1.00428, 1.02119, 1.02013, 0.973303, 0.991979, 0.998746, 0.982724, 0.982639, 1.10879, 1.01693, 1.02562, 1.08758, 1.13878, 1.11169, 1.0366, 1.13292, 1.04195, 1.04352, 1.15956, 1.05649, 1.05732, 1.0851, 1.2999, 1.08376, 1.08424, 1.20907, 1.06704, 1.06745, 1.32082, 1.1128, 1.09678, 1.09748, 1.09078, 1.08881, 1.08854, 1.09075, 1.08749, 1.08168, 1.07883, 1.07908, 1.08047, 1.07662, 1.07664, 1.22709, 1.09601, 1.09625, 1.0972, 1.12839, 1.15854, 1.07363, 1.05992, 1.05295, 1.04909, 1.04371, 1.04621, 1.04798, 1.04817, 1.04793
0.931787, 0.929945, 0.928135, 0.928051, 0.93632, 0.936642, 0.939415, 0.941685, 0.942694, 1.43804, 0.95715, 0.958507, 0.958052, 0.956448, 0.956065, 0.95621, 1.0323, 0.943983, 0.944889, 1.05665, 0.951336, 0.950833, 0.95068, 0.955678, 0.957063, 0.96362, 0.967239, 0.969815, 0.968302, 0.96637, 0.960199, 0.961828, 0.946951, 0.946305, 0.946002, 0.945364, 0.948617, 0.94967, 0.951221, 0.953591, 0.953189, 0.955201, 0.956107, 0.960112, 0.959033, 0.958919, 0.97557, 0.995806, 0.995334, 0.979244, 0.979981, 0.98128, 0.985465, 0.96618, 0.965063, 0.960181, 0.959994, 0.95811, 0.957652, 0.954327, 0.954059, 0.940558, 0.943414, 0.943053, 1.00796, 0.932015, 0.939976, 0.969838, 0.970637, 1.13396, 1.16995, 1.19187, 1.23298, 1.2425, 1.28863, 1.34738, 1.35294, 1.34467, 1.35452, 1.41229, 1.41154, 1.43843, 1.43955, 1.49542, 1.46794, 1.46254, 1.49709, 1.55443, 1.55387, 1.59278, 1.61456, 1.60368, 1.68764, 1.68716, 1.63704, 1.63407, 1.73523, 1.72066, 1.67457, 1.67265, 1.66899, 1.66885, 1.73062, 1.75024, 1.75031, 1.74945, 1.74591, 1.76477, 1.77456, 1.78546, 1.78604, 1.78545, 1.78543, 1.78556, 1.78689, 1.78347, 1.85862, 1.79238, 1.79273, 1.79757, 1.80117, 1.8005, 1.7998, 1.8011, 1.85341, 1.84993, 1.85511, 1.86137, 1.86147, 1.82927, 1.82756, 1.82674, 1.76827, 1.89777, 1.75183, 1.74907, 1.74128, 1.74207, 1.75482, 1.7336, 1.74055, 1.75519, 1.70585, 1.75494, 1.66197, 1.67089, 1.62878, 1.62867, 1.57483, 1.57239, 1.59487, 1.59598, 1.61389, 1.61502, 1.62341, 1.45701, 1.41629, 1.40222, 1.40186, 1.3879, 1.36856, 1.42145, 1.39008, 1.40216, 1.40282, 1.41656, 1.29079, 1.25014, 1.23125, 1.17082, 1.17228, 1.16053, 1.11903, 1.08874, 1.07359, 1.04939, 1.04105, 1.03811, 1.03596, 1.01505, 1.01497, 1.01536, 0.984998, 0.982181, 0.980314, 1.02871, 1.02611, 0.978094, 0.991177, 1.06526, 1.05981, 1.05932, 1.05688, 1.08474, 1.0691, 1.18145, 1.03103, 1.07175, 1.29883, 1.30011, 1.37657, 1.06159, 1.06372, 1.33294, 1.28729, 1.08277, 1.18514, 1.06666, 1.06528, 1.21655, 1.19969, 1.1965, 1.19679, 1.15553, 1.08756, 1.08833, 1.08209, 1.08265, 1.07469, 1.07449, 1.21129, 1.0836, 1.08691, 1.08826, 1.15249, 1.09717, 1.09766, 1.0981, 1.08746, 1.21904, 1.82998, 1.10163, 1.05706, 1.0354, 1.03629, 1.37844, 1.04687, 1.04807, 1.04931, 1.04699
0.93311, 0.932326, 0.931391, 0.931531, 0.930912, 0.943656, 0.94497, 0.960696, 0.954629, 0.95328, 0.960333, 0.963189, 0.963051, 0.965198, 0.964933, 0.972169, 0.97798, 0.97978, 1.17581, 1.20496, 0.991191, 1.5162, 1.05295, 0.952937, 0.950567, 0.948399, 0.948953, 0.946995, 0.945877, 0.939179, 0.942909, 0.943748, 0.943573, 0.943252, 0.943642, 0.943729, 0.946405, 0.948216, 0.949132, 0.950463, 0.952511, 0.956679, 0.960353, 0.961884, 0.968048, 0.974781, 0.997159, 0.963935, 0.964264, 0.965721, 0.967198, 0.96701, 0.968758, 0.965179, 0.96419, 0.961428, 0.958547, 0.958261, 0.957391, 0.957952, 0.952783, 0.948994, 0.949941, 0.943814, 1.00202, 0.932777, 0.93391, 0.933851, 0.992265, 1.03123, 1.09202, 1.21486, 1.21463, 1.33372, 1.31921, 1.34335, 1.39198, 1.39211, 1.35931, 1.37148, 1.41595, 1.38632, 1.46151, 1.46055, 1.47195, 1.47286, 1.44494, 1.54551, 1.54497, 1.55695, 1.5569, 1.58987, 1.68498, 1.61285, 1.68485, 1.64206, 1.66366, 1.66232, 1.67382, 1.67191, 1.67063, 1.67063, 1.68605, 1.71004, 1.75174, 1.78591, 1.75243, 1.75141, 1.76235, 1.82691, 1.90064, 1.78228, 1.78185, 1.78109, 1.78157, 1.8923, 1.8266, 1.82463, 1.79406, 1.80391, 1.80396, 1.80348, 1.80987, 1.80725, 1.80536, 1.87608, 1.85849, 1.88815, 1.77996, 1.78121, 1.77656, 1.77586, 1.84988, 1.84741, 1.84762, 1.81157, 1.75736, 1.7552, 1.73934, 1.73853, 1.73485, 1.77164, 1.74924, 1.75496, 1.65121, 1.62836, 1.62874, 1.6277, 1.57491, 1.57444, 1.59312, 1.59005, 1.54053, 1.5158, 1.43307, 1.42023, 1.39259, 1.38492, 1.36518, 1.34329, 1.35178, 1.34376, 1.33021, 1.34023, 1.34765, 1.27875, 1.27265, 1.27869, 1.27809, 1.1578, 1.17795, 1.11084, 1.10615, 1.07999, 1.04862, 1.04121, 1.03494, 1.02754, 1.01643, 1.011, 0.997553, 1.00508, 0.984709, 0.984458, 0.978131, 0.978963, 0.973675, 1.01465, 1.01975, 1.05131, 1.19997, 1.10273, 1.06112, 1.08226, 1.01991, 1.02552, 1.06768, 1.22678, 1.26404, 1.26507, 1.06041, 1.21521, 1.21383, 1.07841, 1.07879, 1.1222, 1.07113, 1.21109, 1.26096, 1.20053, 1.23321, 1.15359, 1.15346, 1.1783, 1.24799, 1.08114, 1.07977, 1.08168, 1.08115, 1.08268, 1.31679, 1.08934, 1.09071, 1.09593, 1.09693, 1.09782, 1.09802, 1.19226, 1.19275, 1.21286, 1.05181, 1.05666, 1.03911, 1.03886, 1.03917, 1.04573, 1.04911, 1.0496, 1.04949, 1.04935
0.93396, 0.933144, 0.933832, 0.933889, 0.933595, 1.07081, 1.04787, 0.961139, 0.957525, 0.958677, 0.962648, 0.967055, 0.966614, 0.967203, 0.968217, 0.969565, 0.96838, 0.967104, 0.965882, 1.09709, 1.16417, 1.23273, 1.18827, 1.18887, 0.946145, 0.944087, 0.944085, 0.943015, 0.943141, 0.938715, 0.938742, 1.2326, 0.942089, 1.17091, 0.945911, 1.27701, 0.953779, 0.955813, 0.956863, 0.96289, 0.952811, 0.956815, 1.08345, 0.969832, 0.970472, 0.969817, 0.968008, 0.963961, 0.965343, 0.966331, 0.96656, 0.966422, 0.965471, 0.965638, 0.963293, 0.960764, 0.959047, 0.959049, 0.959238, 0.959163, 0.955903, 0.953575, 0.955843, 0.936649, 0.93293, 0.933093, 0.930817, 0.941009, 0.960178, 0.994039, 1.08008, 1.19696, 1.19746, 1.27884, 1.32684, 1.31692, 1.39323, 1.38436, 1.36777, 1.39516, 1.38258, 1.43685, 1.43653, 1.40382, 1.39225, 1.42329, 1.42405, 1.52477, 1.53767, 1.5366, 1.61306, 1.57102, 1.6545, 1.65968, 1.68548, 1.66079, 1.65597, 1.66601, 1.68442, 1.6997, 1.67085, 1.67167, 1.73706, 1.72387, 1.71627, 1.71565, 1.74176, 1.75532, 1.83241, 1.83283, 1.88158, 1.78549, 1.78599, 1.78482, 1.78077, 1.78563, 1.7831, 1.8229, 1.78311, 1.78487, 1.7848, 1.82367, 1.8576, 1.80062, 1.80243, 1.80975, 1.80986, 1.84572, 1.78051, 1.78172, 1.78114, 1.78, 1.78227, 1.78294, 1.83245, 1.97373, 1.97348, 1.82398, 1.86587, 1.73211, 1.78825, 1.78893, 1.74519, 1.68676, 1.68801, 1.61059, 1.61008, 1.62927, 1.63006, 1.53748, 1.55214, 1.51984, 1.52447, 1.49732, 1.39596, 1.38534, 1.36377, 1.36344, 1.34166, 1.3462, 1.32412, 1.29894, 1.30441, 1.29267, 1.2949, 1.28282, 1.22841, 1.20807, 1.16562, 1.16697, 1.12151, 1.09498, 1.08165, 1.07136, 1.05048, 1.05219, 1.02725, 1.02246, 0.998807, 0.993883, 0.994434, 0.987917, 0.984274, 0.998197, 1.04563, 1.01875, 1.04921, 1.05431, 1.01232, 1.00952, 1.00952, 1.01135, 1.01926, 1.01501, 1.01844, 1.02028, 1.3027, 1.22635, 1.1828, 1.09846, 1.22034, 1.17464, 1.08692, 1.07141, 1.1424, 1.12175, 1.08482, 1.08374, 1.08318, 1.23432, 1.23685, 1.46628, 1.21854, 1.14639, 1.24761, 1.30849, 1.30791, 1.30624, 1.09073, 1.09245, 1.0944, 1.0947, 1.09482, 1.75639, 1.75774, 1.27493, 1.37038, 1.48569, 1.0486, 1.04943, 1.37652, 1.04325, 1.04246, 1.0423, 1.07344, 1.40622, 1.04389, 1.04463, 1.05044, 1.05032
0.944066, 0.935176, 0.934522, 0.937727, 0.938689, 0.943344, 1.09038, 0.962637, 0.962474, 0.963647, 0.964352, 0.968107, 0.968291, 0.968788, 0.968997, 0.968771, 0.966759, 0.967083, 1.10842, 1.12308, 1.22927, 0.946718, 0.946178, 0.94756, 0.942575, 0.944488, 0.946296, 0.946136, 0.94418, 1.01375, 1.28945, 1.17824, 1.18147, 1.23016, 1.34314, 0.964107, 0.963631, 0.963345, 0.969769, 0.973752, 0.960869, 0.962643, 0.96795, 0.974819, 0.975324, 0.974545, 0.970567, 0.969072, 0.967107, 0.967734, 0.967362, 0.966414, 0.965603, 0.964256, 0.963964, 0.960791, 0.958682, 0.959417, 0.959506, 0.959332, 0.959042, 0.957405, 0.963596, 1.28812, 0.936097, 0.931723, 0.931307, 0.943049, 1.00913, 0.981438, 1.0503, 1.15657, 1.15379, 1.26149, 1.26554, 1.32029, 1.37489, 1.34855, 1.41184, 1.37238, 1.3679, 1.38096, 1.35766, 1.40384, 1.35542, 1.41353, 1.39662, 1.50323, 1.43241, 1.53439, 1.5365, 1.57173, 1.64088, 1.68545, 1.69277, 1.67769, 1.63659, 1.63675, 1.6356, 1.69013, 1.6953, 1.6686, 1.67571, 1.67031, 1.73525, 1.73226, 1.73141, 1.75799, 1.759, 1.75774, 1.77901, 1.77863, 1.77877, 1.78606, 1.78259, 1.77986, 1.77994, 1.77925, 1.77941, 1.78884, 1.76302, 1.78693, 1.79323, 1.86209, 1.80309, 1.80278, 1.80197, 1.82003, 1.80914, 1.78309, 1.78238, 1.7806, 1.78526, 1.78327, 1.83524, 0.00457799, 1.97908, 1.93847, 1.91028, 1.7855, 1.72389, 1.68482, 1.6831, 1.67328, 1.67434, 1.61825, 1.61776, 1.62104, 1.62024, 1.53173, 1.58521, 1.63589, 1.47278, 1.47579, 1.43202, 1.3705, 1.3697, 1.37186, 1.34605, 1.34975, 1.31632, 1.2949, 1.27993, 1.30417, 1.31522, 1.24305, 1.22011, 1.16799, 1.13636, 1.13658, 1.08684, 1.09195, 1.07131, 1.102, 1.04985, 1.03381, 1.02531, 0.994164, 1.00232, 0.985274, 0.994299, 1.00545, 0.98381, 0.981591, 1.03671, 0.969671, 0.970589, 1.0101, 1.00934, 0.977341, 1.09495, 1.00539, 1.00798, 1.01193, 1.29341, 1.27855, 1.31296, 1.4543, 1.04452, 1.04591, 1.19476, 1.31324, 1.27567, 1.1998, 1.08715, 1.08744, 1.08589, 1.08594, 1.37826, 1.34019, 1.14451, 1.29173, 1.0567, 1.05772, 1.31117, 1.31166, 1.09125, 1.09976, 1.19921, 1.17456, 1.1577, 1.15108, 1.14046, 1.14279, 1.37989, 1.09654, 1.0419, 1.0457, 1.04836, 1.04904, 1.04569, 1.04579, 1.04571, 1.04567, 1.04531, 1.04916, 1.04812, 1.04814, 1.04918, 1.05044
0.946906, 0.946459, 0.941013, 0.940149, 1.22115, 1.22179, 0.951189, 1.07815, 0.966724, 0.966211, 0.96684, 0.96628, 0.968442, 0.967061, 0.965375, 0.963216, 1.16716, 0.950054, 0.951209, 0.9502, 0.948184, 0.951327, 0.952726, 0.9527, 0.952989, 1.15536, 1.15639, 0.967049, 0.971332, 0.970765, 1.20896, 1.20853, 1.0191, 1.23862, 1.37322, 0.970905, 0.970967, 0.971624, 0.970337, 0.970095, 0.967884, 0.966539, 0.966557, 0.974046, 0.973334, 0.97084, 0.968941, 0.967126, 0.965161, 0.966369, 0.964864, 0.964269, 0.964733, 0.965162, 0.961129, 0.960946, 0.958289, 0.959008, 0.959389, 0.959502, 0.959653, 0.958002, 0.954004, 0.967931, 1.00522, 0.939454, 0.939839, 1.05115, 1.08942, 1.02614, 1.00445, 1.16984, 1.14299, 1.16843, 1.22538, 1.28089, 1.31383, 1.37913, 1.38028, 1.35308, 1.33931, 1.40891, 1.40898, 1.3538, 1.35358, 1.35795, 1.35858, 1.43898, 1.4523, 1.46377, 1.47895, 1.55378, 1.54352, 1.56478, 1.65122, 1.65047, 1.7143, 1.64206, 1.6409, 1.71818, 1.64865, 1.68993, 1.6477, 1.75103, 1.78632, 1.77065, 1.7695, 1.7779, 1.77954, 1.78686, 1.78838, 1.78903, 1.77801, 1.79058, 1.78988, 1.78345, 1.78348, 1.78177, 1.78257, 1.81745, 1.81683, 1.78205, 1.77271, 1.86501, 1.85505, 1.83522, 1.82447, 1.81669, 1.82074, 1.79212, 1.75376, 1.75291, 1.8203, 1.76102, 1.76158, 1.76121, 1.90147, 1.89447, 1.90424, 1.90289, 1.71604, 1.69664, 1.67297, 1.67277, 1.67043, 1.66824, 1.61754, 1.61784, 1.61933, 1.53328, 1.52405, 1.52259, 1.52089, 1.50765, 1.50695, 1.39223, 1.42932, 1.33121, 1.35028, 1.2974, 1.28479, 1.27024, 1.26953, 1.26837, 1.27042, 1.27788, 1.20757, 1.1408, 1.12299, 1.11479, 1.0891, 1.07909, 1.06991, 1.07842, 1.04134, 1.03155, 1.01881, 0.988224, 0.994077, 0.990891, 0.993685, 0.981049, 0.981863, 1.07555, 1.07753, 0.982036, 0.983561, 0.986281, 0.979747, 0.975515, 1.00472, 1.00489, 1.32925, 1.01548, 1.02166, 1.06007, 1.23217, 1.17908, 1.20125, 1.2128, 1.2725, 1.29905, 1.22337, 1.24713, 1.4508, 1.1469, 1.60286, 1.3295, 1.15166, 1.1436, 1.0523, 1.05503, 1.05632, 1.06102, 1.12277, 1.3911, 1.22942, 1.32437, 1.32471, 1.26534, 1.15742, 1.15581, 1.15306, 1.05043, 1.05004, 1.04934, 1.04836, 1.05281, 1.04917, 1.04927, 1.04601, 1.04663, 1.04616, 1.04766, 1.04958, 1.04853, 1.05199, 1.0529, 1.054, 1.05562
0.949058, 0.949171, 0.948479, 0.950404, 0.950367, 0.952822, 0.953459, 0.955585, 1.27248, 0.964019, 0.964938, 0.963433, 0.96166, 1.1632, 0.95245, 0.951613, 0.948978, 0.949504, 0.947416, 0.948362, 0.948529, 0.946918, 0.94342, 0.954763, 0.954356, 0.962617, 0.964633, 0.965659, 0.967858, 0.969531, 1.24147, 0.978067, 0.981644, 0.982648, 0.976802, 0.974076, 0.973216, 0.970563, 0.969468, 0.969157, 0.96645, 0.965427, 0.965974, 0.967332, 0.966289, 0.96695, 0.96706, 0.967088, 0.966328, 0.964421, 0.963578, 0.963632, 0.964252, 0.962785, 0.9625, 0.982872, 0.964752, 0.968394, 0.969382, 0.964542, 0.970064, 0.952401, 0.952933, 0.985296, 0.986996, 0.93229, 1.10157, 1.01183, 1.00944, 1.00803, 1.0054, 1.08278, 1.09463, 1.09662, 1.14527, 1.19489, 1.23676, 1.28013, 1.27699, 1.30616, 1.30599, 1.40569, 1.34372, 1.34759, 1.34649, 1.34656, 1.36819, 1.37046, 1.43606, 1.49121, 1.49634, 1.49474, 1.63636, 1.64803, 1.59343, 1.64468, 1.61536, 1.60494, 1.63136, 1.63436, 1.6341, 1.64888, 1.65635, 1.67153, 1.67156, 1.72427, 1.71596, 1.76733, 1.76719, 1.78888, 1.85237, 1.8517, 1.79008, 1.79338, 1.79353, 1.79671, 1.79737, 1.78268, 1.77583, 1.76181, 1.74276, 1.74172, 1.758, 1.86472, 1.82951, 1.81772, 1.79478, 1.82714, 1.82666, 1.7472, 1.74528, 1.74388, 1.741, 1.76782, 1.76848, 1.76627, 1.72905, 1.74481, 1.69729, 1.68997, 1.68815, 1.68821, 1.67268, 1.67336, 1.67646, 1.67931, 1.63423, 1.73022, 1.5897, 1.55062, 1.53399, 1.59594, 1.56943, 1.55388, 1.51436, 1.41229, 1.40706, 1.33181, 1.31705, 1.27231, 1.26372, 1.26002, 1.25708, 1.27291, 1.27326, 1.32634, 1.22714, 1.16101, 1.13381, 1.09773, 1.09525, 1.05926, 1.05995, 1.03872, 1.02558, 1.01216, 0.98917, 0.988869, 0.975292, 0.978928, 0.955979, 0.957633, 0.959448, 0.953382, 0.937775, 0.937746, 1.04, 0.979826, 1.02155, 0.973779, 1.00301, 1.00523, 1.01462, 1.01502, 1.05262, 1.16338, 1.20227, 1.52075, 1.33769, 1.59891, 1.59766, 1.14107, 1.1673, 1.10893, 1.14721, 1.14823, 1.05705, 1.05488, 1.04636, 1.04749, 1.19076, 1.3254, 1.23933, 1.2336, 1.25943, 1.04329, 1.04311, 1.0442, 1.04549, 1.04441, 1.0454, 1.04915, 1.0493, 1.04947, 1.05063, 1.0517, 1.05257, 1.05312, 1.04707, 1.0461, 1.04674, 1.05079, 1.04995, 1.05081, 1.05272, 1.05446, 1.05292, 1.05001, 1.13741, 1.13559
0.954127, 0.956068, 0.953981, 0.952444, 0.952092, 0.951834, 0.95337, 0.952451, 0.998704, 1.1178, 0.958856, 0.956882, 0.951301, 0.951008, 0.951492, 0.94365, 0.941271, 0.941967, 0.943266, 0.945634, 0.947431, 0.952016, 0.951432, 0.947978, 0.949657, 0.951488, 0.95417, 0.963136, 0.967614, 0.969777, 0.974535, 0.97755, 0.97928, 0.97706, 0.974255, 0.97482, 0.978051, 0.968371, 0.966462, 0.957141, 0.957177, 0.970613, 0.961512, 1.00756, 1.00761, 0.960663, 0.960798, 0.962302, 0.962855, 0.9628, 0.963159, 0.962733, 0.962919, 0.965674, 0.968048, 0.970605, 0.969762, 0.969844, 0.970102, 0.971258, 0.971481, 0.959268, 0.959302, 0.981159, 0.983732, 0.939017, 0.937445, 0.938288, 0.936305, 1.02603, 1.02555, 1.00939, 1.03898, 1.10353, 1.12578, 1.21151, 1.22882, 1.26032, 1.3139, 1.31376, 1.3129, 1.32098, 1.35794, 1.34377, 1.34302, 1.37153, 1.37189, 1.41515, 1.47493, 1.52273, 1.46996, 1.47282, 1.52481, 1.53131, 1.55146, 1.59638, 1.62706, 1.6237, 1.62846, 1.62602, 1.62513, 1.62356, 1.74496, 1.74301, 1.69081, 1.75818, 1.75816, 1.71594, 1.71631, 1.69135, 1.70441, 1.74692, 1.74541, 1.75757, 1.78996, 1.79984, 1.75953, 1.76448, 1.73847, 1.73805, 1.73761, 1.77821, 1.80752, 1.76989, 1.78632, 1.78557, 1.78585, 1.78525, 1.79965, 1.76104, 1.76066, 1.74085, 1.73961, 1.71978, 1.70682, 1.7063, 1.76196, 1.65564, 1.68182, 1.75786, 1.71056, 1.71053, 1.70305, 1.71055, 1.66927, 1.61221, 1.60941, 1.53157, 1.50373, 1.4938, 1.53651, 1.55455, 1.54666, 1.53029, 1.52931, 1.5167, 1.41276, 1.3161, 1.31288, 1.28792, 1.26121, 1.24738, 1.23591, 1.22632, 1.21042, 1.20874, 1.16065, 1.14307, 1.13138, 1.08385, 1.07066, 1.05062, 1.06327, 1.03014, 1.03323, 1.00611, 0.994431, 0.991226, 0.976606, 0.952228, 0.947409, 0.947335, 0.948312, 0.95146, 0.928618, 0.928878, 0.983622, 0.986816, 0.980608, 1.04441, 1.01102, 1.01241, 1.01718, 1.14807, 1.14714, 1.44823, 1.04547, 1.04407, 1.04716, 1.15001, 1.36492, 1.33382, 1.33121, 1.31907, 1.05758, 1.05606, 1.0561, 1.05584, 1.05081, 1.05041, 1.04888, 1.04836, 1.04629, 1.04357, 1.04331, 1.04385, 1.04359, 1.04452, 1.0466, 1.04632, 1.21658, 1.20213, 1.04997, 1.05132, 1.05228, 1.05462, 1.05534, 1.05133, 1.04834, 1.04821, 1.05149, 1.15006, 1.06545, 1.17292, 1.17372, 1.11165, 1.25382, 1.1677, 1.1681, 1.26075
0.954339, 0.955323, 0.954867, 0.953393, 0.952215, 0.953097, 0.947943, 0.94717, 0.943808, 0.949465, 0.946571, 0.945381, 0.941206, 0.940745, 0.944336, 0.943914, 0.943479, 0.944685, 0.944732, 0.949338, 0.950493, 0.955705, 0.956335, 0.954758, 0.955023, 0.953406, 0.954621, 0.958224, 1.26454, 0.977959, 0.974251, 0.972382, 0.977359, 0.972697, 1.29248, 0.97184, 1.07773, 0.966612, 0.954187, 0.954679, 0.954098, 0.953663, 0.954252, 0.953673, 0.953552, 0.954718, 0.959763, 0.959424, 0.959477, 0.963254, 0.963227, 0.966838, 0.969996, 0.972077, 0.972221, 0.973851, 0.974749, 0.973978, 0.973093, 0.973224, 0.970187, 0.970033, 0.957945, 0.98366, 0.952819, 0.95224, 0.968323, 0.97316, 1.0279, 0.929379, 0.959056, 0.982264, 1.02228, 1.06838, 1.09496, 1.1754, 1.25708, 1.2505, 1.24757, 1.28115, 1.27957, 1.28517, 1.28987, 1.31019, 1.34452, 1.39591, 1.39635, 1.46903, 1.52427, 1.51349, 1.52286, 1.49885, 1.52775, 1.52377, 1.52256, 1.55752, 1.63845, 1.65066, 1.64537, 1.64906, 1.61875, 1.62024, 1.62364, 1.67291, 1.67901, 1.67864, 1.75797, 1.67354, 1.67192, 1.68056, 1.69185, 1.73743, 1.73716, 1.75538, 1.78169, 1.7819, 1.78151, 1.80356, 1.74903, 1.74849, 1.75929, 1.7788, 1.86115, 1.8057, 1.80387, 1.80425, 1.79632, 1.79038, 1.78119, 1.73374, 1.73274, 1.7226, 1.71614, 1.71492, 1.76557, 1.76451, 1.67129, 1.65822, 1.65152, 1.65156, 1.70931, 1.70247, 1.62732, 1.62666, 1.62587, 1.60912, 1.55211, 1.47329, 1.44143, 1.44152, 1.40996, 1.38286, 1.42768, 1.46824, 1.44376, 1.4807, 1.48036, 1.3441, 1.36164, 1.28501, 1.32291, 1.2381, 1.2199, 1.20266, 1.24266, 1.15195, 1.13254, 1.13259, 1.08231, 1.0585, 1.03922, 1.0314, 1.02284, 1.01269, 0.99537, 1.04575, 1.04576, 0.958432, 0.99816, 0.950566, 0.94987, 0.9513, 0.934772, 0.93861, 1.00026, 1.00191, 0.952142, 0.95268, 1.02898, 1.03078, 1.05892, 1.01153, 1.06726, 1.07238, 1.07424, 1.14916, 1.04223, 1.04023, 1.04111, 1.29, 1.0595, 1.05987, 1.06019, 1.05821, 1.058, 1.18126, 1.0474, 1.04759, 1.04683, 1.04696, 1.04581, 1.04579, 1.04565, 1.04594, 1.04539, 1.04643, 1.04631, 1.04745, 1.05012, 1.05134, 1.05374, 1.81043, 1.16395, 1.05586, 1.05576, 1.0525, 1.05273, 1.05353, 1.49196, 1.23553, 1.20618, 1.21539, 1.45218, 1.09302, 1.37335, 1.23821, 1.23869, 1.24056, 1.12577, 1.1262
0.985093, 0.982682, 1.08356, 0.948003, 0.945952, 0.944374, 0.942832, 0.944791, 0.943828, 0.942515, 0.942044, 0.942864, 0.942266, 0.945997, 0.944694, 0.944647, 0.945521, 0.946193, 0.948199, 0.952573, 0.954229, 0.953767, 0.954769, 0.959044, 0.959819, 0.959327, 0.957773, 0.956336, 0.97534, 1.10878, 1.25336, 0.946634, 0.947684, 0.946477, 0.945561, 0.947674, 0.949097, 0.950903, 0.951545, 0.95152, 0.95234, 0.952569, 0.951427, 0.952762, 0.953937, 0.953887, 0.959297, 0.958504, 0.959777, 0.991113, 0.969457, 0.970205, 0.972832, 0.975877, 0.97672, 0.976599, 0.976327, 0.975723, 0.973676, 0.971891, 0.970959, 0.970146, 0.984433, 0.957313, 0.954185, 0.949469, 0.940356, 0.939611, 0.979866, 0.928224, 0.949647, 0.956471, 0.995588, 1.01197, 1.21919, 1.22562, 1.21899, 1.21927, 1.24311, 1.29931, 1.29893, 1.33983, 1.34092, 1.33234, 1.30854, 1.33988, 1.36126, 1.36328, 1.44828, 1.46845, 1.47679, 1.48891, 1.50664, 1.51439, 1.50959, 1.51104, 1.54529, 1.58061, 1.57497, 1.58831, 1.58477, 1.61522, 1.6188, 1.6618, 1.63755, 1.63412, 1.64358, 1.67111, 1.66732, 1.66638, 1.72645, 1.74818, 1.74732, 1.79578, 1.76827, 1.77935, 1.74326, 1.74386, 1.74062, 1.7621, 1.85847, 1.71597, 1.86193, 1.75624, 1.74905, 1.74856, 1.82865, 1.85118, 1.81881, 1.81852, 1.76555, 1.72175, 1.71133, 1.69355, 1.76682, 1.79801, 1.66263, 1.66211, 1.66289, 1.61303, 1.58749, 1.56874, 1.61253, 1.55456, 1.54736, 1.50724, 1.48588, 1.40941, 1.39618, 1.37072, 1.36156, 1.35533, 1.46176, 1.34187, 1.39431, 1.42662, 1.42564, 1.38598, 1.36626, 1.29525, 1.27308, 1.23005, 1.20557, 1.20372, 1.17011, 1.14448, 1.12485, 1.09725, 1.08864, 1.06946, 1.04201, 1.02455, 1.0191, 0.992882, 0.9909, 0.978133, 0.961868, 0.954063, 0.987718, 0.948317, 0.949926, 0.95146, 0.944028, 0.945932, 0.988041, 0.994804, 0.944345, 0.994873, 0.996723, 1.12835, 1.0063, 1.07073, 1.07299, 1.30306, 1.03133, 1.03439, 1.0372, 1.1465, 1.11519, 1.12345, 1.12493, 1.14308, 1.04233, 1.04259, 1.04312, 1.04522, 1.04456, 1.04699, 1.04716, 1.04959, 1.04963, 1.05006, 1.04886, 1.04909, 1.04759, 1.04757, 1.04742, 1.04936, 1.05045, 1.05245, 1.05346, 1.05767, 1.05739, 1.0533, 1.05274, 1.05302, 1.36847, 1.36744, 1.3681, 1.3704, 1.21764, 1.07704, 1.24528, 1.23998, 1.59228, 1.34725, 1.24574, 1.25104, 1.12414, 1.12579
0.979413, 0.967398, 1.37674, 0.96599, 0.944856, 0.943854, 0.940845, 0.928151, 0.927952, 0.942491, 0.943312, 0.943883, 0.943157, 0.943648, 0.945544, 0.944704, 0.946769, 0.95011, 0.952844, 0.953604, 0.958384, 0.95927, 0.958291, 0.959538, 0.959542, 0.95703, 0.957146, 0.948906, 0.945949, 0.945839, 0.94674, 0.946385, 0.949051, 0.949168, 0.949113, 0.94899, 0.949392, 0.949414, 0.950746, 0.952238, 0.952426, 0.952516, 0.952802, 0.950769, 0.954302, 0.954974, 0.956636, 0.984287, 0.965229, 0.965896, 0.968803, 0.988794, 0.994191, 0.978919, 0.979936, 0.976412, 1.00274, 1.00193, 0.97065, 1.03173, 0.964062, 0.99199, 0.957181, 0.957126, 0.958825, 0.955943, 0.956437, 0.992594, 0.926896, 0.930825, 0.932043, 0.929676, 1.08493, 1.00998, 1.15465, 1.24425, 1.21556, 1.2201, 1.2444, 1.24141, 1.30882, 1.26299, 1.26335, 1.27888, 1.31095, 1.29654, 1.32283, 1.32937, 1.43033, 1.41731, 1.45206, 1.4619, 1.50237, 1.50601, 1.50557, 1.50341, 1.51269, 1.50931, 1.51265, 1.51749, 1.53366, 1.59227, 1.61966, 1.62891, 1.63258, 1.67686, 1.645, 1.64447, 1.675, 1.67229, 1.75903, 1.75192, 1.75123, 1.7597, 1.83143, 1.83134, 1.8332, 1.71655, 1.71627, 1.7152, 1.71161, 1.7243, 1.72584, 1.75579, 1.75651, 1.79875, 1.79656, 1.81944, 1.74008, 1.74015, 1.68205, 1.67099, 1.66896, 1.66809, 1.6598, 1.65895, 1.66397, 1.66449, 1.67237, 1.61297, 1.59615, 1.55758, 1.55676, 1.53123, 1.56205, 1.50765, 1.44351, 1.44402, 1.39601, 1.3727, 1.33885, 1.31996, 1.30764, 1.30576, 1.31437, 1.36749, 1.36232, 1.36388, 1.3348, 1.29457, 1.26952, 1.2267, 1.1913, 1.18813, 1.14021, 1.12097, 1.12248, 1.12599, 1.07346, 1.06301, 1.04594, 1.01262, 0.999735, 1.00158, 1.02207, 1.01124, 0.964462, 0.989216, 0.990104, 0.959124, 0.950698, 0.954076, 0.957848, 0.96198, 1.01195, 1.01229, 0.961476, 1.0007, 1.00126, 1.0166, 1.01689, 1.01891, 1.6265, 1.05701, 1.03522, 1.03675, 1.03338, 1.034, 1.03598, 1.03813, 1.04138, 1.04124, 1.03938, 1.0419, 1.20883, 1.40371, 1.04929, 1.05158, 1.29124, 1.19796, 1.24813, 1.05182, 1.0511, 1.0479, 1.04695, 1.04784, 1.04804, 1.04915, 1.05263, 1.05443, 1.05504, 1.05366, 1.05407, 1.05369, 1.05612, 1.05747, 1.0616, 1.23941, 1.36724, 1.08636, 1.08739, 1.08537, 1.08634, 1.28228, 1.28167, 1.44714, 1.45027, 1.19687, 1.20345, 1.12384
0.946412, 0.944574, 0.939074, 0.939209, 0.941787, 0.93896, 0.939106, 0.939315, 0.941336, 0.940967, 0.944311, 0.945258, 0.944436, 0.947818, 0.948036, 0.94918, 0.949731, 0.951021, 0.9507, 0.953562, 0.95533, 0.955759, 0.957215, 0.957211, 0.957874, 0.953903, 0.948822, 0.947246, 0.945567, 0.945204, 0.946351, 0.945516, 0.944442, 0.945031, 0.945742, 0.945845, 0.953554, 1.17156, 0.958845, 0.952603, 0.953131, 0.952385, 0.952331, 0.950025, 0.950214, 0.996183, 0.960092, 0.961139, 0.964966, 0.967177, 0.967222, 0.967313, 1.1587, 0.987472, 0.992994, 0.964531, 0.964834, 0.967575, 0.969007, 0.963711, 0.964984, 0.965235, 0.96278, 0.962901, 0.96366, 0.957679, 0.957038, 0.980638, 0.933334, 0.930308, 0.92913, 0.931614, 0.965319, 0.967351, 1.07818, 1.1555, 1.23334, 1.20101, 1.20185, 1.26739, 1.25753, 1.25747, 1.25822, 1.2602, 1.27407, 1.3208, 1.30929, 1.30971, 1.34314, 1.38701, 1.42581, 1.45563, 1.42609, 1.44403, 1.54062, 1.53764, 1.49803, 1.49592, 1.51695, 1.50692, 1.51678, 1.52388, 1.55506, 1.55228, 1.62871, 1.68528, 1.66225, 1.66349, 1.66054, 1.6751, 1.67198, 1.64821, 1.74891, 1.74837, 1.66311, 1.6618, 1.77159, 1.71622, 1.72407, 1.71708, 1.71601, 1.71377, 1.71332, 1.71273, 1.7542, 1.75731, 1.90443, 1.6837, 1.77945, 1.67856, 1.67857, 1.67771, 1.67609, 1.67621, 1.64915, 1.68867, 1.65869, 1.63117, 1.6759, 1.64936, 1.64085, 1.62443, 1.53399, 1.52464, 1.52368, 1.48152, 1.48206, 1.45432, 1.45263, 1.3822, 1.32578, 1.29984, 1.27982, 1.28643, 1.28867, 1.26071, 1.28959, 1.28981, 1.27771, 1.34375, 1.27161, 1.27206, 1.22599, 1.16721, 1.12635, 1.14676, 1.11606, 1.07129, 1.08747, 1.04631, 1.03817, 1.04057, 1.00583, 0.997874, 0.98636, 1.05413, 0.976013, 0.983417, 0.962804, 0.955793, 0.95306, 0.954453, 0.958624, 0.96803, 0.972517, 1.01195, 1.01302, 1.01177, 1.01322, 1.03271, 1.11776, 1.03172, 1.03219, 1.03346, 1.02859, 1.03202, 1.03433, 1.03897, 1.03906, 1.0418, 1.04291, 1.04607, 1.04636, 1.44205, 1.05257, 1.05608, 1.05596, 1.05579, 1.05603, 1.05276, 1.05122, 1.04957, 1.04858, 1.05006, 1.05158, 1.05038, 1.05127, 1.0533, 1.05519, 1.05623, 1.05763, 1.0578, 1.06076, 1.06387, 1.06583, 1.0667, 1.41945, 1.26091, 1.13704, 1.08507, 1.08721, 1.44986, 1.07334, 1.07249, 1.07171, 1.19642, 1.3308, 1.4606, 1.46181, 1.36783
0.941863, 0.936676, 0.937838, 0.938446, 0.938213, 0.942342, 0.9389, 0.939948, 0.940739, 0.940357, 0.943239, 0.94413, 0.944472, 0.950125, 0.950476, 0.949936, 0.95117, 0.950362, 0.95196, 0.950476, 0.950971, 0.952572, 0.953133, 0.951324, 0.952739, 0.94928, 0.947973, 0.944243, 0.944578, 0.945865, 0.946635, 0.945833, 0.944034, 0.946915, 0.946115, 0.945713, 0.945634, 0.94571, 0.946659, 0.9504, 0.951641, 0.951748, 0.952067, 0.951461, 0.95631, 0.95707, 0.960878, 0.96257, 0.96353, 0.967156, 0.968316, 0.967719, 0.966648, 0.962576, 0.967571, 0.968157, 0.965936, 0.964737, 0.970179, 0.971502, 0.971437, 0.988371, 0.9699, 0.971759, 0.964581, 0.962466, 0.957169, 0.945902, 0.946574, 0.936187, 0.935084, 1.13837, 0.962429, 0.981179, 1.03682, 1.25667, 1.16463, 1.20006, 1.193, 1.20238, 1.23047, 1.29815, 1.32706, 1.28428, 1.30405, 1.3514, 1.29854, 1.31695, 1.34112, 1.36088, 1.37874, 1.40921, 1.4176, 1.4088, 1.41863, 1.42694, 1.4331, 1.48011, 1.51218, 1.51357, 1.5127, 1.52325, 1.58353, 1.59237, 1.56851, 1.6437, 1.63825, 1.62162, 1.62111, 1.72304, 1.66436, 1.62322, 1.71229, 1.66127, 1.66907, 1.65502, 1.65431, 1.70745, 1.70731, 1.7105, 1.72656, 1.69708, 1.69838, 1.69678, 1.72998, 1.72825, 1.66111, 1.66182, 1.65744, 1.67805, 1.65403, 1.65295, 1.70281, 1.64862, 1.64931, 1.60644, 1.60318, 1.60923, 1.62828, 1.68471, 1.74492, 1.50681, 1.53508, 1.50892, 1.48925, 1.48179, 1.49339, 1.50583, 1.47817, 1.4077, 1.3806, 1.32362, 1.27905, 1.24304, 1.26516, 1.21281, 1.21291, 1.21476, 1.21548, 1.2145, 1.20532, 1.1944, 1.17164, 1.12193, 1.09846, 1.06985, 1.05391, 1.05502, 1.04653, 1.03073, 1.03075, 0.993708, 0.993503, 1.00774, 0.977013, 0.973474, 0.960388, 0.959096, 0.972002, 0.959604, 0.960079, 0.95141, 0.966599, 0.973448, 0.970352, 0.995673, 1.10231, 1.01293, 1.01421, 1.25984, 1.10804, 1.02357, 1.02571, 1.02829, 1.02625, 1.18028, 1.03743, 1.03979, 1.04269, 1.04459, 1.04951, 1.04917, 1.20531, 1.05437, 1.05524, 1.05293, 1.05166, 1.05152, 1.05087, 1.05148, 1.0493, 1.05305, 1.05202, 1.05159, 1.0541, 1.05366, 1.05462, 1.05268, 1.0548, 1.0567, 1.10477, 1.07019, 1.07136, 1.07147, 1.06722, 1.06842, 1.06354, 1.16822, 1.4016, 1.06892, 1.06712, 1.06735, 1.18225, 1.06969, 1.0701, 1.11282, 1.05619, 1.05317, 1.05984, 1.06175
0.9425, 0.942136, 0.940789, 0.940662, 0.940736, 0.936753, 0.938495, 0.939011, 0.93916, 0.941314, 0.942012, 0.987174, 0.945851, 0.946261, 0.947493, 0.948577, 0.948602, 0.949886, 0.949103, 0.947946, 0.947236, 0.947724, 0.944464, 0.946519, 0.949385, 0.946733, 0.946407, 0.945617, 0.946081, 0.946785, 0.948526, 0.946544, 0.946841, 0.949057, 0.947997, 0.949097, 0.948952, 0.949252, 0.949686, 0.949881, 0.950704, 0.950323, 0.950972, 0.954332, 0.958499, 0.959694, 0.960524, 0.963655, 0.964198, 0.965903, 0.966747, 0.966364, 0.966543, 0.96642, 0.96721, 0.968516, 0.963383, 0.962861, 1.00073, 0.973118, 0.97389, 0.97569, 0.974413, 0.972498, 0.973333, 0.974522, 0.978727, 0.977998, 0.984616, 1.1721, 0.944465, 0.944476, 0.945543, 0.983203, 1.13555, 1.06653, 1.06263, 1.20462, 1.15696, 1.20854, 1.18134, 1.25387, 1.29962, 1.27163, 1.24151, 1.39518, 1.28915, 1.33017, 1.31838, 1.34319, 1.34527, 1.39358, 1.45742, 1.40726, 1.41271, 1.42342, 1.42095, 1.49531, 1.55275, 1.51591, 1.51477, 1.5143, 1.56824, 1.57189, 1.56096, 1.56124, 1.63388, 1.62415, 1.63459, 1.64086, 1.575, 1.64878, 1.64688, 1.71272, 1.6444, 1.64388, 1.6428, 1.73682, 1.75144, 1.75106, 1.6917, 1.69561, 1.69182, 1.71114, 1.6485, 1.6577, 1.74224, 1.75113, 1.72246, 1.72059, 1.70943, 1.64324, 1.63077, 1.63977, 1.62027, 1.65835, 1.57232, 1.57137, 1.50841, 1.47314, 1.44848, 1.45637, 1.40937, 1.38887, 1.37834, 1.43093, 1.50848, 1.49177, 1.48805, 1.45103, 1.45011, 1.32236, 1.2841, 1.26404, 1.22608, 1.19468, 1.1858, 1.18471, 1.21695, 1.17, 1.1605, 1.14525, 1.12696, 1.06797, 1.07223, 1.06683, 1.04596, 1.02991, 1.0058, 0.999494, 0.992106, 0.977461, 0.96824, 0.962494, 0.960973, 0.957847, 0.960809, 0.974538, 0.967869, 0.964886, 0.958131, 0.961798, 0.966111, 0.957457, 0.950577, 0.975255, 1.00684, 1.00813, 1.01262, 1.0154, 1.01835, 1.0206, 1.02509, 1.70307, 1.03377, 1.11271, 1.16206, 1.04714, 1.04982, 1.05015, 1.04874, 1.04964, 1.05308, 1.05286, 1.05271, 1.05043, 1.04955, 1.05141, 1.05232, 1.05196, 1.05256, 1.04979, 1.05186, 1.05396, 1.05509, 1.05742, 1.31877, 1.06305, 1.24151, 1.24085, 1.06375, 1.16891, 1.06537, 1.06644, 1.06731, 1.06826, 1.06816, 1.0686, 1.06408, 1.06527, 1.55218, 1.43939, 1.44967, 1.45028, 1.59928, 1.12662, 1.06013, 1.54353, 1.06317, 1.06383
0.942936, 0.94242, 0.941956, 0.9413, 0.942166, 0.942773, 0.94265, 0.943071, 0.940994, 0.942055, 0.942415, 0.946413, 0.947594, 0.948213, 0.947175, 0.94618, 0.946501, 0.945761, 0.945605, 0.945291, 0.946046, 0.944742, 0.946211, 0.94793, 0.947943, 0.947752, 0.947009, 0.945867, 0.944819, 0.945715, 0.947926, 0.947966, 0.949421, 0.949547, 0.950368, 0.950798, 0.95116, 0.951908, 0.952173, 0.952171, 0.950897, 0.952478, 1.21753, 0.999071, 0.956944, 0.960181, 0.961213, 0.962791, 0.966087, 0.968547, 0.967462, 0.966442, 0.966832, 0.967101, 0.967681, 0.966824, 0.962916, 0.962068, 0.962131, 0.97344, 0.976211, 0.976914, 0.976949, 0.974244, 0.976803, 0.976605, 0.983979, 1.03582, 1.18825, 1.12968, 0.942949, 0.945601, 0.945704, 0.946299, 0.943469, 1.12913, 1.16047, 1.17795, 1.06979, 1.09583, 1.12601, 1.18514, 1.18267, 1.20833, 1.22687, 1.23569, 1.24834, 1.29967, 1.30847, 1.33343, 1.33352, 1.38924, 1.39573, 1.42056, 1.41925, 1.43325, 1.43276, 1.49407, 1.53046, 1.51961, 1.53222, 1.48765, 1.60037, 1.57817, 1.57759, 1.56102, 1.56151, 1.55855, 1.59716, 1.55169, 1.55896, 1.60628, 1.62675, 1.63413, 1.64159, 1.64234, 1.64202, 1.66819, 1.67006, 1.62794, 1.62802, 1.65473, 1.67946, 1.64773, 1.64523, 1.65209, 1.70571, 1.70575, 1.71499, 1.72125, 1.69211, 1.70433, 1.61801, 1.64821, 1.64804, 1.62042, 1.50935, 1.52386, 1.51438, 1.43497, 1.39957, 1.37116, 1.35915, 1.34342, 1.34161, 1.3399, 1.33864, 1.33081, 1.44912, 1.43746, 1.44628, 1.41068, 1.32346, 1.28169, 1.25703, 1.19011, 1.18367, 1.15494, 1.12721, 1.11662, 1.1463, 1.08221, 1.06115, 1.05591, 1.05413, 1.04479, 1.02496, 1.02869, 1.00005, 0.984454, 0.98686, 0.966945, 0.963723, 0.983999, 0.959661, 0.95284, 0.952133, 0.968278, 0.979731, 0.96439, 0.982914, 0.947923, 0.97653, 0.964121, 0.965042, 1.08214, 1.00393, 1.00827, 1.2583, 1.01774, 1.21011, 1.11507, 1.14735, 1.14652, 1.05467, 1.05452, 1.05418, 1.05022, 1.05543, 1.05586, 1.05436, 1.05346, 1.05268, 1.05264, 1.05224, 1.05143, 1.05022, 1.04989, 1.05005, 1.04929, 1.05005, 1.05121, 1.05254, 1.05685, 1.05629, 1.05726, 1.0587, 1.05865, 1.06019, 1.05935, 1.05991, 1.06023, 1.06198, 1.06392, 1.06568, 1.06713, 1.06805, 1.4169, 1.074, 1.33639, 1.44105, 1.08985, 1.09127, 1.0926, 1.13272, 1.12028, 1.06994, 1.0671, 1.0644, 1.06093
0.945586, 0.945767, 0.948883, 0.948005, 0.946637, 0.946098, 0.945269, 0.943683, 0.944739, 0.945253, 0.944811, 0.946398, 0.943851, 0.943805, 0.947424, 0.945692, 0.945802, 0.94592, 0.947234, 0.949226, 0.949197, 0.947521, 0.946797, 0.94752, 0.948179, 0.948244, 0.946708, 0.945566, 0.946066, 0.946439, 0.94772, 0.94828, 0.947968, 0.947788, 0.951318, 0.951419, 0.950931, 0.951512, 0.949961, 0.949646, 0.949788, 0.994922, 0.99659, 0.998294, 0.984857, 0.958441, 0.961972, 0.96467, 0.966322, 0.968361, 0.968832, 0.969538, 0.969511, 0.970111, 0.970464, 0.971317, 1.13629, 1.00531, 1.00549, 1.04716, 1.04547, 0.983562, 0.982935, 0.981155, 0.983016, 0.981199, 0.981854, 0.975052, 1.05529, 1.09955, 1.06511, 1.11848, 0.942038, 0.94003, 0.940703, 0.942797, 1.18194, 0.98803, 1.01885, 1.01299, 1.07747, 1.21229, 1.15578, 1.18075, 1.20152, 1.22366, 1.22334, 1.2653, 1.26441, 1.25514, 1.3191, 1.34001, 1.34214, 1.38808, 1.38787, 1.50232, 1.56192, 1.43352, 1.49349, 1.49569, 1.48247, 1.4865, 1.48254, 1.48941, 1.68349, 1.60421, 1.5281, 1.52691, 1.53371, 1.54288, 1.57585, 1.62657, 1.61226, 1.62346, 1.63111, 1.63157, 1.63015, 1.66435, 1.62762, 1.62709, 1.6225, 1.57994, 1.67319, 1.606, 1.59965, 1.65858, 1.69556, 1.70379, 1.70365, 1.63876, 1.64102, 1.6529, 1.46062, 1.46565, 1.46063, 1.45581, 1.48878, 1.46187, 1.60766, 1.46565, 1.44398, 1.33575, 1.33612, 1.30157, 1.30081, 1.31442, 1.29529, 1.28585, 1.30277, 1.42565, 1.42311, 1.40187, 1.39749, 1.29007, 1.19903, 1.1706, 1.17007, 1.14119, 1.13671, 1.10359, 1.08239, 1.08306, 1.05115, 1.02773, 1.03862, 1.02065, 1.02663, 1.01242, 1.01056, 1.00042, 0.992684, 1.05064, 0.960031, 0.968506, 0.969681, 0.944571, 0.94079, 0.940771, 0.94698, 0.945787, 0.938343, 0.995696, 0.99802, 0.966953, 1.03735, 1.05288, 1.00604, 1.40596, 1.01498, 1.09822, 1.12633, 1.0464, 1.17859, 1.04933, 1.0539, 1.05424, 1.06006, 1.06275, 1.06216, 1.06166, 1.06139, 1.05458, 1.05307, 1.05286, 1.0537, 1.05315, 1.05278, 1.05157, 1.05007, 1.22626, 1.0512, 1.05271, 1.05326, 1.0541, 1.05361, 1.05547, 1.05391, 1.0553, 1.05672, 1.0581, 1.06038, 1.26063, 1.26075, 1.41281, 1.1124, 1.07468, 1.07671, 1.07762, 1.07401, 1.22653, 1.1106, 1.10818, 1.10871, 1.23606, 1.0697, 1.06816, 1.06791, 1.06743, 1.06632, 1.05712
0.946692, 0.945704, 0.945749, 0.946003, 0.945761, 0.945444, 0.943845, 0.944483, 0.944413, 0.944822, 0.944728, 0.963886, 0.960512, 0.978465, 0.950001, 0.946955, 0.947823, 0.947645, 0.947768, 0.94761, 0.948149, 0.948085, 0.946731, 0.947782, 0.948325, 0.948355, 0.947768, 0.947458, 0.944822, 0.945331, 0.946507, 0.94937, 0.949021, 0.948955, 0.949491, 0.949977, 0.951692, 0.949258, 0.948925, 0.946047, 0.945509, 0.946415, 0.948802, 0.998458, 0.998632, 0.98864, 0.962993, 0.96591, 0.969284, 0.96911, 0.969694, 0.970362, 0.973129, 0.974701, 0.975618, 0.976712, 0.976671, 0.977342, 0.979, 1.04666, 1.01348, 0.984861, 0.986296, 0.985732, 0.98501, 0.985215, 0.980067, 0.975984, 1.0008, 0.996268, 1.07694, 1.00214, 0.948882, 1.11808, 1.17904, 1.03862, 1.01232, 0.961074, 0.984377, 1.00904, 1.02267, 1.08129, 1.18216, 1.19361, 1.19613, 1.21327, 1.19888, 1.28941, 1.24011, 1.29186, 1.31192, 1.33372, 1.35202, 1.35034, 1.34328, 1.36647, 1.3404, 1.33651, 1.39577, 1.3885, 1.38192, 1.39173, 1.44676, 1.46524, 1.44016, 1.47378, 1.47917, 1.51284, 1.49874, 1.51185, 1.50378, 1.5618, 1.67592, 1.65542, 1.68297, 1.67148, 1.66944, 1.57465, 1.58194, 1.57514, 1.57866, 1.63799, 1.57237, 1.57214, 1.58575, 1.63505, 1.69704, 1.70713, 1.68544, 1.68172, 1.62794, 1.47211, 1.42752, 1.43877, 1.41659, 1.41585, 1.39276, 1.40348, 1.41897, 1.41864, 1.38222, 1.32199, 1.30814, 1.27885, 1.2485, 1.27904, 1.23595, 1.27248, 1.23362, 1.27804, 1.28561, 1.40085, 1.34043, 1.32596, 1.26479, 1.18697, 1.21461, 1.18777, 1.10147, 1.08816, 1.09142, 1.06926, 1.06296, 1.0587, 1.06382, 1.00861, 1.00989, 1.00736, 1.00792, 1.05122, 1.0042, 1.00042, 0.945447, 0.945992, 0.967398, 0.941144, 0.942008, 0.959536, 0.96661, 0.968607, 1.00227, 0.977682, 1.10679, 1.1083, 1.24045, 1.24902, 1.03005, 1.03183, 1.03544, 1.22042, 1.03912, 1.04242, 1.17125, 1.05477, 1.05466, 1.05589, 1.05453, 1.05595, 1.05785, 1.05584, 1.05457, 1.05562, 1.05443, 1.05478, 1.05375, 1.05356, 1.05324, 1.05221, 1.06124, 1.05297, 1.05274, 1.05387, 1.05432, 1.05478, 1.05459, 1.05243, 1.05277, 1.05341, 1.34903, 1.2537, 1.07515, 1.07379, 1.0739, 1.51557, 1.06543, 1.06598, 1.06641, 1.06384, 1.06536, 1.06541, 1.06648, 1.06458, 1.06458, 1.06473, 1.06367, 1.06489, 1.06643, 1.06757, 1.06636, 1.06599
0.946793, 0.947667, 0.947654, 0.949127, 0.950938, 0.951178, 0.94941, 0.949492, 0.949128, 0.973691, 0.984188, 0.952317, 0.953941, 0.953738, 0.953638, 0.952527, 0.949537, 0.949187, 0.948798, 0.942967, 0.942427, 0.94413, 0.945057, 0.949766, 0.949747, 0.949181, 0.948308, 0.949045, 0.942888, 0.941512, 0.945934, 0.948888, 0.948976, 0.948905, 0.94888, 0.948299, 0.947132, 0.946317, 0.945749, 0.947262, 0.947839, 0.988747, 0.985477, 0.956023, 0.973987, 0.975995, 0.965012, 0.974217, 0.971521, 0.97493, 0.97317, 0.973212, 0.976207, 0.976827, 0.979372, 0.980405, 0.982119, 0.981713, 0.982269, 0.987291, 0.985282, 0.985066, 0.98574, 0.985546, 0.98564, 0.981662, 0.98122, 0.978599, 0.976233, 0.992311, 0.994189, 0.950356, 0.991261, 1.17036, 1.2005, 0.92517, 0.922436, 0.948939, 1.14073, 1.19387, 1.00737, 1.08587, 1.16558, 1.16566, 1.1844, 1.17378, 1.18969, 1.20153, 1.20911, 1.23377, 1.32898, 1.32809, 1.34604, 1.35272, 1.35444, 1.29822, 1.28919, 1.2995, 1.31771, 1.34433, 1.3372, 1.34189, 1.351, 1.39304, 1.39344, 1.41076, 1.43857, 1.46142, 1.45963, 1.4237, 1.43777, 1.48326, 1.46798, 1.64155, 1.60571, 1.57829, 1.64812, 1.46569, 1.51682, 1.48676, 1.51277, 1.48155, 1.48208, 1.48803, 1.51567, 1.54553, 1.57242, 1.57162, 1.5815, 1.57126, 1.44721, 1.41368, 1.36668, 1.3704, 1.377, 1.33799, 1.33622, 1.34482, 1.48513, 1.48543, 1.48517, 1.31329, 1.35001, 1.26363, 1.21189, 1.21264, 1.26091, 1.20993, 1.18426, 1.20481, 1.27376, 1.27963, 1.27799, 1.21739, 1.18716, 1.18801, 1.1605, 1.11236, 1.08147, 1.07998, 1.08986, 1.0359, 1.02021, 1.01622, 1.0176, 1.00335, 0.999515, 1.00546, 1.05677, 1.04642, 1.05664, 0.994107, 0.933332, 0.932888, 0.935089, 0.935748, 0.935189, 0.943062, 1.01388, 1.01781, 0.990608, 1.20858, 1.02334, 1.0243, 1.02545, 1.02642, 1.02792, 1.03034, 1.03542, 1.15782, 1.05408, 1.04974, 1.05131, 1.05146, 1.0513, 1.05193, 1.0535, 1.0526, 1.05402, 1.05289, 1.0517, 1.05093, 1.05369, 1.05271, 1.0525, 1.05265, 1.0519, 1.05468, 1.05508, 1.0566, 1.05527, 1.05618, 1.05544, 1.34379, 1.0881, 1.07753, 1.078, 1.07884, 1.07897, 1.42928, 1.07175, 1.0695, 1.06843, 1.07398, 1.07096, 1.06977, 1.06954, 1.0664, 1.22197, 1.22347, 1.28476, 1.22603, 1.28841, 1.05873, 1.05783, 1.31971, 1.05654, 1.05667, 1.05893, 1.06159
0.948547, 0.948099, 1.0018, 0.954315, 0.95656, 0.955814, 0.952186, 0.951629, 0.952444, 0.952743, 0.953288, 0.956036, 0.955949, 0.954053, 0.951047, 0.949996, 0.949306, 0.950718, 0.949454, 0.947288, 0.943731, 0.943457, 0.950661, 0.951498, 0.950492, 0.949054, 0.948206, 0.947179, 0.945903, 0.944787, 0.945369, 0.945626, 0.946328, 0.945697, 0.945598, 0.946081, 0.947196, 0.947241, 0.949513, 0.950656, 0.95132, 0.953866, 0.958092, 0.959965, 0.959955, 0.984442, 0.963877, 0.973813, 0.973957, 0.976456, 0.976872, 0.980868, 0.982911, 0.983694, 0.984361, 0.984582, 0.984798, 0.986146, 0.986676, 0.987162, 0.987788, 0.988135, 0.985757, 0.984798, 0.984218, 0.983902, 0.982885, 0.98268, 0.979063, 0.985547, 0.989151, 0.994854, 0.993819, 1.07112, 0.927792, 0.928051, 0.926503, 0.925759, 0.945198, 0.94628, 1.06546, 1.10532, 1.10541, 1.07831, 1.08748, 1.14422, 1.1409, 1.14969, 1.22058, 1.22035, 1.26526, 1.30861, 1.31873, 1.31785, 1.25262, 1.25947, 1.25181, 1.32621, 1.31678, 1.31865, 1.32558, 1.32284, 1.32181, 1.33333, 1.45632, 1.37389, 1.42938, 1.42828, 1.39309, 1.38512, 1.38224, 1.39728, 1.41961, 1.42256, 1.66312, 1.78275, 1.61494, 1.44385, 1.41225, 1.41279, 1.4272, 1.48067, 1.47924, 1.40552, 1.38636, 1.41035, 1.4412, 1.60678, 1.56834, 1.57314, 1.45174, 1.40589, 1.40287, 1.32385, 1.32163, 1.31333, 1.30261, 1.3018, 1.35657, 1.40797, 1.40381, 1.30902, 1.23459, 1.23618, 1.22141, 1.19172, 1.28301, 1.16711, 1.28221, 1.2803, 1.17951, 1.22584, 1.19739, 1.1431, 1.10784, 1.10024, 1.11458, 1.05892, 1.06012, 1.03695, 1.04043, 1.03782, 1.03631, 1.01288, 0.972175, 0.97288, 0.970402, 0.999646, 1.00863, 0.990159, 1.02036, 1.02477, 1.0017, 0.932262, 0.93292, 0.939251, 0.9414, 0.949275, 1.04098, 1.02276, 1.01852, 1.02155, 1.02009, 1.02167, 1.0242, 1.02646, 1.03073, 1.0322, 1.04356, 1.04349, 1.04561, 1.04673, 1.04916, 1.04926, 1.05129, 1.05245, 1.05354, 1.05517, 1.05718, 1.05822, 1.05874, 1.05064, 1.05155, 1.05178, 1.05488, 1.05592, 1.05548, 1.0574, 1.33293, 1.07476, 1.07204, 1.18407, 1.07437, 1.07506, 1.075, 1.07752, 1.07425, 1.07735, 1.08107, 1.0819, 1.08207, 1.08131, 1.2668, 1.26782, 1.2645, 1.39833, 1.32591, 1.2189, 1.22055, 1.5583, 1.05453, 1.05273, 1.05435, 1.05314, 1.05396, 1.05529, 1.05633, 1.05687, 1.05736, 1.05744
0.98907, 0.987449, 1.52282, 0.959117, 0.957502, 0.956248, 0.952813, 0.952967, 0.95249, 0.952288, 0.949818, 0.955869, 0.956212, 0.955696, 0.950582, 0.950736, 0.951309, 0.950512, 0.949443, 0.948458, 0.94908, 0.948489, 0.948605, 0.946387, 0.94574, 0.946135, 0.943465, 0.942277, 0.944722, 0.944276, 0.944469, 0.942646, 0.945265, 0.946156, 0.94691, 0.947271, 0.946022, 0.946811, 0.981268, 0.95585, 0.956836, 0.957178, 0.956899, 1.00534, 0.996888, 0.997987, 1.00512, 1.00861, 0.988631, 1.00259, 0.978581, 1.01483, 0.983995, 0.98596, 0.986703, 0.987412, 0.989606, 0.990582, 0.990548, 0.990712, 0.989635, 0.991095, 0.989389, 0.987389, 0.988914, 1.06518, 0.983899, 0.983821, 0.982313, 1.00637, 1.00465, 1.14401, 0.987067, 0.983486, 0.983441, 1.04999, 0.93028, 0.933083, 0.932283, 0.931651, 1.2618, 1.02217, 1.00397, 1.06999, 1.10213, 1.10837, 1.26871, 1.11919, 1.17926, 1.26481, 1.3206, 1.27907, 1.26308, 1.2334, 1.23035, 1.22996, 1.23008, 1.23913, 1.26123, 1.26171, 1.2849, 1.31698, 1.31459, 1.3811, 1.3315, 1.36159, 1.38462, 1.38241, 1.36036, 1.36173, 1.35301, 1.35311, 1.34136, 1.36404, 1.36429, 1.38291, 1.38513, 1.40017, 1.37861, 1.41706, 1.41263, 1.43847, 1.45052, 1.38449, 1.38235, 1.3627, 1.36251, 1.36177, 1.37162, 1.42248, 1.41093, 1.46685, 1.33358, 1.3361, 1.28244, 1.2885, 1.27226, 1.288, 1.29879, 1.41362, 1.34638, 1.32639, 1.20292, 1.20571, 1.18372, 1.16335, 1.16204, 1.14838, 1.18465, 1.14218, 1.14304, 1.17845, 1.10152, 1.08703, 1.08268, 1.06581, 1.06388, 1.03702, 1.03804, 1.03386, 1.02678, 1.00242, 1.09581, 0.980429, 0.989222, 0.990365, 0.970708, 0.985182, 0.977024, 0.976321, 0.962406, 0.962017, 0.949446, 0.952434, 0.980674, 0.973545, 0.975106, 0.989813, 0.996227, 1.01127, 1.01173, 1.12683, 1.01991, 1.02177, 1.36976, 1.48103, 1.26009, 1.03875, 1.04175, 1.04284, 1.04487, 1.04802, 1.05001, 1.30709, 1.0575, 1.05823, 1.06014, 1.06061, 1.05951, 1.05975, 1.07238, 1.07082, 1.07037, 1.07373, 1.07747, 1.07852, 1.07755, 1.07662, 1.07646, 1.07643, 1.07408, 1.26483, 1.19162, 1.06346, 1.07034, 1.44792, 1.27587, 1.20172, 1.24259, 1.19789, 1.19504, 1.12987, 1.31582, 1.31527, 1.05645, 1.05367, 1.05373, 1.04799, 1.05245, 1.05219, 1.05172, 1.05302, 1.05256, 1.05265, 1.05276, 1.054, 1.05286, 1.05406, 1.0545, 1.0562
0.955231, 0.956491, 0.959266, 0.95995, 0.959482, 0.958542, 0.955654, 0.953153, 0.953248, 0.954375, 0.955095, 0.954316, 0.955824, 0.955238, 0.954631, 0.955255, 0.953577, 0.953153, 0.951819, 0.949884, 0.948975, 0.94886, 0.946594, 0.94502, 0.944058, 0.944713, 0.943445, 0.94334, 0.942761, 0.94347, 0.942103, 0.943494, 0.949083, 0.949542, 0.950382, 0.9526, 0.95272, 0.952778, 0.955939, 0.957852, 0.958728, 0.957714, 0.957341, 0.962845, 0.967571, 0.967596, 0.969807, 1.00269, 1.0035, 0.976736, 0.978568, 0.979988, 0.98156, 0.986493, 0.987716, 0.990446, 0.99148, 0.992016, 0.99312, 0.995295, 0.996753, 0.993657, 0.994101, 1.05066, 0.994695, 1.12272, 1.13545, 0.987324, 0.987294, 1.00598, 0.984318, 0.977358, 0.977082, 0.994561, 0.996979, 0.942724, 0.942448, 0.937599, 0.937687, 0.942339, 1.1132, 1.16314, 0.998239, 1.06971, 1.05688, 1.0565, 1.10814, 1.11299, 1.0808, 1.20439, 1.23761, 1.23755, 1.22652, 1.17581, 1.16839, 1.17211, 1.17874, 1.22493, 1.24707, 1.25357, 1.2642, 1.27424, 1.28145, 1.28171, 1.28844, 1.28585, 1.29459, 1.31531, 1.32677, 1.33329, 1.33384, 1.32786, 1.31835, 1.34828, 1.33405, 1.33382, 1.35494, 1.35794, 1.37385, 1.38155, 1.39905, 1.40571, 1.40562, 1.38238, 1.3678, 1.36363, 1.36176, 1.30917, 1.28825, 1.30898, 1.32199, 1.40217, 1.37766, 1.37651, 1.31291, 1.32363, 1.26411, 1.25928, 1.26369, 1.26333, 1.29568, 1.19504, 1.17705, 1.17951, 1.16364, 1.13553, 1.14073, 1.1099, 1.09811, 1.09643, 1.12301, 1.10504, 1.09578, 1.08073, 1.0536, 1.05385, 1.06327, 1.0406, 1.01856, 1.01578, 1.02321, 1.02271, 0.996006, 0.995792, 0.98731, 1.08401, 0.977141, 0.992121, 0.975743, 0.968391, 0.970151, 0.958408, 0.954992, 0.949796, 0.943812, 0.99694, 0.963644, 0.976591, 0.978395, 1.01111, 1.01156, 1.01727, 1.11482, 1.02647, 1.03143, 1.03376, 1.0395, 1.28046, 1.04849, 1.049, 1.05155, 1.05565, 1.06024, 1.06076, 1.0612, 1.05926, 1.05981, 1.18808, 1.07263, 1.07237, 1.07137, 1.071, 1.18826, 1.07565, 1.07771, 1.07826, 1.18742, 1.05958, 1.28301, 1.05537, 1.26739, 1.05508, 1.27822, 1.20543, 1.2439, 1.32558, 1.06247, 1.04584, 1.04435, 1.04371, 1.04568, 1.04619, 1.04446, 1.04359, 1.04542, 1.04733, 1.04882, 1.04923, 1.04941, 1.04961, 1.05245, 1.05147, 1.05255, 1.05342, 1.05373, 1.05289, 1.05351, 1.05477, 1.05602, 1.05656
0.956711, 0.958166, 0.959939, 0.960679, 0.960548, 0.958556, 0.954655, 0.953234, 0.952643, 0.955245, 0.954644, 0.956054, 0.954529, 0.954419, 0.955158, 0.956285, 0.956459, 0.953291, 0.949993, 0.949396, 0.946658, 0.949122, 0.946285, 0.945114, 0.946522, 0.94768, 0.947763, 0.946932, 0.948565, 0.949282, 0.949359, 0.951622, 0.953468, 0.947509, 0.949058, 0.949948, 0.9514, 0.951496, 0.954715, 0.95588, 0.958856, 0.961656, 0.962765, 0.962566, 0.966437, 0.96808, 0.970503, 0.972943, 0.976519, 0.976837, 0.976978, 0.982241, 0.983853, 0.984579, 0.985994, 0.990624, 0.988627, 0.987585, 0.994003, 0.994287, 0.997718, 0.998571, 1.0007, 1.00087, 1.00116, 0.997539, 0.999913, 0.999775, 1.01667, 0.988286, 0.988388, 0.987358, 0.980742, 0.997049, 0.989126, 0.952575, 1.1508, 0.943986, 1.16473, 0.94776, 0.948004, 1.16952, 1.18824, 1.32285, 1.006, 1.00575, 1.03664, 1.11563, 1.07842, 1.1862, 1.19258, 1.11394, 1.10889, 1.11595, 1.11559, 1.09944, 1.18697, 1.28191, 1.22634, 1.25126, 1.27974, 1.27965, 1.24634, 1.2754, 1.23917, 1.25288, 1.27419, 1.26987, 1.31269, 1.40243, 1.33492, 1.31192, 1.29602, 1.28414, 1.28928, 1.28146, 1.30197, 1.30184, 1.33472, 1.39022, 1.38806, 1.39936, 1.39874, 1.34859, 1.31343, 1.2813, 1.27192, 1.24983, 1.27838, 1.28158, 1.27162, 1.27157, 1.3791, 1.37444, 1.30877, 1.23983, 1.2491, 1.28047, 1.22764, 1.22463, 1.21142, 1.2105, 1.17475, 1.13188, 1.11914, 1.1063, 1.09794, 1.10162, 1.0733, 1.0918, 1.11794, 1.11789, 1.0735, 1.06393, 1.11674, 1.02938, 1.03001, 1.01377, 1.01384, 1.02701, 1.02052, 1.00928, 0.995045, 0.997777, 0.982473, 0.982586, 0.984246, 0.987553, 0.966408, 0.995238, 0.964313, 0.963695, 0.956144, 0.978951, 0.985246, 0.991615, 0.992497, 0.990737, 1.11985, 1.01499, 1.01781, 1.02052, 1.02617, 1.26559, 1.11226, 1.04308, 1.04793, 1.04775, 1.04805, 1.04884, 1.04876, 1.0512, 1.16769, 1.06706, 1.06207, 1.06314, 1.0633, 1.31588, 1.0733, 1.0736, 1.07225, 1.23668, 1.23666, 1.38334, 1.05689, 1.0577, 1.05746, 1.05626, 1.0532, 1.05091, 1.05058, 1.05148, 1.05066, 1.0497, 1.04858, 1.04841, 1.04583, 1.04548, 1.04476, 1.04587, 1.04449, 1.04422, 1.04441, 1.04542, 1.04666, 1.04677, 1.04953, 1.04925, 1.05012, 1.05008, 1.05102, 1.05183, 1.05138, 1.05283, 1.05451, 1.05515, 1.05493, 1.05664, 1.05847, 1.05854
