1.00348605264223,1.04931346246787,1.12610792956062,1.20887529964948,1.21254724483007,1.22876899742943,1.22911414110176,1.38428498378543,1.38494650915739,1.26813455072317,1.29352178528767,1.3020449165293,1.32772935814496,1.3114788435729,1.31231294078103,1.43706320367877,1.43766720510534,1.41125412684809,1.35906073373287,1.36107407182144,1.48356172620059,1.48447252200257,1.46283393121251,1.52980139096818,1.53353086009416,1.44170346860672,1.53210234878369,1.47323617800348,1.5799430966979,1.57190891899207,1.51984016109185,1.55033743947163,1.5667413512314,1.56695227236449,1.56605106388674,1.57673134308042,1.6902548493033,1.69988052283153,1.72027276147151,1.63994057173741,1.69943950591689,1.69551829030629,1.6954320043882,1.69331320573309,1.69317898319385,1.73171043927946,1.71884425016105,1.78618561556174,1.77455619126916,1.7749972081838,1.77549574904383,1.82153408000256,1.81210015295895,1.73691635633706,1.71634195853668,1.71571878246165,1.71691719799056,1.78162204922764,1.79055743541121,1.94677329643609,1.73332110975032,1.73336904637148,1.96811468017498,1.73157621674022,1.74018563389994,1.79228315377285,1.70077214398504,1.70084884257889,1.70057081017618,1.69966001437421,1.71880590086412,1.71931402904838,1.71980298258418,1.75536236815809,1.75747157948898,1.74905390881389,1.74226608325813,1.73457704922462,1.68933446617709,1.6809743194474,1.69478006634047,1.66007395262315,1.65923985541503,1.65776340748341,1.69947785521381,1.65147412278767,1.67267169666309,1.67300725301118,1.65922068076656,1.65956582443889,1.65782093142879,1.65972880895082,1.65070713684917,1.70897889352704,1.64928821286293,1.64340159578491,1.64302769013989,1.64241410138909,1.5962031985942,1.59294350835555,1.59121778999392,1.58960711952306,1.5886387997757,1.56831367240533,1.56692351039179,1.56772884562722,1.56751792449413,1.56581138078096,1.48330286844635,1.48423283889679,1.48323575717673,1.4340719585186,1.43522243742636,1.38230999499378,1.37441962715142,1.37452508771796,1.35931000416288,1.36074810279758,1.35803489004012,1.35397945189028,1.32547633695061,1.28811453442121,1.28746259637348,1.26679232533079,1.26796197888701,1.23437758210475,1.1807365030306,1.1602483911483,1.15001871619349,1.15965397704596,1.16584738849938,1.12197579281693,1.0927823905326,1.08710669458767,1.03249729576616,1.03000459146602,1.00803044432787,0.988127159223679,0.964532754290437,0.965117581068547,0.949650350886183,0.973228457368231,0.943593079436844,0.936628847115224,0.936645145566417,0.937023844873554,0.924053153921021,0.925316763254707,0.923517222496491,0.922919932196881,0.946615004034551,0.932898419256823,0.945622715976611,0.946333136702151,0.95065701993047,0.952667481821774,0.95401066594658,0.959403535826689,0.961503159833345,0.966153012085528,0.974743254596777,0.97594167012569,0.982767844978379,0.982767844978379,1.06349311500597,1.10742223463381,1.06112504592083,1.10899455580774,1.06281241498554,1.01753148264109,1.01933389959658,1.02159650811516,1.26089612092854,1.35744047593778,1.17403496339291,1.21726420835187,1.21895157741658,1.22046637464512,1.21943094362814,1.31584107609815,1.23271897501273,1.13690325664507,1.20998742926031,1.03289037605964,1.03291913803234,1.02907462101558,1.02758858575973,1.13810167217398,1.13852351444016,1.02607378853118,1.14008624828986,1.14002872434447,1.03394498172509,1.03236307322692,1.17382404225982,1.1592704840767,1.03190288166382,1.03231513660576,1.10935887412853,1.11242681788255,1.04621675674116,1.04686869478888,1.04517173839994,1.04486494402454,1.04494164261839,1.0850933564991,1.1291950479631,1.03004294076294
1.04164360308282,1.04911212865901,1.12805415637957,1.16484071945509,1.16412167013774,1.22593114945697,1.27865184540491,1.28621624422341,1.33232168645176,1.28616830760226,1.2864559273292,1.29796071640676,1.30023291224958,1.41111031698462,1.41582728050643,1.40729456194056,1.40477309566773,1.4225863440895,1.42863594567945,1.43306528947431,1.48649544741537,1.39695942641922,1.40944212256838,1.49613070826784,1.53358838403954,1.5342786713842,1.45466553096744,1.47487561044703,1.47571929497939,1.56357753423507,1.55607065936195,1.552839731096,1.57008732738812,1.5566363114916,1.56965589779771,1.5694066273677,1.72131777981273,1.72141365305504,1.72174920940314,1.71348493591575,1.71493262187468,1.69379257194465,1.69399390575351,1.71574754443434,1.68483801111261,1.68656372947425,1.68629528439577,1.7691777023754,1.78340529153466,1.76185298666268,1.761948859905,1.83107346761271,1.79298302844173,1.71326442745843,1.7134082373219,1.80509181894587,1.71690761066633,1.71544075005894,1.78682796628523,1.78427773803971,1.96758737734226,1.96731893226378,1.96743398015456,1.96658070829797,1.87136899135688,1.86160909528941,1.73109685052866,1.73164332800984,1.70148160597816,1.72628401376454,1.71457789087812,1.79751783280314,1.7717183432967,1.81688422775037,1.81721978409847,1.81781419820081,1.72558413909566,1.71492303455045,1.6954607663609,1.68939199012248,1.68161667017089,1.71036905554058,1.66863543316171,1.66616190351003,1.67821317006878,1.67004476982371,1.67024610363257,1.62839743336292,1.64414940707495,1.6352523701883,1.63486887721905,1.64495474231038,1.64845411565481,1.64906770440561,1.62986429397031,1.60649039749439,1.6054837284501,1.60188848186336,1.60301978612265,1.60910773700953,1.6079956073987,1.61671048512496,1.59347081118828,1.57313609649368,1.56678928785255,1.56590725402327,1.59552249857377,1.54012693916529,1.54028992367723,1.52414486967171,1.51511361024582,1.44309363062026,1.40796567463675,1.38128415130103,1.3809677696014,1.36123705633337,1.34887899539922,1.35045131657316,1.35077728559702,1.33677020489508,1.33054803146897,1.33079730189898,1.25670646023946,1.25566144189824,1.26395447735832,1.2308110974907,1.22510663957308,1.16471608424009,1.15923213477978,1.18956642864763,1.152195038794,1.16823463223297,1.06902500108743,1.05962942334075,1.04651396379233,1.02118425317322,1.13379696359413,0.992949583312025,0.990102148015328,0.978645295558918,0.953897535520651,0.953073025636758,0.959834965417098,0.969537337539178,0.941096540207012,0.932807339676626,0.930453651577841,0.929860196207923,0.921830812164205,0.918933522781505,0.918586461644331,0.933758402240371,0.939277824800334,0.945886367392972,1.14504289491745,1.03677324237332,1.15820629108703,0.971109658713112,0.972605281293196,0.972797027777822,0.974906239108709,0.976421036337256,0.985596105626614,0.985989185920098,0.986554838049745,1.0927823905326,1.05041600475447,1.01250772474389,1.01369655294857,1.01531681074366,1.17839719591816,1.0230154321014,1.20111915434635,1.03569946205941,1.03683076631871,1.21710122383994,1.19245221324125,1.02308254337102,1.02463568989649,1.27852721018991,1.04180658759476,1.04279408199058,1.03495165076937,1.03469279301513,1.03281367746579,1.12815002962189,1.03332180565005,1.03477907893321,1.03375323524046,1.02923760552751,1.02912255763674,1.02899792242173,1.02976490836024,1.03224802533614,1.03066611683798,1.03228637463307,1.03011963935679,1.07414463222695,1.1983771796162,1.04503751586071,1.04587161306883,1.04692621873427,1.0469358060585,1.3114788435729,1.07905334223338,1.02737766462664,1.13218629312327,1.1146798390769
1.01585370090061,1.03410796623702,1.17603871415726,1.10412419509824,1.19784987678348,1.20090823321326,1.22935382420754,1.22915249039869,1.33093152443822,1.3313246047317,1.31385649998227,1.30990652239897,1.33802614436939,1.33082606387168,1.33187108221289,1.33236003574868,1.36745922975949,1.37962554420902,1.38711324443367,1.4030473773061,1.4874829418112,1.42150297645136,1.42064011727054,1.49631286742823,1.45086895057184,1.44594106591695,1.49174930109413,1.51784599765174,1.51076096504481,1.54984848593584,1.57314568381791,1.61534908508411,1.56415277368894,1.56295435816003,1.57007774006389,1.58019236712792,1.72113562065233,1.72154787559428,1.61522444986911,1.71217147249606,1.65107145516996,1.67260458539347,1.69655372132327,1.72777963634463,1.69149161412914,1.69027402395176,1.69439657337122,1.68747452527622,1.68864417883244,1.77419187294837,1.76828608122189,1.8320513746843,1.75246699624024,1.71116480345178,1.71457789087812,1.71313979224342,1.71595846556743,1.71832653465256,1.71834570930102,1.72167251080929,1.77079796017049,1.72561290106835,1.72451035878175,1.86720809264049,1.81684587845345,1.82093007857599,1.73146116884945,1.73176796322485,1.7307421195321,1.72578547290452,1.81837026300623,1.76835319249151,1.75843031191211,1.78785380997798,1.82091090392752,1.82035483912211,1.82109306308792,1.82217643072606,1.83665329031533,1.69275714092767,1.74027191981802,1.66536615559883,1.66476215417226,1.68339991247792,1.65002643682874,1.66935448247905,1.66889429091595,1.69138615356259,1.65249037915619,1.63785053505499,1.64234699011947,1.64119651121171,1.64261543519794,1.63001769115801,1.61252082443588,1.60709439892096,1.60694100173326,1.59444871825987,1.58408482076583,1.61709397809421,1.62667171500128,1.62564587130853,1.56760421041221,1.56982846963388,1.61129364693427,1.57049958233007,1.56892726115613,1.51344541582957,1.51315779610263,1.51335912991149,1.48662966995461,1.47772304574373,1.40819577041831,1.39601028132032,1.38044046676868,1.35815952525513,1.36420912684508,1.36481312827165,1.35790066750088,1.33875478101096,1.331046572329,1.33816995423285,1.30312828416744,1.2412229316059,1.24135715414514,1.19343970763707,1.19277818226511,1.1570941614762,1.15686406569465,1.13892618205787,1.16441887718891,1.14813001331993,1.09963732735799,1.04672488492541,1.04650437646809,1.01525928679827,1.01473198396555,1.01380201351511,0.987772428227121,0.978520660343911,0.977427705381543,0.978165929347353,0.950745223313398,0.94164110022335,0.943320799428675,0.939622009740238,0.939355482126607,0.926495045402735,0.923417514324486,0.92323823136136,0.969671560078417,0.937651814610704,0.937125470510406,1.00071531593938,1.03684994096717,1.03407920426432,0.972605281293196,0.971704072815453,0.972097153108937,0.975184271511417,1.09820881604752,0.980208029408621,1.06980157435017,1.03132764220994,1.08274446206243,1.18264438055263,1.19990156416897,1.01074365708533,1.15010500211158,1.15189783174283,1.22958391998909,1.04059858474161,1.03458733244858,1.03559400149287,1.03658149588869,1.15197453033668,1.02260317715945,1.02361943352797,1.02452064200571,1.37727664977235,1.04040683825699,1.13292451708908,1.15005706549042,1.14938595279423,1.03996582134234,1.03760733958144,1.03791413395685,1.15276069092365,1.16185906161916,1.02690788573931,1.02650521812159,1.03058941824413,1.0294485266606,1.02916090693366,1.02974573371177,1.02891163650365,1.02882535058557,1.02916090693366,1.02991830554794,1.04416506935566,1.04485535670031,1.08225550852663,1.07616755763975,1.07702082949634,1.02346603634027,1.12248392100119,1.12235928578618,1.12399871822973
0,0,0,0,0,0,0,0,0,0,0,0,0,0,0,0,0,0,0,0,0,0,0,0,0,0,0,0,0,0,0,0,0,0,0,0,0,0,0,0,0,0,0,0,0,0,0,0,0,0,0,0,0,0,0,0,0,0,0,0,0,0,0,0,0,0,0,0,0,0,0,0,0,0,0,0,0,0,0,0,0,0,0,0,0,0,0,0,0,0,0,0,0,0,0,0,0,0,0,0,0,0,0,0,0,0,0,0,0,0,0,0,0,0,0,0,0,0,0,0,0,0,0,0,0,0,0,0,0,0,0,0,0,0,0,0,0,0,0,0,0,0,0,0,0,0,0,0,0,0,0,0,0,0,0,0,0,0,0,0,0,0,0,0,0,0,0,0,0,0,0,0,0,0,0,0,0,0,0,0,0,0,0,0,0,0,0,0,0,0,0,0,0,0,0,0,0,0,0,0,0,0,0,0,0,0,0,0
0.998443120096563,1.04059858474161,1.04053147347199,1.09610919204087,1.17839719591816,1.20224087128141,1.2000933106536,1.23926711746271,1.25898824340651,1.28465351037371,1.2840686835956,1.27358973821078,1.32915786945543,1.33191901883404,1.32166058190655,1.31426875492421,1.35764180974664,1.3704313002712,1.37015326786849,1.40359385478728,1.41089939585153,1.4098160282134,1.41808030170078,1.4272745456386,1.42766762593209,1.45984268605235,1.48479849102643,1.5665879540437,1.56897519777729,1.5561473579558,1.55624323119812,1.56329950183236,1.56353918493814,1.59309690554325,1.58287681791268,1.59530199011645,1.6075354158356,1.64648871418739,1.64692973110203,1.61686388231266,1.61347955685901,1.65762918494417,1.72627442644031,1.67619983198021,1.69207644090725,1.69125193102335,1.67406185867662,1.67279633187809,1.6716650276188,1.68305476880559,1.70996638792286,1.71330277675536,1.72205600377854,1.73570835348392,1.71796221633177,1.71700348390864,1.78059620553489,1.77957994916637,1.72970668851512,1.72955329132742,1.72876713074045,1.72699347575766,1.72675379265188,1.72627442644031,1.72166292348505,1.75274502864294,1.75195886805598,1.7228421643655,1.72175879672737,1.76611934594562,1.77309891798601,1.7497921327797,1.76828608122189,1.77942655197867,1.77821854912552,1.82927105065722,1.81374917272674,1.75900555136599,1.7587946302329,1.69832737630606,1.72569918698643,1.66985302333908,1.66977632474523,1.66888470359172,1.69052329438178,1.67110896281338,1.69613187905709,1.66004519065046,1.66593180772848,1.66467586825418,1.6447150592046,1.63668088149877,1.67851996444418,1.62873298971101,1.61705562879729,1.59590599154303,1.59581970562494,1.59288598441017,1.58754584481333,1.55798812420822,1.54817070419536,1.62644161921973,1.59349957316097,1.55644456500698,1.5558405635804,1.55477637059073,1.55718278897279,1.55693351854277,1.51310027215725,1.51619697788396,1.5010202436258,1.53396228968457,1.39680602923152,1.37405530883063,1.36871516923379,1.36792900864683,1.36627040155481,1.35250300395866,1.35792942947357,1.33295444985103,1.3318135582675,1.31560139299236,1.31471935916308,1.24613164161233,1.21668896889799,1.215528902666,1.17886697480549,1.16326839828116,1.11933927865332,1.12094994912418,1.12899371415424,1.1293484451508,1.04941892303441,1.04970654276135,1.03372447326777,1.01805878547381,1.0086823823756,1.0077332372767,0.989028367701422,1.00706212458051,0.993333076281277,0.967408951559829,0.950164231464981,0.971157595334269,0.97072616574386,0.976200527879935,0.929067324493994,0.948778863113557,0.947951477032395,0.954917626818861,0.954968439637287,0.939386161564147,0.938511797594253,0.939478199876768,0.940245185815272,0.979632789954743,0.981185936480214,1.09918672311912,1.18865563284565,1.05651354296558,1.0548069992524,1.07772070416522,1.08572611989836,0.996918735543786,1.03617882827098,1.08022299578959,1.07378990123039,1.00917133591139,1.00956441620488,1.15172525990667,1.22785820162746,1.39544462919067,1.03475990428475,1.03571863670788,1.24304452320985,1.01943936016312,1.01963110664775,1.27391570723465,1.37778477795661,1.31284983093798,1.04869987371706,1.04699333000389,1.04765485537585,1.03890162835267,1.03815381706263,1.03917966075538,1.04010963120581,1.04076156925354,1.03627470151329,1.03622676489214,1.02867195339787,1.02912255763674,1.03030179851719,1.03099208586184,1.02860484212825,1.02713798152086,1.0275502364628,1.16524338707281,1.04595789898691,1.04573739052959,1.04635097928039,1.08642599456725,1.03047437035335,1.02916090693366,1.02625594769158,1.01315966279162,1.01345686984279,1.07570736607665
1.01966945594467,1.02699417165739,1.07520882521662,1.07582241396743,1.1326848339833,1.15528215719648,1.22474232125229,1.26461600273028,1.29184400354719,1.29320540358803,1.2853246230699,1.27116414518026,1.28389611175944,1.29708826990171,1.41712156927765,1.41757217351652,1.42378475961841,1.37222412990245,1.37145714396395,1.44718741806702,1.47043667932794,1.46880683420862,1.41095691979692,1.4595838282981,1.45662134511063,1.48800065731969,1.52631160494798,1.55001147044777,1.52039622589727,1.53890934898792,1.53821906164326,1.56175594263112,1.56909024566807,1.56676052587986,1.56460337792782,1.59245455481976,1.59313525484018,1.63659459558068,1.63602894345104,1.60182137059374,1.599635460669,1.62346954870803,1.67280591920232,1.6735345558439,1.67751329539989,1.67667919819177,1.67705310383679,1.67226902904537,1.6718184248065,1.67137740789186,1.73366625342265,1.70206643275627,1.71443408101465,1.7135616345096,1.71075254850983,1.71002391186825,1.70925692592975,1.77606140117348,1.73507559008465,1.72974503781204,1.8219463349445,1.72730027013306,1.7267921419488,1.72392553200364,1.72212311504816,1.72095346149194,1.72375296016748,1.72305308549859,1.72290927563512,1.72882465468584,1.76063539648531,1.77923480549404,1.77801721531666,1.77993468016293,1.778486994204,1.79308848900828,1.7517191849502,1.75181505819251,1.78795927054453,1.7187675515672,1.69103142256603,1.82165871521756,1.67228820369383,1.68505851956993,1.66868336978286,1.668357400759,1.66793555849282,1.66325694426794,1.6691531486702,1.66164627379708,1.6521260608354,1.67805018555685,1.61895391899508,1.6193278246401,1.61855125137737,1.59593475351572,1.58654876309327,1.58670216028097,1.58225364183765,1.54678054218182,1.54655044640027,1.54724073374492,1.551305759219,1.54113360820958,1.55171801416094,1.55250417474791,1.54784473517149,1.54667508161528,1.54631076329449,1.50361840849249,1.49404067158541,1.37155301720626,1.36481312827165,1.36101654787605,1.35422872232029,1.35124706448435,1.34981855317389,1.34965556866196,1.35137169969936,1.35048966587008,1.3415830416592,1.38091024565601,1.2858135766057,1.23782901882802,1.21515499702098,1.20276817411413,1.16710332797368,1.12707624930798,1.1126569136641,1.09643516106473,1.07936013660878,1.07885200842452,1.04296665382674,1.02654356741852,1.0170137671326,1.00802085700364,1.00165487371405,0.996544829898764,0.985289311251213,0.974292650357906,0.97381328414634,0.953248473670191,0.954257060179325,0.950613876971429,0.946303415997034,0.93543330778358,0.931745064151797,0.976564846200725,0.946521048257085,0.932424805439797,0.933391207722312,0.938481118156712,1.14940512744269,1.02094457006744,1.03628428883752,1.0108874669488,1.01192289796578,0.996170924253744,0.996401020035295,0.990878721278063,0.990111735339559,0.990313069148416,0.991616945243874,0.99453149181019,0.996765338356085,1.1501721133812,1.05789411765489,1.15228132471208,1.01593998681869,1.22194282257674,1.25531629822592,1.12914711134194,1.03291913803234,1.14647140622791,1.12903206345117,1.01663986148758,1.01846145309153,1.02024469539855,1.2591991645396,1.23561434693059,1.04594831166268,1.04682075816773,1.04808628496626,1.03990829739696,1.04006169458466,1.04006169458466,1.04026302839352,1.10629093037451,1.03297666197772,1.03136599150686,1.03105919713146,1.03285202676272,1.03105919713146,1.05916923177765,1.27404034244966,1.03232472392999,1.03311088451696,1.04737682297314,1.04652355111656,1.04659066238618,1.04704126662505,1.02961151117254,1.02940059003945,1.11205291223753,1.15231967400901,1.06374238543598,1.34148716841689,0.987436871879025
0.926734728508517,0.991300563544241,1.08431678323636,1.11951185048948,1.15974985028827,1.1808899002183,1.18831048917333,1.18808998071601,1.23507745677363,1.2940203261477,1.26894947328283,1.29574604450933,1.28922666403204,1.2889390443051,1.31099947736134,1.35186065323516,1.36391191979391,1.37551258211379,1.37848465262549,1.43279684439583,1.39657593344996,1.39823454054198,1.41026663245227,1.43284478101699,1.4996109069638,1.50729994099731,1.52966716842894,1.63942285622892,1.54721197177223,1.56528407794824,1.61449581322753,1.61673924709765,1.61702686682459,1.56804522732685,1.56677011320409,1.56560045964787,1.6622023386025,1.64889513256945,1.60373883544,1.60336492979498,1.6002778113925,1.59883971275781,1.59977927053247,1.62601977695356,1.68172213073744,1.67740783483335,1.67639157846483,1.67456039953665,1.67294014174156,1.67218274312729,1.69213396485263,1.81987547291054,1.71038823018904,1.70513437651028,1.71106893020946,1.71081965977945,1.70980340341093,1.77173751794516,1.71260290208647,1.70922816395705,1.78136319147339,1.78137277879762,1.7168980233421,1.72307226014706,1.72248743336895,1.72280381506858,1.72691677716381,1.72480756583292,1.72481715315715,1.72591010811952,1.73326358580493,1.77712559416315,1.77762413502318,1.78518853384168,1.7838175464766,1.7833861168862,1.75247658356447,1.75353118922991,1.75170959762596,1.7516904229775,1.68938240279825,1.72174920940314,1.70188427359587,1.67873088557727,1.67857748838957,1.66892305288865,1.66921067261558,1.67035156419911,1.67275798258117,1.66244202170828,1.66184760760594,1.66334323018603,1.67833780528379,1.67911437854652,1.66055331883472,1.58577218983054,1.5824837376192,1.60196518045721,1.56498687089707,1.55757586926627,1.54973343804506,1.50710819451268,1.50638914519533,1.52723198807419,1.51518072151544,1.54739413093262,1.54791184644111,1.54726949571762,1.54687641542413,1.39740044333386,1.37836960473472,1.33862055847173,1.34517828824594,1.32961806101853,1.33070142865667,1.30950385478125,1.34866807426613,1.32419163550361,1.33211076531867,1.29716496849556,1.34303072761813,1.35413284907798,1.27187360717338,1.22792531289708,1.19596117390991,1.17546347470338,1.13513918898651,1.120528106858,1.09647351036166,1.09023216228708,1.06816214190661,1.04626469336231,1.02577658148001,1.01013006833452,1.00391748223264,1.00466529352268,0.996017527066043,0.991645707216568,0.978165929347353,0.969901655859968,0.970457720665384,0.970802864337711,0.949964815120969,0.940957524005658,0.939915381861716,0.937365153616188,0.953762354248989,0.983074639353781,0.981329746343684,0.935016259179519,0.947352269267939,0.947382948705479,1.01902710522117,1.01694665586298,1.01699459248414,1.00935349507179,1.01251731206812,0.986363091565119,1.02137599965784,1.12900330147847,0.983467719647265,1.02290997153485,1.02455899130264,1.24308287250677,1.24467436832917,1.19768689227154,1.01367737830011,1.01424303042975,1.24071480342164,1.27579482278398,1.23186570315615,1.23447345534706,1.13209041988095,1.16309582644499,1.26191237729706,1.0168603699449,1.01827929393113,1.13343264527334,1.24663976979659,1.143988289252,1.14405540052162,1.143988289252,1.03894956497383,1.03868111989535,1.03915089878268,1.03540225500824,1.03282326479002,1.12591618307599,1.02582451810117,1.02603543923426,1.15426590082796,1.03364777467391,1.03510504795707,1.03715673534257,1.03975490020926,1.0469645680312,1.04701250465235,1.04712755254313,1.04778907791509,1.04834514272051,1.12246474635272,1.03690746491256,1.12336595483047,1.03357107608006,1.05206502452225,1.00241227232832,1.18994033429265,0.988549001489856
0.971416453088514,0.971148008010038,1.0616044121324,1.06741433061657,1.14185990327265,1.16097702778988,1.18847347368526,1.18886655397874,1.26782775634777,1.25552721935901,1.2656610210715,1.2858135766057,1.33393235692262,1.30310910951897,1.30543882930718,1.35393151526912,1.31115287454904,1.38741045148484,1.40161886599563,1.40104362654175,1.36800570724068,1.36571433674939,1.38961553605804,1.38803362755987,1.48054171906773,1.48016781342271,1.47977473312923,1.49124117290987,1.49058923486214,1.68218232230054,1.6143040667429,1.54626282667333,1.60669173130324,1.61649956399187,1.57238828520364,1.59290515905863,1.59257919003476,1.60562753831357,1.60629865100976,1.60703687497557,1.60047914520136,1.60037368463481,1.62896308549257,1.62821527420252,1.6458176014912,1.79152575515857,1.70422358070831,1.68155914622551,1.67648745170714,1.68528861535148,1.6886921154536,1.68849078164474,1.81838943765469,1.70678339627807,1.70762708081042,1.76772042909224,1.70697514276269,1.76818062065535,1.76834360516728,1.812972599464,1.71462582749928,1.72498013766909,1.72357080100708,1.71961123609955,1.72799055747772,1.7282014786108,1.72813436734118,1.72718522224229,1.73004224486321,1.72956287865165,1.77774877023819,1.77632984625196,1.77578336877077,1.78511183524783,1.78336694223773,1.79179420023705,1.76494010506516,1.7037921511179,1.75100013563285,1.75139321592633,1.68990970563097,1.68907560842285,1.76994468831391,1.69669753118674,1.68960291125557,1.68503934492147,1.68497223365185,1.74537237630907,1.66675631761237,1.66632488802196,1.66389929499144,1.66516482178997,1.67832821795956,1.6782802813384,1.68495305900339,1.58378761371466,1.57748874169469,1.57661629518964,1.56313651732043,1.56276261167541,1.5645362666582,1.5089201987924,1.50784641847849,1.52335870908474,1.52161381607464,1.49627451813131,1.54759546474148,1.54786390981996,1.42860718370675,1.35111284194512,1.33347216535952,1.33787274718168,1.2991974812326,1.29849760656371,1.28781732737004,1.29897697277528,1.47763675982565,1.2921220359499,1.31421123097882,1.28154721732277,1.3541999603476,1.25546969541362,1.21893240276811,1.22550930719079,1.22850055235096,1.15271275430249,1.14005748631717,1.10076863161728,1.10073986964459,1.07050144901905,1.06948519265053,1.03960150302156,1.01929555029965,1.01941059819043,0.996842036949935,0.988913319810646,0.981703651988704,0.982499399899903,0.989009193052959,0.966862474078644,0.96734184029021,0.946200831627759,0.946475987833197,0.941853938821285,0.940404335397512,0.93598745512415,0.935048856081905,0.929672284652989,0.929952234520543,0.934252149438284,1.00068655396669,1.0074264429013,1.02258400251099,1.02276616167138,1.06565985028224,1.04658107506195,1.03634181278291,1.22538467197578,0.976842878603433,0.97880828007085,0.982106319606419,1.23910413295078,1.19578860207374,1.18768731309829,1.18378527213615,1.1826060312557,1.01353356843664,1.01338975857317,1.22808829740901,1.15923213477978,1.04894914414708,1.12016378853721,1.12023089980683,1.11485241091307,1.10840972902963,1.12183198295346,1.19951807119972,1.14771775837798,1.14687407384563,1.16602954765977,1.10054812315996,1.09747059208171,1.14721921751795,1.14813960064416,1.17343096196634,1.03174948447612,1.03235348590269,1.03307253522004,1.03063735486528,1.03252605773885,1.1378619890682,1.03605419305597,1.04203668337631,1.04162442843436,1.04321592425676,1.04666736098003,1.04688786943735,1.04785618918471,1.04888203287746,1.12236887311041,1.12995244657737,1.13987532715677,1.04134639603165,1.14174485538188,1.00253690754333,0.995931241147961,0.991358087489629,0.991281388895778
0,0,0,0,0,0,0,0,0,0,0,0,0,0,0,0,0,0,0,0,0,0,0,0,0,0,0,0,0,0,0,0,0,0,0,0,0,0,0,0,0,0,0,0,0,0,0,0,0,0,0,0,0,0,0,0,0,0,0,0,0,0,0,0,0,0,0,0,0,0,0,0,0,0,0,0,0,0,0,0,0,0,0,0,0,0,0,0,0,0,0,0,0,0,0,0,0,0,0,0,0,0,0,0,0,0,0,0,0,0,0,0,0,0,0,0,0,0,0,0,0,0,0,0,0,0,0,0,0,0,0,0,0,0,0,0,0,0,0,0,0,0,0,0,0,0,0,0,0,0,0,0,0,0,0,0,0,0,0,0,0,0,0,0,0,0,0,0,0,0,0,0,0,0,0,0,0,0,0,0,0,0,0,0,0,0,0,0,0,0,0,0,0,0,0,0,0,0,0,0,0,0,0,0,0,0,0,0
0.927688667269532,0.94961583651895,0.992297645264296,1.04846019061128,1.12552310278251,1.14882988798881,1.22897033123829,1.27722333409445,1.30100948551232,1.24595906977616,1.24614122893656,1.33453635834919,1.3291482821312,1.33197654277943,1.31514120142926,1.31484399437809,1.31964724381797,1.32177562979732,1.37654801313077,1.37787106387469,1.41013240991303,1.4101228225888,1.41090898317577,1.42464761879923,1.39418868971637,1.44802151527515,1.48832662634355,1.54725032106915,1.54191018147232,1.52428867953518,1.61393016109788,1.61406438363712,1.60256918188378,1.56229283278807,1.59529240279222,1.59125613929084,1.5939693520483,1.60527280731701,1.60350873965845,1.60301978612265,1.60200352975414,1.5996642226417,1.6482048452248,1.64048704921859,1.64026654076127,1.6434591197303,1.71256455278955,1.6776379306149,1.67902809262844,1.67647786438291,1.68195222651899,1.68180841665552,1.72236279815394,1.82015350531325,1.82238735185914,1.71259331476224,1.74773085806997,1.70667793571152,1.70681215825076,1.81426688823523,1.74870876514157,1.74844990738732,1.74800889047268,1.7198700938538,1.70981299073516,1.73563165489007,1.73121189841943,1.72925608427625,1.73405933371613,1.72906433779162,1.72937113216702,1.81276167833091,1.7792539801425,1.76934068688733,1.76284048105851,1.70684092022346,1.70590136244879,1.70571920328839,1.70370586519982,1.81491882628296,1.77445073070262,1.7020472581078,1.77082672214319,1.70596847371841,1.70430027930216,1.79575376514458,1.71679256277555,1.7476158101792,1.66290221327139,1.66548120348961,1.66504018657497,1.66191471887556,1.68155914622551,1.6768421827037,1.68913313236824,1.62766879672134,1.58190849816532,1.56031784399642,1.64274965773718,1.56081638485645,1.56965589779771,1.51023366221209,1.52007984419764,1.52645541481145,1.52611985846336,1.54311818432546,1.43837666709845,1.4214838018029,1.37261721019593,1.33408575411032,1.33237921039715,1.31187192386639,1.29969602209263,1.30400073067248,1.28198823423741,1.2779136214391,1.27923667218302,1.26806743945355,1.27426085090698,1.25856640114033,1.25599699824634,1.24444427254762,1.2189899267135,1.17798494097621,1.13994243842639,1.2289128072929,1.18251974533762,1.11302123198489,1.07964775633572,1.07937931125724,1.06708836159271,1.03984118612734,1.01102168948804,1.00113715820556,0.995816193257186,0.991837453701194,0.983333497108026,0.983400608377645,0.972576519320502,0.97285455172321,0.963276814816136,0.946429009944464,0.943869194374706,0.942634347013714,0.940432138637783,0.941255689789252,0.944402249601966,0.932952108272519,0.933109340389912,0.970141338965751,0.982710321032991,1.01274740784967,1.01243102615004,1.04113547489856,0.965453137416642,0.967725333259462,0.970074227696131,0.971052134767725,1.03612130432559,0.977168847627297,1.16694034346175,0.982643209763372,1.21265270539661,1.16605830963247,1.26103993079201,1.02941976468791,1.20257642762951,1.44374556866799,1.443994839098,1.02882535058557,1.02918966890636,1.02619842374619,1.07349269417922,1.10369276550783,1.16723755051292,1.14933801617307,1.25400283480623,1.25377273902468,1.08531386495642,1.0597061219346,1.1001933921634,1.09895662733756,1.09812253012944,1.24930504593289,1.41182936630197,1.03158649996418,1.0321425647696,1.03372447326777,1.03318758311081,1.25513413906552,1.06303292344286,1.04024385374505,1.04057941009315,1.04171071435244,1.04483618205185,1.04617840744423,1.04775072861816,1.04879574695938,1.40738084785865,1.14299120753195,1.13571442844039,1.34397028539279,1.01258442333774,1.33201489207636,1.25942926032115,0.992872884718175,0.991837453701194,0.991396436786554
0.909325106436891,0.942901833359767,0.94261804856252,1.02091580809474,1.0699357968894,1.14499495829629,1.18466730596543,1.2243780029315,1.27010953951482,1.32891818634965,1.26141383643703,1.27477856641547,1.32485316087557,1.30911077448777,1.41028580710073,1.3247093510121,1.3237602059132,1.37617410748575,1.37554134408648,1.34493860514016,1.32853469338039,1.41041044231574,1.36198486762342,1.38809115150526,1.45995773394312,1.3984550489993,1.4731498920854,1.54641622386103,1.54871718167654,1.50511403107257,1.50504691980295,1.5865583504175,1.58994267587115,1.54959921550582,1.54958004085736,1.58485180670433,1.59664421550884,1.59627030986382,1.60386347065501,1.62857000519908,1.59957793672362,1.60064212971329,1.60115984522178,1.65286428480121,1.63325820674819,1.6441014704538,1.6439480732661,1.67658332494946,1.6689997514825,1.67565335449902,1.68270962513326,1.6823836561094,1.68886468728976,1.82610723366089,1.71221940911722,1.7115387090968,1.71148118515141,1.70542199623722,1.70541240891299,1.7112031527487,1.71104016823677,1.74891968627465,1.74596679041141,1.70872003577279,1.70989927665324,1.70995680059863,1.70905559212089,1.74840197076616,1.72537321796257,1.72518147147794,1.72614020390107,1.72677296730034,1.73486466895156,1.73368542807111,1.76898595589078,1.77071167425241,1.70612187090611,1.70709019065347,1.70687926952038,1.70874879774549,1.70674504698114,1.70785717659197,1.78859203394379,1.75636903720238,1.8924131680446,1.89125310181261,1.74922648065006,1.7888700663465,1.66100392307359,1.66005477797469,1.71461624017504,1.71342741197036,1.71709935715095,1.66808895568052,1.61386304982826,1.6355591645637,1.64415899439918,1.54293602516507,1.55848666506824,1.57659712054118,1.50946667627358,1.49003317005673,1.48489436426875,1.49876722243144,1.45479016618245,1.43539500926252,1.43374598949473,1.38799527826295,1.34798737424571,1.33559096401463,1.30667559413302,1.30509368563485,1.29202616270758,1.28433712867408,1.28551636955453,1.26730045351505,1.24891196563941,1.27516205938472,1.24980358679292,1.24093531187896,1.23888362449346,1.23134798764765,1.20488697276925,1.17623046064188,1.13450642558724,1.12611751688485,1.11735470253744,1.07971486760534,1.07196830962644,1.07267777161956,1.03502834936322,1.02541226315922,1.01322677406124,1.00478992873769,1.00626637666931,0.99415758616517,0.98057234772941,0.98248022525144,0.955043220766292,0.956395033482906,0.950291742877257,0.943744559159699,0.943526926899648,0.941057232177664,0.96007464852288,0.95517456710826,1.00022636240359,0.933677868716828,0.996611941168384,1.00727304571359,0.968684065682592,0.967092569860196,0.964887485286996,0.964657389505444,0.966325583921691,0.973928332037116,0.969489400918022,0.970256386856526,0.973065472856299,0.974378936275987,1.18163771150834,1.23242176796156,1.17299953237593,1.04906419203785,1.04979282867943,1.15962521507326,1.12595453237292,1.12014461388875,1.03703210012757,1.02314965464064,1.02982243230562,1.03079075205299,1.06735680667118,1.1502967485962,1.03451063385473,1.03354231410737,1.03375323524046,1.18114875797254,1.21288280117816,1.40624954359935,1.16594326174169,1.08927342986395,1.08321424094976,1.01731097418377,1.25116498683376,1.2514813685334,1.0784781027795,1.30425958842673,1.35051842784278,1.04272697072096,1.04431846654336,1.04519091304841,1.04519091304841,1.04453897500068,1.0458332637719,1.15715168542159,1.72244908407202,1.22398492263801,1.47840374576415,1.23531713987941,1.11411418694726,1.00271906670372,1.00321760756375,1.3177873029171,0.996295559468751,0.99570114536641,0.99541352563947,1.33824665282671
0.959461059772077,0.937947104197029,0.943783867189047,1.2021449980391,1.08244725501126,1.17589490429379,1.22502994097922,1.22585445086312,1.2264009283443,1.3264542440222,1.28192112296779,1.27492237627894,1.29799906570369,1.35162097012938,1.34532209810941,1.34349091918123,1.30875604349121,1.38012408506905,1.38002821182673,1.35020204614314,1.303607650379,1.33464181891573,1.33080688922321,1.43682352057298,1.43750422059341,1.40875183522372,1.47300608222193,1.46894105674785,1.47190353993533,1.53643581933624,1.5975837732835,1.53105733044248,1.53118196565749,1.59283804778901,1.55421071846108,1.60703687497557,1.56654001742254,1.56788224281492,1.61751582036039,1.62564587130853,1.61913607815548,1.61842661616236,1.66205852873903,1.65107145516996,1.65329571439162,1.64413981975072,1.66938324445175,1.65850163144922,1.66894222753711,1.68549953648457,1.68007311096965,1.68524067873033,1.68456956603413,1.69853829743915,1.70575755258532,1.71194137671451,1.71242074292608,1.71076213583406,1.7135903964823,1.71282341054379,1.70661082444191,1.7075887315135,1.70646701457844,1.71586259232511,1.71082924710368,1.7116633443118,1.7182785980314,1.71400265142424,1.76529483606172,1.80732566549176,1.72613061657684,1.72692636448804,1.72779881099309,1.72636071235839,1.76512226422556,1.71979339525995,1.70991845130171,1.70886384563626,1.70768460475581,1.70523983707683,1.70865292450317,1.71022524567711,1.75807558091555,1.75754827808283,1.75724148370743,1.89249945396268,1.91047568689637,1.83197467609045,1.71110727950639,1.71138531190909,1.71500932046853,1.65196307632347,1.61273174556897,1.61367130334363,1.60338410444344,1.60316359598612,1.61529156113873,1.54292643784084,1.63196391797696,1.53380889249686,1.5041744732979,1.52098105267538,1.52364632881168,1.45450254645551,1.448222849084,1.46152046779282,1.42669930618473,1.37171600171819,1.37046006224389,1.38795692896602,1.31051052382554,1.31100906468557,1.28561224279684,1.284250842756,1.37118869888547,1.26706077040927,1.2659390534742,1.23603618919676,1.25131838402146,1.23638133286909,1.24521125848612,1.21946929292507,1.18597118206089,1.16072775735986,1.11915711949292,1.10236012743968,1.10303124013587,1.05822967400298,1.05781741906103,1.03934264526731,1.03901667624345,1.02688871109084,1.01472239664132,1.01282410644352,1.00026471170051,0.99996750464934,0.972538170023577,0.968434795252578,0.9569875301204,0.942154022069725,0.951986781801351,0.953106581271568,0.937726595739709,0.939653647910201,0.939854022986635,0.948049267739555,0.937126429242829,0.937337350375917,0.953329965926157,0.961829128857209,0.962212621826462,0.955211957672763,0.963171354249592,0.970630292501547,0.973314743286313,0.973132584125918,0.966162599409759,0.968540255819123,0.974139253170205,0.975625288426057,1.18646972292092,1.09976196257299,1.0946806807304,0.998960835605053,0.999037534198904,0.99526012845177,1.12917587331464,1.37235835244169,1.23023585803682,1.22908537912907,1.03739641844836,1.03790454663261,1.03749229169067,1.03581450995019,1.03569946205941,1.03555565219594,1.16942346043766,1.10250393730315,1.17402537606868,1.40210781953143,1.40700694221362,1.3122745914841,1.0115010556996,1.01253648671658,1.25517248836245,1.25314956294964,1.03937140724,1.04186411154014,1.06038682195502,1.08911044535201,1.04327344820214,1.04493205529416,1.04603459758076,1.08314712968014,1.28650386395035,1.28625459352034,1.21875983093195,1.32559138484138,1.08958981156358,0.998941660956591,0.999152582089679,1.00058109340014,1.0023451610587,0.999027946874673,0.997839118669991,0.996525655250302,0.997474800349201,0.99776242007614
0.962634464092639,0.978443961750061,0.974647381354464,1.00244103430102,1.1077865529546,1.10411460777401,1.13384490021528,1.17956684947438,1.21139676592231,1.21895157741658,1.31662723668511,1.27559348897513,1.2885076147147,1.35253176593135,1.3150932648081,1.31010785620783,1.32336712561972,1.32223582136043,1.30033837281613,1.29296572048225,1.29415454868693,1.28924583868051,1.35473685050455,1.34153510503804,1.44016949672971,1.3719940341209,1.41417826073864,1.40410198297154,1.47219115966227,1.50800940299042,1.4997643041515,1.55019362960816,1.53321447839452,1.53326241501568,1.58942496036266,1.57673134308042,1.56878345129266,1.56874510199574,1.56680846250102,1.59875342683972,1.62121652751367,1.6113032342585,1.59309690554325,1.59957793672362,1.61505187803294,1.64830071846711,1.66150246393362,1.66068754137395,1.70012979326154,1.74718438058879,1.78257119432653,1.69560457622437,1.76673293469642,1.70495221734989,1.70472212156834,1.70491386805296,1.7047412962168,1.70482758213488,1.70649577655113,1.70639990330882,1.70588218780033,1.70585342582763,1.7053548849676,1.7129480457588,1.71297680773149,1.69054246903024,1.68860582953551,1.73779839016634,1.78517894651745,1.78355868872236,1.77872667730978,1.7280480814231,1.7270989363242,1.72668668138226,1.73948575923105,1.77765289699588,1.72545950388065,1.70897889352704,1.70883508366357,1.70649577655113,1.7101006104621,1.71016772173172,1.70984175270785,1.75657037101124,1.87864577044844,1.92050402804232,1.8582055951873,1.85772622897573,1.82153408000256,1.67354414316813,1.67891304473767,1.6185608387016,1.61390139912519,1.60282803963803,1.60315400866189,1.60546455380164,1.60587680874358,1.55105648878898,1.66560583870461,1.55469008467265,1.55323281138949,1.46810695953973,1.52203565834082,1.51818155399984,1.45681309159525,1.41149380995388,1.41021869583111,1.44828037302939,1.34839962918766,1.3274033891211,1.31225541683564,1.34040380077875,1.27284192692074,1.28891986965664,1.29167143171103,1.26132755051895,1.24590154583078,1.22549971986656,1.22476149590075,1.22456016209189,1.31795987475326,1.1983771796162,1.16935634916804,1.15937594464325,1.10959855723431,1.09485325256657,1.0781425464314,1.0705781476129,1.0455552313692,1.04413630738296,1.04747269621546,1.0247315631388,1.02589162937079,0.996669465113772,0.98416759431615,0.98049564913556,0.97028514882922,0.966153012085528,0.939492580863115,0.942755147299028,0.943525009434802,0.932861987424744,0.940171363418691,0.940307503422776,0.940668945546296,0.989440622643368,0.989258463482973,0.926256321029375,0.926668575971321,0.965395613471255,0.964024626106178,0.933410382370775,0.935198418339913,0.958134174098464,0.960621126004065,0.962155097881074,0.964216372590804,0.969144257245695,0.973573601040558,0.976066305340697,1.16843596604183,0.983458132323033,1.11002039950049,0.998117151072699,1.05040641743024,1.15201287963361,1.17971065933785,1.27614955378054,1.13346140724603,1.03630346348599,1.03695540153372,1.03832638889879,1.03850854805919,1.03709921139718,1.03615006629829,1.30131627988772,1.28151845535007,1.28291820468784,1.09538055539929,1.18303746084611,1.00979451198643,1.00941101901718,1.00995749649836,1.25458766158434,1.25435756580279,1.04219008056401,1.19900994301546,1.28209369480395,1.1223976350831,1.12269484213428,1.12548475348559,1.10233136546698,1.10287784294817,1.1020916823612,1.09915796114642,1.2282992185421,1.00115633285402,0.993908315735156,0.993265965011658,0.999114232792754,0.999516900410469,1.00121385679941,1.00060985537284,0.998213024315012,0.996650290465309,0.997733658103446,0.997867880642685,0.998586929960033
0,0,0,0,0,0,0,0,0,0,0,0,0,0,0,0,0,0,0,0,0,0,0,0,0,0,0,0,0,0,0,0,0,0,0,0,0,0,0,0,0,0,0,0,0,0,0,0,0,0,0,0,0,0,0,0,0,0,0,0,0,0,0,0,0,0,0,0,0,0,0,0,0,0,0,0,0,0,0,0,0,0,0,0,0,0,0,0,0,0,0,0,0,0,0,0,0,0,0,0,0,0,0,0,0,0,0,0,0,0,0,0,0,0,0,0,0,0,0,0,0,0,0,0,0,0,0,0,0,0,0,0,0,0,0,0,0,0,0,0,0,0,0,0,0,0,0,0,0,0,0,0,0,0,0,0,0,0,0,0,0,0,0,0,0,0,0,0,0,0,0,0,0,0,0,0,0,0,0,0,0,0,0,0,0,0,0,0,0,0,0,0,0,0,0,0,0,0,0,0,0,0,0,0,0,0,0,0
1.04377198906217,0.933332725044501,1.07975321690226,0.966076313491677,1.05034889348485,1.11886949976598,1.10561981767832,1.15229091203631,1.170142509755,1.17004663651269,1.20918209402488,1.29890986150566,1.31971435508759,1.32089359596804,1.29007993588863,1.30354053910938,1.28194988494048,1.29026209504902,1.34992401374043,1.36030708588294,1.31154595484252,1.31121039849443,1.29890027418143,1.30129710523926,1.45041834633297,1.37212825666014,1.47695605980523,1.40146546880793,1.44272931229947,1.48995647146288,1.50049294079308,1.5003778929023,1.52023324138534,1.55114277470706,1.60521528337162,1.64318108732759,1.57078720205701,1.57239787252787,1.57007774006389,1.64210730701369,1.64956624526564,1.58210983197418,1.62164795710408,1.59958752404785,1.71206601192952,1.71223858376568,1.71209477390221,1.6953073691732,1.68860582953551,1.72844116171659,1.70286218066746,1.70565209201877,1.71304391900111,1.76640696567255,1.70418523141138,1.70493304270143,1.70499056664681,1.70842282872162,1.70753120756811,1.70960206960207,1.7091514653632,1.70786676391621,1.70385926238752,1.71888259945798,1.7194099022907,1.7411539536473,1.68579674353574,1.70992803862594,1.71979339525995,1.7789759477398,1.77855410547362,1.77795010404705,1.73537279713582,1.74050201559957,1.73990760149723,1.75049200744859,1.72280381506858,1.72149035164889,1.68045660393891,1.67936364897654,1.7392269014768,1.73406892104036,1.68811687599972,1.69613187905709,1.68739782668237,1.82190798564758,1.81571457419416,1.81514892206451,1.82447738854157,1.83313474232244,1.68572963226612,1.61965379366397,1.60364296219769,1.60282803963803,1.60240619737185,1.60273216639572,1.60607814255244,1.60393058192463,1.54939788169697,1.54951292958774,1.55230284093905,1.55298354095947,1.46278599459136,1.45782934796377,1.45117574494725,1.45501067463977,1.44055298969896,1.44497274616959,1.38538752607203,1.33462264426727,1.37123663550663,1.28876647246894,1.27845051159606,1.26415581116718,1.28555471885145,1.23920000619309,1.22413831982571,1.21919126052236,1.2171203984884,1.21512623504829,1.21602744352603,1.22889363264444,1.15915543618593,1.15451517125798,1.08951311296973,1.08229385782356,1.06440391080794,1.04354189328062,1.04319674960829,1.04122176081665,1.02292914618332,1.02333181380103,1.07110545044562,0.991923739619276,0.971243881252351,0.964858723314302,0.973391441880163,0.944443475096161,0.951549599816404,0.94487490468657,0.948974444527875,0.947838346606466,0.933345188566002,0.933257943915497,1.02885411255826,1.02899792242173,0.989248876158742,0.910877294229939,0.940426386243244,0.947981197737512,0.97263404326589,0.932396043467103,0.933037435458177,0.960160934440962,0.960563602058677,0.961253889403331,1.2689398859586,1.0370416874518,0.975443129265662,1.2126814673693,0.982614447790678,1.14319254134081,1.09237013559066,1.24284318940099,1.14734385273296,1.15974026296404,1.25080066851297,1.16572275328437,1.15277027824788,1.03417507750664,1.09218797643026,1.06061691773658,1.09894704001333,1.0332451070562,1.25006244454716,1.25185527417842,1.09958939073683,1.5043278704856,1.18912541173299,1.00722510909244,1.00855774716059,1.00802085700364,1.40432249142886,1.06990703491671,1.21916249854967,1.1953475851591,1.18758185253175,1.08974320875128,1.26822083664125,1.27425126358274,1.79760411872122,1.17856018043009,1.1268365662022,1.14310625542272,1.00230681176178,1.00296833713374,1.00159734976866,1.00086871312708,1.22895115658983,1.0009645863694,1.00248897092217,1.00241227232832,1.00246979627371,0.995873717202573,0.997052958083024,0.998740327147733,0.998941660956591,0.998999184901979
0.967504824802142,0.920533647195709,0.948504665640542,0.973726998228259,1.0437815763864,1.10196704714619,1.09770068786326,1.09970443862761,1.13908916656981,1.14564689634402,1.20802202779289,1.20982444474838,1.2232754606449,1.27188319449761,1.24957349101137,1.32719246798801,1.27881482991685,1.27561266362359,1.33966557681294,1.33998195851257,1.29761557273443,1.29761557273443,1.37736293569043,1.29954262490493,1.30234212358047,1.36262721834691,1.42808946819826,1.40775475350367,1.40789856336714,1.45286311401196,1.4915575546095,1.47803942744336,1.60284721428649,1.52247667525546,1.56973259639156,1.52963840645625,1.57419070215912,1.56696185968872,1.56661671601639,1.56525531597554,1.64138825769634,1.58324113623347,1.58917568993265,1.58713358987138,1.67720650102449,1.63716983503456,1.72923690962778,1.68654455482578,1.6866116660954,1.70791470053736,1.7050768525649,1.70719565122001,1.71414646128771,1.71489427257775,1.70966918087169,1.76826690657343,1.71712811912365,1.71644741910322,1.71572836978588,1.71441490636619,1.70937197382052,1.70851870196393,1.71177839220258,1.69167377328953,1.68436823222528,1.67571087844441,1.6689997514825,1.6685107979467,1.68383134206832,1.68298765753597,1.77009808550161,1.77013643479853,1.76230359090156,1.77995385481139,1.72203682913007,1.7627446078162,1.72233403618125,1.68367794488062,1.68115647860779,1.68010187294235,1.74689676086185,1.68989053098251,1.69191345639531,1.6940514296989,1.68808811402702,1.68706227033427,1.82076709406405,1.82050823630981,1.82584837590665,1.61931823731587,1.61741035979384,1.61723778795768,1.60316359598612,1.603614200225,1.60308689739227,1.60256918188378,1.6484828776275,1.58718152649254,1.65523235388634,1.55029909017471,1.55166049021555,1.55195769726672,1.46261342275519,1.47007236100715,1.46834664264551,1.50326367749593,1.44814615049015,1.44911447023752,1.44726411666087,1.39831123913583,1.36741129313833,1.29357930923306,1.28237172720666,1.26858515496204,1.25232505306575,1.22314123810566,1.22021710421511,1.21603703085026,1.20969980953337,1.21132006732846,1.21782027315728,1.2252983860577,1.23496240888286,1.16015251790598,1.09375071027997,1.07440348998119,1.07356939277307,1.0433213848233,1.04265027212711,1.02612172515234,1.01872989817,1.01551814455252,0.997819944021528,0.985912487326247,0.987484808500181,0.979460218118579,0.949224673690313,0.937460068126078,0.9383977084359,0.939706378193473,0.952606122946694,0.9239486520869,0.936388205277018,0.935906921600607,1.02721468011471,1.02856649283132,0.937191623047602,0.938320051109626,0.918891338554887,0.929655027469373,0.945154854554124,0.935240602566531,0.935664362297555,0.956734424760694,0.959508996393234,1.0032943061576,0.968089651580252,1.20949847572451,1.3847355880243,1.19012249345304,1.20810831371097,1.17845471986355,1.2265830875047,1.21631506325297,1.21740801821534,1.18286488900995,1.26436673230027,1.16785113926372,1.12754602819532,1.09305083561108,1.09883199212256,1.1022738415216,1.24918041071788,1.10413378242247,1.09757605264826,1.0000154412705,0.999258042656224,1.00060026804861,1.0053747555158,1.00640059920855,1.07190119835682,1.07622508158514,1.08691494810305,1.33801655704515,1.33877395565943,1.17477318735872,1.2181941788023,1.22225920427638,1.07139307017256,1.10868776143234,0.999564837031626,0.999689472246633,1.00198084273791,1.00153023849904,1.00265195543411,1.00245062162525,1.00184662019868,1.00223970049216,1.00242185965255,1.0034477033453,1.00297792445797,1.00071531593938,0.999277217304686,0.999258042656224,1.00005379056742,0.999286804628918,1.00091664974824,1.00176033428059
0.965270978256248,0.963861641594246,0.963602783840001,1.00787704714017,1.04936139908902,1.03576657332903,1.04667694830426,1.06912087432974,1.09584074696239,1.15781321079355,1.18220336363799,1.18440844821119,1.22581610156619,1.22285361837872,1.24242134713481,1.26202742518783,1.25823084479223,1.28604367238725,1.28671478508344,1.2892746006532,1.28948552178629,1.28877605979317,1.29054971477596,1.30218872639277,1.31153636751829,1.37374851445523,1.42798400763172,1.42798400763172,1.47073388637911,1.43132998378845,1.45587353382059,1.5890989913388,1.56747957519721,1.50177764224007,1.530788885364,1.57719153464352,1.55664589881583,1.53686724892665,1.56331867648082,1.55910984114328,1.56568674556595,1.56385556663777,1.5872294631137,1.66212564000865,1.66050538221356,1.60227197483261,1.6520972988627,1.64541493387349,1.64454248736844,1.64139784502057,1.69333238038155,1.69291053811537,1.71393554015462,1.77603263920078,1.7778734054532,1.77276336163791,1.71318772886458,1.71948660088455,1.71934279102108,1.72175879672737,1.72194095588776,1.70868168647587,1.70565209201877,1.6858159181842,1.67678465875832,1.66994889658139,1.66891346556441,1.66839575005592,1.68393680263487,1.68322734064175,1.7813344295007,1.75418312727764,1.71211394855067,1.72089593754655,1.75177670889558,1.75068375393321,1.73312936326569,1.67300725301118,1.67236490228768,1.67144451916148,1.66865460781017,1.74506558193367,1.69290095079114,1.69875880589647,1.69891220308417,1.65723610465068,1.65667045252104,1.61960585704281,1.6275345741821,1.62222319655796,1.61835950489274,1.6171227400669,1.61742953444231,1.60292391288034,1.60215692694184,1.60574258620435,1.60599185663436,1.59226280833513,1.65819483707382,1.65703477084183,1.55649250162813,1.51454795811617,1.46535539748535,1.46256548613404,1.51673386804091,1.48707068686925,1.53039580507052,1.45665010708332,1.45129079283802,1.35350008567871,1.35014452219775,1.29915913193567,1.2623533942117,1.24337049223371,1.21827087739615,1.21869271966233,1.20589364181354,1.20569230800468,1.20587446716508,1.21848179852924,1.21831881401731,1.21800243231768,1.19308497664052,1.13572401576462,1.13528299884998,1.0839620522398,1.06865109544241,1.04939016106172,1.04838349201743,1.01206670782925,1.01315007546738,0.994636952376735,0.99313174247242,0.97770573778425,0.967888317771394,0.946153853739026,0.946102082188176,0.944153937904375,0.930416261013339,0.936627888382801,0.913398760502772,0.913691173891827,0.914018101648114,0.917227937800755,0.987762840902889,0.991041705789996,0.89529213995953,0.896577800138948,0.994052125598625,0.935798584836793,0.935940477235416,0.930073034805858,0.930791125390783,0.959020042857437,0.960323918952894,0.961436048563726,0.969604448808798,0.9711671826585,1.00576783580928,1.11240764323409,1.14924214293076,1.45583518452366,1.26349428579522,1.14985573168156,1.38085272171062,1.09084575103788,1.30450885885674,1.09584074696239,1.3204525790534,1.06230428680129,1.07366526601538,1.09589827090778,1.09660773290089,1.00917133591139,1.0067840921778,0.998634866581189,0.999238868007761,1.25592029965249,1.13863856233094,1.26785651832046,1.2680195028324,1.1863738496786,1.18179110869604,1.1005289485115,1.10125758515308,0.995634034096791,0.995960003120655,0.996985846813405,0.997656959509596,0.997033783434561,0.997110482028412,1.00064820466976,1.00156858779597,1.00239309767986,1.00075366523631,1.00300668643066,1.00369697377532,1.00432014985035,1.00459818225306,1.00567196256697,1.00044687086091,0.998606104608495,0.998721152499271,1.00018801310666,1.00323678221222,1.00254649486756,1.00258484416449,1.00339976672415
0.96535726417433,0.964964183880846,1.00406129209611,0.928072160238784,0.985912487326247,0.978817867395082,1.05040641743024,1.05464401474047,1.15722838401544,1.15688324034311,1.13946307221483,1.17484988595257,1.20649764324011,1.22571064099965,1.2623533942117,1.26120291530394,1.33431584989187,1.29926459250222,1.29912078263875,1.2866093245169,1.28943758516513,1.29078939788175,1.30249552076817,1.32503532003597,1.34447841357705,1.39764971376387,1.43388021203397,1.40675767178361,1.40885729579027,1.4106117761246,1.45463676899475,1.46098357763587,1.48105943457622,1.50251586620588,1.5013557999739,1.53018488393743,1.53276387415565,1.54237037303542,1.56650166812561,1.55576386498655,1.55856336366209,1.55828533125939,1.66464710628148,1.66292138791985,1.67234572763922,1.60347997768576,1.61174425117314,1.68745535062776,1.68658290412271,1.69508686071588,1.71152912177256,1.62024820776631,1.70470294691988,1.74418354810439,1.67391804881316,1.67297849103849,1.7861760282375,1.78677044233985,1.71632278388822,1.7151243683593,1.72151911362158,1.72350368973746,1.75895761474483,1.6655099654623,1.66533739362614,1.66525110770806,1.66369796118258,1.68226860821862,1.6886921154536,1.69534571847012,1.71823066141025,1.71173045558142,1.71126067669409,1.71126067669409,1.75797012034901,1.70343742012134,1.70058039750041,1.68543242521495,1.67134864591917,1.66884635429479,1.66836698808323,1.66700558804238,1.65017024669221,1.67701475453987,1.63379509690514,1.60927072152147,1.60944329335763,1.61280844416282,1.61259752302973,1.68459832800683,1.63674799276839,1.63924069706853,1.63386220817476,1.63262544334892,1.62826321082368,1.63227071235237,1.61314400051091,1.54251418289889,1.57255126971557,1.552839731096,1.50288018452667,1.44821326175977,1.47020658354639,1.46531704818842,1.54797895771073,1.51935120755606,1.47759841052872,1.47690812318407,1.41466721427444,1.41184854095043,1.36423788881777,1.28911161614127,1.25873897297649,1.25767477998682,1.22025545351203,1.2185297351504,1.19855933877659,1.19279735691358,1.19575984010105,1.19843470356158,1.17598119021187,1.15736260655467,1.14835052177725,1.11901330962945,1.09746100475748,1.09713503573362,1.0734255829096,1.06691578975654,1.00504878649193,1.00456942028037,1.00658275836894,0.992374343858147,0.987686142309039,0.971272643225045,0.962107161259917,0.946938096861146,0.947637971530032,0.959096741451287,0.922099257242681,0.924124100120333,0.937234766006643,0.913970165026958,0.904603349252973,0.902595763558938,0.90208188298014,0.893545329484586,0.884099897651904,0.884068259481941,0.940552938923097,0.937280785162953,0.937871364335601,0.936880993742507,0.997829531345759,1.00039893423975,1.00592123299698,1.00670739358395,1.00687037809588,1.14783280626876,1.14974068379079,1.38661470357364,1.08263900149588,1.16293284193306,1.1829415876038,1.00092623707247,1.09934012030682,1.09882240479833,1.23887403716923,1.27846968624452,1.27200782971262,1.09527509483274,1.09287826377492,1.07876572250644,1.00815507954287,1.00731139501052,1.00821260348826,1.00100293566632,1.00290122586412,1.00319843291529,1.00258484416449,1.00126179342057,1.270531381781,0.995605272124097,0.996333908765676,0.995816193257186,0.996007939741811,0.995729907339104,0.996199686226438,0.997522736970358,0.997896642615379,0.998404770799638,1.0000154412705,1.0009358243967,1.00246020894948,1.00368738645109,1.00259443148872,1.00292040051258,1.00325595686068,1.00606504286045,1.00595958229391,1.00205754133176,0.999986679297803,0.998826613065815,1.00012090183704,1.00110839623287,1.00333265545453,1.00152065117481,1.00320802023952,1.00338059207569
0,0,0,0,0,0,0,0,0,0,0,0,0,0,0,0,0,0,0,0,0,0,0,0,0,0,0,0,0,0,0,0,0,0,0,0,0,0,0,0,0,0,0,0,0,0,0,0,0,0,0,0,0,0,0,0,0,0,0,0,0,0,0,0,0,0,0,0,0,0,0,0,0,0,0,0,0,0,0,0,0,0,0,0,0,0,0,0,0,0,0,0,0,0,0,0,0,0,0,0,0,0,0,0,0,0,0,0,0,0,0,0,0,0,0,0,0,0,0,0,0,0,0,0,0,0,0,0,0,0,0,0,0,0,0,0,0,0,0,0,0,0,0,0,0,0,0,0,0,0,0,0,0,0,0,0,0,0,0,0,0,0,0,0,0,0,0,0,0,0,0,0,0,0,0,0,0,0,0,0,0,0,0,0,0,0,0,0,0,0,0,0,0,0,0,0,0,0,0,0,0,0,0,0,0,0,0,0
0.895121485588212,0.894789764169809,1.01141476978152,0.981137999859057,0.93392042801988,0.982298066091046,0.99283453542125,1.06635972495113,1.05986910644653,1.11537012642156,1.14584823015288,1.17006581116115,1.21215416453658,1.21415791530093,1.23438716942898,1.29746217554673,1.25198949671765,1.25407953340008,1.35483272374686,1.3470957530922,1.33011660187856,1.33248467096369,1.394380436201,1.31278271966836,1.39918368564088,1.40076559413905,1.43823285723498,1.40743837180403,1.40716992672556,1.41841585804888,1.42857842173406,1.47418532310238,1.46271888332174,1.49909319145531,1.49359965467077,1.56846706959303,1.56794935408454,1.58041287558524,1.58016360515522,1.5574320594028,1.55698145516393,1.55580221428348,1.55333827195603,1.66996807122986,1.66601809364656,1.61898268096778,1.68495305900339,1.68455039138567,1.68426277165873,1.59984638180209,1.64696808039896,1.62086179651711,1.62075633595057,1.63345954055705,1.67234572763922,1.67271004596001,1.68410937447103,1.68201933778861,1.69547994100936,1.6963811494871,1.69465543112547,1.68543242521495,1.68548036183611,1.74092385786575,1.66543326686845,1.66564418800154,1.70435780324755,1.70145284400546,1.69703308753483,1.69634280019018,1.69640032413557,1.71214271052337,1.72142324037927,1.72144241502773,1.7127946485711,1.72456788272714,1.71580506837973,1.68827986051165,1.66606603026772,1.66675631761237,1.64377550142993,1.64294140422181,1.64234699011947,1.64324819859721,1.63596183218142,1.69292971276383,1.69488552690702,1.60865713277066,1.61648038934341,1.61672965977342,1.63618234063874,1.63732323222226,1.62757292347903,1.64990180161374,1.59098769421237,1.6015625128395,1.54839121265268,1.5448151407144,1.54333869278278,1.42066887924323,1.41569305796719,1.44153089677055,1.39717034755231,1.4266609568878,1.43149296830038,1.4869939882754,1.54927324648196,1.4661990820177,1.4652499369188,1.45506819858516,1.31770101699902,1.30164224891158,1.27497990022432,1.27226668746686,1.22622835650814,1.20821377427752,1.19622003166415,1.18247180871646,1.18208831574721,1.17197368868318,1.17294200843054,1.15212792752438,1.12912793669348,1.09619547795895,1.09439306100346,1.05412629923198,1.05226635833111,1.01589205019754,1.00045645818514,0.999871631407028,1.01455941212939,1.02570947021039,0.960985444324854,0.951715460525606,0.943789619583586,0.943642933522847,0.944799164825142,0.916580793415142,0.934185996901088,0.909991425470966,0.904080840082367,0.903612978659879,0.905471002095906,0.931167907233073,0.890912650250669,0.884661714851859,0.881093312772967,0.899377298814489,0.914268330810551,0.936850314304967,0.994109649544013,0.99643936933222,1.01629471781525,0.966114662788603,0.970083815020363,0.970611117853085,1.10189993587657,0.977504403975393,1.24684110360544,0.994962921400599,0.995816193257186,0.994426031243646,0.996103812984125,0.997043370758792,1.23341884968162,1.04950520895249,1.37791900049585,1.25859516311302,1.1109407826267,1.26015789696273,1.00912339929024,1.00921927253255,1.00842352462135,1.00932473309909,1.00122344412364,1.00244103430102,1.00243144697679,0.999862044082796,0.999104645468523,0.997877467966916,0.997704896130753,0.996305146792982,0.99643936933222,0.99599835241758,0.996151749605281,0.99555733550294,0.997311815837269,0.99922928068353,0.999727821543558,1.06025259941579,1.00231639908601,1.15687365301888,1.03951521710347,1.02964027314523,1.00463653154999,1.00554732735196,1.00593082032121,1.00574866116082,1.0029875117822,1.00240268500409,1.00196166808945,1.000782427209,1.00197125541368,1.1110654178417,1.01590163752177,1.01692748121452,1.01648646429988,1.12295369988852
0.982748670329917,0.887864839877538,1.00584453440313,0.916068830301191,0.944058064662062,0.943695663806119,1.00740726825283,1.02910338298828,1.06694455172924,1.0786314999672,1.12949225501427,1.20194366423024,1.179633960744,1.22515457619423,1.22780067768207,1.22921960166831,1.30595654481567,1.32425874677323,1.23469396380438,1.24786694729819,1.32467100171518,1.31912952830948,1.33719204716126,1.33884106692905,1.40028622792748,1.46140541990205,1.45487645210053,1.44993898012141,1.45890312827768,1.45940166913771,1.44059133899589,1.4668414327412,1.45919074800462,1.45921950997731,1.62178217964332,1.56853418086265,1.56915735693769,1.57892684032939,1.57914734878671,1.56718236814604,1.55428741705493,1.55324239871372,1.55356836773758,1.5577388537782,1.61944287253088,1.60826405247718,1.60937618208801,1.68397515193179,1.68502975759724,1.60398810587002,1.60300061147419,1.61144704412197,1.65664169054834,1.62105354300174,1.66513605981728,1.66545244151691,1.68488594773377,1.68331362655983,1.71840323324641,1.70750244559542,1.69584425933015,1.75364623712069,1.72870001947083,1.67588345028057,1.67530821082669,1.68579674353574,1.70656288782075,1.70214313135012,1.69883550449032,1.69747410444947,1.72831652650158,1.72776046169616,1.72149993897312,1.72139447840658,1.71581465570396,1.70681215825076,1.70698473008693,1.66103268504628,1.65959458641159,1.65000726218028,1.644897218365,1.64414940707495,1.64225111687715,1.69217231414956,1.69119440707797,1.62421735999807,1.60148581424565,1.58948248430805,1.5894345476869,1.5834328827181,1.63900101396274,1.55797853688398,1.55099896484359,1.55509275229036,1.5430702477043,1.558352442529,1.54455628296016,1.54711609852992,1.42083186375517,1.41284562267049,1.38903070927993,1.37380603840062,1.3691465988242,1.36000029150754,1.34065307120876,1.34442088963167,1.36056594363718,1.39639377428957,1.42210697787793,1.4239956807515,1.41946087639009,1.3842753964612,1.37782312725353,1.24348554012449,1.28954304573168,1.26775105775392,1.18629715108475,1.18332508057305,1.16667189838327,1.1523771979544,1.15951975450672,1.11931051668062,1.10244641335776,1.08419214802135,1.09141140316753,1.06379990938137,1.03522968317208,1.00540351748849,0.993476886144747,0.984809945039647,0.976919577197283,0.999277217304686,0.967533586774836,0.951482488546785,1.00074407791208,1.00020718775512,0.915687254796785,0.916413973973518,0.954367314407985,0.9178971330321,0.906765290867132,0.909098845585032,0.893386179902346,0.893198268347413,0.896244161255698,0.878410779453048,0.890131283325818,0.958818709048579,0.90940755742528,0.909682713630718,0.987168426800548,0.983477306971496,0.981684477340242,1.01238308952888,0.966105075464371,0.970582355880391,1.15939511929171,1.02419467298185,1.22832798051479,0.992748249503168,0.993342663605509,0.993860379113999,0.993227615714733,0.994080887571319,1.32010743538108,1.28619706957495,1.01213381909887,1.01177908810231,1.01248855009542,1.00974657536527,1.0094781302868,1.09705833713977,1.12821714089151,0.999334741250074,0.999775758164714,0.999344328574306,0.997944579236535,0.997580260915745,0.998443120096563,0.998548580663107,0.997656959509596,0.99724470456765,0.997772007400372,0.996794100328779,0.997187180622262,0.997829531345759,0.999238868007761,0.999775758164714,1.00290122586412,1.00284370191873,1.00478034141346,1.12940596909619,1.12344265342432,1.09370277365881,1.00786745981594,1.00747437952245,1.00635266258739,1.00365862447839,1.00419551463535,1.00306421037605,1.00521177100386,1.42993982177491,1.18159936221141,1.10825633184193,1.10638680361683,1.39064137975079,1.10190952320081,1.03663901983408
0.881926451248667,0.886744081674898,0.924145192233642,0.923505717707414,0.931860112042573,0.946500914876199,0.963276814816136,1.01443477691438,1.04942851035864,1.1674772336187,1.14298162020772,1.14769858372952,1.20890406162217,1.18479194118044,1.20000702473552,1.2147619167275,1.22649680158661,1.22454098744343,1.22871147348405,1.22812664670594,1.27503742416971,1.27206535365801,1.32331918899856,1.32343423688934,1.34558095586365,1.38635584581939,1.39742920530655,1.41635458333915,1.43771514172649,1.45346711543853,1.54045290818916,1.45293981260581,1.46115614947203,1.4545600704009,1.50959131148859,1.50069427460194,1.51852669767216,1.65600892714908,1.55078804371051,1.57350041481447,1.54381805899435,1.544508346339,1.5468668280999,1.54699146331491,1.56396102720432,1.59268465060131,1.63278842786086,1.56612776248059,1.5741523528622,1.67302642765964,1.59565672111301,1.60766963837484,1.60764087640214,1.62080427257173,1.67729278694257,1.67509728969361,1.67965126870348,1.72216146434508,1.70716688924732,1.70889260760896,1.70624650612112,1.67055289800797,1.67039950082027,1.676564150301,1.67637240381637,1.68628569707154,1.70557539342492,1.785409042299,1.7617954627173,1.76563997973405,1.72907392511585,1.67552871928401,1.67865418698342,1.71599681486435,1.71624608529437,1.715153130332,1.73302390269915,1.66185719493017,1.65016065936798,1.64849246495173,1.64423569299304,1.64888554524522,1.79574417782035,1.69250787049766,1.69213396485263,1.72297638690474,1.59252166608938,1.57961712767404,1.61882928378008,1.54933077042735,1.55260004799022,1.55124823527361,1.53064507550053,1.52059755970613,1.5186896821841,1.55873593549826,1.54402898012744,1.46066719593624,1.41355508466361,1.35204281239555,1.35134293772667,1.37195568482397,1.36380645922736,1.30623457721838,1.31100906468557,1.29829627275486,1.29783608119175,1.43044794995917,1.38603946411976,1.43649755154912,1.37068057070121,1.33235044842445,1.2855067822303,1.3073754688019,1.25569979119517,1.25771312928374,1.21309372231125,1.15966356437019,1.23780025685532,1.14468816392089,1.14618378650097,1.14859979220726,1.0968857653036,1.0752951111347,1.04960108219481,1.04941892303441,1.02394540255183,0.991406024110785,0.990303481824185,0.969422289648403,0.96793625439255,0.968674478358361,0.943458856897606,0.939920175523831,0.937799459403866,0.928040522068821,0.916537650456101,0.910721979577392,0.957371981822076,0.906772960726517,0.907544740327137,0.908293510349602,0.894556792190988,0.901006185201387,0.901616897754921,0.903059790051733,0.9572569339313,0.95805939296946,0.908683714445816,1.00431056252612,1.04109712560164,1.01287204306468,0.960611538679834,0.962586527471482,0.963056306358816,1.21185695748541,1.02589162937079,1.02609296317965,0.985768677462778,0.987216363421705,0.990456879011886,0.991310150868472,0.993189266417808,1.08266776346858,1.08098039440387,1.29785525584022,1.17828214802738,1.08645475653994,1.12363439990894,1.14293368358656,1.18660394546015,0.996324321441445,0.997867880642685,0.997120069352643,0.9984239454481,0.998193849666549,0.999056708847367,0.999248455331993,0.997330990485732,0.999296391953149,0.999766170840483,1.00020718775512,1.0006290300213,0.999516900410469,0.999133407441217,1.00002502859473,1.00013048916127,1.00182744555021,1.00192331879253,1.00359151320877,1.00582535975467,1.19961394444204,1.0107340697611,1.01089705427303,1.01124219794536,1.00556650200042,1.00443519774113,1.00394624420533,1.00555691467619,1.00876866829368,1.0100629570649,1.0102451162253,1.01110797540612,1.31133503370943,1.31098030271287,1.15567523748996,1.31340589574339,1.18862687087296
0.88484291527983,0.887353835496009,0.886739288012782,0.892285555080592,1.0404739495266,0.921227769470056,0.943727301976082,0.989153002916428,1.06723217145618,1.09912919917373,1.12252227029811,1.15147598947665,1.16822504490874,1.19273024564396,1.20178067971831,1.24626586415157,1.24470313030186,1.28353179343865,1.2831483004694,1.27512371008779,1.27105868461372,1.25176898826033,1.25918957721536,1.28377147654443,1.29696363468671,1.37792858782008,1.37651925115807,1.3826839006388,1.40474433369504,1.43819450793806,1.44700525890663,1.45365886192315,1.4532753689539,1.44595065324119,1.44633414621044,1.47656297951174,1.48384934592753,1.50713695648537,1.48647627276691,1.52087559210883,1.51958130333761,1.51935120755606,1.58059503474563,1.54314694629816,1.567968528733,1.59424738445101,1.56874510199574,1.56479512441244,1.57435368667105,1.57393184440488,1.59847539443702,1.59720986763848,1.65346828622778,1.64665169869932,1.67644910241022,1.67554789393248,1.67260458539347,1.69507727339165,1.69449244661354,1.6946650184497,1.77225523345365,1.67047619941412,1.66969962615138,1.69650578470211,1.75190134411059,1.67921983911307,1.64402477185995,1.64368921551185,1.68249870400017,1.68218232230054,1.68205768708553,1.67553830660825,1.7521793765133,1.77542863777421,1.72212311504816,1.73856537610484,1.73822981975675,1.66286386397446,1.70862416253048,1.64642160291777,1.73685883239167,1.69023567465484,1.70273754545246,1.7368971816886,1.62996975453685,1.77898553506403,1.59065213786427,1.59129448858777,1.59215734776859,1.54990600988123,1.53396228968457,1.51291811299685,1.50397313948904,1.48964008976324,1.49061799683484,1.47121325259067,1.47356214702734,1.43523202475059,1.38572308242013,1.37466889758143,1.33711534856741,1.31234170275372,1.31400989716997,1.31251427458988,1.27774104960294,1.27252554522111,1.2902237457521,1.28384817513828,1.30584149692489,1.36792900864683,1.36631833817597,1.34203364589807,1.32788275533266,1.32803615252037,1.23636215822063,1.23204786231654,1.18785988493446,1.16285614333921,1.14392117798238,1.13582947633116,1.09990577243646,1.09926342171297,1.08753812417808,1.0620646036955,1.05131721323221,1.04228595380632,1.02263193913215,0.995058794642912,0.995432700287933,0.977571515245012,0.965606534604343,0.981876223824868,0.948499871978426,1.00357233856031,0.939014173383973,0.919493422516613,0.923630352922421,0.943878781698937,0.944572903973283,0.906750909880785,0.910976043669521,0.910078670121471,0.909602180107175,0.901582383387689,0.901092471119469,0.901997514526904,0.910685547745313,0.951367440656009,0.963804117648858,0.950029050193319,0.950242847523677,0.953383654941853,0.962749511983414,0.96374659370347,1.0794272478784,1.30198739258391,1.23531713987941,0.982825368923767,0.984953754903117,0.987954587387515,0.989440622643368,1.09490118918772,1.09572569907161,1.06363692486944,1.05396331472005,1.07294621669803,0.994339745325564,0.994215110110558,0.994991683373293,0.995499811557552,0.995864129878342,0.996535242574533,0.997158418649568,0.996669465113772,0.999938742676647,0.999660710273939,1.00033182297013,1.00207671598023,1.00258484416449,1.24337049223371,1.0009645863694,1.00140560328404,1.00106045961171,0.999277217304686,0.999286804628918,0.999766170840483,0.99996750464934,1.00091664974824,1.0025273202191,1.00320802023952,1.00478992873769,1.29810452627023,1.00324636953645,1.00628555131777,1.00540351748849,1.00444478506536,1.00452148365921,1.00594040764544,1.30922582237855,1.0100629570649,1.3094271561874,1.15472609239107,1.42889480343369,1.16251099966688,1.0261408998008,1.04432805386759,1.1854534665524,1.1862204524909
0,0,0,0,0,0,0,0,0,0,0,0,0,0,0,0,0,0,0,0,0,0,0,0,0,0,0,0,0,0,0,0,0,0,0,0,0,0,0,0,0,0,0,0,0,0,0,0,0,0,0,0,0,0,0,0,0,0,0,0,0,0,0,0,0,0,0,0,0,0,0,0,0,0,0,0,0,0,0,0,0,0,0,0,0,0,0,0,0,0,0,0,0,0,0,0,0,0,0,0,0,0,0,0,0,0,0,0,0,0,0,0,0,0,0,0,0,0,0,0,0,0,0,0,0,0,0,0,0,0,0,0,0,0,0,0,0,0,0,0,0,0,0,0,0,0,0,0,0,0,0,0,0,0,0,0,0,0,0,0,0,0,0,0,0,0,0,0,0,0,0,0,0,0,0,0,0,0,0,0,0,0,0,0,0,0,0,0,0,0,0,0,0,0,0,0,0,0,0,0,0,0,0,0,0,0,0,0
0.94860820874224,0.884152627935176,0.884094145257365,0.890756376865699,0.889150500056956,0.902230486505725,0.938225136599736,0.957339384919689,1.10734553603996,1.09433553705808,1.11235970661293,1.14442930616664,1.16533926031512,1.21596033225641,1.2131704209051,1.25266060941385,1.29382857966307,1.20667980240051,1.20535675165659,1.21159809973117,1.25496156722936,1.25467394750242,1.26759766056622,1.26739632675736,1.27285151424497,1.27276522832689,1.37850382727395,1.35687482380813,1.39083312623541,1.40022870398209,1.41837750875195,1.43893273190387,1.44507820673614,1.44802151527515,1.45033206041489,1.44866386599864,1.4818168331905,1.45172222242843,1.44735998990319,1.46214364386786,1.46795356235203,1.49806734776256,1.52379972599938,1.55265757193561,1.5610752426107,1.5626379764604,1.56250375392116,1.62934657846182,1.57675051772888,1.609251546873,1.59292433370709,1.60385388333078,1.60777509894138,1.67709145313372,1.67927736305845,1.67821317006878,1.68703350836158,1.69391720715966,1.69469378042239,1.76437445293552,1.76347324445777,1.76630150510601,1.64527112401002,1.64492598033769,1.64325778592144,1.64050622386706,1.78455577044241,1.65278758620736,1.65319025382507,1.68264251386364,1.68206727440976,1.68153038425281,1.72138489108235,1.72165333616082,1.83530147759871,1.7554582414004,1.61207980752124,1.61140869482505,1.61039243845653,1.60962545251802,1.59918485643013,1.59888764937896,1.59994225504441,1.58962629417152,1.5892811504992,1.59400770134523,1.5935091604852,1.59575259435533,1.59484179855335,1.54567799989522,1.53294603331605,1.51677221733784,1.49633204207669,1.49029202781097,1.46941083563519,1.50802857763889,1.49483641949661,1.38452466689121,1.38263596401765,1.38400695138272,1.35536002657958,1.3137126901188,1.29149885987486,1.27934213274957,1.27225710014263,1.2530153404104,1.25272772068346,1.25137590796685,1.28207452015549,1.30633045046069,1.30798905755271,1.30821915333426,1.32482439890288,1.30959014069933,1.30849718573697,1.20984361939684,1.16372858984426,1.14828341050763,1.14030675674718,1.13396953543029,1.08772987066271,1.08751894952962,1.0685552222001,1.06390536994791,1.05943767685613,1.02816382521361,1.01579617695523,1.0171671643203,1.00597875694237,0.975117160241798,0.978990439231245,0.973333917934775,0.974714492624083,0.98416759431615,0.966047551518983,0.923801007293738,0.916761993843114,0.945578614285147,0.91548687972035,0.914766871670579,0.913604887973745,0.910918519724134,0.913406430362157,0.913699802483635,0.900975505763847,0.966354345894385,0.966632378297093,0.960036299225955,0.916333440449975,0.956426671652869,0.956207121927972,0.956433382779831,0.967878730447163,0.970515244610771,0.97299836158668,1.01574824033407,1.37110241296739,1.37470724687836,0.989594019831068,0.989594019831068,1.01713840234761,1.08692453542728,0.988002524008672,0.989363924049517,0.990293894499954,0.992604439639698,0.993218028390502,0.993275552335889,0.992805773448556,1.18226088758337,1.16847431533876,1.11322256579375,0.999603186328551,1.00169322301098,1.00261360613718,1.00340935404838,1.23455974126514,1.23463643985899,1.1947339964083,1.00310255967298,1.00269030473103,1.00320802023952,0.999756583516252,0.998682803202346,0.998538993338876,0.999919568028184,1.000782427209,1.00246979627371,1.00280535262181,1.00492415127693,1.00651564709932,1.00582535975467,1.00550897805503,1.00548980340657,1.00426262590497,1.00610339215738,1.00735933163168,1.30803699417386,1.01414715718744,1.19593241193721,1.1457331822621,1.15637511215885,1.09980989919415,1.03728137055758,1.03590079586827,1.03570904938365,1.19981527825089,1.42333415537954
0.893323862294843,0.889062296674028,0.888088224532127,0.883787350881964,0.891905897041033,0.923894963071205,0.931461279354551,0.958625045099107,1.10989576428548,1.1156577461485,1.52068384562421,1.14149558495186,1.19123462306387,1.19103328925502,1.18676692997209,1.24858599661554,1.19836759229197,1.20728380382708,1.20605662632547,1.20639218267357,1.22187571130713,1.22105120142323,1.24136674146937,1.24538383032229,1.24451138381724,1.29177689227757,1.32723081728494,1.32764307222688,1.36274226623769,1.37889690756744,1.41431248327788,1.43416783176091,1.53711651935666,1.50032036895692,1.44057216434742,1.44006403616316,1.4444837926338,1.46290104248213,1.44293064610832,1.44310321794449,1.46180808751976,1.48162508670587,1.51342624118111,1.51321532004802,1.54141164061229,1.56400896382547,1.56261880181194,1.60774633696869,1.5772778205616,1.57630950081424,1.60231991145377,1.60125571846409,1.60601103128282,1.60411274108502,1.60189806918759,1.67657373762523,1.67693805594602,1.67801183625992,1.64232781547101,1.64924027624178,1.76548658254635,1.66477174149649,1.6458176014912,1.64634490432392,1.64555874373695,1.63837783788771,1.64225111687715,1.7632047993793,1.66594139505271,1.68926735490747,1.7291506237097,1.72073295303462,1.72811519269272,1.71643783177899,1.73220898013949,1.63988304779202,1.6387133942358,1.60982678632688,1.60902145109145,1.60256918188378,1.60225280018415,1.60099686070985,1.60271299174725,1.59957793672362,1.59373925626675,1.59404605064215,1.59534992673761,1.66963251488176,1.60006689025941,1.58723905043793,1.52236162736469,1.52078930619075,1.49351336875269,1.48542166710147,1.47048461594909,1.45211530272191,1.4612999593355,1.40722745067094,1.38786105572371,1.37094901577969,1.33491985131844,1.32097029456189,1.33601280628081,1.26576648163804,1.25410829537277,1.23803993996111,1.2320957989377,1.23835632166074,1.22495324238537,1.23010163549759,1.25977440399347,1.25896906875804,1.26935214090055,1.27796155806026,1.27739590593061,1.2419899175444,1.21179943354002,1.20907663345833,1.13874402289748,1.13969316799638,1.09359731309226,1.07542933367394,1.07068360817945,1.072323040623,1.05417423585314,1.01975574186275,1.08968568480589,1.00147271455366,0.992796186124324,1.00543227946118,0.96110049221563,0.969690734726879,0.955362478663194,0.952976193662022,0.937350772629841,0.921837523291167,0.920431062826434,0.93786177701137,0.91807449853038,0.919591213223772,0.906473836210501,0.914361327855595,0.911794801158875,0.915122561399561,0.917105220050595,0.926486416810926,0.935373866373346,0.997091307379949,0.969709909375342,0.968578605116048,0.973698236255565,0.971454802385439,0.972394360160107,1.21943094362814,1.55625281852235,1.2150687111029,0.986458964807432,0.987513570472875,0.987005442288616,0.98482911968811,0.985107152090818,0.986823283128221,0.988175095844835,0.989776178991463,0.992144248076596,0.993745331223224,0.995058794642912,0.993189266417808,0.993534410090135,1.17130257598699,1.16892491957763,1.00158776244443,1.00270947937949,1.18692991448402,1.00575824848505,1.00722510909244,1.00835641335173,1.00726345838936,1.00703336260781,1.00574866116082,1.00106045961171,0.999919568028184,1.00059068072438,1.00008255254012,1.00097417369363,1.0010892215844,1.00107963426017,1.00216300189831,1.18884737933028,1.00784828516747,1.00915216126293,1.00827012743365,1.00716758514705,1.00708129922897,1.00722510909244,1.00704294993204,1.00786745981594,1.30925458435124,1.31064474636478,1.13684573269968,1.17942303961091,1.03421342680356,1.03535431838709,1.0359103831925,1.03630346348599,1.03608295502867,1.22949763407101,1.11487158556153
0.893879927100258,0.890274134456865,0.88900189653137,0.969815369941886,0.890128407128549,0.889865714444611,0.924249694067763,0.925379080862211,1.27936130739803,1.12820755356728,1.11237888126139,1.14923255560653,1.14953934998193,1.15198411766091,1.19319043720706,1.24965977692945,1.20251890368412,1.25819249549531,1.20398576429151,1.20530881503543,1.21847221120501,1.21891322811965,1.23388862856895,1.25424251791201,1.25432880383009,1.28681065832575,1.28937047389551,1.33703864997356,1.36532125645591,1.36444880995086,1.37136127072163,1.38479311196969,1.37345130740406,1.45734998175221,1.4737922428089,1.42645003575471,1.42412990329074,1.46457882422261,1.44412906163724,1.44513573068152,1.44182810382172,1.47386894140275,1.47105985540297,1.48774179956544,1.48757881505351,1.49906442948262,1.55769091715704,1.6125591737328,1.59319277878557,1.59469798868988,1.59104521815776,1.59009607305886,1.60650957214285,1.60371007346731,1.60124613113986,1.58098811503912,1.6757684023898,1.5985329183824,1.64624903108161,1.59252166608938,1.65883718779731,1.69783842277026,1.64601893530006,1.64875132270598,1.64577925219428,1.64503144090423,1.64275924506141,1.64260584787371,1.64212648166215,1.64166629009905,1.82547447026162,1.69342825362386,1.69249828317342,1.82561828012509,1.61277968219012,1.6867650632831,1.60953916659994,1.60853249755566,1.60858043417681,1.6078709721837,1.59703729580232,1.60638493692784,1.60682595384248,1.617458296415,1.61858960067429,1.57260879366096,1.56668382728601,1.56351042296545,1.60603979325552,1.59117944069699,1.53411568687227,1.57770925015201,1.52053044843651,1.46892188209939,1.46080141847548,1.45462718167052,1.45388895770471,1.41912532004199,1.41169514376273,1.39823454054198,1.39019077551192,1.33102739768053,1.27057931840215,1.26997531697558,1.2443483993053,1.22613248326582,1.22619959453544,1.21380318430437,1.23021668338836,1.20604703900124,1.19714041479036,1.23013039747028,1.21893240276811,1.222326315546,1.2511458121853,1.2446839556534,1.21796408302075,1.17375693099021,1.13746890877472,1.11349101087222,1.1031942246478,1.08788326785041,1.09543807934468,1.08537138890181,1.02386870395798,1.00943978098987,1.00276700332488,1.00058109340014,0.993457711496284,0.995605272124097,0.964705326126601,0.955150598797682,0.954355809618907,0.943249853229363,1.00808796827326,0.932253192336057,0.933280953493652,0.939780200590054,0.919854864640133,0.913248239512341,0.910319311959677,0.914085212917734,0.912092008210045,0.915974874523724,0.924783708027447,0.92818720812956,0.956981777725861,0.967006283942114,0.968530668494891,0.966507743082086,0.967265141696359,0.986257630998574,1.06606251789996,1.0688620165755,0.9853468351966,0.98549064506007,0.986430202834738,1.07036722647981,0.982422701306052,0.984762008418491,0.986679473264752,0.990658212820743,0.99100335649307,0.992489391748922,0.993850791789768,0.995231366479076,0.99724470456765,0.998692390526577,0.999037534198904,1.00039893423975,1.00485704000731,1.00766612600708,1.00743603022553,1.00754149079207,1.00730180768629,1.00703336260781,1.00553774002773,1.0037832596934,1.00288205121566,1.00164528638982,1.00073449058784,1.00107004693594,1.00247938359794,1.00279576529758,1.00274782867642,1.00266154275834,1.00363944982993,1.42779226114709,1.00666904428702,1.00754149079207,1.00913298661447,1.00910422464177,1.00931514577486,1.12941555642042,1.19120586109118,1.01662068683912,1.01620843189717,1.01815465871613,1.35985648164407,1.19523253726833,1.08910085802778,1.03329304367736,1.03474072963628,1.03640892405253,1.13719087637201,1.1291950479631,1.02181701657248,1.02218133489327
1.03449145920627,0.90400510022094,0.892308564658748,0.893585596246357,0.894542411204642,0.911571416504285,0.930729766515702,0.930350108476143,0.977887896944645,1.1566052079404,1.10720172617649,1.11537971374579,1.11684657435318,1.13748808342318,1.19128255968503,1.19119627376695,1.19882778385507,1.27719457212176,1.20303661919261,1.25061850935258,1.21244178426352,1.2598127532904,1.29389569093269,1.2454797035646,1.26077148571353,1.27452929598545,1.29568852056394,1.29415454868693,1.34070100782992,1.34596444883291,1.38281812317804,1.38250174147841,1.34892693202038,1.35187982788362,1.37143796931548,1.42528038219849,1.5131482087784,1.42017992570744,1.45684185356795,1.44970888433986,1.44977599560948,1.45093606184146,1.4594304311104,1.45882642968383,1.52003190757648,1.49769344211754,1.51100064815059,1.57369216129909,1.56782471886953,1.56551417372979,1.55580221428348,1.58291516720961,1.58980845333192,1.5490719126731,1.55029909017471,1.64082260556669,1.63986387314356,1.57262796830942,1.59999977898979,1.59228198298359,1.62513774312428,1.6569964215449,1.64915399032369,1.64588471276082,1.66145452731246,1.64529029865848,1.6444082648292,1.64826236917018,1.72328318128014,1.62463920226425,1.62301894446916,1.65822359904651,1.66360208794027,1.63203102924658,1.59157252099048,1.58875384766647,1.58795809975527,1.6076888130233,1.60647122284592,1.60990348492073,1.59345163653981,1.58008690656137,1.5798184614829,1.58041287558524,1.57955960372865,1.55938787354599,1.55608024668619,1.55552418188077,1.59757418595927,1.56637703291061,1.55629116781927,1.57350041481447,1.53919696871486,1.49398314764002,1.43746587129648,1.42394774413034,1.42436958639652,1.4161244875576,1.42923994710602,1.42808946819826,1.41586562980335,1.41610531290913,1.35727749142585,1.27047385783561,1.25001450792601,1.25315915027387,1.21078317717151,1.18911582440876,1.20914374472795,1.21010247715108,1.16559811806937,1.1887323314395,1.16346973209002,1.16198369683416,1.20709205734245,1.23940134000195,1.18828172720063,1.16484071945509,1.11539888839425,1.09605166809548,1.05621633591441,1.04285160593597,1.02087745879782,1.0173493234807,1.01783827701649,1.00461735690152,0.989699480397613,0.988155921196373,0.986574012698207,0.99526012845177,0.971704072815453,0.948241972956604,0.964072562727335,0.931692333868525,0.94646448304412,0.94711066869731,0.91813585740546,0.917957533174758,0.916514640877946,0.91561247366778,0.916780209759154,0.954325130181367,0.910551325206075,0.922809677968221,0.923515305031645,0.929462322252324,0.94992838328889,0.963152179601129,0.972595693968965,0.972068391136243,0.969719496699573,1.01969821791737,0.98416759431615,1.05888161205071,1.06102917267852,0.981866636500637,0.980831205483656,0.978060468780809,0.979488980091273,0.987264300042861,0.989661131100688,0.990226783230335,0.992460629776229,0.993179679093577,0.994761587591742,0.997791182048834,1.00072490326361,1.00012090183704,1.00180827090175,1.00505837381616,1.00649647245086,1.00711964852589,1.00469405549537,1.00422427660804,1.00324636953645,1.00342852869684,1.00272865402796,1.00247938359794,1.00271906670372,1.00303544840336,1.00545145410965,1.00342852869684,1.00391748223264,1.00480910338615,1.00577742313351,1.00418592731111,1.00389830758418,1.00367779912686,1.00617050342699,1.00645812315393,1.00610339215738,1.03083868867414,1.02081993485243,1.02278533631985,1.18904871313914,1.01691789389029,1.01323636138547,1.01408963324205,1.01602627273678,1.21950764222199,1.12143890265997,1.48404109241216,1.34447841357705,1.01919008973311,1.01883535873655,1.02108837993091,1.02245936729598,1.02018717145316
0,0,0,0,0,0,0,0,0,0,0,0,0,0,0,0,0,0,0,0,0,0,0,0,0,0,0,0,0,0,0,0,0,0,0,0,0,0,0,0,0,0,0,0,0,0,0,0,0,0,0,0,0,0,0,0,0,0,0,0,0,0,0,0,0,0,0,0,0,0,0,0,0,0,0,0,0,0,0,0,0,0,0,0,0,0,0,0,0,0,0,0,0,0,0,0,0,0,0,0,0,0,0,0,0,0,0,0,0,0,0,0,0,0,0,0,0,0,0,0,0,0,0,0,0,0,0,0,0,0,0,0,0,0,0,0,0,0,0,0,0,0,0,0,0,0,0,0,0,0,0,0,0,0,0,0,0,0,0,0,0,0,0,0,0,0,0,0,0,0,0,0,0,0,0,0,0,0,0,0,0,0,0,0,0,0,0,0,0,0,0,0,0,0,0,0,0,0,0,0,0,0,0,0,0,0,0,0
0.904193970508296,0.904167126000449,0.897381217909531,0.893722694982865,1.00714841049859,1.21767646329381,0.938075574341728,0.929898545504848,0.971790358733535,1.03774156212068,0.999382677871231,1.15052684437775,1.15089116269854,1.14107374268569,1.14082447225567,1.15010500211158,1.17846430718778,1.17604830148149,1.20613332491932,1.20996825461184,1.26154805897627,1.24760808954395,1.23313122995468,1.24196115557171,1.26194113926975,1.26363809565869,1.27784651016948,1.27707952423098,1.30607159270645,1.37059428478313,1.36511992264705,1.35697069705044,1.3483516925665,1.35912784500249,1.36426665079047,1.36413242825123,1.41387146636324,1.41022828315534,1.49370511523732,1.44905694629213,1.44921034347983,1.44916240685867,1.51128826787753,1.45695690145872,1.52329159781512,1.4869939882754,1.48671595587269,1.57268549225481,1.57109399643241,1.55339579590142,1.53428825870843,1.56369258212584,1.54440288577246,1.59428573374794,1.53801772783441,1.68610353791114,1.59882053810934,1.69302558600615,1.59979844518094,1.57360587538101,1.58388348695697,1.58316443763962,1.63506062370368,1.63547287864562,1.67865418698342,1.64065962105476,1.62567463328123,1.62610606287164,1.6269209854313,1.62604853892625,1.68396556460756,1.65513648064403,1.59129448858777,1.59070007448543,1.5920710618505,1.59235868157744,1.66606603026772,1.58603104758478,1.58537910953705,1.58419028133237,1.63261585602469,1.63198309262543,1.57996227134637,1.580278653046,1.54331951813432,1.53955169971142,1.52487350631329,1.52714570215611,1.5305108529613,1.56275302435117,1.4340431965459,1.44420576023109,1.43071639503764,1.44072556153512,1.42709238647821,1.42682394139973,1.42584603432814,1.42044837078591,1.44298817005371,1.44018867137817,1.44326620245642,1.34882147145383,1.34733543619798,1.32123873964037,1.32367391999512,1.21412915332823,1.21508788575136,1.1786560536724,1.16084280525064,1.16167690245876,1.16206039542801,1.15228132471208,1.16551183215128,1.16342179546886,1.16270274615151,1.13526382420152,1.12531218164942,1.13001955784699,1.10099872739883,1.09317547082609,1.04688786943735,1.03699375083064,1.00908504999331,1.01126137259382,1.0051925963554,0.983774514022666,1.0269654096847,0.986324742268193,0.954435384410027,0.946193161768374,0.94993125948616,0.961608620399889,0.937218467555449,0.930192876358749,0.91849729952898,0.91742831287719,0.916750489054036,0.917180959912022,0.918390880230013,0.920003468165718,0.917858783735175,0.907040447072571,0.942090745729799,0.922887335294495,0.919792547032629,0.92070526029945,0.91624619579947,1.01408004591782,1.01397458535128,0.970026291074975,0.96984413191458,0.970985023498106,0.970908324904255,0.973046298207836,0.974973350378328,0.97865488288315,0.97969031390013,0.985970011271635,0.987388935257868,0.988127159223679,0.99144437340771,0.992537328370079,0.995451874936396,0.996564004547227,0.997292641188806,1.00218217654677,1.0015781751202,1.00306421037605,1.00391748223264,1.00504878649193,1.00830847673058,1.00526929494925,1.00385037096302,1.00254649486756,1.00264236810987,1.00275741600065,1.00305462305182,1.0020383666833,1.00220135119523,1.00322719488798,1.00370656109955,1.00564320059427,1.00506796114039,1.00456942028037,1.00677450485357,1.00606504286045,1.00648688512663,1.12838971272767,1.00652523442355,1.00763736403438,1.29854554318487,1.13856186373709,1.02034056864086,1.02205669967827,1.02241143067483,1.02039809258625,1.01879700943962,1.01790538828611,1.01789580096188,1.02013923483201,1.02054190244972,1.0184231037946,1.01941059819043,1.01899834324848,1.01849021506422,1.12704748733529,1.34025040359105,1.01867237422462
1.06980157435017,1.12409459147205,1.12024048713106,0.902067501993793,0.90258713496713,0.903173879210086,0.937498417423004,0.940867403157884,1.08652186780956,1.02695582236046,1.01587287554908,1.01594957414293,1.15293326275981,1.10734553603996,1.10766191773959,1.13031676489816,1.12981822403813,1.20141636139752,1.17829173535161,1.21760935202419,1.22843344108134,1.18878026806066,1.33619496544121,1.23524044128556,1.28123083562313,1.26465435202721,1.26244926745401,1.29560223464586,1.28791320061235,1.3346609935642,1.34373060228701,1.39667180669228,1.34753677000684,1.35464097726224,1.36373934795775,1.37072850732237,1.37635626664614,1.43461843599978,1.48852796015241,1.45002526603949,1.45101276043531,1.45031288576643,1.51070344109942,1.50335955073824,1.50715613113384,1.49481724484815,1.4952007378174,1.58069090798795,1.56351042296545,1.56015485948449,1.5656388089448,1.53052044028553,1.5733278429783,1.59046997870388,1.58947289698382,1.57974176288905,1.59543621265569,1.59133283788469,1.57555210219997,1.57515902190648,1.57402771764719,1.57315527114214,1.66575923589231,1.67860625036226,1.61364254137094,1.61954833309742,1.62537742623006,1.61953874577319,1.67634364184368,1.62129322610752,1.57972258824058,1.58923321387804,1.63670964347146,1.66941200642444,1.6689709895098,1.64388096199648,1.65480092429593,1.58549415742783,1.58487098135279,1.57281971479404,1.5558405635804,1.59108356745468,1.54678054218182,1.54676136753336,1.58992350122269,1.50701232127037,1.50570844517491,1.44528912786923,1.44477141236073,1.43382268808858,1.38812950080219,1.38834042193527,1.39482145311564,1.35085398419087,1.33239838504561,1.33252302026062,1.34549466994557,1.37167765242127,1.42123453137288,1.46025494099429,1.44170346860672,1.39128373047428,1.38989356846075,1.31061598439208,1.28359890470827,1.22607495932044,1.21956516616738,1.22547095789386,1.17313375491517,1.16161937851337,1.13734427355971,1.13441055234493,1.1161179377116,1.16476402086124,1.12015420121298,1.11599330249659,1.09636804979511,1.0978349104025,1.08522757903834,1.04965860614019,1.02508629413536,1.01503877834095,1.01938183621773,0.999756583516252,0.966565267027474,0.966967934645189,0.964782024720451,0.958555057632219,0.958475482841099,0.943017839982966,0.926829643018407,0.933026889401523,0.919110888279784,0.918676582492105,0.915519476622737,0.917732231055322,0.943945892968556,0.930227390725982,0.925028184795345,0.922102133439951,0.916108138330539,0.915878042548988,0.919045694475011,0.922860490786647,0.915540568736046,0.907697178782415,0.908095052738014,1.02662026601237,0.96256735282302,0.963037131710354,0.96712133183289,0.969508575566485,0.970246799532295,0.973103822153224,0.97381328414634,0.978223453292741,1.22162644087711,0.98512632673928,0.986727409885908,0.989689893073382,1.10975195442201,0.997695308806521,0.999689472246633,1.00260401881295,1.0025273202191,1.00172198498367,1.00072490326361,1.00310255967298,1.00502961184347,1.00515424705848,1.00438726111997,1.00493373860116,1.00216300189831,1.00211506527715,1.00304503572759,1.0033230681303,1.00294916248528,1.00356275123608,1.0042722132292,1.00176992160483,1.0017315723079,1.00555691467619,1.00650605977509,1.00600751891506,1.00798250770671,1.1846577186412,1.01417591916013,1.01402252197243,1.18613416657282,1.18613416657282,1.22538467197578,1.20162728253061,1.11558104755465,1.01649605162411,1.01776157842264,1.01814507139189,1.01911339113926,1.01912297846349,1.01914215311195,1.01965028129621,1.01577700230676,1.01570989103714,1.48774179956544,1.48779932351083,1.37733417371774,1.377966937117,1.39420786436483,1.34372101496278
1.0679128714766,1.0466290116831,0.906947450027527,0.902089552839525,0.902450994963045,0.903372336821674,1.0250383575142,0.90709221862342,1.1627602700969,1.07992578873842,1.03953439175194,1.024117974388,1.01574824033407,1.03625552686483,1.05652313028981,1.07644559004246,1.1279391084888,1.18272107914648,1.18241428477107,1.17198327600741,1.18522337077085,1.25446302636933,1.2120678786185,1.23323669052122,1.25165394036956,1.24334173026102,1.25831713071032,1.29006076124017,1.29507493181314,1.34561930516058,1.36019203799216,1.35811158863397,1.35984689431984,1.41928830455393,1.36390233246968,1.35868682808785,1.43800276145343,1.43803152342613,1.46329412277562,1.4622778664071,1.44934456601907,1.50298564509322,1.51205525381603,1.50853670582314,1.51635037507166,1.58809232229451,1.4961211209436,1.49410778285503,1.49246835041148,1.55292601701409,1.54424948858476,1.51753920327634,1.5057659691203,1.4975592195783,1.51596688210241,1.54920613521234,1.58093059109373,1.60975967505726,1.59926155502398,1.57493851344916,1.57465089372222,1.61236742724818,1.60098727338562,1.60052708182252,1.62373799378651,1.62341202476264,1.62374758111074,1.67257582342077,1.60828322712564,1.63164753627733,1.58344247004233,1.57357711340832,1.58919486458111,1.6790472672769,1.63438951100748,1.63401560536246,1.65064961290378,1.64933614948409,1.63821485337578,1.5733278429783,1.56406648777086,1.57365381200217,1.58055668544871,1.58584888842439,1.53430743335689,1.49367635326462,1.48820199112855,1.44016949672971,1.44123368971938,1.37683563285771,1.37430457926064,1.44795440400553,1.33872601903827,1.31052011114977,1.30224625033816,1.28679148367729,1.3014025658058,1.29882357558758,1.29898656009951,1.41546296218564,1.44342918696835,1.4466601152343,1.42785937241671,1.38748715007869,1.29523791632507,1.24826002759168,1.23424335956551,1.22302619021488,1.16956727030113,1.18932674554185,1.13543639603768,1.13600204816733,1.1071442022311,1.08003124930497,1.08836263406197,1.06393413192061,1.06522842069183,1.07149853073911,1.01255566136504,1.01152023034806,1.00922885985678,1.08196788879969,0.999612773652782,0.970304323477683,0.961397699266801,0.96007464852288,0.964839548665839,0.945197997513164,0.937813840390213,0.946865233196988,0.935208964396568,0.920130979577995,0.921202842427054,0.920479958180014,0.909455494046436,0.915708346910094,0.915874207619295,0.922633271202365,0.923122224738162,0.923070453187313,0.923350403054867,0.9246283933749,0.923024434031002,0.912183087790243,0.914367080250134,0.914527188564797,0.935696000467518,1.05240058087035,0.960534840085983,0.961263476727562,0.965970852925133,0.968770351600674,0.970448133341152,0.973142171450149,0.977724912432713,1.21808871823576,1.08410586210327,1.10208209503697,1.06170987269894,1.00620885272392,1.00117550750248,1.00028388634897,1.00109880890863,1.00259443148872,1.00271906670372,1.002067128656,1.00571031186389,1.00574866116082,1.0058349470789,1.00488580198,1.00374491039647,1.0030162737549,1.00295874980951,1.0028341145945,1.00306421037605,1.00311214699721,1.00345729066954,1.00258484416449,1.00236433570717,1.0025273202191,1.00293957516105,1.0036298625057,1.00691831471704,1.00746479219822,1.00908504999331,1.01157775429345,1.01266112193159,1.01239267685311,1.01244061347427,1.01169280218423,1.01270905855274,1.00997667114682,1.01630430513948,1.0126035979862,1.01449230085977,1.01633306711218,1.01672614740566,1.01694665586298,1.01789580096188,1.01939142354196,1.02003377426546,1.02035015596509,1.02623677304312,1.37949132166978,1.38052675268676,1.0404739495266,1.04162442843436,1.393095734754
