0.881501591059099,0.883057806483455,0.883567915297847,0.882480578088223,0.881343380618545,0.881933074078791,0.881249413205368,0.882429758977015,0.882820970248202,0,0.883709825268768,0.885086735527163,0.884825928013038,0.884833598822277,0.884973591090889,0.896628426878351,0.894258146823509,0.890498491445258,0.890504244552187,0,0.891570487036404,0.891602129124515,0.883488330651993,1.03662357204304,0.960855153785103,0.901208858845172,0.901608699776753,0.902225241069335,0.901974980917914,0,0.906491169857358,0.907344547385194,0.908172994783003,0.906390490486097,0.916320353045945,0.916468016123795,0.919395388699618,0.919660990469517,0.916376925264082,0,0.914680717571115,0.940783522560179,0.920564228257406,0.908336958330486,0.907961088677776,0.905794085067767,0.931777992513627,0.956363894975685,0.920691755461004,0,0.919857554956266,0.916891828334248,0.924335389849515,0.927103593133629,0.976148829705302,0.908403119060172,0.895750119220488,0.894684835587426,0.881209141456863,0,0.883143144236239,0.870579317553959,0.870200571347785,0.860475902935078,0.905792167365457,0.90975701689085,0.906392408188406,0.906356930695676,0.976810437002164,0,0.974653021903703,0.906413502913814,0.909550863892553,0.909714827440036,0.983407332947679,0.93440812123144,1.26758204971692,0.947912580896649,0.949743027751298,0,0.949109227137928,0.945613255827267,0.945783931332834,0.946556765363661,1.08029924214744,1.06834236824619,1.09396287110435,0.98892072708819,0.959915479653329,0,0.991174027302137,1.11880670452707,1.00988121333368,1.07333798276307,1.05561841342105,0.982534778396746,0.983014203974181,0.983186797182058,0.983973055129053,0,0.984481246241135,0.982103295377054,0.9892179709462,0.987376976728847,0.983982643640602,0.984049763221443,0.985353800792068,0.98705096733619,1.20821957471883,0,1.30746066924802,1.11353302317528,1.12944995234615,1.18949321166419,1.00178850958656,1.00325555185352,1.00332267143436,1.00323637483042,1.00356238422308,0,1.10913189637442,1.0730886814628,0.997742157713007,1.00282406883383,1.00268024116059,1.24280533587504,1.22806779362467,1.21948607578857,1.24601748724386,0,1.09554497550989,1.09519978909414,0.989965874846999,0.9873482111942,0.985392154838263,1.25781135644878,0.976292657378533,0.974087299722329,0.973358572844626,0,0.978593900150225,0.979006206146819,0.978833612938942,0.970817617284217,0.971009387515192,0.971805233973735,0.96967658440992,0.970434076822269,1.32888140404785,0,1.0768473779899,1.38856029992705,0.987166029474775,0.986303063435391,0.98608252766977,0.986351005993134,0.986561953247206,0.974921500227067,0.975036562365651,0,0.973617462656442,0.974902323203969,0.976158418216851,0.992909547892455,0.982784079697013,0.984490834752684,0.985641456138529,0.981182798268377,0.981566338730326,0,0.97407771121078,0.97922674191244,0.977970646899558,0.978488426523189,0.978421306942348,0.96728904503429,0.967173982895706,0.979437689166511,0.977721345599291,0,0.979600693862839,0.980943085479659,0.983541572109361,0.984951083307022,0.986216766831452,0.992708189149932,1.33272639717889,0.996764129535038
0.880556163820396,0.882810422885498,0.883703113310684,0.883449017754643,0.883337791020678,0.882250453811054,0.879365270686046,0.88164733643464,0.88466675872133,0,0.885265081841969,0.884396362695656,0.886555695496426,0.89252837934012,0.893590786419718,0.895240010406097,0.886498164427134,0.887359212764209,0.892989586745614,0,0.893620510805519,0.89346134151381,0.882749056411587,1.03837826965646,0.899457037785221,0.900436024814345,0.897021555851848,1.01005380654156,0.90412568405829,0,0.906686775492952,0.907374271770995,0.903926243018077,0.910585464288659,0.916830461860337,0.91766562121623,0.916859227394983,0.917183319085329,0.913232852327259,0,0.957916274995422,0.936633614761896,0.921319802967445,0.916949359403541,0.904872629107935,0.909701403523868,0.909903721117545,0.912968209408515,0.915847639426593,0,0.917035656007479,0.917161265508767,0.923256682300285,0.922047570993992,0.922852047112929,0.914886870569412,0.894500736165691,0.897306334644845,0.879373900346439,0,0.878776536076954,0.877338259344647,0.910735045068819,0.861460643071131,0.906335835970269,0.968209542142967,0.905965719424489,0.878349847313037,0.974902323203969,0,0.968247896189162,0.903223405121556,0.907665762522076,0.966934270106988,0.970587493007048,0.977999412434204,0.983829227455822,1.08308949900811,0.949760287072086,0,0.945190402467969,0.94507054607361,0.943327354674053,0.943774179312224,0.943845134297684,1.10017622658792,1.09937079161783,0.956682233559103,1.12081070344075,0,1.01091677258094,1.01472341166578,1.0160274492364,1.01427275162299,0.981038970595146,0.982180003469443,0.982141649423249,0.982947084393341,0.98317720867051,0,0.983877170013566,0.987319445659554,0.988498832580046,0.988690602811021,0.986446891108621,0.984548365821976,0.985219561630386,0.987923521887123,0.987492038867431,0,1.22566107722594,1.12573919837679,1.31104677256724,1.00157756233249,1.0026610641375,1.00325555185352,1.00346649910759,1.00381168552334,1.13006361708526,0,1.10866205930853,0.997099727439243,1.00040776392355,1.0011460793128,1.00180768660966,1.0026610641375,1.00312131269184,1.2729707932073,1.27384334775823,0,0.995958694564946,0.994271116532372,0.992880782357809,0.987702986121503,0.987990641467964,1.26606706489223,1.26776423143635,1.29296283978637,0.978661019731065,0,0.977836407737876,0.977165211929466,0.979610282374388,1.08536197624516,0.97094226793435,1.32777872521975,1.326647280857,1.32752942391948,1.07101756296828,0,1.07241748565439,0.988690602811021,0.988134469141195,0.987683809098406,0.987492038867431,1.1159589165971,0.973157214102103,0.972706554059314,0.972581903409181,0,0.972380544666658,0.972936678336483,1.20749084784113,0.997627095574422,0.982841610766305,0.983570337644007,0.984989437353217,0.985459274419104,0.982477247327454,0,0.979178799354696,0.979236330423988,0.979313038516378,0.978450072476994,0.968525963024074,0.967221925453449,1.12346672113975,0.977299451091148,0.980166416044214,0,0.981029382083598,0.98272654862772,0.984481246241135,0.986360594504683,0.987213972032518,0.99078089832864,0.993130083658075,0.995901163495654
1.09983104017217,0.882149774439792,0.883626405218294,0.883380939322647,0.882892884084817,0.880425760063333,0.880047972708314,1.18996304873008,0.887002520134596,0,0.887485781116652,0.890746833894369,0.890405482883235,0.891920467707932,0.891807323271657,0.891948274391423,0.889344993505947,0.890280832233102,0.892026900186123,0,0.893728860986019,0.885267958395434,0.972696965547765,0.898108893061472,0.89954141668685,0.890313433172367,0.890150428476039,0.910228771659047,0.909062808654723,0,0.908083821625599,0.907415502370654,0.903767073726368,0.901115850283149,1.0399411970389,0.916749918363327,0.907736717507536,0.911755262697602,0.911949909482041,0,0.952590815681266,0.952963808780511,1.05754570424234,1.06058526240328,0.94055531598532,0.933518307359719,0.934487705877294,1.00957438096412,0.924168549748568,0,0.914961660959492,0.917523711245309,0.961190751689308,0.924304706612559,0.96207289475179,0.936456227298245,0.898052320843335,0.891299132159575,0.877963430297624,0,0.882228400234492,0.917272492242732,0.900378493745053,0.872264019033068,0.967701351030885,0.906568836800903,0.908161488569144,0.994491652297993,0.969542345248238,0,0.964287840919543,0.981201975291475,1.06391247591068,0.970597081518597,0.97265861150157,1.05235831949448,1.05198436754408,0.989572745873502,0.990589128097666,0,0.984989437353217,0.984711370518304,0.94410018870488,0.94313174903846,0.943013810346411,1.08901519914522,1.08965762941898,1.08955215579195,1.00097348610492,0,1.01108936578882,1.01218245610537,0.977500809833671,1.25442661187209,1.1264295712083,0.98197864472692,1.11677394007875,1.11628492598976,0.983790873409628,0,0.983953878105956,0.98690713966296,0.98757833547137,0.989074143272969,0.984788078610694,0.985248327165032,0.987472861844334,0.987223560544067,0.987281091613359,0,1.08141150948709,1.22048328098964,1.00251723646427,1.00130908400913,1.00256517902201,1.00286242288002,1.0037829199887,1.17510085582957,0.99958315193036,0,0.997838042828494,0.998403765009868,1.09392451705816,1.07321333211294,1.00098307461647,1.0026227100913,1.00354320719998,1.00405139831206,1.00015846262328,0,0.999842041742175,0.998010636036371,1.26015095326667,1.0981242851165,1.09912149031756,1.2748405529593,1.05028720099996,1.20255276439354,1.30673194237032,0,0.978133651595886,0.97765422601845,0.98197864472692,0.981201975291475,0.981201975291475,1.06387412186449,1.06723010090654,1.06726845495273,0.986983847755349,0,0.989294679038589,0.989371387130979,0.98914126285381,1.47623764952849,0.975132447481138,0.974413309114985,0.974106476745426,0.973253099217591,0.973291453263786,0,0.973425692425468,0.972447664247499,1.21345490202443,1.14384230818077,1.14703528252649,0.984126471313832,0.984768901587596,1.35793459404046,1.12281470235444,0,0.978450072476994,0.977826819226327,0.979140445308501,0.979552751305096,1.12319824281638,0.976110475659107,0.975928293939682,0.97869937377726,0.979207564889342,0,0.980291066694347,0.983081323555023,0.98399223215215,0.98548803995375,0.988585129183985,0.98981245866222,0.994846427225295,1.00012969708864
0.878111093375474,1.15551152673555,0.880908062194234,0.884017616489482,0.880937786580035,0.881071066890562,0.88160610583498,0.885244945967717,0.886337077433116,0,0.887877951238994,0.890907920888388,0.890590541156125,0.88914075820996,0.892414276052691,0.89215826279434,0.889567446973877,0.890603965072293,0.890547392854156,0,0.890658619588121,0.88160802353729,1.00553761760211,0.899898109316462,0.90002371881775,0.890358499176646,0.891658701342652,0.90546999337742,0.905574508153301,0,0.907174830730781,0.966972624153183,0.89730537579369,0.900910656136006,0.901383369755358,0.903779538791382,0.904673188067722,0.910311232858366,0.909967964144922,0,0.916083516810692,1.00014887411173,0.994932723829233,0.997991459013273,0.971124449653776,0.975247509619723,0.930160410615359,0.92996576383092,0.928140111232045,0,0.922218246499559,0.936985513135734,0.998125698174955,0.941770180398542,0.93556353687306,0.931407875967847,0.929185258990855,0.908149023504131,0.956588266145925,0,0.881036548248986,0.913544478952592,0.914437169377778,0.936762100816649,0.937396860281174,0.906913064365502,0.908202719168804,0.990819252374835,0.968439666420136,0,1.05131317173567,0.942713689934936,0.943170103084655,0.96005930732656,0.987041378824642,1.05278980251417,0.996006637122689,1.02688164430955,0.990301472751204,0,0.992842428311614,0.986101704692868,0.985181207584191,0.944267987656982,0.94398416771514,1.00661153089557,1.08905355319141,0.991864400133645,1.00766626716593,0,1.09612987471436,1.44363671026286,0.976647432305835,1.10500883640847,1.01082088746545,0.97974452153607,1.02442698535308,1.02342019164046,1.12815550328707,0,1.20328149127124,1.12659257590463,0.98683043157057,0.988863196018897,0.984212767917771,0.984701782006755,0.986561953247206,0.986916728174508,1.30880306086484,0,1.12725418320149,1.18411405668536,1.00205698790993,1.00279530329918,1.00117484484745,1.00182686363276,1.18333738724992,1.00055159159678,0.998231171801991,0,0.998279114359735,0.99652441674632,1.25162676649986,1.24650650133285,1.23923840957892,1.00152961977475,1.00272818371834,1.00352403017688,1.00375415445405,0,1.00516366565171,1.17559945843011,1.17539809968758,1.09344509148072,1.12983349280809,1.04688327940017,1.04782295353194,0.990311061262753,0.98720438352097,0,0.985612690603883,0.984845609679986,0.983110089089669,0.980684195667844,0.981355391476254,1.24898992582397,1.06665479021362,1.43019361707157,0.987118086917031,0,0.988824841972702,0.989678219500538,1.05714298675729,0.977462455787476,0.971977827181612,0.969801235060053,0.969724526967664,0.970453253845366,0.973291453263786,0,0.974192773349364,0.964537142219809,0.965467227840034,1.15906886452012,1.19324231967974,1.37598017277514,1.04079457456673,1.11289059290152,0.973588697121796,0,0.973435280937016,0.97496944278481,0.979082914239209,0.977759699645486,0.97593788245123,0.976704963375128,0.977222742998758,0.97855554610403,0.979389746608768,0,0.981221152314572,1.15407325000324,0.987338622682652,0.987194795009421,0.987827636771636,1.16376723517899,1.05602113090609,1.16694103250162
0.887919181838653,1.10746349536494,0.879963593806685,0.880662596298587,0.881423924115555,0.882188128485987,0.884987973858212,0.885100159443332,0.88633995398658,0,0.897703299022962,0.898201901623495,0.896597743641395,0.895244804661871,0.896419397326589,0.901067907725405,0.891125580100544,0.891156263337499,0.891203247044088,0,0.888295051491363,0.882775904243923,1.02139701570368,0.897993830922888,0.9001416575098,0.8877609713981,0.889184865363084,0.901799511156572,0.904347178675066,0,0.904362520293544,0.901502267298562,0.891290502499181,0.897065663004972,0.897031144363397,0.903964597064272,0.906760607031877,0.916263780827808,0.914209921654073,0,0.98428947601016,1.01299747958701,1.00152961977475,0.978248713734471,0.980003411347885,0.971335396907848,0.969734115479212,0.932984227266455,0.930189176150005,0,0.931218982290337,0.937279880440279,0.93824640240439,0.942891077398587,0.990685013213153,0.937543564507869,0.936933735173371,0.910864489974727,0.92060641770822,0,0.904317454289265,0.884952496365481,0.89081395347521,0.884002274871004,0.892127579557384,0.924111018679275,0.994577948901931,0.969053331159254,1.05137070280497,0,1.05124605215483,0.94298025055599,0.958317074778158,0.958831018997169,0.970146421475807,1.05144741089736,1.0518884824286,1.04439985490905,1.05688409694548,0,1.00786762590845,0.988719368345667,0.990742544282445,1.00315966673803,1.00459794347034,1.00553761760211,1.00361991529237,1.00347608761914,1.00359114975772,0,1.09481624863219,1.10239117275567,0.999976280903857,0.99920919997996,0.998585946729293,0.997838042828494,1.12640080567365,1.02458999004941,1.04607784443008,0,1.12935406723066,1.04674904023848,1.08947544769956,1.17173528827598,1.14258621316788,0.982956672904889,1.18467977886674,0.999180434445314,1.12913353146504,0,1.19919678535149,0.999343439141642,1.00086801247789,1.0928506037647,1.00279530329918,1.00351444166533,0.999544797884165,1.00123237591674,1.000398175412,0,1.2528157419319,1.08356892458555,1.08288814026559,1.19869818275096,1.20095148296491,1.18315520553049,1.00175015554037,1.00197069130599,1.00319802078422,0,1.00480889072441,1.05472668184702,1.13225938622992,1.23626597099882,1.23557559816731,1.05577182960583,1.11789579592994,0.989409741177174,0.989409741177174,0,0.985018202887863,0.983723753828787,0.983599103178653,0.982381362211967,0.982736137139269,1.44285045231587,1.37055307523856,1.45134587354803,0.987492038867431,0,0.988508421091595,0.980799257806429,0.980003411347885,0.979859583674655,0.973454457960114,0.969590287805982,0.969580699294433,0.97109568411913,0.972447664247499,0,0.974720141484544,0.96416319026941,0.964297429431091,1.15310481033682,0.974653021903703,0.976580312724994,1.05005707672279,0.972236716993427,0.972783262151704,0,0.972936678336483,0.973665405214185,0.975113270458041,0.975726935197159,0.975094093434944,0.976100887147559,0.976139241193754,0.978056943503496,0.979533574281998,0,0.980904731433464,1.22756919102414,0.990512420005276,0.990819252374835,0.986619484316498,0.980636253110101,0.982343008165772,1.05659644159901
0.884904553807738,0.88440115695143,0.883377103918027,0.883550655977059,0.883508466526245,0.884336913924054,0.981748520449751,0.985651044650078,0.98302379248573,0,0.897962188834777,0.897780965966506,0.986561953247206,1.12661175292773,0.903763238321749,1.00279530329918,0.980080119440275,1.03270187081962,0.88831998162139,0,0.876398585212873,0.875769578855278,1.00674577005725,1.00082006992014,0.884121172414208,0.890599170816519,0.892097855171583,0.899201024526871,0.901013253209578,0,0.8995807295842,0.900056319757016,0.900116727379773,0.897473174745792,0.936381436908165,0.936062139473593,0.934002527192929,0.9470467383038,0.993705394350998,0,0.997214789577827,1.04178219125625,1.04241503301847,0.978354187361507,1.0261433289203,0.979926703255496,0.97698303021004,0.977126857883271,0.953479670701832,0,0.94379719173994,0.954075117269007,0.987022201801544,0.976513193144154,1.01996832748293,1.00502942649003,1.00438699621627,0.990148056566425,0.990157645077974,0,0.934377437994484,0.981364979987803,0.89264631803217,0.892397016731903,0.893742284902188,1.07413382922161,1.15246238006306,0.97631183440163,1.05068032997346,0,1.00315007822648,1.01302624512166,1.01329472344502,0.972601080432278,0.972083300808647,0.973368161356175,1.26762999227467,1.04447656300144,1.0115592028547,0,1.01156879136625,1.07256131332762,0.996044991168884,1.00371580040786,1.07952257271199,1.08290731728869,1.02187644128112,0.969849177617797,1.03349771727816,0,0.999362616164739,0.972869558755642,1.1104263454335,1.01103183471952,1.01957519850943,1.02478176028038,1.05586771472131,1.05564717895569,0.968439666420136,0,1.13035127243172,0.976254303332338,0.975909116916584,0.979504808747352,0.98033900925209,0.982774491185464,1.12315030025864,1.21727112962082,1.20595668599334,0,1.11441516623776,1.21455758085253,1.12884587611858,1.0768090239437,1.07745145421747,1.07861166411486,1.21881487998016,1.21841216249512,1.26428360174416,0,1.23463592403554,0.986859197105216,1.08658930572339,1.20304177848253,1.19947485218641,1.20953320080101,1.23169225099008,1.06086332923819,1.2356906603059,0,1.14817631540078,1.13116629591337,1.10348426307223,1.1040691622767,1.05034473206925,1.00386921659264,1.00232546623329,0.996361412049992,0.989937109312353,0,0.982764902673915,0.982956672904889,0.983263505274448,0.98317720867051,0.984356595591002,1.46035907440382,1.15018990282601,1.15912639558942,1.14592301518684,0,0.983493629551617,0.98086637738727,0.979658224932132,0.978804847404296,0.977472044299025,0.973022974940421,0.972744908105509,1.52451580517627,0.984049763221443,0,0.979629459397486,0.983436098482325,1.00181727512121,0.977692580064645,0.975573519012379,0.976359776959374,0.975142035992687,0.972198362947232,0.972975032382678,0,0.97348322349476,0.973262687729139,0.972668200013119,0.973128448567457,0.975055739388749,0.97609129863601,0.975880351381938,0.979849995163106,0.988153646164292,0,0.993676628816352,1.0026227100913,1.26337269314704,0.992775308730773,1.11548907953122,1.05873467967438,1.06052773133399,1.15706486560644
0.884333078519434,0.88332053169989,0.882677142574971,0.88347394788467,0.883763520933441,0.977193977464112,1.01622880797893,0.976484427609507,0.975822820312646,0,0.918227507992984,0.920593952643207,0.990176822101071,0.912706443043235,0.913285589140777,0.913322025484662,0.905306029829937,0.905474787633194,0.87228415490732,0,0.873926666935615,0.874421434131529,0.884128843223447,0.883915978267065,0.885102077145641,0.885541230974572,0.892798775365794,0.898837619939174,0.901169545947822,0,0.959819594537842,0.899309374707371,0.89920869533611,0.899788800284807,0.933874999989331,0.936298975708846,0.936465815809794,0.953509395087633,0.99040694637824,0,0.987415330775042,0.982592309466038,1.02327636396723,1.05214737224041,0.984318241544807,0.984078528756089,0.985171619072642,0.954294694183473,0.955038762679653,0,0.964287840919543,1.00368703487321,1.06046061175315,1.01723560169154,1.00370621189631,1.00482806774751,1.00539378992888,1.0138412686033,0.990838429397933,0,0.990464477447533,0.951307872836048,0.92150582009149,0.922136744151395,1.00045570648129,1.04308622882688,0.994184819928434,0.996946311254463,1.05174465475537,0,1.07969516591987,0.976024179055169,0.975650227104769,0.969628641852177,0.967806824657921,1.09917902138685,1.05095839680837,1.00782927186225,1.01028393081872,0,1.01173179606258,0.979533574281998,0.979658224932132,1.07450778117201,1.06606989100914,1.08590852140343,0.971632640765858,0.971565521185017,0.971220334769263,0,1.03432232927135,1.01308377619095,1.04006584768903,1.17871572468344,1.02342978015201,0.958299815457371,0.960011364768816,1.05729640294207,0.966598672202783,0,1.19991592371765,0.974576313811313,0.976052944589815,0.978191182665178,0.980923908456562,0.98220876900409,1.07753775082141,1.07581181874264,1.23324558986098,0,1.17569534354559,1.20465264842271,1.077950056818,1.12054222511739,1.07664601924738,1.07530362763056,1.26354528635491,1.26409183151319,1.26433154430191,0,1.23410855590036,0.982256711561833,0.982975849927987,0.984692193495207,1.07506391484184,1.22236262925319,1.22475975714036,1.22159554832929,1.2226406960881,0,1.22408856133195,1.26740945650905,1.0085867642746,1.00949767287173,1.00959355798722,1.22174896451407,1.00310213566874,1.04689286791172,1.04944341198367,0,0.980300655205895,0.981345802964705,0.983359390389935,0.983656634247946,0.983205974205156,0.973598285633344,1.17591587931121,1.13868368896756,0.979293861493281,0,1.24159718341991,0.980502013948419,0.979514397258901,0.977328216625794,0.97743369025283,0.974700964461446,0.975237921108174,1.52645268450911,1.53762330046336,0,0.981595104264972,0.980176004555762,0.980051353905629,0.980166416044214,0.976561135701897,0.976273480355436,0.974058534187683,0.975784466266451,0.9742982469764,0,0.973790055864318,0.973531166052503,0.973636639679539,0.973464046471662,0.973387338379273,0.980722549714039,1.1420971990789,1.14853109032809,1.32832527037803,0,0.994971077875428,1.13937406179906,0.999784510672883,1.00371580040786,1.0577950055426,1.0425396836686,1.14977759682942,1.14711199061888
0.883695442501445,0.88145652505482,0.881934032929946,0.883442305796559,0.979917114743947,0.980645841621649,0.944288123531235,0.960529144392447,0.919297585881821,0,0.919023354451528,0.919243890217148,1.22769384167427,0.908787618373275,0.912574121583862,0.913487906734455,0.896529665209399,0.88921363089773,0.872304290781572,0,0.872960144971504,0.890332610195465,0.890064131872101,0.883775985998454,0.883907348606672,0.885431921942917,0.894257187972354,1.04609702145317,0.948594324067762,0,0.939992470357411,0.909807836002058,0.940977210493464,0.948653772839364,0.939966581376229,0.940121915263318,0.942508495787793,0.967221925453449,0.994923135317685,0,1.056299197741,1.05718134080349,1.01107018876572,1.0171684821107,1.01751366852646,0.996610713350258,0.999477678303324,0.988834430484251,1.00099266312802,0,1.04119729205178,1.01322760386418,1.05840867028172,1.0589743924631,1.02903905940801,1.04954888561071,1.01026475379563,1.00149126572855,0.986859197105216,0,1.01253723103267,0.949896443936078,0.989505626292661,0.974662610415251,0.962178368378826,0.972994209405775,1.04545459117941,1.03717011720132,1.04190684190638,0,1.09079866229328,0.974442074649631,0.975170801527333,0.968017771911993,0.987827636771636,1.06320292605608,1.06472749939232,1.00715807605384,1.00696630582287,0,1.02895276280407,1.02478176028038,0.979686990466778,1.07865960667261,1.08041430428602,1.0574594076384,0.973262687729139,0.97273531959396,0.97139292797714,0,1.03658521799685,1.03296076063143,1.0198244998097,1.01935466274381,0.957362059027906,0.957569170877359,0.959004571056201,1.24700510393338,1.11183585663116,0,1.16519592339975,1.12315988877019,1.11636163408215,1.11916147945437,1.12069564130217,0.980223947113506,0.981182798268377,1.25548134814244,1.01100306918488,0,1.01084006448855,1.16192624096164,1.12613232735029,1.26162758404517,1.26432195579036,1.22960195547247,1.08538115326825,1.22511453206767,0.979619870885937,0,0.980933496968111,0.982151237934797,0.984970260330119,1.05300074976825,1.3084195204029,1.07528445060746,1.07953216122354,1.22640898112674,1.22431868560912,0,1.20652240817471,1.05424725626958,1.00992915589142,1.01033187337647,1.01053323211899,1.29211905077008,1.00562391420605,1.22847051110972,0.992439710826568,0,0.98019518157886,0.979380158097219,0.974710552972995,0.978718550800358,0.979044560193014,0.979159622331598,0.973013386428873,0.973866763956708,1.20987838721676,0,0.979830818140008,0.978066532015045,0.976714551886676,0.977941881364912,0.977395336206635,1.52047904181426,1.52431444643375,0.985622279115432,1.02179014467718,0,0.980914319945013,0.980856788875721,0.97982122962846,0.976829614025261,0.973742113306575,0.97281202768635,0.973377749867724,0.974125653768524,0.975429691339149,0,0.97378046735277,0.974643433392154,0.976110475659107,0.976378953982472,1.15080356756513,1.15304727926753,1.14180954373244,1.12036004339796,1.12078193790611,0,1.12473240466418,1.13329494547718,1.03411138201728,1.00850046767066,1.04082334010138,1.03624962009264,1.30181303594583,1.14198213694031
0.883284095356005,0.881335709809306,0.961075689550724,0.963865946411399,1.16306727383594,0.971325808396299,0.971517578627273,1.18250318674518,0.91826202663456,0,0.919760710989624,0.911126256340007,0.904894682684497,0.904774826290138,0.905036592655418,0.920154798814276,0.890905044334923,0.88839093660685,0.880167829102673,0,0.880918609556937,0.885462605179873,0.887917264136344,0.886391731948943,0.884895924147344,0.922238382373811,1.04261639176099,1.01667946802172,1.00347608761914,0,0.931168163179129,0.922211534541475,0.910083026283506,0.946705387292666,0.940190952546469,0.9412993844815,0.941481566200926,1.0369687584588,1.00261312157975,0,1.19793110182706,1.16093862427212,1.21459593489873,1.06187971146236,1.02082170501076,1.0063622295953,1.01087841853475,1.00355279571153,0.995901163495654,0,1.04304787478068,1.13635368066122,1.11213310048917,1.09931326054854,1.07655972264344,1.07896643904216,1.04901192896398,1.00360073826927,1.00350485315378,0,1.00768544418902,1.00996750993762,1.00159673935559,1.05285692209502,1.05298157274515,1.03953847955385,1.00853882171686,1.03977819234257,1.0689752100084,0,1.0649192696233,1.01961355255562,1.05286651060656,1.08978228006911,1.06965599432836,1.06609865654379,1.06508227431963,1.1226708746812,1.10366644479165,0,0.997512033435837,1.06973270242075,1.07545704381534,1.06034554961456,1.04591483973375,1.04572306950277,1.03416891308657,1.24250809201703,1.17346122035474,0,1.0354537736341,1.03719888273597,1.02443657386463,1.12322700835103,0.957513557510376,0.95692578175244,0.958046678752485,1.0760611200429,1.07523650804972,0,0.96043325927696,1.18905214013295,1.05787171363499,1.16529180851524,1.1663465447856,0.977980235411107,0.979706167489875,1.27264478381464,1.07190929454231,0,1.0738749394098,1.14016990825761,1.37265295926773,1.22529671378709,1.26484932392554,1.26233713389978,1.26418771662868,1.26491644350638,0.977989823922655,0,0.980780080783331,0.98451960028733,0.986638661339596,0.986120881715965,1.18495784570165,1.16677802780529,1.36015912871976,1.21060711409446,1.0548225669625,0,1.13445515537457,1.00939219924469,1.01048528956125,1.0112044279274,1.01075376788461,1.00311172418029,1.00320760929577,1.00086801247789,0.989333033084784,0,0.986955082220703,0.979773287070716,0.977893938807168,0.978344598849958,0.977567929414512,1.13604684829166,0.972581903409181,0.974010591629939,0.977107680860174,0,0.978919909542881,0.97751039834522,0.976935087652297,0.977021384256235,0.988192000210487,0.987587923982918,0.9873482111942,0.987290680124908,0.986945493709155,0,0.983905935548212,0.978939086565978,0.980137650509567,0.976177595239948,0.971488813092627,0.972323013597365,0.972706554059314,0.975448868362246,0.975851585847292,0,0.976225537797692,0.97512285896959,0.974863969157775,1.0872796785549,1.11727254267928,1.15331575759089,1.20176650644655,1.10946749427862,1.11588220850471,0,1.1234571326282,1.04260680324944,1.02835827508805,1.01880811758553,1.05022966993067,1.0574210535922,1.0592908133442,1.03592361069999
0.883890089285884,0.970760086214925,0.970654612587889,1.11211392346607,0.911528014973898,1.07847742495318,0.907321534957477,0.910077273176577,0.911242277329746,0,0.913303807312719,0.913212716453007,0.904920571665679,0.904036510900887,0.915198497194746,0.885129883829132,0.886614185416874,0.923054364706607,0.922494395632162,0,0.879628954753635,0.999870807276821,1.00104060568576,0.977002207233138,1.05025843546531,0.927493845553662,1.00719643010004,1.00462670900498,1.00326514036507,0,0.948442825585293,0.954994655526529,0.956715793349523,0.919869061170124,0.93790984564903,0.944377296688638,0.981364979987803,0.98220876900409,1.01027434230718,0,1.16233854695824,1.1607564425527,1.15018990282601,1.15148435188509,1.08285937473094,1.08002117531252,1.02818568188017,1.03454286503697,1.03930835527668,0,1.10832646140433,1.10283224428691,1.11458775944564,1.17987593458083,1.10066524067691,1.07038472120607,1.04613537549937,1.04688327940017,1.02646933831295,0,1.00832787446279,1.00474177114357,1.0484653838057,1.04742982455844,1.04644220786893,1.06584935524352,1.07379823131741,1.03703587803964,1.08262925045377,0,1.12955542597318,1.16687391292078,1.03452368801387,1.04225202832214,1.05084333466979,1.19058630198075,1.02650769235915,0.996160053307469,0.989985051870097,0,0.99257394998825,0.993101318123429,1.13926858817203,1.06967517135146,1.07439271903343,1.05315416595303,1.13579754699139,1.04389166379697,1.08731803260109,0,1.06386453335294,1.08994528476544,1.0399411970389,1.08992610774235,1.0898589881615,1.08971516048827,1.09013705499642,0.955685987209191,0.956276639520592,0,0.957983394576263,0.961977009636303,1.16301933127819,1.12031210084022,1.15718951625658,1.09938038012938,0.998307879894381,1.07899520457681,1.26483973541399,0,1.00350485315378,1.26544381164156,1.26396718086306,1.3747911973431,0.970577904495499,0.971460047557981,0.973521577540955,0.976532370167251,0.977472044299025,0,1.29436276247248,0.984164825360027,0.98481684414534,1.22156678279464,1.07977187401226,0.976973441698492,1.2752145049097,1.19015481896105,1.21907376979198,0,1.21851763612215,1.01011133761085,1.01147290625077,1.01214410205918,1.00533625885959,1.00584444997167,1.00509654607087,1.00177892107502,1.45090480201679,0,1.43943694220453,1.25774423686794,1.26119610102548,1.23582489946758,1.24278615885195,1.10301442600634,0.983618280201751,0.97944727767806,0.979341804051024,0,0.978459660988542,0.979456866189609,0.978018589457302,0.988355004906815,1.36819430139758,0.98541133186136,0.986274297900744,0.987539981425175,0.989476860758015,0,0.979639047909034,0.980223947113506,0.982784079697013,1.11219063155846,1.05590606876751,1.0622824289474,0.973722936283478,1.0716312277074,0.97631183440163,0,1.09284101525315,1.15741964053374,1.15223225578589,1.13729335479299,1.08955215579195,1.09019458606571,1.0962545253645,1.66925438700411,1.10901683423584,0,1.11504800799998,1.11572879231994,1.04905028301018,1.0481297859015,1.16005648120964,1.12300647258541,1.03762077724411,1.03679616525092
1.16230978142359,0.910034124874608,0.910047548790776,0.909703321226177,0.909885502945603,0.907101958043011,0.908581465374978,0.90931019225268,0.910468484447765,0,0.911017906159506,0.912110037624905,0.890922303655711,0.964105659200117,0.880317409882833,0.879752646552614,0.883950496908641,0.883487371800838,0.883669553520263,0,0.939120874657633,0.938156270395832,0.937020031777309,0.931414587925931,1.07253254779298,0.944053204998291,1.01314130726024,1.00724437265778,1.03646056734671,0,0.965467227840034,0.98399223215215,1.00695671731132,1.00455958942414,0.971325808396299,0.971201157746166,0.98750162737898,1.01761914215349,1.03209779459205,0,1.14417790608497,1.15615395700931,1.1391247604988,1.13330453398873,1.08258130789603,1.04670109768074,1.03991243150425,1.03949053699611,1.02186685276957,0,1.04914616812566,1.1051910181279,1.18211005777168,1.18948362315264,1.19286836772934,1.21543013540347,1.12350507518594,1.09645588410702,1.06040308068385,0,1.09006993541558,1.17294344073111,1.08585099033414,1.11737801630631,1.10015704956482,1.21208374487296,1.16859984499955,1.07268596397776,1.20593750897024,0,1.12209556398828,1.0664150774249,1.19593669142493,1.19595586844803,1.11619862938582,1.05364318004201,1.0537390651575,1.06688491449079,1.06638631189025,0,1.13376478254307,1.13229774027611,1.07005871181341,1.07255172481607,1.07381740834051,1.0622824289474,1.09741473526189,1.12844315863353,1.12921023955743,0,1.08066360558629,1.08370316374723,1.03311417681621,1.02921165261589,1.11876835048088,1.11933407266225,1.11098247910332,0.953697329913988,0.954521941907177,0,1.01282488637913,1.16563699493099,1.15187748085859,0.994664245505869,1.05953052613292,1.1715243410219,1.06872590870814,1.26178100022995,1.26256725817694,0,1.26252890413075,1.37236530392127,0.967547934846105,0.968295838746905,0.965179572493573,0.969628641852177,1.25299792365133,0.976733728909774,0.978929498054429,0,0.98019518157886,0.983301859320643,1.3568798577701,1.07739392314818,1.05450614608139,1.04408343402794,1.22538301039103,1.03709340910893,1.23550847858647,0,1.00788680293155,1.00961273501031,1.01276735530984,1.0112044279274,1.00667865047641,1.00468424007428,1.00076253885085,1.0008104814086,1.00017763964638,0,0.998048990082566,1.19819958015043,0.992909547892455,0.990752132793994,0.989649453965892,0.987242737567165,0.983982643640602,0.982285477096479,0.97944727767806,0,0.979600693862839,1.0399411970389,0.989726162058282,0.990876783444127,0.992631481057542,0.987300268636457,0.986983847755349,0.989400152665625,0.990838429397933,0,1.02666110854393,1.03223203375373,1.04070827796279,1.04680657130778,1.58957385603429,1.59093542467421,1.07186135198457,1.34414631443341,1.61996943764372,0,1.05017213886138,1.05162959261678,1.29034517613357,1.06601235993985,1.07632959836627,1.08350180500471,1.08725091302025,1.1088921835857,1.09838317492831,0,1.10350344009532,1.04695039898101,1.047736656928,1.03829197305252,1.04765994883561,1.05898398097464,1.25528957791147,1.20682924054427
0.910752304389607,0.909676473393841,0.909090615338214,0.980003411347885,0.903409422245601,0.911294055292109,0.911175157748905,0.911850188961934,0.903329837599747,0,0.883492166056612,0.883597639683648,0.888924057848959,0.884888253338105,0.88116119889912,0.881257084014607,0.881994440552703,0.883373268513408,0.92627898114044,0,0.93694140598261,0.937047838460801,0.948866637795746,0.950389293429682,0.990263118705009,1.08123891627921,1.00198027981754,1.00267065264905,1.02034227943333,0,1.01237422633634,1.01063870574603,0.977903527318717,0.98011847348647,0.983062146531925,0.99078089832864,1.00777174079296,1.03036227400173,1.05090086573908,0,1.14749553108083,1.17560904694166,1.17693226153538,1.17828424166375,1.11235363625479,1.06061402793793,1.05046938271939,1.10295689493705,1.04752570967393,0,1.0917287479135,1.07596523492742,1.18798781535105,1.18999181426473,1.19031782365738,1.19245606173275,1.13099370270549,1.20518001655789,1.1059005679825,0,1.17392146890908,1.17680761088524,1.17897461449525,1.17244483813058,1.10991815432141,1.09936120310628,1.24642979324046,1.11987102930898,1.09955297333725,0,1.13749471353552,1.10048305895748,1.10327331581816,1.15795659718047,1.09834482088212,1.11683147114804,1.0831662071005,1.12361054881298,1.11308236313249,0,1.01690000378734,1.06890809042756,1.06293444773271,1.07604194301981,1.07213941881948,1.0757063451156,1.07339551383236,1.06251255322457,1.05358564897272,0,1.05443902650055,1.1338702561701,1.14212596461355,0.947361241482598,0.937191666134031,0.937826425598556,1.37371728404964,1.1476873013118,1.14872286055906,0,1.05059403336952,1.16792864919114,1.16736292700976,1.16671090822445,1.30806474547559,1.06670273277136,1.11990938335517,1.26418771662868,1.2245104558401,0,1.3725474856407,1.37303649972968,0.964709735427686,0.966042538532958,0.967615054426947,0.970213541056648,0.972342190620463,1.21442334169085,0.980128061998019,0,0.979849995163106,1.28732479499572,1.35819348385227,1.3542813711404,1.22633227303435,1.14688186634171,1.35697574288558,1.35579635596509,1.35375400300522,0,1.23219085359062,1.20737578570255,1.01442616780777,1.01422480906525,1.0064005836415,1.40486076955986,1.00391715915038,1.00272818371834,1.00008175453089,0,0.998547592683099,0.999324262118545,0.992669835103737,0.99137538604466,0.988028995514159,0.987156440963226,0.983541572109361,0.985008614376314,0.986255120877647,0,0.986571541758755,0.989457683734918,0.990493242982179,1.50613462853738,0.994184819928434,0.994050580766752,0.992027404829973,0.99212328994546,1.03339224365113,0,1.03328677002409,1.57242000887364,1.04352730035812,1.45068426625117,1.03996996257354,1.59502971910551,1.0376783083134,1.03412097052883,1.03663316055459,0,1.47966074815138,1.05111181299315,1.22463510649023,1.06066197049567,1.06286732815187,1.07650219157415,1.07486255609932,1.1160164476664,1.08302237942727,0,1.04334511863869,1.04344100375418,1.05303910381444,1.05294321869895,1.04129317716727,1.2513582881765,1.19871735977406,1.07450778117201
0.911688143116761,0.930425053534104,0.930251501475072,0.977606283460707,0.91453209564211,0.915022068582249,0.910029330618834,0.927985736196111,0.921825117526062,0,0.88373187884533,0.882182375379058,0.883768315189215,0.930593811337361,0.8809703875193,0.938073809196513,0.944263193401208,0.958288309243512,0.907131682428812,0,0.911077354931108,0.917397142892866,0.946734152827312,0.936306646518085,1.02357360782524,1.02683370175181,1.01801227112699,1.00952643840638,1.076080297066,0,1.014569995481,1.01620963095583,1.02961437010093,1.02802267718385,1.00420481449684,0.996294292469151,1.08486337364462,1.06218654383191,1.10399245418431,0,1.14834890860866,1.18107449852442,1.18346203790005,1.18570574960245,1.16564658344254,1.20964826293959,1.07618577069304,1.0637590597259,1.09195887219067,0,1.09183422154054,1.09649423815321,1.15314316438302,1.22664869391546,1.22444333625926,1.23938223725215,1.21044410939813,1.15893462535844,1.14649832587976,0,1.19368339121098,1.17494743964479,1.20340614192138,1.12068605279062,1.17948280560734,1.19199581317841,1.22900746775644,1.16470690931077,1.15247196857461,0,1.13892340175627,1.1831168514843,1.16860943351109,1.17288590966182,1.09904478222517,1.08992610774235,1.07333798276307,1.03673863418163,1.0335840138821,0,1.02432151172604,1.05837031623553,1.05705669015335,1.07227365798116,1.07371193471347,1.07760487040225,1.07717338738256,1.0201984517601,1.05975106189854,0,1.05682656587618,1.05106387043541,0.930459572175679,0.930132603931868,1.13419626556276,1.00742655437721,1.00645811471079,1.31166043730636,0.997320263204863,0,1.3184395149713,1.16712321422104,1.16511921530736,1.16163858561518,0.952931207841246,0.952999286273242,0.954574678720695,0.956053227201507,0.957921069251197,0,1.37264337075618,0.960634618019483,0.963213927626087,1.26193441641473,1.04103428735545,1.04248215259931,1.05450614608139,1.14386148520386,0.977146034906369,0,0.977558340902963,1.39944326053484,1.39651876451248,1.03000749907443,1.23766589368493,1.23848091716657,1.24185607323172,1.41540813226345,1.03460039610626,0,1.0362016775349,1.30871676426091,1.0138029145571,1.0134673166529,1.01478094273507,1.01616168839809,1.13821385190167,1.16686432440923,0.999353027653191,0,0.999842041742175,0.996783306558135,0.995124494060208,0.994395767182505,0.990454888935984,0.986034585112027,0.984279887498612,0.984999025864765,1.14007402314212,0,1.10956337939411,0.993676628816352,0.994923135317685,0.996658655908002,0.999736568115139,1.00012969708864,0.994040992255203,1.10299524898324,1.03626879711574,0,1.56475878814622,1.01256599656732,1.01293994851772,1.02293117755148,1.58262218516148,1.02559678376202,1.03034309697863,1.03626879711574,1.04203149255652,0,1.04689286791172,1.05614578155622,1.05262679781785,1.08053895493615,1.05730599145362,1.05613619304468,1.11636163408215,1.12432009866758,1.12787743645216,0,1.04358483142741,1.04972147881859,1.05063238741571,1.0551773418898,1.05607866197538,1.07345304490165,1.03344018620887,1.10287059833311
0.97974452153607,0.974979031296359,1.05290486465276,0.95998259923417,0.999257142537704,0.976062533101364,0.888532846577771,0.931232406206505,0.931149945007186,0,0.889929892710419,0.881979098934225,0.886581584477608,0.929569758303958,0.929838236627322,0.928835278319327,0.914096777217798,0.980875965898818,0.981029382083598,0,0.987568746959821,0.926398837534799,1.0302568003747,0.988201588722036,0.990243941681912,1.0660219484514,1.06750816774145,1.04288487008435,1.04472586430171,0,1.03963436466934,1.02681452472871,1.02993079098204,1.02791720355681,1.01403303883427,1.07337633680926,1.08939873960717,1.06236872555134,1.09463406691276,0,1.15863738150043,1.15877162066211,1.2162835129313,1.21948607578857,1.1838647553851,1.15086109863442,1.15331575759089,1.103340435399,1.0943847656125,0,1.11834645597273,1.13607561382631,1.19306013796032,1.225277536764,1.22908417584883,1.23550847858647,1.24856803131582,1.16300974276665,1.1655986408848,0,1.15175283020845,1.14292181107209,1.21613968525807,1.14665174206454,1.20774973765295,1.26851213533715,1.22736783228161,1.22909376436038,1.234923579382,0,1.17219553683031,1.16625065967011,1.16964499275836,1.1353852409948,1.13565371931816,1.1469585744341,1.08908231872606,1.1111550723112,1.04092881372842,0,1.03154166092222,1.06990529562863,1.00284324585692,1.07691449757074,1.08291690580024,1.08431682848635,1.0861769997268,1.09491213374768,0.937554111870573,0,0.937263579970647,0.936816755332477,0.930361769357882,0.929961928426301,0.941512249437882,1.09001240434628,1.00635264108375,1.05823607707384,1.05768953191557,0,1.05488009803179,1.05414178264254,1.05468832780082,0.946842503007812,0.947514657667377,1.14965294617929,1.26489726648328,0.956079116182688,0.956565253718208,0,0.957340005451344,1.26096597674831,1.21253440491575,1.20570738469307,1.20950443526636,1.13790701953211,1.13807002422844,1.13867410045601,1.26909703454162,0,1.34240120533154,0.999439324257129,1.34808719267993,0.956512516904691,1.06695203407163,1.06577264715113,1.39440929197177,1.27531039002519,1.43266745305113,0,1.30644428702386,1.16626983669321,1.011616733924,1.01127154750824,1.01287282893688,1.01441657929622,1.01468505761958,1.0063622295953,1.00382127403489,0,0.997023019346853,0.996946311254463,0.994568360390382,0.994903958294587,0.989496037781113,0.989486449269564,1.12504882554529,1.12913353146504,1.09620658280675,0,1.0597222963639,0.996054579680433,1.69636110915232,0.999985869415406,0.999698214068944,1.00074336182775,1.55808518410832,1.7252512944486,1.00866347236699,0,1.00981409375284,1.01351525921064,1.01674658760256,1.02079293947612,1.02256681411263,1.02858839936522,1.02965272414713,1.04669150916919,1.05034473206925,0,1.05022008141912,1.05056526783487,1.05043102867319,1.0522432573559,1.0526172093063,1.05335552469555,1.05403630901551,1.05036390909235,1.0492132877065,0,1.04744900158154,1.04707504963114,1.05164876963988,1.06056608538018,1.06904232958925,1.07407629815232,1.07629124432007,1.09767362507371
0.992842428311614,0.883358885746085,0.901607740925598,0.903103548727197,0.902590563359341,1.01660275992933,0.878710375347268,0.877829191135941,0.888496410233886,0,0.891695137686537,0.892551391767837,0.938026825489924,0.927839031969415,0.926636632621207,0.959292226402663,0.914138966668612,0.971162803699971,0.980530779483065,0,0.930126850824939,0.931379110433201,0.983119677601217,0.958636372212731,1.04264515729564,1.00921001752527,1.00847170213602,1.05255008972546,1.07007788883651,0,1.08570716266091,1.08632082740003,1.03873304458376,1.10274594768298,1.07785417170251,1.08760568794756,1.07895685053062,1.10039676235354,1.13069645884748,0,1.13189502279107,1.2435052972181,1.25768670579865,1.20881406243485,1.22558436913355,1.15583753612821,1.14194378289412,1.11570961529684,1.11748348993335,0,1.12923900509207,1.15861820447733,1.1849482571901,1.28327844312217,1.27906908655228,1.26965316821144,1.29087254426875,1.26868472854502,1.15788947759963,0,1.13939323882216,1.13685228326175,1.16393023987532,1.16579999962732,1.20500742335001,1.20674294394033,1.22456798690939,1.21995591285446,1.35621825047324,0,1.1965024136063,1.22702264586586,1.19633940890998,1.16839848625702,1.1532582265216,1.15177200723155,1.10343632051448,1.10391574609192,1.19445047213488,0,1.03686328483176,1.09852700260154,1.09978309761442,1.08592769842653,1.07625289027388,1.07332839425152,1.08647424358481,0.943835545786135,0.943253523135128,0,0.937779441891967,0.937371930151147,0.927833278862486,1.06374947121436,1.04815855143615,1.09496966481697,0.916678004526712,1.16626024818166,1.16115916003774,0,1.16380558922519,1.25890444676534,1.25889485825379,0.946247056440637,0.947297957306376,1.26189606236853,1.26338228165859,1.25498274554191,0.958140646165662,0,0.960049718815011,1.22615009131493,1.16748757765989,1.21096188902177,1.15671009067914,1.14541482407475,0.971661406300504,0.97407771121078,0.974518782742021,0,1.34127934948034,0.99451082932109,1.32520900412469,1.09560250657918,0.960222312022888,0.960893507831298,1.22291876292301,1.43314687862857,1.20560191106603,0,1.23473180915103,1.13260457264567,1.29154374007716,1.28274148647544,1.01262352763661,1.01347690516445,1.01528913384715,1.00939219924469,1.00166385893643,0,0.998796893983365,0.998135286686504,0.997559975993581,0.99749285641274,0.990867194932579,0.992228763572496,0.991404151579307,0.993993049697459,0.9948080731791,0,1.50783179508151,0.999985869415406,1.00042694094665,1.00255559051046,0.999353027653191,1.00036940987735,1.00530749332494,1.5865247093618,1.01250846549803,0,1.01356320176839,1.0160466262595,1.01835745754274,1.02294076606303,1.02952807349699,1.03334430109338,1.03976860383102,1.04597237080304,1.04672986321539,0,1.04712299218888,1.05004748821124,1.05530199253994,1.05143782238581,1.05298157274515,1.05255967823701,1.05255967823701,1.05154329601284,1.04919411068341,0,1.04746817860464,1.05142823387426,1.05118852108554,1.05683615438773,1.06012501384894,1.03960559913469,1.08031841917053,1.00198986832909
0.881550492467998,1.06057567389173,0.901550209856306,0.90271233745601,1.0111852509043,0.886821297266326,0.886924853191052,0.880066190880257,0.930332044972081,0,0.932977515308371,0.947185771721256,0.924779337934221,0.937137970469358,0.955436685908925,0.959445642587442,0.962571497352323,0.972744908105509,0.973118860055909,0,0.93141842333055,0.963702941715071,0.981863582588336,1.02394755977564,1.02434068874914,1.02006421259841,1.05508145677432,1.05918533971717,1.12208597547673,0,1.12401326629802,1.09370398129254,1.10594851054025,1.10050223598058,1.11027292924872,1.12210515249983,1.13214432409133,1.1294403638346,1.14448473845453,0,1.13175119511784,1.23289081493367,1.25809901179524,1.22481728820966,1.2561813094855,1.17813082547897,1.16692185547852,1.19964744539428,1.18621394071453,0,1.17151475251035,1.17765139990153,1.17838971529078,1.22323518380412,1.28739191457657,1.29124649621915,1.26899156091458,1.25314175132456,1.20420198837992,0,1.13271004627271,1.14288345702589,1.14813796135459,1.14702569401494,1.15377600614523,1.17531180308365,1.21803821054472,1.22615009131493,1.22396391068182,0,1.21422198294833,1.21614927376962,1.20560191106603,1.16814918495676,1.17019153791663,1.15571288547807,1.10763608857282,1.12035045488642,1.25443620038364,0,1.03931794378823,1.04131235419036,1.09006034690403,1.09070277717779,1.03370866453223,1.03452368801387,1.07285855718563,0.94208660127965,0.942751085129976,0,0.942571779964015,1.04748735562774,0.926431438474064,0.926598278575012,0.912867530037253,0.913357502977392,0.91449661814938,0.914344160815755,0.919962069732147,0,1.05798677577358,1.26081256056353,1.26116733549083,1.36470408319385,1.26109062739844,0.947875185701609,1.22206538539518,1.2137042033247,0.957244120335857,0,0.958400494828632,1.08257171938448,0.960672972065677,1.20515125102324,1.19587916035564,1.07847742495318,0.973281864752237,0.973751701818124,1.22370502087001,0,1.0608057981689,1.53303040343153,1.32584184588691,1.1480612532622,0.959474408122088,1.06921492279712,1.20576491576236,0.981364979987803,1.43406737573725,0,1.43380848592543,1.08029924214744,1.0596647652946,1.00642934917614,1.18202376116775,1.01214410205918,1.01253723103267,1.0041185178929,1.00455958942414,0,1.00398427873122,1.1615043464535,0.997138081485438,0.997051784881499,0.991193204325235,0.991672629902671,1.4959612177842,0.994597125925028,0.994299882067018,0,0.995517623033705,0.997732569201458,1.00027352476187,1.00058035713143,1.00261312157975,1.00213369600232,1.0096894431027,1.01145372922767,1.01480970826972,0,1.0160658032826,1.01961355255562,1.19947485218641,1.03031433144399,1.03078416850988,1.03536747703016,1.03722764827061,1.27227083186424,1.04451491704763,0,1.04653809298441,1.04872427361752,1.0522432573559,1.04969271328394,1.05036390909235,1.05020090439602,1.25819489691073,1.05036390909235,1.04971189030704,0,1.04952012007606,1.04911740259102,1.05092004276218,1.06236872555134,1.22239139478783,1.071257275757,1.24512575566983,1.09316702464581
0.880266590771625,0.877122517834801,1.02800350016075,0.871489267299932,0.871603370587361,0.916289669808989,0.88223798874604,0.927073868747828,0.920439577607273,0,0.933947872677101,0.934004444895239,0.977663814529999,0.979562339816645,0.981355391476254,0.988355004906815,0.988278296814426,0.972150420389489,1.01573979388994,0,0.94876116416871,0.95495342492687,1.00637181810685,1.01979573427505,1.04389166379697,1.08681943000056,1.08685778404676,1.12692817380883,1.16012360079048,0,1.16044002167159,1.14117670197022,1.12282429086598,1.1122577511393,1.11663011240551,1.11907518285044,1.12006279953995,1.13442638983993,1.13991101844579,0,1.1879398727933,1.23299628856071,1.23294834600297,1.26423565918642,1.2457490089205,1.25180894821929,1.17634736233091,1.25105145580694,1.25085968557596,0,1.22074217080145,1.20395268707965,1.23060874918508,1.23696593234188,1.28580022165948,1.29157250561181,1.29810228197648,1.26259602371159,1.27827324009374,0,1.18546603681373,1.1655794638617,1.17908967663384,1.16699856357091,1.1637097041097,1.19154515313562,1.24532711441236,1.20495948079227,1.26147416786039,0,1.26167552660291,1.21958196090406,1.21753001943263,1.20469100246891,1.20562108808913,1.14704487103804,1.14428337971201,1.13527976736776,1.10727172513397,0,1.0630303328482,1.06058526240328,1.04060280433576,1.09752020888893,1.00001463495005,1.08024171107814,1.10711830894919,1.04221367427594,1.12602685372325,0,1.04249174111086,1.04963518221465,0.927248379658015,0.926502393459525,0.913025740477807,0.913122584444449,0.91341023979091,0.912819587479509,0.91986618461666,0,0.921463630640675,0.921497190431096,0.919652360809123,1.25450331996448,1.16226183886585,1.19955156027879,0.951304037431429,1.13984389886495,1.14123423303951,0,1.14285469149125,1.25197195291562,0.958561581822651,1.19835299633521,1.21094271199867,0.960883919319749,0.961123632108467,1.22197908879124,1.43117164524954,0,1.21822998077569,1.3288718155363,0.944500029636461,1.0746036662875,1.07423930284865,1.39142726488012,1.21920800895366,1.41655875364929,1.15459102962687,0,1.15428419725732,1.05656767606437,1.0037637429656,1.00481847923596,1.15612519147467,1.01051405509589,1.01212492503608,1.01235504931325,1.14623943606794,0,1.00949767287173,1.15675803323688,1.43743294329085,0.996188818842115,0.989994640381646,0.989726162058282,0.991413740090855,0.991854811622096,0.994050580766752,0,0.994012226720557,1.00235423176794,1.00014887411173,1.00129949549758,1.01300706809856,1.01620963095583,1.01350567069909,1.57964974658138,1.58005246406642,0,1.57451989290281,1.03041980507102,1.03062116381355,1.03368948750914,1.0343127407598,1.03671945715853,1.03708382059738,1.03446615694458,1.05218572628661,0,1.0466339780999,1.04612578698782,1.04729558539676,1.04845579529416,1.04732435093141,1.04767912585871,1.2546855016839,1.04791883864743,1.04875303915217,0,1.0492132877065,1.05068032997346,1.05796759875048,1.22811573618241,1.4717118720775,0.994127288859141,0.994740953598259,0.996064168191982
0.87664405110852,0.877274016317271,0.871896779040752,0.868038361993549,0.87180377047873,0.891431453618948,0.884490330108833,0.954252504732659,0.935429297711378,0,0.934549072351206,0.990713778747799,0.986283886412293,0.978661019731065,0.979341804051024,0.986303063435391,1.01296871405236,1.00106937122041,1.00322678631887,0,0.973233922194493,0.972696965547765,1.00533625885959,1.01564390877446,1.0921410539101,1.0988721890173,1.0958230423448,1.14274921786421,1.15537728757387,0,1.16366176155196,1.2196107264387,1.1320196734412,1.15033373049924,1.16504250721497,1.16499456465723,1.15624025361325,1.15595259826679,1.18594546239117,0,1.20706895333299,1.21614927376962,1.27100514833981,1.29809269346493,1.34360935778668,1.29122731919605,1.28868636363564,1.20865105773852,1.28607828849439,0,1.21683964660113,1.22809655915932,1.22632268452281,1.27897320143679,1.29530243660425,1.29615581413209,1.28983698502149,1.31079747126698,1.26930798179569,0,1.24132870509654,1.19297384135638,1.17267496240775,1.17313521096209,1.17600217591515,1.22567066573749,1.28108267397751,1.26703550455865,1.26772587739015,0,1.26124404358322,1.22526794825245,1.23153883480531,1.24113693486557,1.20051041143367,1.20101860254575,1.14894339632468,1.14866532948977,1.18587834281033,0,1.09222735051404,1.07578305320799,1.06656849360968,1.06851496145407,1.00390757063883,1.00400345575432,1.11204680388523,1.04938588091438,1.05284733358347,0,1.05325963958006,1.0578525366119,1.05025843546531,0.92545628684956,1.08604276056512,0.913934731372625,0.911807040659965,0.913476400520596,0.919567981907495,0,0.920735862614128,0.922095513551736,0.918213125225661,1.04615455252246,1.25627719460099,1.16179200179996,0.950078625655503,0.950345186276557,1.04363277398515,0,1.34436685019903,1.23863433335135,0.956517311160465,0.957168371094622,0.957340964302499,0.958985394033104,0.959829183049391,0.963482405949451,1.43086481287998,0,1.43051962646422,0.938825548501932,1.45800988907439,1.18247442121053,1.39142726488012,1.39135055678773,1.21673417297409,1.23297711153761,1.09307113953032,0,1.30189933254977,1.33294693294451,1.33362771726447,1.0034089680383,1.23246892042553,1.01069623681532,1.01174138457413,1.01277694382139,1.01168385350484,0,1.01154961434316,1.00370621189631,1.00221040409471,0.999333850630093,0.994616302948126,0.992650658080639,0.992861605334711,0.992986255984845,0.994539594855736,0,0.997186024043181,1.18986716361459,1.38884795527351,1.3826058342553,1.01428234013454,1.02002585855222,1.18358668855019,1.62549242029578,1.56983111075549,0,1.1439669588309,1.14478198231254,1.0347058697333,1.03483052038343,1.03477298931414,1.03596196474618,1.03684410780866,1.03839744667955,1.1484160281895,0,1.15183912681239,1.04641344233428,1.04322046798856,1.11283306183222,1.04470668727861,1.04415055360878,1.04518611285604,1.04693122195791,1.05067074146191,0,1.04980777542252,1.0507666265774,1.43671380492469,0.992506830407409,0.995440914941315,0.99391634160507,0.994232762486177,0.996773718046586
0.878631749552569,0.879824560389229,0.866071758274908,0.870610000790915,0.874280483011762,0.917081680862913,0.923487765428609,0.9234072219316,0.907013743736763,0,0.955050268893512,1.00210493046767,1.00071459629311,1.00038858690045,1.02570225738906,1.02641180724366,1.01152084880851,1.04060280433576,1.03320047342015,0,0.997991459013273,0.986216766831452,1.07270514100085,1.07279143760479,1.07937874503876,1.08074031367868,1.12953624895008,1.14552029770179,1.22054081205893,0,1.24272862778266,1.2193134825807,1.21946689876547,1.19560109352072,1.1961668157021,1.17855271998711,1.19850641251998,1.20488277269988,1.20804698151096,0,1.21137419501836,1.27300914725349,1.26604788786913,1.3713680987202,1.29992409917074,1.30746066924802,1.31224533651083,1.28217576429406,1.23310176218775,0,1.23535506240169,1.24206702048579,1.26640266279643,1.29416140372996,1.29338473429451,1.33576595533983,1.30184180148048,1.31872717031776,1.29139032389238,0,1.26206865557641,1.25598953925453,1.22199826581433,1.20815245513799,1.23749330047706,1.26564517038408,1.26832995361772,1.25471426721855,1.2546663246608,0,1.25753328961387,1.30886059193414,1.23922882106737,1.23757000856945,1.17784317013251,1.21247687384646,1.1555402922702,1.22142295512141,1.15659502854056,0,1.12170243501478,1.12215309505757,1.10991815432141,1.1133604299674,1.11750266695645,1.11966008205491,1.1189697092234,0.984404538148745,0.973790055864318,0,1.03460039610626,1.05254050121391,0.947602871973625,1.05757446977698,1.07212024179638,0.908781865266346,1.06224407490121,1.05611701602158,1.05368153408821,0,1.12618985841958,1.0470462840965,0.927244544253395,1.01437822525003,1.11103042166107,1.03973983829637,1.03913576206881,0.946878939351697,0.946150212473995,0,1.34385865908694,0.951907154807843,0.954067446459768,0.953322419112433,0.954935206754927,0.956559500611279,1.3124562837649,1.31122895428667,1.21309053858558,0,1.06598359440521,0.938817877692693,1.17232018748045,1.14501210658971,1.01660275992933,1.02957601605474,1.21958196090406,1.1856961610909,1.12629533204662,0,1.28592487230961,1.26869431705657,1.16673967375909,1.00347608761914,1.00531708183649,1.22504741248683,1.01191397778201,1.01253723103267,1.01223039866311,0,1.0093346681754,1.00380209701179,1.00163509340178,0.991710983948865,0.991845223110547,0.99123155837143,0.992142466968558,0.993638274770157,1.18720155740405,0,1.18720155740405,1.33875757094303,1.12032168935177,1.37150233788189,1.0246283440956,1.02840621764579,1.03069787190594,1.03938506336907,1.04028638345465,0,1.21009892298238,1.04034391452394,1.0388385182108,1.0388001641646,1.03763036575566,1.03801390621761,1.0376974853365,1.0372851793399,1.03763995426721,0,1.04020967536226,1.10346508604913,1.03941382890372,1.1133796069905,1.04091922521687,1.0402959719662,1.042913635619,1.19161227271646,1.3934120867707,0,1.05227202289054,1.20217881244314,0.989496037781113,0.994088934812947,0.993964284162813,0.995210790664146,1.00083924694324,0.999937926857662
0.889755381800232,0.867750706647088,0.867419902998657,0.894447999352173,0.87180377047873,0.884269794343213,0.91098530522024,0.921529791370361,0.951046106470768,0,0.966282251321675,0.96527545760906,0.992823251288516,0.995249144710341,0.996035402657336,1.08443189062493,1.08519897154883,1.0835209820278,1.03346895174352,0,1.04236709046072,1.06988611860553,1.0701162428827,1.06908068363544,1.09242870925656,1.10510472152396,1.16167693966137,1.18398940603523,1.18334697576147,0,1.25960440810839,1.26832036510617,1.21880529146861,1.19968579944048,1.22209415092982,1.21228510361549,1.25223084272743,1.21910253532662,1.2110865396719,0,1.26510821373735,1.26396718086306,1.26230836836513,1.31778749618599,1.31705876930829,1.30560049800757,1.3150931244408,1.28225247238646,1.28222370685181,0,1.2521061920773,1.30699083218214,1.26783135101719,1.29137114686928,1.28931920539786,1.3340879658188,1.34060815367193,1.33792337043829,1.33506599399677,0,1.29239711760499,1.25900992039237,1.24852967726963,1.2475804146263,1.24207660899734,1.28212782173632,1.27262560679155,1.26865596301038,1.25607583585847,0,1.25568270688497,1.29629964180532,1.24056162417265,1.19910090023601,1.18088272829345,1.18275248804545,1.18523591253656,1.16875326118432,1.15523345990064,0,1.15511839776205,1.14246156251775,1.12676516911251,1.13866451194446,1.04374783612374,1.13014032517765,1.07781581765632,1.02575978845835,0.98049242543687,0,0.972303836574268,0.960299020115278,0.94424785178273,0.929249502018231,0.930605317551219,0.90789301024578,1.05483215547405,1.05581977216357,0.925365195989847,0,0.928507351224361,1.25784971049498,1.0995817388719,1.01501106701224,1.10908395381668,1.11085782845319,0.946573065833293,0.947372747696456,0.946350612365363,0,0.947113857884641,1.38392904884902,0.953144072797627,0.954195932514521,0.956812637316165,0.956557582908969,1.28220452982871,0.948887732521153,0.947262479813646,0,1.06627124975167,1.06880261680053,1.29977068298596,1.02598991273552,1.21566984819218,0.976052944589815,0.975880351381938,1.19992551222919,1.18036494866982,0,1.17817876803671,1.1320004964181,1.14860779842048,1.00530749332494,1.0030158390648,1.18874530776339,1.00958396947567,1.0111852509043,1.14636408671808,0,1.00944973031399,1.07058607994859,1.13986307588805,0.993062964077234,0.993647863281706,0.989534391827307,0.991020611117358,1.18542768276754,1.18686595949985,0,1.38328661857526,1.51783261262681,1.14599013476768,1.35562376275722,1.13061975075509,1.04094799075151,1.11384944405639,1.04631755721879,1.5664271891557,0,1.04332594161559,1.04483133792874,1.04602990187233,1.04585730866445,1.12562413623821,1.13224979771837,1.03763036575566,1.03748653808243,1.03981654638876,0,1.03270187081962,1.0320882060805,1.38728502789107,1.38605769841283,1.42493911274287,1.46758881211155,1.18816040855892,1.18869736520565,1.19562985905537,0,0.986351005993134,0.987520804402077,0.993379384958342,0.991960285249132,0.993523212631572,1.23150048075911,1.00442535026246,1.29421893479925
0.872486472500998,0.864898124461346,0.891128456654008,0.889416907342563,0.934906723831973,0.932844234997844,0.921228712107732,0.920668743033287,0.960567498438642,0,0.947363159184907,0.971028564538289,0.977855584760973,1.02871305001535,1.10672517997569,1.0861578227037,1.08377028332807,1.08999322732319,1.06311662945214,0,1.07219694988877,1.0720051796578,1.04531076350618,1.104423937204,1.10423216697303,1.12923900509207,1.18474689844758,1.18705772973082,1.23362913032293,0,1.29164921370419,1.26798476720197,1.255788180512,1.22959236696092,1.22167225642168,1.2960791060397,1.29505313530399,1.31677111396183,1.24208619750889,0,1.25968111620078,1.38055389278387,1.29263683039371,1.41484241008208,1.32262010600654,1.36614235992616,1.31230286758013,1.295350379162,1.26088926865592,0,1.25735110789444,1.28945344455954,1.275569279837,1.30014463493636,1.29078624766481,1.32364607674225,1.31762449148966,1.30921536686144,1.31488217718673,0,1.28795763675794,1.28665359918731,1.26317133440451,1.26566434740718,1.24258480010942,1.29139032389238,1.27218453526031,1.27103391387446,1.28191687448225,0,1.2636603484935,1.29752697128356,1.25251849807389,1.21999426690065,1.19920637386304,1.20704977630989,1.1775267492514,1.19923513939769,1.17572410908024,0,1.18379763580426,1.17373928718966,1.15716075072193,1.17318315351983,1.09944749971022,1.04277939645732,1.05182136284775,1.07747063124057,1.11403162577581,0,0.974269481441754,1.04944341198367,0.951788257264639,1.07324209764758,0.930907355665004,0.930275472753944,1.05804430684287,1.05324046255696,0.926848538726433,0,1.12671722655476,1.03747694957088,1.03346895174352,1.03494558252202,1.07915820927314,0.953236122508495,0.945987207777667,0.94745233234231,1.03348812876661,0,0.949237713192681,1.03375660708998,0.954100047399034,0.952965726482821,0.953556378794222,1.03900152290712,0.951023094043052,0.950795846319347,0.956694698624116,0,1.06335634224086,1.29213822779318,1.29114102259211,1.22033945331641,0.972917501313386,0.973607874144893,0.975237921108174,0.979504808747352,1.21570820223838,0,1.25469509019545,1.25442661187209,1.31841074943666,1.00338020250365,1.00382127403489,1.00723478414623,1.01105101174262,1.01187562373581,1.14324782046474,0,0.999563974907262,0.997876396874689,0.993197203238916,0.993925930116619,1.00261312157975,1.00407057533516,1.01127154750824,1.01092636109249,1.15566494292033,0,1.51816821053102,1.17673090279286,1.03106223534479,1.30697165515904,1.30561967503067,1.10978391515973,1.56120145036165,1.04865715403668,1.04338347268489,0,1.04298075519984,1.044783395371,1.04572306950277,1.04579018908361,1.07711585631326,1.20542931785816,1.13029374136243,1.09697366373065,1.13929735370667,0,1.02879934661929,1.02998832205133,1.02968148968177,1.15287468605965,1.02438863130688,1.02492558795361,1.18848641795158,0.989716573546733,0.989649453965892,0,0.988709779834118,0.989601511408148,0.991912342691389,0.99644770865393,1.00157756233249,1.00330349441126,1.00576774187928,1.0361633234887
0.87485675255584,0.912661377038956,0.912613434481212,0.967998594888895,0.929801800283437,0.957348635111738,0.912049630002148,0.920228630353201,0.949194564890712,0,0.986140058739062,0.963444051903256,0.987338622682652,1.04400672593555,1.04382454421613,1.11136601956527,1.13993978398044,1.15188706937014,1.15074603649584,0,1.07701038268623,1.07679943543216,1.11520142418476,1.1051526640817,1.11752184397954,1.13263333818032,1.22572819680678,1.17656789809653,1.26500274011032,0,1.26583694061506,1.27129280368627,1.26919291965711,1.26953810607286,1.29917619526994,1.29928166889697,1.36772446433169,1.32203520680207,1.30217739938468,0,1.29116019961521,1.32160372378238,1.38175245672746,1.32084623137003,1.34110675627246,1.37125303658162,1.37146398383569,1.40060347043223,1.2621261866457,0,1.26178100022995,1.26562599336098,1.30199521766526,1.30141990697233,1.2968270099405,1.31966684444954,1.31125771982132,1.32815267717015,1.34442438126832,0,1.31755737190882,1.29893648248122,1.28335515121456,1.29823652113816,1.28500437520094,1.37241324647901,1.27753492470449,1.29428605438009,1.36120427647857,0,1.28962603776742,1.28849459340467,1.26210700962261,1.22775137274356,1.22756919102414,1.20263906099748,1.2025048218358,1.20288836229775,1.20262947248593,0,1.17896502598371,1.17279002454633,1.17372011016656,1.17298179477731,1.10614986928277,1.10053100151522,1.04952012007606,1.04466833323241,1.0839141110013,0,1.15309522182527,1.04321087947701,0.952884224134657,1.03783172449818,1.0854482728491,1.06705750769866,1.04020967536226,0.968535551535623,1.00948808436018,0,1.11148108170385,1.03590443367689,0.939120874657633,0.939896585241924,1.02461875558405,1.02783090695287,1.02794596909146,1.02721724221375,1.02521324330007,0,1.03245256951935,1.03353607132436,0.954034845520503,0.953136401988388,0.9551758783948,0.952244670414358,0.952680947689824,0.957012078356378,0.956891263110865,0,0.957729299020222,1.14635449820653,1.21170020441102,1.15834972615397,1.22294752845766,0.973272276240688,1.24294916354828,1.23311135069929,1.23921923255583,0,1.10336920093364,1.28174428127437,1.1958120407748,1.00080089289705,1.00408016384671,1.00617045936433,1.00690877475358,1.00456917793569,1.00620881341052,0,1.09697366373065,1.09891054306349,1.00653482280318,1.00601704317955,1.01337143153741,1.11011951306394,1.01988203087899,1.02172302509634,1.14278757191041,0,1.32048186793118,1.03355524834745,1.30211986831539,1.03935629783443,1.04664356661145,1.54211072386816,1.10200763229373,1.04000831661974,1.04161918655992,0,1.04323964501166,1.04497516560197,1.04632714573034,1.19574492119396,1.127944556033,1.13224020920682,1.13275798883045,1.13272922329581,1.41384520488101,0,1.76559975104559,1.43931229155439,1.41408491766973,1.4578756499127,1.01877935205089,1.24768588825334,1.25601830478917,0.986197589808355,0.988652248764826,0,0.987338622682652,0.988076938071903,1.00029270178496,1.26741904502059,1.00097348610492,1.00400345575432,1.00535543588269,1.01039899295731
0.912418787696773,0.9115874637455,0.912112914178369,0.974691375949898,0.957195218926959,0.924629757154061,0.919650443106813,0.929463325825768,0.945246015834951,0,0.964594673289102,0.97638854249402,0.989956286335451,1.02820485890327,1.02995955651669,1.10906477679358,1.13704405349273,1.19172733485504,1.15635531575184,0,1.22683087563489,1.10986062325212,1.1171383035176,1.20679088649807,1.13026497582779,1.13301687864227,1.14949952999451,1.23520164621691,1.27178181777526,0,1.27099555982826,1.27212700419101,1.25792641858737,1.30189933254977,1.33916987693962,1.33913152289343,1.3389876952202,1.3229652924223,1.33165248388543,0,1.32767325159271,1.32179549401335,1.39166697766883,1.32769242861581,1.36838607162855,1.35678397265461,1.4105755224429,1.31828609878652,1.34438602722212,0,1.2823004149442,1.30276229858915,1.30293489179703,1.30235958110411,1.30220616491933,1.31750942935108,1.32576513779452,1.32871839935152,1.35520186824907,0,1.35445396434827,1.35805924469059,1.35782912041342,1.33422220498049,1.28370033763031,1.28409346660381,1.3218434365711,1.37241324647901,1.3501487226629,0,1.32089417392777,1.32581308035226,1.29779544960692,1.24349570870655,1.23505781854368,1.2356906603059,1.23055121811579,1.23820285033166,1.22505700099837,0,1.23201826038274,1.21219880701155,1.19925431642078,1.17319274203138,1.12314071174709,1.22342695403509,1.11554661060051,1.10732925620326,1.15527181394683,0,1.16909844760008,1.07351057597095,1.04370948207754,1.18225388544491,1.21156596524933,1.04901192896398,1.04482174941719,1.04607784443008,1.0495872396569,0,1.11698488733282,1.03363195643984,0.938091068517301,0.938652955294055,1.02902947089646,1.33160454132769,1.02888564322323,1.02860757638832,1.03290322956214,0,1.19582162928634,1.03060198679045,1.10688818467202,1.06380700228365,1.04759282925477,0.950407511601624,0.952434522943022,0.955513394001314,0.95636485382684,0,0.957248914591632,0.957196177778114,0.959042925102396,1.14239444293691,1.14133970666655,1.22633227303435,1.23296752302606,1.20877570838866,1.2125439934273,0,0.988930315599738,1.19599422249422,1.1200723880515,1.15163776806987,1.00442535026246,1.00668823898796,1.0074840854465,1.00384045105799,1.00574856485618,0,1.08715502790477,1.08627288484228,1.51124530519285,1.15534852203922,1.13527976736776,1.12455022294475,1.02919247559279,1.02996914502824,1.14528058491307,0,1.1514268208158,1.28833158870834,1.04057403880111,1.03913576206881,1.09933243757163,1.04243421004156,1.0395672450885,1.11218104304691,1.19376009930337,0,1.19411487423067,1.20331984531744,1.20463347139961,1.19015481896105,1.11866287685384,1.29726808147174,1.6305359773704,1.38413040759154,1.62989354709664,0,1.34785706840276,1.16218513077346,1.16243443207372,1.22632268452281,1.01244134591719,1.0209271786378,0.989697396523635,0.987683809098406,0.993647863281706,0,0.993369796446793,0.993887576070424,1.1939231039997,1.00741696586566,1.00373497743095,1.00508695755932,1.00706219093836,1.01011133761085
0.956145276912375,0.993254734308208,0.98019518157886,1.02045734157191,0.964335783477286,0.981230740826121,0.923302707155719,0.924152249278935,0.943569944016236,0,0.945027397771641,0.975995413520523,0.99048365447063,1.03585649111915,1.04561759587574,1.09646547261857,1.17549398480307,1.17472690387917,1.21263029003124,0,1.22249686841487,1.19628187784068,1.20176650644655,1.2025048218358,1.15955787860911,1.15397736488776,1.1778623471556,1.26538628057227,1.26776423143635,0,1.27014218230043,1.25955646555065,1.25980576685092,1.27788969963179,1.30186097850358,1.31919700738365,1.33986024977113,1.33214149797442,1.33916987693962,0,1.33039638887255,1.33175795751247,1.35289103696583,1.36165493652136,1.35288144845428,1.37821429596599,1.37627741663315,1.44776935874036,1.3479433650067,0,1.30533201968421,1.30627169381598,1.30515942647633,1.30461288131806,1.30547584735744,1.32475834408191,1.32446110022389,1.32819103121634,1.34391619015624,0,1.43222638151989,1.362469960003,1.37426382920792,1.37644042132947,1.36638207271487,1.38358386243327,1.43851644509585,1.3665450774112,1.38249077211671,0,1.37146398383569,1.31489176569828,1.30934001751157,1.25975782429317,1.25240343593531,1.25544299409625,1.25813736584144,1.2490762224279,1.2476379456956,0,1.29977068298596,1.26377541063208,1.29566680004311,1.21230428063858,1.18130462280159,1.15641284682113,1.12073399534836,1.08179504994904,1.08237036064196,0,1.15419790065338,1.1793965090034,1.19644488253701,1.21024275065561,1.09674353945348,1.04316293691927,1.04689286791172,1.04565594992193,0.93910073878338,0,0.942123037623535,1.02807061974159,1.02638304170902,1.02422562661056,1.18632900285312,1.03049651316341,1.03979736936567,1.02962395861248,1.02930753773137,0,1.10264047405594,1.10906477679358,1.06368235163351,1.06696162258317,1.11318783675953,0.949383458568221,0.949715221067807,0.953735683960183,0.955079034428158,0,0.956165412786627,0.95651635230931,0.957159741434229,0.9612482827586,1.12184626268801,1.22330230338496,1.19262865494062,1.29466000633049,0.986207178319903,0,1.18281960762629,1.14674762718003,1.14846397074725,1.1823689475835,1.00528831630184,1.00616087085278,1.00692795177667,1.00506778053622,1.00632387554911,0,1.09407793324294,1.08654136316565,1.10018581509947,1.0541130171079,1.3646944946823,1.11409874535665,1.05330758213781,1.10354179414152,1.10283224428691,0,1.04076580903209,1.04329717608095,1.04302869775758,1.04131235419036,1.04145618186359,1.05393083538847,1.19110408160438,1.19179445443589,1.11743554737561,0,1.17260784282691,1.38134973924242,1.36803129670125,1.69406945489218,1.13221144367218,1.42303099894468,1.20253358737045,1.34529693581925,1.15272126987487,0,1.16128381068788,1.35342799361256,1.35284309440809,1.35378276853986,1.35629495856563,1.20051999994522,0.995766924333972,0.995872397961007,0.995728570287777,0,0.993331442400598,0.990867194932579,1.18467977886674,1.0071484875423,1.00631428703756,1.00950726138328,1.07997323275478,1.09996527933385
0.983186797182058,0.981058147618244,1.01889441418947,1.05441026096591,1.05385412729608,0.967509580799911,0.969925885710187,0.946289245891451,0.974777672553836,0,0.988076938071903,1.004137694916,0.997205201066279,1.01737942936477,1.05353770641497,1.11387820959103,1.13565371931816,1.22512412057922,1.23761795112719,0,1.23969865813326,1.24193278132411,1.25687168231701,1.2427957473635,1.24189442727792,1.24567230082811,1.24435867474594,1.24615172640555,1.25278697639726,0,1.26862719747573,1.2573415193829,1.26726562883581,1.39438052643712,1.4232131806641,1.31096047596331,1.34134646906118,1.33566048171279,1.34748311645236,0,1.34297651602446,1.34999530647812,1.37726503332266,1.37051472119237,1.40221434037242,1.38553033027766,1.39454353113345,1.43767265607956,1.34368606587907,0,1.39169574320348,1.31146866707539,1.39761185482904,1.39686395092824,1.34804883863373,1.32163248931702,1.31856416562144,1.39184915938826,1.39157109255335,0,1.3960297504235,1.39726666841328,1.414631462828,1.41738336564248,1.39181080534206,1.39184915938826,1.4135671380461,1.39835017021829,1.37396658534991,0,1.37132015616246,1.34082868943755,1.30398962806739,1.25538546302696,1.25402389438704,1.25156923543057,1.27589528922966,1.26186729683389,1.30213904533849,0,1.28150456848566,1.29569556557775,1.292694361463,1.33360854024137,1.18791110725866,1.16653831501657,1.17311603393899,1.12176955459563,1.12108877027567,0,1.17329821565842,1.19251359280204,1.17884037533357,1.13775360334733,1.07958010378128,1.03476340080259,1.03947135997301,1.04294240115365,0.940165063565288,0,0.941883324834817,0.942179609841672,1.0336031909052,1.0343702718291,1.03130194813351,1.03088964213691,0.991806869064353,0.932927655048318,1.10119260881208,0,1.08905355319141,1.10021458063412,1.10878670995867,1.09423134942772,0.950233959542592,0.950837076919007,0.951818940501595,0.954135524891764,0.955596814051788,0,0.955104923409339,0.956546076695111,0.96080721122736,0.965323400166804,1.14088904662376,1.2759432317874,1.13391819872785,1.15738128648755,1.15337328866019,0,1.10306236856408,1.18211964628323,1.18273331102235,1.00348567613069,1.003351436969,1.0071484875423,1.00792515697774,1.00510613458242,1.0112236049505,0,1.10573756328618,1.10521978366254,1.36257543363003,1.3624507829799,1.59564338384463,1.1659534158121,1.16257825974695,1.37830059256993,1.04503269667127,0,1.04397796040091,1.04300952073449,1.04302869775758,1.18574410364865,1.19049041686526,1.19011646491486,1.1861276441106,1.16207006863487,1.19977209604442,0,1.17484196601776,1.36567252286027,1.36613277141461,1.19559150500918,1.01029351933027,1.45441419724362,1.45114451480551,1.3788279607051,0.987539981425175,0,0.988220765745133,0.989726162058282,0.990090525497133,0.99316843770427,1.38401534545296,0.995901163495654,0.99585322093791,0.995862809449459,0.994999843410074,0,0.992890370869357,0.992305471664886,0.996965488277561,1.01510695212773,1.01610415732879,1.09053977248146,1.00502942649003,1.00539378992888
0.982218357515638,1.03296076063143,1.05138029131651,1.05260762079475,1.05231037693674,0.971594286719663,0.976800848490615,0.989802870150671,0.977884350295619,0,1.04051650773182,0.998029813059468,1.01359196730303,1.01378373753401,1.06260843834006,1.06308786391749,1.14299851916448,1.17286673263872,1.29208069672389,0,1.29160127114645,1.3143643975631,1.31575473173766,1.26299874119664,1.25611418990466,1.25146376180353,1.24550929613178,1.24529834887771,1.24820366787697,0,1.25854008332648,1.28105390844287,1.28148539146256,1.40507171681394,1.39945284904639,1.31426851244761,1.31138237047145,1.33544953445872,1.34132729203808,0,1.34300528155911,1.35143358321043,1.39089989674494,1.38924108424701,1.38764939132992,1.40417039672836,1.4042183392861,1.40344166985065,1.35695656586249,0,1.351251401491,1.37817594191979,1.34189301421946,1.38446600549575,1.38471530679601,1.38843564927692,1.37006406114958,1.41176449787494,1.41186997150197,0,1.44061632912502,1.41745048522333,1.41584920379469,1.41420956831986,1.40935778147621,1.40727707447014,1.38386192926818,1.47144339375413,1.38475366084221,0,1.39159026957644,1.35836607706015,1.33498928590438,1.32709794089979,1.27778422600475,1.29231082100106,1.29881183183108,1.35955505249219,1.35448272988292,0,1.30859211361077,1.29202316565459,1.29135196984618,1.2751761508635,1.2036075006639,1.18523591253656,1.1566621481214,1.16152352347659,1.16160023156898,0,1.11002362794845,1.09319579018046,1.09712707991543,1.05383495027298,1.03886728374544,1.00730190372707,1.03428397522516,1.02657481193999,1.03672904567008,0,1.03227997631148,1.03292240658524,1.03668110311234,0.925268352023205,0.927295363364603,0.926083375504846,1.03022803484005,0.930609152955839,1.10947708279017,0,1.11023457520252,1.13632491512657,1.04577101206052,1.34542158646938,0.947656567638298,0.949803435374055,0.952112348954985,0.953192974206525,0.957815595624161,0,0.957392742264862,0.963328989764671,0.962935860791174,1.18803575790879,1.1860701130413,1.13979595630721,1.22871022389843,1.18370175068877,1.17614600358838,0,1.16863819904574,1.16207006863487,1.00138579210152,1.00285283436847,1.00350485315378,1.01009216058775,1.01037022742266,1.10179668503965,1.1171383035176,0,1.10700324681061,1.10955379088256,1.08121015074456,1.05976065041009,1.30218698789623,1.49527084495269,1.08926450044548,1.08962886388434,1.04579977759516,0,1.04573265801432,1.04687369088862,1.46303426912591,1.1872111459156,1.12967048811177,1.18944526910645,1.18669336629197,1.25897156634618,1.35572923638425,0,1.11194133025819,1.18960827380278,1.19158350718181,1.19471895045824,0.995239556198792,0.994060169278301,0.993149260681173,0.99287119384626,0.987731751656149,0,0.987702986121503,0.989764516104476,0.989313856061687,0.989448095223369,0.991950696737583,0.992784897242321,0.993906753093521,0.993120495146527,0.993149260681173,0,0.994108111836044,0.996265526934505,0.9959299290303,0.997550387482032,0.998192817755796,1.0004365294582,1.00315007822648,1.00410892938135
0.980185593067311,1.02968148968177,1.02076417394147,1.05947299506363,1.05475544738166,1.04935711537974,1.03666192608924,0.993676628816352,0.997262732135571,0,1.00459794347034,1.00497189542074,1.02824321294947,1.02702547198278,1.07585976130038,1.11055099608363,1.160324959533,1.16139887282646,1.2979872198379,0,1.2707079044818,1.27103391387446,1.31448904821323,1.31097006447485,1.29963644382427,1.26296038715044,1.26269190882708,1.25497315703036,1.26021807284751,0,1.26499315159877,1.27520491639815,1.29129443877689,1.40130343177529,1.33075116379985,1.3124946378111,1.31984902616896,1.34606401674315,1.34348470713654,0,1.35141440618733,1.38786033858399,1.41494788370911,1.42074893319608,1.41074811565077,1.40780444260532,1.4079195047439,1.46136586811644,1.43270580709733,0,1.36626701057629,1.37205847155171,1.38717955426403,1.38795622369948,1.3878028075147,1.40837975329824,1.40778526558222,1.41338495632667,1.41140013443609,0,1.44808577962147,1.44715569400124,1.44719404804744,1.4709256141305,1.41682723197266,1.43963830094705,1.43781648375279,1.42511170595075,1.40115960410206,0,1.39063141842157,1.35055144014795,1.38118673454609,1.31089335638246,1.32683905108798,1.31643551605762,1.35110757381777,1.35034049289387,1.36125221903631,0,1.30975232350817,1.34499969196124,1.29894607099277,1.28026765049587,1.2800183491956,1.21475893959506,1.24844338066569,1.18257989483757,1.14627779011414,0,1.18290590423023,1.18351956896934,1.09356015361931,1.05092963127372,1.03971107276173,1.0354537736341,1.03654686395065,1.03720847124751,1.03009379567837,0,1.03387166922856,1.03346895174352,1.03593319921154,0.925259722362811,0.923869388188248,0.923458999893963,0.924365114235316,0.925115894689581,0.926231997433851,0,1.04472586430171,0.949392088228615,0.966521964110393,1.04349853482347,0.945748453840104,0.947660403042918,0.952873676771953,0.953549666836138,0.956901810473568,0,0.95901415956775,0.9631180425106,1.28503314073558,1.1883521787899,1.2416547144892,1.2334277715804,1.18970415891827,1.23078134239296,1.13250868753019,0,1.13918229156809,1.09255335990669,1.00211451897922,1.00307337013409,1.10654299825627,1.01026475379563,1.01053323211899,1.06711503876795,1.07939792206186,0,1.06904232958925,1.08331003477373,1.11235363625479,1.11322619080572,1.36013036318511,1.08319497263515,1.18032659462362,1.08861248166017,1.32779790224285,0,1.17355710547023,1.16737251552131,1.18597422792582,1.17932938942256,1.06969434837456,1.07024089353283,1.02245175197404,1.01949849041704,1.35729216376669,0,1.00619922489897,1.00609375127194,0.996610713350258,0.996927134231366,0.994088934812947,0.993714982862547,0.992717777661481,0.991787692041255,0.990071348474035,0,0.989841224196866,0.988326239372169,0.98839335895301,0.987405742263493,0.988671425787923,0.992171232503204,0.992593127011347,0.992804074265419,0.992842428311614,0,0.993015021519491,0.994760130621357,0.994798484667551,0.997742157713007,0.998748951425622,1.00308295864564,1.00321719780732,1.00293913097241
0.936814837630167,1.01317007279489,1.01462752655029,1.11659175835932,1.11767526016432,1.12408038587887,1.08784540073627,1.10678271104498,1.03671945715853,0,1.01779173536137,1.02562554929667,1.03749612659398,1.04107264140165,1.10526772622029,1.14599013476768,1.1849482571901,1.16104409789916,1.2356906603059,0,1.26737110246285,1.29880224331954,1.36309321325366,1.31412468477438,1.30931125197693,1.27664319313046,1.31982984914587,1.30809351101024,1.26142622530265,0,1.28756450778444,1.30876470681865,1.32111470969339,1.30593609591178,1.31795050088232,1.32728971113077,1.32841156698197,1.34772282924108,1.37561580933629,0,1.36043719555467,1.38802334328032,1.42178449244334,1.42119000472732,1.44807619110992,1.44671462247,1.43164148231542,1.43010732046763,1.44812413366766,0,1.45178694507927,1.37918273563241,1.38173327970437,1.38980680642838,1.39022870093653,1.40843728436753,1.40712365828536,1.4265979252408,1.44218884501901,0,1.49467635723667,1.44791318641359,1.44701186632801,1.47787728500332,1.47561439627783,1.47308302922897,1.54827613679398,1.54833366786327,1.42076811021918,0,1.40335537324672,1.38077442854949,1.36762857921621,1.32901564320953,1.35518269122598,1.35393618472464,1.35373482598212,1.3714064527664,1.33249627290172,0,1.35445396434827,1.31453699077098,1.29518737446567,1.29565721153156,1.27051613425083,1.20764426402591,1.24843379215414,1.20909212926977,1.15352670484497,0,1.14346835623037,1.11180709109651,1.1084990546122,1.07959928080438,1.04213696618355,1.02378455507931,1.05541705467852,0.992928724915552,1.03416891308657,0,1.03504146763751,1.03550171619184,0.936306646518085,1.04246297557621,0.926884975070318,0.927712463616972,0.92664909768622,0.926631838365432,0.926551294868423,0,0.921560474607317,0.922129073342156,0.921727314708265,1.12956501448473,0.946950853188313,1.24306422568686,0.954230451156096,0.954770284356289,0.958899097429165,0,0.963309812741574,0.964594673289102,1.22590079001466,1.22479811118656,1.24312175675615,1.25212536910039,1.1663465447856,1.16628901371631,0.99540256089512,0,0.998288702871284,1.35799212510975,1.28649059449099,1.08561127754542,1.11546990250812,1.11144272765766,1.15403489595705,1.15511839776205,1.09267801055683,0,1.0992461409677,1.07685696650145,1.07306950443971,1.06961764028217,1.06743145964906,1.1733749237508,1.52067081204523,1.49065877089776,1.05364318004201,0,1.05376783069214,1.12645833674295,1.18360586557328,1.18740291614657,1.03075540297523,1.36996817603409,1.01838622307739,1.01916289251283,1.0119715088513,0,1.00644852619924,1.00611292829503,1.19007811086867,1.19253276982514,0.998279114359735,0.996207995865212,0.990665836190056,0.991049376652004,0.989956286335451,0,0.987923521887123,0.989227559457748,0.988642660253277,0.987376976728847,0.988565952160887,0.990953491536517,0.99309172961188,0.993772513931839,0.994232762486177,0,0.993906753093521,0.994424532717151,0.997090138927694,0.99689836869672,1.00019681666948,1.00286242288002,1.00271859520679,1.00348567613069
0.939677967178613,0.990665836190056,1.01009216058775,1.11847110662287,1.11766567165278,1.20044329185283,1.20075971273393,1.13588384359533,1.1167643515672,0,1.11169202895793,1.06431519339573,1.07866919518415,1.10250623489426,1.12316947728174,1.13693857986569,1.16414118712939,1.16560822939635,1.252834918955,0,1.26963399118835,1.29817899006887,1.29555173790452,1.30773873608294,1.31065364359375,1.30606074656191,1.32580349184071,1.32835403591267,1.34883509658073,0,1.34423261103734,1.29494766167695,1.32423097594673,1.30679906195116,1.32836362442422,1.33637962007895,1.34833649398019,1.35850990473338,1.3628055579072,0,1.38690148742912,1.40066100150153,1.42748965681483,1.43825755528404,1.43748088584859,1.44947611379603,1.45256361451472,1.44818166473695,1.45393477166618,0,1.44419284393269,1.4426011510156,1.45375258994676,1.39444764601796,1.43580289632756,1.43895751662709,1.44092316149458,1.49479141937525,1.50380462023105,0,1.45430872361658,1.50664281964947,1.51752578025726,1.44213131394972,1.44079851084444,1.56688743771004,1.47569110437022,1.43908216727722,1.43606178613938,0,1.42824714922718,1.39128343720688,1.4030964834349,1.36635330718023,1.38138809328861,1.37869372154342,1.36657384294585,1.407938681767,1.40055552787449,0,1.36180835270614,1.36140563522109,1.36125221903631,1.30974273499662,1.2323250927523,1.23198949484809,1.23152924629376,1.20861270369233,1.16230978142359,0,1.16188788691545,1.10551702752055,1.10507595598931,1.10985103474057,1.0473818820007,1.03459080759472,1.01641098969835,1.05304869232599,1.05764158935782,0,1.05828401963159,1.03443739140994,1.06518774794666,1.05296239572205,0.926996201804283,0.927019214232,0.926625126407348,0.926358565786294,0.926537870952255,0,0.920968863444762,0.92105324234639,0.921526914816897,0.947001672299521,0.947184812870101,1.06191806550855,0.954628374385368,1.28845623935847,0.964479611150517,0,0.966224720252383,1.04866674254823,1.22493235034824,1.16066055743721,1.12735006831698,1.10335002391054,0.994798484667551,0.997732569201458,0.996927134231366,0,0.997329851716412,1.36049472662396,1.35548952359553,1.20793191937237,1.14874203758216,1.08936997407252,1.06904232958925,1.08938915109562,1.27739109703126,0,1.07461325479905,1.07326127467068,1.06991488414018,1.49131078968307,1.50189650643285,1.06780541159946,1.1521363706704,1.15304727926753,1.17747880669365,0,1.0537390651575,1.12743636492092,1.53865885971062,1.14163695052456,1.24142459021203,1.22569943127214,1.02472422921109,1.41622315574509,1.01833828051964,0,1.3684531912094,1.37241324647901,1.37231736136353,1.0064005836415,1.00253641348736,0.998576358217745,1.37508844120111,0.992439710826568,0.988700191322569,0,0.987981052956416,0.988776899414959,0.989668630988989,0.990502831493727,0.990128879543328,0.99257394998825,0.99316843770427,0.994261528020823,0.994472475274895,0,0.995968283076495,0.996735364000392,0.998413353521417,0.999640682999652,1.00088718950098,1.00207616493303,1.00318843227268,1.00388839361573
0.954147989956778,0.950661607157665,1.0511022244816,1.08178546143749,1.08200599720311,1.19858312061237,1.19890913000503,1.16464937824148,1.24713934309506,0,1.10293771791395,1.09799963446636,1.10174874248191,1.11988061782053,1.11064688119912,1.13769607227804,1.17304891435815,1.17964581030366,1.21953401834632,0,1.24289163247898,1.2886384210779,1.34178754059242,1.31109471512499,1.34466409405704,1.32938000664839,1.33509475953142,1.34182589463862,1.3445777974531,0,1.34657220785523,1.34761735561404,1.32801843800847,1.32335842139579,1.40858111204076,1.35486627034487,1.35897974179927,1.51295206024852,1.52817861658788,0,1.41715324136532,1.4209886459848,1.44735705274377,1.45075138583201,1.4567921481077,1.45018566365064,1.44906380779944,1.44774059320571,1.46754086955381,0,1.46515333017818,1.46471225864694,1.5018869179213,1.53394131202865,1.54648308513437,1.4575400520085,1.4952133138834,1.49354491287392,1.44048208996334,0,1.4404149703825,1.50795644573164,1.50690170946128,1.51876269824704,1.4482104302716,1.44840220050257,1.45427036957039,1.45375258994676,1.451537643779,0,1.46048372505395,1.41085358927781,1.36927780320259,1.36859701888263,1.37042842458843,1.39981721248524,1.36740804345059,1.41417121427367,1.35135687511804,0,1.35931533970347,1.369948999011,1.36940245385272,1.2677546429248,1.25252808658544,1.24945976288985,1.21550684349586,1.21450963829479,1.21562190563444,0,1.14967212320238,1.12737883385162,1.12738842236317,1.08575510521865,1.06946422409739,1.07278184909324,1.01564390877446,1.01389879967259,1.15532934501612,0,1.1555211152471,1.09998445635695,1.05603071941764,1.06706709621021,1.07986775912774,0.934240322279337,0.926268433777736,0.926437191580993,0.93906334358834,0,0.99861471226394,0.998892779098852,0.970136832964259,1.13845356469039,1.14185748629018,1.14301769618758,0.963472817437902,0.963348166787769,0.964949448216404,0,0.966531552621942,0.970664201099438,1.12921023955743,1.1630001542551,1.17277084752324,1.0775569278445,0.996687421442648,0.996553182280966,0.997425736831899,0,1.36411918398938,1.08363604416639,1.11694653328662,1.27935674189874,1.15227060983208,1.0917287479135,1.15560741185104,1.07949380717734,1.08929326598013,0,1.07748021975211,1.07663643073583,1.16278920700102,1.14952829552915,1.14862697544357,1.15077480203049,1.15201172002027,1.15318151842921,1.39292307268171,0,1.43124835334193,1.31255216888039,1.19187116252827,1.1420780220558,1.1495570610638,1.15211719364731,1.16076603106425,1.02560637227357,1.02070664287218,0,1.31869840478312,1.42654039417151,1.01109895430037,1.01209615950143,1.36874084655586,1.45301427455751,1.45357040822733,0.99070419023625,0.987549569936723,0,0.988431712999205,0.989611099919697,0.989486449269564,0.991039788140455,0.993935518628167,0.994558771878833,0.996265526934505,0.996044991168884,0.996466885677028,0,0.996850426138976,0.997732569201458,0.999966692392308,1.00068583075846,1.0007529503393,1.00247888241807,1.00315966673803,1.00504860351313
0.958080238542905,0.990071348474035,1.01363032134923,1.08860289314862,1.12935406723066,1.21203580231522,1.23251686298327,1.26195359343783,1.25017890125601,0,1.20385680196417,1.1637480581559,1.13219226664908,1.13141559721363,1.13403326086643,1.17151475251035,1.17379681825895,1.17590629079967,1.20355955810616,0,1.28929043986321,1.28930002837476,1.31831486432117,1.32971560455259,1.337865839369,1.34206560742733,1.34411754889876,1.33278392824818,1.34734887729068,0,1.34675438957466,1.34508598856518,1.35719627865121,1.35687026925855,1.40511007086013,1.40604015648036,1.36185629526388,1.38652753547872,1.38856029992705,0,1.41825592019342,1.42166943030476,1.48028400140205,1.49039988108594,1.47355286629485,1.45141299312887,1.45001307044276,1.4493514631459,1.47090643710741,0,1.57594858112357,1.47828000248837,1.50231840094099,1.48629599814309,1.49389009928968,1.49622969610756,1.496709121685,1.4534457575772,1.44197789776494,0,1.51405473907662,1.51186855844351,1.46586288003278,1.46524921529367,1.44903504226479,1.45177735656772,1.450454141974,1.46018648119594,1.56508479753888,0,1.44345452854344,1.4355535950273,1.37395699683836,1.37263378224464,1.37132974467401,1.4239994386111,1.36479996830934,1.36439725082429,1.3527472092926,0,1.35251708501543,1.38033335701825,1.3807552515264,1.332256560113,1.25989206345485,1.26657525600431,1.23593996160617,1.21617803930427,1.21660952232396,0,1.15907845303167,1.15449514451139,1.13582631252604,1.09577509978706,1.09280266120696,1.07267637546621,1.07285855718563,1.04707504963114,1.1223160997539,0,1.11893135517721,1.11866287685384,1.06948340112049,1.03717011720132,1.04122605758643,1.03963436466934,1.03780295896353,1.04088087117067,0.946827161389334,0,0.943450087621877,0.996140876284372,1.13858780385207,1.13885628217543,1.02924041815053,1.03011297270147,0.987463273332785,0.964949448216404,0.966311016856321,0,0.966982212664732,1.20548684892745,1.23920964404428,1.14919269762495,1.14830096605092,0.998739362914073,0.995814866891715,0.997243555112474,1.11948748884703,0,1.10993733134451,1.07269555248931,1.18220594288717,1.15352670484497,1.20559232255448,1.20261029546283,1.06272350047864,1.3572154556743,1.07741310017127,0,1.07612823962375,1.07619535920459,1.07655013413189,1.14960500362154,1.15068850542655,1.12022580423628,1.11025375222562,1.11683147114804,1.08033759619363,0,1.35964134909613,1.52441992006078,1.14965294617929,1.53467962741791,1.56069325924957,1.5727460182663,1.02999791056288,1.02914453303505,1.02334348354807,0,1.02437904279533,1.01420563204215,1.01038940444576,1.01231669526705,1.00368703487321,0.999832453230626,0.99615046479592,0.989275502015492,0.987223560544067,0,0.989275502015492,1.46080014593506,0.993283499842855,0.992813662776968,0.995047785967818,0.994242350997726,0.997320263204863,0.998116109663407,0.998001047524822,0,0.998566769706196,0.99808734412876,1.00143373465926,1.00322678631887,1.00383086254644,1.00144332317081,1.18167857475199,1.18462224779745
0.958966217010006,0.96706850926867,0.981575927241875,1.02070664287218,1.0988721890173,1.1641220101063,1.21489317875674,1.235709837329,1.23920964404428,0,1.23934388320596,1.23986166282959,1.1625686712354,1.14724622978056,1.15428419725732,1.30502518731465,1.17965539881521,1.19258071238288,1.21845051654131,0,1.24868309345441,1.29012464036795,1.29543667576594,1.31580267429541,1.37578840254416,1.35716751311656,1.37246118903676,1.34095334008768,1.34186424868481,0,1.36080155899352,1.36464655212456,1.36437807380119,1.45451008235911,1.38402493396451,1.40468817635199,1.4053210181142,1.46312056572985,1.46063714123873,0,1.39501336819933,1.42364466368379,1.46965993060607,1.51646145547535,1.49460923765583,1.60046640515363,1.49137790926391,1.58206605149165,1.56949551285129,0,1.5846741266329,1.59157785494798,1.58373445250113,1.60203892104762,1.53127570581811,1.51280823257529,1.50437034241242,1.51068917152302,1.51674911082181,0,1.5172189478877,1.51694088105278,1.45742498986991,1.51365202159158,1.45190200721786,1.45148011270971,1.45051167304329,1.46657242988739,1.45818248228226,0,1.44180530455706,1.4407313912636,1.42293511382919,1.44304222254684,1.3941599906715,1.45497033091344,1.37071607993489,1.37232694987508,1.36796417712041,0,1.34968847410856,1.34965012006237,1.38134015073087,1.34276556877039,1.26806147529436,1.2654917541993,1.24609419533625,1.25828119351467,1.24578736296669,0,1.24541341101629,1.17232018748045,1.14990224747955,1.09965844696429,1.09164245130957,1.10657176379091,1.10766485410747,1.10787580136154,1.10917025042061,0,1.1174739014218,1.1186149342961,1.06924368833177,1.10843193503136,0.983340213366838,1.04041103410478,1.19999263181004,1.22001344392375,0.97765422601845,0,0.966934270106988,1.04310540584997,1.03951930253075,1.02805144271849,1.22905541031419,1.2230146480385,0.963913888969143,0.964239898361799,0.966924681595439,0,0.984164825360027,1.12476117019882,1.27398717543146,1.19817081461578,0.994242350997726,0.994971077875428,0.995939517541848,0.996217584376761,1.08964804090743,0,1.02673781663632,1.1521555476935,1.16538769363073,1.16355628792492,1.45943857729515,1.07550498637308,1.44279292124658,1.37751433462293,1.37983475441772,0,1.0753323931652,1.07639671794711,1.1491447550672,1.06501515473879,1.06435354744192,1.1155849646467,1.07625289027388,1.05289527614121,1.12105041622947,0,1.35922904309953,1.04882974724456,1.1395178894723,1.05296239572205,1.33340718149885,1.33561253915505,1.63064145099744,1.02784049546442,1.02322842140949,0,1.10335961242209,1.1055457930552,1.02408179893732,1.331173058308,0.99853800417155,0.997770923247653,0.996025814145787,0.996658655908002,0.987463273332785,0,0.99257394998825,0.993149260681173,0.993714982862547,0.995594331126095,0.99615046479592,0.996907957208269,0.996869603162074,0.99913249188757,1.00026393625032,0,1.00110772526661,1.00268982967214,1.00279530329918,1.0041185178929,1.00431987663542,1.00876894599403,1.00705260242681,1.0328552870044
