2.26240873272969,2.26331865178193,2.26490851034573,2.26625839025839,2.26121883858445,2.26227874429365,2.2649985023399,2.26503849878176,2.26641837602581,2.2679282417059,2.26627838847931,2.26659836001417,2.26737829063037,2.26783824971172,2.26732829507805,2.26833820523493,2.268598182107,2.26958809404295,2.27040802110101,2.27084798196143,2.27130794104278,2.27112795705443,2.27181789567646,2.27238784497291,2.27293779604844,2.27345774979258,2.27330776313561,2.27416768663553,2.27439766617621,2.27489762169941,2.27522759234473,2.27685744735039,2.27823732459444,2.27730740732127,2.27745739397824,2.27712742333292,2.27734740376313,2.27953720895478,2.27811733526887,2.27994717248381,2.28019715024542,2.28022714757681,2.2811770630709,2.28124705684415,2.28141704172204,2.28168701770457,2.28220697144871,2.28241695276846,2.28323687982652,2.28422679176247,2.28415679798922,2.28466675262289,2.28558667078559,2.28584664765766,2.28914635411083,2.28695654891918,2.28791646352374,2.28836642349463,2.28874638969227,2.28924634521547,2.28945632653522,2.29093619488392,2.29109618065134,2.29129616286062,2.29271603654653,2.2935059662732,2.29422590222662,2.29451587643008,2.29356596093599,2.29500583284283,2.2945958693138,2.29348596805227,2.29360595737784,2.29158613706409,2.29147614684898,2.29059622512813,2.29163613261641,2.29226607657565,2.2919161077094,2.29280602854071,2.29383593691852,2.29426589866848,2.29256604988957,2.29264604277329,2.29366595204063,2.29432589333126,2.29420590400569,2.29426589866848,2.2937859413662,2.29438588799405,2.29499583373236,2.29542579548232,2.29581576079042,2.29497583551143,2.2959057527846,2.29628571898224,2.29662568873802,2.29760560156351,2.29624572254038,2.29692566205194,2.29782558199372,2.2977755864414,2.29820554819135,2.29845552595296,2.29792557309836,2.29838553217971,2.29968541654005,2.29982540408655,2.29914546457498,2.29981540497608,2.29900547702849,2.29956542721448,2.30147525731313,2.3010652937841,2.30097530178992,2.30119528222014,2.3013452688771,2.30139526442942,2.30281513811533,2.30281513811533,2.30308511409786,2.30302511943508,2.30475496554537,2.30532491484183,2.30430500557449,2.30493494953373,2.3051949264058,2.30498494508605,2.3054449041674,2.30646481343474,2.30667479475449,2.30680478319053,2.30767470580091,2.30734473515559,2.30894459282985,2.30857462574268,2.30945454746353,2.30949454390538,2.30917457237053,2.3090445839345,2.30971452433559,2.31057444783551,2.31214430817838,2.31156435977146,2.31337419876547,2.31159435710286,2.31156435977146,2.31664390788725,2.31370416941079,2.31283424680041,2.31732384739881,2.31650392034075,2.31578398438734,2.31590397371291,2.31705387141628,2.31596396837569,2.31733384650928,2.31860373353823,2.31903369528818,2.32354329410752,2.32411324340397,2.32287335370642,2.32730295964204,2.32845285734542,2.41291534343612,2.32761293206643,2.41481517442431,2.42467429734196,2.42591418703951,2.4249142759931,2.42716407584753,2.42743405183007,2.4278140180277,2.42791400913235,2.42783401624863,2.42510425909192
2.2612888323577,2.26160880389256,2.26048890352057,2.2614288199042,2.26338864555517,2.26367861975863,2.26378860997374,2.26481851835155,2.26533847209568,2.26565844363054,2.26590842139214,2.2667283484502,2.26668835200834,2.26655836357231,2.26729829774666,2.26800823458961,2.26897814830464,2.26969808425805,2.26971808247898,2.26981807358362,2.27016804244987,2.27104796417072,2.27123794726953,2.27168790724042,2.27215786543224,2.27337775690886,2.27317777469958,2.27374772399604,2.27519759501334,2.27463764482735,2.27526758878659,2.27532758344937,2.27549756832726,2.27649747937368,2.27801734416423,2.27653747581554,2.27739739931545,2.2784173085828,2.27812733437934,2.278917264106,2.2794472169606,2.28004716358845,2.28133704883833,2.28098707997208,2.28095708264069,2.28210698034407,2.28306689494863,2.28363684424508,2.28283691540795,2.2832968744893,2.284496767745,2.28498672415774,2.28643659517505,2.28573665744256,2.28695654891918,2.28821643683767,2.28985629095379,2.28832642705277,2.29049623402349,2.29135615752341,2.2923060730175,2.29190610859894,2.29309600274417,2.29545579281371,2.29548579014511,2.29895548147617,2.30052534181904,2.30018537206326,2.37537868275369,2.37603862404432,2.3766585688931,2.29704565137751,2.29467586219751,2.29865550816224,2.29298601252907,2.29030625092467,2.29030625092467,2.29052623135489,2.29207609347683,2.29252605344772,2.29091619666299,2.29281602765118,2.29293601697675,2.29288602142443,2.2925860481105,2.29296601430814,2.29332598228485,2.29314599829649,2.29352596449413,2.29380593958713,2.29372594670341,2.29463586575565,2.29440588621498,2.29521581416257,2.29639570919734,2.29572576879624,2.29568577235439,2.29586575634274,2.29598574566831,2.29610573499388,2.29731562736005,2.29686566738916,2.29683567005777,2.29537579993,2.29801556509254,2.29746561401701,2.29778558555186,2.29882549304013,2.29864550905178,2.29902547524942,2.29919546012731,2.29978540764469,2.29998538985397,2.30050534359811,2.30062533292368,2.3005353409295,2.30091530712714,2.3010652937841,2.30026536494697,2.30167523952242,2.30224518881887,2.30295512566183,2.30290513010951,2.30320510342343,2.30337508830132,2.30417501713845,2.30471496910352,2.3042450109117,2.30460497888841,2.30518492729533,2.30743472714977,2.30669479297542,2.30667479475449,2.3069247725161,2.30659480187078,2.30757471469627,2.30753471825441,2.30791468445205,2.30908458037635,2.3100744923123,2.3095745367891,2.31040446295762,2.31117439446336,2.31029447274252,2.31081442648665,2.31047445673087,2.31281424857948,2.31190432952724,2.31262426548066,2.31350418720151,2.3137841622945,2.31493405999788,2.3175238296081,2.31833375755569,2.31871372375333,2.3189737006254,2.31863373086962,2.32186344354954,2.41468518598827,2.41779490934262,2.41718496360431,2.41776491201123,2.42072464870862,2.41546511660448,2.42282446190609,2.4237143827374,2.42470429467335,2.4247742884466,2.42429433114432,2.42479428666753,2.42607417280694,2.42644413989412,2.42720407228939,2.42769402870213,2.42732406161496,2.42785401446956
2.26100885726471,2.26051890085196,2.26213875674716,2.26308867224125,2.26256871849711,2.26306867402032,2.26384860463653,2.26357862865399,2.26438855660159,2.26522848188058,2.26536846942708,2.26517848632826,2.26673834756067,2.26889815542092,2.26695832799088,2.26735829240944,2.2682082167989,2.26868817410118,2.26900814563603,2.26909813763021,2.26939811094413,2.27020803889173,2.27079798640911,2.27101796683932,2.27235784764152,2.27257782807173,2.27276781117055,2.27281780672287,2.27271781561823,2.27498761369359,2.27473763593199,2.27515759857148,2.27527758789705,2.27572754786794,2.27599752385047,2.27653747581554,2.27645748293182,2.27890726499554,2.27861729079208,2.27870728278626,2.27950721162339,2.27955720717571,2.27963720005942,2.28014715469309,2.281567028379,2.28253694209403,2.28213697767546,2.28256693942542,2.28348685758812,2.28413679976829,2.2846367552915,2.28484673661125,2.28571665922163,2.28759649198889,2.28842641815741,2.28865639769809,2.28981629451193,2.29086620111067,2.29070621534324,2.29440588621498,2.29475585508122,2.29521581416257,2.2981655517495,2.29754560690072,2.37258893093419,2.37942832249167,2.37839841411386,2.37656857689892,2.3757386507304,2.37638859291057,2.37751849239302,2.37741850128837,2.38018825488694,2.29025625537235,2.29048623491303,2.29129616286062,2.29184611393615,2.29109618065134,2.29025625537235,2.29165613083733,2.29095619310484,2.29131616108155,2.29194610504079,2.29224607835472,2.29229607390704,2.29279602943025,2.29380593958713,2.29295601519767,2.2932559885116,2.29400592179641,2.29342597338949,2.29315599740696,2.2933659787267,2.29369594937202,2.29416590756384,2.29542579548232,2.29531580526721,2.2955157874765,2.29617572876713,2.2952358123835,2.2961557305462,2.2964357056392,2.29658569229616,2.29741561846469,2.29688566561009,2.29715564159262,2.29762559978443,2.29848552328435,2.29778558555186,2.29766559622629,2.298305539296,2.29844552684249,2.29945543699937,2.2993654450052,2.29930545034241,2.30010537917954,2.3001453756214,2.30061533381322,2.30136526709803,2.30167523952242,2.30162524397009,2.30223518970841,2.3021251994933,2.30221519148748,2.3022651870398,2.30321510253389,2.30471496910352,2.30443499401052,2.30398503403964,2.30524492195812,2.30439499756867,2.30534491306276,2.30697476806842,2.30631482677778,2.30643481610335,2.30684477963238,2.30716475116724,2.30779469512648,2.30786468889973,2.30932455902749,2.31019448163787,2.31053445139365,2.31020448074834,2.31098441136454,2.31157435888193,2.31105440513779,2.31457409202117,2.3127242565853,2.31332420321315,2.31649392123029,2.31489406355603,2.3166039114454,2.31857373620683,2.31933366860211,2.32269336971807,2.41840485508094,2.4145651966627,2.41902479992971,2.41854484262743,2.4168249956276,2.41722496004617,2.41702497783688,2.41969474033081,2.42077464426094,2.42157457309807,2.42324442454559,2.42243449659799,2.42472429289428,2.4243843231385,2.42412434626643,2.42548422528956,2.42734405983589,2.4258341941558,2.42527424396981,2.42559421550466,2.42763403403935
2.25940899959044,2.26043890796825,2.26229874251458,2.26192877542741,2.26190877720648,2.26150881278791,2.26277869981686,2.263298653561,2.26431856282834,2.26425856816556,2.26453854325855,2.26507849522362,2.26524848010151,2.26613840093282,2.26646837157813,2.26690833243856,2.26781825149079,2.26780825238033,2.26798823636868,2.26864817765932,2.26914813318253,2.26944810649645,2.27108796061257,2.27119795082768,2.27128794282185,2.27218786276363,2.27267781917637,2.27313777825772,2.2742876759611,2.27365773200186,2.2745376537227,2.2764074873795,2.27650747848414,2.27524759056566,2.2753475816703,2.27623750250161,2.27702743222828,2.27737740109452,2.27782736106541,2.27853729790837,2.27974719027453,2.28024714579774,2.28179700791968,2.28108707107672,2.28187700080339,2.28312688961141,2.2822369687801,2.28312688961141,2.28459675884964,2.28528669747167,2.28483673750078,2.28674656759944,2.28736651244821,2.28802645373885,2.29013626604678,2.28997628027936,2.29220608191286,2.29317599562789,2.29452587554055,2.29804556242393,2.30245517013862,2.34597129887861,2.35869016738902,2.37348885087596,2.37885837319521,2.37730851107327,2.37702853598027,2.37760848438719,2.37908835273589,2.37872838475918,2.37903835718357,2.37949831626492,2.37471874146305,2.29106618331995,2.28976629895961,2.29050623313396,2.2899362838375,2.28987628917472,2.29054622957581,2.29109618065134,2.29065621979092,2.29108618154088,2.29106618331995,2.2919161077094,2.29190610859894,2.29291601875582,2.29273603476746,2.29276603209886,2.29545579281371,2.29320599295928,2.29321599206974,2.29308600363371,2.29410591290105,2.2940359191278,2.29414590934291,2.2952358123835,2.29455587287194,2.29428589688941,2.29500583284283,2.29616572965667,2.29577576434857,2.29583575901135,2.29665568606941,2.29620572609852,2.29642570652874,2.29833553662739,2.29737562202283,2.29744561579608,2.29813555441811,2.29881549392967,2.29800556598207,2.2977755864414,2.29759560245304,2.2974956113484,2.29858551438899,2.30005538362722,2.2996154227668,2.30116528488874,2.29993539430165,2.30194521550495,2.30113528755735,2.30217519504562,2.30133526976663,2.30168523863288,2.30235517903398,2.30273514523162,2.30359506873153,2.30255516124326,2.30383504738267,2.30538490950462,2.30488495398141,2.30461497799888,2.30561488904529,2.30674478852774,2.30673478941728,2.30682478141145,2.30747472359162,2.30822465687644,2.30805467199855,2.30865461862639,2.30907458126589,2.30944454835306,2.31024447719019,2.31175434287028,2.31220430284117,2.31734384561974,2.31372416763172,2.31496405732927,2.31576398616641,2.32036357697992,2.31952365170093,2.40956564143062,2.40766581044244,2.41594507390675,2.41528513261612,2.41450520199992,2.41819487376119,2.41806488532516,2.41742494225545,2.41769491823798,2.41837485774954,2.41736494759266,2.4185548417379,2.42172455975503,2.42442431958036,2.42264447791774,2.42179455352828,2.42272447080145,2.42345440586533,2.42095462824929,2.42394436227808,2.42441432046989,2.42529424219074,2.42686410253361,2.43091374227159,2.42612416835926
2.25934900492766,2.25962898002065,2.2594489960323,2.26077887772403,2.26188877898555,2.26165879944488,2.26241873184015,2.26245872828201,2.26314866690403,2.26413857883999,2.26411858061906,2.26491850945619,2.2650284996713,2.26570843918286,2.2660884053805,2.26684833777577,2.26741828707223,2.26772825949662,2.26826821146168,2.26833820523493,2.26889815542092,2.26930811894995,2.26921812695578,2.27111795794396,2.27112795705443,2.27169790635089,2.27228785386827,2.27215786543224,2.27279780850194,2.27324776847283,2.27326776669376,2.27412769019367,2.27645748293182,2.2755975594319,2.27635749182718,2.27644748382136,2.27660746958878,2.27780736284448,2.27748739130963,2.27889726588508,2.27926723297225,2.2800071671466,2.28077709865234,2.28288691096027,2.28216697500685,2.28269692786145,2.28316688605327,2.28360684691369,2.28520670458796,2.28688655514593,2.28804645195978,2.28866639680855,2.28963631052358,2.29023625715142,2.2925860481105,2.29568577235439,2.34933099999457,2.29926545390055,2.35125082920369,2.35342063617441,2.36052000460396,2.36018003484817,2.37864839187546,2.37335886243993,2.37488872634094,2.37586863916643,2.37886837230568,2.37822842923597,2.37786846125926,2.37842841144525,2.37987828246255,2.37737850484652,2.37269892114929,2.28997628027936,2.28942632920383,2.28948632386661,2.29012626693632,2.28960631319218,2.28994628294796,2.28972630251775,2.29015626426771,2.29092619577345,2.29092619577345,2.29158613706409,2.29171612550012,2.2912461673083,2.29163613261641,2.29210609080822,2.29215608636054,2.29388593247084,2.29265604188375,2.29285602409303,2.29303600808139,2.29322599118021,2.29372594670341,2.29387593336038,2.29475585508122,2.29564577591253,2.29444588265683,2.29429589599987,2.29492583995911,2.29539579815093,2.29646570297059,2.29563577680207,2.29616572965667,2.29600574388924,2.29630571720317,2.29631571631363,2.29685566827869,2.29686566738916,2.29716564070308,2.29927545301102,2.29750561045886,2.298025564203,2.2985555170576,2.29919546012731,2.29923545656916,2.29900547702849,2.29969541565051,2.2998953978598,2.30012537740047,2.30054534003997,2.30140526353988,2.3013452688771,2.30105529467364,2.30179522884799,2.30334509096993,2.30459497977795,2.30418501624892,2.30289513099904,2.30358506962107,2.30367506161525,2.3051949264058,2.30591486235922,2.30536491128369,2.30534491306276,2.30642481699289,2.30735473426605,2.30768470491137,2.30750472092302,2.30826465331829,2.31075443182387,2.31043446028901,2.3108844202599,2.31259426814927,2.31453409557932,2.3181637726778,2.31880371574751,2.40443609776251,2.41256537456987,2.41265536656405,2.40501604616944,2.41441521000574,2.41395525092439,2.41546511660448,2.41538512372076,2.41600506856954,2.41632504010439,2.41706497427874,2.41793489688912,2.41984472698777,2.41539512283123,2.41663501252878,2.41675500185435,2.41829486486583,2.41959474922617,2.419224782139,2.41951475634246,2.41976473410406,2.41990472165056,2.41995471720288,2.42338441209208,2.42513425642331,2.42286445834795,2.42468429645242,2.42866394241716
2.25805911967778,2.25918901916023,2.25903903250327,2.25960898179972,2.26141882079374,2.26104885370656,2.26150881278791,2.26279869803779,2.26342864199703,2.26406858506674,2.26336864733425,2.26470852813644,2.26468852991551,2.26498850322944,2.26522848188058,2.26583842761889,2.26609840449096,2.2665883609037,2.26813822302565,2.26829820879307,2.26848819189189,2.26891815364185,2.26899814652556,2.26946810471738,2.27035802554869,2.27133793837418,2.27212786810084,2.27139793303696,2.27213786721131,2.27253783162987,2.2728378049438,2.27491761992034,2.27539757722262,2.27521759323427,2.27539757722262,2.27593752918769,2.27792735217005,2.27757738330381,2.27930722941411,2.2789472614374,2.27979718582685,2.28197699190803,2.28136704616972,2.28218697322778,2.28423679087293,2.28411680154736,2.28521670369842,2.28625661118669,2.28737651155868,2.28843641726788,2.28922634699455,2.29305600630232,2.29568577235439,2.29409591379059,2.36301978221999,2.37217896740516,2.37226895939933,2.37225896028887,2.37267892292836,2.37383881974221,2.37481873256769,2.37560866229436,2.37643858846289,2.3767685591082,2.37745849773023,2.37725851552095,2.37767847816044,2.37866839009639,2.37763848171858,2.37682855377099,2.37497871833512,2.37961830559049,2.29160613528501,2.29064622068045,2.28983629273286,2.29009626960493,2.28989628739564,2.28929634076779,2.28919634966315,2.28978629718054,2.28978629718054,2.29064622068045,2.29128616375016,2.29160613528501,2.29045623758164,2.29090619755252,2.29116617442459,2.29147614684898,2.29235606856983,2.29174612283151,2.29196610326172,2.29196610326172,2.29234606945936,2.29264604277329,2.29300601075,2.29280602854071,2.29365595293017,2.29399592268595,2.29352596449413,2.29358595915692,2.29396592535455,2.29366595204063,2.29493583906958,2.29471585863937,2.29468586130797,2.2955157874765,2.29557578213928,2.2966856834008,2.29734562469144,2.29650569941245,2.29666568517988,2.29789557576697,2.29653569674384,2.29695565938334,2.29778558555186,2.29930545034241,2.29885549037152,2.29859551349946,2.29990539697026,2.29874550015642,2.2993654450052,2.29967541742958,2.30059533559229,2.30116528488874,2.30116528488874,2.30196521372588,2.30205520572005,2.30311511142925,2.30164524219102,2.30337508830132,2.30370505894664,2.30367506161525,2.30434500201634,2.30419501535938,2.30552489705111,2.30515492996394,2.30659480187078,2.30973452255652,2.30732473693466,2.30871461328918,2.30916457326007,2.31307422545155,2.31308422456201,2.3133941969864,2.31564399684084,2.40493605328572,2.4099356085178,2.40787579176218,2.40814576774472,2.41070554002354,2.40945565121552,2.41109550533164,2.41217540926177,2.4123053976978,2.41716496538338,2.4169649831741,2.41518514151148,2.41419522957553,2.4145651966627,2.41618505255789,2.41518514151148,2.41473518154059,2.41594507390675,2.41510514862777,2.41607506234279,2.42054466472026,2.4198647252087,2.4246343009001,2.42032468429005,2.42071464959816,2.42148458110389,2.41750493513916,2.42594418437091,2.42852395487066,2.42354439785951,2.42563421194652
2.25822910455567,2.25791913213128,2.25968897468344,2.2594489960323,2.25973897023576,2.25991895422411,2.26051890085196,2.25992895333458,2.26173879232859,2.26493850767712,2.26269870693315,2.26334864911332,2.26394859574117,2.26426856727602,2.26491850945619,2.26697832621181,2.26549845786311,2.2665883609037,2.26674834667113,2.26702832176413,2.26812822391518,2.26827821057215,2.26886815808953,2.2688481598686,2.27001805579291,2.27066799797308,2.27137793481603,2.27113795616489,2.27194788411249,2.27253783162987,2.27392770798439,2.27385771421114,2.27438766706574,2.27512760124009,2.27574754608887,2.27700743400735,2.27802734327469,2.27889726588508,2.27818732904212,2.2794472169606,2.2813170506174,2.28233695988474,2.28253694209403,2.28377683179158,2.28543668412863,2.2863666014018,2.28775647775631,2.28933633720965,2.29183611482569,2.36225984982472,2.36106995567948,2.36137992810387,2.3613999263248,2.36224985071425,2.3622098542724,2.36958919779494,2.37200898252727,2.37161901721917,2.37201898163773,2.37234895228305,2.373618839312,2.37499871655605,2.37539868097461,2.37681855466052,2.37956831003817,2.37959830736956,2.38307799781108,2.3783884150034,2.37895836429985,2.37635859557917,2.37761848349766,2.38046822997994,2.29170612638966,2.29309600274417,2.28911635677944,2.28842641815741,2.28916635233176,2.28877638702366,2.28935633543058,2.28999627850028,2.2892663434364,2.28961631230265,2.28989628739564,2.28975629984915,2.29064622068045,2.29017626248864,2.29029625181421,2.29095619310484,2.29106618331995,2.2917761201629,2.29202609792451,2.29146614773852,2.29148614595944,2.29220608191286,2.29253605255818,2.29408591468012,2.29294601608721,2.29279602943025,2.29312600007556,2.29379594047666,2.2936459538197,2.29380593958713,2.29396592535455,2.29520581505211,2.29567577324392,2.29427589777894,2.29513582127886,2.29536580081954,2.29592575100553,2.29543579459278,2.29613573232527,2.29714564248215,2.29601574299971,2.29654569585431,2.29711564515076,2.2972456335868,2.29795557042975,2.29844552684249,2.29997539074351,2.29939544233659,2.29942543966798,2.29940544144705,2.30368506072571,2.30056533826089,2.30008538095862,2.30137526620849,2.30087531068528,2.30164524219102,2.30219519326655,2.30231518259212,2.30319510431297,2.3047749637663,2.30496494686512,2.30587486591736,2.30633482499871,2.30619483745221,2.30622483478361,2.30899458838218,2.30829465064968,2.30978451810884,2.31067443894015,2.31255427170741,2.40720585136108,2.40445609598344,2.40436610398927,2.40470607374505,2.40470607374505,2.40973562630852,2.40927566722716,2.4096556334248,2.41030557560497,2.40952564498877,2.41035557115729,2.41052555603518,2.41228539947687,2.41380526426743,2.4095456432097,2.40928566633763,2.41193543061063,2.41553511037772,2.41641503209857,2.41383526159882,2.41412523580228,2.41791489866819,2.41830486397629,2.41806488532516,2.42495427243496,2.41009559428522,2.41144547419789,2.32037357609038,2.41543511927308,2.42455430801639,2.31981362590439,2.32040357342177,2.31948365525907,2.3213734871368
2.25752916682318,2.25788913479989,2.25914902271837,2.25896903873002,2.25947899336369,2.26016893198572,2.26043890796825,2.26024892486943,2.26190877720648,2.26169879588673,2.26270870604361,2.26221874963087,2.26374861353188,2.26423856994463,2.26482851746201,2.26557845074682,2.26549845786311,2.26588842317121,2.26587842406075,2.26699832443273,2.26757827283965,2.26854818655468,2.2689881474151,2.26871817143257,2.27023803622312,2.26998805846152,2.27167790812996,2.27162791257764,2.27233784942059,2.27302778804262,2.27454765283317,2.27464764393781,2.2741476884146,2.27648748026321,2.27702743222828,2.27809733704794,2.27781736195495,2.27965719828035,2.28068710665816,2.28181700614061,2.28314688783234,2.28461675707057,2.28591664143091,2.28643659517505,2.29014626515725,2.28939633187244,2.36338974930717,2.36371971995248,2.3633797501967,2.36595952069645,2.36360972973738,2.36311977332463,2.36430966746987,2.36277980356885,2.36420967636523,2.36645947621966,2.37239894783537,2.37197898519587,2.37234895228305,2.37228895762026,2.37349884998643,2.37447876281191,2.3743987699282,2.37409879661427,2.37382882063174,2.37547867385833,2.37355884464921,2.37344885443411,2.37604862315478,2.37686855021285,2.37249893894001,2.36700942729519,2.29033624825607,2.28886637901784,2.28851641015159,2.28839642082602,2.28878638613412,2.28863639947716,2.28927634254687,2.28969630518636,2.28903636389573,2.28849641193066,2.28933633720965,2.29009626960493,2.29015626426771,2.29036624558746,2.2903262491456,2.29034624736653,2.29064622068045,2.29067621801185,2.2911361770932,2.2908562020002,2.29146614773852,2.29192610681987,2.29188611037801,2.29277603120932,2.29245605967447,2.29228607479658,2.29263604366282,2.29361595648831,2.29271603654653,2.29440588621498,2.29443588354637,2.29338597694763,2.29425589955801,2.29492583995911,2.29426589866848,2.2948458470754,2.2948458470754,2.29530580615675,2.29563577680207,2.29591575189506,2.29606573855203,2.29661568962755,2.29862551083085,2.2971056460403,2.2972156362554,2.29797556865068,2.29847552417389,2.29857551527853,2.29857551527853,2.29955542810402,2.29998538985397,2.30023536761558,2.30011537829001,2.30038535427254,2.30041535160393,2.30149525553406,2.30139526442942,2.30238517636537,2.30280513900487,2.30303511854554,2.30394503759778,2.30396503581871,2.30552489705111,2.30669479297542,2.30686477785331,2.30991450654488,2.3116943482075,2.40397613868116,2.40400613601256,2.40249627033247,2.40361617070445,2.4039661395707,2.40360617159399,2.40493605328572,2.40609595009956,2.40732584068665,2.40691587715762,2.40744583001222,2.40921567256438,2.40877571170396,2.40921567256438,2.40840574461678,2.40910568234927,2.41426522334878,2.41035557115729,2.40902568946556,2.40798578197729,2.4071458566983,2.40773580421568,2.41422522690692,2.41291534343612,2.41172544929088,2.31677389632329,2.31729385006742,2.31610395592219,2.31509404576531,2.31506404843392,2.31659391233493,2.31755382693949,2.3164639238989,2.31652391856168,2.31829376111384,2.31817377178827,2.32185344443908
2.25709920507322,2.25798912590453,2.25791913213128,2.25836909210217,2.25872906007888,2.25923901471255,2.26014893376479,2.26126883413677,2.26091886527053,2.26150881278791,2.26171879410766,2.26214875585762,2.26219875140994,2.26371861620049,2.2642185717237,2.26469852902598,2.26539846675847,2.2660584080491,2.26604840893864,2.26750827906641,2.26896814919417,2.26769826216522,2.26885815897907,2.26931811806042,2.27006805134523,2.27170790546135,2.27204787521713,2.27169790635089,2.2733677577984,2.2741476884146,2.27482762792616,2.2750976039087,2.2761575096179,2.27722741443756,2.27863728901301,2.28017715202449,2.28099707908255,2.28200698923943,2.28331687271023,2.28561666811699,2.28712653379707,2.28960631319218,2.2907162144537,2.36238983826075,2.36187988362708,2.36121994233645,2.36230984537704,2.36444965501637,2.36522958563257,2.36541956873139,2.3641896781443,2.36885926273106,2.36429966835941,2.36527958118489,2.3661695020162,2.36760937392304,2.37657857600938,2.37086908393435,2.37326887044575,2.37042912307393,2.3746787450212,2.37284890780626,2.37376882596896,2.37363883753292,2.3718889932017,2.37175900476566,2.37183899764938,2.37412879394567,2.37786846125926,2.37087908304482,2.37293889980043,2.2919161077094,2.28920634877362,2.28902636478526,2.28945632653522,2.28923634610501,2.28931633898872,2.28811644573302,2.28792646263421,2.28769648309353,2.28823643505859,2.28971630340729,2.28911635677944,2.28849641193066,2.28967630696543,2.28972630251775,2.28928634165733,2.28957631586079,2.28998627938982,2.29082620466881,2.28998627938982,2.29024625626189,2.29036624558746,2.29089619844206,2.2918061174943,2.29210609080822,2.29168612816873,2.29237606679075,2.29271603654653,2.2937859413662,2.29296601430814,2.29279602943025,2.29358595915692,2.29328598584299,2.2936459538197,2.29422590222662,2.29404591823827,2.29462586664519,2.29493583906958,2.2951258221684,2.29534580259861,2.29586575634274,2.29664568695895,2.29610573499388,2.29656569407523,2.29750561045886,2.29687566649962,2.29737562202283,2.29828554107507,2.29785557932511,2.2982755419646,2.29946543610984,2.30026536494697,2.30017537295279,2.30045534804579,2.30058533648182,2.30138526531896,2.30105529467364,2.30170523685381,2.30255516124326,2.30362506606293,2.30478496287677,2.30501494241744,2.30506493796976,2.30888459816707,2.30944454835306,2.30978451810884,2.40331619739053,2.40191632192555,2.40250626944293,2.40273624898361,2.40313621340217,2.40297622763475,2.40346618404749,2.40412612533813,2.40696587270994,2.4070058691518,2.40565598923914,2.40533601770429,2.40570598479146,2.40557599635543,2.405695985681,2.40597596077399,2.40677588961113,2.40565598923914,2.40634592786117,2.40718585314016,2.40667589850649,2.40718585314016,2.40782579620986,2.40922567167484,2.31412413205029,2.31257426992834,2.31384415695729,2.31287424324227,2.31358418008522,2.3135341845329,2.31347418987012,2.31350418720151,2.31365417385847,2.31350418720151,2.31510404487577,2.31643392656751,2.31569399239316,2.32053356185781,2.31661391055586
2.25601930114309,2.25615928868959,2.25682922909069,2.25823910366614,2.25843908587542,2.25866906541609,2.25931900759626,2.260648889288,2.26018893020665,2.26119884036353,2.26140882168327,2.26172879321812,2.26237873539829,2.26291868736336,2.26359862687492,2.26455854147948,2.26436855838066,2.26532847298522,2.26572843740379,2.26622839292699,2.26727829952573,2.26826821146168,2.26865817676978,2.26945810560691,2.27017804156033,2.26981807358362,2.27195788322295,2.27278780939148,2.27365773200186,2.27526758878659,2.27613751139697,2.27684744823992,2.27851729968744,2.27978718671639,2.28218697322778,2.2827969189661,2.36036001883653,2.28596663698323,2.28891637457016,2.36079997969695,2.35938010601104,2.36175989430151,2.36101996012716,2.3616499040864,2.36269981068514,2.36397969682455,2.36420967636523,2.36544956606278,2.36528958029536,2.36582953226042,2.36653946910338,2.3652495838535,2.36564954827207,2.36613950468481,2.36754937926025,2.36723940683587,2.36815932499857,2.36915923604498,2.36963919334726,2.37076909282971,2.37053911328904,2.3697691817833,2.37060910706229,2.37002915865536,2.37053911328904,2.37303889090507,2.37042912307393,2.36667945664987,2.37304889001554,2.36612950557434,2.36916923515545,2.29013626604678,2.2899362838375,2.2885964030353,2.28977629807007,2.28845641548881,2.28796645907606,2.28823643505859,2.28825643327952,2.28736651244821,2.28895637101201,2.28813644395395,2.28849641193066,2.28852640926205,2.28928634165733,2.28970630429682,2.28914635411083,2.28953631941893,2.28919634966315,2.289796296291,2.29070621534324,2.28984629184332,2.29052623135489,2.29054622957581,2.2912461673083,2.29128616375016,2.29130616197109,2.29161613439548,2.29291601875582,2.29187611126755,2.29238606590122,2.29251605433725,2.29281602765118,2.29304600719185,2.29287602231396,2.29368595026156,2.29342597338949,2.29539579815093,2.2935059662732,2.29391592980223,2.29504582928468,2.29570577057532,2.29616572965667,2.29635571275549,2.29770559266815,2.29614573143574,2.2964357056392,2.29719563803448,2.29702565315658,2.29808555886578,2.29835553484832,2.29823554552275,2.29856551616806,2.29831553840646,2.30020537028419,2.29962542187726,2.30008538095862,2.3026551523479,2.30392503937685,2.30312511053972,2.30660480098124,2.30496494686512,2.30576487570225,2.30869461506825,2.31099441047501,2.40107639664656,2.40158635128023,2.40071642866985,2.4002564695885,2.40100640287331,2.40224629257087,2.4052760230415,2.40269625254175,2.40187632548369,2.40233628456504,2.40294623030336,2.40322620539635,2.40330619828006,2.40299622585568,2.40293623119289,2.40766581044244,2.4037161618091,2.40389614579745,2.40375615825095,2.40553599991357,2.40297622763475,2.40351617959981,2.40409612800673,2.3128642441318,2.40655590918091,2.31171434642843,2.31151436421914,2.31200432063189,2.31078442915526,2.31187433219585,2.31190432952724,2.31320421388758,2.31298423345737,2.31360417830615,2.31299423256784,2.31268426014345,2.31379416140497,2.3127542539167,2.31288424235273,2.31349418809104,2.31717386074185
2.25566933227685,2.25596930559077,2.25638926823027,2.25783913924757,2.2587790556312,2.25815911078242,2.25878905474166,2.25864906719517,2.25923901471255,2.26159880478209,2.26134882702049,2.26173879232859,2.26331865178193,2.26305867490986,2.26260871493897,2.2640785841772,2.2654184649794,2.26592841961307,2.26669835111881,2.26787824615358,2.26833820523493,2.26875816787442,2.2696580878162,2.27066799797308,2.2713579365951,2.27236784675198,2.27441766439714,2.2745376537227,2.27575754519933,2.27647748115275,2.27793735128052,2.2827969189661,2.34811110851794,2.28404680777411,2.35676033906943,2.35844018962741,2.3590001398134,2.35901013892387,2.36158990942362,2.36073998503417,2.36151991565037,2.36210986316776,2.36306977777231,2.36246983114447,2.36319976620835,2.36370972084202,2.36456964434194,2.36516959096979,2.36610950735342,2.36792934545789,2.36463963811519,2.36371971995248,2.3647196309989,2.36550956072557,2.3718889932017,2.36622949667899,2.36570954293485,2.36593952247553,2.36801933745207,2.36861928407992,2.36752938103933,2.36777935880093,2.36779935702186,2.36826931521367,2.36843930009156,2.36961919512633,2.3671194175103,2.36854929030667,2.36701942640565,2.36597951891738,2.36462963900472,2.28984629184332,2.28858640392484,2.28854640748298,2.28827643150045,2.28732651600636,2.28867639591902,2.28764648754121,2.28697654714011,2.28801645462838,2.28783647064003,2.28772648042492,2.28788646619235,2.28765648665167,2.28803645284931,2.28813644395395,2.28885637990737,2.29006627227353,2.28936633454104,2.28891637457016,2.29045623758164,2.29023625715142,2.29016626337818,2.29036624558746,2.29051623224442,2.29078620822695,2.29038624380839,2.29109618065134,2.29088619933159,2.29193610593033,2.29176612105244,2.29279602943025,2.29248605700586,2.29215608636054,2.29273603476746,2.29284602498257,2.29287602231396,2.29348596805227,2.29337597783717,2.29399592268595,2.29343597249995,2.29568577235439,2.29529580704629,2.29556578302882,2.29517581772072,2.29673567895312,2.29650569941245,2.29683567005777,2.29645570386013,2.29890548592385,2.30130527243524,2.29906547169127,2.29958542543541,2.29871550282503,2.29994539341212,2.30231518259212,2.30080531691203,2.30356507140014,2.29826554285414,2.30578487392318,2.30536491128369,2.30682478141145,2.30671479119635,2.31094441492269,2.39778668930385,2.39262714830435,2.40317620984403,2.3989165887863,2.39947653897229,2.40038645802453,2.40056644201289,2.39981650872808,2.40044645268732,2.39970651851297,2.40104639931517,2.40069643044892,2.40153635572791,2.39996649538504,2.3997265167339,2.40129637707677,2.40060643845474,2.40054644379196,2.4025162685534,2.40052644557103,2.40250626944293,2.4038261520242,2.40124638152445,2.3999764944955,2.31118439357382,2.3095745367891,2.31006449320184,2.30990450743441,2.30974452166699,2.31044445939948,2.31037446562623,2.31139437489357,2.3107444327134,2.31096441314361,2.31133438023079,2.31082442559712,2.3133941969864,2.31164435265518,2.31184433486446,2.31220430284117,2.31411413293982,2.31334420143408
2.25549934739896,2.25574932516056,2.25762915792782,2.25697921574765,2.25740917749761,2.25780914191618,2.25903903250327,2.2590590307242,2.2599789488869,2.26007893999154,2.26140882168327,2.26189877809602,2.26228874340412,2.26257871760758,2.26413857883999,2.26452854414809,2.26550845697357,2.26588842317121,2.26644837335721,2.26844819545004,2.26946810471738,2.27075798996725,2.27115795438582,2.27190788767063,2.27316777558912,2.27263782273452,2.27695743845503,2.27787735661773,2.35590041556952,2.28130705150694,2.35621038799391,2.354790514308,2.35646036575551,2.35705031327289,2.35848018606927,2.35828020385999,2.35867016916809,2.360090042854,2.35968007932497,2.35982006687146,2.359810067761,2.3605899983772,2.3606199957086,2.36073998503417,2.36149991742944,2.36200987206311,2.36228984715611,2.36304977955139,2.3628797946735,2.36256982224911,2.36339974841763,2.36294978844674,2.36465963633611,2.36334975286531,2.36422967458616,2.36422967458616,2.3648596185454,2.36553955805696,2.3649696087605,2.3647196309989,2.36944921024844,2.36597951891738,2.36526958207443,2.36501960431282,2.36557955449882,2.3672294077254,2.36734939705097,2.36835930720785,2.36743938904515,2.36791934634743,2.29028625270375,2.28849641193066,2.28768648398307,2.28774647864585,2.28792646263421,2.287146532018,2.28694654980872,2.28796645907606,2.28773647953539,2.28832642705277,2.28841641904695,2.28773647953539,2.28747650266332,2.28729651867496,2.28801645462838,2.28815644217488,2.28854640748298,2.28775647775631,2.28828643061091,2.28906636122712,2.28900636656433,2.28980629540147,2.28903636389573,2.29023625715142,2.28950632208754,2.28970630429682,2.29029625181421,2.29129616286062,2.2908562020002,2.29109618065134,2.29121616997691,2.29172612461058,2.29162613350594,2.29221608102333,2.29169612727919,2.29218608369193,2.29273603476746,2.29310600185464,2.29313599918603,2.29377594225573,2.29475585508122,2.29601574299971,2.29421590311616,2.2949858346219,2.29534580259861,2.29533580348814,2.29610573499388,2.29556578302882,2.2961557305462,2.29653569674384,2.29900547702849,2.29877549748781,2.30342508385364,2.29896548058663,2.30021536939465,2.30073532313879,2.30055533915043,2.30416501802799,2.30210520127237,2.30774469957416,2.30610484545804,2.39061732710105,2.39299711539152,2.39330708781591,2.39398702732747,2.39632681917609,2.39652680138537,2.39696676224579,2.39680677647837,2.39817665461195,2.39775669197246,2.39898658255955,2.39818665372242,2.40123638241399,2.40193632014648,2.39724673733879,2.39776669108292,2.39763670264689,2.39764670175735,2.39736672666436,2.39768669819921,2.39887659234445,2.39906657544326,2.403046221408,2.40203631125112,2.31046445762041,2.31034446829484,2.30983451366116,2.31029447274252,2.30840464086479,2.30821465776597,2.30810466755087,2.30908458037635,2.31000449853906,2.30905458304496,2.3100744923123,2.3098245145507,2.31013448697509,2.31051445317273,2.31009449053323,2.31109440157965,2.31173434464935,2.31344419253872,2.31183433575399,2.31173434464935,2.31263426459113
2.25493939721296,2.25555934206174,2.25682922909069,2.25715919973601,2.25709920507322,2.25826910099753,2.25962898002065,2.25876905652074,2.25986895867179,2.26062889106707,2.2608988670496,2.26236873628783,2.26255871938665,2.26438855660159,2.26623839203746,2.26938811183367,2.26742828618269,2.26761826928151,2.26868817410118,2.26957809493248,2.27133793837418,2.27091797573468,2.27432767240296,2.27537757900169,2.27631749538532,2.35427056056386,2.35526047249981,2.35436055255804,2.35445054455221,2.35715030437754,2.35551045026141,2.35601040578462,2.35603040400555,2.35657035597061,2.35725029548218,2.35759026523796,2.35905013536572,2.35843019051695,2.35831020119138,2.35854018073205,2.35924011846454,2.35940010423197,2.35984006509239,2.36023003040049,2.36031002328421,2.35970007754589,2.36127993699923,2.36255982313864,2.36182988807476,2.35985006420286,2.36122994144691,2.36166990230733,2.36208986494683,2.36174989519105,2.36263981602236,2.36378971372573,2.36228984715611,2.36341974663856,2.36229984626657,2.36318976709788,2.36383970927805,2.3639397003827,2.36317976798742,2.36419967725476,2.36368972262109,2.36960919601587,2.36438966035358,2.36949920580076,2.36527958118489,2.36085997435974,2.28974630073868,2.28804645195978,2.28798645729699,2.28746650355285,2.28726652134357,2.28743650622146,2.28657658272154,2.28685655781454,2.28643659517505,2.28710653557614,2.28786646797142,2.2875364973261,2.28719652757032,2.28772648042492,2.28763648843075,2.28850641104113,2.28740650889007,2.28929634076779,2.28766648576214,2.28922634699455,2.28869639413994,2.28868639502948,2.28909635855851,2.28934633632012,2.29035624647699,2.29000627761075,2.28924634521547,2.29026625448282,2.29053623046535,2.29255605077911,2.29047623580256,2.2907162144537,2.29136615663387,2.29184611393615,2.29253605255818,2.29199610059312,2.29253605255818,2.29285602409303,2.29295601519767,2.29330598406392,2.29304600719185,2.29374594492434,2.29394592713363,2.29418590578477,2.29471585863937,2.29569577146485,2.29571576968578,2.2959057527846,2.29599574477878,2.29634571364502,2.2972456335868,2.29700565493566,2.2993654450052,2.2990854699122,2.30052534181904,2.29996539163305,2.30263515412697,2.3034650802955,2.30481496020816,2.38721762954324,2.38863750322915,2.38931744274072,2.39089730219405,2.39147725060097,2.39223718299625,2.39398702732747,2.39430699886233,2.39450698107161,2.39590685653659,2.39621682896098,2.39709675068183,2.39507693036807,2.39528691168782,2.39662679249001,2.39729673289111,2.39685677203069,2.39671678448419,2.3965467996063,2.39720674089693,2.39745671865854,2.39833664037938,2.3961268369668,2.39801666884453,2.39879659946073,2.30781469334741,2.30820465865551,2.30791468445205,2.30755471647534,2.30654480631846,2.30694477073702,2.30718474938816,2.30712475472538,2.30842463908572,2.30898458927171,2.30811466666133,2.30844463730665,2.30778469601601,2.30814466399272,2.3082346559869,2.30959453501002,2.30989450832395,2.30945454746353,2.30794468178344,2.31195432507956,2.31094441492269,2.31175434287028
2.25475941322461,2.2554593509571,2.25654925399769,2.25683922820115,2.25722919350926,2.25816910989289,2.25858907253238,2.26014893376479,2.26042890885779,2.26133882791002,2.26341864288657,2.26250872383433,2.26360862598539,2.26598841427585,2.26558844985729,2.26726830041527,2.26886815808953,2.27274781294962,2.27099796861839,2.27354774178675,2.35296067709306,2.3503809065933,2.35079087012233,2.35104084788394,2.35146081052343,2.3529206806512,2.35357062283137,2.35485050897078,2.35472052053475,2.35514048317424,2.35513048406378,2.35778024833678,2.35687032928454,2.360090042854,2.35651036130783,2.35668034618572,2.35739028302868,2.35662035152294,2.35692032483686,2.35732028925543,2.36146992009805,2.35877016027273,2.35664034974386,2.3569103257264,2.35805022431931,2.35814021631349,2.35726029459264,2.35918012380176,2.35567043602884,2.35492050274403,2.36257982135957,2.35960008644125,2.36035001972606,2.36615950290574,2.36115994767366,2.3608699734702,2.36162990586548,2.36181988896429,2.3613999263248,2.36181988896429,2.36506959986514,2.3605899983772,2.36172989697012,2.36185988540615,2.36211986227822,2.36300978310953,2.36005004641214,2.36226984893518,2.3602000330691,2.29017626248864,2.28745650444239,2.2876764848726,2.28842641815741,2.28746650355285,2.28688655514593,2.28704654091336,2.28740650889007,2.28719652757032,2.28713653290754,2.28628660851808,2.28615662008205,2.28662657827387,2.28725652223311,2.28673656848897,2.28696654802965,2.28774647864585,2.2876764848726,2.28775647775631,2.28736651244821,2.28799645640745,2.2886264003667,2.28871639236087,2.2888763781283,2.28895637101201,2.28930633987826,2.28913635500037,2.28925634432594,2.28958631497125,2.28981629451193,2.28982629362239,2.29048623491303,2.29044623847117,2.29040624202932,2.29083620377927,2.29150614418037,2.29168612816873,2.2919161077094,2.29228607479658,2.29265604188375,2.29387593336038,2.29314599829649,2.29387593336038,2.29314599829649,2.29349596716274,2.29383593691852,2.29529580704629,2.2959057527846,2.29593575011599,2.29647570208106,2.29680567272637,2.29755560601118,2.29828554107507,2.2993354476738,2.30059533559229,2.3012052813306,2.30136526709803,2.38420789729353,2.38907746408958,2.38726762509556,2.38825753703152,2.38846751835126,2.38957741961278,2.38960741694418,2.39069731998477,2.3912472710603,2.39199720434511,2.3916372363684,2.39236717143228,2.39203720078697,2.39408701843212,2.39314710204849,2.39301711361245,2.39319709760081,2.39390703444376,2.39330708781591,2.39458697395532,2.39669678626326,2.39471696239136,2.39513692503085,2.39800666973406,2.39331708692638,2.39291712250781,2.40033646247221,2.30760471202766,2.30693477162656,2.30596485791154,2.30617483923128,2.30613484278943,2.30525492106858,2.3053349139523,2.3061148445685,2.3075647155858,2.30652480809753,2.30682478141145,2.30644481521382,2.30764470846951,2.30588486502782,2.30696476895795,2.3078446906788,2.30727474138234,2.30817466132412,2.30905458304496,2.30949454390538,2.31066443982969,2.3091545741496,2.30970452522513
2.25547934917803,2.25832909566031,2.25717919795694,2.25609929402681,2.25819910722428,2.26001894532875,2.2594489960323,2.26108885014842,2.26256871849711,2.26350863488074,2.26426856727602,2.26587842406075,2.3527806931047,2.26978807625223,2.35361061927323,2.35290068243027,2.35378060415112,2.35444054544175,2.35289068331981,2.35243072423846,2.35262070733727,2.35310066463955,2.35262070733727,2.35232073402335,2.35478051519753,2.35448054188361,2.35452053832546,2.35541045915677,2.35418056856968,2.35488050630217,2.35435055344757,2.35432055611618,2.35484050986032,2.35608039955787,2.35537046271492,2.35477051608707,2.35483051074985,2.35520047783703,2.35539046093584,2.35503049295914,2.35595041112184,2.35626038354623,2.35524047427888,2.35539046093584,2.35619038977298,2.35575042891255,2.35628038176715,2.35608039955787,2.35401058369179,2.35371061037787,2.35603040400555,2.35851018340066,2.35845018873788,2.35814021631349,2.35921012113315,2.35845018873788,2.35932011134826,2.36071998681324,2.35968007932497,2.36008004374353,2.35963008377265,2.36023003040049,2.36031002328421,2.36032002239467,2.35925011757501,2.35752027146471,2.3586101745053,2.35916012558083,2.35933011045872,2.28943632831429,2.28825643327952,2.28741650800053,2.28695654891918,2.28906636122712,2.28652658716922,2.28577665388441,2.28679656315176,2.28634660318087,2.28596663698323,2.28643659517505,2.28591664143091,2.28744650533193,2.28740650889007,2.28668657293665,2.28634660318087,2.28662657827387,2.28683655959361,2.28708653735522,2.28713653290754,2.28766648576214,2.28764648754121,2.28800645551792,2.28780647330864,2.28835642438416,2.28908635944805,2.2890163656748,2.28923634610501,2.28947632475615,2.28961631230265,2.28973630162822,2.29001627672121,2.29063622156999,2.29097619132577,2.29020625982003,2.29098619043624,2.29150614418037,2.29307600452324,2.29202609792451,2.29266604099421,2.29275603298839,2.292726035657,2.29327598673253,2.29304600719185,2.2939259289127,2.29407591556966,2.29446588087776,2.29547579103464,2.29610573499388,2.29760560156351,2.29739562024376,2.29727563091819,2.29872550193549,2.29971541387144,2.30036535605161,2.3029351274409,2.37883837497428,2.38280802182855,2.38409790707843,2.3854177896597,2.3848878368051,2.38958741872325,2.38807755304316,2.38862750411869,2.38988739203717,2.38959741783371,2.38951742495,2.3905773306592,2.39231717587996,2.38980739915346,2.39073731642663,2.39111728262426,2.39191721146139,2.39197720612418,2.39150724793236,2.39125727017076,2.39265714563574,2.39229717765903,2.39197720612418,2.39331708692638,2.39373704956587,2.39334708425777,2.39564687966452,2.3054449041674,2.30476496465584,2.30518492729533,2.30433500290588,2.30461497799888,2.3057248792604,2.30451498689423,2.3037150580571,2.30384504649314,2.30484495753955,2.30640481877196,2.30435500112681,2.30654480631846,2.30619483745221,2.30675478763821,2.30591486235922,2.30618483834175,2.30665479653356,2.30600485435339,2.30626483122546,2.3070347627312,2.30699476628934,2.30764470846951,2.30836464442293
2.25818910811381,2.25908902805559,2.35558044403466,2.25869906274749,2.26157880656116,2.3511908345409,2.35082086745373,2.35155080251761,2.35475051786614,2.3523907277966,2.35316065930234,2.3529206806512,2.35348063083719,2.35243072423846,2.35216074825592,2.35242072512799,2.35285068687795,2.35293067976166,2.35382060059297,2.35300067353491,2.35343063528487,2.35273069755238,2.35414057212783,2.35360062016276,2.35285068687795,2.35388059525576,2.35289068331981,2.35396058813947,2.35262070733727,2.35283068865702,2.35329064773837,2.35343063528487,2.35371061037787,2.35416057034875,2.3530606681977,2.35268070200006,2.35329064773837,2.35276069488377,2.35280069132563,2.35431055700572,2.3530606681977,2.3533106459593,2.35346063261626,2.35497049829635,2.35450054010453,2.35433055522664,2.35440054899989,2.35639037198226,2.35524047427888,2.35429055878479,2.35589041645905,2.35765025990074,2.35607040044741,2.35563043958698,2.35722029815078,2.35761026345889,2.35765025990074,2.35703031505197,2.35719030081939,2.35724029637171,2.35743027947053,2.356880328395,2.35841019229602,2.35857017806345,2.35813021720302,2.35869016738902,2.35827020474952,2.35622038710437,2.35607040044741,2.35630037998808,2.28729651867496,2.28682656048315,2.28656658361108,2.2855566734542,2.28588664409952,2.28575665566348,2.28564666544838,2.28627660940762,2.28582664943673,2.28589664320998,2.28625661118669,2.28586664587859,2.28712653379707,2.28614662097159,2.28644659428551,2.2863666014018,2.28885637990737,2.28692655158779,2.28707653824475,2.28772648042492,2.28775647775631,2.28817644039581,2.28752649821564,2.28748650177378,2.28857640481438,2.2887363905818,2.28983629273286,2.28933633720965,2.28945632653522,2.28981629451193,2.28974630073868,2.28998627938982,2.29009626960493,2.2903262491456,2.29079620733742,2.29133615930248,2.29098619043624,2.29184611393615,2.29265604188375,2.292726035657,2.29359595826738,2.29288602142443,2.29322599118021,2.29347596894181,2.29457587109287,2.29500583284283,2.29598574566831,2.29644570474966,2.29510582394747,2.29925545479009,2.29870550371456,2.30045534804579,2.30193521639448,2.37811843902086,2.37854840077082,2.38621771849683,2.38525780389227,2.38397791775286,2.38388792575868,2.3843578839505,2.38611772739219,2.38643769892704,2.38707764199675,2.38774758239784,2.38678766779328,2.38811754948502,2.38786757172341,2.38874749344426,2.38914745786282,2.3891274596419,2.38905746586865,2.38770758595599,2.38882748632797,2.38917745519422,2.38955742139185,2.38818754325827,2.39081730931034,2.39021736268249,2.39413701398444,2.39494694193203,2.30506493796976,2.30470496999305,2.30470496999305,2.30343508296411,2.303045117656,2.30219519326655,2.30325509897575,2.30532491484183,2.30665479653356,2.30392503937685,2.30616484012082,2.30644481521382,2.30517492818487,2.30429500646402,2.30493494953373,2.30534491306276,2.30463497621981,2.30472496821398,2.30492495042327,2.30690477429517,2.30562488815576,2.30565488548715,2.30794468178344,2.30690477429517,2.30690477429517,2.3084846337485
2.35271069933145,2.35439054988943,2.3535606237209,2.3531706584128,2.35541045915677,2.3554304573777,2.34991094840149,2.35234073224428,2.35284068776749,2.35450054010453,2.35231073491289,2.35170078917457,2.35221074380824,2.35227073847103,2.35368061304647,2.35168079095364,2.35230073580242,2.35170078917457,2.35213075092453,2.35190077138386,2.35163079540132,2.35289068331981,2.35176078383736,2.35353062638951,2.35265070466867,2.35293067976166,2.35439054988943,2.35176078383736,2.35222074291871,2.35168079095364,2.35213075092453,2.35170078917457,2.35241072601753,2.3522507402501,2.35059088791305,2.35203075981989,2.35226073936057,2.35191077049432,2.35163079540132,2.35428055967432,2.35371061037787,2.35262070733727,2.3516107971804,2.35178078205829,2.35277069399424,2.3533106459593,2.35234073224428,2.3521107527036,2.35366061482555,2.35501049473821,2.35259071000588,2.3549005045231,2.35468052409289,2.35474051875567,2.3569103257264,2.35393059080808,2.35660035330201,2.35694032305779,2.35564043869745,2.35630037998808,2.35855017984252,2.35656035686015,2.35657035597061,2.35565043780791,2.35738028391821,2.35732028925543,2.35581042357534,2.35722029815078,2.35829020297045,2.35846018784834,2.28761649020982,2.28771648131446,2.28639659873319,2.28565666455884,2.2856966610007,2.28631660584948,2.28631660584948,2.28533669302399,2.28568666189024,2.28616661919251,2.28590664232045,2.28538668857631,2.28640659784365,2.28615662008205,2.28730651778543,2.2859766360937,2.28625661118669,2.28656658361108,2.28831642794231,2.2867565667099,2.28707653824475,2.28780647330864,2.28706653913429,2.28773647953539,2.28751649910518,2.28839642082602,2.28863639947716,2.2886264003667,2.28911635677944,2.29034624736653,2.29003627494214,2.28983629273286,2.28973630162822,2.29073621267463,2.29065621979092,2.29190610859894,2.29092619577345,2.29117617353506,2.29309600274417,2.29245605967447,2.29316599651742,2.29371594759295,2.29376594314527,2.29394592713363,2.29550578836603,2.29532580437768,2.29640570830781,2.29641570741827,2.29797556865068,2.30060533470275,2.30343508296411,2.37707853153259,2.37867838920686,2.378358417672,2.37786846125926,2.37982828691023,2.38198809477049,2.38230806630534,2.38286801649134,2.3846078617121,2.3848578394737,2.38357795333429,2.38546778521202,2.3853877923283,2.38560777275851,2.3864776953689,2.38544778699109,2.386587685584,2.38487783769463,2.38443787683421,2.38616772294451,2.38773758328738,2.38710763932814,2.38670767490957,2.38623771671776,2.38428789017725,2.38366794532847,2.3872576259851,2.39159723992654,2.38888748099076,2.30345508118503,2.30330509452807,2.30339508652225,2.30270514790022,2.30377505271989,2.30259515768512,2.30168523863288,2.3063648223301,2.30195521461541,2.30336508919086,2.30348507851643,2.30248516747001,2.30280513900487,2.30278514078394,2.30470496999305,2.30350507673736,2.30393503848731,2.30484495753955,2.30512493263255,2.30398503403964,2.30576487570225,2.30560488993483,2.30523492284765,2.30591486235922,2.30752471914394,2.30592486146968
2.35043090214562,2.35141081497111,2.351580799849,2.35247072068031,2.35381060148251,2.35213075092453,2.35101085055255,2.35199076337803,2.35435055344757,2.35286068598841,2.35140081586065,2.35123083098276,2.35075087368048,2.35507048940099,2.35102084966301,2.34954098131432,2.34937099643642,2.3497409635236,2.35033091104098,2.35071087723862,2.35047089858748,2.35075087368048,2.3503809065933,2.35208075537221,2.3543705516685,2.35222074291871,2.34896103290739,2.35034091015145,2.35168079095364,2.35077087190141,2.35011093061077,2.34989095018056,2.35036090837238,2.34991094840149,2.35012092972124,2.3496009759771,2.34923100888993,2.35023091993634,2.35093085766883,2.34954098131432,2.35058088880259,2.35137081852926,2.35242072512799,2.35059088791305,2.34958097775617,2.35012092972124,2.3501309288317,2.35058088880259,2.354230564122,2.35295067798259,2.35240072690706,2.3522507402501,2.35265070466867,2.35417056945922,2.35353062638951,2.35341063706394,2.35442054722082,2.35388059525576,2.35422056501154,2.35509048762192,2.35569043424977,2.35287068509888,2.35391059258715,2.3535606237209,2.35428055967432,2.354790514308,2.35575042891255,2.35310066463955,2.28858640392484,2.2886264003667,2.28735651333775,2.28639659873319,2.28755649554703,2.28666657471572,2.2853066956926,2.28539668768677,2.28539668768677,2.28496672593682,2.28468675084382,2.28525670014028,2.28547668057049,2.28958631497125,2.28668657293665,2.28503671971007,2.28556667256467,2.28586664587859,2.28617661830298,2.28592664054137,2.28582664943673,2.28715653112847,2.28631660584948,2.28678656404129,2.28695654891918,2.28774647864585,2.28740650889007,2.28748650177378,2.28791646352374,2.28846641459927,2.28869639413994,2.28930633987826,2.28874638969227,2.28995628205843,2.28972630251775,2.29118617264552,2.29052623135489,2.29024625626189,2.29086620111067,2.29185611304662,2.29192610681987,2.29284602498257,2.29454587376147,2.29382593780806,2.29308600363371,2.29414590934291,2.29547579103464,2.29655569496477,2.29652569763338,2.29787557754604,2.30006538273769,2.30020537028419,2.37735850662559,2.37713852619538,2.37870838653825,2.37885837319521,2.38064821396829,2.38094818728222,2.38122816237522,2.38241805652045,2.38245805296231,2.38151813657868,2.38252804673556,2.38274802716577,2.38255804406695,2.38304800047969,2.38378793465404,2.38375793732265,2.3840779088575,2.38319798713665,2.38352795778197,2.38350795956104,2.38415790174121,2.38386792753775,2.38302800225876,2.38361794977615,2.38344796489826,2.3844678741656,2.38800755926991,2.38623771671776,2.38496782968881,2.30750472092302,2.30090530801668,2.30723474494048,2.30190521906309,2.30138526531896,2.3017352341852,2.30152525286545,2.30170523685381,2.30202520838866,2.30126527599339,2.3009253062376,2.30075532135971,2.30074532224925,2.30174523329566,2.30632482588825,2.30218519415609,2.30258515857465,2.3025151648014,2.30235517903398,2.30567488370808,2.30343508296411,2.30372505716757,2.30356507140014,2.30453498511516,2.30456498244656,2.30441499578959,2.30506493796976
2.35170078917457,2.35175078472689,2.35155080251761,2.35112084076765,2.35118083543044,2.35137081852926,2.35100085144208,2.35088086211651,2.35228073758149,2.35365061571508,2.34929100355271,2.34895103379693,2.34836108627955,2.34866105959347,2.34674123038435,2.35115083809904,2.34718119124478,2.35159079895947,2.34765114943659,2.349211010669,2.34892103646554,2.34930100266318,2.3494609884306,2.34788112897727,2.34805111385516,2.34820110051212,2.34849107471558,2.35012092972124,2.3520007624885,2.34927100533178,2.34846107738419,2.34859106582022,2.34789112808773,2.34859106582022,2.34843108005279,2.34795112275051,2.34842108094233,2.34938099554689,2.34799111919237,2.3478711298668,2.34783113342495,2.34806111296562,2.34832108983769,2.34782113431448,2.34908102223296,2.34856106848883,2.34810110940748,2.34823109784351,2.34857106759929,2.35022092082588,2.34701120636688,2.35300067353491,2.35065088257584,2.35095085588976,2.35113083987812,2.35121083276183,2.35140081586065,2.35191077049432,2.35347063172673,2.35217074736639,2.35168079095364,2.35168079095364,2.35176078383736,2.35219074558732,2.35261070822681,2.35411057479643,2.35285068687795,2.34993094662242,2.28740650889007,2.2867565667099,2.28723652401218,2.28560666900652,2.28545668234956,2.2858366485472,2.2850267205996,2.28521670369842,2.28506671704146,2.28458675973918,2.28465675351243,2.28464675440196,2.28501672148914,2.28448676863454,2.28543668412863,2.28570666011116,2.28529669658213,2.28468675084382,2.28548667968095,2.2859466387623,2.2860866263088,2.28656658361108,2.28634660318087,2.28623661296576,2.28701654358197,2.28771648131446,2.28824643416906,2.28792646263421,2.28740650889007,2.28837642260509,2.28883638168644,2.2891263558899,2.28899636745387,2.28995628205843,2.29022625804096,2.28924634521547,2.29035624647699,2.29030625092467,2.28995628205843,2.29164613172687,2.29170612638966,2.29174612283151,2.29288602142443,2.29256604988957,2.29449587820915,2.2948458470754,2.29511582305793,2.29782558199372,2.29899547791802,2.2993354476738,2.37552866941065,2.37663857067217,2.37803844613715,2.38079820062526,2.37809844079994,2.37841841233479,2.37895836429985,2.37932833138703,2.37915834650914,2.37909835184635,2.38000827089859,2.3802282513288,2.38052822464272,2.38102818016593,2.3811481694915,2.38125815970661,2.38175811522982,2.38302800225876,2.38274802716577,2.38275802627623,2.38158813035193,2.38629771138054,2.38408790796796,2.38419789818307,2.38105817749733,2.38268803250298,2.38502782435159,2.38709764021767,2.38436788306096,2.30286513366765,2.30135526798756,2.30269514878976,2.30096530267946,2.300955303569,2.30079531780157,2.30022536850511,2.30183522528984,2.30041535160393,2.30151525375499,2.30057533737136,2.3014552590922,2.30005538362722,2.30037535516208,2.30032535960976,2.30350507673736,2.30143526087128,2.30058533648182,2.3020152092782,2.30239517547583,2.30322510164436,2.30535491217322,2.30347507940596,2.3050549388593,2.30277514167347,2.30359506873153,2.30297512388276,2.3042450109117,2.30404502870242
2.3537006112674,2.35443054633129,2.35614039422066,2.35188077316293,2.35309066552909,2.35202076070943,2.35010093150031,2.34938099554689,2.35219074558732,2.3533106459593,2.34507137893684,2.35022092082588,2.34712119658199,2.35031091282005,2.34580131400072,2.34493139139034,2.34599129709954,2.34659124372739,2.3461412837565,2.34387148568114,2.34370150080325,2.3458913059949,2.34559133268097,2.34739117256452,2.3477311423203,2.348931035576,2.34904102579111,2.34643125795996,2.34615128286697,2.34653124906461,2.34578131577979,2.34619127930882,2.34730118057035,2.34753116011102,2.34750116277963,2.34694121259364,2.34675122949482,2.34631126863439,2.34679122593667,2.34759115477381,2.34553133801819,2.34503138249498,2.34560133179144,2.34598129798908,2.34673123127389,2.34727118323895,2.35076087279094,2.34722118768663,2.34678122682621,2.34728118234942,2.34838108450047,2.34830109161676,2.35020092260495,2.34883104447136,2.34956097953524,2.35055089147119,2.35048089769795,2.35034091015145,2.35063088435491,2.35127082742461,2.35114083898858,2.35154080340715,2.35188077316293,2.35210075359314,2.35074087457001,2.35048089769795,2.35277069399424,2.34949098576199,2.35156080162807,2.2858366485472,2.28639659873319,2.28563666633791,2.28586664587859,2.28504671882053,2.28401681044272,2.28392681844854,2.28422679176247,2.28437677841943,2.28440677575082,2.28475674461707,2.28481673927985,2.28510671348331,2.2866165791634,2.28627660940762,2.28553667523327,2.28562666722745,2.28570666011116,2.2859766360937,2.28658658183201,2.28601663253555,2.28691655247733,2.28634660318087,2.28655658450062,2.28706653913429,2.2866165791634,2.28736651244821,2.28759649198889,2.28852640926205,2.28861640125623,2.28868639502948,2.28877638702366,2.28821643683767,2.28953631941893,2.28981629451193,2.29051623224442,2.29050623313396,2.29146614773852,2.29115617531413,2.29160613528501,2.29263604366282,2.29334598050578,2.29313599918603,2.29367595115109,2.29561577858114,2.29595574833692,2.29794557131929,2.2986955046041,2.3741187948352,2.3730888864574,2.37359884109107,2.37609861870711,2.37703853509074,2.37596863027107,2.37640859113149,2.37828842389875,2.37817843368365,2.37761848349766,2.37909835184635,2.37934832960795,2.37741850128837,2.37937832693935,2.37851840343943,2.37942832249167,2.37882837586382,2.37898836163125,2.37998827267766,2.3820680876542,2.38030824421251,2.38145814191589,2.38062821574737,2.37993827712534,2.38310799514248,2.38184810722399,2.38398791686332,2.37666856800356,2.3740088046201,2.3751787005444,2.30266515145837,2.30170523685381,2.30075532135971,2.29941544055752,2.29948543433077,2.29938544322612,2.30016537384233,2.29861551172039,2.29822554641228,2.29988539874933,2.29962542187726,2.29965541920866,2.2993354476738,2.29954542899355,2.29935544589473,2.30038535427254,2.30012537740047,2.30115528577828,2.30101529823178,2.30040535249347,2.30100529912132,2.30077531958064,2.30311511142925,2.30283513633626,2.30219519326655,2.30157524841777,2.30281513811533,2.30367506161525,2.30503494063837
2.25675923531744,2.25788913479989,2.34995094484335,2.35199076337803,2.34950098487246,2.34993094662242,2.35060088702352,2.35226073936057,2.26216875407855,2.3413717080651,2.2644685494853,2.265388467648,2.35065088257584,2.34274158619869,2.34795112275051,2.34579131489026,2.34676122860528,2.34789112808773,2.34806111296562,2.34337153015793,2.34364150614047,2.34429144832063,2.34526136203566,2.34835108716908,2.3440214723381,2.34491139316941,2.34504138160545,2.34399147500671,2.3452213655938,2.34632126774486,2.34570132289608,2.34510137626823,2.34486139761709,2.34461141985549,2.34556133534958,2.34507137893684,2.34407146789042,2.34373149813464,2.34387148568114,2.34358151147768,2.34445143408806,2.34525136292519,2.34500138516359,2.34439143942528,2.34431144654156,2.34479140384384,2.34501138427405,2.34479140384384,2.34527136114612,2.34824109695398,2.34630126952393,2.34704120369828,2.34749116366916,2.34794112364005,2.34825109606444,2.34873105336672,2.34948098665153,2.34873105336672,2.35236073046521,2.35142081408158,2.35031091282005,2.35087086300605,2.34911101956436,2.34852107204697,2.34813110673887,2.34767114765752,2.3487910480295,2.34860106493068,2.28729651867496,2.28533669302399,2.28503671971007,2.28387682289622,2.28524670102981,2.28411680154736,2.28341686381487,2.2837168371288,2.28494672771589,2.28473674639614,2.28389682111715,2.28459675884964,2.28486673483217,2.2842467899834,2.28495672682635,2.28662657827387,2.28565666455884,2.28579665210534,2.28603663075648,2.28719652757032,2.28558667078559,2.28591664143091,2.28614662097159,2.28671657026804,2.28629660762855,2.28635660229133,2.28702654269243,2.28657658272154,2.28712653379707,2.28752649821564,2.28803645284931,2.2885964030353,2.28930633987826,2.28921634788408,2.28944632742476,2.28951632119801,2.28966630785497,2.29037624469792,2.29149614506991,2.29136615663387,2.29257604900004,2.2925860481105,2.29274603387793,2.29335597961624,2.29500583284283,2.29591575189506,2.29712564426123,2.29978540764469,2.37033913107975,2.37078909105064,2.37204897896912,2.37253893538187,2.37435877348634,2.37491872367234,2.37544867652693,2.37655857778846,2.37613861514896,2.37722851818955,2.37662857156171,2.3767685591082,2.37420878682938,2.37956831003817,2.37800844880576,2.3773285092942,2.37754848972441,2.37830842211968,2.37842841144525,2.37762848260812,2.37766847904998,2.37728851285234,2.37706853242213,2.37715852441631,2.37733850840466,2.37500871566651,2.37362883842246,2.38187810455539,2.38081819884619,2.3008153160225,2.30037535516208,2.30040535249347,2.30026536494697,2.29881549392967,2.29866550727271,2.29920545923777,2.298305539296,2.29803556331346,2.29909546902266,2.30002538629583,2.29825554374368,2.29950543255169,2.29831553840646,2.29813555441811,2.298025564203,2.29982540408655,2.29939544233659,2.29858551438899,2.29974541120283,2.30072532402832,2.30029536227836,2.3005353409295,2.30059533559229,2.30078531869111,2.30056533826089,2.300955303569,2.30177523062706,2.30325509897575,2.30263515412697,2.30235517903398
2.25362951374216,2.25437944702697,2.25455943101533,2.255069385649,2.25527936696875,2.25695921752672,2.25790913302082,2.25815911078242,2.25908902805559,2.25966897646251,2.26135882613095,2.26147881545652,2.26251872294479,2.26320866156682,2.26521848277011,2.26695832799088,2.26860818121746,2.26977807714177,2.34452142786131,2.34454142608224,2.34551133979726,2.34729118145988,2.34730118057035,2.34557133446005,2.34195165647202,2.34149169739067,2.34413146255321,2.34242161466384,2.34289157285565,2.34328153816376,2.3440514696695,2.34393148034393,2.34359151058814,2.34387148568114,2.34333153371608,2.34261159776266,2.34459142163456,2.3416516831581,2.34166168226856,2.34211164223945,2.34254160398941,2.34166168226856,2.3414017053965,2.34183166714645,2.34178167159413,2.34207164579759,2.34323154261144,2.34305155862308,2.34381149101836,2.34353151592536,2.34357151236722,2.34467141451827,2.34471141096013,2.34577131666933,2.34770114498891,2.3482910925063,2.34814110584933,2.34744116811684,2.35003093772706,2.34394147945439,2.34552133890773,2.34254160398941,2.34220163423363,2.34835108716908,2.34449143052992,2.34566132645422,2.34848107560512,2.287146532018,2.28659658094247,2.28727652045404,2.28462675618103,2.28373683534973,2.28635660229133,2.28387682289622,2.28337686737302,2.28339686559394,2.28354685225091,2.28375683357065,2.28373683534973,2.28345686025673,2.28388682200669,2.28470674906475,2.28466675262289,2.28383682645437,2.28497672504728,2.2848867330531,2.28540668679724,2.28536669035538,2.28553667523327,2.28565666455884,2.28589664320998,2.28603663075648,2.28610662452973,2.28628660851808,2.28679656315176,2.28653658627969,2.28665657560526,2.28738651066914,2.28770648220399,2.28843641726788,2.28825643327952,2.28914635411083,2.28905636211665,2.28949632297708,2.29012626693632,2.28982629362239,2.29065621979092,2.29150614418037,2.29279602943025,2.29300601075,2.29362595559877,2.29474585597076,2.29715564159262,2.29882549304013,2.30179522884799,2.37103906881224,2.37104906792271,2.37066910172507,2.37138903767849,2.37211897274237,2.37276891492254,2.37346885265503,2.37528869075951,2.37364883664339,2.37469874324212,2.37535868453276,2.37543867741647,2.38015825755555,2.37887837141614,2.37887837141614,2.37633859735824,2.37538868186415,2.37536868364322,2.3798382860207,2.37597862938154,2.37571865250947,2.37750849328255,2.37707853153259,2.37749849417209,2.37565865784668,2.3755686658525,2.37502871388744,2.37456875480609,2.37494872100373,2.37501871477698,2.29981540497608,2.29792557309836,2.29847552417389,2.29844552684249,2.29761560067397,2.29776558733093,2.29750561045886,2.29918546101684,2.29820554819135,2.29758560334258,2.29837553306925,2.29836553395878,2.29864550905178,2.30013537651094,2.29820554819135,2.29776558733093,2.29821554730182,2.29838553217971,2.29874550015642,2.29893548325524,2.29891548503431,2.29963542098773,2.29979540675515,2.29969541565051,2.29984540230748,2.30040535249347,2.2998953978598,2.30031536049929,2.30096530267946,2.30178522973752,2.30174523329566
2.25100974680055,2.25138971299819,2.25349952530613,2.25336953687009,2.25446943902115,2.25630927534655,2.25577932249195,2.25652925577677,2.25831909654985,2.25840908854403,2.25926901204394,2.26028892131129,2.26127883324724,2.26232873984597,2.26344864021796,2.26467853080505,2.26548845875265,2.26623839203746,2.26933811628135,2.27005805223476,2.27087797929282,2.27371772666464,2.34199165291388,2.34091174898375,2.33972185483852,2.34111173119303,2.34265159420451,2.34039179523962,2.34180166981506,2.34104173741979,2.34253160487894,2.34182166803599,2.34124171962907,2.3417916707046,2.34040179435008,2.34001182904198,2.34027180591405,2.34008182281523,2.34071176677447,2.34042179257101,2.33991183793734,2.33975185216991,2.33999183082105,2.33963186284434,2.34025180769312,2.34067177033261,2.34080175876865,2.34125171873953,2.34126171785,2.34226162889641,2.3428215790824,2.34339152837886,2.34382149012882,2.3438814847916,2.34409146611135,2.34502138338452,2.34566132645422,2.34703120458781,2.34758115566334,2.34914101689575,2.34110173208257,2.34100174097793,2.34258160043126,2.34306155773354,2.33860195446653,2.33993183615826,2.34251160665802,2.29322599118021,2.28466675262289,2.28547668057049,2.28391681933808,2.28376683268112,2.28418679532061,2.28387682289622,2.28328687537884,2.28351685491951,2.28316688605327,2.28263693319867,2.28337686737302,2.28309689228002,2.28378683090205,2.28386682378576,2.28499672326821,2.28362684513462,2.28397681400087,2.28419679443108,2.28486673483217,2.28536669035538,2.28520670458796,2.28537668946585,2.28576665477395,2.28579665210534,2.28585664676813,2.28591664143091,2.28629660762855,2.28707653824475,2.28722652490171,2.28697654714011,2.28733651511682,2.28786646797142,2.28794646085513,2.28867639591902,2.28920634877362,2.28932633809919,2.29034624736653,2.29016626337818,2.29064622068045,2.29157613795362,2.29246605878493,2.29473585686029,2.29465586397658,2.29539579815093,2.29776558733093,2.36694943263241,2.36912923871359,2.36776935969047,2.36900924938802,2.36967918978912,2.37034913019022,2.37120905369013,2.37140903589942,2.37150902700406,2.37237894961444,2.37316887934111,2.37125904924246,2.37182899853891,2.3729488989109,2.37433877526541,2.37643858846289,2.37644858757335,2.37491872367234,2.37391881262592,2.37315888023064,2.37271891937022,2.37345885354457,2.37284890780626,2.37245894249815,2.37244894338769,2.37194898786448,2.37663857067217,2.37345885354457,2.3710790652541,2.37607862048618,2.37816843457318,2.29927545301102,2.29859551349946,2.29752560867979,2.29719563803448,2.29741561846469,2.29684566916823,2.29662568873802,2.29637571097641,2.29663568784848,2.29697565760426,2.29609573588342,2.29646570297059,2.29737562202283,2.29693566116241,2.29639570919734,2.29653569674384,2.29731562736005,2.29771559177861,2.29783558110418,2.29794557131929,2.29853551883667,2.29913546546452,2.29885549037152,2.29852551972621,2.29903547435988,2.29886548948199,2.29938544322612,2.30020537028419,2.29904547347034,2.29907547080174,2.30035535694115,2.30071532491786
2.25084976103313,2.25123972634123,2.25171968364351,2.25322954932359,2.25359951641077,2.25381949684098,2.25558933939314,2.2553193634106,2.25635927089887,2.25735918194529,2.25834909388124,2.26010893732293,2.25966897646251,2.260648889288,2.26144881812513,2.26278869892732,2.26418857439231,2.26501850056083,2.26598841427585,2.26911813585113,2.27171790457181,2.27372772577511,2.2756275567633,2.34138170717557,2.34087175254189,2.33797201050729,2.33910190998974,2.33852196158282,2.33869194646071,2.33916190465252,2.34039179523962,2.34007182370476,2.33929189308856,2.33962186373388,2.33871194468164,2.33826198471075,2.33793201406543,2.33958186729202,2.33871194468164,2.33846196692003,2.338331978484,2.33829198204214,2.33864195090839,2.33868194735025,2.3391119091002,2.33902191710603,2.33972185483852,2.34015181658848,2.33989183971641,2.3420416484662,2.34093174720468,2.34171167782088,2.34186166447785,2.34173167604181,2.34259159954173,2.34415146077414,2.34427145009971,2.34485139850663,2.34512137448916,2.34245161199523,2.34128171607092,2.33825198560029,2.33962186373388,2.33929189308856,2.34160168760578,2.33788201851311,2.34265159420451,2.28581665032627,2.28455676240779,2.2864765916169,2.28403680866365,2.28330687359977,2.28400681133226,2.28335686915209,2.2826269340882,2.28332687182069,2.28292690740213,2.28450676685547,2.28291690829166,2.28268692875099,2.28306689494863,2.2831868842742,2.2835768495823,2.2838568246753,2.28415679798922,2.28508671526239,2.28480674016939,2.28590664232045,2.2850267205996,2.28574665655302,2.28560666900652,2.28591664143091,2.28621661474484,2.2858366485472,2.28580665121581,2.2862266138553,2.28691655247733,2.28699654536104,2.2873965097796,2.28906636122712,2.28852640926205,2.28864639858762,2.28885637990737,2.28897636923294,2.28987628917472,2.29188611037801,2.29242606234307,2.29291601875582,2.29278603031978,2.2937859413662,2.29550578836603,2.3676193730335,2.36421967547569,2.36768936680675,2.36755937837072,2.36857928763806,2.36873927340549,2.36956919957401,2.36959919690541,2.36929922359148,2.3693492191438,2.36975918267283,2.36963919334726,2.37071909727739,2.37214897007377,2.37129904568431,2.3701591470914,2.37190899142262,2.37197898519587,2.37417878949799,2.37318887756204,2.37030913374836,2.37105906703317,2.37173900654473,2.37123905102153,2.37158901988777,2.37131904390524,2.37122905191106,2.37122905191106,2.37053911328904,2.37214897007377,2.37330886688761,2.29963542098773,2.29864550905178,2.29905547258081,2.29751560956933,2.2961557305462,2.29620572609852,2.29589575367414,2.29670568162173,2.29607573766249,2.29716564070308,2.29631571631363,2.29599574477878,2.29602574211017,2.29603574122063,2.29680567272637,2.29620572609852,2.2961857278776,2.29625572165084,2.29627571987177,2.29683567005777,2.29769559355768,2.29695565938334,2.29768559444722,2.29791557398789,2.29748561223794,2.29775558822047,2.29804556242393,2.29794557131929,2.29792557309836,2.29854551794714,2.29867550638317,2.29952543077262,2.29974541120283,2.29951543166216
2.25112973612612,2.25090975569591,2.25140971121912,2.25215964450393,2.25243961959693,2.25354952085845,2.25396948349794,2.25483940610832,2.25564933405592,2.2561292913582,2.25695921752672,2.25821910544521,2.25869906274749,2.25957898446833,2.26040891063686,2.26253872116572,2.26252872205526,2.26441855393298,2.26868817410118,2.26726830041527,2.26823821413029,2.2723078520892,2.27645748293182,2.27528758700752,2.33709208878645,2.3360721795191,2.33680211458298,2.33706209145505,2.33734206654805,2.33850196336189,2.33968185839666,2.33963186284434,2.33764203986197,2.33778202740847,2.33677211725159,2.33657213504231,2.3366021323737,2.33642214838535,2.33653213860045,2.33698209857134,2.33662213059463,2.3370220950132,2.33749205320501,2.33749205320501,2.33775203007708,2.33800200783868,2.33998183171059,2.34042179257101,2.34129171518139,2.33976185128037,2.3403118023559,2.34113172941396,2.34241161555337,2.34160168760578,2.34162168582671,2.34208164490806,2.34448143141945,2.34373149813464,2.34363150703,2.34334153282654,2.34187166358831,2.33991183793734,2.33951187351877,2.33981184683269,2.34010182103615,2.34002182815244,2.34187166358831,2.28508671526239,2.28456676151825,2.28384682556483,2.28353685314044,2.28308689316956,2.2836868397974,2.28286691273934,2.28306689494863,2.28332687182069,2.28308689316956,2.28301689939631,2.28293690651259,2.28271692608238,2.28325687804745,2.28299690117538,2.28337686737302,2.28389682111715,2.28422679176247,2.28479674105893,2.28450676685547,2.28524670102981,2.28469674995428,2.28609662541927,2.28515670903563,2.28573665744256,2.28538668857631,2.28565666455884,2.2860866263088,2.28655658450062,2.28690655336686,2.28696654802965,2.28826643238999,2.28857640481438,2.28807644929117,2.28851641015159,2.28923634610501,2.28955631763986,2.29009626960493,2.29149614506991,2.29334598050578,2.29290601964535,2.29556578302882,2.29589575367414,2.3660595118011,2.36606951091156,2.36598951802785,2.36738939349283,2.36741939082422,2.36815932499857,2.36861928407992,2.36847929653342,2.36897925205663,2.3682893134346,2.36845929831249,2.36853929119621,2.36808933122532,2.36954920135308,2.36880926717874,2.36788934901604,2.3694892066903,2.37023913997511,2.37045912040532,2.36990916932979,2.37034913019022,2.3690992413822,2.37049911684718,2.37058910884136,2.37095907592853,2.36968918889958,2.36940921380659,2.36965919156819,2.36954920135308,2.3717490056552,2.37051911506811,2.36978918000422,2.29886548948199,2.29728563002865,2.29722563536587,2.29690566383101,2.29664568695895,2.29602574211017,2.29714564248215,2.29559578036021,2.29561577858114,2.29550578836603,2.29506582750561,2.29447587998823,2.29415590845337,2.29596574744738,2.29557578213928,2.29517581772072,2.2964357056392,2.29642570652874,2.29619572698806,2.29660569051709,2.29617572876713,2.29602574211017,2.29785557932511,2.29747561312747,2.29786557843557,2.298025564203,2.29799556687161,2.29697565760426,2.29806556064486,2.29971541387144,2.29833553662739,2.2986955046041,2.2988354921506,2.29918546101684
2.24908991759144,2.24967986510882,2.25091975480638,2.25177967830629,2.25325954665499,2.25268959735853,2.25380949773052,2.25438944613744,2.2548194078874,2.25502938920714,2.25608929491634,2.25788913479989,2.25798912590453,2.25842908676495,2.25984896045086,2.26084887149728,2.26192877542741,2.26258871671804,2.26574843562471,2.26563844540961,2.26807822836286,2.27011804689755,2.27250783429848,2.27395770531578,2.27906725076297,2.33480229249015,2.33436233162973,2.33591219375168,2.33573220976332,2.33528224979243,2.33634215550163,2.33751205142594,2.33577220620518,2.3355422266645,2.33628216083885,2.33528224979243,2.33464230672273,2.33521225601918,2.33512226402501,2.33482229071108,2.335402239118,2.33580220353657,2.33643214749581,2.33655213682138,2.33612217507142,2.33638215194349,2.33726207366434,2.3370220950132,2.33756204697826,2.33783202296079,2.33804200428054,2.33817199271657,2.33874194201303,2.33869194646071,2.34174167515228,2.3444414349776,2.34223163156502,2.34317154794865,2.34281157997194,2.34197165469295,2.3417916707046,2.34189166180924,2.3421816360127,2.34306155773354,2.34236162000105,2.33860195446653,2.28648659072737,2.2860866263088,2.28487673394264,2.28391681933808,2.28277692074517,2.2822369687801,2.28219697233825,2.28221697055917,2.28316688605327,2.2825169438731,2.28275692252424,2.28281691718702,2.2822369687801,2.28373683534973,2.28298690206491,2.28305689583816,2.28291690829166,2.28362684513462,2.28629660762855,2.28366684157648,2.28411680154736,2.28394681666947,2.28465675351243,2.28487673394264,2.28537668946585,2.28600663342509,2.28592664054137,2.28566666366931,2.2859466387623,2.28576665477395,2.28618661741344,2.28751649910518,2.28630660673901,2.28721652579125,2.28910635766898,2.28868639502948,2.28919634966315,2.28985629095379,2.29055622868628,2.29171612550012,2.29271603654653,2.29429589599987,2.29606573855203,2.35909013180758,2.36067999037138,2.36551955983603,2.36264981513282,2.36461963989426,2.36715941395215,2.36797934101021,2.36898925116709,2.36558955360928,2.36581953314996,2.3659195242546,2.36599951713831,2.36678944686498,2.36675944953359,2.36606951091156,2.36438966035358,2.36712941662076,2.3671194175103,2.36769936591722,2.36821931966135,2.37074909460878,2.36770936502768,2.36785935168464,2.36838930453924,2.36808933122532,2.36903924671941,2.36930922270195,2.36945920935891,2.36897925205663,2.36981917733562,2.36850929386481,2.37214897007377,2.29740561935422,2.29785557932511,2.29803556331346,2.29522581327304,2.29568577235439,2.29435589066266,2.29427589777894,2.29447587998823,2.29496583640097,2.29472585774983,2.2944258844359,2.29473585686029,2.29428589688941,2.29369594937202,2.29422590222662,2.29419590489523,2.29535580170907,2.29532580437768,2.29630571720317,2.29554578480789,2.2949558372905,2.29580576167996,2.29548579014511,2.29584575812181,2.29759560245304,2.29661568962755,2.29654569585431,2.29656569407523,2.29730562824958,2.29728563002865,2.29743561668561,2.29695565938334,2.29720563714494,2.29988539874933,2.30373505627803
2.24891993271355,2.25017982063203,2.25071977259709,2.25145970677144,2.25123972634123,2.25248961514925,2.25346952797473,2.25389948972469,2.25450943546301,2.25477941144554,2.25569932960824,2.2572991872825,2.25788913479989,2.25842908676495,2.25954898713694,2.26098885904378,2.26184878254369,2.26199876920066,2.26374861353188,2.26571843829332,2.26713831197923,2.27108796061257,2.27195788322295,2.27514759946102,2.33111262072888,2.33122261094399,2.33136259849049,2.33290246150196,2.33295245705429,2.33322243303682,2.33425234141463,2.33438232985066,2.33360239923446,2.33457231294948,2.33466230494366,2.3337023903391,2.33364239567631,2.33357240190306,2.33441232718205,2.33309244460078,2.33388237432745,2.33710208789691,2.33672212169927,2.33580220353657,2.33544223555986,2.33464230672273,2.33492228181572,2.3350122738099,2.3368821074667,2.33662213059463,2.33687210835623,2.33721207811201,2.33778202740847,2.33798200961775,2.33865195001885,2.33809199983286,2.33905191443742,2.33961186462341,2.34049178634426,2.34076176232679,2.34116172674536,2.34113172941396,2.34119172407675,2.34336153104747,2.34213164046038,2.34182166803599,2.28546668146002,2.2843867775299,2.2831568869428,2.28289691007074,2.28248694654171,2.28132704972786,2.28199699012896,2.28217697411732,2.28278691985563,2.28183700436154,2.28197699190803,2.28235695810567,2.2823769563266,2.28231696166382,2.28278691985563,2.28280691807656,2.28278691985563,2.2831568869428,2.28377683179158,2.28345686025673,2.28388682200669,2.28468675084382,2.28429678553572,2.28472674728568,2.28490673127403,2.28490673127403,2.28521670369842,2.28567666277977,2.28598663520416,2.2860866263088,2.2860866263088,2.28638659962273,2.28676656582036,2.28717652934939,2.2872865195645,2.28909635855851,2.29005627316307,2.29019626070957,2.29135615752341,2.29254605166864,2.29324598940113,2.35732028925543,2.35719030081939,2.35706031238336,2.35819021186581,2.35718030170893,2.36520958741164,2.36467963455704,2.36382971016759,2.36325976087113,2.36350973863274,2.36440965857451,2.36367972351063,2.36427967013848,2.3644396559059,2.36448965145822,2.36494961053957,2.36556955538835,2.36541956873139,2.36529957940582,2.36604951269063,2.36782935435325,2.36615950290574,2.36587952781274,2.36533957584768,2.36610950735342,2.36575953848717,2.36554955716742,2.36877926984735,2.37034913019022,2.36773936235907,2.3599500553075,2.36137992810387,2.35929011401686,2.29648570119152,2.29603574122063,2.29603574122063,2.29581576079042,2.29439588710451,2.2936459538197,2.29434589155219,2.29305600630232,2.29458587020333,2.2960457403311,2.29327598673253,2.29334598050578,2.29361595648831,2.29341597427903,2.29384593602898,2.29349596716274,2.29478585241261,2.29409591379059,2.2945958693138,2.29450587731962,2.2943158942208,2.2949858346219,2.29457587109287,2.29525581060443,2.29446588087776,2.29504582928468,2.29513582127886,2.29672567984266,2.29606573855203,2.29609573588342,2.29677567539498,2.29737562202283,2.29811555619718,2.29646570297059,2.29678567450545,2.29775558822047
2.24902992292865,2.24982985176578,2.25019981885296,2.25290957778874,2.25114973434705,2.25180967563769,2.25288957956781,2.25267959824807,2.25451943457347,2.25511938120132,2.2553193634106,2.2570492095209,2.25745917304993,2.25802912234639,2.25861906986377,2.26040891063686,2.26130883057863,2.26202876653205,2.26386860285745,2.26586842495028,2.26680834133391,2.27051801131612,2.27127794371139,2.27430767418203,2.33045267943825,2.33051267410103,2.33078265008356,2.33181255846137,2.33268248107175,2.33207253533344,2.3326424846299,2.33260248818804,2.33178256112998,2.33209253355437,2.33273247662407,2.33187255312416,2.33186255401369,2.33149258692652,2.33161257625209,2.33101262962424,2.33142259315327,2.33187255312416,2.3316925691358,2.33243250331015,2.333312425031,2.33332242414146,2.33326242947867,2.33348240990889,2.33468230316458,2.33576220709471,2.33559222221682,2.33613217418189,2.33691210479809,2.3375520478678,2.33935188775134,2.33801200694915,2.33850196336189,2.33952187262923,2.33998183171059,2.34078176054772,2.34076176232679,2.34068176944308,2.34319154616958,2.34269159064637,2.34010182103615,2.34155169205346,2.284496767745,2.28348685758812,2.28254694120449,2.28085709153605,2.28271692608238,2.28154703015808,2.28157702748947,2.28177700969875,2.28217697411732,2.28242695187892,2.28232696077428,2.28243695098939,2.28230696255335,2.28218697322778,2.28330687359977,2.28277692074517,2.28292690740213,2.28298690206491,2.28301689939631,2.28308689316956,2.28381682823344,2.28394681666947,2.28418679532061,2.28422679176247,2.28454676329732,2.28425678909386,2.28501672148914,2.28529669658213,2.28579665210534,2.2862266138553,2.28668657293665,2.28701654358197,2.28709653646568,2.28813644395395,2.28800645551792,2.2892663434364,2.29081620555835,2.29094619399438,2.29243606145354,2.2939259289127,2.29595574833692,2.35492050274403,2.35551045026141,2.35684033195315,2.35771025456353,2.35878015938319,2.35987006242379,2.36138992721434,2.36310977421417,2.3633797501967,2.36286979556303,2.36260981869096,2.36258982047003,2.36260981869096,2.36229984626657,2.36317976798742,2.36338974930717,2.36417967903384,2.36422967458616,2.36423967369662,2.36526958207443,2.36622949667899,2.36437966124312,2.36394969949316,2.36464963722565,2.36396969771409,2.36546956428371,2.36311977332463,2.3617898916329,2.36285979645257,2.3625998195805,2.3612599387783,2.35973007487729,2.35986006331332,2.2961557305462,2.29513582127886,2.29452587554055,2.29439588710451,2.29413591023244,2.29400592179641,2.29356596093599,2.29279602943025,2.292726035657,2.29302600897092,2.29330598406392,2.29335597961624,2.29452587554055,2.29296601430814,2.29320599295928,2.29323599029067,2.29266604099421,2.29285602409303,2.29323599029067,2.2940359191278,2.29363595470924,2.29529580704629,2.29363595470924,2.29357596004645,2.29452587554055,2.29414590934291,2.29400592179641,2.29468586130797,2.29505582839515,2.29626572076131,2.29577576434857,2.29546579192418,2.29663568784848,2.29640570830781,2.29644570474966,2.29639570919734
2.24891993271355,2.24928989980072,2.25084976103313,2.25099974769009,2.25129972100401,2.25186967030047,2.25263960180621,2.2537595021782,2.25426945681187,2.25489940077111,2.25519937408503,2.25616928780006,2.25691922108487,2.25762915792782,2.2584990805382,2.2590590307242,2.26069888484032,2.26160880389256,2.26358862776446,2.26429856460741,2.26593841872353,2.26784824882219,2.27369772844372,2.27570754964701,2.32994272480458,2.3298527328104,2.3306326634266,2.33095263496146,2.33027269544989,2.33065266164753,2.33204253800205,2.33173256557766,2.33076265186264,2.33037268655453,2.32993272569411,2.33048267676964,2.33073265453124,2.33051267410103,2.33067265986846,2.32974274259529,2.32963275238019,2.33036268744407,2.33040268388593,2.33108262339749,2.33192254867648,2.33149258692652,2.33312244193218,2.3331724374845,2.33330242592053,2.33388237432745,2.33439232896112,2.33482229071108,2.33619216884467,2.33615217240281,2.33694210212948,2.33720207900155,2.33790201673404,2.33776202918754,2.33854195980375,2.33827198382121,2.34075176321632,2.33832197937354,2.33788201851311,2.33948187618738,2.33806200250147,2.28493672860542,2.28473674639614,2.28316688605327,2.28246694832078,2.28339686559394,2.2839668148904,2.28186700169293,2.2817070159255,2.28219697233825,2.28292690740213,2.281847003472,2.28200698923943,2.28211697945453,2.28210698034407,2.28194699457664,2.28233695988474,2.28319688338466,2.28269692786145,2.28271692608238,2.28268692875099,2.28333687093116,2.28460675796011,2.28366684157648,2.28376683268112,2.2839668148904,2.28444677219268,2.28467675173336,2.28487673394264,2.28517670725656,2.28540668679724,2.2862266138553,2.28630660673901,2.28681656137268,2.28718652845986,2.28794646085513,2.2891563532213,2.28952632030847,2.29165613083733,2.29253605255818,2.29324598940113,2.29528580793582,2.35605040222648,2.35372060948833,2.35483051074985,2.35644036753458,2.35819021186581,2.35934010956919,2.36076998236556,2.36110995212134,2.36087997258066,2.36024002951096,2.36257982135957,2.36143992276666,2.36070998770277,2.36098996279577,2.36260981869096,2.36038001705746,2.36156991120269,2.36300978310953,2.362179856941,2.36383970927805,2.36201987117358,2.36226984893518,2.362739807127,2.36246983114447,2.36256982224911,2.36307977688278,2.36346974219088,2.36115994767366,2.36243983381307,2.35810021987163,2.35947009800522,2.35957008910986,2.36032002239467,2.29708564781937,2.295655775023,2.29516581861025,2.29322599118021,2.29359595826738,2.29340597516856,2.29288602142443,2.29238606590122,2.29256604988957,2.29253605255818,2.29312600007556,2.29268603921514,2.29271603654653,2.29277603120932,2.29212608902915,2.29253605255818,2.29212608902915,2.29355596182552,2.29338597694763,2.29251605433725,2.29259604722096,2.29261604544189,2.29280602854071,2.29341597427903,2.29332598228485,2.29398592357548,2.29379594047666,2.29434589155219,2.29487584440679,2.29463586575565,2.29575576612764,2.29457587109287,2.29505582839515,2.29521581416257,2.29635571275549,2.29679567361591,2.29637571097641
2.24933989535304,2.24950988023093,2.25066977704477,2.25089975658545,2.25150970232376,2.25162969164933,2.25256960803296,2.25314955643988,2.2537595021782,2.25444944080022,2.25527936696875,2.25529936518967,2.25753916593365,2.25934900492766,2.25860907075331,2.25898903695095,2.26028892131129,2.26180878610184,2.26324865800868,2.2643585592702,2.26557845074682,2.26715831020016,2.27125794549046,2.32804289381639,2.32931278084533,2.32896281197909,2.32925278618255,2.32979273814761,2.33016270523479,2.33048267676964,2.32963275238019,2.33006271413015,2.32956275860694,2.32874283154888,2.32847285556634,2.32858284578145,2.32862284222331,2.32899280931048,2.3284028617931,2.32868283688609,2.32858284578145,2.32885282176398,2.32942277106044,2.32950276394415,2.3299627230255,2.33074265364171,2.33082264652542,2.33152258425791,2.33146258959513,2.33255249263572,2.33304244904846,2.3332824276996,2.33450231917623,2.33546223378079,2.3347322987169,2.33535224356568,2.33602218396678,2.33603218307724,2.33686210924577,2.3371320852283,2.33837197492586,2.33481229160062,2.33319243570543,2.33454231561809,2.33523225424011,2.28384682556483,2.28206698390221,2.28178700880922,2.28229696344289,2.28169701681504,2.28271692608238,2.28232696077428,2.28088708886744,2.28233695988474,2.28144703905343,2.28157702748947,2.28146703727436,2.28150703371622,2.28169701681504,2.28200698923943,2.28271692608238,2.28248694654171,2.28299690117538,2.28363684424508,2.28250694476263,2.28297690295445,2.28388682200669,2.2836868397974,2.28399681222179,2.28388682200669,2.28433678197757,2.2838268273439,2.28450676685547,2.28626661029716,2.28570666011116,2.28506671704146,2.28624661207623,2.28682656048315,2.28813644395395,2.28914635411083,2.28942632920383,2.2904662366921,2.29231607212797,2.29299601163953,2.29547579103464,2.35506049029053,2.35251071712217,2.35593041290091,2.35604040311601,2.3569103257264,2.35803022609838,2.35881015671458,2.35883015493551,2.3607299859237,2.35905013536572,2.35877016027273,2.3586101745053,2.35895014426108,2.3588901495983,2.35781024566817,2.35930011312733,2.3591401273599,2.3592801149064,2.3594201024529,2.36044001172024,2.36056000104581,2.36120994322598,2.36211986227822,2.36074998414463,2.36189988184801,2.36077998147602,2.36024002951096,2.36024002951096,2.35709030971475,2.35728029281357,2.35678033729036,2.35719030081939,2.35827020474952,2.35902013803433,2.29464586486612,2.29409591379059,2.29548579014511,2.29282602676164,2.29268603921514,2.29227607568611,2.29225607746518,2.29333598139531,2.29251605433725,2.29212608902915,2.29269603832561,2.29194610504079,2.29100618865716,2.2933959760581,2.29320599295928,2.29206609436636,2.29176612105244,2.29167612905826,2.29153614151176,2.29196610326172,2.29194610504079,2.2921960828024,2.292726035657,2.29315599740696,2.29279602943025,2.29275603298839,2.29267604010468,2.29308600363371,2.29326598762206,2.29434589155219,2.29397592446502,2.29388593247084,2.29447587998823,2.29647570208106,2.29488584351726,2.29538579904046,2.29588575456367
2.24892993182401,2.24905992026004,2.25013982419017,2.25031980817853,2.25102974502148,2.25122972723076,2.25222963827718,2.25299956978292,2.25349952530613,2.25403947727119,2.25472941589322,2.255069385649,2.2562392815733,2.25721919439879,2.2585290778696,2.25954898713694,2.25993895244504,2.26151881189838,2.26306867402032,2.2651384898864,2.26673834756067,2.26893815186278,2.27068799619401,2.32488317490971,2.3273429560839,2.32709297832229,2.32802289559546,2.32808289025824,2.3289328146477,2.32940277283951,2.32771292317107,2.3279828991536,2.32747294451993,2.32732295786297,2.32756293651411,2.32735295519436,2.32764292939782,2.32686299878162,2.32671301212465,2.32698298810719,2.3272029685374,2.32761293206643,2.32792290449082,2.32883282354305,2.32914279596744,2.32907280219419,2.32922278885116,2.33026269633943,2.33074265364171,2.3310226287347,2.33171256735673,2.33256249174618,2.33389237343792,2.33350240812981,2.33426234052509,2.33455231472855,2.33440232807159,2.33464230672273,2.33615217240281,2.33633215639117,2.33220252376947,2.33300245260661,2.33266248285083,2.3350122738099,2.28432678286711,2.28249694565217,2.28291690829166,2.28533669302399,2.28124705684415,2.28028714223959,2.28194699457664,2.28082709420466,2.28056711733259,2.28120706040229,2.28110706929765,2.2811770630709,2.28107707196626,2.28181700614061,2.28157702748947,2.28175701147782,2.28221697055917,2.2823769563266,2.28260693586728,2.28288691096027,2.28277692074517,2.28291690829166,2.28261693497774,2.28342686292534,2.28285691362888,2.2836868397974,2.28450676685547,2.28440677575082,2.28483673750078,2.28560666900652,2.2859766360937,2.28602663164602,2.287426507111,2.28823643505859,2.28830642883184,2.28918635055269,2.2895463185294,2.29229607390704,2.29308600363371,2.35418056856968,2.35523047516842,2.35431055700572,2.35473051964521,2.35496049918589,2.35514048317424,2.35523047516842,2.35817021364488,2.35795023321467,2.35684033195315,2.35841019229602,2.35675033995897,2.35764026079028,2.35776025011585,2.35669034529618,2.35779024744724,2.35760026434842,2.35737028480775,2.35750027324378,2.35852018251112,2.3580802216507,2.35935010867965,2.36022003129003,2.359530092668,2.35879015849366,2.35845018873788,2.35851018340066,2.3586101745053,2.35882015582505,2.36049000727256,2.35748027502285,2.35679033640083,2.36179989074337,2.35720029992986,2.29600574388924,2.29548579014511,2.29455587287194,2.29461586753472,2.2936459538197,2.29235606856983,2.29207609347683,2.29121616997691,2.29210609080822,2.29194610504079,2.2915261424013,2.29349596716274,2.29100618865716,2.29185611304662,2.29268603921514,2.29131616108155,2.29153614151176,2.29163613261641,2.2918061174943,2.2912461673083,2.29135615752341,2.29193610593033,2.29111617887227,2.29185611304662,2.29185611304662,2.2923360703489,2.29245605967447,2.29192610681987,2.29407591556966,2.29259604722096,2.29321599206974,2.29255605077911,2.29377594225573,2.29611573410435,2.29351596538367,2.29434589155219,2.29413591023244,2.29401592090687,2.29493583906958
2.24814000209734,2.24882994071937,2.25035980462038,2.25022981618435,2.25094975213777,2.25133971744587,2.25177967830629,2.25293957512013,2.25272959380039,2.25353952174798,2.25498939276529,2.25585931537567,2.25635927089887,2.25727918906158,2.25813911256149,2.25881905207306,2.25949899158462,2.26173879232859,2.26327865534007,2.26485851479341,2.26736829151991,2.27036802465915,2.32411324340397,2.32479318291554,2.32513315267132,2.3261130654968,2.32786290982803,2.32777291783385,2.32767292672921,2.32766292761875,2.32743294807807,2.32664301835141,2.32715297298508,2.32603307261309,2.32730295964204,2.32629304948516,2.32643303703166,2.32659302279908,2.32520314644457,2.32553311708988,2.32629304948516,2.32606306994448,2.32657302457816,2.32662302013048,2.32775291961293,2.32721296764786,2.32774292050246,2.32839286268263,2.32912279774652,2.33085264385681,2.32869283599656,2.33379238233327,2.33396236721117,2.33269248018222,2.33249249797293,2.3332824276996,2.33410235475766,2.3338123805542,2.33392237076931,2.33412235297859,2.33399236454256,2.33286246506011,2.33267248196129,2.33551222933311,2.28524670102981,2.2825169438731,2.28241695276846,2.28066710843723,2.2802571449082,2.28073710221048,2.2802571449082,2.28089708797791,2.28066710843723,2.28070710487909,2.28067710754769,2.28112706751858,2.28085709153605,2.28122705862322,2.28196699279757,2.28133704883833,2.28311689050095,2.28179700791968,2.28173701325689,2.28254694120449,2.2823769563266,2.28292690740213,2.28320688249513,2.28260693586728,2.28314688783234,2.28395681577994,2.2842467899834,2.28434678108804,2.28356685047183,2.28519670547749,2.28551667701234,2.28589664320998,2.28706653913429,2.2872865195645,2.28822643594813,2.28937633365151,2.29158613706409,2.29285602409303,2.29478585241261,2.35347063172673,2.35446054366268,2.35362061838369,2.35367061393601,2.35430055789525,2.35477051608707,2.35493050185449,2.35511048584285,2.35533046627306,2.35937010690058,2.35877016027273,2.35501049473821,2.35598040845323,2.35523047516842,2.35531046805213,2.35584042090673,2.35545045559863,2.35569043424977,2.35577042713348,2.35592041379044,2.35625038443576,2.35626038354623,2.35654035863922,2.35759026523796,2.35785024211003,2.35776025011585,2.35863017272623,2.35869016738902,2.35775025100538,2.35684033195315,2.35759026523796,2.35832020030184,2.35878015938319,2.35894014515062,2.29486584529633,2.29184611393615,2.29225607746518,2.29280602854071,2.29184611393615,2.29169612727919,2.29181611660476,2.29077620911649,2.29035624647699,2.29186611215708,2.29112617798273,2.29164613172687,2.29114617620366,2.29082620466881,2.29129616286062,2.29173612372105,2.2908562020002,2.29144614951759,2.29185611304662,2.2911361770932,2.2911361770932,2.29160613528501,2.29137615574434,2.29148614595944,2.29199610059312,2.2912461673083,2.29217608458147,2.29215608636054,2.29212608902915,2.2921960828024,2.29305600630232,2.29307600452324,2.29266604099421,2.29257604900004,2.29407591556966,2.29305600630232,2.29334598050578,2.29352596449413,2.29428589688941
