2.24446962109944,2.24411014488618,2.24467931555718,2.24511867537339,0,2.24516860262523,2.24695599824117,2.24628697306648,2.24793457237727,0,2.247575096164,2.248144266835,2.24949230263473,2.24970199709247,0,2.25049084767157,2.25092022203741,2.25146942180767,2.25228822873787,0,2.25217838878382,2.25389588624718,2.25430528971228,2.25485448948254,0,2.25568328186312,2.25544363105428,2.25678168140364,2.25826951350852,0,2.25709123036506,2.25883868417952,2.25886864053063,2.25934794214831,0,2.2604563271392,2.2614648576264,2.26172447933598,2.26261318441877,0,2.26303257333424,2.26348191860081,2.26427076917991,2.26484992530128,0,2.26563877588038,2.26609810659733,2.26725641884006,2.26832486202947,0,2.26839476018205,2.2694532179211,2.27019214124836,2.27202946411614,0,2.27179979875766,2.27328763086255,2.27420629229644,2.27487531747112,0,2.27617342601901,2.27800076343642,2.27895936667178,2.2806269368833,0,2.28267395420882,2.28310332857466,2.2863086581429,2.28995334752736,0,2.35997132551035,2.36109968140197,2.36112963775308,2.35996134005998,0,2.36017103451772,2.35953196569414,2.36142920126413,2.36966719781803,0,2.36879846363599,2.36917791074998,2.36921785255146,2.37197383685313,0,2.37089540821334,2.3706557574045,2.37091537911408,2.3698369504743,0,2.37042609204603,2.37061581560303,2.37424053408675,2.36997674677945,0,2.28680793066132,2.28577942927338,2.28543992396085,2.28587928377706,0,2.28553977846454,2.28669809070727,2.28658825075322,2.28915451149789,0,2.28618883273848,2.28705756692053,2.28688781426427,2.287097508722,0,2.28745698493526,2.28759678124042,2.28784641749963,2.28790633020184,0,2.28799619925516,2.28880502073499,2.28959387131409,2.28945407500894,0,2.28929430780304,2.29007317293178,2.29047259094651,2.29015305653472,0,2.29134132512856,2.29059241635093,2.29137128147966,2.29141122328114,0,2.29160094683814,2.29171078679219,2.2921801029595,2.29264941912681,0,2.29294898263787,2.29330845885113,2.29427704753686,2.29409730943023,0,2.29483623275749,2.29546531613069,2.29561509788622,2.29615431220611,0,2.29672348287711,2.29738252260142,2.29698310458669,2.297452420754,0,2.29901015101147,2.2988403983552,2.29923981636994,2.29982895794167,0,2.30090738658145,2.30119696464214,2.30342372007428,2.30349361822686,0,2.30525105749169,2.30914538313536,2.40047231220445,2.4000129814875,0,2.40074191936439,2.40065205031108,2.40102151197471,2.40268908218623,0,2.4042767687948,2.40372756902454,2.40513551752648,2.40611409166257,0,2.40598428080779,2.40503566302279,2.40694288404315,2.40680308773799,0,2.40688297134094,2.40446649235179,2.40415694339037,2.4081910653392,0,2.40811118173625,2.40895994501756,2.3142779046247,2.31352899584707,0,2.31247053810802,2.31236069815397,2.31513665335638,2.3137087339537,0,2.31353898129744,2.3148770316468,2.31783272495584,2.31587557668364,0,2.31730349608631,2.31805240486394,2.31922070255704,2.34386479406617,0,2.40701278219573,2.41509101154374,2.41827637021125,2.41477147713195,0,2.41812658845572,2.41611951293168,2.4180067630513,2.41711805796852,0,2.41726783972404,2.41579997851989,2.41647898914494,2.41855596282156,0,2.41827637021125,2.42104233996328,2.41960443511024,2.42157156883281,0,2.42195101594681,2.41931485704956,2.42210079770233,2.41682847990783,0,2.42484679655363,2.42393812057011,2.42281975012885,2.42457718939369,0,2.42198097229791,2.42227055035859,2.42066289284929,2.41459173902532,0,2.33457832522359,2.33354982383565,2.33393925640001,2.33241148249365,0,2.3307239413814,2.33027459611482,2.32975535269567,2.33191220997524,0,2.33054420327477,2.33002495985561,2.32999500350451,2.33081381043472,0,2.33180237002118,2.33282088595876,2.33262117695139,2.33752403308226
2.24223288021693,2.2436308432685,2.24364082871887,2.24425992664171,0,2.24562793334217,2.24606729315838,2.24604732225764,2.24753515436253,0,2.24791460147653,2.24817422318611,2.25026118231309,2.2495022880851,0,2.25000156060352,2.25040097861825,2.25042094951899,2.25166913081503,0,2.25261774860003,2.25346651188134,2.25377606084276,2.25390587169755,0,2.25516403844396,2.25532380564986,2.25646214699185,2.25647213244222,0,2.2581496881041,2.25782016824195,2.25846922251589,2.25963752020899,0,2.26034648718515,2.26075589065025,2.26172447933598,2.26211391190035,0,2.26235356270919,2.26330218049418,2.26389132206592,2.26483993985091,0,2.26549897957522,2.26577857218554,2.26675714632164,2.26769577865626,0,2.26925350891373,2.26952311607368,2.26988259228694,2.27224914402424,0,2.27308792185518,2.27311787820629,2.27488530292149,2.27623333872122,0,2.27684245119369,2.28023750431893,2.28117613665356,2.2825840851555,0,2.28421171356554,2.2868778288139,2.35913254767941,2.35917248948088,0,2.35963182019782,2.36202832828623,2.36271732436165,2.36251761535428,0,2.36284713521644,2.3610597396005,2.37019642668756,2.36796967125541,0,2.36813942391167,2.36922783800183,2.36883840543746,2.36973709597061,0,2.37002667403129,2.37018644123719,2.37037616479419,2.36990684862687,0,2.37263287657744,2.37095532091555,2.37222347311234,2.2878863593011,0,2.28639852719622,2.28598912373111,2.28643846899769,2.28541995306012,0,2.28568956022006,2.28637855629548,2.28698766876795,2.28647841079916,0,2.28658825075322,2.28692775606574,2.28956391496299,2.28623875999032,0,2.28684787246279,2.28704758147016,2.28712746507311,2.28740705768342,0,2.28821587916326,2.28808606830847,2.28850545722394,2.28894481704015,0,2.28932426415415,2.29048257639688,2.28952397316152,2.28959387131409,0,2.29054248909909,2.29043264914504,2.29111165977009,2.2911715724723,0,2.29102179071677,2.29185058309735,2.2919903794025,2.29159096138777,0,2.2927492736305,2.29342828425555,2.29400744037691,2.29418717848354,0,2.29409730943023,2.29427704753686,2.29534549072627,2.29618426855722,0,2.29523565077222,2.29709294454074,2.29698310458669,2.29794170782205,0,2.29831116948568,2.29866066024857,2.29971911798762,2.30010855055199,0,2.30062779397114,2.30131679004656,2.30375323993644,2.30540083924722,0,2.30777737643489,2.39834541127599,2.39850517848188,2.39989315608308,0,2.39993309788456,2.40048229765482,2.40122122098207,2.40266911128549,0,2.40255927133144,2.40264914038475,2.4031084711017,2.40754201106525,0,2.40654346602841,2.40538515378568,2.40488588126727,2.40405708888669,0,2.40494579396948,2.40461627410732,2.40713260760015,2.40559484824342,0,2.40388733623043,2.31182148383408,2.3119113528874,2.3127301598176,0,2.31189138198666,2.31145202217045,2.31107257505645,2.31140209491861,0,2.31220093094808,2.31407819561733,2.31423796282323,2.31388847206033,0,2.31567586767627,2.316265009248,2.32082836006635,2.32587101250237,0,2.4093893193834,2.4084407015984,2.42143177252765,2.41106687504529,0,2.41122664225118,2.41824641386014,2.41783701039504,2.41513095334521,0,2.41535063325331,2.41563022586363,2.41550041500884,2.41629925103831,0,2.41673861085452,2.41732775242625,2.42247025936596,2.41916507529403,0,2.42397806237158,2.41711805796852,2.41569013856584,2.41554035681031,0,2.41549042955847,2.41388277204917,2.42419774227969,2.42445736398927,0,2.42133191802397,2.42110225266549,2.42240036121338,2.42307937183843,0,2.42340889170059,2.33437861621622,2.33184231182266,2.33178239912045,0,2.32986519264972,2.32929602197872,2.32852714230036,2.32885666216252,0,2.32977532359641,2.32871686585736,2.33045433422145,2.33044434877109,0,2.33797337834884,2.33139296655608,2.33248138064623,2.33272103145507
2.24202318575919,2.24256240007908,2.24316152710119,2.24420999938986,0,2.2449888645186,2.24598740955543,2.24658653657754,2.2467862455849,0,2.24733544535516,2.24806438323205,2.24851372849863,2.24892313196373,0,2.24948231718436,2.25002153150425,2.2504808622212,2.25163917446393,0,2.25176898531872,2.25208851973051,2.25308706476734,2.25419544975823,0,2.25455492597149,2.25531382019949,2.2555634564587,2.25667184144959,0,2.25716112851764,2.25763044468495,2.25828948440926,2.25919816039278,0,2.26024663268146,2.26170450843524,2.2610554541613,2.26208395554924,0,2.26249335901434,2.26312244238755,2.26465021629391,2.26551895047596,0,2.26568870313222,2.26713659343564,2.26684701537495,2.26799534216732,0,2.26796538581621,2.26971283963067,2.27117071538446,2.27266853293971,0,2.27384681608318,2.27466562301339,2.27656285858337,2.27935878468652,0,2.27980812995309,2.28275383781176,2.28319319762797,2.28606900733406,0,2.28783643204926,2.35651635968289,2.36193845923292,2.35839362435215,0,2.36194844468329,2.36248765900318,2.36253758625502,2.36202832828623,0,2.36385566570364,2.36308678602528,2.36353613129186,2.36923782345219,0,2.36741048603478,2.3683191620183,2.36720079157705,2.36944751790993,0,2.36937761975735,2.36891828904041,2.36901814354409,2.36893825994114,0,2.36994679042835,2.37092536456445,2.36947747426103,2.28789634475147,0,2.28672804705837,2.28598912373111,2.28497060779354,2.2859292110289,0,2.28520027315201,2.28449130617586,2.28506047684686,2.28586929832669,0,2.28529014220533,2.28583934197559,2.28631864359327,2.28665814890579,0,2.28640851264659,2.28684787246279,2.28704758147016,2.28681791611169,0,2.28743701403453,2.28818592281215,2.28974365306962,2.28925436600157,0,2.28978359487109,2.28929430780304,2.28880502073499,2.28961384221483,0,2.28967375491704,2.29026289648878,2.29012310018362,2.29094190711382,0,2.29097186346493,2.29109168886935,2.29179067039514,2.29278921543197,0,2.29241975376834,2.29304883714155,2.29308877894302,2.29453666924644,0,2.29428703298723,2.29444680019312,2.29509585446706,2.29553521428327,0,2.29565503968769,2.29671349742674,2.29699309003705,2.29746240620437,0,2.29782188241763,2.29817137318052,2.29996875424683,2.30058785216967,0,2.30143661545098,2.30316409836471,2.30479172677475,2.31003408821814,0,2.40044235585334,2.3990044510003,2.39988317063271,2.39942383991577,0,2.39968346162535,2.40149082814202,2.4011812791806,2.40199010066044,0,2.40330818010906,2.40228966417149,2.40167056624865,2.40233959142333,0,2.40097158472287,2.40412698703927,2.40368762722306,2.40551496464047,0,2.40481598311469,2.404716128611,2.40515548842721,2.31035362262993,0,2.31015391362256,2.30972453925672,2.30928517944052,2.31053336073656,0,2.31042352078251,2.31040354988177,2.31048343348472,2.31164174572745,0,2.3119413092385,2.3121609891466,2.31404823926623,2.3135190103967,0,2.31388847206033,2.31454751178464,2.31611522749248,2.31456748268538,0,2.317782797704,2.41416236465948,2.41117671499934,2.41337351408038,0,2.41230507089096,2.40956905749003,2.41288422701233,2.4138727865988,0,2.41287424156196,2.41492125888748,2.41427220461353,2.41462169537642,0,2.41570012401621,2.41628926558794,2.41716798522036,2.41736769422773,0,2.41598970207689,2.41596973117615,2.41588984757321,2.41396265565211,0,2.41358320853811,2.41342344133222,2.41516090969632,2.41517089514668,0,2.41663875635083,2.42275983742664,2.42119212171881,2.42195101594681,0,2.42338892079985,2.33745413492968,2.33179238457082,2.33165258826566,0,2.33067401412956,2.32888661851362,2.32894653121583,2.32875680765883,0,2.33168254461676,2.3289565166662,2.32994507625267,2.32932597832983,0,2.32995506170304,2.33177241367008,2.33077386863324,2.33123319935019
2.24119439337862,2.24180350585109,2.24242260377393,2.24310161439898,0,2.24465934465644,2.24544819523554,2.24486903911418,2.24676627468417,0,2.24692604189006,2.24774484882027,2.247954543278,2.24831401949126,0,2.24866351025416,2.24963209893989,2.25109996014404,2.2508603093352,0,2.25175899986835,2.25260776314966,2.25297722481329,2.25343655553024,0,2.25422540610934,2.25483451858181,2.25557344190907,2.25633233613706,0,2.25687155045695,2.25728095392206,2.25951769480457,2.25930800034684,0,2.25951769480457,2.26042637078809,2.26133504677161,2.26187426109151,0,2.26246340266324,2.26269306802171,2.26410101652365,2.26482995440054,0,2.26571865948333,2.2661680047499,2.26747609874816,2.26862442554052,0,2.2692634943641,2.2708411955223,2.27156014794882,2.27263857658861,0,2.27518486643254,2.27675258214037,2.27963837729683,2.28018757706709,0,2.2825840851555,2.28404196090928,2.35897278047351,2.35897278047351,0,2.35794427908557,2.35855339155804,2.35959187839635,2.36025091812066,0,2.36172876477518,2.36285712066681,2.36415522921469,2.3632066114297,0,2.3620383137366,2.3632365677808,2.36517374515227,2.365573163167,0,2.36582279942621,2.37097529181629,2.366711504509,2.36714087887484,0,2.36623220289131,2.36663162090605,2.36733060243184,2.36889831813967,0,2.36448474907685,2.36605246478468,2.36476434168716,2.28751689763747,0,2.28761675214116,2.29032280919099,2.28605902188369,2.28626871634143,0,2.2876966357441,2.28462111703065,2.28460114612991,2.28814598101068,0,2.28532009855643,2.28566958931933,2.28658825075322,2.28628868724216,0,2.28581937107485,2.28622877453995,2.28639852719622,2.28741704313379,0,2.28734714498121,2.28760676669079,2.28813599556031,2.28840560272026,0,2.28866522442984,2.28894481704015,2.28884496253647,2.2886752098802,0,2.28958388586373,2.28979358032146,2.29049256184725,2.29027288193914,0,2.29114161612119,2.29130138332708,2.29130138332708,2.2925895064246,0,2.29217011750913,2.29250962282166,2.29298892443934,2.29321858979781,0,2.29460656739901,2.29443681474275,2.29448674199459,2.29572493784027,0,2.29545533068033,2.29657370112158,2.29718281359405,2.29705300273926,0,2.29829119858494,2.29910002006478,2.3003881431623,2.30129681914582,0,2.30326395286839,2.30577030091085,2.307997056343,2.39702733182736,0,2.39721705538436,2.39871487293961,2.39870488748925,2.40021269049487,0,2.39962354892314,2.39876480019146,2.40013280689192,2.40000299603713,0,2.39939388356466,2.40010285054082,2.40005292328898,2.40331816555943,0,2.40237953322481,2.39860503298556,2.40666329143284,2.40078186116587,0,2.40045234130371,2.40179039165307,2.30944494664641,2.30815682354889,0,2.30934509214273,2.30863612516657,2.30892570322725,2.30899560137983,0,2.31059327343877,2.31015391362256,2.31043350623288,2.31087286604909,0,2.31046346258398,2.31206113464292,2.31121237136161,2.31327935958786,0,2.31265027621465,2.31280005797018,2.31353898129744,2.31503679885269,0,2.31520655150896,2.31573578037848,2.41234501269244,2.41131651130449,0,2.41347336858406,2.40850061430061,2.41375296119438,2.41222518728802,0,2.41067744248092,2.41385281569806,2.41347336858406,2.41442198636906,0,2.41610952748131,2.41609954203094,2.41514093879558,2.41490128798674,0,2.41570012401621,2.41570012401621,2.41599968752726,2.41479144803269,0,2.41297409606564,2.41245485264649,2.41313386327154,2.41383284479732,0,2.41456178267421,2.42231049216007,2.42145174342839,2.42171136513796,0,2.41770719954025,2.41734772332699,2.33282088595876,2.33157270466271,0,2.33270106055434,2.32962554184088,2.32962554184088,2.32977532359641,0,2.3281676660871,2.32842728779668,2.32991511990156,2.32893654576546,0,2.3291462402232,2.33039442151924,2.33048429057256,2.33028458156519
0,0,0,0,0,0,0,0,0,0,0,0,0,0,0,0,0,0,0,0,0,0,0,0,0,0,0,0,0,0,0,0,0,0,0,0,0,0,0,0,0,0,0,0,0,0,0,0,0,0,0,0,0,0,0,0,0,0,0,0,0,0,0,0,0,0,0,0,0,0,0,0,0,0,0,0,0,0,0,0,0,0,0,0,0,0,0,0,0,0,0,0,0,0,0,0,0,0,0,0,0,0,0,0,0,0,0,0,0,0,0,0,0,0,0,0,0,0,0,0,0,0,0,0,0,0,0,0,0,0,0,0,0,0,0,0,0,0,0,0,0,0,0,0,0,0,0,0,0,0,0,0,0,0,0,0,0,0,0,0,0,0,0,0,0,0,0,0,0,0,0,0,0,0,0,0,0,0,0,0,0,0,0,0,0,0,0,0,0,0,0,0,0,0,0,0,0,0,0,0,0,0,0,0,0,0,0,0,0,0,0,0,0,0,0,0,0,0,0,0,0,0,0,0,0,0,0,0,0,0,0,0,0,0,0,0,0,0,0,0,0,0,0,0,0,0,0,0,0,0,0,0,0,0,0,0,0,0,0
2.24152391324077,2.24156385504225,2.24221290931619,2.24300175989529,0,2.24457946105349,2.24504877722081,2.24499884996897,2.247575096164,0,2.24695599824117,2.24625701671538,2.24755512526327,2.24800447052984,0,2.24862356845268,2.24937247723031,2.25013137145831,2.25041096406862,0,2.2497219679932,2.2522782432875,2.25234814144008,2.2532268610725,0,2.25409559525455,2.25489443128402,2.25468473682628,2.25562336916091,0,2.2561625834808,2.25724101212058,2.25830945531,2.25850916431737,0,2.25917818949205,2.25992709826967,2.26128511951977,2.2616246248323,0,2.26249335901434,2.26293271883055,2.26484992530128,2.26569868858259,0,2.26548899412486,2.26655743731427,2.26796538581621,2.26968288327957,0,2.27041182115646,2.27247880938271,2.27280832924487,2.27391671423576,0,2.2767126403389,2.27875965766442,2.2810063839973,2.35656628693474,0,2.35789435183373,2.35883298416835,2.35861330426025,2.35922241673272,0,2.35846352250472,2.35915251858014,2.36061039433392,2.36092992874571,0,2.36215813914102,2.36305682967417,2.36286710611718,2.36136928856192,0,2.36238780449949,2.36272730981202,2.36386565115401,2.36500399249601,0,2.36613234838763,2.36545333776258,2.36524364330485,2.3665517373031,0,2.36517374515227,2.36547330866332,2.36634204284537,2.3673106315311,0,2.36637199919647,2.36527359965595,2.36266739710981,2.36230792089655,0,2.28633861449401,2.28693774151611,2.28556973481564,2.28501054959501,0,2.28445136437439,2.28463110248102,2.28510041864833,2.28462111703065,0,2.28572950202154,2.28553977846454,2.28540996760975,2.28607899278443,0,2.28572950202154,2.28607899278443,2.28772659209521,2.28733715953084,0,2.28743701403453,2.28753686853821,2.28775654844631,2.28831573366694,0,2.2886452535291,2.28912455514678,2.28899474429199,2.28953395861188,0,2.28942411865783,2.28979358032146,2.29027288193914,2.29001326022957,0,2.29027288193914,2.29071224175535,2.29075218355683,2.29134132512856,0,2.29178068494477,2.29377777501844,2.29262944822608,2.29385765862139,0,2.29352813875923,2.29487617455896,2.2945466546968,2.29525562167296,0,2.29562508333659,2.29629410851127,2.29796167872279,2.29917990366773,0,2.30003865239941,2.2997890161402,2.30088741568072,2.30185600436645,0,2.30576031546048,2.30680878774916,2.38663247799389,2.39721705538436,0,2.39613862674458,2.39664788471336,2.39714715723178,2.40022267594524,0,2.39794599326125,2.40078186116587,2.39776625515462,2.39867493113814,0,2.39787609510867,2.39958360712166,2.3990044510003,2.39820561497083,0,2.39761647339909,2.40453639050437,2.40087173021918,2.40109141012729,0,2.40206998426339,2.30879589237247,2.30830660530442,2.30731804571795,0,2.30861615426583,2.30766753648084,2.30789720183931,2.31027373902698,0,2.30890573232652,2.30920529583757,2.3115618621245,2.31383854480849,0,2.30882584872357,2.3091953103872,2.3125104799095,2.31173161478077,0,2.31129225496456,2.31534634781411,2.31261033441318,2.3137087339537,0,2.31572579492811,2.31590553303474,2.31730349608631,2.41029799536692,0,2.41007831545882,2.41411243740764,2.4096089992915,2.41031796626766,0,2.41179581292218,2.41416236465948,2.4119455946777,2.41192562377696,0,2.41465165172753,2.41459173902532,2.41586987667247,2.41430216096464,0,2.41511098244447,2.41574006581768,2.41465165172753,2.41471156442974,0,2.41244486719612,2.41243488174575,2.41297409606564,2.41354326673664,0,2.41433211731574,2.42045319839155,2.42051311109376,2.42065290739892,0,2.42162149608465,2.42040327113971,2.42107229631439,2.33851259266873,0,2.32926606562762,2.33101351944208,2.3301248143593,2.32780818987384,0,2.32845724414778,2.33077386863324,2.32786810257605,2.33061410142735,0,2.32874682220846,2.32975535269567,2.3293359637802,2.33120324299908
2.24131421878304,2.24133418968377,2.24278207998719,2.24371072687145,0,2.24388047952771,2.24570781694512,2.2458076714488,2.2450188208697,0,2.24547815158665,2.24663646382938,2.24621707491391,2.24779477607211,0,2.24875337930747,2.24876336475784,2.24924266637552,2.25091023658704,0,2.25387591534644,2.25163917446393,2.25240805414229,2.25298721026366,0,2.2536362645376,2.25502424213881,2.25516403844396,2.25538371835207,0,2.2559429035727,2.25731091027316,2.25884866962989,2.25867891697363,0,2.26001696732299,2.25920814584315,2.26074590519988,2.26194415924408,0,2.26338206409713,2.26398119111923,2.26498972160644,2.26584847033812,0,2.26661735001648,2.26772573500737,2.26820503662505,2.26798535671695,0,2.27175985695619,2.27330760176329,2.27404652509055,2.27828035604673,0,2.3450231063089,2.2808166604403,2.35529813473795,2.35570753820306,0,2.35580739270674,2.35806410448999,2.35749493381899,2.35856337700841,0,2.35933225668677,2.35932227123641,2.3616588666226,2.36106972505087,0,2.36217811004176,2.36345624768891,2.36237781904912,2.36140923036339,0,2.36149909941671,2.36257752805649,2.36485421074048,2.36259749895723,0,2.3630168878727,2.36522367240411,2.36397549110806,2.36458460358053,0,2.36436492367243,2.36424509826801,2.36569298857142,2.36416521466506,0,2.365193716053,2.36278722251423,2.36106972505087,2.28721733412642,0,2.28538999670901,2.28580938562448,2.28465107338175,2.28465107338175,0,2.28487075328986,2.28515034590017,2.28447133527512,2.28480085513728,0,2.28483081148838,2.28465107338175,2.28489072419059,2.28501054959501,0,2.28696769786721,2.28615887638738,2.2863086581429,2.28718737777532,0,2.28677797431021,2.28732717408047,2.28730720317974,2.28773657754558,0,2.28809605375884,2.28844554452173,2.28889488978831,2.28914452604752,0,2.28937419140599,2.28931427870378,2.28978359487109,2.28979358032146,0,2.29014307108435,2.29029285283988,2.29084205261014,2.29176071404403,0,2.29192048124992,2.2921501466084,2.29275925908087,2.2935680805607,0,2.2937578041177,2.29380773136955,2.29645387571716,2.29632406486237,0,2.29437690204054,2.29570496693953,2.29822130043236,2.29735256625032,0,2.29882042745447,2.30400287619565,2.30162633900798,2.30186598981682,0,2.38288793410575,2.39496034360111,2.395689281478,2.39510013990627,0,2.39601880134015,2.39646814660673,2.39790605145978,2.39665787016373,0,2.39712718633104,2.39681763736963,2.39781618240646,2.3986250038863,0,2.39737682259025,2.39671778286594,2.39769635700204,2.39728695353694,0,2.39883469834403,2.39728695353694,2.40067202121181,2.39897449464919,0,2.39708724452957,2.30798707089263,2.30654916603958,2.30629952978037,0,2.30675886049732,2.30728808936684,2.30754771107642,2.30848634341105,0,2.30798707089263,2.30819676535036,2.30743787112237,2.31005405911888,0,2.30902555773094,2.31100267690387,2.30985435011151,2.31160180392598,0,2.31092279330093,2.31253045081023,2.31209109099403,2.31266026166502,0,2.3132993304886,2.31640480555316,2.31606530024064,2.41425223371279,0,2.4111567440986,2.41035790806913,2.40974879559666,2.40868035240725,0,2.41412242285801,2.41064748612981,2.40922955217751,2.4103978498706,0,2.41130652585413,2.41211534733396,2.41692833441152,2.41382285934695,0,2.41436207366685,2.41454181177348,2.41411243740764,2.41451185542237,0,2.41416236465948,2.41340347043148,2.41316381962264,2.41379290299585,0,2.41693831986189,2.41808664665425,2.42332900809764,2.42164146698539,0,2.41833628291346,2.41947462425545,2.42058300924634,2.33474807787985,0,2.33261119150102,2.33021468341261,2.32945578918462,2.32748865546205,0,2.32739878640873,2.32784813167531,2.32833741874336,2.32836737509447,0,2.32856708410183,2.32823756423968,2.32931599287946,2.32992510535193
2.24087485896683,2.24137413148525,2.24152391324077,2.24361087236776,0,2.24374068322255,2.24334126520782,2.24399031948176,2.24530839893038,0,2.24497887906823,2.24788464512542,2.24725556175222,2.2469460127908,0,2.24800447052984,2.2483639467431,2.25013137145831,2.25035105136641,0,2.25069055667893,2.25161920356319,2.25193873797498,2.2522482869364,0,2.25245798139414,2.25430528971228,2.25505419848991,2.25598284537417,0,2.25667184144959,2.25669181235032,2.25763044468495,2.25841929526405,0,2.25889859688173,2.26001696732299,2.26148482852714,2.26213388280108,0,2.26427076917991,2.2642108564777,2.26590838304033,2.26565874678112,0,2.26680707357348,2.26841473108279,2.26994250498915,2.27085118097267,0,2.27326765996181,2.27542451724138,2.27766125812389,2.34570211693395,0,2.35363056452644,2.35422969154854,2.35447932780775,2.35554777099716,0,2.35618683982074,2.35757481742194,2.35820390079515,2.35818392989441,0,2.35779449733004,2.35803414813889,2.35943211119046,2.35894282412241,0,2.36051053983024,2.35961184929709,2.35924238763346,2.35990142735777,0,2.36032081627324,2.36139924491302,2.36118955045529,2.3614391867145,0,2.36303685877344,2.36333642228449,2.36419517101617,2.36411528741322,0,2.36664160635642,2.36580282852548,2.36308678602528,2.36413525831396,0,2.36537345415964,2.36642192644831,2.36500399249601,2.28620880363922,0,2.28525020040385,2.2841617863137,2.28478088423654,2.28607899278443,0,2.28507046229722,2.28474094243507,2.28406193181002,2.28426164081739,0,2.28446134982475,2.28455121887807,2.28483081148838,2.28582935652522,0,2.28517031680091,2.28688781426427,2.28641849809695,2.28643846899769,0,2.28621878908959,2.28666813435616,2.28663817800506,2.28764670849226,0,2.28756682488932,2.28771660664484,2.28830574821657,2.28846551542247,0,2.28926435145194,2.28891486068905,2.28933424960452,2.28960385676446,0,2.28951398771115,2.28997331842809,2.2904126782443,2.29072222720572,0,2.29142120873151,2.29182062674624,2.29181064129587,2.29262944822608,0,2.2933184443015,2.29316866254597,2.29367792051476,2.2939175713236,0,2.29536546162701,2.29663361382379,2.29743244985326,2.29676342467858,0,2.29847093669157,2.30422255610375,2.30377321083718,2.30441227966075,0,2.38677227429905,2.38933853504372,2.3929732389778,2.39271361726823,0,2.39401172581611,2.39442112928122,2.39930401451135,2.39562936877579,0,2.39567929602763,2.39630837940084,2.39585903413426,2.39440115838048,0,2.39481056184558,2.39552951427211,2.39519999440995,2.39615859764531,0,2.39484051819669,2.39657798656078,2.3976763861013,2.30719822031353,0,2.30730806026758,2.306668991444,2.30513123208727,2.30634945703221,0,2.3055006937509,2.3064493115359,2.30713830761132,2.30646928243664,0,2.31063321524024,2.30681877319953,2.3074578420231,2.30850631431178,0,2.30800704179336,2.30985435011151,2.3101738845233,2.30905551408204,0,2.30965464110414,2.31062322978988,2.31095274965203,2.31198125103997,0,2.31428789007507,2.31327935958786,2.31812230301652,2.31629496559911,0,2.41230507089096,2.41073735518313,2.41065747158018,2.41097700599197,0,2.40726241845494,2.40902984317014,2.4081910653392,2.40923953762787,0,2.40988859190182,2.4101781699625,2.41361316488922,2.41258466350128,0,2.41388277204917,2.4146616371779,2.41434210276611,2.41386280114843,0,2.41363313578996,2.41364312124032,2.41403255380469,2.41598970207689,0,2.41671863995378,2.41820647205867,2.41863584642451,2.41823642840977,0,2.4181964866083,2.41829634111198,2.41883555543188,2.41970428961392,0,2.33502767049017,2.32990513445119,2.32911628387209,2.32776824807236,0,2.32765840811831,2.32700935384437,2.32903640026915,2.32840731689594,0,2.32843727324704,2.3281976224382,2.33147285015903,2.32872685130773
2.24054533910467,2.24112449522604,2.24156385504225,2.24174359314888,0,2.2422728220184,2.24326138160487,2.2438205668255,2.24417005758839,0,2.24572778784586,2.24619710401317,2.2464067984709,2.24682618738638,0,2.24794455782763,2.24802444143058,2.24881329200968,2.24952225898584,0,2.25054077492341,2.25122977099883,2.25204857792903,2.25194872342535,0,2.25279748670666,2.25388590079681,2.25434523151376,2.25611265622896,0,2.25585303451938,2.25669181235032,2.25762045923458,2.25881871327879,0,2.25948773845347,2.25972738926231,2.26094561420725,2.2618143483893,0,2.26246340266324,2.26395123476813,2.26577857218554,2.26649752461206,0,2.26855452738794,2.27022209759946,2.27085118097267,2.27334754356476,0,2.27484536112002,2.35170337260534,2.35238238323039,2.35254215043628,0,2.35281175759623,2.35412983704485,2.35428960425075,2.35527816383722,0,2.35571752365342,2.35574748000453,2.35727525391089,2.356356592477,0,2.35713545760573,2.35787438093299,2.35899275137425,2.35885295506909,0,2.35921243128235,2.35994136915924,2.3590726349772,2.35966177654893,0,2.3598614855563,2.35972168925114,2.36604247933432,2.36054049618135,0,2.36060040888356,2.36635202829574,2.3614391867145,2.36257752805649,0,2.36159895392039,2.36109968140197,2.36147912851597,2.36353613129186,0,2.36531354145743,2.3655432068159,2.36376579665033,2.28575945837264,0,2.28737710133232,2.28402199000854,2.28409188816112,2.28408190271076,0,2.28403197545891,2.28395209185597,2.28376236829897,2.28446134982475,0,2.28422169901591,2.28502053504538,2.28522024405275,2.28470100063359,0,2.28508044774759,2.28554976391491,2.28628868724216,2.28594918192964,0,2.28599910918148,2.28629867269253,2.28667811980653,2.28675800340948,0,2.28679794521095,2.28795625745368,2.28857535537652,2.28848548632321,0,2.28912455514678,2.28880502073499,2.2888349770861,2.28913454059715,0,2.28939416230673,2.28972368216888,2.29010312928288,2.28995334752736,0,2.29207026300545,2.2923398701654,2.29220007386024,2.29283914268381,0,2.29307879349265,2.29347821150739,2.29301888079044,2.29467646555159,0,2.29636400666385,2.2962541667098,2.29743244985326,2.2978618242191,0,2.29907006371368,2.30084747387924,2.38434580985953,2.38518458769048,0,2.38873940802162,2.3896281131044,2.39062665814124,2.39286339902375,0,2.39289335537486,2.39287338447412,2.39384197315985,2.39385195861022,0,2.39472069279227,2.39398176946501,2.39342258424438,2.39367222050359,0,2.39387192951096,2.39565932512689,2.39639824845415,2.39519000895958,0,2.39443111473159,2.39777624060499,2.30609982077301,2.30502139213322,0,2.30480171222512,2.30447219236296,2.30429245425633,2.30419259975265,0,2.30532095564427,2.30497146488138,2.30743787112237,2.30580025726195,0,2.30664902054327,2.30645929698627,2.30650922423811,2.30697854040542,0,2.30793714364079,2.30839647435773,2.30777737643489,2.31025376812625,0,2.30994421916483,2.3113421822164,2.31070311339282,2.31160180392598,0,2.31481711894459,2.31485706074606,2.31445764273133,2.31521653695933,0,2.4150410842919,2.41440201546832,2.41335354317964,2.40816110898809,0,2.40775170552299,2.40685301498983,2.40741220021046,2.40795141453035,0,2.40798137088146,2.40885010506351,2.41007831545882,2.41139639490744,0,2.41222518728802,2.41500114249042,2.41255470715017,2.41327365957669,0,2.41264457620349,2.41396265565211,2.41475150623121,2.41539057505479,0,2.41595974572579,2.41697826166336,2.42088257275739,2.41636914919089,0,2.41748751963215,2.41666871270194,2.41746754873141,2.41736769422773,0,2.33255127879881,2.33043436332072,2.32931599287946,2.32859704045294,0,2.32845724414778,2.32913625477283,2.32825753514041,2.32746868456131,0,2.32939587648241,2.33103349034282,2.32911628387209,2.3295556436883
0,0,0,0,0,0,0,0,0,0,0,0,0,0,0,0,0,0,0,0,0,0,0,0,0,0,0,0,0,0,0,0,0,0,0,0,0,0,0,0,0,0,0,0,0,0,0,0,0,0,0,0,0,0,0,0,0,0,0,0,0,0,0,0,0,0,0,0,0,0,0,0,0,0,0,0,0,0,0,0,0,0,0,0,0,0,0,0,0,0,0,0,0,0,0,0,0,0,0,0,0,0,0,0,0,0,0,0,0,0,0,0,0,0,0,0,0,0,0,0,0,0,0,0,0,0,0,0,0,0,0,0,0,0,0,0,0,0,0,0,0,0,0,0,0,0,0,0,0,0,0,0,0,0,0,0,0,0,0,0,0,0,0,0,0,0,0,0,0,0,0,0,0,0,0,0,0,0,0,0,0,0,0,0,0,0,0,0,0,0,0,0,0,0,0,0,0,0,0,0,0,0,0,0,0,0,0,0,0,0,0,0,0,0,0,0,0,0,0,0,0,0,0,0,0,0,0,0,0,0,0,0,0,0,0,0,0,0,0,0,0,0,0,0,0,0,0,0,0,0,0,0,0,0,0,0,0,0,0
2.24143404418746,2.24121436427935,2.24123433518009,2.24184344765256,0,2.24250248737687,2.24351101786408,2.24345110516187,2.24337122155892,0,2.24461940285497,2.24490898091565,2.24592749685322,2.24717567814927,0,2.24861358300231,2.24794455782763,2.24860359755195,2.24906292826889,0,2.24975192434431,2.2508603093352,2.25194872342535,2.25193873797498,0,2.2536362645376,2.25414552250639,2.25473466407812,2.25538371835207,0,2.25568328186312,2.25710121581543,2.25740077932648,2.25866893152326,0,2.25944779665199,2.26113533776425,2.26332215139492,2.26374154031039,0,2.2649397943546,2.26547900867449,2.26678710267274,2.26829490567837,0,2.27114075903335,2.27184972600951,2.2733675144655,2.27696227659811,0,2.35130395459061,2.35123405643803,2.35235242687928,2.35270191764218,0,2.35279178669549,2.35353071002275,2.35419973519743,2.35517830933353,0,2.35580739270674,2.3551882947839,2.35589726176005,2.35627670887405,0,2.35659624328584,2.35684587954505,2.35689580679689,2.35819391534478,0,2.35946206754156,2.36000128186145,2.35794427908557,2.35839362435215,0,2.35890288232093,2.35878305691651,2.35985150010593,2.35990142735777,0,2.35987147100666,2.3594820384423,2.35997132551035,2.36120952135603,0,2.35992139825851,2.36186856108034,2.36053051073098,2.36277723706386,0,2.36395552020733,2.36240777540023,2.28639852719622,2.28549983666306,0,2.28365252834492,2.28362257199381,2.28392213550486,2.28377235374934,0,2.28322315397908,2.28338292118497,2.28462111703065,2.28326309578055,0,2.28398204820707,2.28462111703065,2.28619881818885,2.28421171356554,0,2.28538999670901,2.28531011310606,2.28569954567043,2.28577942927338,0,2.28604903643332,2.28632862904364,2.28664816345543,2.28669809070727,0,2.2874469994849,2.287666679393,2.28718737777532,2.28790633020184,0,2.28797622835442,2.2886752098802,2.28929430780304,2.2894041477571,0,2.28957390041336,2.28969372581778,2.2901929983362,2.29056245999983,0,2.29078213990793,2.29111165977009,2.29149110688408,2.29240976831797,0,2.29318863344671,2.29289905538602,2.29358805146144,2.29378776046881,0,2.29822130043236,2.29517573807001,2.29706298818963,2.2974823771051,0,2.29987888519351,2.30144660090135,2.38308764311312,2.38604333642216,0,2.38661250709315,2.3884598154113,2.38958817130293,2.39078642534713,0,2.39171507223139,2.39264371911565,2.39690750642294,2.39266369001638,0,2.39210450479576,2.39300319532891,2.39353242419843,2.39342258424438,0,2.39359233690064,2.39320290433628,2.39554948517284,2.39350246784733,0,2.39409160941906,2.3952798780129,2.30522110114059,2.30514121753764,0,2.30418261430228,2.3033538219217,2.30415265795117,2.30377321083718,0,2.30505134848433,2.30495149398064,2.30548072285017,2.30543079559833,0,2.30418261430228,2.30755769652679,2.30579027181159,2.30677883139805,0,2.30604989352116,2.30755769652679,2.30763758012973,2.30872599421989,0,2.31766297229958,2.31111251685793,2.3105533316373,2.31383854480849,0,2.31320946143528,2.3115319057734,2.31241062540581,2.31499685705122,0,2.40218980966781,2.40231962052259,2.4021298969656,2.4031084711017,0,2.40523537203016,2.40682305863873,2.40668326233357,2.40666329143284,0,2.4072124912031,2.40906978497161,2.4081910653392,2.40818107988883,0,2.4103978498706,2.41225514363912,2.41182576927328,2.41506105519263,0,2.41589983302358,2.41291418336343,2.41541054595552,2.4137130193929,0,2.41513095334521,2.41698824711373,2.41577002216879,2.41553037135995,0,2.41590981847394,2.41649896004568,2.41753744688399,2.41579997851989,0,2.41639910554199,2.33300062406539,2.32889660396399,2.32925608017725,0,2.32688952843995,2.32644018317337,2.32611066331121,2.32620053236453,0,2.32678967393626,2.32696941204289,2.32852714230036,2.32873683675809
2.24023579014325,2.24095474256978,2.24102464072235,2.24150394234004,0,2.24197325850735,2.24270219638424,2.24299177444492,2.24581765689917,0,2.24484906821344,2.24519855897633,2.2455879915407,2.24622706036427,0,2.24787465967505,2.24806438323205,2.24848377214753,2.24937247723031,0,2.25024121141236,2.2502911386642,2.2512996691514,2.2520585633794,0,2.2530371375155,2.25346651188134,2.25460485322333,2.25545361650465,0,2.25563335461128,2.25767038648642,2.25841929526405,2.25896849503431,0,2.25998701097188,2.26270305347208,2.26107542506204,2.26403111837107,0,2.26599825209364,2.26877420729605,2.27240891123013,2.34725984719142,0,2.34604162224648,2.34706013818405,2.34900730100588,2.35131394004097,0,2.35154360539945,2.35191306706308,2.35194302341418,2.35272188854291,0,2.35242232503186,2.35381030263307,2.35382028808343,2.35381030263307,0,2.35430957515148,2.35603705806521,2.35591723266079,2.35532809108906,0,2.35602707261484,2.35533807653943,2.35598713081337,2.35560768369937,0,2.36038072897545,2.35830375529883,2.35930230033567,2.35744500656715,0,2.35799420633741,2.35805411903962,2.36016104906735,2.35879304236688,0,2.35856337700841,2.35892285322167,2.36172876477518,2.36122949225676,0,2.35921243128235,2.35959187839635,2.35966177654893,2.35898276592388,0,2.35873312966467,2.35887292596983,2.29008315838214,2.28632862904364,0,2.28464108793138,2.28368248469602,2.28427162626775,2.28411185906186,0,2.28392213550486,2.28303343042208,2.28350274658939,2.28418175721444,0,2.28352271749013,2.2837823391997,2.28487075328986,2.28472097153433,0,2.28540996760975,2.28568956022006,2.28661820710432,2.28575945837264,0,2.28603905098296,2.28661820710432,2.28628868724216,2.28658825075322,0,2.28677797431021,2.28659823620358,2.28740705768342,2.28752688308784,0,2.28815596646105,2.28866522442984,2.28863526807873,2.28918446784899,0,2.28963381311557,2.28987346392441,2.28978359487109,2.29042266369467,0,2.29030283829025,2.29024292558804,2.29149110688408,2.29234985561576,0,2.29290904083639,2.29350816785849,2.29386764407176,2.29481626185675,0,2.29615431220611,2.29636400666385,2.29836109673752,2.29858077664562,0,2.30274470944923,2.3849249659809,2.38520455859121,2.38627300178063,0,2.38689209970347,2.38838991725872,2.3892187096393,2.39040697823313,0,2.39140552326997,2.39227425745202,2.39156529047586,2.39090625075155,0,2.39093620710266,2.39137556691886,2.39209451934539,2.3917749849336,0,2.3944910274338,2.39021725467613,2.39115588701076,2.39189481033802,0,2.39235414105496,2.30578028636122,2.30422255610375,2.3037332690357,0,2.30323399651728,2.30236526233524,2.30322401106692,2.3031041856625,0,2.30319405471581,2.30377321083718,2.30363341453202,2.30442226511112,0,2.30427248335559,2.30462197411849,2.30507131938506,2.30451213416444,0,2.30658910784106,2.30699851130616,2.30706840945874,2.30630951523074,0,2.30795711454152,2.30815682354889,2.3095747575012,2.30815682354889,0,2.30846637251031,2.31144203672008,2.31207112009329,2.31368876305297,0,2.31584562033253,2.40240948957591,2.40116130827986,2.40055219580739,0,2.40031254499855,2.40655345147878,2.4068630004402,2.405854469953,0,2.40586445540337,2.404526405054,2.4072124912031,2.40658340782989,0,2.4070527239972,2.41028800991655,2.40876023601019,2.41019814086324,0,2.4097987228485,2.41064748612981,2.41081723878608,2.41211534733396,0,2.41185572562439,2.41276440160791,2.41440201546832,2.41453182632311,0,2.41521083694816,2.41576003671842,2.41515092424595,2.41497118613932,0,2.41590981847394,2.41542053140589,2.32787808802642,2.32958560003941,0,2.32713916469916,2.32716912105026,2.32606073605937,2.32565133259427,0,2.32593092520458,2.32609069241048,2.32579112889943,2.32665986308147
2.24056531000541,2.24077500446315,2.24075503356241,2.24127427698156,0,2.24139410238598,2.24371072687145,2.24277209453682,2.24355095966555,0,2.24457946105349,2.24478915551123,2.24534834073186,2.24654659477606,0,2.2485536703001,2.24840388854458,2.24864353935342,2.248713437506,0,2.25008144420646,2.25040097861825,2.25194872342535,2.2526277340504,0,2.25488444583365,2.25430528971228,2.25554348555796,2.25642220519038,0,2.25739079387611,2.25744072112795,2.25915821859131,2.25882869872915,0,2.26032651628441,2.2620639846485,2.26398119111923,2.26554890682707,0,2.3520628488186,2.34906721370809,2.35059498761445,2.34747952709952,0,2.34688040007742,2.34894738830367,2.34935679176877,2.3512440418884,0,2.35197297976529,2.35179324165866,2.35198296521565,2.35272188854291,0,2.35286168484807,2.35260206313849,2.35286168484807,2.3530414229547,0,2.35360060817533,2.35368049177828,2.35423967699891,2.35372043357975,0,2.35648640333179,2.35429958970112,2.35510841118095,2.35533807653943,0,2.35397006983896,2.35892285322167,2.35942212574009,2.35522823658537,0,2.35600710171411,2.35794427908557,2.36255755715576,2.35742503566641,0,2.35767467192562,2.35738509386494,2.35828378439809,2.35839362435215,0,2.35857336245878,2.35902270772535,2.35759478832268,2.35704558855242,0,2.35782445368115,2.35699566130058,2.28543992396085,2.2851104040987,0,2.2847309569847,2.28374239739823,2.2839421064056,2.28426164081739,0,2.28364254289455,2.28295354681913,2.28298350317024,2.28357264474197,0,2.28338292118497,2.28428161171812,2.28367249924565,2.28422169901591,0,2.28447133527512,2.28493066599207,2.28480085513728,2.28578941472375,0,2.28522024405275,2.28594918192964,2.28619881818885,2.28602906553259,0,2.28648839624953,2.28670807615764,2.28699765421832,2.28748694128637,0,2.28768665029374,2.28835567546842,2.28869518078094,2.28885494798684,0,2.28953395861188,2.28959387131409,2.29086202351088,2.29048257639688,0,2.29051253274798,2.29067229995388,2.29123148517451,2.29350816785849,0,2.29294898263787,2.29336837155334,2.29441684384202,2.29496604361228,0,2.29573492329064,2.29832115493605,2.29796167872279,2.38178953456523,0,2.38422598445511,2.38482511147722,2.38351701747896,2.38634289993321,0,2.386282987231,2.38816025190025,2.38818022280099,2.38847978631204,0,2.38890916067788,2.38885923342604,2.38901900063193,2.39016732742429,0,2.39016732742429,2.38955821495182,2.39131565421665,2.39510013990627,0,2.3968875355222,2.38976790940956,2.39026718192798,2.38901900063193,0,2.39624846669863,2.3047118431718,2.30261489859445,2.3023452914345,0,2.30278465125071,2.30140665909987,2.30220549512934,2.30303428750992,0,2.30347364732613,2.30314412746397,2.30265484039592,2.30350360367723,0,2.3033538219217,2.30424252700449,2.30592008266638,2.30503137758359,0,2.30532095564427,2.30457204686665,2.30556060645311,2.30659909329142,0,2.30671891869584,2.30778736188526,2.30818677989999,2.31033365172919,0,2.31244058175692,2.31189138198666,2.31231077090213,2.31453752633428,0,2.31410815196844,2.40160066809607,2.40047231220445,2.39962354892314,0,2.39876480019146,2.4058844263041,2.4062638734181,2.4046861722599,0,2.4042767687948,2.40495577941984,2.40385737987932,2.40495577941984,0,2.40526532838126,2.40500570667169,2.40734230205788,2.40764186556894,0,2.40838078889619,2.40787153092741,2.40904981407087,2.40936934848266,0,2.40955907203966,2.41185572562439,2.41211534733396,2.41221520183765,0,2.41297409606564,2.41299406696638,2.41422227736169,2.41492125888748,0,2.41414239375874,2.41566018221473,2.41534064780295,2.33124318480056,0,2.32871686585736,2.32620053236453,2.3258011143498,2.32642021227263,0,2.32619054691416,2.32628041596748,2.32882670581141,2.32615060511269
2.2405053973032,2.23982638667815,2.24060525180688,2.2412642915312,0,2.24079497536388,2.24236269107172,2.24272216728498,2.24311159984934,0,2.24427989754244,2.24389046497808,2.24567786059401,2.2455879915407,0,2.24654659477606,2.24730548900406,2.24891314651337,2.24879332110894,0,2.25039099316788,2.25162918901356,2.25133961095288,2.25486447493291,0,2.25603277262601,2.25412555160565,2.25528386384838,2.25658197239627,0,2.2565719869459,2.25865894607289,2.25995705462078,2.26215385370182,0,2.26371158395929,2.35097443472845,2.34990599153903,2.35140380909429,0,2.35151364904834,2.34923696636435,2.34939673357025,2.35020555505008,0,2.35163347445276,2.34946663172283,2.35169338715497,2.35129396914024,0,2.35223260147486,2.35173332895645,2.35218267422302,2.35200293611639,0,2.3514936781476,2.35255213588665,2.35253216498591,2.35207283426897,0,2.35198296521565,2.35232247052818,2.35242232503186,2.35293158300065,0,2.35423967699891,2.35270191764218,2.35359062272496,2.35370046267901,0,2.35414980794559,2.35073478391961,2.35173332895645,2.35550782919569,0,2.35522823658537,2.35548785829495,2.355787421806,2.35596715991263,0,2.35636657792737,2.35722532665905,2.35748494836862,2.35687583589615,0,2.35799420633741,2.35729522481163,2.35770462827673,2.35456919686106,0,2.35567758185195,2.35944209664083,2.28571951657117,2.28562964751785,0,2.28528015675496,2.28389217915376,2.28383226645155,2.28342286298644,0,2.28281375051397,2.28291360501766,2.28384225190191,2.2835926156427,0,2.28302344497171,2.28307337222355,2.28365252834492,2.28381229555081,0,2.28410187361149,2.28516033135054,2.28448132072549,2.28540996760975,0,2.28523022950312,2.28535005490754,2.28580938562448,2.2859292110289,0,2.28620880363922,2.28637855629548,2.28669809070727,2.28692775606574,0,2.28730720317974,2.28796624290405,2.28816595191142,2.28946406045931,0,2.28896478794089,2.2896537840163,2.2894041477571,2.29040269279393,0,2.29075218355683,2.29069227085461,2.29090196531235,2.29216013205876,0,2.29300889534008,2.29301888079044,2.29426706208649,2.29484621820786,0,2.29659367202232,2.29832115493605,2.30030825955935,2.38252845789249,0,2.38286796320502,2.3827780941517,2.38450557706543,2.38622307452879,0,2.38559399115558,2.38560397660595,2.38682220155089,2.3872915177182,0,2.3876709648322,2.38703189600862,2.38838991725872,2.3890289860823,0,2.38825012095357,2.38908889878451,2.3884298590602,2.38996761841692,0,2.39047687638571,2.38980785121103,2.39055675998866,2.39143547962107,0,2.30334383647134,2.30205571337382,2.30110709558882,2.30395294894381,0,2.30281460760181,2.30197582977087,2.30152648450429,2.30190593161829,0,2.30201577157234,2.30236526233524,2.3047118431718,2.30390302169196,0,2.30228537873229,2.30303428750992,2.3033238655706,2.30367335633349,0,2.3044921632637,2.30455207596591,2.30516118843838,2.30652919513885,0,2.30752774017568,2.30757766742752,2.306668991444,2.30888576142578,0,2.30861615426583,2.30874596512062,2.31174160023113,2.31161178937634,0,2.31501682795196,2.40244943137738,2.40041239950224,2.39899446554993,0,2.39867493113814,2.39793600781088,2.40011283599119,2.40120125008134,0,2.40203004246191,2.40279892214028,2.40331816555943,2.40292873299507,0,2.40381743807785,2.40507560482426,2.40530527018274,2.40498573577095,0,2.40540512468642,2.40670323323431,2.40678311683726,2.40862043970504,0,2.40847065794951,2.40907977042198,2.41061752977871,2.41108684594602,0,2.41322373232485,2.41294413971454,2.41536061870368,2.4146616371779,0,2.41472154988011,2.41475150623121,2.33212190443297,2.32999500350451,0,2.33004493075635,2.32532181273211,2.3250422201218,2.32544163813653,0,2.32491240926701,2.32548157993801,2.32506219102254,2.32566131804464
0,0,0,0,0,0,0,0,0,0,0,0,0,0,0,0,0,0,0,0,0,0,0,0,0,0,0,0,0,0,0,0,0,0,0,0,0,0,0,0,0,0,0,0,0,0,0,0,0,0,0,0,0,0,0,0,0,0,0,0,0,0,0,0,0,0,0,0,0,0,0,0,0,0,0,0,0,0,0,0,0,0,0,0,0,0,0,0,0,0,0,0,0,0,0,0,0,0,0,0,0,0,0,0,0,0,0,0,0,0,0,0,0,0,0,0,0,0,0,0,0,0,0,0,0,0,0,0,0,0,0,0,0,0,0,0,0,0,0,0,0,0,0,0,0,0,0,0,0,0,0,0,0,0,0,0,0,0,0,0,0,0,0,0,0,0,0,0,0,0,0,0,0,0,0,0,0,0,0,0,0,0,0,0,0,0,0,0,0,0,0,0,0,0,0,0,0,0,0,0,0,0,0,0,0,0,0,0,0,0,0,0,0,0,0,0,0,0,0,0,0,0,0,0,0,0,0,0,0,0,0,0,0,0,0,0,0,0,0,0,0,0,0,0,0,0,0,0,0,0,0,0,0,0,0,0,0,0,0
2.23853826358063,2.23923724510642,2.23965663402189,2.24121436427935,0,2.23970656127373,2.24118440792825,2.24163375319482,2.24247253102577,0,2.24345110516187,2.24456947560313,2.24483908276307,2.24586758415101,0,2.24706583819522,2.24752516891216,2.24926263727626,2.24948231718436,0,2.24993166245094,2.25150936360914,2.25258779224892,2.25347649733171,0,2.2542353915597,2.25637227793854,2.25487446038328,2.25844925161516,0,2.258688902424,2.26098555600872,2.26237353360992,2.35161350355202,0,2.34942668992135,2.35229251417707,2.34935679176877,2.34947661717319,0,2.34939673357025,2.3495365298754,2.34956648622651,2.35065490031666,0,2.3501057005464,2.34826837767862,2.35193303796381,2.35279178669549,0,2.35198296521565,2.35212276152081,2.35014564234787,2.35016561324861,0,2.3510543183314,2.35148369269724,2.35065490031666,2.35040526405745,0,2.35160351810166,2.35202290701713,2.35160351810166,2.35134389639208,0,2.35087458022477,2.35237239778002,2.35198296521565,2.35238238323039,0,2.3528217430466,2.34987603518793,2.35126401278913,2.35370046267901,0,2.35460913866254,2.35425964789964,2.35491868762395,2.35525819293648,0,2.35522823658537,2.35544791649348,2.355407974692,2.3553780183409,0,2.35546788739421,2.35544791649348,2.35912256222904,2.35377036083159,0,2.35424966244927,2.35663618508731,2.28557972026601,2.28405194635965,0,2.28386222280265,2.28325311033018,2.2841617863137,2.28286367776581,0,2.28343284843681,2.28289363411692,2.2831832121776,2.28319319762797,0,2.2831532558265,2.2845412334277,2.28316324127687,2.28428161171812,0,2.28388219370339,2.28368248469602,2.2843215535196,2.28565960386896,0,2.28520027315201,2.2849206805417,2.28519028770164,2.28619881818885,0,2.28617884728811,2.2888349770861,2.28644845444806,2.287287232279,0,2.28692775606574,2.2876966357441,2.28777651934705,2.28794627200331,0,2.2884555299721,2.28946406045931,2.2892443805512,2.29023294013767,0,2.29014307108435,2.29109168886935,2.29083206715977,2.29325853159929,0,2.29231989926466,2.29357806601107,2.29384767317102,2.29610438495427,0,2.29819134408126,2.30116700829103,2.38016190615519,2.38019186250629,0,2.38110053848981,2.38208909807628,2.38300775951017,2.3837566682878,0,2.3845455188669,2.3849249659809,2.38516461678974,2.38634289993321,0,2.38601338007105,2.38619311817768,2.38614319092584,2.38755113942778,0,2.38776083388552,2.38795055744251,2.38819020825136,2.38755113942778,0,2.38776083388552,2.3903870073324,2.39116587246113,2.30340374917355,0,2.30248508773966,2.30091737203182,2.30069769212372,2.30096729928366,0,2.30112706648956,2.30093734293256,2.30026831775788,2.30134674639766,0,2.30195585887013,2.30112706648956,2.30170622261092,2.30426249790523,0,2.30274470944923,2.30320404016618,2.30195585887013,2.30413268705044,0,2.3041127161497,2.30382313808902,2.30372328358533,2.30657912239069,0,2.30505134848433,2.30848634341105,2.30620966072706,2.30867606696804,0,2.30975449560783,2.31042352078251,2.31043350623288,2.31032366627882,0,2.3125104799095,2.31441770092986,2.40023266139561,2.39908433460324,0,2.39844526577967,2.39942383991577,2.39803586231457,2.3990344073514,0,2.39943382536614,2.39999301058677,2.40160066809607,2.40312844200243,0,2.40227967872112,2.40304855839949,2.40343799096385,2.40398719073411,0,2.40481598311469,2.40627385886847,2.40581452815152,2.40783158912593,0,2.40749208381341,2.4076518510193,2.40949915933745,2.4101781699625,0,2.41070739883202,2.41062751522908,2.41119668590007,2.41291418336343,0,2.41435208821648,2.41478146258232,2.4134933394848,2.3309436212895,0,2.3279779425301,2.32625045961637,2.32728894645468,2.32434323859601,0,2.32533179818248,2.32581109980016,2.3252319436788,2.32719907740137
2.23877791438947,2.23953680861747,2.24089482986757,2.24067514995946,0,2.2422728220184,2.2412642915312,2.24263229823166,2.24308164349824,0,2.24481911186233,2.24437975204613,2.24530839893038,2.24620708946354,0,2.24674630378343,2.2481143104839,2.24872342295637,2.25038100771752,0,2.25174901441798,2.25230819963861,2.2534165846295,2.25629239433559,0,2.2563523070378,2.25641221974001,2.25403568255234,2.34780904696168,0,2.34836823218231,2.35018558414935,2.34921699546362,2.35012567144714,0,2.35018558414935,2.34919702456288,2.34939673357025,2.34971626798203,0,2.35052508946187,2.35009571509603,2.34987603518793,2.3493168499673,0,2.35046517675966,2.34922698091399,2.35017559869898,2.34935679176877,0,2.35000584604272,2.34984607883682,2.35009571509603,2.34963638437909,0,2.35186313981123,2.35009571509603,2.34935679176877,2.34993594789014,0,2.34934680631841,2.35059498761445,2.35047516221003,2.34975620978351,0,2.35039527860708,2.3512739982395,2.35109426013287,2.35099440562919,0,2.35075475482035,2.35169338715497,2.35229251417707,2.35375038993086,0,2.3532311465117,2.35237239778002,2.35404995344191,2.35487874582248,0,2.35376037538122,2.35422969154854,2.35394011348785,2.35397006983896,0,2.35510841118095,2.35530812018832,2.35454922596032,2.35470899316622,0,2.35259207768812,2.35276183034439,2.28566958931933,2.28390216460412,0,2.2843215535196,2.28284370686508,2.28287366321618,2.28268393965918,0,2.28305340132281,2.28263401240734,2.28271389601029,2.28298350317024,0,2.28339290663534,2.2833729357346,2.28370245559676,2.28419174266481,0,2.28415180086333,2.2839720627567,2.2843515098707,2.28457118977881,0,2.28445136437439,2.28502053504538,2.28544990941122,2.28656827985248,0,2.28619881818885,2.2864983816999,2.28644845444806,2.28658825075322,0,2.28699765421832,2.28738708678268,2.28778650479742,2.28773657754558,0,2.28854539902542,2.28874510803278,2.28950400226078,2.28995334752736,0,2.2902229546873,2.29062237270204,2.29164088863961,2.29240976831797,0,2.29326851704965,2.29345824060665,2.29645387571716,2.29621422490832,0,2.29851087849305,2.37470985025406,2.37601794425232,2.38137014564976,0,2.38098071308539,2.38073107682618,2.38149995650455,2.38317751216643,0,2.38369675558559,2.38434580985953,2.3847052860728,2.38485506782832,0,2.38529442764453,2.38582365651405,2.3851146895379,2.38637285628431,0,2.38554406390374,2.38648269623836,2.38584362741479,2.38588356921626,0,2.38694202695531,2.39108598885818,2.38741134312262,2.30147655725245,0,2.30156642630577,2.30062779397114,2.29976904523946,2.30020840505567,0,2.30070767757409,2.3009872701844,2.30125687734435,2.3017761207635,0,2.30385309444012,2.30203574247308,2.30208566972492,2.30138668819914,0,2.30222546603008,2.30267481129666,2.30362342908165,2.30252502954113,0,2.30447219236296,2.30402284709639,2.30422255610375,2.30779734733563,0,2.30470185772143,2.30771746373268,2.3049015667288,2.30752774017568,0,2.3064493115359,2.30839647435773,2.30902555773094,2.31019385542404,0,2.31243059630655,2.31695400532342,2.40142092998944,2.39994308333492,0,2.39978331612903,2.39746669164357,2.39770634245241,2.39770634245241,0,2.4013710027376,2.39953367986982,2.40033251589929,2.40093164292139,0,2.4011812791806,2.40360774362011,2.40335810736091,2.40398719073411,0,2.40360774362011,2.40434666694737,2.40596430990705,2.40610410621221,0,2.40592436810558,2.40805126903404,2.40780163277483,2.40987860645145,0,2.40964894109298,2.40956905749003,2.41130652585413,2.4117259147696,0,2.41242489629538,2.41196556557844,2.41227511453986,2.41296411061527,0,2.32731890280579,2.32698938294363,2.32672976123405,2.32470271480927,0,2.32422341319159,2.32560140534243,2.32537173998396,2.32520198732769
2.23852827813026,2.23963666312115,2.23926720145752,2.24120437882899,0,2.24198324395772,2.24143404418746,2.24197325850735,2.24192333125551,0,2.24495890816749,2.24535832618223,2.24525847167854,2.24749521256106,0,2.24759506706474,2.24933253542884,2.25045090587009,2.25184886892166,0,2.25276753035555,2.25921813129352,2.25770034283753,2.25843926616479,0,2.35000584604272,2.35172334350608,2.34720991993958,2.34733973079436,0,2.3499159769894,2.34964636982946,2.35088456567513,2.34932683541767,0,2.34878762109778,2.34922698091399,2.3489374028533,2.35047516221003,0,2.35044520585893,2.3500757441953,2.34927690816583,2.35068485666777,0,2.3502654677523,2.3495365298754,2.35046517675966,2.34973623888277,0,2.34836823218231,2.34849804303709,2.34975620978351,2.34978616613461,0,2.34838820308304,2.34835824673194,2.3492868936162,2.34883754834962,0,2.34898733010514,2.34887749015109,2.35034535135524,2.3497262534324,0,2.35036532225598,2.34935679176877,2.3508945511255,2.34997588969161,0,2.35030540955377,2.34952654442504,2.34742959984768,2.34836823218231,0,2.34866779569336,2.3518431689105,2.35356066637386,2.35369047722865,0,2.35397006983896,2.35377036083159,2.35389018623601,2.35338092826723,0,2.35335097191612,2.3541797642967,2.3528516993977,2.3530114666036,0,2.35280177214586,2.35315126290875,2.35387021533528,2.28369247014639,0,2.28323313942944,2.28266396875845,2.28423168446628,2.28265398330808,0,2.28272388146066,2.28297351771987,2.28257409970513,2.28363255744418,0,2.28223459439261,2.28269392510955,2.28298350317024,2.28340289208571,0,2.28383226645155,2.28422169901591,2.28426164081739,2.28434152442033,0,2.28498059324391,2.28526018585422,2.28537002580827,2.28553977846454,0,2.28584932742596,2.28607899278443,2.28636857084511,2.28644845444806,0,2.28655829440211,2.2872572759279,2.28798621380479,2.28811602465958,0,2.28870516623131,2.2901929983362,2.2894341041082,2.28970371126815,0,2.29292901173713,2.29126144152561,2.2913912523804,2.29219008840987,0,2.29306880804229,2.29517573807001,2.29676342467858,2.37282260013444,0,2.37468987935332,2.37638740591594,2.37495948651327,2.37773544171567,0,2.37909346296577,2.38016190615519,2.38216898167923,2.38154988375639,0,2.38271818144949,2.38285797775465,2.38359690108191,2.38510470408753,0,2.3861232200251,2.38360688653227,2.38472525697353,2.38531439854527,0,2.38566388930816,2.38467532972169,2.38439573711138,2.38208909807628,0,2.38468531517206,2.38606330732289,2.38941841864666,2.30061780852077,0,2.30094732838293,2.29891029650778,2.3001684632542,2.29996875424683,0,2.29957932168246,2.29889032560704,2.30011853600235,2.30047801221562,0,2.30054791036819,2.30029827410898,2.30105716833698,2.30326395286839,0,2.30225542238118,2.30140665909987,2.30142663000061,2.30315411291434,0,2.30271475309813,2.30404281799712,2.30271475309813,2.30472182862217,0,2.30376322538681,2.30617970437595,2.3056904173079,2.30561053370496,0,2.30621964617743,2.30662904964253,2.30794712909115,2.30777737643489,0,2.31182148383408,2.31189138198666,2.40360774362011,2.40284884939212,0,2.39748666254431,2.39506019810479,2.39535976161584,2.39681763736963,0,2.39623848124826,2.40024264684597,2.39814570226862,2.39942383991577,0,2.39947376716761,2.40140095908871,2.40069199211255,2.40268908218623,0,2.40189024615676,2.40235956232407,2.40224972237002,2.40307851475059,0,2.40450643415327,2.40813115263698,2.40576460089968,2.40865039605614,0,2.40759193831709,2.41185572562439,2.41167598751776,2.41306396511896,0,2.41202547828065,2.40877022146056,2.41113677319786,2.41354326673664,0,2.32941584738314,2.32512210372475,2.32487246746554,2.3238739224287,0,2.32315497000218,2.32475264206112,2.32434323859601,2.32380402427612
2.23903753609905,2.23874795803837,2.23863811808431,2.24119439337862,0,2.24162376774446,2.2422728220184,2.24154388414151,2.24405023218397,0,2.24642676937164,2.24652662387533,2.24815425228537,2.24906292826889,0,2.25094019293814,2.25165914536467,2.25259777769929,2.25346651188134,0,2.34863783934225,2.35181321255939,2.34838820308304,2.3491271264103,0,2.34906721370809,2.35008572964566,2.3522525723756,2.34701021093221,0,2.34888747560146,2.34956648622651,2.34915708276141,2.34875766474667,0,2.34899731555551,2.35001583149309,2.34802872686978,2.34779906151131,0,2.35137385274318,2.3508645947744,2.3485579557393,2.34810861047273,0,2.34919702456288,2.34869775204446,2.34911714095993,2.34971626798203,0,2.3479588287172,2.34841815943415,2.3481185959231,2.34819847952604,0,2.34864782479262,2.3490971700592,2.34708010908479,2.34809862502236,0,2.34772916335873,2.34807865412162,2.34820846497641,2.34889746105183,0,2.34809862502236,2.34826837767862,2.3489074465022,2.34896735920441,0,2.34907719915846,2.34964636982946,2.35272188854291,2.35035533680561,0,2.35071481301887,2.35088456567513,2.35252217953555,2.35112421648398,0,2.35215271787192,2.35300148115323,2.35348078277091,2.35269193219181,0,2.35202290701713,2.35172334350608,2.35198296521565,2.35272188854291,0,2.35448931325812,2.35545790194385,2.28441142257291,2.28469101518323,0,2.28305340132281,2.28305340132281,2.28323313942944,2.28188510362971,0,2.28247424520145,2.28262402695697,2.28251418700292,2.28260405605624,0,2.28295354681913,2.28307337222355,2.28314327037613,2.28322315397908,0,2.28351273203976,2.28339290663534,2.28446134982475,2.2841318299626,0,2.28441142257291,2.28468102973286,2.28494065144243,2.28471098608396,0,2.28560967661712,2.2854898512127,2.28614889093701,2.28733715953084,0,2.2864684253488,2.2874469994849,2.28791631565221,2.28849547177357,0,2.28897477339126,2.28912455514678,2.28958388586373,2.28986347847404,0,2.29077215445756,2.29142120873151,2.2918006558455,2.29298892443934,0,2.2933184443015,2.29528557802406,2.29466648010122,2.37373127611796,0,2.37482967565848,2.37415066503343,2.3740008832779,2.37722618374689,0,2.37831459783704,2.37926321562203,2.37938304102645,2.38016190615519,0,2.3798423717434,2.38152991285565,2.38330732302122,2.38266825419765,0,2.38102065488687,2.38075104772692,2.38089084403208,2.3866923906961,0,2.38617314727695,2.38696199785605,2.3812303493446,2.38149995650455,0,2.38556403480447,2.38816025190025,2.30135673184803,2.30004863784978,0,2.29942953992694,2.29914994731662,2.29914994731662,2.29961926348394,0,2.29899018011073,2.29894025285889,2.29823128588273,2.29942953992694,0,2.29935964177436,2.29990884154462,2.30021839050604,2.29971911798762,0,2.30043807041414,2.30159638265687,2.30108712468809,2.30284456395292,0,2.30414267250081,2.30344369097502,2.30240520413671,2.30283457850255,0,2.30374325448607,2.30448217781333,2.30635944248258,2.30478174132438,0,2.30516118843838,2.30604989352116,2.30725813301574,2.30823670715184,0,2.30918532493683,2.31247053810802,2.40671321868468,2.4040870452378,0,2.39494037270037,2.39343256969475,2.3947107073419,2.39439117293011,0,2.39699737547626,2.39891458194698,2.39735685168952,2.39771632790278,0,2.39861501843593,2.39895452374846,2.39797594961236,2.39981327248013,0,2.40394724893264,2.4009615992725,2.40138098818797,2.40221976601891,0,2.40349790366606,2.40390730713117,2.40459630320658,2.40532524108347,0,2.4137130193929,2.40561481914416,2.40519543022869,2.40571467364784,0,2.40833086164435,2.40745214201194,2.40961898474187,2.41073735518313,0,2.32865695315515,2.33087372313693,2.32586102705201,2.32821759333894,0,2.3234645189636,2.32455293305375,2.32446306400043,2.32438318039749
0,0,0,0,0,0,0,0,0,0,0,0,0,0,0,0,0,0,0,0,0,0,0,0,0,0,0,0,0,0,0,0,0,0,0,0,0,0,0,0,0,0,0,0,0,0,0,0,0,0,0,0,0,0,0,0,0,0,0,0,0,0,0,0,0,0,0,0,0,0,0,0,0,0,0,0,0,0,0,0,0,0,0,0,0,0,0,0,0,0,0,0,0,0,0,0,0,0,0,0,0,0,0,0,0,0,0,0,0,0,0,0,0,0,0,0,0,0,0,0,0,0,0,0,0,0,0,0,0,0,0,0,0,0,0,0,0,0,0,0,0,0,0,0,0,0,0,0,0,0,0,0,0,0,0,0,0,0,0,0,0,0,0,0,0,0,0,0,0,0,0,0,0,0,0,0,0,0,0,0,0,0,0,0,0,0,0,0,0,0,0,0,0,0,0,0,0,0,0,0,0,0,0,0,0,0,0,0,0,0,0,0,0,0,0,0,0,0,0,0,0,0,0,0,0,0,0,0,0,0,0,0,0,0,0,0,0,0,0,0,0,0,0,0,0,0,0,0,0,0,0,0,0,0,0,0,0,0,0
2.23793913655853,2.23898760884721,2.23889773979389,2.24081494626462,0,2.24095474256978,2.24122434972972,2.24307165804787,2.24446962109944,0,2.24820417953721,2.24900301556668,2.34458374649269,2.34620138945237,0,2.34884753379999,2.34838820308304,2.34990599153903,2.34977618068425,0,2.3477391488091,2.34840817398378,2.34784898876315,2.34824840677789,0,2.34823842132752,2.34886750470072,2.34980613703535,2.34777909061057,0,2.34977618068425,2.35042523495819,2.34868776659409,2.34786895966389,0,2.34842814488452,2.34818849407567,2.34751946890099,2.34659082201674,0,2.34663076381821,2.34856794118967,2.34783900331278,2.34745955619878,0,2.34784898876315,2.34956648622651,2.35251219408518,2.34723987629068,0,2.34722989084031,2.34777909061057,2.34734971624473,2.34666072016931,0,2.34675058922263,2.34684045827595,2.34627128760495,2.34602165134574,0,2.34661079291747,2.34746954164915,2.34689038552779,2.34765926520615,0,2.3475494252521,2.34774913425947,2.34602165134574,2.34702019638258,0,2.34733973079436,2.34899731555551,2.34981612248572,2.34913711186067,0,2.3497262534324,2.35095446382771,2.34994593334051,2.35031539500414,0,2.3505151040115,2.3514637217965,2.35278180124512,2.35046517675966,0,2.35063492941593,2.35094447837734,2.35158354720092,2.3518731252616,0,2.34943667537172,2.28588926922743,2.28587928377706,2.28331302303239,0,2.28381229555081,2.28216469624003,2.28242431794961,2.28194501633193,0,2.28186513272898,2.2816055110194,2.28252417245329,2.28215471078966,0,2.28338292118497,2.28225456529334,2.28284370686508,2.28301345952134,0,2.28292359046802,2.28293357591839,2.28639852719622,2.28339290663534,0,2.28386222280265,2.28467104428249,2.28440143712254,2.28455121887807,0,2.28555974936527,2.28575945837264,2.28640851264659,2.28694772696648,0,2.28697768331758,2.28752688308784,2.28737710133232,2.28754685398858,0,2.28753686853821,2.28933424960452,2.29072222720572,2.29045262004577,0,2.28990342027551,2.29096187801456,2.29184059764698,2.29349818240813,0,2.29379774591918,2.29662362837342,2.37486961745995,2.37376123246906,0,2.37581823524495,2.375928075199,2.37661707127442,2.37794513617341,0,2.37897363756135,2.37917334656872,2.37892371030951,2.3794329682783,0,2.3794629246294,2.37993224079672,2.38126030569571,2.38068114957434,0,2.38004208075077,2.37986234264414,2.38024178975813,2.38085090223061,0,2.38092080038318,2.38042152786477,2.38032167336108,2.38181949091634,0,2.38350703202859,2.38213902532812,2.29935964177436,2.30160636810724,0,2.29832115493605,2.29803157687536,2.29874054385152,2.29898019466036,0,2.29781189696726,2.29809148957757,2.29811146047831,2.29733259534958,0,2.29818135863089,2.2995992925832,2.29926977272104,2.29924980182031,0,2.29933967087362,2.30044805586451,2.3009573138333,2.30062779397114,0,2.30179609166424,2.30160636810724,2.30137670274877,2.30186598981682,0,2.3023752477856,2.30469187227107,2.30403283254675,2.30419259975265,0,2.30529099929317,2.30713830761132,2.30638939883369,2.30715827851205,0,2.30848634341105,2.31026375357661,2.31132221131566,2.39407163851832,0,2.39355239509917,2.39175501403286,2.39320290433628,2.39299320987854,0,2.39466078009006,2.396068728592,2.39476063459374,2.39524992166179,0,2.39454095468564,2.39690750642294,2.39995306878529,2.39942383991577,0,2.39829548402414,2.39957362167129,2.39914424730545,2.40241947502628,0,2.40121123553171,2.40383740897859,2.40298864569728,2.40435665239774,0,2.40368762722306,2.40391729258153,2.40393726348227,2.40374753992527,0,2.40483595401542,2.40582451360189,2.40778166187409,2.40719252030236,0,2.3281676660871,2.32609069241048,2.32478259841222,2.32334469355918,0,2.32216641041571,2.32183689055355,2.32318492635328,2.32431328224491
2.23766952939858,2.238737972588,2.23917733240421,2.23890772524426,0,2.24090481531793,2.2420531421103,2.24323142525376,2.2455879915407,0,2.24914281187184,2.33928147234709,2.34305597258633,2.34522281531627,0,2.34629125850569,2.34606159314721,2.34844811578525,2.34764927975578,0,2.347329745344,2.34787894511426,2.34734971624473,2.34822843587715,0,2.34846808668599,2.34820846497641,2.34720991993958,2.34720991993958,0,2.347329745344,2.34966634073019,2.35068485666777,2.34647099661232,0,2.34484336820227,2.34700022548184,2.34523280076664,2.34473352824822,0,2.34556232062879,2.34541253887327,2.34935679176877,2.34587186959021,0,2.34589184049095,2.34779906151131,2.34510298991185,2.34556232062879,0,2.34633120030716,2.34832829038083,2.34682048737521,2.34589184049095,0,2.34519285896516,2.34544249522437,2.34509300446148,2.34513294626295,0,2.34556232062879,2.34701021093221,2.34634118575753,2.34682048737521,0,2.34701021093221,2.3454025534229,2.34592179684206,2.34577201508653,0,2.34647099661232,2.34666072016931,2.34940671902062,2.34907719915846,0,2.34851801393783,2.34840817398378,2.34873769384594,2.34934680631841,0,2.3487177229452,2.35242232503186,2.35315126290875,2.35020555505008,0,2.34970628253167,2.34944666082209,2.35120410008692,2.3520328924675,0,2.34613149129979,2.28502053504538,2.28379232465007,2.28247424520145,0,2.28623875999032,2.28579940017411,2.28026746067004,2.28171535097345,0,2.28237439069776,2.28230449254519,2.28194501633193,2.28248423065182,0,2.2821746816904,2.28229450709482,2.28259407060587,2.28266396875845,0,2.28335296483386,2.28294356136876,2.28343284843681,2.28336295028423,0,2.28402199000854,2.28424166991665,2.28499057869428,2.28553977846454,0,2.28543992396085,2.28543992396085,2.2866881052569,2.28622877453995,0,2.28730720317974,2.28681791611169,2.28651835260064,2.28771660664484,0,2.28773657754558,2.2882658064151,2.28967375491704,2.28996333297772,0,2.29043264914504,2.29292901173713,2.29260947732534,2.29424709118575,0,2.29794170782205,2.29895023830925,2.3741606504838,2.37404082507938,0,2.37574833709237,2.37599797335158,2.37730606734983,2.37796510707415,0,2.38067116412397,2.37834455418814,2.37808493247857,2.38246854519028,0,2.37917334656872,2.37938304102645,2.37937305557609,2.37926321562203,0,2.3804115424144,2.3800320953004,2.37982240084266,2.38231876343476,0,2.3788937539584,2.37944295372866,2.38295783225833,2.38281803595317,0,2.38054135326919,2.29922983091957,2.29836109673752,2.29909003461441,0,2.2972327408459,2.29695314823558,2.29730263899847,2.29834112583678,0,2.29734258079995,2.29796167872279,2.29742246440289,2.29798164962352,0,2.29833114038642,2.29904010736257,2.29941955447657,2.29853084939378,0,2.3001684632542,2.29938959812546,2.30372328358533,2.30111708103919,0,2.3005778667193,2.30054791036819,2.30054791036819,2.30099725563477,0,2.30225542238118,2.30261489859445,2.3025649713426,2.30737795842016,0,2.30735798751942,2.30464194501922,2.30536089744575,2.30598998081895,0,2.30860616881547,2.31357892309891,2.31178154203261,2.39521996531069,0,2.3927535590697,2.3907964107975,2.39241405375717,2.39198467939133,0,2.39285341357338,2.39345254059548,2.39346252604585,2.39524992166179,0,2.39389190041169,2.39511012535663,2.39595888863794,2.39668782651484,0,2.39683760827036,2.39812573136788,2.39921414545803,2.39926407270987,0,2.40043237040297,2.40087173021918,2.40676314593652,2.40334812191054,0,2.40366765632232,2.40312844200243,2.40353784546754,2.4058844263041,0,2.405475022839,2.40426678334443,2.41065747158018,2.41104690414455,0,2.33103349034282,2.32834740419373,2.32458288940485,2.32322486815476,0,2.32293529009407,2.32258579933118,2.32272559563634,2.32293529009407
2.23826865642069,2.23840845272584,2.23950685226636,2.24075503356241,0,2.24190336035477,2.24357093056629,2.24538828253333,2.2464067984709,0,2.33775369844073,2.34032994463577,2.34294613263228,2.34455379014159,0,2.34602165134574,2.34744957074842,2.34812858137346,2.34783900331278,0,2.34789891601499,2.3477691051602,2.34789891601499,2.34845810123562,0,2.34711006543589,2.34730977444326,2.34843813033488,2.3485579557393,0,2.34844811578525,2.34910715550956,2.3518431689105,2.34618141855163,0,2.34520284441553,2.34529271346885,2.34334555064702,2.34294613263228,0,2.34466363009564,2.34870773749483,2.34645102571158,2.34488331000375,0,2.34427419753127,2.3448034264008,2.34479344095043,2.34511297536222,0,2.34682048737521,2.34748951254989,2.34520284441553,2.34478345550006,0,2.34476348459933,2.34508301901111,2.34444395018754,2.34493323725559,0,2.34422427027943,2.34395466311949,2.34418432847796,2.34473352824822,0,2.34370502686028,2.34448389198901,2.34476348459933,2.34563221878137,0,2.3449931499578,2.34544249522437,2.34338549244849,2.3524422959326,0,2.34832829038083,2.34847807213636,2.34747952709952,2.34832829038083,0,2.34803871232015,2.34853798483857,2.34838820308304,2.34937676266951,0,2.34849804303709,2.3489074465022,2.3491271264103,2.34673061832189,0,2.34740962894694,2.34943667537172,2.28439145167218,2.28490070964096,0,2.28165543827124,2.28344283388718,2.2821746816904,2.28208481263708,0,2.2818251909275,2.28171535097345,2.2812260639054,2.28194501633193,0,2.28234443434666,2.28260405605624,2.28247424520145,2.28253415790366,0,2.28284370686508,2.28303343042208,2.28342286298644,2.28344283388718,0,2.28368248469602,2.28531011310606,2.28513037499943,2.28475092788544,0,2.28547986576233,2.28559969116675,2.28601908008222,2.28605902188369,0,2.28613890548664,2.28670807615764,2.28819590826252,2.28844554452173,0,2.28790633020184,2.28811602465958,2.28879503528462,2.28975363851999,0,2.29064234360277,2.29193046670029,2.29367792051476,2.2942970184376,0,2.29618426855722,2.3686686527812,2.37335182900396,2.37455008304817,0,2.37565846803905,2.37536888997837,2.37560854078721,2.37563849713832,0,2.37695657658694,2.37672691122847,2.37648726041963,2.37944295372866,0,2.37688667843436,2.37748580545647,2.3782946269363,2.38012196435371,0,2.37880388490509,2.37802501977636,2.3792732010724,2.37876394310362,0,2.37947291007977,2.38040155696403,2.3831874976168,2.30123690644361,0,2.29979900159057,2.29853084939378,2.29766211521174,2.29695314823558,0,2.297642144311,2.29808150412721,2.29816138773015,2.29681335193042,0,2.30006860875051,2.29698310458669,2.29732260989921,2.2972327408459,0,2.29799163507389,2.297642144311,2.29872057295078,2.29837108218789,0,2.29896022375962,2.29967917618615,2.30024834685714,2.3004180995134,0,2.29999871059793,2.30122692099324,2.30045804131488,2.30072764847482,0,2.30309420021213,2.30197582977087,2.30205571337382,2.30281460760181,0,2.30268479674702,2.3062595879789,2.30617970437595,2.30592008266638,0,2.30985435011151,2.30879589237247,2.3097644810582,2.39382200225911,0,2.39103606160634,2.38992767661545,2.38979786576066,2.39068657084345,0,2.39201463574244,2.39219437384907,2.39193475213949,2.39312302073333,0,2.3937620895569,2.39439117293011,2.39534977616547,2.39544963066916,0,2.39627842304973,2.39749664799467,2.39713717178141,2.39724701173546,0,2.39888462559588,2.39978331612903,2.40343799096385,2.4013710027376,0,2.40327822375796,2.40341802006312,2.40381743807785,2.40492582306874,0,2.40570468819747,2.40809121083551,2.40616401891442,2.40729237480604,0,2.33052423237403,2.32672976123405,2.32458288940485,2.32184687600392,0,2.32235613397271,2.32156728339361,2.32206655591203,2.32389389332944
2.23744984949048,2.23803899106221,2.23844839452732,2.23960670677005,0,2.24272216728498,2.24237267652208,2.24527844257928,2.33253130789807,0,2.33973081761367,2.33909174879009,2.34296610353302,2.34417434302759,0,2.34717996358847,2.34804869777052,2.34930686451693,2.34840817398378,0,2.34838820308304,2.34838820308304,2.34959644257761,2.35024549685156,0,2.34940671902062,2.34860788299115,2.34952654442504,2.34758936705357,0,2.34717996358847,2.3492868936162,2.35240235413113,2.34921699546362,0,2.3453725970718,2.34711006543589,2.3424668310146,2.34172790768734,0,2.34274642362491,2.34479344095043,2.34213731115244,2.34270648182344,0,2.34244686011386,2.34308592893744,2.34566217513248,2.34612150584942,0,2.34455379014159,2.34394467766912,2.34418432847796,2.34367507050917,0,2.34402456127207,2.34384482316543,2.34427419753127,2.34343541970033,0,2.34259664186939,2.34350531785291,2.3430360016856,2.34301603078486,0,2.34313585618928,2.34381486681433,2.34407448852391,2.34528272801848,0,2.34454380469122,2.34470357189711,2.34475349914896,2.34390473586765,0,2.34901728645625,2.34618141855163,2.34665073471895,2.34761932340468,0,2.34759935250394,2.34824840677789,2.34840817398378,2.34809862502236,0,2.3497262534324,2.34812858137346,2.3469802545811,2.3507048275685,0,2.35074476936998,2.28425165536702,2.28326309578055,2.28231447799555,0,2.28206484173635,2.28136586021056,2.28134588930982,2.2814157874624,0,2.28079668953956,2.28194501633193,2.28187511817935,2.28191505998082,0,2.28190507453045,2.28297351771987,2.28260405605624,2.28224457984298,0,2.28244428885034,2.28328306668129,2.28365252834492,2.28364254289455,0,2.28366251379528,2.28333299393313,2.28433153896996,2.2843215535196,0,2.2851104040987,2.28563963296822,2.28532009855643,2.2863086581429,0,2.28629867269253,2.28692775606574,2.28688781426427,2.28780647569816,0,2.28753686853821,2.28870516623131,2.28977360942072,2.28976362397036,0,2.29105174706788,2.29235984106613,2.29425707663612,2.29662362837342,0,2.29724272629626,2.37140466618213,2.37269278927965,2.37331188720249,0,2.37436035949117,2.37498944286437,2.37523907912358,2.37520912277248,0,2.37637742046558,2.37583820614568,2.37596801700047,2.37613776965674,0,2.37648726041963,2.37616772600784,2.37689666388473,2.37696656203731,0,2.37843442324146,2.37641736226705,2.37855424864588,2.38077101862766,0,2.37441028674301,2.3800620516515,2.37350161075949,2.37036617934382,0,2.2992198454692,2.29703303183853,2.2970430172889,2.29623419580906,0,2.29732260989921,2.29638397756458,2.29731262444884,2.29781189696726,0,2.29793172237168,2.29657370112158,2.29656371567122,2.29699309003705,0,2.29671349742674,2.29740249350216,2.29773201336431,2.29687326463263,0,2.29813143137905,2.29803157687536,2.30014849235346,2.30017844870456,0,2.30085745932961,2.29982895794167,2.30073763392519,2.30043807041414,0,2.30101722653551,2.30232532053376,2.30217553877824,2.30201577157234,0,2.30480171222512,2.30426249790523,2.30458203231701,2.30524107204133,0,2.3076475655801,2.30903554318131,2.31094276420166,2.38791061564104,0,2.38812031009878,2.38837993180835,2.38857964081572,2.38920872418893,0,2.3902272401265,2.3906066872405,2.3907964107975,2.39282345722228,0,2.39212447569649,2.39319291888591,2.39470072189153,2.39492040179963,0,2.39736683713988,2.39604875769126,2.39641821935489,2.39643819025563,0,2.39576916508095,2.3978661096583,2.39902442190103,2.40044235585334,0,2.40181036255381,2.40249935862923,2.40390730713117,2.40366765632232,0,2.41060754432834,2.40847065794951,2.41066745703055,2.40758195286673,0,2.40728238935567,2.32604076515864,2.32377406792502,2.32177697785134,0,2.3231150282007,2.32050882565456,2.32183689055355,2.32175700695061
0,0,0,0,0,0,0,0,0,0,0,0,0,0,0,0,0,0,0,0,0,0,0,0,0,0,0,0,0,0,0,0,0,0,0,0,0,0,0,0,0,0,0,0,0,0,0,0,0,0,0,0,0,0,0,0,0,0,0,0,0,0,0,0,0,0,0,0,0,0,0,0,0,0,0,0,0,0,0,0,0,0,0,0,0,0,0,0,0,0,0,0,0,0,0,0,0,0,0,0,0,0,0,0,0,0,0,0,0,0,0,0,0,0,0,0,0,0,0,0,0,0,0,0,0,0,0,0,0,0,0,0,0,0,0,0,0,0,0,0,0,0,0,0,0,0,0,0,0,0,0,0,0,0,0,0,0,0,0,0,0,0,0,0,0,0,0,0,0,0,0,0,0,0,0,0,0,0,0,0,0,0,0,0,0,0,0,0,0,0,0,0,0,0,0,0,0,0,0,0,0,0,0,0,0,0,0,0,0,0,0,0,0,0,0,0,0,0,0,0,0,0,0,0,0,0,0,0,0,0,0,0,0,0,0,0,0,0,0,0,0,0,0,0,0,0,0,0,0,0,0,0,0,0,0,0,0,0,0
2.23627156634701,2.23747980584158,2.23837849637474,2.23903753609905,0,2.24095474256978,2.24266225458277,2.24446962109944,2.33105346124356,0,2.33924153054562,2.34515291716369,2.34827836312899,2.34701021093221,0,2.34764927975578,2.3490971700592,2.35169338715497,2.35046517675966,0,2.35032538045451,2.35242232503186,2.3516534453535,2.35220264512376,0,2.34555233517843,2.34801874141941,2.34530269891922,2.34536261162143,0,2.34536261162143,2.34884753379999,2.34999586059235,2.34648098206268,0,2.34740962894694,2.34515291716369,2.34250677281607,2.34222718020576,0,2.34378491046322,2.34373498321138,2.34042979913945,2.34044977004019,0,2.34157812593182,2.34279635087676,2.34524278621701,2.34474351369859,0,2.34212732570208,2.3432556815937,2.34245684556423,2.34245684556423,0,2.34185771854213,2.34377492501286,2.34202747119839,2.34324569614333,0,2.34218723840429,2.34137841692445,2.34806866867125,2.34131850422224,0,2.34195757304581,2.3418677039925,2.34301603078486,2.34250677281607,0,2.34343541970033,2.34335553609738,2.34352528875365,2.3440145758217,0,2.34515291716369,2.34643105481084,2.345622233331,2.34590182594132,0,2.34624133125384,2.34655088021526,2.34848805758673,2.3466008074671,0,2.34728980354252,2.34591181139169,2.34767923610689,2.34959644257761,0,2.34764927975578,2.28538999670901,2.28352271749013,2.28306338677318,0,2.28207482718671,2.28130594750835,2.28164545282087,2.28206484173635,0,2.2810063839973,2.28076673318846,2.28175529277493,2.28118612210393,0,2.28319319762797,2.28285369231545,2.28309334312429,2.28370245559676,0,2.28223459439261,2.2829934886206,2.28338292118497,2.28322315397908,0,2.28312329947539,2.2833729357346,2.28352271749013,2.28430158261886,0,2.2837823391997,2.28534006945717,2.2855198075638,2.28581937107485,0,2.28620880363922,2.28716740687458,2.28638854174585,2.28784641749963,0,2.28715742142421,2.28938417685636,2.2894041477571,2.29033279464135,0,2.29192048124992,2.29311873529413,2.29516575261964,2.29595460319874,0,2.36811945301094,2.37038615024456,2.37189395325018,2.3722035022116,0,2.37271276018039,2.37224344401307,2.37408076688085,2.37459002484964,0,2.37492953016216,2.37655715857221,2.37526903547469,2.37530897727616,0,2.3769066493351,2.37593806064937,2.37618769690858,2.37610781330563,0,2.38021183340703,2.37556859898574,2.37620766780931,2.37745584910536,0,2.37726612554836,2.37205372045607,2.37145459343397,2.29894025285889,0,2.29874054385152,2.2972327408459,2.29698310458669,2.29751233345621,0,2.29648383206827,2.29621422490832,2.29561509788622,2.29550525793217,0,2.29618426855722,2.2962841230609,2.2952755925737,2.29738252260142,0,2.29687326463263,2.29725271174663,2.29733259534958,2.29711291544147,0,2.29814141682942,2.297831867868,2.297262697197,2.29909003461441,0,2.29912997641589,2.29928974362178,2.29975905978909,2.30164630990871,0,2.30084747387924,2.30059783762004,2.30118697919177,2.30156642630577,0,2.30328392376913,2.30305425841065,2.30427248335559,2.30462197411849,0,2.30782730368673,2.30707839490911,2.31015391362256,2.38782074658773,0,2.38714173596268,2.39178497038397,2.3876709648322,2.38765099393146,0,2.38832001910614,2.38899902973119,2.38887920432677,2.3923441556046,0,2.39065661449234,2.39228424290239,2.39365224960285,2.39286339902375,0,2.395309834364,2.39455094013601,2.39612864129421,2.39427134752569,0,2.39489044544853,2.39667784106447,2.39981327248013,2.40063207941034,0,2.40168055169902,2.40019271959413,2.40073193391402,2.40207996971375,0,2.40759193831709,2.41025805356545,2.40714259305052,2.40856052700282,0,2.40678311683726,2.3254516235869,2.32521197277806,2.3228953482926,0,2.32126771988256,2.32119782172998,2.32140751618771,2.32141750163808
2.2365911007588,2.23710035872759,2.23858819083247,2.23966661947226,0,2.24211305481251,2.24440970839723,2.24357093056629,2.33341002753049,0,2.32920615292541,2.33846266541688,2.33857250537094,2.33965093401072,0,2.34508301901111,2.35300148115323,2.3442042993787,2.34641108391011,0,2.34691035642852,2.35113420193434,2.25369617723981,2.25408560980418,0,2.34580197143764,2.25476462042923,2.34651093841379,2.25689152135769,0,2.25883868417952,2.33689494970905,2.34155815503108,2.26170450843524,0,2.26238351906029,2.33996048297214,2.34905722825772,2.34242688921313,0,2.34492325180522,2.34457376104233,2.3401302356284,2.34102892616156,0,2.34190764579397,2.34210735480134,2.34076930445198,2.34161806773329,0,2.34104889706229,2.34162805318366,2.34396464856986,2.34154816958071,0,2.34181777674066,2.34147827142813,2.34223716565613,2.34051966819277,0,2.34012025017803,2.34024007558245,2.34101894071119,2.34166799498513,0,2.34108883886377,2.34094904255861,2.34138840237482,2.34165800953476,0,2.34161806773329,2.34176784948881,2.34358520145586,2.3436650850588,0,2.34389475041728,2.3448034264008,2.34493323725559,2.34651093841379,0,2.34538258252216,2.34579198598727,2.34771917790836,2.34759935250394,0,2.34558229152953,2.34573207328506,2.34458374649269,2.34536261162143,0,2.34583192778874,2.28335296483386,2.28222460894224,2.28094647129509,0,2.28142577291277,2.28080667498993,2.2804372133263,2.28104632579877,0,2.2812260639054,2.2808466167914,2.28174530732456,2.28144574381351,0,2.28175529277493,2.28338292118497,2.28189508908008,2.28248423065182,0,2.28340289208571,2.28266396875845,2.28283372141471,2.28331302303239,0,2.28298350317024,2.28345281933755,2.2835626592916,2.28373241194786,0,2.28433153896996,2.28513037499943,2.2854898512127,2.28591922557854,0,2.28594918192964,2.28643846899769,2.28777651934705,2.28752688308784,0,2.28822586461363,2.28928432235267,2.28950400226078,2.28999328932883,0,2.29181064129587,2.29297893898897,2.29488616000933,2.36706099527189,0,2.36930772160477,2.36916792529962,2.37031625209198,2.37126486987697,0,2.37214358950939,2.37350161075949,2.37185401144871,2.37328193085138,0,2.37305226549291,2.3702463539394,2.37638740591594,2.37460001030001,0,2.37385110152238,2.37470985025406,2.37508929736806,2.37473980660516,0,2.3734017562558,2.37343171260691,2.37308222184401,2.37282260013444,0,2.37035619389345,2.37989229899524,2.37745584910536,2.29684330828153,0,2.29664359927416,2.29573492329064,2.29499599996338,2.29620423945795,0,2.29509585446706,2.29497602906264,2.29592464684764,2.29486618910859,0,2.29573492329064,2.29464650920049,2.29533550527591,2.29512581081817,0,2.29629410851127,2.29560511243585,2.29706298818963,2.29718281359405,0,2.29689323553337,2.2976721006621,2.297642144311,2.29737253715105,0,2.29814141682942,2.29878048565299,2.29899018011073,2.30065775032225,0,2.3000086960483,2.30030825955935,2.30144660090135,2.30231533508339,0,2.30118697919177,2.3017461644124,2.30829661985405,2.30624960252853,0,2.30646928243664,2.30711833671058,2.30788721638894,2.38673233249757,0,2.3876709648322,2.38531439854527,2.38493495143127,2.3854941366519,0,2.38605332187252,2.38816025190025,2.38754115397741,2.38973795305845,0,2.39100610525523,2.38978788031029,2.39108598885818,2.39040697823313,0,2.39138555236923,2.39126572696481,2.39236412650533,2.39629839395047,0,2.39576916508095,2.39547958702026,2.39588899048537,2.39812573136788,0,2.39796596416199,2.39905437825214,2.40328820920833,2.40163062444718,0,2.40201007156118,2.40513551752648,2.40481598311469,2.405475022839,0,2.40444652145106,2.40628384431884,2.32480256931296,2.32202661411055,0,2.32117785082924,2.32513208917511,2.32136757438624,2.32099811272261
2.23710035872759,2.2371602714298,2.23928717235826,2.23882784164131,0,2.24215299661398,2.2405353536543,2.24280205088792,2.24254242917835,0,2.24302173079603,2.24225285111766,2.33453838342212,2.33232161344034,0,2.24475919916012,2.24698595459227,2.24802444143058,2.24888319016226,0,2.24808435413279,2.24996161880204,2.25076045483151,2.25270761765334,0,2.25527387839802,2.25272758855408,2.25338662827839,2.25517402389433,0,2.25576316546606,2.25679166685401,2.25778022644048,2.25908832043873,0,2.26090567240577,2.26132506132125,2.26319234054013,2.26592835394106,0,2.33981070121661,2.34053963909351,2.34062950814682,2.34146828597776,0,2.34236697651092,2.34259664186939,2.33897192338567,2.33932141414856,0,2.33960100675888,2.3411088097645,2.34094904255861,2.34184773309176,0,2.34020013378098,2.34161806773329,2.34006033747582,2.33913169059157,0,2.3389319815842,2.33940129775151,2.33979073031588,2.33925151599599,0,2.33932141414856,2.34006033747582,2.33904182153825,2.34084918805492,0,2.34081923170382,2.3411088097645,2.34152819867997,2.34194758759544,0,2.34258665641902,2.34342543424996,2.34424424118017,2.34405451762317,0,2.34639111300937,2.34674060377226,2.34587186959021,2.33986062846846,0,2.34098898436008,2.34545248067474,2.34446392108827,2.3440445321728,0,2.28411185906186,2.28273386691103,2.28320318307834,2.28083663134104,0,2.28157555466829,2.28018757706709,2.28088655859288,2.28034734427299,0,2.28123604935577,2.28204487083561,2.28172533642382,2.28174530732456,0,2.28114618030245,2.28199494358377,2.28194501633193,2.28203488538524,0,2.28214472533929,2.2828037650636,2.28270391055992,2.28251418700292,0,2.28364254289455,2.28312329947539,2.28350274658939,2.28341287753607,0,2.28440143712254,2.28455121887807,2.28529014220533,2.28516033135054,0,2.28603905098296,2.28605902188369,2.28661820710432,2.28658825075322,0,2.28878504983426,2.28916449694825,2.28955392951262,2.29118155792266,0,2.29267937547792,2.29458659649828,2.36306681512454,2.36756026779031,0,2.36810946756057,2.36922783800183,2.36928775070404,2.37058585925192,0,2.37104518996887,2.37175415694502,2.37183404054797,2.3720137786546,0,2.37156443338802,2.3735914798128,2.37586816249679,2.3749495010629,0,2.37208367680718,2.37150452068581,2.37292245463812,2.37305226549291,0,2.37281261468407,2.37404082507938,2.37323200359954,2.37377121791943,0,2.37157441883839,2.37110510267108,2.37079555370966,2.29610438495427,0,2.29591466139727,2.29556517063438,2.29500598541375,2.29386764407176,0,2.29604447225206,2.29747239165474,2.29495605816191,2.29763215886063,0,2.29507588356633,2.2942970184376,2.29499599996338,2.29523565077222,0,2.29521567987149,2.29565503968769,2.29584476324469,2.2962841230609,0,2.29631407941201,2.29655373022085,2.29803157687536,2.29731262444884,0,2.30066773577261,2.29765212976137,2.29825125678347,2.29970913253725,0,2.29899018011073,2.29982895794167,2.30100724108514,2.30248508773966,0,2.30364339998239,2.30186598981682,2.3029144621055,2.30306424386102,0,2.30500142123249,2.3058501845138,2.30700849675653,2.3884598154113,0,2.3861232200251,2.38542423849932,2.38988773481398,2.38390645004333,0,2.38532438399563,2.38652263803984,2.38620310362805,2.3866923906961,0,2.3890289860823,2.38860959716683,2.38957818585256,2.39046689093534,0,2.39076645444639,2.39047687638571,2.39054677453829,2.39327280248885,0,2.39341259879401,2.39408162396869,2.39423140572422,2.39476063459374,0,2.39618855399642,2.39795597871162,2.39858506208483,2.39913426185509,0,2.40401714708522,2.40693289859278,2.40439659419922,2.40482596856506,0,2.40417691429111,2.40426678334443,2.32469272935891,2.32294527554444,0,2.32143747253882,2.32114789447814,2.32079840371524,2.32047886930346
2.23672091161359,2.23711034417795,2.23867805988579,2.23951683771673,0,2.2399062702811,2.2395268231671,2.24041552824988,2.24118440792825,0,2.24087485896683,2.24213302571324,2.24454950470239,2.24350103241371,0,2.24430985389355,2.24511867537339,2.24631692941759,2.24672633288269,0,2.24764499431658,2.24847378669716,2.24947233173399,2.25057073127451,0,2.25062065852636,2.25109996014404,2.25279748670666,2.25288735575998,0,2.25428531881155,2.25599283082454,2.25758051743311,2.257930008196,0,2.25904837863726,2.25999699642225,2.26200407194629,2.26403111837107,0,2.26552893592633,2.26762588050369,2.34357521600549,2.34516290261406,0,2.34436406658459,2.34026004648319,2.33774371299036,2.33894196703457,0,2.33952112315593,2.33866237442425,2.33961099220925,2.33977075941514,0,2.33955107950704,2.3385525344702,2.33859247627167,2.33859247627167,0,2.33821302915768,2.33772374208963,2.33941128320188,2.33838278181394,0,2.33818307280657,2.33809320375326,2.33888205433236,2.33899189428641,0,2.33875224347757,2.33980071576625,2.34043978458982,2.34076930445198,0,2.34109882431413,2.34242688921313,2.34361515780696,2.3450231063089,0,2.34417434302759,2.34583192778874,2.3399105557203,2.33801332015031,0,2.33901186518715,2.34347536150181,2.34286624902934,2.3448333827519,0,2.2853300840068,2.28193503088156,2.28098641309656,2.28111622395135,0,2.28093648584472,2.28007773711304,2.28044719877667,2.28090652949361,0,2.28146571471424,2.28056702418109,2.28115616575282,2.28136586021056,0,2.28204487083561,2.28118612210393,2.28192504543119,2.2818251909275,0,2.28194501633193,2.28261404150661,2.28264399785771,2.28265398330808,0,2.28308335767392,2.28293357591839,2.28313328492576,2.28372242649749,0,2.2839720627567,2.28450129162623,2.28600909463185,2.28564961841859,0,2.28565960386896,2.28604903643332,2.28717739232495,2.287476955836,0,2.2882658064151,2.2902229546873,2.29043264914504,2.29160094683814,0,2.29295896808823,2.29556517063438,2.36408533106212,2.36870859458267,0,2.36815939481241,2.36858876917825,2.36884839088783,2.36923782345219,0,2.37263287657744,2.3712249280755,2.37153447703692,2.37119497172439,0,2.3718240550976,2.37406079598012,2.37710635834247,2.37237325486786,0,2.37315211999659,2.37149453523545,2.37231334216565,2.37338178535507,0,2.37373127611796,2.37279264378333,2.37197383685313,2.37203374955534,0,2.37086545186224,2.3723932257686,2.29642391936606,2.29535547617664,0,2.29533550527591,2.29477632005528,2.2945466546968,2.29416720758281,0,2.29683332283116,2.29443681474275,2.29438688749091,2.29445678564349,0,2.29494607271154,2.29487617455896,2.29543535977959,2.2949261018108,0,2.29613434130537,2.29543535977959,2.29468645100196,2.29673346832748,0,2.29712290089184,2.29692319188448,2.29665358472453,2.296883250083,0,2.29642391936606,2.29752231890658,2.29779192606652,2.29807151867684,0,2.29896022375962,2.29946948172841,2.30017844870456,2.30015847780383,0,2.30075760482593,2.30087743023035,2.30217553877824,2.30290447665513,0,2.30418261430228,2.306668991444,2.31014392817219,2.38818022280099,0,2.38639282718505,2.38587358376589,2.38355695928043,2.38321745396791,0,2.38400630454701,2.38703189600862,2.38551410755263,2.386093263674,0,2.38642278353615,2.38682220155089,2.3876709648322,2.38828007730467,0,2.38833999000688,2.38974793850882,2.39095617800339,2.39059670179013,0,2.39349248239696,2.39338264244291,2.39295326807707,2.39372214775543,0,2.40101152652434,2.3968875355222,2.3982156004212,2.40473609951174,0,2.40342800551348,2.40390730713117,2.40379746717711,2.40358777271938,0,2.40358777271938,2.40245941682775,2.32314498455181,2.32218638131645,0,2.3211279235774,2.31942041156441,2.32007945128872,2.31892113904599
0,0,0,0,0,0,0,0,0,0,0,0,0,0,0,0,0,0,0,0,0,0,0,0,0,0,0,0,0,0,0,0,0,0,0,0,0,0,0,0,0,0,0,0,0,0,0,0,0,0,0,0,0,0,0,0,0,0,0,0,0,0,0,0,0,0,0,0,0,0,0,0,0,0,0,0,0,0,0,0,0,0,0,0,0,0,0,0,0,0,0,0,0,0,0,0,0,0,0,0,0,0,0,0,0,0,0,0,0,0,0,0,0,0,0,0,0,0,0,0,0,0,0,0,0,0,0,0,0,0,0,0,0,0,0,0,0,0,0,0,0,0,0,0,0,0,0,0,0,0,0,0,0,0,0,0,0,0,0,0,0,0,0,0,0,0,0,0,0,0,0,0,0,0,0,0,0,0,0,0,0,0,0,0,0,0,0,0,0,0,0,0,0,0,0,0,0,0,0,0,0,0,0,0,0,0,0,0,0,0,0,0,0,0,0,0,0,0,0,0,0,0,0,0,0,0,0,0,0,0,0,0,0,0,0,0,0,0,0,0,0,0,0,0,0,0,0,0,0,0,0,0,0,0,0,0,0,0,0
2.23715028597943,2.23701048967427,2.23786923840595,2.2381388455659,0,2.23841843817621,2.23874795803837,2.23938702686194,2.24058528090615,0,2.24131421878304,2.24106458252383,2.2414839714393,2.24212304026288,0,2.24326138160487,2.2438205668255,2.24550810793775,2.2455879915407,0,2.24665643473011,2.24838391764384,2.24802444143058,2.24913282642147,0,2.25022124051162,2.25144945090693,2.25166913081503,2.25289734121034,0,2.25370616269018,2.25625245253411,2.25577315091643,2.25743073567758,0,2.25836936801221,2.25917818949205,2.26082578880283,2.26200407194629,0,2.2634220058986,2.26647755371132,2.26837478928131,2.27016218489725,0,2.33932141414856,2.3365654298469,2.33828292731025,2.33842272361541,0,2.33783358204368,2.33831288366136,2.33937134140041,2.33844269451615,0,2.33813314555473,2.33899189428641,2.33769378573852,2.33710464416679,0,2.33701477511347,2.33733430952526,2.33727439682305,2.33702476056384,0,2.33806324740215,2.33924153054562,2.33760391668521,2.3377636838911,0,2.33819305825694,2.33838278181394,2.33984065756772,2.34048971184166,0,2.34075931900161,2.3418677039925,2.34175786403845,2.3426865109227,0,2.34394467766912,2.34514293171332,2.33970086126256,2.33717454231937,0,2.33949116680483,2.33946121045372,2.33585646287074,2.33924153054562,0,2.28778650479742,2.28301345952134,2.28188510362971,2.28173532187419,0,2.28120609300467,2.28098641309656,2.28004778076194,2.28069683503588,0,2.27970827544941,2.27968830454867,2.28050711147888,2.28072679138698,0,2.28096644219582,2.28055703873072,2.28145572926387,2.28208481263708,0,2.28155558376756,2.28214472533929,2.28261404150661,2.28278379416287,0,2.28285369231545,2.28316324127687,2.28313328492576,2.28455121887807,0,2.2841318299626,2.28456120432844,2.28504050594612,2.28537002580827,0,2.28606900733406,2.28655829440211,2.28643846899769,2.28764670849226,0,2.28897477339126,2.28988344937478,2.29116158702193,2.29168083044108,0,2.2941372512317,2.36445479272575,2.36470442898495,2.36714087887484,0,2.36698111166894,2.36733060243184,2.36844897287309,2.36864868188046,0,2.37093535001482,2.36980699412319,2.36890830359004,2.37203374955534,0,2.37165430244134,2.37322201814917,2.37194388050202,2.3720437350057,0,2.37013651398535,2.37107514631997,2.37047601929787,2.36992681952761,0,2.36894824539151,2.36915793984925,2.37157441883839,2.37404082507938,0,2.37279264378333,2.29656371567122,2.29516575261964,2.29735256625032,0,2.29416720758281,2.29474636370417,2.29423710573539,2.29359803691181,0,2.29361800781255,2.29396749857544,2.29336837155334,2.2941372512317,0,2.29467646555159,2.29400744037691,2.29371786231623,2.29409730943023,0,2.29505591266559,2.29465649465086,2.29463652375012,2.29553521428327,0,2.29591466139727,2.29756226070805,2.29624418125943,2.29790176602058,0,2.29672348287711,2.29683332283116,2.29813143137905,2.29779192606652,0,2.29819134408126,2.29855082029452,2.29946948172841,2.30048799766598,0,2.30042808496377,2.30111708103919,2.30112706648956,2.30224543693082,0,2.30524107204133,2.30684872955063,2.30665900599363,2.31322943233602,0,2.38221890893107,2.38457547521801,2.38254842879323,2.38293786135759,0,2.38301774496054,2.38321745396791,2.38376665373817,2.38405623179885,0,2.386662434345,2.38675230339831,2.38713175051231,2.38730150316857,0,2.3877009211833,2.38810033919804,2.38955821495182,2.39365224960285,0,2.39230421380312,2.39161521772771,2.39163518862844,2.39334270064143,0,2.39467076554043,2.39678768101852,2.39894453829809,2.40089170111992,0,2.40114133737913,2.40323828195649,2.40333813646017,2.40278893668991,0,2.40311845655206,2.40265912583512,2.32352443166581,2.32280547923928,0,2.32105802542482,2.32008943673909,2.31902099354967,2.31798250671136
