1.70215581416172,1.73020682881569,1.7145140849309,1.69732936051557,1.69624998831608,1.74146705772696,1.75088965209367,1.72478609841174,1.75137422723215,1.82429765133751,1.81072729082181,1.80295695384934,1.80565283287259,1.80875350045016,1.82189047988035,1.83060564257105,1.82886147783596,1.92537632646199,1.9341632204912,1.94172091081996,1.95141953362888,1.95226428849244,1.96795658675678,1.97040699460808,1.97011085475038,1.90837800286726,1.86520319104474,1.87239158328274,1.82872186944977,1.83027561006519,1.82987100139038,1.82553812824067,1.85808455384526,1.84909521603607,1.81898988016479,1.81771327050156,1.81803589432202,1.81773961488455,1.7548454817789,1.79959529056121,1.79715485855861,1.8170599426217,1.83093723582288,1.84303331669941,1.83990231379935,1.84573238227142,1.83925195049384,1.83839529023833,1.83499338437872,1.84402901974707,1.81472544319651,1.81368029626966,1.81095153522088,1.80550531565627,1.80475742156386,1.85278519232592,1.88037021075913,1.88076788094651,1.88215971784815,1.851108058368,1.91365908109161,1.81730014642057,1.81657604459969,1.85713982204612,1.78836660014411,1.78650953701629,1.80771302555448,1.80864164587714,1.77892770500434,1.7815959356555,1.7816522827507,1.83233719799852,1.80355991640947,1.747064232797,1.83819104878834,1.81597694291142,1.81070109485903,1.72440400889968,1.72346690016233,1.71912033474643,1.74587316181065,1.74326711009883,1.74024550549179,1.78320011164132,1.73482957455705,1.6909396566082,1.62062225456003,1.62107272129675,1.61939367395199,1.62002133319704,1.57686789554365,1.56059803178289,1.56054985522647,1.60273356420302,1.49230166993526,1.49349179969268,1.49264775332163,1.49164285666765,1.52670719874762,1.44221525547774,1.44184167817549,1.40403121076534,1.38349972391933,1.37188241820433,1.29688003977694,1.29481240851462,1.29392482038754,1.32317730829439,1.24521268567166,1.24353894722351,1.25271183462664,1.20561545516616,1.14837385020039,1.14706540783096,1.04149732921593,0.982685749638146,0.968462551863628,0.970102191074864,1.00602692281938,0.911985290812302,0.867643806234093,0.854468027013096,0.843552899075325,0.843226537691011,0.836361864606818,0.839023592634814,0.841788801086778,0.827159661605932,0.885333275104703,0.895509586865654,0.897973338874195,1.01614310294453,1.00670803990178,1.00453286421361,1.01067330757815,1.01300539173439,1.16301071360013,1.01729603823258,0.946562008743799,0.945424314116587,0.946235874848345,0.946954894830035,0.960329377579694,0.955685340070653,0.914159095862788,0.914779371840467,0.914714500970216,0.938160170055615,0.939065589972877,0.940745447292267,0.940830792552117,0.941652554224241,0.923968888942855,0.954493193094525,0.955486774537284,0.955565063205933,0.967340796898905,1.26934012428068,0.902445385009257,0.903774898667779,0.906644078059028,0.895548941970589,0.898382772542594,0.892069690294507,0.889805728598929,0.890308327142407,0.888910036643139,0.886272694678169,0.884241524085707,0.883492769497762
1.69519419888082,1.71269180765339,1.71438347205186,1.72308845038388,1.78695291674168,1.74361951615599,1.75575121613048,1.75446868873299,1.78727323473409,1.77836813325479,1.82194749750595,1.80073120596555,1.85905687248778,1.93669842864543,1.9300294303869,1.89572374445801,1.89383873320533,1.88772758299612,1.94085202666949,1.96663126449353,1.96519505722535,1.89395625839351,1.97100901784957,1.97115229783489,1.99606129302725,1.89512347410969,1.87978834600312,1.87543714462058,1.87577727888515,1.8310314631669,1.82975190657062,1.96739382938801,1.88037712326781,1.88074552448957,1.79191079717585,1.80166001090405,1.79962267160527,1.81899965550812,1.75570998378344,1.78606355667166,1.84501011593137,1.87695022476883,1.82769358096626,1.8279855538153,1.84028481766295,1.84276165044481,1.83938243466075,1.83827804904485,1.83017820033126,1.84407654730045,1.84401379532269,1.81283733831115,1.81158729445682,1.90903064455647,1.84611902144297,1.8532861778482,1.79187287263011,1.79207490963293,1.79138458741685,1.79057079007245,1.93067551865905,1.79855664436898,1.85800156672801,1.88974497183183,1.78982902100007,1.78655274860245,1.78891543673146,1.78122106751267,1.78206424069087,1.7827798666562,1.7705511729538,1.77161887124716,1.74697085124898,1.74727158742927,1.81530860109323,1.81741962160709,1.83179351028744,1.79760581463022,1.69809830027893,1.69779804758864,1.71127079967454,1.66893706902801,1.7392361399629,1.72445501498288,1.71666468280718,1.69405440280171,1.7285928845105,1.64186968621602,1.64008705727314,1.62564915791902,1.62724052243907,1.63039016729096,1.62383075852214,1.56822761109179,1.54505332215837,1.52287444654749,1.54150577100311,1.52820464372991,1.50843332972673,1.47402886909849,1.47557833358665,1.43433050039664,1.4195955840977,1.37160799238525,1.33020797893269,1.31167753826066,1.30250603113411,1.2786412404083,1.25787233698049,1.2240233250568,1.21259020073001,1.18534063151194,1.14793830293278,1.1485306354033,1.07412192647119,0.980394292846063,0.977823528869673,0.946117154918603,0.921671573633701,0.885445427566625,0.884523468652777,0.85302829893795,0.854063938804798,0.879409694755644,0.869357809885492,0.867364805252857,0.869038549628358,0.877086130872781,0.884737807892855,0.886112615612258,0.900188861371226,0.901226134620748,0.913168547062699,0.913963347998633,0.992525431154273,0.997511654325716,1.00224280295667,1.07208670706775,1.07707495438375,0.944957030637244,0.945932785469094,0.946590246240913,0.942592705005042,1.03132597215315,0.917541366994697,0.915417975598181,0.914887222141025,0.914843224907721,0.939477440700026,0.940980765832245,0.93964886935997,0.946464554982148,0.924623371849223,0.925127781714237,0.94007786735629,0.946257890451601,0.953828853279437,0.925281789782521,0.924084692230629,0.960290001351325,0.909739326792489,0.910013676282193,0.898791148393154,0.898771768747801,0.895903185534697,0.892228665085764,0.89045899772897,0.887470296066043,0.885401600898808,0.885128406084287
1.70696810528779,1.71417208619438,1.7136597353666,1.72724688211147,1.78783961960504,1.73818573728113,1.71525180897783,1.72506141296707,1.72239349134941,1.85197420993867,1.85173068587962,1.82117129720053,1.86009344365845,1.7888749325261,1.92985481040017,1.88646701832642,1.86918505933024,1.89286666154405,1.92328124451291,1.89689450035152,1.89794898510014,1.89581585196221,1.89383708729575,1.98400473604727,1.98844196365921,1.87646016479051,1.83405377373752,1.83301360698212,1.87485351631841,1.86704198259409,1.91324575769659,1.85076102013473,1.90918758547329,1.79323873484356,1.80308507866263,1.80346349820596,1.87304429542117,1.76027530331294,1.77390257878177,1.80302245602634,1.80191320084519,1.80132308842336,1.83088560596833,1.8434594955988,1.8404431890748,1.84223927278061,1.83955149252516,1.83923639567137,1.84283823917504,1.84051074619676,1.84379215224661,1.81464567112068,1.88122113242068,1.92946835379764,1.93472248132133,1.85808674255027,1.79228224837436,1.79304531396932,1.79260678210949,1.79264924364617,1.79473594152449,1.79228095496949,1.80891908197808,1.79537606285283,1.78081540079813,1.7833377860213,1.78863052318743,1.78671211012182,1.78340807427314,1.78250156626633,1.77463642812117,1.77280581008063,1.77275738833395,1.74883620035244,1.74241003383798,1.7356041116713,1.71862111436296,1.70499112315863,1.72637849803149,1.69812614721824,1.69857293816767,1.74636153426883,1.7435088624492,1.71736379984992,1.7165401702979,1.67422799596339,1.64242612316381,1.64123918359291,1.64047719527304,1.62684818046611,1.62635673066679,1.57011035790853,1.52159993772469,1.48516674717713,1.47772853375628,1.50635020537344,1.53043023981841,1.48172088222214,1.47694250636737,1.46724466774146,1.46902343327601,1.41735344089397,1.41738563194416,1.37346471290246,1.33122020530466,1.32130815828445,1.3012846696354,1.32171918486738,1.25668597827244,1.23104109114666,1.23113448748026,1.15468100953683,1.14731352193984,1.15108281786586,1.02944328394071,0.968187823893675,0.955951309998639,0.930768074489656,0.931059737139263,0.88323030408247,0.883156189012344,0.871009876521684,0.854645078914192,0.858022980500359,0.860357589680034,0.864033012196847,0.860545540106954,1.17796914108928,0.994693279047332,0.901515937549436,0.901457566718418,0.901123174379541,0.914519390124399,0.915161481130578,0.916296484839433,0.974173460689476,1.02286705269026,1.10087123372978,1.10022805851293,1.15016135682148,1.01219941553853,1.14932611230349,1.18745751413549,0.938784186485221,1.04847617926241,0.914366746652785,0.91332011697476,0.913141667283911,0.927369508136621,0.928800660142866,0.930175159983968,0.930549614162392,0.924398932044998,0.925066616458365,0.940492067605297,0.940938873691331,0.940389707249882,0.927045199434113,0.925000494153587,0.924700991500375,0.909700838213211,0.907806410662329,0.906263096946238,0.905655479721943,0.904351932713242,0.917261727459877,0.977496275539737,0.887542646991134,0.886576462744101,0.886073409337799
1.7172375064704,1.71587494268815,1.68669531943018,1.68571490430993,1.73379820310227,1.73360211540032,1.7336217431208,1.71179542788299,1.77512691667091,1.77525177860955,1.74903618782123,1.74878790017079,1.80518312365898,1.79700551413263,1.79649907478619,1.87216079697254,1.86660346694226,1.92913003494932,1.91201398155813,1.89865855034037,1.89835919610249,1.89670263318371,1.89533880464471,1.89541205596598,1.98755714539445,1.85797832462791,1.83564138362826,1.8351832893044,1.87624553074707,1.91384519350077,1.84060464665482,1.91258359891739,1.88305110472708,1.88597889847346,1.80797832916498,1.80520571491967,1.82250554397657,1.83214958656071,1.84519698353933,1.84588733982808,1.84570870436491,1.81579009808968,1.83449615350533,1.84286151830942,1.86782304506174,1.86612988141237,1.86465851006903,1.86733927318806,1.84776173611449,1.78484179757168,1.78470514323207,1.79050339347791,1.85746786349265,1.93977042251532,1.93624288835044,1.88654950017796,1.87286149710094,1.79317567269782,1.79556636042114,1.79589358239887,1.79385933085831,1.79262356054559,1.90628626461706,1.78269522073186,1.78014569881965,1.77992877773469,1.77958770642636,1.78051654246255,1.78434886744386,1.85353555533803,1.85268132841155,1.85598586301154,1.77298853601587,1.79971956834738,1.72845448681554,1.73149563752168,1.73025904406597,1.72667879753794,1.72296462391121,1.72108696152831,1.76710679922664,1.74585970930629,1.73315349325225,1.73238620075506,1.71858996882145,1.63478004758956,1.59775882988302,1.64127145867019,1.60508788286174,1.62636544655872,1.62608125000287,1.51106935136829,1.51075448357784,1.44705686472868,1.44326726072618,1.45917899006545,1.47211324873413,1.4724868454265,1.49089898472185,1.42850318165483,1.42403933598447,1.41818225549042,1.41756574828646,1.36584740640737,1.33425127352613,1.32968115691115,1.3263766042705,1.30436127526441,1.26400530836459,1.23007920526256,1.23152190458703,1.14940188359064,1.11667422744279,1.07449769556558,0.976820025250723,0.964356206717803,0.946225073524789,0.927192244982399,0.902523068418939,0.899946944484923,0.996725827429246,0.9313030757493,0.847511882828716,0.852783443175957,0.860354217522638,0.867520294726521,0.870673112385695,0.871149603545244,0.871056683978953,0.900892029888672,0.901563538466036,0.901556614788014,0.91349074032447,0.913714008690317,0.914967949286708,0.950322377819793,1.14175441174615,1.14203040890524,1.14235049899995,1.14259028796821,0.929677207025931,0.929655428873122,0.931290766441133,0.921315178228957,0.912298809030298,0.914381131012749,0.911403037258151,0.909333373991331,0.90943694420817,0.929750573530781,0.93066245791909,0.930986266352582,1.08350726847441,0.943623586058717,0.940456260518739,0.941169379712557,0.93004874346979,0.929649110915915,0.921951277681308,0.921570198049923,0.919983105903888,0.957806961863245,0.9509163819909,0.97034729407461,0.977056493794584,0.93335466794291,0.887783558012074,0.888400963947986,0.888855382797627,0.891659509954944
1.73979401084158,1.68242490732718,1.73196118732173,1.7322785317699,1.73372174994347,1.7282216810436,1.70020973189249,1.7136544358102,1.77909294208089,1.77872111930947,1.74911886370517,1.74955486491261,1.81236608502898,1.7967167928449,1.79694592695993,1.87307470391148,1.89932305430557,1.89947747921488,1.8182192708869,1.89898459387821,1.89891301368484,1.89770215314136,1.89608718606845,1.83666589599869,1.83902432749725,1.84299895986253,1.83782950567197,1.83425440386051,1.87776976972723,1.84737913280214,1.84054599809968,1.91169690424187,1.88556664989186,1.81001614836822,1.77415362422581,1.77217917048688,1.77485818224195,1.77403514765781,1.84604263578704,1.84551540820879,1.81774843737548,1.81723223806468,1.86756160832845,1.85471408353511,1.8634486731002,1.86519135847237,1.86773831827524,1.83339639564156,1.82242536883662,1.81143641847616,1.78909818308622,1.78981976324335,1.83753555534063,1.87301551171793,1.87408924856246,1.88353103543642,1.87440830454147,1.89578386667906,1.797234534946,1.7970067012682,1.79343672322561,1.79281843619389,1.78600110538978,1.79056447995173,1.78053700867072,1.77948909612588,1.77992027380433,1.77948801327232,1.74846452656269,1.79333592684961,1.79285346698324,1.76360142239341,1.80571622899186,1.80570144246017,1.80033043742809,1.74541856586072,1.72841226868677,1.72717516139537,1.72832123987193,1.62590055253759,1.62219017259222,1.620458593566,1.61901613233916,1.61789922596934,1.60114888726795,1.59686638672951,1.59176476072822,1.59446132232451,1.64903458520513,1.6473605873876,1.6418128560208,1.51140392522168,1.51058853342725,1.43785812085597,1.43644454451636,1.45278981984233,1.47393556432076,1.47362438252082,1.38705937040697,1.38583704668614,1.36255019391213,1.37164827683104,1.40553113826259,1.4401585294161,1.38160802712887,1.33254034538441,1.3267342913151,1.33583357349001,1.3363544062526,1.20631239638652,1.20609694796062,1.13265388350214,1.05835763331035,1.10900191768156,0.963405125781688,0.960301078538659,0.957692680772961,0.932854712510638,0.906192671083605,0.944819154408964,0.928591460472096,0.846305980511565,0.847363339023088,0.852023523648813,0.872178406791076,0.87159986314737,0.871180581459261,0.870619911200079,0.896993853634346,0.899235503915178,0.901176792888082,0.901788025111775,0.901066129303914,0.906750274797494,0.906854187693609,0.90753886583536,0.909166836345847,0.910099895947355,1.01907446665008,1.04769872809529,1.08815918501703,1.0948252639643,1.0552856752058,0.921692867258484,0.922214271276109,0.918394998014099,0.908162535510409,0.908755827119846,0.908952091525923,1.09973946896067,1.03526930151634,0.94468585523063,1.03482898920845,1.12051454170341,0.941791474098651,0.946298931027335,0.950275365290223,0.931330603868331,0.920372440649831,0.920336596151523,0.918151189310206,0.921650605566169,1.01403527015835,0.894668782448599,0.894136852806348,0.949577969996914,0.976928982865862,0.978372694373932,1.00065873263786,0.905289450441231
1.66307649909431,1.66465634369909,1.74275214735109,1.68335333877418,1.68384374188951,1.6834773527486,1.68306752293444,1.70276268012783,1.7218676790512,1.77756583714068,1.77667520616918,1.7529649884676,1.81407178063896,1.81524749191987,1.9009566808717,1.87140874838677,1.89993956681573,1.89937300638223,1.81213883099777,1.81222509808527,1.83529604693639,1.79460248357587,1.82252875548625,1.78797381519649,1.78449735794674,1.81888552071523,1.85419597402535,1.83353108483987,1.82906955440765,1.82844190050459,1.89081738957896,1.79513169159819,1.79503216762914,1.79511729662918,1.77533124532167,1.77262687915137,1.77518634094149,1.7751080446136,1.80020033033451,1.82405878773806,1.88339630099155,1.86022052128202,1.85691312978092,1.85556013783926,1.8569407292968,1.86269578454725,1.85668916335807,1.8215674213952,1.84023867700238,1.80906717261268,1.82571970402164,1.82583605568658,1.80520378242908,1.9286818427524,1.89163170487532,1.89181922139384,1.87473877246363,1.86990314679577,1.93708955631799,1.79802878607513,1.79306936046774,1.7863219987409,1.78562919335096,1.81836782624344,1.81833386351014,1.78008572691619,1.76893867660933,1.74898908012062,1.74872694477156,1.74829973322216,1.7941532643988,1.7635234165666,1.7637664843431,1.80021920842962,1.7674847299296,1.7613646259467,1.69901621246581,1.72734207721285,1.72905091567322,1.60727729900921,1.63083451128044,1.63104780108863,1.61919690840316,1.62736999450601,1.59489851449348,1.59398617306446,1.59208205816427,1.61193096627031,1.52077261331897,1.52172463314011,1.53442997308031,1.53301448771845,1.45754092203149,1.46457565109016,1.41375180414209,1.41477526899371,1.4146343470599,1.39569525273156,1.38216489494338,1.35352221695938,1.34633548722228,1.32606615172673,1.35532536211278,1.40741284976089,1.34621095354542,1.33813348802506,1.34516511136793,1.33598820906078,1.22218878866663,1.20566608861286,1.20565673912537,1.06771764569318,1.04515316181839,1.03341467797364,1.00426600974135,0.950093008474252,0.92039186331565,0.879934296425206,0.880533127287996,0.854031873706683,0.854144282274588,0.899455834208406,0.924436473861815,0.925090272658195,0.887307438290377,0.875503948709073,0.873951311930958,0.996810126018245,1.12600335792722,0.900496987115324,0.900243585612461,0.900469040552219,0.902595910321527,0.903736839579973,0.90504854493582,0.906635366635321,0.908425948825357,0.909576923594091,0.910973925614565,0.914221427564876,1.05400245114137,0.918716954091167,0.919891123705072,0.921874920716421,0.923233407425035,0.974216168115092,1.07363156014979,1.0738471756835,1.07506368217391,0.897539992533916,0.894976047500709,0.960661234988137,1.13177317028322,1.2142271704008,0.952031220731023,0.956892255212033,0.988868108806781,0.998841874896728,1.09007315889881,0.990337819565405,0.909243238062917,1.10406682869767,0.899268302523275,0.894024399276456,0.893645327526733,0.960597592425533,0.974976802284171,0.907590291435497,0.907635268902571,0.905545269581709
1.64422722668709,1.68427873520029,1.69141962706043,1.74362635135606,1.69087952568313,1.68478682927544,1.68337291516086,1.70470910769107,1.77954009384027,1.77856257157166,1.77806649542602,1.74171347848802,1.82586456971353,1.81699851376341,1.81246759012425,1.80747888645484,1.80411858344595,1.79639097348785,1.78063928985036,1.78004644234004,1.80724788104838,1.81135765486125,1.78870805626677,1.7862786817307,1.78453102210447,1.78266676549512,1.78347064090434,1.82882901332344,1.82800212781526,1.82774077244866,1.87954009644079,1.79503987031115,1.79511764440018,1.79409133461903,1.77640782213233,1.77305333560379,1.77561602207484,1.85772991082159,1.88693103254524,1.88629520858197,1.88363811417351,1.92219083923038,1.85735263655959,1.85675341907145,1.86484040613969,1.868544532705,1.86646316847104,1.81962327184068,1.81533222885371,1.80078255913738,1.83024042981956,1.77505430680704,1.78048528973462,1.83581396868568,1.90293138200298,1.90586215420036,1.91545623522653,1.8487221838171,1.93025872930671,1.7981280004808,1.92784813066591,1.798622323699,1.81555759559901,1.81864509249461,1.81892357269582,1.78257271973013,1.78276742915773,1.73673552456097,1.73583697984992,1.73703737998089,1.81112057627298,1.77029301209141,1.82795367018059,1.74737280441925,1.78997640572558,1.77299870789939,1.66276060288542,1.64419962146351,1.61387930804114,1.61187140151005,1.69483593679586,1.68713311201876,1.68680008633635,1.62683171653521,1.59369554793505,1.59313031980605,1.59239883297467,1.6296256937212,1.54238428753806,1.52566500269799,1.50105053463553,1.45984655174433,1.43598631589387,1.46341900093753,1.46168954293995,1.41572919387902,1.41638382997263,1.39689417284023,1.351661789406,1.33211509520758,1.32583797967641,1.32516200438708,1.32333043487874,1.3355194429895,1.20572468626409,1.20466689364177,1.20401147178843,1.21534557606535,1.1976129592088,1.17235860900529,1.16568843818288,1.06825102691789,1.06853286253275,0.994861920993006,0.963662612156678,0.941509702095959,0.908176057048507,0.907416288192381,0.867578802328049,0.868883442481713,0.880603533748972,0.844067530017184,0.919503169208109,0.885536007220577,0.872603349740141,0.878132621049953,0.894606489405877,0.905456635257929,0.9048659415178,0.902791569078442,0.912248576271588,0.897488829174676,0.908368352353263,0.904101362513244,0.904484991844652,0.905568000513705,0.938697298066789,0.908829798694135,0.90914407340268,0.907406605743928,0.910621075468612,0.911551488981728,0.91266684013516,0.919965103136275,1.0555484994746,1.05490316763996,1.05470586866398,0.899578792190849,0.89929650157134,1.15869272044265,0.958771025789676,0.960389796883255,0.935018887140966,0.950307809418127,0.938617711186072,0.960650812745933,1.08067899245202,1.08743127003917,0.897621057937039,0.8988112340451,0.896066092660757,0.896939025763441,0.89865229454483,0.898295235491576,1.11540975649314,0.9887263253294,1.11735800503274,0.906940260498,0.907695152574755,0.894770214227785
1.63235225051243,1.71767056435827,1.68791685199409,1.67873100206873,1.68914398284902,1.68223799931585,1.68199780915132,1.84062888404414,1.83772992468581,1.77865495977549,1.77877697385515,1.74301851468871,1.72417518313836,1.72414277193932,1.76256702446798,1.76345291530229,1.77385341253841,1.77374535720793,1.78153497581877,1.77944037095507,1.85343068267298,1.79477566049913,1.78853112993203,1.78791410417344,1.78626715889949,1.78297047572499,1.78485343954223,1.86656275372054,1.82433476452024,1.8233332366007,1.84537538879747,1.79472243162196,1.79445000598756,1.84003427191611,1.79299979117407,1.8121822069475,1.8198713587594,1.7736928767455,1.88611079635511,1.88653596677569,1.87368079411325,1.87354710771521,1.87332732700582,1.92503026296692,1.8597046159199,1.87733779524502,1.87342471058734,1.85771151126678,1.80357404787894,1.80642618185967,1.77961626196114,1.77418894847478,1.77240175773648,1.85991861220809,1.86452326768203,1.8720432184487,1.86064456364434,1.86368763145429,1.7789524797217,1.77948886596453,1.78020809727756,1.8073645506768,1.81389044707931,1.78710759865436,1.78817334239447,1.78559021020227,1.7361935453347,1.73641421630007,1.73463743057256,1.80301980336276,1.76089167130381,1.782267064527,1.79023380936573,1.79466570403326,1.79202328517588,1.77894303121927,1.79126466814444,1.6347117866163,1.62218185664148,1.59789592477228,1.69646779598032,1.63823992103877,1.63728143331438,1.63555638625201,1.64632086435245,1.63189167421477,1.66825331502518,1.64331904911066,1.61372114438337,1.49557112492597,1.45758793819228,1.45169059255429,1.43467880356703,1.43091448563913,1.43060228957523,1.40150537720841,1.36797411149982,1.32710203269704,1.31475699089301,1.6170884384169,1.617144637894,1.26787111542408,1.26615390947552,1.2318925326578,1.1891744277048,1.18110466395924,1.17727864854093,1.20649268312177,1.21032543329237,1.15499389522504,1.12533832707855,1.0499693716345,0.991067805812298,0.9662767769756,0.964940311678132,0.933358554506064,0.906786207589279,0.979865993135397,0.864711454585107,0.835764268864958,0.831707325397603,0.836258599962266,0.833285826997696,0.833326780640641,0.887242330080797,0.881834760349317,0.897798072301169,0.909256694633779,0.910375082381696,0.902721771427071,0.915705041676136,0.914791325249089,0.911545905168942,0.935030864338798,0.885279745720981,0.886176388074026,0.886096950177793,1.02308421539229,1.03237105699548,1.13224149925909,1.23573591275246,1.22791803324855,1.04645214967045,1.33795968582452,1.21592252066677,1.0545551815949,1.0543500927598,0.897857902529166,0.897301867007496,0.895653769059116,0.960856828174236,0.962626315295281,0.964367671680578,0.946547699987797,0.966457820899078,0.963312407152906,0.937251873325976,0.958440883250114,0.970992135260838,0.972462927873708,1.04407388688928,0.884977409650597,0.885651202537453,0.886450367237617,0.887465884663728,0.955214962632236,0.890986178271283,0.892483841590731,0.89354187255547,0.895495709622509
1.62830082703099,1.68518060614364,1.68664820791793,1.67540856277575,1.67185915993457,1.67502808728421,1.73445334859699,1.84009030293511,1.83774397755281,1.77962557193264,1.78978716366376,1.72951169504451,1.72493298929113,1.72439238475482,1.7647853259713,1.76030328502472,1.7609803635132,1.81095507145557,1.80441842710773,1.80354275549061,1.85399267543036,1.80180640613025,1.78813186653353,1.78654286297568,1.78532581226815,1.78134720785366,1.82250439182625,1.83077317933146,1.82411961675992,1.82394687781896,1.97177738860211,1.78419539936444,1.78404155428532,1.84032607038742,1.8407926935006,1.87054512390471,1.86920029588407,1.86672490363234,1.8668305359801,1.84629144014745,2.02095193106801,1.92843191370069,1.92814596608021,1.92716723712929,1.92437824952208,1.90695670109587,1.94416471218507,1.81283430346891,1.852699668906,1.78145785231983,1.74568403278961,1.74631374972153,1.74716063374705,1.74720477142104,1.8785441333554,1.87826860509438,1.87677624253353,1.88798184648177,1.7799840055441,1.8282205729837,1.77934479052734,1.80571913618008,1.80512748591561,1.80854413433779,1.80860610496209,1.83126763861856,1.83199188249322,1.73730510336329,1.75961525737449,1.75948336706534,1.76023368587402,1.78051051067659,1.77979955489613,1.71734177889063,1.73654745731515,1.71893767974577,1.72107152841377,1.6938371764458,1.64665932461317,1.64608964523323,1.62836452856527,1.6338270306411,1.63518166971406,1.56220791320735,1.60969426659795,1.60824509442563,1.57720521052312,1.56776892566757,1.48251623395253,1.4687378466297,1.45528025846378,1.447054329796,1.44165114177337,1.39840344592245,1.37053462949244,1.37608827181331,1.38128963658563,1.33323282765119,1.3344390310057,1.2836565907891,1.28093015040159,1.24073695337582,1.22570809406111,1.19745919421349,1.18437960080091,1.17907254506583,1.15220559488253,1.15180200717513,1.21056587282566,1.21164250419867,1.07751540652144,1.04035500041693,1.00042364936038,0.95359156952943,0.954222275949962,0.921990764614064,0.919581501713118,0.877138266397064,0.888850107937057,0.848901768863286,0.830919282101495,0.830760966320801,0.874141099035389,0.910723072766147,0.87859904883255,0.880046904195926,0.88227283886042,0.90882816612938,0.910854088505605,0.903455597145761,0.917383320354487,0.930372590812192,0.879506538805232,0.873369008996117,0.874142850920826,0.874885494150395,0.876104828377152,1.19742352674674,1.04107035060626,0.891294763883399,0.892503908869312,0.894170478238366,1.03674171079811,1.02740222512699,1.023273196762,1.02272815724395,1.02266093765772,0.897652489587147,0.897476175124501,1.02284666385699,1.02704802175145,0.87314327413211,1.02657712904799,0.948848775341502,1.21626908473558,0.965356881398185,0.967040741306746,0.876240305404323,0.877299561081018,0.88509540517162,0.883597950189356,0.883132690443946,0.978816918411037,0.88618378451165,1.244359456708,1.08425702824889,1.06800727974353,0.894688460745382,0.895444777382108,0.897017591776892
1.62760871700414,1.66573948132666,1.67576783569085,1.67277047726705,1.67191360567541,1.67209536968572,1.73371797557475,1.8203218375296,1.82992208066795,1.7907344383893,1.76051126898625,1.72534470173922,1.72561281003972,1.76126409012415,1.76221230103497,1.75922983942618,1.76014810385596,1.79898616846168,1.80147081799499,1.80168081125533,1.83598373730922,1.80264644342345,1.78949412503337,1.78508703764467,1.7846071873968,1.7820783862237,1.81089479719546,1.82067680159892,1.82357068282995,1.8237402013477,1.86707148209322,1.87230947208773,1.8740447695568,1.86872131697263,1.87241804196307,1.87619757351061,1.8720467022696,1.86823805567341,1.86546350688119,1.85801476899533,1.9433867719877,1.93709860392409,1.93613963459722,1.93785974732344,1.88330548500859,1.86953215602257,1.85904185499665,1.81042652477349,1.80932196885032,1.77694848894427,1.74598140943095,1.74455241769534,1.74456749875101,1.78221228317838,1.80124823428187,1.82232748582799,1.83149092374251,1.81652794027721,1.80031412432591,1.82668400646107,1.82257282724302,1.80606125309212,1.806190826115,1.80729197255617,1.82250579242537,1.83238428568517,1.83556854611478,1.74767561293871,1.7553891326433,1.75725075259423,1.75853145608117,1.77936249183668,1.77826229076006,1.71238559480281,1.70829787647318,1.70584512999788,1.70748085764778,1.6957207203913,1.64551196722785,1.64459589305042,1.62836508519056,1.63037143378679,1.60212799714556,1.59204468096194,1.60855634923056,1.60803525343719,1.59881418804024,1.59134586449477,1.49160052172026,1.47188946180288,1.4562269222254,1.44193735880438,1.43940870475343,1.40409215272912,1.37255788292899,1.37407945416094,1.36430291450816,1.33527814356056,1.33319448179705,1.268971182031,1.2548837451818,1.23527067405657,1.22124781668237,1.18623524033838,1.17812834689173,1.17556102911221,1.16454146923509,1.15812319007085,1.1387748732544,1.11065466835734,1.07234754628315,1.04420613339419,0.993108923200319,0.950435512522029,0.94736123929095,0.912924270579368,0.898400305037954,0.880397748423165,0.886407213366255,0.865022923366475,0.856420360655485,0.845571078939301,0.860776200134838,0.870483445465248,0.877904968430782,0.878234963518061,0.892377485516815,0.899837655087481,0.903452246686585,0.901136532969171,0.896118291430125,0.889833690995744,0.876551862207921,0.874248890413342,0.873724913052938,0.874554033993413,0.87608657586601,0.880459449833786,0.884325290969496,0.887412509656845,0.91623253405077,0.963355418488499,1.03234269625621,1.02911856086904,1.02277880828914,1.02240207045969,1.02222715154487,0.94496291616608,0.940436184293613,0.972280601848006,0.939349075805203,0.895481582885309,0.910821101278404,0.924476992641646,0.937372454068268,0.965290955211273,0.966150211807401,0.943687715388798,0.929742827031379,0.910115438141026,0.89366874287082,0.951232720384353,0.992789046345823,1.02503172939812,1.10668737343595,1.09715092666561,1.08506870312487,0.955506355031928,0.94764255280061,0.94169224203429
1.62810758603349,1.63787806231879,1.71884230335818,1.66695190579803,1.67302671465954,1.67444448500077,1.73639433118243,1.79874416105751,1.83772295121566,1.79744012376822,1.71097293910651,1.71000584734855,1.72987708991647,1.76408031582696,1.76921010179931,1.76369775367588,1.76835502970378,1.78971496732004,1.80333919347886,1.80326042035542,1.9344984021232,1.80820774843688,1.79751983083443,1.78568253898014,1.7865287980632,1.78669202089384,1.7946876170104,1.8034845692811,1.82383626956929,1.82400359821987,1.97657430583383,1.97657902547175,1.97458347454909,1.97391863040916,1.8729583259018,1.87871740421426,1.87177187621251,1.8688894839951,1.84400706593161,1.84395171723518,2.02308282759487,1.93249692811161,1.92841650893589,1.92801037184727,1.83587737394675,1.83917110209538,1.83369676946009,1.80740253510591,1.80793305674937,1.77609361649061,1.75169077849424,1.74603201766897,1.74650672524144,1.78966313709055,1.76059668401003,1.80376706930228,1.876780652272,1.77429896766916,1.77451345821473,1.83183565621977,1.83102592291894,1.80401570510661,1.80388917798392,1.80501545701379,1.8578175519562,1.87178745340145,1.99678615591334,1.7488583561779,1.75954184319784,1.7596839454232,1.76136827464901,1.78121994412178,1.7916855266096,1.71545477415798,1.71167779333457,1.70722743854059,1.70658992993474,1.70527425048709,1.64698419155695,1.68486977082257,1.62680102792647,1.63015510001061,1.55743066475071,1.56371583677895,1.60872862450236,1.60845303194645,1.60916858163469,1.5992427322992,1.50179585342845,1.47489010615556,1.45692615901666,1.4369562187995,1.43692885639095,1.41004735422357,1.37222651410824,1.37343669530762,1.33953904390996,1.33873361574929,1.33116974980591,1.25515146748223,1.23165459176691,1.22977857114004,1.21678288372455,1.17535078171099,1.16391272245658,1.17000035151318,1.19833942879253,1.19788361857812,1.08986078765348,1.06823749042611,1.06750183202165,1.04819083298018,0.986623032803129,0.940063341337868,0.943816068489395,0.904043249733572,0.881034058423567,0.878291492522909,0.889191138346252,0.877981913176693,0.879256365357743,0.827922835209416,0.82832864476421,0.799593760586907,0.87782877426065,0.877798632180202,0.931579461521099,0.828889192955857,0.929050068697155,0.858086872261278,0.859018592111033,0.857954730487478,0.858845014552674,1.18984596391723,0.872377144586875,0.873483486447319,0.873494745183611,0.874407256980941,0.866445019969229,0.866915922418798,0.942711847002069,1.02475059975285,1.16808739969851,1.06710755076243,0.953470970189122,1.06091259483608,1.07386392564832,0.950980642713895,0.934038347493119,1.01708878625293,0.852934820411785,0.853317936652077,0.85364741027568,0.860411845944608,0.861398211406439,0.96353550558445,0.965332800179849,0.96500429304483,1.21700436091435,1.2195708037021,0.877345963388356,1.22595724983632,1.22653173338005,1.11804496610094,1.11906629726552,1.12067636313911,1.12042270693102,0.966984114635089,1.16414505334451,1.17713453000946
1.69303112763631,1.63933497099332,1.64254504017794,1.64300841471886,1.68413267276564,1.68123073193008,1.68443021236383,1.6914329334816,1.77066032299544,1.76361872473134,1.71136595666574,1.70995585531263,1.70905140860185,1.76499304779171,1.76705784125402,1.76462068076534,1.76580604155933,1.71838422821843,1.82741101265561,1.92826026016467,1.84754846262587,1.80925504017188,1.89244246009047,1.79970352120226,1.7878603304211,1.78743000664846,1.79469654920973,1.80213825233385,1.98730717744182,1.78893978160991,1.78186714158128,1.97639276679161,1.97514791272794,1.97368883996571,2.01233474862544,1.89554634433112,2.01258757555905,1.82058723284341,1.84591987060538,1.84403239103519,2.02336382498039,1.92788442149019,1.92745495439994,1.92664306864191,1.83457528571487,1.83981732223613,1.83370287035143,1.82500751929419,1.7952290873431,1.82890669205439,1.81899999609676,1.8189706515801,1.74854554841925,1.74889445178246,1.74856512253137,1.78779620549757,1.85722500734421,1.7733500783126,1.77510599532821,1.83202407589983,1.83006114838339,1.82826418327903,1.82797443394089,1.92785887182531,1.85707974958843,1.87289171536343,1.86911375343054,1.76041348077881,1.7470119578746,1.72485562400483,1.70235757821909,1.7188158428581,1.71890142048401,1.71826269407344,1.66958407812331,1.70278219168202,1.70775926291168,1.70631546370743,1.61463592715684,1.61462344265845,1.58061031585825,1.54548588130605,1.54379993349515,1.56699219095912,1.55124711238583,1.5583894341205,1.5668304148637,1.5443899098269,1.53014177328347,1.53006422203821,1.4588870826628,1.44384021589369,1.51688009465715,1.44963652396375,1.46913694604571,1.40311975243025,1.38425865673771,1.35263702574236,1.34055319118687,1.27808217431219,1.23210414389566,1.20663897553621,1.16788454544354,1.19414859606964,1.13212901263534,1.12498540842213,1.11690058798285,1.09234085035904,1.09062178304387,1.06842567746284,1.06831242547858,1.00539930989832,0.969645798061045,0.928093700623258,0.929094139724263,0.892892197176172,0.864377409498994,0.864287243953942,0.833318280485327,0.837024297663776,0.818070310140817,0.864609521800527,0.803532990567394,0.810316707931829,0.796526684923446,0.796839032843018,0.797246241084876,0.819456903067848,0.829313346300484,0.858141480816325,0.858639291343639,0.857492689777968,0.857526768276507,1.03655252291634,0.927097665139664,0.901571108788924,0.931130111011316,0.854941658317989,0.854357209827503,0.850287824574683,0.942611936519868,1.06480086707207,1.06771374399265,1.06517384183735,1.09023887830346,1.06939366764172,1.07071196745586,1.07101843017908,1.08514859220646,1.08445599850192,0.854057868717865,0.85366523319626,0.852510955632645,0.852073234924959,0.958439813565709,0.960751693545584,0.960216732758663,0.859736813432097,0.860595745404516,0.862974582155631,0.863426179399704,0.864061663916079,1.1157750255363,1.11808305769204,1.20227540534535,1.12279845779965,1.12513588528274,1.12661678722729,1.40877583317589,1.41194277158851
1.59700180709597,1.77067692636538,1.64289123670803,1.66844043927704,1.70757308284642,1.68402360103936,1.68805771243687,1.69118762708668,1.69167912160981,1.76374759325615,1.70473965475199,1.72071012621718,1.70856204351758,1.70643056516206,1.76726202134802,1.76522931383494,1.76648003729982,1.73990927926608,1.85357048517629,1.80151645607029,1.79993371616693,1.80703149247101,1.80746708223314,1.81090626159963,1.80528876092478,1.78485204054673,1.7859673082617,1.78900895769629,1.77359381897109,1.77293262183369,1.78113642163416,1.78109320355794,1.97438476922424,1.82127518641125,1.97133714724771,1.85859388243652,1.82292166688288,1.82170605852662,1.82148660901954,1.83817507160561,1.83828778428027,1.83782577191679,1.9278201908438,1.91315495010403,1.93998554929041,1.8557663377736,1.82760694275227,1.79703857420819,1.86411798755886,1.80234443213219,1.78766085225969,1.78755580043671,1.75012930064756,1.74839845867068,1.74941056581592,1.76009887727827,1.75726951512312,1.77074472177592,1.80620330639185,1.83389927048555,1.76326796440931,1.76263103654757,1.92268659882242,1.92324447366322,1.92223027366943,1.88149802503553,1.87059671900077,1.86715883980263,1.7886229074042,1.72478069547704,1.69212060730994,1.71810149227542,1.71853510863838,1.71824069738508,1.67021282438727,1.66802554732164,1.66822131907264,1.63393415294497,1.71147077902197,1.57216170554435,1.54657522443177,1.53435558435888,1.53523521453479,1.47666805219709,1.47180465672093,1.472216395813,1.47338532538661,1.4624783888222,1.52980194449567,1.52952110094293,1.43615534740345,1.43362624759234,1.43287518204573,1.45094154061643,1.51753574770379,1.43446559877663,1.44880250735535,1.34043976736707,1.3262712178453,1.28722505450451,1.21151780267679,1.19255177462635,1.1906880439869,1.12813449369719,1.08171017488815,1.083588905573,1.08107211108436,1.04811388189323,1.0481638296209,1.02970489079605,1.01716197629478,0.978264694067007,0.967616342936402,0.955352703713976,0.889563978253133,0.884221340498101,0.871956677631059,0.850733779252646,0.820017520083654,0.805140753937742,0.805562655279732,0.830154277200426,0.80375093497834,0.811249938351967,0.796363282421111,0.79681395466173,0.797453627487159,0.882373101487628,0.828930040754129,0.829766625430048,0.880182135389816,0.837360233370353,0.836766735922932,1.03831343985333,0.927615321738972,0.882745331563178,0.847909794540544,0.847320491613279,0.835723619511637,0.848412188674818,0.848274983555859,0.848882218435831,1.06258750071559,0.848960434483627,1.07029396855921,1.06924130231569,1.17992943195584,1.18033192725906,1.08191021568617,0.950351840275554,0.849216283763084,0.850309389494151,0.850991666084399,0.851428935636267,0.852546303512278,0.8544767597449,0.85668962194815,0.85901023544613,0.860150895845205,0.862265553677054,0.863460816133077,0.864623178411555,1.11541548536059,0.87071816733412,1.12199446064048,1.04001371247499,0.976197405876249,1.40998868231266,1.23604193221663,1.39806555014571
1.66394731493741,1.6541017307349,1.65522585781443,1.69900856768439,1.68778005881553,1.68565803724955,1.68835462868932,1.69157211237662,1.78394008289129,1.74087456706044,1.70454098565264,1.70391492625302,1.7039374379691,1.70546839019443,1.74040026965719,1.73968698124733,1.74249792957122,1.75684986710287,1.84707083634362,1.80186616660179,1.800950142544,1.86008093937581,1.91142851446316,1.85835750174598,1.81768679807894,1.78274191063306,1.76679281539713,1.76837772743848,1.77317112920652,1.77282698790083,1.78226721572305,1.78284790611195,1.7759777618599,1.97403473426579,1.81584586678278,1.84300164557119,1.82112716004549,1.82167485321588,1.82220981205462,1.83912012936527,1.83885493908189,1.83888519593386,1.92904242493309,1.94004599861333,1.88948260188905,1.86555974478366,1.84213567768985,1.81390911717966,1.8165553558763,1.77638786794733,1.78773498349704,1.74446239041913,1.74482200593379,1.74494616725114,1.79502881997693,1.76123800817783,1.76213258671665,1.73055924453268,1.79478486895009,1.79522824495429,1.72742796248581,1.72723332315155,1.73009062917818,1.92316068723481,1.92185941738264,1.88640710718875,1.87155366383341,1.75821261665674,1.77070089298592,1.67696568610448,1.67805167980474,1.6762155858408,1.67531573217589,1.64094290090987,1.64110167227449,1.6375336510238,1.63513574264063,1.54222604514849,1.57524308566873,1.54856155533943,1.54741499410362,1.54642086036884,1.48350417454192,1.47726637757455,1.47143716225605,1.47097604689927,1.46890264100141,1.42371454985277,1.51088725176624,1.52782249475148,1.43450737228451,1.43333340836663,1.4326990972473,1.49637968923083,1.6240243908628,1.42430961620532,1.39836171125596,1.39731467662448,1.35919508843737,1.27533638342569,1.21218322277101,1.20148112259921,1.13597007975112,1.12450347138441,1.26119120010061,1.08593602886631,1.09082423223208,1.02658574094122,1.0284590518807,1.00976070559655,1.0118407337004,0.972193240451011,0.948094566805476,0.899296572630666,0.88143633389759,0.877371928954428,0.847157843765929,0.853126324325332,0.807603234519963,0.835576609988618,0.815563738713732,0.805848903957411,0.805619402057273,0.824076149225385,0.824993074020631,0.826290553245726,0.826531236784343,0.82777040206101,0.829449894196791,0.830550173834797,1.12276252141423,0.83670175437722,0.837382042052367,0.839319162164811,0.842947758991072,0.842949788653331,0.843366040190709,0.845317448287105,0.845256258913676,0.847052619097531,0.847544694057942,0.847894985713757,0.847466594608968,0.847985674825119,0.849079751989229,0.895349438221073,1.18133602458332,1.08024567029696,1.08162400311171,0.978948108335544,0.849223102805773,0.849580292716674,0.849914142805237,0.848390893696554,0.849585663985124,0.847783751080959,0.845573813388922,1.37639351617343,1.38216996183795,1.38423717868516,0.964785789395217,1.11755307844799,1.39737189970284,1.01869982172354,1.30638494627165,1.0067402475743,0.97647215881311,0.940535714858051,0.860279607238311,0.857664235730598
1.66420727700449,1.65637023650061,1.65494647322859,1.64413585777376,1.67301840245186,1.67927557175802,1.72661663513141,1.6600023013707,1.74034924233388,1.7400552575575,1.71460344973773,1.70390955549312,1.70401761832533,1.68189261693402,1.68268767518351,1.72806246088445,1.74057358937017,1.78570941183844,1.80293739751912,1.80476356154294,1.80184151725426,1.79151805337255,1.81527156998551,1.81261880107338,1.76013739078857,1.75817652485746,1.7605949093071,1.80296255213907,1.7806318747831,1.78014655438204,1.77988615630656,1.77826828925917,1.77758032159334,1.8908406970227,1.92491646799396,1.86387995913122,1.9274365581229,1.92713753901162,1.92665249378141,1.84364001170817,1.84371272500955,1.84292088196033,1.81510333356072,1.81506573550279,1.88869581115515,1.88462587960369,1.88930468132521,1.82226950720535,1.75699417999912,1.82475967163225,1.75043488951077,1.76555906919491,1.74494166843306,1.74438012450101,1.77896910732982,1.76322619074819,1.7658484041621,1.71840280247561,1.78253048443647,1.77653305457133,1.72755934737473,1.72806277862307,1.73093502655119,1.77318609904066,1.79530657499198,1.79169834683301,1.75463988963574,1.7616962472219,1.72596565169412,1.67790214355731,1.69955489182658,1.71671414052274,1.5990177868298,1.63263921415302,1.612525460372,1.58101292149615,1.55700931377948,1.52372721435399,1.54319693361349,1.52607060711258,1.5501035389921,1.49378211675974,1.45432999465356,1.49494340438747,1.4592856408027,1.45294378610483,1.42515211962338,1.42433239544366,1.44541153232569,1.44485862875007,1.46232918413103,1.47054973801257,1.49502360339575,1.4950984057086,1.4990143667737,1.41593316587594,1.4084517269125,1.40849865478651,1.35946358309892,1.20700153000143,1.21057122552506,1.15778339560016,1.12893589871314,1.12795599427489,1.10878981456573,1.08347106344535,1.05636909078441,1.01751835059412,0.992878792813813,0.983697942048609,0.958620952614905,0.959869772900233,0.949214435822986,0.883690038881228,0.873558856029403,0.870861403297397,0.854767023106679,0.841234059123998,0.801671528551664,0.799911414805965,0.796247599054191,0.796042850743203,0.805673517116311,0.822979072516506,0.825403299024202,0.827213044566893,0.827369001504028,0.828146622832005,0.830304756490178,0.831874040525956,0.83474883352832,0.836325644755582,0.838450525397929,0.839701189439011,0.841403207595465,0.842468458188578,0.843504055489402,0.844205034184179,0.84539585366316,0.84699460962756,0.847655553444035,0.848192203687558,0.847916435849718,0.847388140989453,0.840510008685821,0.838194887079606,0.838207163316407,0.831328081293734,0.831925235183309,1.09779936047036,1.08023947630919,0.842735595293332,0.843576114914634,0.845347648978574,0.846247698827058,0.847741659839234,0.844957354641177,0.842722166667393,0.841822317755804,1.13396440582449,1.11702145533906,1.1178840526305,0.853592299060605,0.852738050635144,0.850378529306544,0.851271240770928,0.850850482876206,0.851882033794364,0.8538724117174,0.855522082115163
1.58648032685652,1.58947490468126,1.5792508825444,1.6455211110707,1.64521398288421,1.6570123630169,1.65949138039585,1.66055184289168,1.68614358160298,1.71203744213547,1.74682897073194,1.68958241919161,1.75315212464261,1.66267291733044,1.6824073302386,1.71857803468875,1.78634723918469,1.78196451680109,1.80419486755596,1.80705221620531,1.85572487206523,1.83066779093281,1.82384205123412,1.81923206011084,1.76019851199507,1.75828080258135,1.76089643810467,1.79640474942984,1.78017031350843,1.76539655040187,1.77274427113825,1.77305480981805,1.77361172961884,1.8574677103803,1.82707860568042,1.85004466664956,1.93413694153292,1.92719983539207,1.92669845813654,1.8449768198087,1.84416889319966,1.82755575090081,1.81573390084743,1.81503112733598,1.81475560445559,1.81414435066413,1.81503739343416,1.78081998920413,1.77992080209505,1.74379113786908,1.7438832377194,1.74361584213644,1.6999028943888,1.77709185685097,1.71153766467661,1.71015092739988,1.71254083455616,1.69512017859491,1.78966672384781,1.73241206442434,1.74035307186419,1.69133171424405,1.6903497285431,1.77160627162003,1.79331138376824,1.78228529862648,1.75594329930518,1.76059083282123,1.72400373303362,1.72418197926752,1.63250692945586,1.63383823709026,1.62158645174854,1.61429321796783,1.61375745546691,1.5607609074186,1.53605463156005,1.52089844669464,1.52075023093695,1.52163910558062,1.5171012307679,1.45519047476483,1.44219116800607,1.4268176585292,1.41976233416151,1.42242022731995,1.4250301924835,1.40908826874895,1.4432725428284,1.44360253278632,1.45336052841007,1.35787029828139,1.47526435940486,1.41942077091616,1.47319438268423,1.40573620255396,1.38723141569417,1.34245585544528,1.34399198640512,1.20404774707841,1.1463709447563,1.14906017950803,1.15061337146695,1.1147717524095,1.11255340394615,1.08155235099092,1.06528175980337,1.00893544244228,0.992479182470292,0.963438200055959,0.958199746462024,0.927862549227889,0.954289753572867,0.886401606219514,0.87551197233489,0.868547958807563,0.857702282727263,0.836582301833933,0.823751572611455,0.796686219039458,0.796402953028264,0.804034131132484,0.804686221076374,0.830707894687218,0.831048479826781,0.829725705183913,0.830514812165159,0.829394275257384,0.83046235884469,0.832073368125871,0.83483922068738,0.836324228547772,0.83855410613096,0.839479482216443,0.840998361969764,0.841906363283988,0.842501414959809,0.843739740126211,0.844859811254041,0.84622018942535,0.847168864174096,0.847914739357984,0.856514602102184,0.856307666951765,0.833234191620201,0.83378314355035,0.83239940911571,0.832398097103502,0.832831990824868,0.844545192170035,0.845123349700129,0.843684973011052,0.842788879309214,0.853428475761738,0.854193908303192,0.853305862481275,0.854831191565348,0.842377652368744,0.842348072505772,0.851322932789909,0.847549365689696,0.848805127274558,0.852278870005598,0.853617519818912,0.853200874010223,0.852387200006086,0.851504189277801,0.852801985260403,0.853541823580054,0.853934156694463
1.53521271111131,1.57660781458368,1.56602802668297,1.57525388702231,1.65103278917507,1.65442355330119,1.66040946541978,1.6625735030579,1.66356841551028,1.71216858187094,1.66475736783863,1.66402718973166,1.63726253274954,1.64714141450469,1.64933800328661,1.71435974870833,1.73802892212353,1.7303871560215,1.7259207446076,1.76272474729109,1.80880463311677,1.81660493055303,1.81942562185176,1.81939294869963,1.81994379632602,1.75738965808534,1.7595096349872,1.76659446957209,1.75703781036713,1.75621547196773,1.76672838056476,1.77246958136575,1.82061708842121,1.78071692029547,1.82745217361713,1.82831125051894,1.82763012959228,1.83068854773905,1.82547200073057,1.82525382298584,1.84517894047119,1.82771544016551,1.82867235721989,1.86133593655312,1.78987333089816,1.78946579260705,1.78999576772338,1.73474830183619,1.71525482380638,1.69817952160392,1.69877783784505,1.74416341166332,1.75737497616291,1.70549541009219,1.7002253048734,1.70655801001707,1.71674649145403,1.7180528955378,1.7174938492996,1.73420214053593,1.7339241753352,1.68814073357517,1.68848746316397,1.68933360948972,1.76628399092383,1.75828357159378,1.74424719790245,1.70485837614372,1.7050707725643,1.71479527086389,1.65983403562562,1.63431643897994,1.54083821449721,1.52262150726275,1.52157103817441,1.51946218016748,1.5158156906151,1.52338579676045,1.50570721812019,1.50996997956405,1.53984453699922,1.43784284864418,1.43758363286162,1.4361897624317,1.38722207868348,1.38582517966071,1.38440842665689,1.40708638001462,1.40434371758209,1.41885765768006,1.34979993921496,1.35585168492889,1.3015601600057,1.29075243941868,1.268778758232,1.31207622227422,1.38788081125038,1.28853692775421,1.28750660399504,1.16087510033237,1.14684712840303,1.12196504763584,1.11816866549439,1.104574664045,1.13541822037707,1.08033034476616,1.04861828278212,1.00703698856199,0.967575415122332,0.944640373269851,0.92396530756743,0.927547066796969,0.863216301261057,0.889205790323756,0.868288606856807,0.866035702640582,0.863804865878064,0.803253353956166,0.803804339311807,0.826026347027291,0.814831771060056,0.881773425872389,0.882252371776836,0.829979035541438,0.831006961017232,0.830253343260099,0.830996210456545,0.830368192700999,0.830985404479637,0.832379758443901,0.835032667178998,0.8369078889402,0.837824648568291,0.839399495432954,0.840677905706141,0.841640938970475,0.8424541839393,0.843879700124234,0.845363850665042,0.846500684481847,0.847058473756579,0.846933923647905,0.845938463213365,0.832449357160064,0.8335961338304,0.833763684219486,0.833622699323996,0.83311650453388,0.833622829046752,0.851850173917372,0.851824019369877,1.08259862844399,0.852775028889667,0.853928332300851,0.854938339983042,0.854748545111482,0.855274506855428,0.854632632927695,0.853419127338426,0.852594414213057,0.851629271430371,0.851047737829396,0.852660306565402,0.853953749600457,0.85376502846915,0.853228810815797,0.85285236863517,0.852655859303398,0.853533961817162,0.853638403816137
1.46526328021631,1.52977054624496,1.51981914219766,1.56844397676455,1.56851999593451,1.58950693051275,1.59576287221472,1.66300669129486,1.61854485034394,1.65739000440918,1.65676613705317,1.65775647819378,1.65018357137132,1.66389697906716,1.69017276421444,1.70576273984097,1.71042125512553,1.71011301348279,1.72850824861289,1.73387403303483,1.79052470314884,1.72845950670845,1.72801231210245,1.80462142836798,1.77900373177036,1.7560365413826,1.73517221829071,1.75244090891847,1.79355788620518,1.77482033220264,1.76668233587055,1.76987063480591,1.79867077310408,1.79406155008645,1.82833959915712,1.8285390232062,1.82771294723636,1.82620623043813,1.82593050225545,1.82506371031398,1.82434591572363,1.82658704387854,1.82338517177704,1.79181574022959,1.79116354493952,1.78874657260301,1.73411475732223,1.75389072868922,1.77278280897038,1.69530822643098,1.68942259316163,1.68902008163878,1.69497901717539,1.67330995958711,1.67252027880575,1.70539044275315,1.71757626127898,1.69468651885518,1.66315386987111,1.66152966345068,1.66488730876065,1.69127408300325,1.66840835990855,1.66632895203221,1.75575682195032,1.73249250668928,1.69381574887464,1.69327413606285,1.71168827376075,1.67467013239804,1.67436500900702,1.63213712497368,1.53974544890411,1.52093502595098,1.50475865321836,1.51245188215006,1.52056045368319,1.50457680898866,1.51876916260488,1.49631160046228,1.44375661994232,1.42288773563423,1.40078938037047,1.40138254954288,1.39200026580205,1.37480151921191,1.34949252787465,1.34853092338016,1.32101498824857,1.32337067966876,1.30399908019278,1.31348226614383,1.25620676817877,1.25610740322068,1.2505540352309,1.25970793631097,1.26889163759744,1.16065830693937,1.16626202669691,1.14224501380926,1.10982362039692,1.14184358290354,1.11597677787703,1.09846910434169,1.125567915102,1.07980926036688,1.06865138704181,1.02286682172996,0.976550633379758,0.95564210210076,0.925313147582381,0.906121930615192,0.862054231769843,0.864190043758449,0.895529995266988,0.86155545457013,0.854647533404736,0.802148017732398,0.873736262797652,0.804686866324541,0.852893916080364,0.820242292134407,0.822200935879663,0.82657522070207,0.828449198939417,0.829439095170194,0.828456909215941,0.830404971467991,0.831632183678096,0.833756014898411,0.834828492783102,0.836075395652393,0.837425405567408,0.839290713033683,0.840543226675462,0.841522712842011,0.84237680785662,0.84400520052499,0.845346453039774,0.846484148865416,0.846888554572523,0.846583409427466,0.844679761230421,0.957002163069661,0.833441343573824,0.833685472255208,0.833832579739434,1.15873018676072,0.851724916183339,0.852465797484171,0.853105832932882,0.853321066399756,0.8522678106702,0.853592655963142,0.854825044736575,0.855151477980415,0.855616651637951,1.08755354900865,0.85244088081119,0.852000689010291,0.851154227873587,0.951119951132788,0.851719996831413,0.958069953447967,0.95994326935143,0.853252940490658,0.852275191350784,0.840353273559493,0.841396803612657,0.842185803754772
1.4587245072012,1.46018955429413,1.48805264797291,1.53004944661126,1.56337088672754,1.58547637692004,1.59747835622017,1.58683299866751,1.58512182341021,1.59854753831114,1.68017733328759,1.66636723716357,1.70037371368699,1.69573044428161,1.66798477036478,1.65645007787223,1.64414602511208,1.72316281441876,1.72171033851669,1.73464331555835,1.73308773562682,1.72794077840887,1.72744333964414,1.72765580547787,1.7259910537027,1.71903109142276,1.72213364061773,1.71419612061288,1.74234457536221,1.78875723766786,1.78664085781537,1.78504365420355,1.79739515524184,1.7966942483375,1.79582616837984,1.79215404727167,1.7943661166225,1.7952855394693,1.82476892375755,1.82407402795697,1.82138510230485,1.82149564249888,1.82562073661045,1.7906767172874,1.79078028575534,1.78635386155927,1.74669010426231,1.73396432934396,1.69518655329505,1.69443335491503,1.68880365551777,1.6882519353987,1.67727430400636,1.67261799165095,1.67122319145702,1.66780500935813,1.67070301443746,1.68456101354063,1.66250670232334,1.65651366248511,1.66046820340427,1.66498650977643,1.66100799572355,1.6592884457448,1.66277636181144,1.70553959576656,1.68332220924858,1.72743385586111,1.71250379865838,1.67362411653006,1.67354843809676,1.63748608725186,1.63128457054501,1.51804339008808,1.50388479352692,1.49265901662097,1.48967393942708,1.47233819380926,1.47378716413486,1.47235498893711,1.46945703987684,1.42592378740889,1.42581323295041,1.37600927243549,1.37089434436375,1.35984628563862,1.33995117180311,1.32000720895945,1.34330012598634,1.32105905230359,1.28134174106062,1.28315874839565,1.25467802698258,1.23210758431742,1.22317309846947,1.20371578369175,1.1782959219105,1.16374042242869,1.12816448979255,1.10972350370668,1.12383845354961,1.14918059351558,1.08730503362184,1.06463319349259,1.08005953825925,1.07980509029743,1.11234652935449,1.0162797870952,0.96078629785247,0.92481530612103,0.917510575861602,0.874010456107477,0.860975936039028,0.848594318011635,0.89312282737966,0.843946859402168,0.79307331237839,0.793435808294777,0.887200499687175,0.887097466952279,0.896862204370531,0.853634538277484,0.89366438706854,0.892746495046933,0.830562186712209,0.830613142605728,0.830733058495422,0.831239234244686,0.832460232434209,0.834550810996037,0.835242772094221,0.836500916712234,0.838043226134252,0.839284096323996,0.84056698474362,0.894234317759052,1.02594957573469,0.844587819820897,0.844974868457405,0.933525874794455,0.846870107779766,1.33451278456215,0.856811178193382,1.05692336407951,1.32775948073016,0.851946389389683,0.851665127376077,0.852351755119286,0.851902001166424,0.85273124137442,0.85320367817622,0.853098658028357,0.832981034351039,0.832993846951915,0.932390534024636,0.841051565399541,0.826309001711665,0.825706483039526,1.09849371388487,0.824776898462977,1.10780409361175,1.10900301578996,0.911101268373937,0.835694219270481,0.837274198259196,0.83708397734343,0.838860839803631,0.840508869059335,0.841901130251828,0.842157393872448
1.43357733331313,1.46135766007363,1.47696693920681,1.50655991511646,1.55971081993668,1.58197896832777,1.58463196517739,1.58522626696252,1.58483015598785,1.61423866148425,1.64159533263897,1.65774346735569,1.69863721661306,1.69762360493743,1.65640106551825,1.6524010971349,1.64884695971763,1.68411269222185,1.71565560654245,1.72931414884333,1.72884650117282,1.7240321197711,1.72253624296175,1.72035029011587,1.71776107856675,1.71436243999922,1.71459717503248,1.71232559563953,1.73542005935451,1.7871191289211,1.78622850829115,1.78581308955999,1.79331523074446,1.79402153519228,1.79303478701644,1.79092061482049,1.79263325423946,1.79536945640915,1.82349564044713,1.82198316682085,1.82078576653776,1.82181358028196,1.82116586386168,1.78469189251439,1.78298612144701,1.78168600529007,1.77529022321486,1.75990063629764,1.73450818721148,1.69222173007399,1.68954210634111,1.68636739065488,1.68357109170896,1.66982333990039,1.66852911390428,1.66695778528369,1.66988819446813,1.67311039684199,1.66039201451871,1.65924143541697,1.66007386913293,1.66000374061506,1.65952653301848,1.65849360976023,1.69172660200544,1.71384491586232,1.72078391470481,1.7233501527554,1.70121989021193,1.66749410564068,1.66329751663439,1.65327417704373,1.55511075903585,1.51727812116585,1.49290131402299,1.48909448131457,1.48661065910312,1.47085225236462,1.46894637128399,1.46690403786138,1.4541598175223,1.4249887528009,1.42488510425879,1.37466159891783,1.37280356773619,1.34487047006695,1.33647436196315,1.33186256303376,1.33737635093387,1.30852951129391,1.27048383177702,1.26585870264964,1.2521161428995,1.22980890688029,1.20307487104619,1.18508349333551,1.16717882888067,1.15184106373907,1.12686310318288,1.11459031961241,1.11925167909793,1.10461145097634,1.07960661586811,1.06574940903635,1.05518367143965,1.04523174979099,1.03624540279646,1.01957990308439,0.951015827336572,0.925039488376856,0.909335895815912,0.880826222317308,0.874054391806259,0.865872579936988,0.847419723190234,0.828823899329765,0.806688317711545,0.816864394015678,0.827691189918615,0.847763291906419,0.862935879934769,0.85822495881884,0.867999794778759,0.879279724315271,0.83138036930445,0.831671638262726,0.83214346093192,0.833120396750556,0.834636890687155,0.836207042885277,0.837327737322267,0.838177185501849,0.873984589378054,0.896082192063469,0.917387970802433,0.940295654193531,0.966639122855926,0.917921954660339,0.898679125690089,0.934651379017667,0.956682254674608,1.0225018873728,0.995054316140623,1.04157967030518,1.07721735131325,0.851485657884214,0.851572364440046,0.851688114445638,0.850333219320938,0.846156982788304,0.841377117279213,0.838598264561317,0.833997875845573,0.832578780833268,0.829722110703461,0.828238630222958,0.82695828363525,0.826108528803616,0.825680694922275,0.825583395325995,0.826706903639525,0.828366370993997,0.830260247831352,0.832810961128107,0.834336986581884,0.835347857719948,0.836535665581663,0.837948946761323,0.839402582063099,0.839108328121913
1.41099102740089,1.46263999169951,1.46142204208284,1.4575469787663,1.54424414818415,1.57714877026673,1.5842609907887,1.58509245135994,1.58443887383622,1.62043836780517,1.61539511895794,1.61689610886311,1.69899181626829,1.69882816728495,1.64377846014225,1.64284335341743,1.64390295624923,1.64374687295354,1.71286387033742,1.76284302233091,1.75285327428238,1.70070185895524,1.69864636364598,1.76952103406894,1.76904134024293,1.71406148996463,1.70756772939952,1.70635315593304,1.70597761642533,1.79012645597681,1.78879755071286,1.78407277783885,1.79736357492518,1.79699899293873,1.79550542207673,1.79208776373097,1.79406761790995,1.8020052215686,1.82534976404916,1.82119713454064,1.81911766671365,1.82561129419166,1.81776733900973,1.78294349619238,1.78011586054947,1.77805390299642,1.77765559647721,1.76375794837343,1.7505690160549,1.69428219115866,1.69316820192644,1.70264781850594,1.70224900073921,1.67204168963019,1.67096123591424,1.66811970771663,1.67164867671133,1.67790793907683,1.65916710728795,1.63096246828672,1.63898350196406,1.60230060004603,1.60447987606673,1.62389847013306,1.72392366786432,1.71581724332495,1.77581812261985,1.75725567319095,1.64653144786398,1.66065622174636,1.66062390618369,1.65986825547575,1.51177497810903,1.51640945513491,1.47733780429581,1.48182225231349,1.47975341425522,1.45473304287148,1.45385487076191,1.46394847405326,1.43699024673266,1.42411776755411,1.42381404286524,1.35075394686562,1.40998880355897,1.33240135654144,1.30121408006975,1.30675817939601,1.34540023636391,1.29545993921224,1.2651223021851,1.25946861486784,1.24959784397535,1.22746189383865,1.17288420529672,1.16251020348189,1.15609917467338,1.13875207852915,1.12548419102963,1.10053473594196,1.15647296665255,1.07627216979273,1.07420613732235,1.06706321051319,1.03095611848026,1.02991295064766,1.02872392759687,1.02241123739796,0.937980261283219,0.924923218778375,0.897292282601618,0.886948914322523,0.885950632081097,0.884554745370077,0.795542809785958,0.79632581008072,0.796631949547809,0.831260637192802,0.803014730726282,0.803186132239358,0.869924270096893,0.851798773407976,0.855285213383575,0.938259645493905,0.831844048334429,0.832466182438126,0.832995355411329,0.834433773181768,0.836732786225983,0.838287536166932,0.839690189115463,0.840680351088439,1.11931567824297,1.08007892490147,1.12854173340433,0.972023490760211,1.25555251923119,0.935201494793346,0.865337889566617,0.935820342547612,1.30347194004177,1.06448367986515,0.953714466757717,1.02619456040454,1.30755576871132,0.850227507813764,0.850923083907214,0.851975975065661,0.851061643430596,0.839472699015708,0.840077040084572,0.837613374723602,0.836145263075276,0.834017038366293,0.827017879180018,0.828728869121765,0.827334336744403,0.826201812645722,0.825398386192343,0.824980769198062,0.825623659374657,0.828081105729237,0.829422661659752,0.830953963429407,0.832040459371202,0.833679220788145,0.834153559645115,0.83546355401011,0.838671526420977,0.836116970037882
1.29495722623215,1.40539123296347,1.40183817483736,1.42698902490619,1.51428984917061,1.55488534145498,1.57930680234354,1.5784299496548,1.54199516803459,1.54117926787115,1.55273080043794,1.58161380998251,1.57783596383487,1.62688447609267,1.61654991144653,1.61579548233223,1.62007756958826,1.65758512616355,1.68402295446122,1.67575190596731,1.67017521713486,1.66970393643781,1.6985198687163,1.69796545537655,1.67261272397126,1.71950882408033,1.72607876596223,1.70578515339262,1.69820608192555,1.73010609757375,1.73031352112774,1.73127343607057,1.79721333362284,1.7978950522142,1.80982225231591,1.78694723761058,1.75638718892182,1.75718649998572,1.81822285937522,1.81809376855759,1.75788360590632,1.78546388897755,1.78461542417504,1.78312969355123,1.77934359187037,1.77530041397932,1.7704540539776,1.76071958840825,1.77275329636966,1.69569422136194,1.69344546390805,1.71123989442198,1.70204777539525,1.70379235760401,1.70215873414536,1.69998641206726,1.7005017599423,1.65652338844269,1.65712216436214,1.62136238220658,1.63914879011689,1.58259854804626,1.58598984590943,1.58668751697024,1.58734853663844,1.62260314720796,1.63131193419375,1.6491204948353,1.64730960508064,1.65809258234096,1.66108091965957,1.58806600475914,1.58774747613003,1.51684644032633,1.48619682571809,1.4843270839756,1.48456031799463,1.49265830964965,1.4530174227405,1.45287624439473,1.43015940750981,1.37578304978418,1.35818285071669,1.35120190024193,1.33672322050402,1.32461315926311,1.30000317026359,1.34304800163782,1.30121941466597,1.29829609998041,1.26763578939605,1.26040340517409,1.24655743404929,1.21243800693347,1.17420177582526,1.15005530910267,1.13400898405212,1.13851739207891,1.146751868174,1.1014651194905,1.07692334996317,1.07629254688088,1.04391468106398,1.02182146696033,1.02055710059401,1.01840389618699,1.01625044390913,0.989737699289653,0.957863341878679,0.929372280591138,0.908904887456805,0.872500580475369,0.853525820338656,0.832465649354723,0.80369266783533,0.798069595820423,0.82464419357026,0.797803888362722,0.803586864920471,0.804672128939269,0.790965161437105,0.799137827678413,0.804797095051332,0.832046154937357,0.832904884381814,0.833296262574516,0.834476540490145,0.83637516742383,0.837854622039209,0.839805627463664,0.840333032489515,0.842440998151254,1.23219617761383,1.24217986914248,1.24608553950453,0.917944989292421,0.863125892206616,1.25571335636473,0.862693411541834,0.866743806482174,0.868702490872717,0.869805014963039,0.887043026205779,1.18461004596705,0.845927623699947,0.847882615306654,0.848261267881248,0.841696296178591,0.841466036150873,0.841730148505188,0.841742141547787,0.841315186390454,0.841312780443931,1.33736959131493,0.933367472973623,0.832175230542718,0.827394008062259,0.832145202400142,0.832162701732883,0.833800131004788,0.82637071718722,0.828163076329835,0.829273352294505,0.830824375307391,0.831892324107297,0.833295682432182,0.833936259212656,0.834645723102217,0.835540778682299,0.835094385446077
1.25934299743328,1.26427854440922,1.26360754136485,1.28404849203344,1.27993969998111,1.31832758649424,1.50107866686521,1.57972365458257,1.55052625335413,1.53382949013663,1.55976926780407,1.5574899429729,1.63268349207257,1.57935691743501,1.61062065892469,1.61221169444619,1.62521200917851,1.65095933731466,1.69785815630894,1.74491136336109,1.74378514776703,1.6992742543724,1.69788580866956,1.6742304808331,1.67349438923567,1.6867596395458,1.69452119600533,1.72459724961153,1.71905435222682,1.69504335354325,1.73052411304906,1.73044172521217,1.76356860862963,1.78288061525297,1.70060031942705,1.7390292391177,1.78822777014417,1.7627322364064,1.76247977867109,1.7684136558918,1.75809493519481,1.75738506904751,1.75533641030636,1.7794470903933,1.6876398674027,1.68695011986875,1.68791325973333,1.64715498940411,1.702121303814,1.70045949956634,1.67946760070142,1.7117499754756,1.71134561701961,1.70104077522553,1.69839957104269,1.69860972330647,1.69727482293227,1.65663120961344,1.65710431512041,1.70936334535845,1.60512259154677,1.56511529331371,1.56416617090242,1.58609332579631,1.58659218656299,1.57974355141582,1.57389999721469,1.65014841109626,1.63422644244111,1.60578961179684,1.60538135889773,1.64581118851179,1.56077734749682,1.51392115043706,1.49961723410812,1.50196898329965,1.50541111957602,1.50481102982691,1.44293938617092,1.43101255467732,1.45859379432515,1.38462202210075,1.33765418505857,1.33364153172441,1.29700951435881,1.31742133479974,1.31979150035767,1.33607964195316,1.32923376737383,1.28817301623792,1.26702411126357,1.25262440768771,1.23410424096314,1.20127434213629,1.13860228027031,1.13148960621355,1.11033456052041,1.09393356185105,1.09442679579163,1.07778667714763,1.07894703344439,1.03119886166923,1.02272772849937,1.00282141306429,0.999827326155408,0.999447299666598,0.998886273298458,0.988273416931145,0.992637936388564,0.928458527883902,0.886682456718019,0.872694712897355,0.852320920593907,0.817034755451435,0.816241494188671,0.796000680733659,0.789107620581992,0.817312734748867,0.788504289497718,0.789505600949282,0.791117837154511,0.828530738919709,0.841933917419907,0.842909996018441,1.19870674814061,0.872889809618349,0.83509181553078,0.838551011542541,0.838858566289513,0.840207865817536,0.838324719627352,0.845065016103811,0.846782524994893,0.849991094507714,0.8523251573828,0.854099642220077,0.854670193500492,1.25654776282127,0.862909064268632,0.865976847146027,0.869238268837187,0.87077530695375,0.871572971478122,1.03193479920817,0.846120594197689,0.846965678167366,0.846819376215864,0.84167998228818,0.841183963412139,0.842050604873005,0.841473284588073,0.840567429954438,0.840203862598866,0.838580175103786,0.83724890680376,0.835717667494504,0.83568809023478,0.835247206538906,0.834263488857596,0.834639788049825,0.836158280965066,0.828583631173086,0.829791471254956,0.831881456127692,0.833470288530324,0.833827768008641,0.83420456345487,0.835433573196938,0.835882376554707,0.836289962563345
1.23239896107159,1.22375563103211,1.26128100047605,1.24987792057697,1.24251015384268,1.24560515388726,1.24901770740794,1.32354449656712,1.55142523638174,1.55285404954449,1.60271411878,1.57592655086505,1.6349860168577,1.63441433235739,1.58390522380135,1.59946808970669,1.60517949140614,1.63701818460528,1.67680661153546,1.74503670198513,1.72244011744872,1.71604193653583,1.7163462734994,1.67866311107689,1.70352986364073,1.68230971278611,1.67990624010602,1.72245294987407,1.66411843538576,1.65358134315781,1.67252218626125,1.65451189321634,1.66669101300655,1.62990791389094,1.62312773691435,1.66021411369747,1.6890178047214,1.65729783381153,1.7451165289085,1.75672313610304,1.75160668335714,1.75293057547225,1.77901242230864,1.7792065025557,1.68837018491462,1.67538148771152,1.64742380992695,1.64910687431473,1.7069627891915,1.61424880247323,1.61474835338082,1.71431311018985,1.7127859493905,1.685565176902,1.70097955632444,1.6997536345567,1.70130334962252,1.7019142130468,1.65653394389841,1.5897150776808,1.55111407680027,1.53685791061557,1.53670177661002,1.4920606709283,1.52291326256288,1.52256692371814,1.52204741549067,1.57704159997864,1.57831545149192,1.60616815972028,1.6058583073992,1.57517072411957,1.55986203252164,1.55815457587789,1.49788189871404,1.50073656407062,1.50155798648314,1.50198474331591,1.49171077602125,1.48504402874129,1.45849394162607,1.36021311128928,1.36635129582194,1.32770158635487,1.30821543597205,1.31437754897448,1.31567469084434,1.27402828387622,1.34008377386416,1.3209785562418,1.28434384928025,1.22989590069049,1.21396269114987,1.16470072081265,1.16249449454205,1.12185642866616,1.11052819696474,1.14844580958862,1.07669291855254,1.07644802241183,1.04316088419989,1.04835428242715,0.996975598664273,0.997487793858332,0.982389434027699,0.982957253761983,0.983504835847363,0.960868105463894,0.941901973505688,0.894583192446927,0.86295758349015,0.855850215619123,0.850222107923243,0.832446836276658,0.79165614864749,0.795423043147116,0.789887744489808,0.790734874075651,0.799489369257284,0.798935634990373,0.794576814340144,0.828402359646097,0.816430291574597,0.854487939087587,0.85888473555196,0.879924198282236,0.961722919146387,0.839400941604999,1.21408667170804,0.84274834235221,0.844408259602777,0.846469894940171,0.848113636344692,0.850614061688717,0.853129108456329,0.855329795278614,0.855605043711659,1.26047534736097,0.863521422372051,0.865085348558939,0.869689895157628,0.870831385330079,0.872040204728707,0.863176846876683,1.09597410399471,0.918355340818996,1.00002286341935,0.842976254081235,0.841865139850608,0.841004939539327,0.840444798363465,0.839658433993768,0.839717001169655,0.839202804696528,0.838587408943525,0.837893337144696,0.837639137353755,0.837938097960175,0.836860000689361,0.837085746338974,0.836554027013526,0.834438074564877,0.834094248920393,0.83404764700866,0.833994408885272,0.834276762917954,0.835213833428591,0.835613846965975,0.836375013455562,0.836564040487648
1.20076887870833,1.21904630858583,1.24231728818657,1.20500102779318,1.23381036294167,1.23419808361836,1.23453680374196,1.2724498113085,1.30719983090738,1.4679753274123,1.56891076075244,1.56510014537631,1.50501149931924,1.52658422960635,1.53935185169297,1.56280368844734,1.64685838525133,1.64620504595148,1.73672267694412,1.68092528332237,1.6608263458426,1.66057024947943,1.71412427783305,1.653407346435,1.61931780241813,1.61961118629207,1.62105342670938,1.62583269371547,1.63504321237934,1.64995615616285,1.65033642592942,1.63273533916661,1.60514508286985,1.61673469801284,1.61493287433322,1.63534453469178,1.64164194590953,1.68530803457859,1.69422198912324,1.70124949473001,1.72011704115414,1.71892372553797,1.71805690232099,1.6622493164561,1.62683686302639,1.63079428942124,1.64061335946275,1.64232940492603,1.58237273026904,1.58256631026329,1.53319795519689,1.54908177614403,1.54941898082744,1.68137755463379,1.70243986207605,1.69982070354009,1.6987056252198,1.66831885028611,1.57317430387279,1.5991817115929,1.52265398910229,1.51739988368863,1.49701309622325,1.49268472170398,1.49169388652078,1.50986483327615,1.52181796593276,1.50084722951462,1.51335365389624,1.49838376066604,1.57546295981488,1.57540515378022,1.52185115631513,1.59348855772856,1.57362366988433,1.50422896247854,1.50007609431866,1.50283461977584,1.50245431195785,1.43374718342869,1.41849934183576,1.39714811479472,1.32388170805725,1.27234797850698,1.29471238026549,1.29486086623599,1.29477803993085,1.28815246022182,1.25172976890566,1.27534488612536,1.26435472508674,1.22775407923137,1.20665169727757,1.15929662238664,1.10865393454283,1.09619781781175,1.080982323859,1.05893465507048,1.06109518512262,1.04772787098573,1.00612076239809,1.027811963678,0.978313332269877,0.97389661321714,0.95528719759946,0.95508951846254,0.9549524255647,0.955204281857476,0.941296290004867,0.883647160106843,0.847554335907939,0.871289634843504,0.858041421985633,0.808482977029481,0.801298857434413,0.800030854879637,0.806248545802045,0.830942007694724,0.798407076054748,0.806938399195608,0.806516932381445,0.913513459753196,0.85168899858964,1.23093714825969,0.922642584505045,0.895701550776814,1.39881435294851,0.840610558416988,0.913794131129626,0.843775252867253,0.846274651315441,0.847800891409551,0.849403832465438,0.850177461094018,0.85644342399453,0.858063790963906,0.860774166852088,0.861353311256119,1.21935068939677,0.86622954988629,1.15954512672526,0.997849815718001,1.17451287324739,0.861247680505066,0.861670315489822,0.861477413458913,0.859841632700143,0.85840682378739,0.840109013069006,0.840158827653312,0.839211766007075,0.83870753198736,0.84007134399917,0.840036154669658,0.839432203355502,0.839638493528322,0.840191663688421,0.84133786882968,0.842905816170778,0.842296850655595,0.841863274707018,0.837699198765785,0.835703082729609,0.834385258757057,0.83345384950551,0.834202102124798,0.834222152002448,0.834621767971716,0.835542333190363,0.836176971692207
1.21903883891114,1.18101316576311,1.21713054488728,1.18849109307716,1.19786446662216,1.1978999897645,1.19799690476482,1.23448315757736,1.23310473162832,1.46332885382032,1.46514121332553,1.47205383280815,1.50552857950562,1.50495911144122,1.52002152593274,1.52314814362295,1.52602536411821,1.55865505262941,1.71459032219331,1.6667646835789,1.66113327293277,1.66023936426615,1.56488380591048,1.62489957198972,1.62314923173207,1.62001796738968,1.67958704719991,1.64352410814843,1.68270606499217,1.65043631032036,1.65116212042133,1.60845550093132,1.60767621068353,1.65187100462468,1.57386129231449,1.57298986068304,1.57216832934153,1.56783224028974,1.70075252435838,1.68557334607428,1.62383256714959,1.69224698612604,1.6984644101924,1.69895684972414,1.64673012728793,1.62752725238229,1.61724055253361,1.56536145799023,1.63755918027447,1.52869010680471,1.51460801895575,1.51567326543453,1.53555749276286,1.5470489156041,1.66565883622552,1.60842421759746,1.576653713953,1.5764591174248,1.57766118727813,1.5318307175762,1.49862927406609,1.49801512461361,1.49726093196325,1.49648191459265,1.47369329619684,1.47220445285524,1.4705445937482,1.46963270992639,1.48149016556541,1.48967815228026,1.52519546449819,1.52592629102922,1.52138754404662,1.50744499758133,1.51868908475435,1.50916875473939,1.53669803541449,1.48166823813532,1.4766443632632,1.4261814557893,1.42702213135662,1.41077119156457,1.28246836693652,1.25895162845552,1.22618805564334,1.23182628057685,1.23392677350759,1.27415593937361,1.26202710529409,1.24652313462965,1.19450118662326,1.16814288572712,1.13201480497843,1.12423377307751,1.10704148975694,1.08668129358848,1.07455741994545,1.05093091755116,1.02908299777321,1.01561185971998,1.02818615955821,0.979881448823933,0.961437957904734,0.932099239697824,0.932199708881654,0.938143367359305,0.94402340642909,0.942725040135191,0.892064784345537,0.873486817052149,0.862681261142114,0.847643824770706,0.823568726416688,0.797061087558536,0.800545808097892,0.799961946947315,0.789049951387108,0.789319331343361,0.812085234256749,0.808281008283384,0.807242363904662,0.914061715422543,1.19419205681327,0.850039568771834,0.850781399649333,0.884352597159405,0.925467699182054,1.16548630012008,1.16647166419121,1.16963007489854,0.920722202301393,0.923218480373447,1.25471889365415,0.967614497662778,0.860221266650613,0.859945610400942,0.861322122188869,0.862153731954484,0.944376013253656,1.2206620105292,1.11311489571152,0.857617811175886,0.858694418242572,0.860721011460153,0.862667565600857,0.862963232836559,0.863496260918861,0.86510411800137,0.867015015447147,1.2267221874769,1.00210224281886,1.07690376175043,0.84020947988466,0.839224887616933,0.839994942455338,0.841028421794517,0.841726450184779,0.84299560959775,0.843106544889837,0.841635368190657,0.840063376958474,0.837865030556926,0.837068436454017,0.835434715215234,0.834762853529852,0.834721605961063,0.834644108118029,0.834296448258828,0.834495289403102,0.834780652443152
1.16772415368741,1.16779937938115,1.16731627764701,1.17361536663733,1.18771300200102,1.1920107018616,1.21572726156342,1.23213685132582,1.23189173348937,1.34679540161124,1.41645637724144,1.41565351901422,1.44889760136093,1.46611431161811,1.47597681494303,1.51092723065762,1.5216191553553,1.52604677811361,1.58816756243394,1.58793652013918,1.47510416435285,1.45437320912724,1.55723131169817,1.48049458677128,1.47923324678274,1.51920218872506,1.53876895556046,1.55924515941618,1.6411015578853,1.64125768628131,1.61071903926882,1.60929989347229,1.60988558385355,1.60496552277452,1.54419322248812,1.55013910966369,1.56197714616932,1.54263980044099,1.57632987379233,1.52827173165591,1.62396176953539,1.63006737131862,1.67880019634483,1.65016627629765,1.62648347558138,1.61792161732851,1.59138557407678,1.52109834299258,1.5143014588173,1.50819374258392,1.50154733737494,1.51156978882199,1.5119963220966,1.52364233114317,1.53197179425805,1.56388040755129,1.57690751570959,1.57644850837121,1.57765482528226,1.54035008777189,1.53388075339197,1.46479438103783,1.45294341054795,1.47233439133021,1.47481525472717,1.43697106137627,1.40919178327183,1.40538115780204,1.49446045583176,1.44392494736206,1.45960180233179,1.52532252263819,1.56864930804484,1.53106869712809,1.49040742652492,1.48902975200723,1.48745466442951,1.47565891229591,1.42651336677144,1.4257180291587,1.39676248418994,1.40076668182415,1.28073242799755,1.24471733801674,1.22754551954573,1.22909303467473,1.26489966135393,1.24246209845447,1.29451721834841,1.16189432691858,1.16352330132129,1.16043008050233,1.12998537747751,1.09723533780922,1.10648257635846,1.07586803965062,1.06426986336311,1.02429910776019,1.04027090370009,1.00080485982806,0.994975988512151,0.978257899254991,0.952104326735636,0.93500000621216,0.937348501243881,0.924662702463795,0.914358440792303,0.915439171238686,0.887002972567674,0.889215012436751,0.849291187172495,0.822846735162893,0.821365723224859,0.798118311241764,0.797246497428434,0.798908477749337,0.832431743349295,0.791976838130496,0.813944248647443,0.811025255841629,0.813570178933472,0.814487620536979,0.839869685880807,0.82770021913438,0.816627508716766,0.818306167581373,0.817073930226173,0.817694788685822,1.1669025269431,1.070703070577,0.921761136963744,1.17840937032659,0.842279665617211,0.91547355883708,1.19704886356605,0.999813906916136,0.968701014847911,0.95238443694598,0.855523218402424,0.856552451358426,0.856993737570438,0.857878419698354,0.85957179581005,0.860448324602311,0.863881492908435,0.864201180509392,0.865044656522164,0.866026092522592,0.866232012772805,0.864822134349713,0.874208852867918,1.0325810795419,0.975828987272796,0.841943554395123,0.842793940044012,0.842724961046786,0.843228129795181,0.843246719848233,0.842101186627768,0.840789319656005,0.839885241152228,0.838697818327502,0.837631125274483,0.837084972897011,0.836381730081991,0.835415409815609,0.835056113333452,0.834733788918983,0.834370880448054,0.834341511043622
1.13046356182515,1.14835300233531,1.14895780952032,1.15380983942281,1.16261625147017,1.18900525811257,1.17740135411698,1.27382207063731,1.27410306816117,1.35142787301172,1.33691485152928,1.41153483678508,1.41091116333751,1.42323313029752,1.40676441534794,1.40444523379982,1.40217770842153,1.43351895193469,1.43521038421102,1.43483046399839,1.45584835324259,1.45813746068111,1.47272490590441,1.4423644526739,1.44264546164061,1.48485101829818,1.52388633833449,1.48605460120328,1.5620644721011,1.5618022086303,1.69478889722844,1.62429680092093,1.6244543268417,1.62449904898079,1.54752493399999,1.54734382972461,1.54700955858226,1.5286025767302,1.54003491043773,1.53050588902628,1.53137449082976,1.5576996799676,1.62596370048255,1.64964173968837,1.55130441975034,1.54598254175036,1.5414316647656,1.51986657079936,1.5215285416676,1.4939292108554,1.47609855091356,1.46635346088753,1.46745752627797,1.51115845682937,1.5274925298935,1.55270242364242,1.60582881305806,1.60468604418753,1.58975344286221,1.53043419552337,1.45642728341318,1.43692314628075,1.43687318399745,1.43709619663141,1.36275321588815,1.37417367509332,1.38965986248921,1.37816316390709,1.34652529049271,1.34578121650619,1.44724939505723,1.56813408056882,1.47299871827206,1.48218815816745,1.45037290672344,1.44644581732626,1.44059341910114,1.44885500468997,1.39401552251918,1.40026928492102,1.33578463570899,1.33475961008411,1.26612822981967,1.26103941839777,1.225000669274,1.22732348156679,1.2665544906748,1.24314898705276,1.12333410584839,1.15033947070251,1.14878028677624,1.14555252231971,1.07105704659709,1.0679871095951,1.0834778666009,1.05199557206047,1.02386323658133,1.033499462837,1.01636627348773,1.01576636515623,0.990567360388497,0.955829277621119,0.95370335296211,0.915367551825231,0.913111564990088,0.916214486551036,0.918682460837089,0.924153666792818,0.847335451532342,0.831832843259884,0.831383780853139,0.796938323038967,0.785338282815088,0.818415002790004,0.795228730558364,0.79958574814333,0.814212861873803,0.813358208117999,0.814295865829835,0.815164011627444,0.81494058911668,0.815514597635426,0.823061737127591,0.825447151652218,0.824809757328338,0.821676036612763,0.818590511588244,0.817954306075348,0.818006898317047,1.16496832871925,0.895415925014422,0.840238333854068,0.841231203110537,0.841811440621915,1.09107538228049,1.03209598532309,1.20105775959946,0.850912604054965,0.853004851311787,0.85554105198286,0.857546015774205,0.859704951862343,0.974549918990146,0.982808716237603,0.864746339334721,0.86486068435879,0.865652264333538,0.866191035203299,0.866327794904714,0.86540804060555,0.869116465595183,0.870195726133864,1.11184108969704,0.842681257178297,0.843291448894703,0.843256774126229,0.843672300402519,0.830015613444324,0.830573421633952,0.838488452537635,0.838303854303336,0.837702484198117,0.837650054613024,0.836919942078207,0.836085431182892,0.835379604806896,0.835103064476386,0.834762778345942,0.835579764451914,0.835323022325662
1.1172814236029,1.1151455621491,1.15108789095525,1.15035589335801,1.14966483193348,1.20150983831425,1.23928144828403,1.20076003102124,1.22311403395624,1.32410642590027,1.35455106963731,1.31315745081887,1.32744006365317,1.32668139354056,1.38759983549311,1.38741086323388,1.38746584200629,1.40061555159266,1.42061655566692,1.42083616265745,1.41420000349082,1.40269458296727,1.40372731626574,1.40663009953581,1.40896833465198,1.41764856806312,1.41978466977029,1.44996473664324,1.48906307328243,1.54425334408999,1.54846424921472,1.68354904166587,1.62509178706458,1.51537979410131,1.54459014454616,1.53007723099112,1.52049369349777,1.50255397370901,1.50546959904161,1.49861955452551,1.5356992420912,1.49459228126846,1.55543089465704,1.53964500589847,1.53865013891942,1.53870058497865,1.52865253716157,1.53786240556723,1.52817401974798,1.48518911423912,1.46933669260097,1.4504851609269,1.45015916899022,1.46082974445822,1.49098352663776,1.51159590388941,1.52775835413048,1.5560133334048,1.57259048059234,1.57104814959073,1.44146279717575,1.42173969855485,1.40704914171842,1.39153644538475,1.35538164148844,1.35074959736079,1.34303601561415,1.33657324250653,1.34488789456078,1.34326378027803,1.35945357738192,1.47921072425225,1.47332897664538,1.45050844578925,1.38542570987543,1.38618466876337,1.37977941549136,1.31063426959207,1.30976304582021,1.33569746765476,1.33560285463546,1.29843412501786,1.297353842618,1.25927224141467,1.22899007634009,1.196739201954,1.1587979665583,1.13148284144224,1.09070920400154,1.07038264662423,1.05532892482217,1.07453971965892,1.07355545585047,1.01633743574783,1.01566806996406,1.01346675576107,1.01136940419644,1.01034001918448,1.00904865198572,1.00890337179754,1.00901329022951,0.957226802533033,0.939664186446358,0.917099321003739,0.902800589162261,0.910167474146835,0.914976528222582,0.922110525414945,0.859576326535844,0.8572598424424,0.812444977798312,0.814295429559307,0.799118655734788,0.799471485251515,0.800071635315962,0.80099794578037,0.804423360935514,0.843327643146477,0.943926418690156,0.817037530035105,0.816954182590412,0.816551049797355,1.04500117826149,0.825352384813088,0.825913949736719,0.824987647510456,0.826178990214659,0.817402590729042,0.817591072322237,0.818373683791119,1.23770918525071,0.838619553529368,0.841102510749932,0.840834106090873,0.842836155491026,0.844569547960806,0.848187599042838,0.850477425525927,0.851601867571076,1.10350485280876,1.06143950580559,0.906389353357766,0.974412733455565,0.982369040742658,0.984888402270397,0.970730927329415,0.988911810697924,0.997490064739155,1.00139000695057,1.09083185183971,0.829633227589392,0.830458464339607,0.830739835525027,0.831189455673689,0.831046381187181,0.8311594576684,0.830960950083866,0.830933889448868,0.830937933523379,0.831807242110442,0.833437369693415,0.834560632159481,0.835059004234857,0.835182021443228,0.836318404290942,0.835003363390947,0.834115569662573,0.835146323332345,0.836114525939053,0.836143916572295
1.11110923208831,1.11511914497756,1.13569242578077,1.14992277342848,1.14949612126594,1.21109783730754,1.23585938543973,1.23150151146197,1.23594406942277,1.27598376964192,1.30158604154968,1.30929577951537,1.32116412019891,1.32975541025151,1.34611068287549,1.36494613181488,1.38757708339342,1.39558011298643,1.40622671172097,1.40361865131905,1.40283248025708,1.40275553931008,1.40417195849172,1.40566815912477,1.41286925934298,1.4161023420863,1.4174983837073,1.43799615414747,1.49564562074138,1.54540448132092,1.54695753056657,1.54699872776663,1.54835326889041,1.51577703798371,1.51691949788418,1.51933635019393,1.52057184495805,1.50404495168349,1.50253934082452,1.4986664361477,1.49604691257795,1.49478201307814,1.51646069035402,1.53996722154961,1.53937649293264,1.53884086494195,1.53738935101859,1.53586138685708,1.53196522056067,1.47178704998235,1.46746766824973,1.45131065715256,1.45057403791416,1.46935592682763,1.47860493209191,1.50702854815794,1.51107218290355,1.53405724980373,1.52745898605927,1.52314622738789,1.46111704840597,1.42224984979547,1.41114081643801,1.37199710665189,1.35085188999704,1.34852849450439,1.34234226115942,1.34039379742263,1.34323823837488,1.34267013617496,1.35319485068963,1.36375450404079,1.38561868339148,1.38635920859863,1.3872083030504,1.38667799967526,1.38455673124138,1.30735803336746,1.29582497999209,1.28526054433559,1.27515368415507,1.2646405427612,1.25263201628399,1.24187219477195,1.20034907536957,1.1726521832453,1.15057390731264,1.11443249448222,1.08117387997881,1.06091212648843,1.05014050779441,1.03951743804443,1.03363833535622,1.01519535405532,1.01518796334955,1.01014302637237,1.00412690902464,0.998388190718582,0.993498894010013,0.989393958249007,0.985127559228508,0.956116059173246,0.933547362891354,0.916023360740314,0.901239888954132,0.899555933228578,0.898880956392564,0.891820772996438,0.858998837551681,0.836396587616013,0.809460190995283,0.805656331713667,0.79881324972732,0.799725624065921,0.801637723955692,0.801333698481335,0.811267548965193,0.832338540919327,0.823374860473172,0.81649214948533,0.815801836457561,0.815163976367632,0.847980250660863,0.826155332260125,0.826280630001505,0.825981938618605,0.826167113181289,0.81833623965802,0.818476935082089,0.819129261176444,0.82725386041655,0.835020839577543,0.836222045851229,0.83816517653851,0.840859611858746,0.842904186602685,0.846874298657197,0.849630701058548,0.850966142423212,0.962554381136883,0.93764003986468,0.920818834401799,0.931465238889769,0.94112328784587,0.950278771580904,0.959147930095432,0.991551913499056,0.994527225233197,0.916241842092847,0.883041268949404,0.830518170476407,0.83100344241305,0.831325705325959,0.831615739104339,0.831558725565159,0.831541374866778,0.831334259918245,0.829912862820187,0.829958831180848,0.83089494835401,0.832576179032452,0.83361077407437,0.834229675622108,0.834375182123959,0.834556995739776,0.834145597902994,0.833861686083877,0.83431752807826,0.835203942447371,0.835781108632763
1.08511504176894,1.11538932038386,1.12388680409731,1.149881586077,1.14903867851922,1.21931334013777,1.2809547678213,1.22451400241479,1.24206634143077,1.242749143719,1.29313050631484,1.29312418040467,1.31406194950343,1.33268797169584,1.32999711539391,1.34951698185151,1.38828357481148,1.36584583737618,1.40990428851232,1.40203318540518,1.39061270395493,1.40106421978433,1.3631372974396,1.38715351617676,1.41369132343369,1.4036097016675,1.39407397471489,1.39474221414113,1.50161273363992,1.54517713652889,1.54655093514011,1.54545316207316,1.54923421924448,1.51554190041256,1.51598426420724,1.52128004443383,1.52226319340285,1.5074865232089,1.47036975765046,1.4695549376377,1.43721325810477,1.44750733439765,1.45980780556925,1.54086710337432,1.5400499772011,1.54008240732476,1.5952222091635,1.54117190257389,1.57898929641801,1.46631286099877,1.46547274997432,1.4529900430753,1.4455172883025,1.50842138849506,1.45237686075506,1.49186530690702,1.49897258912424,1.54422815000981,1.51932418189556,1.51854015992116,1.47381448906081,1.42172552548598,1.4648485714535,1.34553620127978,1.32569305095654,1.33281071354291,1.33880856141094,1.32205737134773,1.3907404113587,1.30273517101338,1.31606287031281,1.32200102024158,1.38497562094015,1.31363469383672,1.39035864945891,1.38837341869868,1.38828660911081,1.30288806177382,1.26852361784442,1.25681163783703,1.25543464410139,1.25734289019627,1.23532069665398,1.21943521416794,1.17719170232607,1.1640577487667,1.14289620480416,1.08397494819486,1.07224990942398,1.05422756015493,1.02442833634047,1.02636328972691,1.02759282208705,1.01403009257258,1.0148941882767,1.00400805055268,0.993382694196547,0.993079787884648,0.9871650527036,0.986971012746641,0.980209352865906,0.955039489741473,0.927390319632673,0.91449739288978,0.89849007064611,0.898797330529102,0.898650176617276,0.880824148573059,0.858487787794337,0.820840913459379,0.790506135866274,0.790914696827708,0.797326174413189,0.798101665254522,0.806515705284742,0.802729345067913,0.824672015746946,0.857563074270719,0.816881946728456,0.816463866832199,0.814719459729169,0.813370498731517,0.877822539369765,0.826783647114888,0.827147088939406,0.826805083018798,0.82739500319337,0.817729238821671,0.818407722424285,0.820839439114265,0.822444666765092,0.832843860507229,0.833844174049873,0.834689325442689,0.835345907161615,0.837922443113091,0.837214392339062,0.85054693156893,0.841009083186549,1.01859681563697,0.838595563684658,0.838792627719377,0.837937363861916,0.83763347971788,0.92537726642753,0.942375422335456,1.06184372802172,1.06715169840517,0.829662082253065,0.830796069087082,0.830949993993501,0.831704494909694,0.831980443175259,0.832338580256804,0.832112042985757,0.832789974484314,0.833268899241235,0.82739173853835,0.828058491368537,0.828952179224432,0.831782689942801,0.833104592211084,0.833819389392917,0.833579686577225,0.833357640158463,0.833177972543676,0.832840175801928,0.833099429403389,0.83456263007465,0.83567680217638
