1.14265, 1.1424, 1.1425, 1.47457, 1.12881, 1.12687, 1.13071, 1.08835, 1.26159, 1.11216, 1.09661, 1.09779, 1.10278, 1.10261, 1.09973, 1.09999, 1.09965, 1.10123, 1.10292, 1.10661, 1.10622, 1.10966, 1.46214, 1.52017, 1.38632, 1.09534, 1.41295, 1.10271, 1.10504, 1.26837, 1.08195, 1.08393, 1.09089, 1.09493, 1.06459, 1.06629, 1.06546, 1.06452, 1.06674, 1.06503, 1.06705, 1.06782, 1.26154, 1.0663, 1.06452, 1.06535, 1.09479, 1.10501, 1.10972, 1.05295, 1.0526, 1.05468, 1.05772, 1.0588, 1.05617, 1.05595, 1.05302, 1.04671, 1.04323, 1.04119, 1.03997, 1.04509, 1.04414, 1.03468, 1.02685, 1.0265, 1.2337, 1.03571, 1.03539, 1.03656, 1.26419, 1.02875, 1.02574, 1.02155, 1.01946, 1.01531, 1.01333, 1.01614, 1.02439, 1.02835, 1.02922, 1.03248, 1.03767, 1.03888, 1.00137, 0.994908, 0.997443, 0.997298, 1.00054, 1.00127, 0.994508, 0.990901, 0.989606, 0.990525, 0.990804, 0.991344, 0.992253, 0.987561, 0.987712, 0.987161, 0.98521, 0.984536, 0.984088, 0.979274, 0.980059, 0.982378, 0.984317, 0.973656, 0.973973, 0.97374, 0.972928, 0.970307, 0.972272, 0.975547, 0.977153, 0.979046, 0.973611, 0.971915, 0.970508, 0.967753, 0.96486, 0.960341, 0.960029, 0.962138, 0.962719, 0.970328, 0.971632, 1.18188, 1.44782, 1.01938, 1.04274, 1.02159, 1.02566, 1.16621, 1.17036, 1.17804, 1.02098, 1.25413, 1.19284, 1.04334, 1.01638, 0.973272, 0.968628, 0.963289, 0.962556, 0.956705, 0.957108, 1.27816, 0.9998, 0.936979
1.14184, 1.13976, 1.36511, 1.13163, 1.12879, 1.12794, 1.08696, 1.08805, 1.08636, 1.14307, 1.42408, 1.10635, 1.1033, 1.10263, 1.09981, 1.09769, 1.09747, 1.09831, 1.10388, 1.10637, 1.10806, 1.10912, 1.11573, 1.11894, 1.12692, 1.13756, 1.13997, 1.11478, 1.32146, 1.0871, 1.07837, 1.0791, 1.08668, 1.07346, 1.06728, 1.06643, 1.06641, 1.06572, 1.06655, 1.06484, 1.06431, 1.06429, 1.06403, 1.06162, 1.06509, 1.06238, 1.05995, 1.06006, 1.05607, 1.05768, 1.05507, 1.05548, 1.05886, 1.05995, 1.06279, 1.06719, 1.07057, 1.04403, 1.04306, 1.33695, 1.1406, 1.04753, 1.04566, 1.03532, 1.0292, 1.03846, 1.03827, 1.03559, 1.03262, 1.02794, 1.02769, 1.02442, 1.01832, 1.01847, 1.01558, 1.01321, 1.01159, 1.00874, 1.0271, 1.02648, 1.03293, 1.02621, 1.03046, 1.00811, 0.99538, 0.994611, 0.991275, 0.994023, 0.995877, 0.995433, 0.988952, 0.988207, 0.988111, 0.990044, 0.990015, 0.991258, 0.992521, 0.983077, 0.982267, 0.981457, 0.98126, 1.21557, 0.975735, 0.976648, 0.978532, 0.980397, 0.974396, 0.974888, 0.973761, 0.973445, 0.973053, 0.970604, 0.971068, 0.97466, 0.975797, 0.976869, 0.97107, 0.969433, 0.967821, 0.96583, 0.963097, 0.962745, 0.963284, 0.966257, 0.971204, 0.969696, 1.65979, 0.979886, 0.992676, 1.14611, 1.41324, 1.0219, 1.22344, 1.2928, 1.02877, 1.44975, 1.0783, 1.06682, 0.973541, 1.05685, 1.20416, 1.14003, 0.960772, 0.96169, 0.963149, 0.958018, 0.96134, 0.939639, 0.941276, 0.939009
1.13867, 1.13789, 1.1345, 1.12906, 1.12874, 1.12681, 1.09407, 1.09455, 1.40958, 1.39209, 1.10842, 1.10554, 1.10441, 1.102, 1.1016, 1.09858, 1.09817, 1.09951, 1.09997, 1.10801, 1.11049, 1.1116, 1.36427, 1.12734, 1.12743, 1.12562, 1.43674, 1.17486, 1.0948, 1.08774, 1.07776, 1.0801, 1.08159, 1.07974, 1.07089, 1.06908, 1.06924, 1.06859, 1.06765, 1.06561, 1.06433, 1.06365, 1.06104, 1.06065, 1.06402, 1.06385, 1.0617, 1.05876, 1.06021, 1.0672, 1.12917, 1.19271, 1.20522, 1.06716, 1.06807, 1.07219, 1.07247, 1.06029, 1.05369, 1.05371, 1.05199, 1.04983, 1.0427, 1.03798, 1.03915, 1.03841, 1.03844, 1.03034, 1.02748, 1.02528, 1.02502, 1.02286, 1.02019, 1.01939, 1.01438, 1.01371, 1.00949, 1.00898, 1.00897, 1.00661, 1.00135, 0.999532, 0.992824, 0.993079, 0.996049, 0.994398, 0.9908, 0.990108, 0.991138, 0.993304, 0.993948, 0.987682, 0.983694, 0.983759, 0.983464, 0.984762, 0.981896, 0.983156, 0.980186, 0.979984, 0.979386, 0.979047, 0.978843, 0.978838, 0.98012, 0.976452, 0.976152, 0.974362, 0.973703, 0.972905, 0.971614, 0.970562, 0.969857, 0.974558, 0.97627, 0.973356, 0.972858, 0.970808, 0.967522, 0.966935, 0.965938, 0.962979, 0.967032, 0.966296, 0.966947, 0.966372, 1.2509, 1.20186, 1.14275, 1.14366, 1.06515, 1.0302, 1.03713, 1.07502, 0.960724, 0.962074, 0.962598, 0.963476, 0.971387, 1.07745, 1.07544, 1.12606, 0.957357, 0.957868, 0.954852, 0.958522, 0.949414, 0.938933, 0.939984, 0.938867
1.13827, 1.13862, 1.13363, 1.12908, 1.12691, 1.12536, 1.09342, 1.53742, 1.11716, 1.10832, 1.10836, 1.10742, 1.10609, 1.10419, 1.1029, 1.10289, 1.10227, 1.10492, 1.12032, 1.10993, 1.11379, 1.10368, 1.10477, 1.12842, 1.12979, 1.12558, 1.12613, 1.09611, 1.09266, 1.08233, 1.07831, 1.07959, 1.08118, 1.07916, 1.07139, 1.07104, 1.06987, 1.06839, 1.06812, 1.06384, 1.06333, 1.06347, 1.06298, 1.06012, 1.06386, 1.06484, 1.06423, 1.07712, 1.07101, 1.07158, 1.07135, 1.07195, 1.07251, 1.07348, 1.07234, 1.07413, 1.07051, 1.08793, 1.0544, 1.05392, 1.05267, 1.04255, 1.04098, 1.03938, 1.03876, 1.03897, 1.02829, 1.0281, 1.02683, 1.02604, 1.02524, 1.02203, 1.02133, 1.01811, 1.0119, 1.01126, 1.01142, 1.00916, 1.00905, 1.00771, 1.00615, 0.988777, 0.991263, 0.993299, 0.99462, 0.984739, 0.98227, 0.989228, 0.992542, 0.991608, 0.992446, 0.992398, 0.982017, 0.981494, 0.983297, 0.984057, 0.981478, 0.981651, 0.980858, 0.979046, 0.977315, 0.975787, 0.977143, 0.977676, 0.977652, 0.97549, 0.973971, 1.3068, 1.2564, 0.970282, 0.968131, 0.968014, 0.969235, 0.975472, 0.975796, 0.972766, 0.97295, 0.972949, 0.969008, 0.970542, 0.973089, 1.39142, 0.968875, 0.967895, 0.964237, 0.966325, 0.963096, 0.970363, 0.970773, 1.21992, 0.963937, 0.955506, 0.957912, 0.957275, 0.960141, 0.962626, 0.962302, 0.962776, 0.963108, 0.962499, 0.963322, 0.960617, 0.9557, 0.956121, 0.955099, 0.983458, 1.17358, 0.946674, 0.948082, 0.945613
1.13773, 1.13719, 1.1317, 1.1285, 1.12802, 1.12572, 1.41722, 1.40967, 1.11448, 1.11205, 1.1096, 1.10896, 1.10742, 1.10742, 1.10622, 1.1068, 1.10883, 1.11131, 1.1184, 1.12292, 1.12642, 1.46526, 1.11873, 1.11732, 1.11889, 1.11504, 1.14427, 1.21249, 1.08853, 1.07839, 1.07709, 1.07745, 1.07891, 1.07565, 1.07323, 1.07156, 1.06995, 1.0675, 1.06692, 1.0677, 1.06526, 1.06405, 1.06363, 1.0705, 1.07157, 1.07043, 1.07001, 1.07344, 1.07277, 1.07145, 1.07078, 1.07095, 1.07362, 1.07395, 1.17934, 1.19425, 1.05007, 1.2578, 1.26887, 1.04662, 1.04436, 1.04246, 1.04243, 1.04148, 1.0397, 1.02738, 1.02917, 1.02973, 1.02796, 1.039, 1.03895, 1.07526, 1.02157, 1.01982, 1.0132, 1.01605, 1.01008, 1.01053, 1.01044, 1.13332, 1.00539, 0.992015, 1.03704, 1.03704, 1.00599, 0.980754, 0.981522, 0.990137, 0.992732, 0.97326, 0.974588, 0.991492, 0.979467, 0.983456, 0.984627, 0.988689, 0.981387, 0.980415, 0.981035, 0.973394, 0.975589, 0.975327, 0.975023, 0.975578, 1.29247, 1.12251, 1.31243, 0.958696, 0.96121, 0.963001, 0.962924, 0.965735, 0.968457, 1.27538, 0.975989, 0.974252, 0.973464, 0.97368, 0.974522, 0.974165, 0.973407, 0.974743, 0.975545, 1.18054, 0.962947, 0.965268, 0.962988, 0.969269, 0.968126, 0.965488, 0.962196, 0.959172, 0.957161, 0.956699, 0.958952, 0.959505, 0.959398, 0.962636, 0.95858, 0.959923, 0.96288, 0.959134, 0.959407, 0.954, 0.955207, 0.954411, 0.949561, 0.949486, 0.947066, 0.946294
1.13882, 1.13231, 1.13254, 1.12886, 1.12749, 1.12491, 1.12274, 1.40653, 1.11468, 1.11342, 1.11115, 1.11094, 1.10862, 1.10653, 1.10617, 1.10679, 1.11001, 1.11478, 1.11955, 1.12379, 1.12856, 1.36937, 1.11897, 1.31491, 1.36153, 1.369, 1.24768, 1.0834, 1.08037, 1.07358, 1.07126, 1.0805, 1.08051, 1.07918, 1.0747, 1.07381, 1.06989, 1.06993, 1.06802, 1.06696, 1.06527, 1.06727, 1.06846, 1.06901, 1.07326, 1.07224, 1.06743, 1.06564, 1.1812, 1.12967, 1.14104, 1.15347, 1.29207, 1.3048, 1.05771, 1.04936, 1.04709, 1.04371, 1.03974, 1.03625, 1.04278, 1.04235, 1.04094, 1.02856, 1.02946, 1.02891, 1.02989, 1.03061, 1.04366, 1.05434, 1.04099, 1.33642, 1.01846, 1.01834, 1.01845, 1.01544, 1.0052, 0.99949, 1.04312, 0.989164, 0.988432, 0.992334, 0.975582, 1.022, 0.958776, 0.960992, 0.96254, 0.956138, 1.13121, 0.994092, 0.97524, 1.05452, 1.00892, 0.981745, 0.986722, 0.986695, 0.982496, 0.976578, 0.974801, 0.970851, 0.97497, 0.973854, 0.969931, 1.3033, 0.962135, 0.964662, 0.961391, 0.960391, 0.959532, 0.961989, 0.966204, 0.966007, 1.27127, 1.27457, 1.12585, 0.97385, 0.973254, 1.28895, 0.979084, 0.980367, 0.973075, 0.971929, 0.981737, 1.10792, 0.963435, 0.961821, 0.961168, 0.962224, 0.964944, 0.960918, 0.96132, 0.958678, 0.95972, 0.96122, 0.960466, 0.960976, 0.961117, 0.961246, 0.961355, 0.961841, 0.96027, 0.959619, 0.958421, 0.95968, 0.954588, 0.954818, 0.953694, 0.952413, 0.951809, 0.951433
1.138, 1.13429, 1.13195, 1.12966, 1.12858, 1.12623, 1.12223, 1.1187, 1.11803, 1.11418, 1.11213, 1.10952, 1.10811, 1.1068, 1.10673, 1.10721, 1.11246, 1.11675, 1.12442, 1.12676, 1.26822, 1.23218, 1.24761, 1.4563, 1.08811, 1.07803, 1.08132, 1.07821, 1.35819, 1.06853, 1.0746, 1.07715, 1.08017, 1.079, 1.07584, 1.07278, 1.07127, 1.06994, 1.06729, 1.06688, 1.06517, 1.06667, 1.06668, 1.06759, 1.06822, 1.07282, 1.07356, 1.06419, 1.0603, 1.05811, 1.05507, 1.05303, 1.2872, 1.13019, 1.05428, 1.04412, 1.04228, 1.04175, 1.03893, 1.03672, 1.04198, 1.0385, 1.03357, 1.0307, 1.02908, 1.02864, 1.02991, 1.03909, 1.0455, 1.04575, 1.04571, 1.07929, 1.03103, 1.02257, 0.998356, 1.00897, 0.995312, 1.01557, 0.989281, 0.990303, 0.985357, 0.975897, 0.975412, 0.983836, 1.00463, 0.963817, 0.962682, 0.955698, 0.961214, 0.963143, 0.971674, 1.04042, 0.960883, 0.988437, 0.985087, 0.982487, 0.979419, 0.971544, 0.971767, 0.970827, 0.976437, 0.977099, 0.976975, 0.963088, 0.961888, 0.963683, 0.962738, 0.962119, 0.961077, 1.03852, 1.03623, 1.0458, 1.12897, 1.22346, 1.1508, 1.31394, 1.1405, 1.14442, 0.985144, 0.987049, 0.984703, 0.983647, 0.980321, 0.980585, 1.08368, 0.95699, 0.958251, 0.958748, 0.960084, 0.960692, 0.959343, 0.959555, 0.958661, 0.960548, 0.962878, 0.963497, 0.963266, 0.961973, 0.962178, 0.962409, 0.957847, 0.956326, 0.95968, 0.959884, 0.957768, 0.955054, 0.952858, 0.952571, 0.951871, 0.952219
1.13862, 1.13458, 1.1335, 1.1297, 1.12882, 1.12558, 1.12383, 1.12221, 1.11825, 1.11273, 1.11186, 1.10998, 1.10814, 1.10743, 1.10819, 1.10876, 1.11522, 1.12248, 1.12771, 1.12888, 1.37746, 1.08259, 1.08244, 1.08705, 1.08074, 1.07697, 1.07789, 1.07614, 1.06104, 1.0606, 1.07322, 1.07415, 1.07422, 1.07347, 1.07163, 1.06981, 1.07287, 1.0665, 1.06647, 1.0667, 1.06653, 1.06686, 1.06703, 1.06863, 1.06981, 1.0723, 1.06335, 1.06049, 1.05785, 1.05611, 1.05262, 1.04944, 1.18063, 1.04263, 1.19634, 1.20708, 1.04371, 1.04362, 1.04001, 1.03914, 1.04228, 1.03831, 1.03053, 1.03121, 1.02722, 1.02907, 1.03869, 1.05969, 1.04562, 1.08159, 1.02197, 1.02001, 1.01823, 1.01827, 1.01567, 1.00145, 1.05768, 1.03272, 1.03228, 1.03322, 1.0157, 1.0104, 1.02572, 1.01241, 1.01772, 0.999264, 1.01174, 1.01126, 0.958208, 0.969288, 0.971575, 0.970081, 0.952954, 0.961335, 1.12302, 1.20047, 1.19098, 0.971996, 0.972503, 1.07127, 0.973905, 0.977072, 1.07233, 1.08653, 1.01285, 1.02617, 0.967326, 1.27485, 1.28384, 1.1055, 1.1079, 1.11535, 1.30162, 1.30055, 1.1747, 1.31549, 1.13473, 1.13565, 0.98824, 0.985627, 0.982429, 0.981941, 0.98014, 0.974246, 0.970625, 0.970435, 1.2254, 0.958057, 0.958756, 0.960956, 0.959301, 0.95778, 0.95866, 0.95999, 0.962547, 0.964853, 1.31608, 0.963448, 0.963053, 0.961884, 0.961836, 0.960203, 0.962244, 0.960946, 0.957796, 0.957779, 0.956798, 0.956034, 0.951773, 0.952298
1.13979, 1.13591, 1.13368, 1.1305, 1.12993, 1.12528, 1.12373, 1.12271, 1.11706, 1.11327, 1.11065, 1.10932, 1.10783, 1.10849, 1.11177, 1.11548, 1.1208, 1.31787, 1.15434, 1.15535, 1.08759, 1.08371, 1.08072, 1.34337, 1.31227, 1.07743, 1.07812, 1.06304, 1.0632, 1.06732, 1.19543, 1.07161, 1.07022, 1.06327, 1.07, 1.06995, 1.06159, 1.06683, 1.06723, 1.08558, 1.06494, 1.06801, 1.06475, 1.06582, 1.06387, 1.06661, 1.06311, 1.05956, 1.0561, 1.05249, 1.04784, 1.04588, 1.04203, 1.04264, 1.04245, 1.03979, 1.03908, 1.04245, 1.04221, 1.04194, 1.0422, 1.03418, 1.02945, 1.02877, 1.02557, 1.07759, 1.08732, 1.095, 1.03919, 1.03652, 1.06695, 1.02947, 1.02198, 1.02892, 1.04029, 1.02931, 1.05387, 1.03714, 1.0392, 1.08809, 1.07166, 1.0153, 1.01613, 1.07804, 1.04482, 1.04331, 1.01588, 1.0712, 1.04719, 0.971871, 0.972438, 0.970112, 0.959687, 0.961492, 0.967375, 0.952798, 1.20578, 0.97314, 0.973332, 1.27242, 0.974643, 0.975242, 1.28146, 1.29711, 1.01884, 1.29245, 1.29293, 1.20115, 1.20803, 1.19879, 1.15691, 1.15757, 1.32074, 1.4469, 1.34107, 1.1148, 1.1236, 1.02715, 1.14311, 0.984992, 0.985139, 0.983742, 0.981303, 0.981196, 0.969948, 0.970626, 0.966252, 0.966323, 0.964921, 0.963387, 0.958172, 0.956731, 0.957174, 0.95978, 0.961465, 0.964144, 1.03423, 0.967863, 0.966657, 0.963693, 0.963363, 0.961131, 0.963689, 0.961815, 0.962149, 0.957607, 0.956119, 0.957012, 0.955081, 0.954304
1.14039, 1.13953, 1.13361, 1.13148, 1.13014, 1.12636, 1.12454, 1.12149, 1.11718, 1.11387, 1.11065, 1.10891, 1.10958, 1.11134, 1.1149, 1.11549, 1.12449, 1.55374, 1.10326, 1.24529, 1.08553, 1.08316, 1.07635, 1.06758, 1.06798, 1.06875, 1.06375, 1.06384, 1.07393, 1.07365, 1.07249, 1.06999, 1.06748, 1.06838, 1.06926, 1.06933, 1.066, 1.065, 1.07868, 1.07907, 1.63082, 1.05817, 1.06126, 1.06095, 1.06473, 1.06527, 1.06058, 1.05445, 1.05254, 1.0476, 1.04489, 1.04351, 1.04187, 1.03968, 1.03893, 1.03925, 1.03964, 1.04043, 1.03963, 1.04059, 1.03687, 1.03505, 1.02992, 1.10969, 1.02136, 1.00982, 1.0102, 1.02049, 1.05912, 1.10672, 1.07769, 1.05165, 1.0423, 1.08028, 1.09118, 1.03625, 1.06518, 1.07856, 1.07398, 1.09843, 1.12293, 1.04697, 1.04693, 1.06464, 1.07053, 1.07723, 1.07834, 1.06102, 1.05263, 1.05022, 1.00559, 1.01703, 0.973821, 1.21549, 1.07329, 1.00085, 1.00084, 0.973744, 1.13134, 1.14078, 1.09389, 1.09588, 1.40032, 1.40676, 1.28884, 1.4135, 1.52671, 1.43272, 1.5411, 1.2746, 1.46845, 1.072, 1.07118, 1.07112, 1.06721, 1.20962, 1.18089, 1.07423, 1.0718, 0.988491, 0.987997, 0.986085, 0.985194, 0.978965, 0.973259, 0.966545, 0.965421, 0.964863, 0.964121, 0.963544, 0.963198, 1.10517, 1.17187, 1.06156, 1.06094, 0.97151, 0.972762, 0.971964, 0.970343, 0.964015, 0.963053, 0.960279, 0.959619, 0.96002, 0.957946, 0.956419, 0.956549, 0.957257, 0.954304, 0.955545
1.1414, 1.13982, 1.13613, 1.13249, 1.13078, 1.12834, 1.12575, 1.12172, 1.11766, 1.11418, 1.1112, 1.10969, 1.11137, 1.11244, 1.10219, 1.09621, 1.35556, 1.21323, 1.09761, 1.38409, 1.08645, 1.08276, 1.07654, 1.07042, 1.06916, 1.06775, 1.07254, 1.07364, 1.07337, 1.07414, 1.06349, 1.06598, 1.06645, 1.06886, 1.0681, 1.06848, 1.07008, 1.07433, 1.08062, 1.08033, 1.08097, 1.05918, 1.05989, 1.06053, 1.06063, 1.05833, 1.05612, 1.05276, 1.05001, 1.0463, 1.04574, 1.04311, 1.0407, 1.04077, 1.04226, 1.03976, 1.03859, 1.03674, 1.03899, 1.03554, 1.03441, 1.02875, 1.07497, 1.07412, 1.01651, 1.01315, 1.05064, 1.10679, 1.1011, 1.11172, 1.10862, 1.09557, 1.07147, 1.07451, 1.10632, 1.09841, 1.13189, 1.13765, 1.08786, 1.1183, 1.11507, 1.08406, 1.08548, 1.11244, 1.0951, 1.10579, 1.07457, 1.07126, 1.07075, 1.08805, 1.01253, 1.0203, 0.978034, 0.978829, 0.980533, 0.971093, 0.975302, 1.13869, 1.13346, 1.13403, 1.15507, 1.26132, 1.07366, 1.07349, 1.13012, 1.41274, 1.29125, 1.42652, 1.29805, 1.07069, 1.07245, 1.07211, 1.37164, 1.06843, 1.06761, 1.06237, 1.04935, 1.11645, 1.11477, 0.987845, 0.987286, 0.986887, 0.983436, 0.979219, 0.977663, 0.974564, 0.962371, 0.961548, 0.96439, 0.96178, 0.960748, 1.09999, 1.1249, 0.968896, 0.970441, 0.972891, 0.973114, 0.971109, 0.970647, 0.974296, 0.963157, 0.960506, 0.957822, 0.957186, 0.958526, 0.955775, 0.955916, 0.957164, 0.955597, 0.95391
1.14254, 1.13743, 1.13664, 1.13288, 1.13197, 1.12928, 1.12517, 1.11955, 1.11721, 1.11593, 1.11192, 1.11225, 1.11548, 1.10511, 1.10178, 1.09764, 1.095, 1.0924, 1.09078, 1.09034, 1.08125, 1.07803, 1.07381, 1.07314, 1.07075, 1.07055, 1.07318, 1.0723, 1.06957, 1.06423, 1.06316, 1.06584, 1.06621, 1.06999, 1.06881, 1.06973, 1.07189, 1.075, 1.07879, 1.08018, 1.89708, 1.05947, 1.06045, 1.05972, 1.05691, 1.05597, 1.05443, 1.04964, 1.04687, 1.04574, 1.04462, 1.04452, 1.04184, 1.04695, 1.04564, 1.03964, 1.03687, 1.03678, 1.03636, 1.03515, 1.05776, 1.05475, 1.0181, 1.01511, 1.01784, 1.05977, 1.07162, 1.10422, 1.14544, 1.19436, 1.11873, 1.15655, 1.0951, 1.12352, 1.12753, 1.14589, 1.17756, 1.16533, 1.15946, 1.14517, 1.15263, 1.10839, 1.15639, 1.16903, 1.1953, 1.15532, 1.15454, 1.09804, 1.09954, 1.07066, 1.05019, 1.03436, 1.03733, 1.00248, 1.08964, 1.12752, 0.978661, 1.48219, 1.12201, 1.12321, 1.02364, 1.02362, 1.07742, 1.40041, 1.40119, 1.11127, 1.43379, 1.41254, 1.21277, 1.07027, 1.07207, 1.07345, 1.33783, 1.30163, 1.20083, 1.04233, 1.04219, 1.11215, 0.996891, 0.99871, 0.985371, 0.983723, 0.983613, 0.977121, 0.977035, 0.972893, 0.971352, 0.960583, 0.95838, 0.959294, 0.960202, 0.960294, 1.07093, 0.968992, 0.969999, 0.97166, 0.970838, 0.969719, 0.968383, 0.974116, 0.959661, 0.96003, 0.961141, 0.962415, 0.961272, 0.953918, 0.956678, 0.957065, 0.956261, 0.952947
1.13994, 1.13693, 1.13601, 1.13365, 1.13211, 1.13248, 1.12237, 1.11774, 1.11508, 1.11218, 1.11159, 1.1205, 1.12637, 1.10351, 1.10453, 1.09752, 1.09468, 1.09167, 1.09055, 1.08388, 1.08083, 1.07906, 1.07714, 1.07077, 1.07044, 1.07122, 1.07184, 1.07336, 1.07309, 1.07036, 1.06622, 1.06823, 1.06733, 1.06909, 1.06831, 1.06855, 1.07017, 1.28555, 1.82853, 1.29509, 1.81529, 1.36025, 1.06086, 1.06062, 1.05764, 1.05127, 1.0519, 1.04994, 1.04656, 1.04582, 1.04385, 1.04355, 1.05146, 1.05267, 1.04134, 1.03876, 1.0366, 1.0359, 1.03644, 1.03541, 1.0247, 1.03902, 1.03907, 1.03332, 1.06271, 1.06517, 1.09737, 1.15371, 1.21869, 1.255, 1.35855, 1.17049, 1.20377, 1.16838, 1.14371, 1.16304, 1.25033, 1.25071, 1.18109, 1.17835, 1.20189, 1.17414, 1.1885, 1.18168, 1.21004, 1.26586, 1.14248, 1.12679, 1.11994, 1.09679, 1.09464, 1.06579, 1.04684, 1.06746, 1.07427, 1.13046, 1.12525, 1.25537, 1.02176, 1.02159, 1.02354, 1.02325, 1.12722, 1.30567, 1.13629, 1.13605, 1.058, 1.32414, 1.06567, 1.07065, 1.23006, 1.39253, 1.05737, 1.21637, 1.237, 1.04308, 1.09296, 1.10824, 1.00217, 0.989807, 0.989762, 0.9827, 0.981828, 0.979109, 0.975967, 0.972139, 0.971894, 0.962833, 0.964451, 0.964221, 0.96215, 0.963242, 0.967485, 1.11958, 0.970985, 1.28199, 1.21952, 1.22245, 0.96016, 0.959678, 0.958499, 0.961228, 0.9615, 0.962591, 0.962575, 0.954752, 0.955818, 0.955583, 0.951989, 0.951271
1.13967, 1.13726, 1.13433, 1.13097, 1.12968, 1.12925, 1.12294, 1.12147, 1.11685, 1.11034, 1.11033, 1.12016, 1.10797, 1.10173, 1.09767, 1.09638, 1.09231, 1.09118, 1.08573, 1.08422, 1.08333, 1.08082, 1.07682, 1.07444, 1.07139, 1.07338, 1.07321, 1.07335, 1.07388, 1.07022, 1.06939, 1.06991, 1.0705, 1.06861, 1.06735, 1.06687, 1.06657, 1.06665, 1.37764, 1.57367, 1.0902, 1.09597, 1.85944, 1.05392, 1.04945, 1.04818, 1.04703, 1.04597, 1.04413, 1.04302, 1.04264, 1.046, 1.04783, 1.04585, 1.04005, 1.03811, 1.03434, 1.03011, 1.03848, 1.03725, 1.02273, 1.0627, 1.06755, 1.06449, 1.08032, 1.10267, 1.17172, 1.20325, 1.44367, 1.39319, 1.40582, 1.32183, 1.28181, 1.25616, 1.22476, 1.23334, 1.19902, 1.24681, 1.22305, 1.21154, 1.21167, 1.21158, 1.18647, 1.18801, 1.22591, 1.29762, 1.22975, 1.17808, 1.15674, 1.14809, 1.15087, 1.2213, 1.2277, 1.15737, 1.07327, 1.07387, 1.04921, 1.25805, 1.05361, 1.01474, 1.02107, 1.02179, 1.28589, 1.12972, 1.13607, 1.13137, 1.13643, 1.08968, 1.09744, 1.34134, 1.35468, 1.4769, 1.3815, 1.1901, 1.08209, 1.15382, 1.11889, 0.995026, 0.991027, 0.990801, 0.981623, 0.981665, 0.981007, 0.98095, 0.978882, 0.974268, 0.973898, 0.962731, 0.965345, 0.966112, 0.966939, 0.966337, 0.966162, 0.96657, 0.964434, 1.21217, 1.21613, 0.956355, 0.958543, 0.958332, 0.959257, 0.958737, 0.960771, 0.963371, 0.957313, 0.95511, 0.952736, 0.953545, 0.952833, 0.949835
1.14169, 1.1388, 1.13512, 1.1324, 1.12974, 1.12989, 1.12395, 1.12172, 1.11796, 1.11239, 1.11775, 1.11848, 1.10815, 1.57597, 1.09327, 1.09288, 1.08896, 1.08716, 1.08515, 1.08554, 1.08543, 1.07979, 1.07695, 1.07559, 1.0712, 1.07057, 1.07321, 1.07637, 1.07674, 1.06832, 1.07336, 1.07357, 1.07267, 1.07101, 1.06647, 1.06648, 1.06469, 1.06115, 1.06324, 1.06303, 1.07424, 1.0758, 1.07216, 1.04711, 1.04662, 1.04414, 1.0438, 1.04412, 1.04284, 1.04396, 1.04335, 1.04597, 1.04221, 1.04048, 1.03413, 1.03344, 1.03372, 1.03041, 1.0828, 1.02683, 1.02692, 1.06542, 1.11802, 1.11749, 1.14592, 1.17634, 1.17577, 1.38796, 1.37749, 1.425, 1.43845, 1.42614, 1.29893, 1.25866, 1.22338, 1.24803, 1.26043, 1.35889, 1.33967, 1.2337, 1.23275, 1.19814, 1.23026, 1.23145, 1.24225, 1.33451, 1.19393, 1.1917, 1.19201, 1.2348, 1.26021, 1.33125, 1.26747, 1.21563, 1.13737, 1.11698, 1.06363, 1.05338, 1.04751, 1.0143, 1.02108, 1.0228, 1.02327, 1.07957, 1.0057, 1.12709, 1.13206, 1.45056, 1.44981, 1.23334, 1.30877, 1.17394, 1.0464, 1.07713, 1.09554, 1.09645, 1.12763, 0.995754, 0.992141, 0.990908, 0.987207, 0.98225, 0.979804, 0.980034, 0.979363, 0.973145, 0.973955, 0.962461, 0.963531, 0.968896, 0.968713, 0.966623, 0.966196, 0.966385, 0.963012, 0.961313, 0.952075, 0.953241, 0.959107, 0.962144, 0.961172, 0.96034, 0.959254, 0.954921, 0.955186, 0.952779, 0.952415, 0.952267, 0.951849, 0.9471
1.14435, 1.14008, 1.13642, 1.13254, 1.131, 1.13167, 1.12308, 1.12189, 1.11864, 1.1153, 1.11595, 1.11731, 1.10368, 1.09928, 1.09486, 1.09262, 1.09096, 1.0877, 1.08544, 1.0848, 1.08123, 1.08008, 1.0777, 1.07607, 1.07509, 1.075, 1.07462, 1.07569, 1.07708, 1.07923, 1.07772, 1.07447, 1.07333, 1.07272, 1.06532, 1.06492, 1.06455, 1.06366, 1.06445, 1.06311, 1.06025, 1.05115, 1.05115, 1.04562, 1.04525, 1.04325, 1.0392, 1.03958, 1.03971, 1.04543, 1.04131, 1.04108, 1.03923, 1.03865, 1.25352, 1.0252, 1.03914, 1.01836, 1.01632, 1.02951, 1.06731, 1.15968, 1.11725, 1.1606, 1.18586, 1.29601, 1.3274, 1.38855, 1.4113, 1.49996, 1.49984, 1.47366, 1.42991, 1.34732, 1.2839, 1.29692, 1.38761, 1.41827, 1.41867, 1.3184, 1.34757, 1.23767, 1.24682, 1.28498, 1.35722, 1.36184, 1.26421, 1.21591, 1.22983, 1.26231, 1.30208, 1.39314, 1.35591, 1.21553, 1.19219, 1.10718, 1.10835, 1.15012, 1.07792, 1.08031, 1.05676, 1.04829, 1.01485, 1.04323, 1.00358, 1.01812, 1.10527, 1.02958, 1.11182, 1.23319, 1.23416, 1.18009, 1.17883, 1.17845, 1.07294, 0.999518, 0.999428, 0.996145, 0.997611, 1.17092, 1.11065, 0.976615, 0.976615, 0.978219, 0.975772, 1.16735, 1.17826, 0.969493, 0.969127, 0.966915, 0.968884, 0.966569, 0.966316, 0.965272, 0.964073, 1.20494, 0.951161, 0.957147, 0.962711, 0.963266, 0.962754, 0.959199, 0.956946, 0.956035, 0.955184, 0.95538, 0.9534, 0.960175, 0.958974, 1.08492
1.14602, 1.14199, 1.13908, 1.13213, 1.13079, 1.13012, 1.12521, 1.12201, 1.11661, 1.11521, 1.11368, 1.11246, 1.10183, 1.09909, 1.09492, 1.0924, 1.09107, 1.08467, 1.08276, 1.08291, 1.08183, 1.08014, 1.07948, 1.07907, 1.07941, 1.07865, 1.07728, 1.077, 1.08369, 1.08113, 1.08115, 1.07685, 1.07411, 1.0744, 1.07686, 1.06969, 1.06711, 1.05916, 1.06089, 1.05854, 1.0571, 1.05468, 1.04814, 1.04675, 1.04232, 1.03929, 1.03876, 1.03698, 1.03976, 1.03816, 1.04086, 1.03869, 1.0395, 1.03585, 1.03208, 1.02089, 1.01141, 1.11169, 1.05674, 1.03692, 1.06293, 1.11552, 1.11785, 1.25669, 1.23058, 1.37474, 1.37795, 1.4455, 1.40385, 1.45508, 1.48833, 1.54442, 1.51921, 1.38624, 1.38556, 1.37767, 1.39561, 1.50451, 1.47834, 1.35038, 1.32244, 1.27289, 1.26445, 1.27455, 1.39616, 1.39547, 1.26162, 1.25458, 1.25315, 1.27752, 1.33127, 1.40144, 1.39329, 1.31515, 1.26149, 1.16409, 1.12738, 1.1514, 1.15256, 1.10785, 1.09559, 1.04362, 1.11152, 0.998494, 1.09829, 1.09769, 1.09457, 1.10072, 1.02477, 1.02472, 1.03443, 1.02813, 0.986826, 1.06644, 1.06322, 1.00083, 0.996325, 0.996403, 0.998272, 1.16998, 1.17254, 0.975389, 0.973248, 0.971056, 0.968606, 0.969284, 0.96902, 0.968311, 0.967802, 0.967374, 0.968187, 0.966492, 0.965893, 0.964375, 1.00842, 0.949516, 0.952694, 1.20914, 0.963212, 0.963126, 0.962977, 0.960471, 0.958162, 0.958983, 0.961438, 0.962666, 0.962553, 0.961244, 0.96004, 0.95931
1.14623, 1.14408, 1.13954, 1.13452, 1.13222, 1.13058, 1.12686, 1.12546, 1.11874, 1.11525, 1.11535, 1.10631, 1.10533, 1.1002, 1.09747, 1.09135, 1.08887, 1.08695, 1.08541, 1.52085, 1.0827, 1.08047, 1.08026, 1.08393, 1.08545, 1.08577, 1.08574, 1.08798, 1.08084, 1.07834, 1.07718, 1.07908, 1.07384, 1.07369, 1.07696, 1.067, 1.0634, 1.06167, 1.05967, 1.05715, 1.05459, 1.05086, 1.04933, 1.04478, 1.03987, 1.0377, 1.03632, 1.03579, 1.03546, 1.03618, 1.03505, 1.03147, 1.03565, 1.03653, 1.04612, 1.02138, 1.0122, 1.01721, 1.08005, 1.07769, 1.18817, 1.15363, 1.16373, 1.30914, 1.31666, 1.38983, 1.4168, 1.39976, 1.38828, 1.45805, 1.55493, 1.55566, 1.53754, 1.4371, 1.44644, 1.40252, 1.42529, 1.55861, 1.56512, 1.37482, 1.38798, 1.32892, 1.30616, 1.3268, 1.41609, 1.46888, 1.34837, 1.34487, 1.31584, 1.32422, 1.47578, 1.41484, 1.40078, 1.32371, 1.20917, 1.17825, 1.16772, 1.23505, 1.216, 1.12538, 1.12576, 1.05837, 1.14728, 0.999598, 0.985082, 0.987922, 0.98767, 1.02638, 0.998351, 1.049, 0.966522, 1.50166, 0.989045, 0.995027, 1.16435, 1.08107, 0.994071, 0.995854, 1.16246, 1.1711, 1.13377, 0.970456, 0.969984, 0.96927, 0.967736, 0.964483, 0.965179, 0.965711, 0.965004, 0.967044, 0.964912, 0.960229, 0.959894, 0.963321, 0.949247, 0.947956, 1.51688, 0.961297, 0.965105, 0.966073, 0.960247, 0.958341, 0.958118, 0.960232, 0.961852, 0.96277, 0.962595, 0.961687, 0.960339, 0.955211
1.14743, 1.14177, 1.13895, 1.13274, 1.13277, 1.12871, 1.12782, 1.12338, 1.11994, 1.11644, 1.10865, 1.10755, 1.10183, 1.10078, 1.10478, 1.37171, 1.37566, 1.08796, 1.40084, 1.12581, 1.10325, 1.23469, 1.18209, 1.61971, 1.09119, 1.09419, 1.09067, 1.09089, 1.08062, 1.07892, 1.07525, 1.07587, 1.07224, 1.07109, 1.07346, 1.0667, 1.06306, 1.06046, 1.05629, 1.05518, 1.05287, 1.05063, 1.04914, 1.05609, 1.07014, 1.07962, 1.07943, 1.03777, 1.03788, 1.03196, 1.03124, 1.03233, 1.03309, 1.0363, 1.04245, 1.01831, 1.04743, 1.07914, 1.09465, 1.13399, 1.18142, 1.17872, 1.2978, 1.36455, 1.44732, 1.65748, 1.3994, 1.40075, 1.42958, 1.43194, 1.56226, 1.54559, 1.56739, 1.46691, 1.44619, 1.47274, 1.52161, 1.63805, 1.57663, 1.39286, 1.38224, 1.33686, 1.38275, 1.3964, 1.50641, 1.50511, 1.42228, 1.41572, 1.34898, 1.35665, 1.48957, 1.47899, 1.42061, 1.35727, 1.25261, 1.2359, 1.23872, 1.2196, 1.33285, 1.21536, 1.11913, 1.06435, 1.03697, 1.14899, 1.00464, 0.984749, 0.985862, 0.968091, 0.985748, 0.980443, 0.977955, 0.982752, 0.988435, 0.996531, 1.07528, 0.988844, 1.21334, 1.11398, 1.13348, 1.19596, 1.34507, 0.969401, 0.966487, 0.965394, 0.957886, 0.9606, 0.96225, 0.962291, 0.964161, 0.963497, 0.965094, 0.959381, 0.958206, 0.959411, 0.95235, 0.947337, 0.960888, 0.962603, 0.964186, 0.965445, 0.957964, 0.957454, 0.958264, 0.95779, 0.961053, 0.962903, 1.15373, 1.52757, 1.23466, 0.953148
1.14214, 1.14131, 1.1396, 1.13248, 1.13277, 1.12921, 1.12932, 1.11919, 1.11527, 1.11154, 1.112, 1.10231, 1.10192, 1.10426, 1.35785, 1.41008, 1.13144, 1.12918, 1.12914, 1.11309, 1.16031, 1.20357, 1.50364, 1.48086, 1.51627, 1.10076, 1.09064, 1.08354, 1.07909, 1.07823, 1.07451, 1.07656, 1.07288, 1.07212, 1.07374, 1.06371, 1.06029, 1.05616, 1.05576, 1.05314, 1.05059, 1.0498, 1.05607, 1.06487, 1.07395, 1.07772, 1.07414, 1.33517, 1.05936, 1.06509, 1.02775, 1.04691, 1.03527, 1.03343, 1.01512, 1.01697, 1.05012, 1.1355, 1.19043, 1.20224, 1.24487, 1.30467, 1.34725, 1.38875, 1.54738, 1.53892, 1.57941, 1.47489, 1.4271, 1.45825, 1.57816, 1.57662, 1.53463, 1.48736, 1.46324, 1.50172, 1.55407, 1.64954, 1.63443, 1.48555, 1.41013, 1.37277, 1.37495, 1.4498, 1.5242, 1.51602, 1.39905, 1.41289, 1.3639, 1.38667, 1.46874, 1.52769, 1.43165, 1.36457, 1.28795, 1.26903, 1.27096, 1.36665, 1.36511, 1.27364, 1.11995, 1.13892, 1.05123, 1.09413, 1.01233, 1.10694, 0.974282, 0.955278, 0.961375, 1.01003, 0.980095, 0.977328, 1.15313, 1.15611, 1.08171, 0.988715, 1.11374, 1.24359, 0.967876, 0.967491, 0.960234, 0.961556, 0.96348, 0.96024, 0.958514, 0.962564, 0.962716, 0.959814, 0.964004, 0.964832, 0.96634, 0.96412, 0.962609, 0.962358, 0.950034, 0.994444, 1.17757, 0.997562, 0.962769, 0.960396, 0.961066, 0.959405, 0.959974, 1.37849, 1.2194, 1.21724, 0.949354, 0.949151, 0.949586, 0.950048
1.14193, 1.14193, 1.1388, 1.13374, 1.13009, 1.12682, 1.12298, 1.11682, 1.11165, 1.11175, 1.10825, 1.10694, 1.10664, 1.09561, 1.12184, 1.12866, 1.13361, 1.1332, 1.13324, 1.12961, 1.11966, 1.24553, 1.13701, 1.13666, 1.27363, 1.08837, 1.08119, 1.08141, 1.08021, 1.07719, 1.07673, 1.07706, 1.07526, 1.07281, 1.07092, 1.0709, 1.05904, 1.05397, 1.05483, 1.05408, 1.05314, 1.05138, 1.04773, 1.05352, 1.06261, 1.06869, 1.06936, 1.38156, 1.05657, 1.0574, 1.0543, 1.22706, 1.03526, 1.03636, 1.01547, 1.02555, 1.0741, 1.13682, 1.19491, 1.21164, 1.32062, 1.33363, 1.44268, 1.45467, 1.66801, 1.54031, 1.54877, 1.45206, 1.45457, 1.47011, 1.57901, 1.59817, 1.54096, 1.50489, 1.49616, 1.49964, 1.54918, 1.66798, 1.81426, 1.48446, 1.44414, 1.40507, 1.42301, 1.49182, 1.58395, 1.58285, 1.4619, 1.41331, 1.39717, 1.43464, 1.48047, 1.52495, 1.49584, 1.38553, 1.298, 1.34535, 1.3669, 1.37896, 1.33873, 1.25881, 1.12668, 1.09864, 1.0791, 1.06499, 1.03109, 1.01872, 0.957051, 0.958325, 0.961488, 0.961396, 0.982146, 0.981946, 0.983638, 1.13281, 1.10716, 1.11035, 0.97129, 0.967546, 0.966659, 1.1993, 0.960101, 0.961413, 0.962735, 0.962858, 0.959228, 0.95993, 0.961729, 0.963328, 0.966113, 0.965633, 0.970018, 0.962207, 0.964512, 0.963388, 0.950471, 0.95262, 1.32217, 0.961477, 0.962816, 0.963042, 0.961575, 0.958752, 0.955964, 0.953108, 0.952023, 0.950452, 0.949992, 0.949731, 0.947998, 0.949431
1.14215, 1.14, 1.13626, 1.13173, 1.1292, 1.1243, 1.12129, 1.11712, 1.11383, 1.11231, 1.10677, 1.10909, 1.10688, 1.0977, 1.09596, 1.12912, 1.13584, 1.1313, 1.13326, 1.12916, 1.11805, 1.23916, 1.137, 1.13736, 1.11956, 1.08371, 1.08067, 1.08072, 1.07585, 1.07384, 1.07364, 1.07082, 1.07153, 1.06886, 1.06957, 1.0714, 1.17678, 1.0532, 1.05398, 1.04944, 1.04822, 1.04622, 1.0459, 1.04565, 1.04605, 1.03728, 1.03649, 1.03548, 1.04327, 1.03103, 1.0314, 1.02956, 1.03509, 1.03516, 1.06185, 1.09487, 1.12015, 1.16897, 1.21566, 1.35551, 1.41962, 1.41883, 1.43302, 1.70764, 1.67735, 1.6301, 1.53263, 1.50576, 1.49243, 1.53433, 1.73509, 1.65364, 1.54369, 1.5456, 1.50386, 1.53276, 1.62393, 1.9173, 1.8207, 1.67155, 1.47116, 1.44974, 1.44803, 1.53843, 1.62737, 1.63248, 1.50618, 1.46107, 1.42743, 1.54097, 1.61234, 1.58708, 1.50291, 1.39959, 1.33756, 1.32179, 1.41251, 1.41121, 1.37799, 1.21203, 1.14106, 1.10617, 1.1185, 1.13688, 1.09929, 1.14694, 0.985014, 0.959142, 0.960265, 0.958664, 1.28931, 0.978733, 1.09693, 1.09634, 0.966121, 0.967655, 0.963092, 0.960639, 0.958948, 0.957108, 1.24738, 1.12, 1.35928, 1.37422, 0.959627, 1.24026, 0.961373, 1.62498, 0.975883, 0.976724, 0.970636, 0.970798, 0.964483, 0.96315, 0.956805, 0.955564, 0.951594, 0.96082, 0.962209, 0.960345, 0.958297, 0.95368, 0.9531, 0.95266, 0.952251, 0.951842, 0.952173, 0.95264, 0.952201, 0.950878
1.14075, 1.13669, 1.13241, 1.13148, 1.12623, 1.12545, 1.12258, 1.11547, 1.43065, 1.65768, 1.10365, 1.10539, 1.10038, 1.09569, 1.09568, 1.11364, 1.25849, 1.28449, 1.14044, 1.31704, 1.11439, 1.2446, 1.13813, 1.13611, 1.36289, 1.08244, 1.0788, 1.07807, 1.07342, 1.072, 1.06923, 1.06917, 1.06827, 1.06878, 1.06974, 1.51889, 1.05041, 1.04936, 1.04906, 1.04487, 1.04547, 1.04509, 1.04508, 1.04576, 1.04289, 1.03912, 1.0375, 1.0419, 1.04, 1.02941, 1.03247, 1.02316, 1.02704, 1.02555, 1.02619, 1.08399, 1.11797, 1.19514, 1.24896, 1.41402, 1.39192, 1.42696, 1.45121, 1.47971, 1.60078, 1.6059, 1.54765, 1.53423, 1.55423, 1.56602, 1.73327, 1.73283, 1.60526, 1.5455, 1.52334, 1.53335, 1.64534, 1.84204, 1.77951, 1.63275, 1.50619, 1.50289, 1.48124, 1.54414, 1.59661, 1.67634, 1.55886, 1.48332, 1.4787, 1.47981, 1.6138, 1.58414, 1.46117, 1.39629, 1.38548, 1.39566, 1.40853, 1.46831, 1.37066, 1.24618, 1.19795, 1.20622, 1.1574, 1.13337, 1.13274, 1.01167, 1.01542, 0.964422, 0.964809, 0.958792, 0.981051, 1.00611, 0.973453, 0.968536, 0.963893, 0.964954, 0.962658, 0.962314, 1.26136, 1.31719, 1.19515, 0.982019, 1.11183, 1.11137, 1.37907, 0.988416, 1.23646, 1.1782, 1.18571, 0.970857, 0.969638, 0.964563, 0.962591, 0.963073, 0.958495, 0.957986, 0.957004, 0.958708, 0.963472, 0.963476, 0.954929, 0.954633, 0.952772, 0.952885, 0.953036, 0.953936, 0.953713, 0.953758, 0.950926, 0.952143
1.13613, 1.12937, 1.12856, 1.12905, 1.12873, 1.1279, 1.11336, 1.10198, 1.10087, 1.21985, 1.09696, 1.09896, 1.09542, 1.09004, 1.09348, 1.24683, 1.21018, 1.25155, 1.26015, 1.27032, 1.10852, 1.28843, 1.32071, 1.35525, 1.07865, 1.07698, 1.07418, 1.07125, 1.0705, 1.07025, 1.06781, 1.06796, 1.06686, 1.06729, 1.0585, 1.05898, 1.0502, 1.04625, 1.04388, 1.04233, 1.04292, 1.04524, 1.0457, 1.0457, 1.04549, 1.03967, 1.04125, 1.04129, 1.03191, 1.03187, 1.02958, 1.0186, 1.01911, 1.0402, 1.06375, 1.09552, 1.13934, 1.1719, 1.34631, 1.41214, 1.47263, 1.56021, 1.48222, 1.51291, 1.60647, 1.6266, 1.55264, 1.53754, 1.53763, 1.56547, 1.71663, 1.6799, 1.60364, 1.5495, 1.54526, 1.66591, 1.65964, 1.78634, 1.78151, 1.65118, 1.54758, 1.50514, 1.50073, 1.5367, 1.65839, 1.6726, 1.56794, 1.4985, 1.49446, 1.54307, 1.54832, 1.56541, 1.55299, 1.4372, 1.46665, 1.43742, 1.45851, 1.47359, 1.41968, 1.29528, 1.23235, 1.20625, 1.18241, 1.17942, 1.15683, 1.16927, 1.01992, 1.10165, 0.96719, 0.95245, 0.946494, 0.973197, 1.15823, 0.967101, 0.96245, 0.964526, 1.18037, 1.08438, 1.18078, 1.28511, 1.31893, 1.32964, 1.04144, 1.04681, 1.05311, 1.22505, 0.992367, 1.17418, 0.966249, 0.965612, 0.966809, 0.966973, 0.963129, 0.963214, 0.958366, 0.961372, 0.959854, 0.95804, 0.963087, 0.963265, 0.956484, 0.955597, 0.955365, 0.955349, 0.954907, 0.955912, 0.956028, 0.955082, 0.953135, 0.950094
1.13709, 1.12877, 1.13175, 1.13069, 1.13196, 1.13444, 1.13728, 1.09843, 1.09417, 1.08982, 1.09048, 1.0902, 1.08789, 1.08867, 1.0891, 1.09435, 1.21216, 1.09952, 1.10411, 1.10497, 1.10363, 1.28828, 1.08857, 1.07787, 1.07286, 1.07436, 1.07053, 1.06842, 1.06915, 1.0676, 1.06834, 1.06465, 1.06652, 1.06466, 1.06292, 1.05272, 1.05033, 1.04649, 1.04594, 1.04195, 1.05132, 1.05288, 1.04925, 1.0474, 1.04438, 1.04607, 1.04004, 1.0331, 1.03174, 1.03562, 1.07355, 1.06812, 1.05886, 1.05977, 1.06386, 1.18189, 1.21377, 1.36706, 1.38116, 1.49909, 1.56523, 1.55256, 1.49831, 1.5335, 1.62015, 1.66182, 1.64801, 1.52831, 1.56961, 1.58852, 1.67681, 1.67481, 1.65595, 1.5906, 1.5618, 1.65639, 1.58437, 1.78417, 1.75038, 1.6231, 1.54836, 1.53993, 1.54943, 1.64177, 1.73387, 1.78217, 1.57146, 1.56674, 1.56152, 1.5719, 1.55159, 1.58867, 1.52345, 1.53805, 1.44801, 1.51446, 1.47479, 1.4679, 1.35063, 1.32786, 1.29655, 1.27248, 1.22999, 1.23937, 1.16944, 1.11968, 1.03619, 1.02737, 1.09035, 0.948974, 0.944257, 0.942454, 1.03873, 1.06871, 1.06865, 1.32693, 0.970791, 1.18063, 0.983644, 1.17173, 1.02653, 1.02797, 1.01311, 1.0146, 1.2088, 1.05749, 1.23635, 1.23716, 0.966084, 0.966353, 0.966361, 0.965994, 0.965742, 0.963108, 0.957981, 0.959996, 0.961107, 0.958182, 0.96434, 0.963745, 0.959365, 0.955853, 0.955146, 0.956305, 0.956771, 0.95773, 0.956318, 0.954648, 0.953559, 0.949352
1.27621, 1.15224, 1.30575, 1.13796, 1.13941, 1.14042, 1.14171, 1.14347, 1.14209, 1.35279, 1.09116, 1.08991, 1.19508, 1.19667, 1.19753, 1.23463, 1.23952, 1.24743, 1.25735, 1.25309, 1.10161, 1.27748, 1.08755, 1.07606, 1.07175, 1.06991, 1.06849, 1.06655, 1.06649, 1.06737, 1.07154, 1.07107, 1.06597, 1.06535, 1.06605, 1.06569, 1.52118, 1.54398, 1.59743, 1.05168, 1.05285, 1.05283, 1.05445, 1.04834, 1.04575, 1.04537, 1.03683, 1.0368, 1.03564, 1.03635, 1.01497, 1.01306, 1.0253, 1.08101, 1.16614, 1.16636, 1.25496, 1.35348, 1.59829, 1.57415, 1.57485, 1.54019, 1.52588, 1.60585, 1.68594, 1.70208, 1.70292, 1.53338, 1.53723, 1.69347, 1.67086, 1.66916, 1.75665, 1.64407, 1.59234, 1.57854, 1.62335, 1.78668, 1.78433, 1.78066, 1.59663, 1.57478, 1.62089, 1.67849, 1.72398, 1.7822, 1.64673, 1.57251, 1.56027, 1.56631, 1.61418, 1.59521, 1.5419, 1.5404, 1.53317, 1.70648, 1.71433, 1.49495, 1.39277, 1.33082, 1.29647, 1.29993, 1.33306, 1.2791, 1.13664, 1.11181, 1.05676, 1.03964, 0.990509, 0.946833, 0.981799, 0.935478, 0.933125, 1.05399, 0.956241, 1.15034, 1.22569, 1.09967, 1.0775, 1.17373, 1.08144, 1.02195, 1.01362, 1.01469, 1.21972, 1.06213, 0.959227, 0.960752, 0.963079, 0.963237, 0.961696, 0.960262, 0.966051, 0.965059, 0.956406, 0.962344, 0.962802, 0.956441, 0.965421, 0.966318, 0.961035, 0.961449, 0.958101, 0.957348, 0.957016, 0.957039, 0.956172, 0.956101, 0.950582, 0.949291
1.15147, 1.15119, 1.14919, 1.13926, 1.1403, 1.1426, 1.14375, 1.14622, 1.14739, 1.14976, 1.21607, 1.23086, 1.22922, 1.6062, 1.22667, 1.23309, 1.20367, 1.23662, 1.22919, 1.23103, 1.25032, 1.25142, 1.29458, 1.29692, 1.06835, 1.06717, 1.06749, 1.06691, 1.06666, 1.06692, 1.07069, 1.07125, 1.06552, 1.06511, 1.06607, 1.06648, 1.35991, 1.09955, 1.10952, 1.0516, 1.05309, 1.05181, 1.05023, 1.04834, 1.04373, 1.046, 1.03639, 1.03489, 1.03515, 1.02766, 1.03276, 1.0149, 1.04405, 1.09421, 1.13732, 1.24418, 1.30329, 1.4443, 1.60142, 1.64264, 1.64148, 1.57539, 1.56439, 1.56393, 1.69097, 1.70255, 1.66445, 1.56529, 1.62095, 1.7568, 1.66451, 1.66467, 1.67291, 1.64534, 1.6252, 1.61739, 1.73969, 1.78814, 1.78732, 1.78158, 1.67854, 1.62006, 1.64383, 1.64887, 1.69972, 1.75563, 1.75517, 1.5767, 1.57304, 1.58177, 1.61338, 1.64687, 1.60407, 1.55403, 1.55424, 1.55465, 1.60872, 1.60221, 1.41372, 1.40028, 1.33022, 1.32622, 1.3315, 1.25337, 1.2281, 1.13755, 1.13743, 1.0461, 1.01277, 0.942781, 0.93441, 0.928863, 1.04658, 0.917911, 0.990835, 1.16191, 1.02691, 0.938972, 1.03868, 1.20561, 1.11538, 1.20457, 1.3481, 1.10529, 1.22356, 1.08546, 0.957078, 0.959686, 0.961344, 0.961063, 0.960895, 0.960203, 0.966661, 0.968215, 0.958946, 0.962291, 0.961694, 0.961175, 0.965333, 0.966328, 0.963762, 0.95876, 0.957701, 0.956151, 0.956327, 0.954734, 0.954141, 0.95478, 0.946692, 0.945517
1.2817, 1.15377, 1.14687, 1.13808, 1.13797, 1.14184, 1.1451, 1.1468, 1.14929, 1.14936, 1.16329, 1.15838, 1.1619, 1.16341, 1.16173, 1.18049, 1.19881, 1.2024, 1.20487, 1.20629, 1.24468, 1.25026, 1.29504, 1.0636, 1.06643, 1.06712, 1.06839, 1.06825, 1.06773, 1.06353, 1.06377, 1.06553, 1.06363, 1.05184, 1.05117, 1.07794, 1.21845, 1.04302, 1.04285, 1.04265, 1.04383, 1.04994, 1.04928, 1.04442, 1.04926, 1.04857, 1.03966, 1.03558, 1.02524, 1.02566, 1.02668, 1.00548, 1.04922, 1.08789, 1.17448, 1.23961, 1.44167, 1.56991, 1.59502, 1.66183, 1.65039, 1.59301, 1.602, 1.64339, 1.75424, 1.72299, 1.64828, 1.70288, 1.70156, 1.75872, 1.64714, 1.7698, 1.90977, 1.66959, 1.65826, 1.64439, 1.74084, 1.74002, 1.78701, 1.76343, 1.72817, 1.72735, 1.7124, 1.68864, 1.69909, 1.83791, 1.76595, 1.63248, 1.62396, 1.60537, 1.6504, 1.69656, 1.71574, 1.62742, 1.562, 1.64146, 1.61605, 1.57238, 1.4569, 1.41365, 1.40204, 1.37495, 1.40944, 1.36875, 1.23971, 1.20095, 1.13777, 1.10076, 1.10229, 1.01524, 0.933973, 0.921677, 0.921694, 0.916229, 0.930148, 0.930739, 0.950333, 0.939365, 0.937613, 0.938411, 1.34038, 1.3063, 1.05357, 1.22341, 0.943709, 0.945124, 1.05036, 0.959812, 0.959942, 0.960678, 0.959789, 0.960289, 0.964146, 0.967324, 0.960629, 0.960827, 0.959917, 0.959582, 0.963722, 0.966187, 0.961184, 0.95726, 0.957464, 0.957557, 0.957178, 0.956317, 0.949482, 0.948206, 0.946239, 0.945362
1.1746, 1.36557, 1.19398, 1.13385, 1.13194, 1.13352, 1.141, 1.14352, 1.14342, 1.14711, 1.15131, 1.1545, 1.16639, 1.16396, 1.16334, 1.16753, 1.06782, 1.07346, 1.19933, 1.08454, 1.08094, 1.05547, 1.05389, 1.25741, 1.06844, 1.06843, 1.06526, 1.0676, 1.06485, 1.06297, 1.06268, 1.0566, 1.05606, 1.05176, 1.04997, 1.04837, 1.04601, 1.04254, 1.04192, 1.04112, 1.42253, 1.05051, 1.04847, 1.05268, 1.05099, 1.04468, 1.03541, 1.03499, 1.04588, 1.04636, 1.03474, 1.06745, 1.11621, 1.15614, 1.25798, 1.33549, 1.43671, 1.54145, 1.6313, 1.63907, 1.65182, 1.61233, 1.6343, 1.65225, 1.71961, 1.75529, 1.73747, 1.65104, 1.62307, 1.6882, 1.68218, 1.75183, 1.86571, 1.82463, 1.68998, 1.67922, 1.75122, 1.72379, 1.79689, 1.79631, 1.75328, 1.82426, 1.72302, 1.74435, 1.72886, 1.73285, 1.7551, 1.70809, 1.63486, 1.6873, 1.73406, 1.77864, 1.71722, 1.68747, 1.58848, 1.61567, 1.61298, 1.57798, 1.47923, 1.44442, 1.44574, 1.46452, 1.4462, 1.4195, 1.33097, 1.23843, 1.19218, 1.13871, 1.03616, 1.0497, 1.09056, 0.929071, 0.923838, 0.917712, 0.929257, 1.08383, 0.951316, 0.947871, 0.946654, 0.936874, 0.934682, 0.943941, 0.945615, 0.940294, 0.943063, 1.58373, 0.952873, 0.955588, 0.957547, 0.959228, 0.961361, 0.959696, 0.961154, 0.961329, 0.961628, 0.960288, 0.958628, 0.959509, 0.96267, 1.20085, 1.33253, 0.955511, 0.956398, 0.95589, 0.957197, 0.957703, 0.94988, 0.949566, 0.946133, 0.944966
1.12916, 1.13077, 1.12996, 1.13178, 1.12882, 1.1398, 1.1425, 1.14108, 1.14131, 1.14479, 1.14906, 1.14961, 1.30474, 1.14385, 1.30245, 1.08206, 1.07002, 1.07071, 1.08028, 1.07226, 1.06811, 1.05609, 1.05679, 1.15639, 1.07649, 1.06276, 1.06506, 1.06579, 1.06652, 1.06041, 1.05791, 1.05673, 1.05615, 1.05613, 1.05383, 1.04928, 1.04471, 1.04292, 1.04002, 1.03989, 1.03778, 1.04703, 1.04757, 1.04749, 1.03574, 1.03546, 1.02563, 1.02638, 1.04849, 1.08105, 1.09856, 1.16006, 1.14009, 1.25038, 1.3186, 1.47503, 1.49993, 1.5134, 1.57185, 1.6549, 1.664, 1.64612, 1.64541, 1.69115, 1.71154, 1.7131, 1.738, 1.62742, 1.62767, 1.72516, 1.73101, 1.78505, 1.86632, 1.83451, 1.79686, 1.81442, 1.76194, 1.7679, 1.82646, 1.8317, 1.80806, 1.78, 1.75235, 1.72982, 1.78946, 1.7582, 1.83446, 1.70393, 1.78901, 1.72693, 1.72922, 1.76975, 1.71173, 1.69416, 1.71326, 1.58734, 1.6484, 1.5621, 1.49762, 1.48278, 1.48448, 1.48068, 1.47924, 1.48278, 1.33686, 1.3464, 1.23074, 1.17449, 1.17471, 1.03369, 0.967131, 0.925071, 0.932725, 0.915799, 0.915603, 0.91361, 0.950307, 0.946893, 0.948445, 0.946563, 0.947482, 0.946892, 0.943811, 0.942405, 1.66067, 0.946681, 0.951625, 0.954067, 0.959335, 0.95914, 0.961002, 0.958781, 0.962091, 0.964065, 0.962823, 0.954611, 0.952989, 0.95941, 0.96136, 0.956809, 0.955996, 0.952662, 0.955144, 0.956576, 0.955785, 0.955561, 0.949748, 0.948935, 0.945962, 0.945135
1.12753, 1.12628, 1.12676, 1.11952, 1.11825, 1.11362, 1.22082, 1.62381, 1.15015, 1.12369, 1.12874, 1.16209, 1.20926, 1.09593, 1.091, 1.08321, 1.07725, 1.07566, 1.0758, 1.07068, 1.07032, 1.07406, 1.2548, 1.06753, 1.07593, 1.06301, 1.06324, 1.06863, 1.06662, 1.05834, 1.05866, 1.05597, 1.05282, 1.054, 1.05469, 1.04642, 1.04454, 1.04055, 1.03916, 1.0404, 1.04193, 1.04212, 1.06325, 1.07011, 1.08009, 1.08086, 1.06331, 1.01441, 1.00812, 1.08173, 1.06455, 1.1546, 1.2222, 1.27566, 1.45455, 1.45345, 1.50339, 1.54885, 1.57653, 1.68159, 1.70629, 1.6465, 1.66747, 1.71345, 1.7124, 1.70782, 1.76112, 1.72173, 1.77522, 1.65876, 1.79257, 1.7475, 1.86396, 1.78422, 1.804, 1.82756, 1.7414, 1.77555, 1.79521, 1.90356, 1.82405, 1.81873, 1.76798, 1.78825, 1.79299, 1.80287, 1.82217, 1.72586, 1.71743, 1.73275, 1.71671, 1.78424, 1.79025, 1.66843, 1.67001, 1.58637, 1.61368, 1.57742, 1.56629, 1.52672, 1.51354, 1.56673, 1.57745, 1.48539, 1.39308, 1.40235, 1.3277, 1.18472, 1.15428, 1.01862, 0.983304, 0.976474, 0.933776, 1.03731, 0.912825, 0.912944, 0.949727, 0.949468, 0.947581, 0.946427, 0.947332, 0.94466, 0.942862, 0.93689, 0.947798, 0.947868, 0.951241, 0.953744, 0.957809, 0.959304, 1.07905, 1.43018, 0.962763, 0.963882, 0.959297, 0.954762, 0.951747, 0.961051, 0.962811, 0.962671, 0.955531, 0.954729, 0.956492, 0.953563, 0.952688, 0.946142, 0.94841, 0.945819, 0.943466, 0.943407
1.12727, 1.12558, 1.12566, 1.12617, 1.11714, 1.11293, 1.10791, 1.10314, 1.10219, 1.09822, 1.09493, 1.09065, 1.08768, 1.09105, 1.091, 1.08278, 1.07727, 1.07642, 1.07334, 1.0716, 1.07611, 1.07796, 1.0883, 1.07367, 1.06661, 1.06254, 1.06977, 1.07024, 1.06895, 1.05768, 1.05639, 1.05689, 1.05071, 1.04918, 1.04689, 1.04309, 1.04123, 1.03603, 1.03473, 1.03435, 1.067, 1.04738, 1.06743, 1.07337, 1.07783, 1.40545, 1.06455, 1.00755, 1.01117, 1.05721, 1.07411, 1.19436, 1.2954, 1.37151, 1.51951, 1.50261, 1.50882, 1.56588, 1.70702, 1.70627, 1.70729, 1.66617, 1.668, 1.68658, 1.70843, 1.7075, 1.78574, 1.80277, 1.77727, 1.68029, 1.79369, 1.79279, 1.82809, 1.82789, 1.8574, 1.82722, 1.84523, 1.7629, 1.82397, 1.82672, 1.82526, 1.81947, 1.78998, 1.76022, 1.76445, 1.82202, 1.82157, 1.81441, 1.793, 1.79893, 1.78657, 1.80484, 1.81017, 1.65712, 1.66965, 1.69937, 1.62788, 1.66732, 1.57149, 1.599, 1.53425, 1.5552, 1.59267, 1.58226, 1.42942, 1.39905, 1.31288, 1.23748, 1.16484, 1.0532, 1.02337, 0.936646, 0.935284, 0.915024, 0.912271, 0.91262, 0.954562, 1.18488, 0.949472, 0.942569, 0.943144, 0.943418, 0.943753, 1.26673, 0.947026, 0.949372, 0.954032, 1.23297, 1.01283, 1.62342, 0.982377, 1.02468, 0.964163, 0.963271, 0.956844, 0.95485, 0.952477, 0.960036, 0.962147, 0.962329, 0.957448, 0.959904, 0.95919, 0.95263, 0.951312, 0.948903, 0.947905, 0.944389, 0.943606, 0.941435
1.12928, 1.12615, 1.12526, 1.12699, 1.11131, 1.11098, 1.09996, 1.10365, 1.10133, 1.09545, 1.09076, 1.08727, 1.08667, 1.08715, 1.08392, 1.08392, 1.08153, 1.07761, 1.07475, 1.07442, 1.08411, 1.08495, 1.08655, 1.07556, 1.06599, 1.06306, 1.063, 1.07232, 1.0602, 1.05937, 1.05282, 1.05112, 1.04937, 1.04814, 1.04487, 1.04023, 1.03987, 1.03501, 1.03488, 1.03314, 1.0375, 1.04596, 1.02837, 1.02887, 1.03111, 1.02188, 1.02186, 0.994777, 1.04372, 1.05405, 1.10234, 1.21484, 1.36874, 1.44136, 1.48063, 1.49037, 1.54745, 1.581, 1.62972, 1.67496, 1.68025, 1.66855, 1.68943, 1.71015, 1.7853, 1.81184, 1.79277, 1.78923, 1.71968, 1.75139, 1.74158, 1.80976, 1.82901, 1.81397, 1.81405, 1.82729, 1.82886, 1.82787, 1.79216, 1.83107, 1.83611, 1.83869, 1.76172, 1.78656, 1.80382, 1.8139, 1.82155, 1.82538, 1.7935, 1.75057, 1.78123, 1.80678, 1.81044, 1.65798, 1.65919, 1.64134, 1.6842, 1.68553, 1.59569, 1.5849, 1.5739, 1.58222, 1.6369, 1.58567, 1.44508, 1.39947, 1.34327, 1.26635, 1.19473, 1.08429, 1.04319, 1.09357, 0.924828, 0.92042, 0.921461, 0.915574, 0.987194, 1.32765, 0.96974, 0.942144, 0.942315, 0.943714, 0.980922, 1.26327, 0.982137, 0.971545, 1.22979, 1.35999, 1.01293, 1.13232, 0.98108, 0.988644, 0.954646, 0.954499, 0.954808, 0.954834, 0.959591, 0.960817, 0.961435, 0.960748, 0.961808, 0.960215, 0.958539, 0.953068, 0.949598, 0.945902, 0.946131, 1.11941, 1.12758, 0.932555
1.12739, 1.12796, 1.12668, 1.12787, 1.11147, 1.11146, 1.09327, 1.09981, 1.09756, 1.09545, 1.09159, 1.0868, 1.08716, 1.0839, 1.08066, 1.07773, 1.07724, 1.07989, 1.08009, 1.08008, 1.08503, 1.08597, 1.0855, 1.07547, 1.05725, 1.05605, 1.05854, 1.06679, 1.08085, 1.06398, 1.05103, 1.0502, 1.04821, 1.04723, 1.05081, 1.04092, 1.03633, 1.03453, 1.03422, 1.03322, 1.0336, 1.04023, 1.0261, 1.01842, 1.03107, 1.04582, 1.05942, 1.05701, 1.03069, 1.06599, 1.15641, 1.25406, 1.39822, 1.45109, 1.53284, 1.53365, 1.54501, 1.60715, 1.65462, 1.676, 1.70045, 1.67803, 1.68384, 1.78506, 1.78621, 1.70956, 1.82608, 1.82115, 1.79583, 1.73615, 1.75161, 1.80266, 1.89559, 1.91035, 1.9074, 1.98043, 1.8279, 1.76862, 1.81308, 1.86885, 1.93488, 1.7972, 1.76524, 1.78771, 1.79694, 1.86881, 1.8765, 1.89654, 1.76099, 1.75115, 1.77293, 1.79651, 1.79785, 1.74071, 1.68942, 1.83473, 1.83548, 1.73698, 1.70682, 1.62742, 1.62113, 1.60698, 1.63147, 1.51772, 1.44703, 1.42689, 1.34673, 1.31387, 1.17212, 1.08952, 1.06699, 1.00854, 0.95733, 0.922342, 0.921988, 0.911088, 0.912073, 1.38822, 1.33608, 0.964357, 0.965428, 0.970042, 0.972003, 0.974262, 0.97535, 0.97169, 0.969729, 0.968784, 1.41629, 1.40823, 0.9917, 0.958532, 0.956703, 0.958455, 0.959232, 1.30478, 0.961587, 0.960842, 0.959211, 0.959682, 0.962325, 0.956818, 1.06829, 0.946267, 0.942561, 0.942438, 1.19171, 0.934213, 0.935427, 0.932984
1.11875, 1.11929, 1.11228, 1.11236, 1.11188, 1.11129, 1.10283, 1.10006, 1.09749, 1.09565, 1.09198, 1.09055, 1.08381, 1.08391, 1.08131, 1.07813, 1.07762, 1.08063, 1.07723, 1.07394, 1.06637, 1.30841, 1.3532, 1.06581, 1.0563, 1.0532, 1.05518, 1.05421, 1.05414, 1.06932, 1.04888, 1.04926, 1.04974, 1.04988, 1.05303, 1.05951, 1.06818, 1.03344, 1.03353, 1.03535, 1.03785, 1.03588, 1.03225, 1.02523, 1.02725, 1.04394, 1.00122, 1.00315, 1.05269, 1.06422, 1.13522, 1.28296, 1.42586, 1.54093, 1.51747, 1.53005, 1.52434, 1.60522, 1.65048, 1.72816, 1.78488, 1.69151, 1.70658, 1.77835, 1.74184, 1.73559, 1.82755, 1.84026, 1.8814, 1.79986, 1.886, 1.89424, 1.88221, 1.82575, 1.83084, 1.87639, 1.88541, 1.80552, 1.7918, 1.81649, 1.8169, 1.80357, 1.77991, 1.81858, 1.81775, 1.89118, 1.88999, 1.85645, 1.89724, 1.80953, 1.80933, 1.88389, 1.80144, 1.8299, 1.73464, 1.83679, 1.83559, 1.75769, 1.71024, 1.64882, 1.65731, 1.63228, 1.64599, 1.52174, 1.44103, 1.42691, 1.3654, 1.34058, 1.19145, 1.15239, 1.10968, 1.04963, 0.988724, 0.9253, 0.921408, 0.909666, 1.003, 1.44667, 1.38803, 0.963305, 0.966905, 0.969367, 0.972025, 0.972676, 0.974746, 0.964944, 0.965877, 0.968212, 0.966271, 0.96445, 0.962726, 0.961357, 0.960925, 0.959355, 0.963362, 0.962614, 0.962761, 1.08335, 0.964312, 0.965409, 0.956923, 0.956657, 0.938423, 0.939457, 0.939612, 0.933294, 0.933528, 0.933623, 0.93571, 1.27993
1.1186, 1.11821, 1.10907, 1.10941, 1.10827, 1.10443, 1.10264, 1.09844, 1.09786, 1.09472, 1.09199, 1.09241, 1.09259, 1.08656, 1.08478, 1.08205, 1.07889, 1.07797, 1.07397, 1.07348, 1.06382, 1.06264, 1.06371, 1.06644, 1.06431, 1.05737, 1.05721, 1.05612, 1.05565, 1.13651, 1.09117, 1.09146, 1.06688, 1.06651, 1.09002, 1.09124, 1.08017, 1.0736, 1.03343, 1.03591, 1.0324, 1.03534, 1.0356, 1.02984, 1.03318, 0.995987, 1.02566, 1.00925, 1.03778, 1.04956, 1.16195, 1.39401, 1.44746, 1.51282, 1.49936, 1.53427, 1.624, 1.63419, 1.69523, 1.67265, 1.83256, 1.8363, 1.71084, 1.69769, 1.75279, 1.83805, 1.84588, 1.84767, 1.90002, 1.90009, 1.95937, 1.81382, 1.90412, 1.84054, 1.84024, 1.8413, 1.88795, 1.88686, 1.79227, 1.81875, 1.81648, 1.81583, 1.81646, 1.82011, 1.81885, 1.92799, 2.02417, 1.91772, 1.88784, 1.82735, 1.80964, 1.77368, 1.77883, 1.76533, 1.76218, 1.75449, 1.76655, 1.81731, 1.64485, 1.64378, 1.66589, 1.69363, 1.65468, 1.52696, 1.47346, 1.43953, 1.39915, 1.33203, 1.29586, 1.19582, 1.14639, 1.11028, 1.04775, 0.926924, 0.927936, 0.910582, 0.912425, 1.03305, 1.02188, 0.964079, 0.966798, 0.970461, 0.970159, 0.968744, 0.965369, 0.964131, 0.965657, 0.963446, 0.964236, 0.961101, 0.961921, 0.963763, 0.963534, 0.960007, 0.963602, 0.963528, 0.966336, 0.966732, 0.965233, 0.966211, 0.965629, 1.08133, 0.936763, 0.939116, 0.936528, 0.932407, 0.933583, 1.27206, 1.27438, 1.10125
1.13182, 1.13276, 1.12912, 1.10514, 1.10469, 1.10465, 1.10234, 1.10013, 1.09758, 1.09473, 1.09459, 1.09428, 1.08736, 1.08483, 1.08421, 1.08328, 1.07939, 1.07596, 1.07335, 1.0729, 1.07353, 1.06142, 1.06168, 1.06213, 1.06475, 1.05955, 1.05588, 1.05625, 1.05148, 1.05308, 1.50428, 1.07161, 1.07146, 1.03986, 1.04018, 1.13552, 1.06742, 1.07323, 1.07277, 1.14873, 1.07663, 1.04125, 1.03935, 1.03601, 1.03092, 1.00479, 1.00517, 1.04258, 1.06218, 1.10112, 1.15704, 1.3947, 1.45453, 1.47581, 1.51352, 1.62324, 1.62244, 1.6036, 1.6961, 1.67193, 1.81354, 1.83759, 1.74102, 1.74368, 1.7341, 1.84144, 1.84878, 1.84783, 1.90223, 1.90162, 1.87678, 1.87559, 1.91427, 1.90097, 1.84095, 1.84212, 1.88765, 1.88707, 1.83458, 1.8132, 1.87378, 1.86974, 1.81691, 1.81657, 1.81793, 1.92385, 1.92077, 1.8833, 1.88368, 1.82854, 1.85492, 1.78745, 1.78708, 1.77737, 1.75906, 1.76211, 1.7543, 1.80069, 1.6758, 1.65763, 1.65841, 1.72239, 1.6328, 1.53866, 1.52841, 1.47824, 1.4343, 1.3649, 1.29936, 1.2377, 1.2155, 1.14785, 1.04318, 0.978562, 0.929728, 0.911765, 0.912594, 1.19153, 1.40823, 0.963116, 0.968257, 0.969321, 0.968293, 0.965835, 0.965166, 0.965262, 0.965361, 0.967471, 0.967756, 0.968435, 0.966049, 0.963907, 0.963576, 0.961618, 0.964729, 0.965979, 0.967089, 1.05316, 1.09894, 0.972477, 1.28529, 1.28594, 1.02619, 1.09831, 1.0441, 1.06629, 1.05718, 1.27034, 1.27424, 0.984736
1.13109, 1.12995, 1.12959, 1.13211, 1.14707, 1.10253, 1.10084, 1.09984, 1.10324, 1.10498, 1.10055, 1.09173, 1.08803, 1.08654, 1.09045, 1.08403, 1.08493, 1.07604, 1.07419, 1.07402, 1.07428, 1.05965, 1.06123, 1.05229, 1.053, 1.04936, 1.05006, 1.04863, 1.05305, 1.04324, 1.04258, 1.04574, 1.04627, 1.0401, 1.03815, 1.03533, 1.03365, 1.06786, 1.07239, 1.07309, 1.06408, 1.04918, 1.01294, 1.01694, 1.03926, 1.04013, 1.02567, 1.04223, 1.06711, 1.11987, 1.28577, 1.41563, 1.49714, 1.49258, 1.56138, 1.56843, 1.62531, 1.64758, 1.64772, 1.71754, 1.81951, 1.84004, 1.86512, 1.74085, 1.73802, 1.78353, 1.82092, 1.84744, 1.89995, 1.89927, 1.92901, 1.92911, 1.86647, 1.89315, 1.83459, 1.87887, 1.89184, 1.8938, 1.88775, 1.88895, 1.87538, 1.87181, 1.93703, 1.8188, 1.81784, 1.94131, 1.87697, 1.93613, 1.85202, 1.90838, 1.8696, 1.78885, 1.78712, 1.84628, 1.78017, 1.77616, 1.75523, 1.75807, 1.74453, 1.64875, 1.71382, 1.72717, 1.66407, 1.63733, 1.49386, 1.49654, 1.52397, 1.55399, 1.39603, 1.31023, 1.274, 1.16334, 1.02708, 0.998504, 0.950999, 1.09764, 0.914206, 0.921523, 0.994755, 1.03306, 0.967765, 0.969757, 0.966958, 0.970769, 0.967518, 0.969209, 0.966399, 0.966243, 0.965049, 0.966135, 0.966215, 0.964696, 1.2575, 1.21616, 0.966332, 0.966167, 1.26583, 0.985852, 0.977106, 0.978602, 1.28168, 1.10492, 1.01096, 1.00866, 1.00949, 1.03792, 1.00063, 1.00123, 1.00237, 0.994984
1.13239, 1.1333, 1.13257, 1.13223, 1.13183, 1.23068, 1.10607, 1.10831, 1.10551, 1.10453, 1.1045, 1.09478, 1.08996, 1.09474, 1.09393, 1.0883, 1.07364, 1.07086, 1.07544, 1.06463, 1.0596, 1.05838, 1.05573, 1.05059, 1.04648, 1.04673, 1.04884, 1.04894, 1.04828, 1.04922, 1.04199, 1.04588, 1.04559, 1.03239, 1.03357, 1.03441, 1.03287, 1.08596, 1.063, 1.06337, 1.00983, 1.00915, 1.0111, 1.05082, 1.01091, 1.02232, 1.00242, 1.05067, 1.12746, 1.17159, 1.29229, 1.41687, 1.46577, 1.49708, 1.54457, 1.57898, 1.62526, 1.62321, 1.69503, 1.72842, 1.84505, 1.93785, 1.77889, 1.79954, 1.7756, 1.84165, 1.79794, 1.87559, 1.89729, 1.89994, 1.91372, 1.88055, 1.87285, 1.89384, 1.86982, 1.88292, 1.89745, 1.89587, 1.89587, 1.87637, 1.87656, 1.87382, 1.85769, 1.86165, 1.83357, 1.82735, 1.87175, 1.93184, 1.8447, 1.84243, 1.88721, 1.90268, 1.84047, 1.84065, 1.77922, 1.77825, 1.81184, 1.80517, 1.74025, 1.69376, 1.75346, 1.75195, 1.62153, 1.62073, 1.55726, 1.55135, 1.49637, 1.46389, 1.42955, 1.28318, 1.28377, 1.2213, 1.03559, 1.02339, 0.981939, 0.914607, 0.911446, 0.911708, 0.994586, 1.14008, 1.22107, 1.22209, 0.973338, 0.972042, 0.970016, 0.969347, 0.965181, 0.965708, 0.965601, 0.965691, 0.966267, 0.967595, 0.970588, 1.25824, 1.15915, 1.31685, 1.06381, 0.984856, 0.979273, 1.23069, 1.32189, 1.01525, 1.01586, 1.00759, 1.00983, 1.01048, 1.00002, 1.00152, 1.00256, 0.993987
1.13097, 1.13145, 1.13226, 1.13225, 1.12973, 1.23073, 1.09936, 1.10244, 1.09628, 1.09231, 1.09071, 1.0908, 1.09215, 1.09236, 1.07142, 1.07128, 1.07133, 1.07032, 1.06675, 1.06364, 1.06084, 1.05668, 1.05335, 1.04999, 1.04648, 1.04648, 1.04675, 1.04886, 1.04937, 1.05309, 1.04614, 1.04545, 1.04297, 1.02913, 1.03136, 1.03529, 1.03365, 1.03613, 1.08094, 1.01453, 1.01191, 0.991533, 0.980742, 0.980137, 1.02555, 1.00636, 1.04931, 1.03385, 1.14286, 1.19756, 1.30081, 1.42008, 1.44741, 1.50447, 1.57627, 1.59258, 1.6249, 1.64688, 1.72558, 1.7246, 1.82833, 1.82366, 1.84568, 1.84459, 1.83097, 1.77696, 1.80308, 1.85867, 1.94293, 1.95458, 1.9839, 1.91361, 1.90771, 1.95186, 1.88042, 1.8968, 1.89966, 1.89813, 1.89535, 1.88971, 1.87517, 2.04194, 1.88047, 1.88325, 1.90314, 1.90119, 1.93081, 1.93452, 1.8566, 1.85474, 1.8597, 1.87691, 1.87588, 1.95533, 1.83497, 1.77936, 1.81375, 1.82044, 1.71135, 1.74939, 1.74924, 1.75419, 1.62265, 1.67997, 1.60969, 1.58828, 1.56043, 1.4832, 1.52648, 1.34656, 1.28825, 1.15745, 1.0977, 1.01337, 0.980336, 0.910485, 0.911376, 0.911664, 0.926991, 0.946524, 0.947819, 0.963656, 1.06542, 0.968666, 0.966871, 0.967458, 0.967212, 0.964987, 1.04452, 1.03391, 1.06337, 1.10046, 1.20302, 0.990879, 0.992417, 0.994353, 0.994536, 0.971578, 1.31131, 1.35368, 1.18068, 1.014, 1.00877, 1.00568, 1.00706, 1.00785, 0.998909, 1.00049, 0.990949, 1.14093
1.1282, 1.19798, 1.12464, 1.12553, 1.12604, 1.0994, 1.10052, 1.09807, 1.09366, 1.09247, 1.09099, 1.0941, 1.0929, 1.09097, 1.07359, 1.07139, 1.07001, 1.06922, 1.06416, 1.06313, 1.05993, 1.05532, 1.05403, 1.04926, 1.04935, 1.04936, 1.049, 1.04917, 1.04905, 1.04958, 1.05259, 1.04155, 1.03894, 1.03931, 1.03849, 1.03593, 1.03382, 1.0354, 1.02761, 1.01337, 1.0108, 1.0154, 0.978787, 1.06379, 0.968536, 1.05377, 1.0593, 1.08925, 1.14692, 1.31677, 1.31557, 1.39567, 1.46959, 1.50436, 1.54049, 1.5988, 1.6337, 1.64798, 1.65933, 1.72028, 1.82955, 1.82814, 1.85517, 1.77716, 1.81426, 1.77596, 1.778, 1.80338, 1.90689, 1.93274, 1.94099, 1.9624, 1.87651, 1.87614, 1.89862, 1.94186, 1.92111, 1.89837, 1.92257, 1.90455, 2.03587, 1.88675, 1.87271, 1.88548, 2.04482, 1.90225, 1.93235, 1.93024, 1.93178, 1.92364, 1.86414, 1.88141, 1.87813, 1.95578, 1.80611, 1.76493, 1.81324, 1.74442, 1.78695, 1.71369, 1.71323, 1.7382, 1.72431, 1.72391, 1.61704, 1.64446, 1.54031, 1.50557, 1.42995, 1.33684, 1.27822, 1.15919, 1.12665, 1.01879, 0.972726, 0.954748, 0.91183, 0.91882, 0.924919, 0.948687, 0.962734, 0.962906, 1.12209, 1.09584, 0.967797, 1.139, 1.14128, 1.09837, 1.08158, 1.30284, 1.09786, 1.20253, 0.995438, 0.993998, 0.992569, 0.993948, 1.05821, 0.966909, 1.03795, 1.49752, 1.49835, 1.06947, 1.00495, 1.00214, 1.02906, 1.02291, 0.994488, 0.996361, 0.990579, 1.05932
1.12388, 1.12183, 1.12006, 1.19538, 1.20917, 1.10045, 1.09424, 1.09227, 1.09203, 1.08794, 1.08163, 1.08321, 1.08095, 1.08048, 1.07118, 1.07023, 1.06843, 1.06654, 1.0655, 1.06162, 1.05534, 1.05382, 1.05255, 1.04717, 1.04909, 1.04904, 1.04919, 1.04909, 1.04769, 1.04741, 1.04972, 1.05007, 1.0375, 1.03668, 1.03555, 1.03672, 1.03293, 1.08132, 1.01649, 1.00961, 1.00458, 0.991128, 1.03279, 0.980548, 1.0633, 1.03925, 1.06445, 1.09586, 1.15617, 1.32441, 1.38559, 1.40861, 1.48503, 1.53534, 1.5611, 1.64842, 1.65138, 1.65531, 1.66238, 1.71058, 1.82646, 1.82627, 1.84448, 1.83065, 1.8517, 1.83481, 1.77782, 1.81365, 1.95914, 1.9339, 1.9334, 1.96272, 1.95126, 1.92399, 1.97664, 1.93451, 1.97634, 1.96305, 1.94424, 1.92581, 2.02596, 2.01846, 1.8851, 1.88568, 1.88533, 1.86679, 1.98932, 1.93152, 1.93094, 1.92028, 1.93702, 1.88215, 1.90495, 1.84934, 1.849, 1.76583, 1.88879, 1.75114, 1.71407, 1.70699, 1.71343, 1.71366, 1.72351, 1.66765, 1.70515, 1.63229, 1.49605, 1.50528, 1.45035, 1.35021, 1.30827, 1.14774, 1.08043, 1.07499, 1.00056, 0.956136, 1.15953, 0.918938, 1.08466, 1.14374, 1.11282, 1.19562, 1.24111, 1.05688, 1.28042, 1.14239, 1.22804, 1.27438, 1.2882, 0.990586, 0.990642, 0.994052, 0.995684, 1.0529, 1.01136, 1.06294, 1.05386, 0.965985, 0.963291, 1.05364, 1.07797, 1.07402, 1.00247, 0.997495, 0.998145, 1.02875, 1.03661, 1.03996, 0.988971, 1.04587
1.11994, 1.12053, 1.12034, 1.10441, 1.10244, 1.09867, 1.0951, 1.09089, 1.08853, 1.08471, 1.08348, 1.08153, 1.07539, 1.07356, 1.07422, 1.06712, 1.065, 1.06541, 1.0632, 1.05874, 1.0547, 1.05271, 1.04677, 1.04668, 1.04822, 1.04796, 1.04742, 1.04753, 1.04617, 1.04571, 1.0461, 1.04671, 1.04911, 1.03548, 1.03511, 1.03551, 1.03126, 1.02265, 1.01502, 1.01022, 1.09228, 1.05592, 1.02956, 0.997158, 1.06815, 1.00673, 1.06783, 1.11235, 1.1954, 1.30329, 1.39557, 1.41593, 1.50366, 1.55064, 1.65789, 1.66082, 1.65959, 1.67585, 1.68284, 1.72706, 1.73844, 1.84499, 1.84464, 1.84174, 1.87609, 1.80974, 1.77876, 1.81191, 1.96248, 1.93431, 1.93448, 1.96368, 1.95764, 2.00742, 1.97677, 1.98164, 1.97034, 1.96262, 1.94262, 1.95947, 2.02101, 1.99469, 1.88319, 1.88287, 1.92374, 1.8678, 1.86889, 1.97367, 1.92689, 1.92187, 1.89671, 1.91856, 1.92043, 1.87115, 1.86974, 1.79262, 1.76838, 1.84758, 1.78731, 1.77842, 1.69284, 1.67717, 1.67882, 1.6665, 1.70188, 1.63735, 1.49734, 1.46888, 1.43571, 1.42643, 1.37585, 1.26487, 1.1503, 1.08827, 1.0076, 1.04676, 0.932763, 0.933517, 0.934145, 1.381, 1.06244, 1.43228, 1.14786, 1.0021, 1.00289, 0.994971, 0.996341, 0.99748, 0.997478, 0.989323, 0.990739, 0.992754, 1.06213, 1.12025, 0.971848, 0.972716, 1.07004, 1.06708, 1.21941, 1.15062, 1.16749, 1.25625, 1.26335, 0.985325, 0.991081, 1.18124, 0.973258, 1.31315, 0.986102, 1.07069
1.11923, 1.11646, 1.10911, 1.1045, 1.10245, 1.09862, 1.09454, 1.09037, 1.08676, 1.08443, 1.07834, 1.07526, 1.07419, 1.07258, 1.07343, 1.06672, 1.06597, 1.06325, 1.06018, 1.05698, 1.05589, 1.0511, 1.04705, 1.04583, 1.04626, 1.04856, 1.0474, 1.04677, 1.04598, 1.04571, 1.04511, 1.04753, 1.04794, 1.04947, 1.03309, 1.03001, 1.03247, 1.03319, 1.01608, 1.00217, 1.00144, 0.970419, 0.973216, 0.956418, 1.00525, 1.03303, 1.11584, 1.11596, 1.22028, 1.37794, 1.48624, 1.51633, 1.54693, 1.6208, 1.64677, 1.66611, 1.67841, 1.68905, 1.70074, 1.72367, 1.7206, 1.87627, 1.84076, 1.84484, 1.89459, 1.8472, 1.85103, 1.85997, 2.02209, 1.93497, 1.93527, 1.92869, 1.9321, 1.93254, 2.07932, 1.97377, 1.97351, 1.9483, 1.95137, 1.96625, 1.99938, 2.02697, 1.88332, 1.8829, 1.92033, 1.8761, 1.94153, 1.94117, 1.90303, 1.94278, 1.94941, 1.93129, 1.86657, 1.87195, 1.87223, 1.78312, 1.78219, 1.8483, 1.75167, 1.75166, 1.69286, 1.6788, 1.67876, 1.72979, 1.59848, 1.59195, 1.59914, 1.48625, 1.45197, 1.43954, 1.33018, 1.2503, 1.17362, 1.03439, 0.99904, 0.969817, 1.04978, 0.93486, 0.931052, 1.06209, 0.97451, 1.16048, 1.24988, 1.00169, 1.003, 0.995766, 0.994891, 0.997979, 1.05578, 1.05604, 1.36746, 1.05027, 0.970175, 0.967714, 0.973227, 0.968611, 1.24516, 1.16111, 1.16411, 1.16349, 1.16872, 1.25657, 1.25794, 1.27218, 1.27451, 0.983447, 0.970838, 0.969417, 1.02234, 1.09904
1.11196, 1.11294, 1.10846, 1.10438, 1.09791, 1.0981, 1.09253, 1.08963, 1.08554, 1.08247, 1.07747, 1.07475, 1.07158, 1.07069, 1.06767, 1.06696, 1.06325, 1.06295, 1.05986, 1.05577, 1.05544, 1.05491, 1.05091, 1.05032, 1.04644, 1.04781, 1.04875, 1.04598, 1.04517, 1.04607, 1.04672, 1.04168, 1.04689, 1.04548, 1.04325, 1.04373, 1.12571, 1.01608, 1.02338, 0.999858, 1.00119, 0.970884, 0.93846, 0.94548, 0.974377, 1.0155, 1.09118, 1.12173, 1.23036, 1.37513, 1.48528, 1.52983, 1.63085, 1.64898, 1.64937, 1.64674, 1.67077, 1.76344, 1.73053, 1.72066, 1.81253, 1.83756, 1.8771, 1.84504, 1.89426, 1.89656, 1.86979, 1.87252, 1.99176, 1.93884, 1.93801, 1.93706, 1.9409, 1.93266, 2.08033, 1.97038, 1.9754, 1.9627, 2.01508, 2.05934, 1.9695, 2.02061, 1.92521, 1.95933, 1.86965, 1.94135, 1.94176, 1.94139, 1.90388, 1.94422, 1.9299, 1.94162, 1.86338, 1.8251, 1.82534, 1.78345, 1.78266, 1.85196, 1.74849, 1.75223, 1.74989, 1.67843, 1.67689, 1.71564, 1.62494, 1.59213, 1.54284, 1.50925, 1.50653, 1.45683, 1.3717, 1.2981, 1.19568, 1.06264, 1.09802, 1.01863, 1.07074, 1.08003, 1.10242, 0.957438, 0.979836, 1.04465, 1.34288, 0.997331, 0.996629, 1.04927, 1.04679, 1.04754, 0.975927, 0.975702, 1.47223, 1.05156, 0.970596, 0.973013, 0.9732, 0.970215, 0.96176, 0.962783, 0.947258, 0.946048, 0.966143, 0.968169, 1.32129, 1.26473, 0.976944, 0.97295, 1.2779, 0.969391, 1.0027, 1.00437
1.10873, 1.10508, 1.10637, 1.10072, 1.09789, 1.0954, 1.09085, 1.08604, 1.08454, 1.08353, 1.07586, 1.07479, 1.07117, 1.06887, 1.06773, 1.06434, 1.06201, 1.05839, 1.05783, 1.05326, 1.05334, 1.05415, 1.04578, 1.04443, 1.04347, 1.04247, 1.04269, 1.03796, 1.03351, 1.0329, 1.03249, 1.02974, 1.02902, 1.04602, 1.04611, 1.04219, 1.01982, 1.01218, 1.00102, 0.993881, 1.07804, 0.981764, 0.9305, 0.931658, 0.971145, 1.02608, 1.09814, 1.18345, 1.31801, 1.40947, 1.44716, 1.51755, 1.6288, 1.62678, 1.64172, 1.64577, 1.75271, 1.76912, 1.73038, 1.72877, 1.76541, 1.78218, 1.80758, 1.83878, 1.94422, 1.89162, 1.9218, 1.92331, 1.95443, 1.93888, 1.93737, 1.93768, 1.93442, 2.00315, 1.97188, 1.97088, 1.96344, 1.96139, 1.96061, 1.96221, 1.96413, 1.99939, 1.98743, 1.92061, 2.00405, 1.94077, 1.94032, 1.9392, 1.96238, 1.94552, 1.9296, 1.97935, 1.90672, 1.82641, 1.82533, 1.867, 1.82005, 1.799, 1.86524, 1.76721, 1.74948, 1.70193, 1.66401, 1.71245, 1.68144, 1.69254, 1.58628, 1.48725, 1.48585, 1.44902, 1.44856, 1.35886, 1.18539, 1.15748, 1.04279, 0.981794, 1.03021, 0.94319, 1.07442, 1.07454, 0.888312, 0.918235, 1.34641, 1.04314, 1.0602, 0.956818, 1.05034, 1.0497, 0.973175, 0.972894, 0.96687, 0.968399, 0.970434, 0.969748, 0.967034, 1.15337, 1.23879, 0.95383, 0.945209, 0.947734, 0.949454, 1.2447, 1.01036, 1.26101, 0.960303, 1.27465, 0.966689, 0.951292, 0.950873, 0.948752
1.10796, 1.10476, 1.10421, 1.10329, 1.09751, 1.09585, 1.09292, 1.08696, 1.08503, 1.07865, 1.0744, 1.07195, 1.06822, 1.06682, 1.06536, 1.06377, 1.05956, 1.05901, 1.05684, 1.05239, 1.05208, 1.04899, 1.04385, 1.04347, 1.04095, 1.04001, 1.03789, 1.03844, 1.03292, 1.03203, 1.03085, 1.0281, 1.02566, 1.02402, 1.01914, 1.01836, 1.02014, 1.01393, 1.0063, 0.995625, 0.984407, 0.974533, 0.938372, 0.959812, 0.981348, 1.14054, 1.10532, 1.24266, 1.32349, 1.39758, 1.43856, 1.54342, 1.61133, 1.61541, 1.64129, 1.65775, 1.75512, 1.76439, 1.7317, 1.72977, 1.7609, 1.88191, 1.88065, 1.84699, 1.87934, 1.9151, 1.92445, 1.94674, 1.95441, 1.95623, 1.93787, 1.93618, 1.93693, 1.9491, 1.97631, 1.97504, 1.96896, 1.94855, 1.94719, 2.09272, 2.0905, 2.05531, 1.9622, 1.94139, 1.93581, 1.94213, 1.94072, 1.92875, 2.03375, 1.94546, 1.94441, 1.91357, 1.91449, 1.84578, 1.84768, 1.84875, 1.79986, 1.79392, 1.83172, 1.76722, 1.72439, 1.69958, 1.68884, 1.74802, 1.68891, 1.62386, 1.59859, 1.52558, 1.54955, 1.46909, 1.4501, 1.37204, 1.27105, 1.15185, 1.04317, 1.0359, 1.03491, 1.09789, 1.07236, 1.07518, 0.889482, 0.918393, 1.07761, 0.956448, 1.35022, 0.95826, 0.959142, 0.961407, 0.966983, 0.968157, 0.965945, 0.966429, 1.13957, 1.15044, 1.14396, 0.956084, 0.956202, 1.2396, 0.94487, 0.949044, 0.948822, 0.949478, 1.12165, 1.00489, 1.02252, 1.16439, 1.42744, 0.950228, 0.947887, 0.948017
1.10471, 1.10059, 1.09932, 1.10037, 1.29855, 1.11606, 1.27706, 1.08726, 1.08508, 1.07873, 1.07152, 1.07042, 1.06799, 1.06453, 1.0637, 1.0615, 1.05839, 1.05662, 1.05507, 1.05247, 1.04974, 1.04859, 1.04499, 1.04061, 1.04053, 1.038, 1.03797, 1.03874, 1.03603, 1.03184, 1.03071, 1.02358, 1.02426, 1.02252, 1.01826, 1.0151, 1.01696, 1.01777, 1.01287, 0.991346, 0.983387, 0.984471, 0.975298, 0.940163, 1.00749, 1.04094, 1.08776, 1.32961, 1.3449, 1.43674, 1.45283, 1.5071, 1.61178, 1.61051, 1.6242, 1.6615, 1.75053, 1.7318, 1.77071, 1.75862, 1.78477, 1.79629, 1.88621, 1.94768, 1.87184, 1.87203, 2.00377, 1.94677, 2.07931, 1.96131, 1.9596, 1.95088, 1.93757, 1.97304, 1.97691, 1.97548, 1.94888, 1.94795, 1.9482, 2.09338, 2.09448, 2.05701, 2.02485, 2.02709, 1.92806, 1.93951, 1.91982, 1.91865, 2.03321, 2.00807, 1.94427, 1.91413, 2.0049, 1.86966, 1.85587, 1.85522, 1.79586, 1.79663, 1.7791, 1.78073, 1.79518, 1.70464, 1.6606, 1.6378, 1.63515, 1.58838, 1.66466, 1.55625, 1.51825, 1.52271, 1.47339, 1.39026, 1.24705, 1.19609, 1.06567, 1.0581, 0.974205, 1.07025, 1.07109, 0.881979, 0.882292, 0.918922, 0.957344, 1.3468, 0.953402, 0.952706, 0.954552, 1.35758, 0.959128, 0.964968, 0.961118, 0.95978, 0.960014, 0.957976, 0.95986, 0.956279, 0.949521, 0.950647, 0.936026, 0.946236, 0.945528, 0.945387, 0.942323, 0.932813, 0.932281, 1.08259, 1.16088, 1.30258, 0.944798, 0.948229
1.10377, 1.10088, 1.10099, 1.10137, 1.33813, 1.49749, 1.44402, 1.08378, 1.07633, 1.07362, 1.07122, 1.06875, 1.06632, 1.06426, 1.06336, 1.05972, 1.21098, 1.05767, 1.05379, 1.05247, 1.04979, 1.04634, 1.04492, 1.04226, 1.0404, 1.03912, 1.03896, 1.03902, 1.03444, 1.03033, 1.02769, 1.02228, 1.02227, 1.01989, 1.0126, 1.01269, 1.01057, 0.997409, 0.992214, 0.989882, 0.956764, 0.979556, 0.9298, 0.964478, 1.01183, 1.04005, 1.16594, 1.33677, 1.37269, 1.4275, 1.46156, 1.50019, 1.55691, 1.59824, 1.63951, 1.66139, 1.67597, 1.7402, 1.7858, 1.76541, 1.78342, 1.80777, 1.8038, 1.84472, 1.87222, 1.87157, 1.93169, 2.00833, 2.00691, 1.95682, 2.07032, 1.95101, 2.0985, 2.02263, 1.97252, 1.96936, 2.04632, 2.05011, 1.9624, 2.00581, 2.0628, 2.00019, 2.07428, 1.99243, 1.96039, 1.94133, 1.92036, 1.91935, 2.00781, 2.00824, 1.90457, 1.90447, 1.89689, 1.90054, 1.97844, 1.87253, 1.88982, 1.78004, 1.77942, 1.77982, 1.78008, 1.69697, 1.68506, 1.65744, 1.63633, 1.60785, 1.57856, 1.59976, 1.51882, 1.54209, 1.52463, 1.40691, 1.32277, 1.2261, 1.12675, 1.02282, 0.964005, 0.971047, 1.06975, 0.881528, 0.878095, 0.879117, 0.950374, 1.10073, 0.946233, 0.946843, 0.953685, 0.956176, 0.984499, 0.962348, 0.962664, 0.959882, 0.96109, 0.956639, 0.959506, 1.20668, 0.94885, 0.950042, 0.931941, 0.941939, 0.943022, 0.945397, 0.932025, 0.932343, 0.933233, 0.933016, 0.931711, 1.19438, 0.942482, 1.20749
1.10161, 1.09851, 1.0953, 1.42782, 1.29302, 1.08035, 1.08007, 1.07722, 1.0743, 1.07323, 1.07026, 1.06884, 1.06485, 1.06472, 1.06295, 1.05929, 1.0627, 1.05078, 1.04828, 1.05024, 1.04855, 1.04659, 1.04228, 1.04301, 1.03978, 1.03118, 1.03107, 1.02718, 1.03591, 1.02634, 1.02297, 1.0215, 1.01799, 1.01298, 1.00968, 1.00643, 1.00542, 1.1644, 0.988795, 0.99162, 0.956202, 0.987941, 0.932325, 0.987575, 1.0116, 1.08109, 1.17886, 1.32334, 1.37027, 1.42752, 1.47174, 1.51498, 1.54924, 1.60723, 1.69554, 1.69605, 1.68197, 1.72412, 1.85959, 1.86115, 1.89945, 1.9119, 1.84134, 1.87129, 1.90015, 1.92038, 2.01318, 2.01232, 2.05844, 2.11262, 2.1123, 1.97874, 2.0271, 2.02557, 1.98673, 2.04894, 1.99736, 2.04394, 2.05168, 2.03859, 2.09687, 2.03037, 2.06567, 1.98741, 1.94134, 1.9405, 1.93913, 2.03195, 1.97706, 1.96483, 1.90503, 1.90344, 1.89687, 1.90135, 1.97166, 1.87367, 1.87272, 1.78201, 1.78109, 1.8396, 1.83956, 1.78999, 1.69589, 1.6464, 1.63673, 1.60968, 1.58891, 1.58625, 1.5334, 1.5114, 1.48955, 1.40432, 1.33299, 1.22983, 1.0974, 1.04087, 0.95428, 0.971644, 1.00806, 1.00937, 0.877211, 0.905988, 0.881769, 0.925381, 1.07726, 1.30877, 1.30764, 1.20176, 0.961979, 0.963027, 0.963109, 0.96085, 0.961348, 0.964339, 0.953927, 1.20662, 0.94358, 0.939122, 0.939875, 0.930307, 0.941369, 0.943965, 0.931464, 0.932346, 0.931097, 0.932566, 0.931169, 0.931359, 0.928587, 0.929914
1.10182, 1.09773, 1.09334, 1.08631, 1.08406, 1.08073, 1.08006, 1.07716, 1.07428, 1.07212, 1.0702, 1.07046, 1.06037, 1.06388, 1.06048, 1.05959, 1.05239, 1.04927, 1.04817, 1.04913, 1.04755, 1.04567, 1.04151, 1.04015, 1.03611, 1.03222, 1.02953, 1.02374, 1.02412, 1.02143, 1.01831, 1.01637, 1.01494, 1.01076, 1.00853, 1.00138, 1.12621, 0.991242, 0.991508, 0.982138, 0.961303, 0.945423, 0.938511, 0.962937, 1.02036, 1.0948, 1.18196, 1.3115, 1.39884, 1.45018, 1.50388, 1.603, 1.60005, 1.63207, 1.64522, 1.70717, 1.68268, 1.8111, 1.86697, 1.89009, 1.82717, 1.89187, 1.91486, 1.91358, 1.88304, 1.9203, 1.92751, 1.94221, 2.05696, 2.08652, 2.0934, 2.08796, 2.02733, 1.99388, 2.07134, 2.04678, 2.04121, 2.05136, 2.05262, 2.00096, 2.00617, 2.00329, 0.00439925, 2.11212, 1.99382, 1.94117, 1.9935, 2.0896, 1.98947, 1.96011, 2.01341, 1.90342, 1.90336, 1.90984, 1.9091, 1.852, 1.77935, 1.78045, 1.78158, 1.85485, 1.79343, 1.79246, 1.69992, 1.6651, 1.65542, 1.65525, 1.57358, 1.57828, 1.54281, 1.51035, 1.50662, 1.45586, 1.31089, 1.25486, 1.14168, 1.03049, 0.986797, 0.928711, 0.896974, 0.877359, 0.876817, 0.881019, 0.895511, 1.07467, 0.921729, 1.41006, 1.07044, 1.14245, 1.05654, 1.50514, 1.0258, 1.37201, 1.02282, 0.941269, 0.938579, 0.940165, 0.936514, 0.938038, 0.939948, 0.928153, 1.12203, 0.940241, 0.934353, 0.933775, 0.931382, 0.92976, 0.928127, 0.928716, 0.928526, 0.929697
1.10369, 1.09814, 1.09684, 1.40814, 1.2936, 1.07887, 1.08031, 1.07839, 1.07533, 1.07314, 1.07121, 1.07095, 1.06068, 1.06178, 1.06244, 1.06279, 1.04843, 1.0494, 1.04615, 1.04717, 1.04639, 1.04489, 1.04198, 1.03906, 1.03181, 1.0322, 1.02983, 1.2005, 1.02131, 1.01709, 1.01679, 1.01489, 1.01149, 1.00788, 1.00132, 1.25734, 1.01246, 0.992579, 0.983437, 0.97012, 0.990934, 0.955655, 0.953485, 0.968691, 1.03268, 1.05957, 1.20172, 1.29457, 1.41185, 1.53414, 1.59155, 1.60915, 1.64456, 1.68694, 1.72258, 1.70122, 1.80969, 1.88176, 1.86091, 1.86123, 1.94951, 1.90302, 1.91236, 1.91508, 1.89955, 1.91229, 1.95022, 1.96917, 2.09015, 2.03235, 2.08727, 2.07999, 2.06816, 1.99382, 1.99388, 2.04494, 2.04189, 2.08193, 2.08399, 2.00439, 2.00673, 2.00561, 2.02373, 2.10451, 2.0981, 1.99307, 2.09404, 2.08992, 2.08944, 1.97594, 2.07291, 1.97875, 1.91077, 1.91014, 1.96448, 1.81581, 1.82088, 1.77927, 1.86509, 1.8541, 1.79597, 1.79269, 1.72218, 1.75049, 1.66763, 1.65409, 1.57993, 1.61178, 1.54377, 1.52955, 1.47461, 1.49518, 1.38355, 1.27934, 1.13288, 1.04454, 0.939916, 0.902132, 0.879272, 0.879403, 0.877418, 0.874588, 0.930961, 0.91657, 0.922482, 0.923703, 0.929353, 1.10942, 1.04092, 1.07193, 1.28775, 1.01913, 0.938539, 0.937254, 0.936662, 0.93875, 0.936496, 0.94236, 0.944561, 0.925329, 0.922623, 0.936873, 0.936077, 0.935113, 0.935455, 0.929906, 0.929219, 0.930102, 0.93011, 0.92955
1.10256, 1.10181, 1.09474, 1.28473, 1.08632, 1.0767, 1.08076, 1.0775, 1.07426, 1.07209, 1.07048, 1.08036, 1.06103, 1.06166, 1.05892, 1.05037, 1.04662, 1.04619, 1.04569, 1.04495, 1.03981, 1.0424, 1.03949, 1.03653, 1.03144, 1.02974, 1.02588, 1.02093, 1.01969, 1.01652, 1.01522, 1.01198, 1.00789, 1.00356, 1.00208, 1.12939, 0.991873, 0.984067, 0.978135, 0.970982, 0.994392, 0.998301, 0.953521, 0.993672, 1.04087, 1.07985, 1.21949, 1.33993, 1.39826, 1.48369, 1.57535, 1.5968, 1.64376, 1.63371, 1.71896, 1.71931, 1.79651, 1.79633, 1.86199, 1.86156, 1.8831, 1.93444, 1.93633, 1.94081, 1.94057, 1.92777, 1.95352, 1.9671, 2.03305, 2.0331, 2.03198, 2.04578, 2.04369, 2.06487, 2.08679, 2.07738, 2.08617, 2.08081, 2.00658, 2.00535, 2.0078, 2.00615, 2.04889, 2.10393, 1.99944, 1.98777, 2.09662, 2.09533, 2.08992, 1.95776, 1.95832, 1.95304, 1.95693, 1.91026, 1.90735, 1.82228, 1.79705, 1.7852, 1.81407, 1.81434, 1.87895, 1.77846, 1.72391, 1.7272, 1.67964, 1.68004, 1.5616, 1.5476, 1.53065, 1.53604, 1.53361, 1.47414, 1.4472, 1.27443, 1.16537, 1.01991, 0.93699, 0.936698, 0.878255, 0.879958, 0.873547, 0.91069, 0.930876, 0.916529, 0.921356, 0.92453, 0.925584, 0.929688, 0.92904, 0.930695, 0.932186, 0.932844, 0.935614, 0.936146, 0.937376, 0.938695, 0.939444, 0.942238, 0.942236, 0.931225, 0.92069, 0.919959, 0.932795, 0.933067, 0.929306, 0.928598, 0.927499, 0.928994, 0.93025, 1.03728
1.09969, 1.09491, 1.09179, 1.08786, 1.08434, 1.07588, 1.07693, 1.07616, 1.31939, 1.0714, 1.06557, 1.06153, 1.06036, 1.05741, 1.05144, 1.04962, 1.04787, 1.04378, 1.04404, 1.04251, 1.04001, 1.03997, 1.03637, 1.03478, 1.02895, 1.02591, 1.02354, 1.01948, 1.01841, 1.0153, 1.01191, 1.00776, 1.00599, 0.997755, 0.996023, 0.993666, 0.990802, 0.982588, 0.978344, 0.967981, 0.958927, 0.948006, 0.946621, 1.00913, 1.05381, 1.15109, 1.19571, 1.33051, 1.40704, 1.51576, 1.53483, 1.58569, 1.64924, 1.69858, 1.7202, 1.71, 1.79561, 1.87076, 1.93135, 1.86477, 1.87939, 1.93567, 1.93549, 1.97221, 1.91915, 2.08662, 1.95048, 1.97343, 2.11354, 2.0339, 2.03348, 2.04721, 2.04645, 2.05857, 2.05696, 2.07825, 2.17616, 2.00818, 2.00793, 2.01026, 2.00806, 2.01343, 2.01317, 2.01936, 1.99212, 1.98735, 2.07671, 2.12062, 2.11537, 1.96181, 1.95903, 1.95549, 1.95277, 1.92064, 1.88654, 1.89165, 1.88872, 1.79717, 1.81992, 1.81957, 1.85037, 1.77825, 1.7863, 1.76278, 1.68225, 1.69297, 1.6042, 1.52813, 1.52723, 1.53707, 1.58213, 1.47802, 1.41964, 1.30389, 1.21291, 1.06318, 0.939171, 0.961528, 0.87381, 0.926158, 0.863327, 0.861453, 0.904626, 1.01488, 0.920402, 0.922354, 0.92486, 0.927119, 0.928919, 0.931114, 0.932818, 0.93348, 0.935584, 0.936871, 0.938586, 0.939363, 0.941082, 0.942128, 0.939299, 0.930264, 0.93129, 0.918118, 0.918169, 0.928755, 0.929692, 0.928839, 0.929917, 0.927987, 0.926443, 0.910701
1.09545, 1.09385, 1.09363, 1.08492, 1.08071, 1.07815, 1.07604, 1.07484, 1.07075, 1.06725, 1.06354, 1.06114, 1.056, 1.05468, 1.05079, 1.05043, 1.04959, 1.04186, 1.03945, 1.03968, 1.03902, 1.03561, 1.03217, 1.02986, 1.02728, 1.02522, 1.02161, 1.01741, 1.0162, 1.01442, 1.01009, 1.00887, 1.00785, 0.99766, 0.995218, 0.994297, 0.98754, 0.984155, 0.985027, 0.968071, 0.961604, 0.94398, 1.01158, 1.01953, 1.02822, 1.2682, 1.25072, 1.32641, 1.51346, 1.44784, 1.55689, 1.55706, 1.58519, 1.65603, 1.69485, 1.84222, 1.73113, 1.87144, 1.87207, 1.86529, 1.88194, 1.8858, 1.9254, 1.92573, 1.9555, 2.08668, 1.99309, 2.11189, 2.11098, 2.03293, 2.28252, 2.04762, 2.04878, 2.05654, 2.05553, 2.05557, 2.0794, 2.00338, 2.0047, 2.0109, 2.01866, 2.01348, 2.01751, 2.01348, 2.02929, 1.98649, 2.03614, 2.12102, 2.11423, 1.95994, 1.95892, 1.98133, 1.92259, 1.92213, 1.9594, 1.89028, 1.89089, 1.87596, 1.82033, 1.82002, 1.7937, 1.78891, 1.7254, 1.72085, 1.67007, 1.69138, 1.58217, 1.52068, 1.52651, 1.52648, 1.49129, 1.48977, 1.4388, 1.40542, 1.27495, 1.05664, 1.01882, 1.09095, 0.876948, 0.864468, 0.865809, 0.860348, 0.886589, 1.12522, 0.91951, 0.921854, 0.924424, 1.25529, 0.930131, 0.931237, 0.932267, 0.933661, 0.936112, 0.937479, 0.937219, 0.939807, 0.94016, 0.940641, 0.940164, 0.939376, 0.929625, 0.916802, 0.915654, 0.930912, 0.930831, 0.931232, 0.923593, 0.925051, 0.926659, 0.921592
1.09577, 1.0934, 1.0931, 1.10497, 1.08171, 1.08052, 1.0758, 1.0719, 1.07174, 1.06997, 1.06562, 1.06123, 1.05876, 1.05429, 1.05097, 1.05108, 1.05381, 1.03879, 1.03808, 1.03621, 1.03303, 1.03305, 1.02993, 1.02502, 1.02519, 1.02301, 1.01894, 1.01196, 1.01106, 1.00849, 1.00705, 1.00718, 1.00238, 1.00004, 0.997452, 0.990844, 0.984936, 0.976803, 0.975076, 0.966743, 0.957023, 0.946481, 0.985658, 1.02265, 1.05184, 1.22014, 1.23288, 1.35787, 1.42261, 1.49737, 1.58041, 1.55738, 1.6821, 1.65143, 1.81985, 1.82201, 1.90708, 1.88736, 1.88747, 1.86589, 1.86303, 1.87516, 1.99078, 2.02488, 2.01756, 1.97403, 2.14291, 2.11358, 2.05198, 2.05013, 2.08661, 2.12406, 2.10103, 2.10003, 2.13164, 2.05957, 2.06228, 2.06023, 2.05625, 2.01948, 2.01926, 2.02298, 2.02074, 2.03701, 2.04136, 1.99214, 2.03482, 2.03406, 2.03523, 1.96144, 1.9607, 1.97907, 2.02909, 1.92707, 1.94699, 1.88057, 1.87182, 1.86928, 1.84586, 1.83005, 1.82817, 1.81078, 1.72823, 1.67328, 1.67165, 1.60999, 1.58202, 1.5496, 1.53073, 1.54424, 1.50454, 1.49948, 1.43969, 1.43581, 1.25143, 1.14972, 1.0091, 1.09122, 0.870039, 0.872635, 0.869367, 0.900666, 0.889746, 0.928414, 0.918712, 0.921291, 1.34722, 1.14957, 0.928584, 0.930735, 0.93492, 0.935404, 0.937607, 0.937492, 0.938827, 0.938386, 0.940674, 0.940999, 0.939969, 0.940353, 0.941188, 0.935212, 0.933635, 0.914551, 0.928177, 0.928404, 0.921893, 0.924697, 0.922269, 0.923579
1.09534, 1.09224, 1.09207, 1.09458, 1.08179, 1.08096, 1.07624, 1.07399, 1.07279, 1.07018, 1.06713, 1.06225, 1.06144, 1.0534, 1.05199, 1.04816, 1.04722, 1.05791, 1.03542, 1.29475, 1.23544, 1.02896, 1.0259, 1.02374, 1.02209, 1.01912, 1.01858, 1.01155, 1.01045, 1.00637, 1.00453, 1.00364, 0.994397, 0.997655, 0.992748, 0.987196, 0.982876, 0.977971, 0.971668, 0.968338, 0.984259, 0.949366, 0.984831, 1.02304, 1.08443, 1.15406, 1.322, 1.40944, 1.44097, 1.50541, 1.57646, 1.60571, 1.68202, 1.64798, 1.82022, 1.82018, 1.9027, 1.89596, 1.88364, 1.87822, 1.91371, 1.87326, 2.02602, 2.00322, 1.97221, 2.06944, 2.1351, 2.11926, 2.05538, 2.05478, 2.10839, 2.12089, 2.07754, 2.10395, 2.05831, 2.10193, 2.05596, 2.04599, 2.06581, 2.01642, 2.01765, 2.02422, 2.02404, 2.04325, 2.042, 2.03523, 2.04514, 2.00002, 1.99936, 1.9627, 1.96223, 1.98137, 1.98198, 1.92078, 1.94771, 1.88102, 1.8799, 1.931, 1.9218, 1.81288, 1.81014, 1.81026, 1.76781, 1.715, 1.66568, 1.6304, 1.60406, 1.55376, 1.49905, 1.51008, 1.48638, 1.48196, 1.44068, 1.39447, 1.25852, 1.2089, 1.02702, 0.957164, 0.935322, 0.96089, 0.905392, 0.89009, 0.849756, 0.917362, 0.919562, 0.921325, 1.34694, 1.34745, 1.0898, 0.931591, 0.933672, 0.934982, 0.935626, 0.937466, 0.938787, 0.929921, 0.939724, 0.941669, 0.942866, 0.942765, 0.94052, 0.939476, 0.935778, 0.913676, 0.91512, 0.916004, 0.916798, 0.920288, 0.923796, 0.92283
1.09494, 1.09118, 1.08978, 1.08731, 1.09548, 1.22023, 1.07556, 1.07148, 1.655, 1.0878, 1.29882, 1.25188, 1.05362, 1.05052, 1.04649, 1.04478, 1.04108, 1.27151, 1.05814, 1.02422, 1.02522, 1.17673, 1.02491, 1.02127, 1.01983, 1.01771, 1.01489, 1.01219, 1.00886, 1.0077, 1.00422, 1.00055, 0.997949, 0.996553, 0.990924, 0.984281, 0.98093, 0.974355, 0.966816, 0.975597, 0.940111, 0.970773, 0.970821, 1.01937, 1.08445, 1.22389, 1.33779, 1.3937, 1.5042, 1.5356, 1.53955, 1.64442, 1.58447, 1.61178, 1.66924, 1.81838, 1.90362, 1.90272, 1.87561, 1.8818, 1.87074, 1.87029, 1.88931, 2.01719, 2.01864, 2.05051, 2.1208, 2.1204, 2.12579, 2.0567, 2.17376, 2.10707, 2.16659, 2.05679, 2.05195, 2.04609, 2.04332, 2.045, 2.01824, 2.02013, 2.01827, 2.01625, 2.0227, 2.03835, 2.03626, 1.98959, 1.99768, 1.99586, 1.99595, 2.04727, 1.95423, 1.95317, 1.9895, 1.92745, 1.9269, 1.9865, 1.97371, 1.98256, 1.93321, 1.81296, 1.81048, 1.76476, 1.76727, 1.68904, 1.67275, 1.61555, 1.56814, 1.53596, 1.50152, 1.51273, 1.47594, 1.45934, 1.45461, 1.34873, 1.25163, 1.1686, 1.02018, 0.943261, 0.952635, 0.884824, 0.884964, 0.904932, 0.849283, 0.919626, 0.920237, 0.921359, 1.08556, 1.08666, 0.931345, 0.932757, 0.933992, 0.936164, 0.937089, 0.937041, 0.938316, 0.929161, 0.941155, 0.942938, 0.942318, 0.944532, 0.94216, 0.937488, 0.932786, 0.930266, 0.929117, 0.914456, 0.923301, 0.9209, 0.921791, 0.919105
1.09708, 1.09336, 1.09117, 1.08872, 1.08255, 1.08033, 1.10111, 1.11778, 1.06769, 1.06628, 1.06675, 1.0577, 1.06879, 1.04789, 1.04578, 1.03849, 1.03789, 1.0371, 1.03244, 1.02212, 1.02186, 1.02325, 1.01913, 1.02145, 1.01933, 1.01733, 1.01627, 1.01245, 1.00917, 1.00548, 1.00247, 1.00161, 0.997998, 0.991868, 0.991087, 0.983313, 0.980062, 0.972982, 0.969737, 0.967824, 0.952223, 0.942838, 0.98335, 1.01156, 1.07358, 1.14733, 1.33627, 1.47828, 1.47598, 1.49824, 1.54007, 1.57452, 1.60564, 1.62673, 1.71321, 1.79581, 1.84179, 1.84025, 1.87577, 1.88283, 1.87191, 1.87114, 2.02512, 2.01905, 2.01847, 2.05223, 2.07787, 2.05475, 2.05395, 2.05843, 2.11818, 2.10894, 2.1082, 2.06834, 2.05059, 2.04566, 2.1341, 2.02851, 2.02557, 2.02189, 2.02148, 2.01013, 2.09701, 2.13173, 2.03688, 2.11056, 1.99636, 1.99624, 1.99674, 2.00877, 1.95475, 1.9538, 2.00519, 1.93748, 1.92769, 1.97982, 1.98825, 1.98645, 1.93277, 1.80278, 1.76282, 1.75496, 1.7343, 1.74009, 1.70176, 1.63132, 1.57082, 1.53579, 1.5377, 1.48888, 1.46638, 1.48185, 1.40741, 1.39178, 1.28815, 1.16132, 1.0979, 0.991214, 0.950874, 0.880565, 0.886037, 0.867587, 0.867981, 0.918532, 0.920108, 0.921781, 0.923485, 0.92811, 0.929965, 0.933042, 0.935462, 0.936997, 0.938955, 0.942421, 0.937258, 0.942443, 0.942114, 0.939745, 0.93883, 0.93788, 0.935294, 0.93355, 0.932952, 0.933462, 0.929273, 0.914237, 0.916559, 0.933561, 0.930996, 0.918241
1.10014, 1.09905, 1.09583, 1.08441, 1.08149, 1.0789, 1.07229, 1.06742, 1.06376, 1.06112, 1.05736, 1.0546, 1.0491, 1.04755, 1.05581, 1.03455, 1.03457, 1.03254, 1.0319, 1.02379, 1.02316, 1.02237, 1.01596, 1.01587, 1.01743, 1.01786, 1.01116, 1.0114, 1.00648, 1.00507, 0.999808, 0.9973, 0.996318, 0.990149, 0.988206, 0.979019, 0.980878, 0.976168, 0.968131, 0.974348, 0.963442, 0.973048, 0.984495, 1.05286, 1.10829, 1.14744, 1.32613, 1.47588, 1.47441, 1.56523, 1.56279, 1.59635, 1.60161, 1.64685, 1.64655, 1.79637, 1.84119, 1.84068, 1.84019, 1.88582, 1.8819, 2.02826, 2.02555, 2.02573, 2.01761, 2.0558, 2.00671, 2.01072, 2.05949, 2.0587, 2.11815, 2.10883, 2.13149, 2.06869, 2.1174, 2.11714, 2.10666, 2.06232, 2.06317, 2.02418, 2.02471, 2.00839, 2.16295, 2.02267, 2.10916, 2.10992, 2.09484, 1.99727, 2.01, 2.07005, 2.08115, 1.95484, 2.00117, 1.93554, 1.9312, 2.0203, 1.99533, 1.87167, 1.90743, 1.78593, 1.7515, 1.77862, 1.73157, 1.78641, 1.66358, 1.66165, 1.59237, 1.5375, 1.53152, 1.53152, 1.44933, 1.4227, 1.41384, 1.32584, 1.30035, 1.20102, 1.07029, 0.997726, 0.937164, 0.877478, 0.860449, 0.862732, 0.861997, 0.918745, 0.920238, 0.921715, 0.924077, 0.927377, 0.92886, 1.26731, 0.936246, 0.938117, 0.939642, 0.938854, 0.939461, 0.941464, 0.938822, 0.939314, 0.939165, 0.936483, 0.933749, 0.936429, 0.935523, 0.93457, 0.934649, 0.932465, 0.918271, 0.94626, 0.930654, 0.928589
1.1001, 1.09458, 1.09491, 1.0855, 1.08132, 1.07439, 1.06989, 1.06693, 1.06376, 1.0571, 1.05265, 1.05033, 1.04648, 1.04549, 1.05952, 1.03668, 1.03297, 1.02973, 1.02812, 1.02348, 1.02219, 1.02176, 1.01728, 1.01645, 1.01686, 1.01532, 1.01113, 1.01085, 1.00725, 1.00487, 1.00278, 0.997716, 0.997064, 0.997966, 0.980312, 0.986829, 0.983489, 0.979637, 0.984363, 0.978244, 0.956981, 0.97074, 1.01849, 1.03277, 1.11252, 1.1434, 1.27182, 1.42345, 1.50284, 1.54391, 1.58266, 1.59258, 1.61417, 1.61404, 1.65825, 1.75751, 1.85434, 1.84128, 1.87972, 1.89164, 1.92758, 2.00415, 2.00339, 1.95809, 1.95844, 2.05719, 2.0094, 2.0098, 2.092, 2.04414, 2.11858, 2.11858, 2.06331, 0.00440455, 2.12091, 2.11677, 2.10664, 2.10531, 2.10425, 2.03166, 2.03489, 2.07252, 2.02886, 2.02471, 2.11008, 2.11049, 2.08009, 1.99612, 1.99623, 2.07203, 2.01827, 2.01827, 1.93612, 1.93563, 1.98976, 1.96878, 1.93887, 1.85824, 1.85789, 1.82522, 1.75369, 1.77938, 1.72992, 1.83143, 1.70003, 1.6713, 1.68127, 1.53416, 1.49315, 1.52344, 1.44994, 1.43684, 1.37155, 1.33238, 1.30132, 1.15039, 1.0182, 0.959083, 0.932846, 0.910083, 0.863049, 0.863563, 0.869508, 1.14079, 0.922158, 0.922231, 0.924657, 0.926483, 0.928323, 0.931037, 0.934488, 0.93549, 0.935203, 0.935297, 0.938646, 0.939187, 0.939214, 0.942267, 0.944657, 0.940323, 0.940859, 0.937229, 0.937246, 0.936121, 0.933302, 0.932161, 0.926238, 0.921452, 0.930208, 0.928484
1.097, 1.09516, 1.08858, 1.22338, 1.07923, 1.07419, 1.06668, 1.06414, 1.06011, 1.05327, 1.05276, 1.04649, 1.04659, 1.04414, 1.04159, 1.06522, 1.03026, 1.02789, 1.02626, 1.0249, 1.02265, 1.0158, 1.0149, 1.01459, 1.01463, 1.01116, 1.00827, 1.0067, 1.00474, 1.00303, 1.00046, 0.996899, 0.995611, 0.993214, 0.989185, 0.98927, 0.988607, 0.969595, 0.971135, 0.962752, 0.933812, 0.935738, 0.972162, 1.00519, 1.10866, 1.17926, 1.28937, 1.39047, 1.54873, 1.55117, 1.66129, 1.59515, 1.61273, 1.61203, 1.66528, 1.75789, 1.86971, 1.84825, 1.93784, 1.91469, 1.88886, 2.02517, 2.00387, 1.95865, 1.95824, 1.99792, 2.01162, 2.01133, 2.01336, 2.04461, 2.04378, 2.07654, 2.05936, 2.07632, 2.17285, 2.12025, 2.1065, 2.09012, 2.10552, 1.97682, 2.02404, 1.99281, 2.02223, 2.02087, 2.10041, 2.07976, 2.08114, 1.9952, 2.02471, 1.99188, 1.93912, 1.93805, 1.93631, 1.99317, 1.99054, 1.90079, 1.87358, 1.90709, 1.87599, 1.82471, 1.75697, 1.75585, 1.81777, 1.7513, 1.74822, 1.67966, 1.67602, 1.60896, 1.51276, 1.57273, 1.4651, 1.44708, 1.37641, 1.36406, 1.32357, 1.15855, 1.05308, 1.06639, 0.946203, 0.893434, 0.877136, 0.889805, 0.863944, 0.877657, 0.919046, 0.9204, 0.922948, 0.925481, 0.928111, 0.929208, 0.932474, 0.934257, 0.935375, 0.935389, 0.935475, 0.93601, 0.937374, 0.940436, 0.945527, 0.940454, 0.939007, 0.938386, 0.937203, 0.932288, 0.929689, 0.932515, 0.933516, 0.932696, 0.929266, 0.930944
1.08825, 1.0834, 1.08392, 1.07909, 1.07337, 1.0716, 1.06521, 1.06263, 1.06114, 1.05221, 1.29204, 1.06117, 1.04617, 1.04034, 1.03973, 1.03529, 1.02744, 1.02621, 1.02216, 1.019, 1.03489, 1.01559, 1.01558, 1.01525, 1.01445, 1.01129, 1.00586, 1.00586, 1.00391, 1.00388, 0.99857, 0.997413, 0.993814, 0.991688, 0.991625, 0.997829, 0.971328, 0.967814, 0.971064, 0.966132, 0.928932, 0.928554, 0.98274, 1.00443, 1.12212, 1.19299, 1.28159, 1.47698, 1.50491, 1.5714, 1.56832, 1.59717, 1.60686, 1.60732, 1.65203, 1.7862, 1.81727, 1.9154, 1.83855, 1.88833, 1.9177, 1.91854, 2.04402, 1.96542, 1.95856, 2.09953, 2.01038, 2.13496, 2.00302, 2.09418, 2.07617, 2.06891, 2.05879, 2.1114, 2.0619, 2.12274, 2.12847, 1.97405, 1.97086, 1.98148, 1.97877, 1.98337, 2.02042, 2.08318, 2.08287, 2.10017, 1.96824, 1.9689, 2.012, 1.98421, 1.9342, 1.9317, 1.9327, 2.00438, 1.9007, 1.9045, 1.90313, 1.91716, 1.90686, 1.84221, 1.75777, 1.8273, 1.81993, 1.75162, 1.72063, 1.65799, 1.63418, 1.65828, 1.57311, 1.53706, 1.51977, 1.43484, 1.38544, 1.35408, 1.28768, 1.19396, 1.03465, 0.977392, 0.937493, 0.895103, 0.878038, 0.874053, 0.866039, 0.886307, 0.917936, 0.920451, 0.921601, 0.923844, 0.926869, 0.928895, 0.932021, 0.934347, 0.935436, 0.935442, 0.93726, 0.938839, 1.15732, 1.1607, 0.944566, 0.942959, 0.940264, 0.938908, 0.935894, 0.930894, 0.931359, 0.932292, 0.932274, 0.926957, 0.926582, 0.930472
1.08179, 1.08059, 1.0765, 1.07041, 1.06778, 1.06625, 1.0634, 1.05889, 1.07792, 1.07696, 1.23277, 1.12812, 1.28233, 1.03633, 1.0349, 1.03255, 1.02716, 1.02312, 1.02196, 1.01886, 1.01871, 1.01456, 1.01479, 1.01188, 1.01237, 1.00876, 1.00643, 1.00606, 1.00203, 1.00089, 0.997633, 0.996547, 0.992037, 0.990455, 0.980723, 0.980629, 1.17524, 0.960674, 0.96807, 0.968073, 0.917235, 0.933457, 0.991671, 1.05599, 1.11338, 1.23488, 1.27154, 1.47748, 1.47905, 1.53522, 1.57311, 1.59668, 1.59089, 1.62686, 1.63931, 1.73293, 1.78304, 1.82082, 1.85495, 1.89468, 1.91734, 1.91748, 1.91152, 2.04271, 2.09833, 2.10047, 1.95678, 2.13472, 2.05286, 2.05496, 2.05535, 2.06845, 2.06944, 2.05504, 2.06279, 2.06211, 2.13006, 1.97418, 1.97078, 1.98119, 1.9785, 1.98471, 1.98251, 1.96302, 1.99609, 1.96808, 1.96944, 1.96204, 2.03372, 1.98627, 1.99719, 1.93258, 1.93291, 2.00395, 1.89832, 1.89678, 1.90755, 1.87741, 1.90414, 1.89027, 1.77413, 1.77876, 1.77947, 1.75387, 1.70729, 1.6586, 1.56207, 1.54628, 1.51591, 1.5075, 1.51342, 1.50419, 1.38713, 1.36348, 1.24632, 1.2047, 1.01826, 0.957713, 0.946787, 0.967238, 0.876748, 0.912075, 0.88771, 0.928991, 0.915993, 0.919565, 0.923118, 0.924687, 0.926909, 0.928891, 0.932561, 0.933078, 0.935587, 0.935888, 1.13626, 1.14483, 1.15737, 0.951866, 0.952506, 0.941354, 0.939219, 0.938896, 0.934978, 0.935914, 0.935651, 0.932188, 0.932271, 0.934633, 0.925846, 0.925571
1.08243, 1.0804, 1.06829, 1.06736, 1.06361, 1.06331, 1.05989, 1.05631, 1.05277, 1.05039, 1.04565, 1.03893, 1.03885, 1.03548, 1.03217, 1.03226, 1.03018, 1.02531, 1.02118, 1.01693, 1.01569, 1.01283, 1.01393, 1.00988, 1.01126, 1.0063, 1.00466, 1.00037, 1.00083, 1.00152, 1.00387, 0.99186, 0.988388, 0.98239, 0.981622, 0.977503, 0.976809, 1.05752, 0.967317, 0.921626, 0.918992, 0.962865, 0.956249, 1.03656, 1.11901, 1.21716, 1.39675, 1.49528, 1.53384, 1.49199, 1.54865, 1.60745, 1.64299, 1.63766, 1.656, 1.73152, 1.81741, 1.81368, 1.84787, 1.87663, 1.91819, 1.9175, 1.91192, 1.98486, 1.96945, 1.96896, 1.96095, 1.96257, 2.05763, 2.01883, 2.01828, 2.04863, 2.03075, 2.05678, 2.0627, 2.14179, 2.14123, 2.01813, 2.06563, 2.08864, 1.96289, 1.96129, 1.95976, 1.97334, 1.96768, 1.96806, 1.96655, 1.96188, 2.03365, 2.02157, 1.93105, 1.93286, 1.93373, 1.96881, 1.8993, 1.92901, 1.90958, 1.8998, 1.87987, 1.79302, 1.78908, 1.77849, 1.77467, 1.74255, 1.63736, 1.56574, 1.54304, 1.57442, 1.51816, 1.54621, 1.51603, 1.47428, 1.36535, 1.37278, 1.32249, 1.07483, 1.0242, 0.972749, 0.93431, 0.868028, 0.867707, 0.902524, 0.898068, 0.912889, 0.917177, 0.919557, 0.92241, 0.922614, 0.928482, 0.931108, 0.933559, 0.928681, 1.28899, 1.02702, 1.14281, 0.960314, 0.961489, 0.949151, 0.948114, 0.941399, 0.939142, 0.939199, 0.937313, 0.936278, 0.936481, 0.937065, 0.938191, 0.938979, 0.940527, 0.925248
1.07658, 1.47206, 1.48175, 1.06689, 1.06256, 1.05831, 1.05728, 1.05323, 1.05244, 1.04583, 1.03991, 1.6204, 1.03639, 1.03448, 1.03268, 1.03197, 1.02961, 1.05077, 1.05955, 1.05026, 1.01417, 1.01128, 1.04743, 1.01029, 1.01083, 1.01842, 1.18589, 0.995795, 0.992732, 1.01197, 1.01131, 0.997973, 0.990093, 0.978704, 0.978909, 0.975693, 0.975184, 0.977107, 0.976756, 0.919929, 0.918628, 0.972131, 0.952762, 1.02235, 1.05821, 1.41797, 1.41795, 1.44671, 1.50381, 1.53015, 1.55428, 1.63677, 1.64206, 1.65557, 1.69588, 1.69535, 1.80282, 1.80049, 1.88843, 1.88015, 1.91997, 1.91772, 1.96162, 1.96548, 1.96535, 1.96349, 1.96439, 1.96571, 2.00761, 2.05884, 2.01792, 2.11502, 2.11839, 2.04892, 2.1007, 2.14181, 2.14128, 1.99301, 2.04209, 2.08908, 2.02767, 1.97369, 1.96486, 1.95643, 1.95223, 1.98864, 1.96723, 2.00767, 2.00687, 1.95241, 1.93036, 1.93069, 1.93407, 1.93389, 1.89229, 1.92415, 1.8932, 1.92057, 1.80737, 1.79256, 1.79087, 1.788, 1.7721, 1.71676, 1.65533, 1.56501, 1.54664, 1.57296, 1.59769, 1.49812, 1.51287, 1.4645, 1.42876, 1.32676, 1.18922, 1.18097, 1.03632, 0.973985, 0.929346, 0.893636, 0.883139, 0.881923, 1.00145, 0.915655, 0.917248, 0.918824, 0.924369, 0.924399, 0.929066, 0.929102, 0.931081, 0.925917, 0.935749, 0.938357, 0.945919, 0.947329, 1.14044, 0.945063, 0.949913, 0.941837, 0.94044, 0.938798, 0.938121, 0.936974, 0.936307, 0.936804, 0.937732, 0.938896, 0.940798, 0.94056
1.07368, 1.07428, 1.40451, 1.0636, 1.05991, 1.05934, 1.05945, 1.0529, 1.46711, 1.04474, 1.03892, 1.03229, 1.03178, 1.03024, 1.03219, 1.02879, 1.02728, 1.60386, 1.01853, 1.05328, 1.05517, 1.04941, 1.04322, 1.00983, 1.01188, 1.00136, 0.996287, 0.995183, 0.987585, 0.982051, 0.97608, 0.976648, 0.976589, 0.973831, 0.973381, 0.970951, 0.984823, 0.981888, 0.936028, 0.94146, 0.909882, 0.949975, 1.06304, 1.02636, 1.10941, 1.22365, 1.38167, 1.42133, 1.42649, 1.45232, 1.51926, 1.68857, 1.69336, 1.6685, 1.70008, 1.69983, 1.73509, 1.80123, 1.83009, 1.88401, 2.00617, 1.96583, 1.96155, 1.95319, 1.96875, 1.96818, 1.96635, 1.95573, 1.98725, 2.13017, 2.07574, 2.04905, 2.09709, 2.09515, 2.17999, 1.92402, 1.98595, 1.98943, 2.04357, 2.0139, 1.98186, 1.95198, 1.93623, 1.93384, 2.05175, 2.05449, 1.96595, 2.00987, 1.9398, 1.95376, 1.93048, 1.90695, 1.99024, 1.93423, 1.89096, 1.89033, 1.89623, 1.92092, 1.84074, 1.79264, 1.79197, 1.79224, 1.77202, 1.68715, 1.68536, 1.57123, 1.53166, 1.53026, 1.50689, 1.48559, 1.46455, 1.43325, 1.3729, 1.35892, 1.20114, 1.11614, 1.00889, 0.943103, 0.905898, 0.91933, 0.927327, 0.903507, 0.917798, 0.918663, 0.917858, 0.920736, 0.922356, 0.924883, 0.928817, 1.11169, 1.11254, 1.12043, 1.13332, 1.14472, 1.03026, 0.947258, 0.939785, 0.948665, 0.946598, 0.940444, 0.940248, 0.938251, 0.937604, 0.93736, 0.935629, 0.936038, 0.936148, 0.935655, 0.939794, 0.941195
1.07479, 1.06669, 1.06564, 1.0598, 1.05917, 1.28163, 1.05339, 1.05042, 1.04647, 1.04106, 1.03784, 1.03319, 1.0308, 1.03087, 1.02756, 1.02678, 1.02474, 1.02178, 1.01841, 1.01636, 1.62859, 1.04075, 1.02184, 1.00787, 1.00789, 1.00105, 0.993758, 0.99216, 0.98672, 0.988042, 0.976561, 0.98003, 0.980239, 0.979118, 0.972237, 0.970689, 0.968814, 0.984552, 0.983902, 0.915195, 0.914318, 0.906708, 0.978163, 1.04781, 1.13424, 1.21061, 1.28866, 1.35461, 1.40581, 1.42664, 1.56846, 1.56812, 1.68767, 1.66607, 1.70099, 1.72092, 1.80889, 1.88983, 1.82364, 1.84168, 1.84834, 1.91555, 1.95913, 1.95228, 1.96839, 1.9677, 1.9638, 1.95873, 1.96925, 2.127, 1.97244, 2.04938, 2.09713, 1.99573, 1.97747, 1.92507, 1.9863, 1.98981, 2.00717, 2.01311, 1.94992, 1.95281, 1.93515, 1.92235, 1.92084, 1.94919, 1.94908, 1.94103, 1.94069, 1.93788, 1.93241, 1.98686, 1.99028, 1.96995, 1.89146, 1.88982, 1.85236, 1.87975, 1.8442, 1.80294, 1.79223, 1.8444, 1.77409, 1.68772, 1.63766, 1.58871, 1.53314, 1.50266, 1.48988, 1.4789, 1.40479, 1.37538, 1.41653, 1.36459, 1.22172, 1.04744, 1.01041, 0.970376, 0.905925, 0.905144, 0.871809, 0.874882, 0.904372, 0.918885, 0.920325, 0.922103, 0.92346, 0.929134, 1.102, 1.09874, 1.11508, 1.13006, 1.12705, 1.12245, 0.967602, 0.943479, 0.945893, 0.949151, 1.18074, 0.942644, 0.940087, 0.940513, 0.939165, 0.937632, 0.935524, 0.938454, 0.93893, 0.939371, 0.939256, 0.93964
