0.990781, 1.03486, 0.987843, 1.03138, 1.0418, 1.04179, 1.04085, 1.00069, 0.879577, 0.877297, 0.876803, 0.984432, 0.98373, 0.983426, 0.867013, 0.866175, 0.866014, 0.865934, 0.981878, 0.866546, 0.866848, 0.866265, 0.960528, 0.939956, 0.960221, 0.870309, 0.870122, 0.943289, 0.967245, 0.873711, 0.960137, 0.958552, 0.94292, 0.953086, 0.973417, 0.882023, 0.961884, 0.888803, 0.886923, 0.889486, 0.890625, 0.903765, 0.905783, 0.906149, 0.912319, 0.91871, 0.918332, 0.920308, 0.918866, 0.920102, 0.919768, 0.920505, 0.922768, 0.922878, 0.929075, 0.928943, 0.929847, 0.932132, 0.936154, 0.938165, 0.938425, 0.936061, 0.936625, 0.933165, 0.933199, 0.938361, 0.93958, 0.94145, 0.942474, 0.942235, 0.942139, 0.976398, 0.976736, 0.977352, 0.975861, 1.49591, 1.45826, 0.969401, 0.969764, 0.967982, 0.965257, 0.974469, 0.975433, 1.49544, 0.969932, 0.954001, 1.4219, 1.51159, 1.50858, 0.956629, 0.956409, 0.956546, 1.53682, 1.08728, 0.961685, 1.08729, 0.967192, 0.974751, 0.969773, 0.970105, 0.972416, 0.970362, 0.970251, 0.970363, 0.971868, 0.968569, 0.966968, 0.96546, 0.968889, 0.970474, 0.970059, 0.969752, 0.968971, 0.966816, 0.965901, 0.965461, 0.963951, 0.964596, 0.966548, 0.961944, 0.961804, 0.961613, 0.961392, 0.959911, 0.960026, 0.959745, 0.959379, 0.959343, 0.959693, 0.961108, 0.962157, 0.963314, 0.96511, 0.9661, 0.960487, 0.959803, 0.961039, 0.959691, 0.96183, 0.961896, 0.961396, 0.957117, 0.956026, 0.954108, 0.955295, 0.95393, 0.974882, 0.956948, 0.957955, 0.955748, 0.955019, 0.954477, 0.954242, 0.951843, 0.949659, 0.948814, 0.946427, 0.94682, 0.946629, 0.946634, 0.946289, 0.945907, 0.946447, 0.947196, 0.947262, 0.944697, 0.942937, 0.942236, 1.18827, 1.3609, 0.966643, 0.929188, 0.931434, 0.926346, 0.922172, 0.922429, 0.91778, 0.918037, 0.916715, 0.910244, 0.901636, 0.902126, 0.903895, 0.904988, 0.906893, 0.906795, 0.90764, 0.906473, 0.905812, 0.905486, 0.904741, 0.902179, 0.901899, 0.901194, 0.899245, 0.897272, 0.897346, 0.898067, 0.8987, 0.89826, 0.899041, 0.899744, 0.900632, 0.900907, 0.899825, 0.89933, 0.891127, 0.892535, 0.894989, 0.894573, 0.893361, 0.887507, 0.884292, 0.943931, 0.872724, 0.873205, 0.871529, 0.871624, 0.869617, 0.869595, 0.868446, 0.867493, 0.865421, 0.864857, 0.861029, 0.857369, 0.853264, 0.851113, 0.849809, 0.988823, 1.23918, 0.909695, 0.911366, 0.912931, 0.877206, 0.877124, 0.878754, 0.879904, 0.880661, 0.882398, 0.883556, 0.884176, 0.885357, 0.882863, 0.88363, 0.885229, 0.885534, 0.885703, 1.01507, 1.0164, 0.889307, 0.88958, 0.890497, 0.887292, 0.88772, 0.887272, 0.886857, 0.880951, 0.883378, 0.882674, 0.882535, 0.881035, 0.883232, 0.883362, 0.883921, 0.884363, 0.883298, 0.883287, 0.884398, 0.884215
0.987484, 1.03348, 1.02543, 1.0127, 1.01244, 1.01026, 1.023, 1.01012, 0.87825, 0.87719, 0.875837, 0.980058, 1.00182, 0.988007, 0.990922, 0.865852, 0.865105, 0.864746, 0.864439, 0.865525, 0.864335, 0.864776, 0.864651, 0.865212, 0.863689, 0.865503, 0.953794, 0.962465, 0.960339, 0.960135, 0.969222, 0.952664, 0.938447, 0.932327, 0.932905, 0.945078, 0.957236, 0.888038, 0.887093, 0.888852, 0.891378, 0.9004, 0.903826, 0.956851, 0.954613, 0.957619, 0.961402, 0.912854, 0.917343, 0.919038, 0.962642, 0.921966, 0.92384, 0.92396, 0.926196, 0.926461, 0.926519, 0.92736, 0.928729, 0.930257, 0.931418, 0.933014, 0.934427, 0.932367, 0.933253, 0.937617, 0.940965, 0.942134, 0.942936, 0.942677, 0.942079, 0.941841, 0.973421, 1.46083, 1.58858, 1.4821, 0.966756, 1.38258, 0.967456, 1.90325, 1.47933, 0.973782, 1.48838, 0.973268, 0.950896, 0.971753, 0.953029, 0.979701, 0.979595, 1.09064, 0.955266, 1.53291, 1.08767, 1.08825, 1.08818, 0.974127, 0.97442, 0.968925, 1.09647, 0.970943, 0.970066, 0.970679, 0.970861, 0.970017, 0.968701, 0.968087, 0.966511, 0.966343, 0.967644, 0.969259, 0.969939, 0.969699, 0.969371, 0.968067, 0.967888, 0.967247, 0.966961, 0.966467, 0.966298, 0.965391, 0.962587, 0.962809, 0.961476, 0.961728, 0.961408, 0.960016, 0.960438, 0.960127, 0.959924, 0.959771, 0.958764, 0.959424, 0.960931, 0.960472, 0.963184, 0.961968, 0.961455, 0.962068, 0.962635, 0.962846, 0.95657, 0.956839, 0.958117, 0.956509, 0.956377, 0.956279, 0.956378, 0.958098, 0.958084, 0.952987, 0.952463, 0.949352, 0.950334, 0.948823, 0.94801, 0.946949, 0.9459, 0.950564, 0.950658, 0.949072, 0.949653, 0.948607, 0.949361, 0.950472, 0.950551, 0.941869, 0.940909, 0.940965, 0.938851, 1.02148, 0.930587, 0.929455, 0.925746, 0.92128, 0.921303, 0.918183, 0.918996, 0.918319, 0.914942, 0.912804, 0.91069, 1.10941, 0.950744, 0.908333, 0.908919, 0.910525, 0.908589, 0.907857, 0.904088, 0.904842, 0.901718, 0.946486, 0.918357, 0.948864, 0.897626, 0.89746, 0.897553, 0.895584, 0.895852, 0.897265, 0.897737, 0.899397, 0.900863, 0.899264, 0.897539, 0.894184, 0.894104, 0.893903, 0.896689, 0.894553, 0.893986, 0.897296, 0.949881, 0.929294, 0.929272, 0.870047, 0.871459, 0.870116, 0.869813, 0.869638, 0.870002, 0.870077, 0.866687, 0.863174, 0.863269, 0.856754, 0.849774, 0.852016, 0.849884, 0.84986, 0.903409, 0.904316, 0.907461, 0.9029, 0.910201, 1.12089, 0.877004, 0.894908, 0.888684, 0.887377, 0.882319, 0.885679, 0.883234, 0.882697, 0.882563, 0.880713, 0.880562, 1.11842, 0.912744, 0.998274, 0.979877, 0.884598, 0.914938, 0.886124, 0.88708, 0.899751, 0.879314, 0.879429, 0.882071, 0.882737, 0.883229, 0.883653, 0.883819, 0.884254, 0.884369, 0.883481, 0.88232, 0.88405, 0.884307, 0.884165
1.06097, 1.03675, 0.974954, 1.0113, 1.01552, 1.01066, 1.01153, 1.01262, 1.00564, 0.984933, 1.00186, 0.986644, 0.980425, 0.98658, 0.981928, 0.86511, 0.864157, 0.863499, 0.863227, 0.862902, 0.864083, 0.863682, 0.863524, 0.863335, 0.863158, 0.864671, 0.864694, 0.955248, 0.954785, 0.96766, 0.967663, 0.970358, 0.967196, 0.941197, 0.95053, 0.970108, 0.909148, 0.886778, 0.887397, 0.957012, 0.963277, 0.95315, 0.954482, 1.43664, 0.958986, 0.961594, 0.966368, 0.913287, 0.912396, 0.918203, 0.918872, 0.958654, 0.956121, 0.92397, 0.924618, 0.924277, 0.924326, 0.925233, 0.929216, 0.931669, 0.932571, 0.931758, 0.932795, 0.932083, 0.933348, 0.937371, 0.938325, 0.944036, 0.94414, 0.943954, 0.942376, 0.940165, 0.939067, 1.46015, 0.969836, 0.969995, 1.38052, 0.970689, 0.972169, 0.965279, 1.48467, 1.48425, 1.4683, 1.46814, 0.949423, 0.950374, 0.973514, 1.4153, 0.970264, 0.973808, 0.980068, 0.973751, 0.976384, 0.97593, 0.984932, 1.30668, 1.09528, 1.3118, 0.979636, 0.970297, 0.984583, 0.976002, 0.970495, 0.969722, 0.96729, 0.968146, 0.96646, 0.96693, 0.966385, 0.967988, 0.968725, 0.968656, 0.968777, 0.967666, 0.967338, 0.967422, 0.968813, 0.966389, 0.966149, 0.964834, 0.964158, 0.964476, 0.962305, 0.962469, 0.962001, 0.961141, 0.957423, 0.95946, 0.9594, 0.957845, 0.956592, 0.961252, 0.962574, 0.963367, 0.963119, 0.963447, 0.96165, 0.956705, 0.959534, 0.959304, 0.960034, 0.959947, 0.958546, 0.957285, 0.955776, 0.955067, 0.955422, 0.953059, 0.952517, 0.95236, 0.950139, 0.949427, 0.948929, 0.948232, 0.948959, 0.950333, 0.950479, 0.952496, 0.952736, 0.952787, 0.953239, 0.94965, 0.95005, 0.95284, 0.942478, 0.942196, 0.942439, 0.942483, 0.980998, 0.931566, 0.930445, 0.926109, 0.92556, 0.925275, 0.920501, 0.964919, 0.964881, 0.918543, 0.952434, 0.956498, 1.36117, 0.956449, 0.955902, 0.908492, 0.909633, 0.909391, 0.903971, 0.902834, 0.901983, 0.90245, 0.901414, 0.901792, 0.894556, 0.895545, 0.947055, 0.895354, 0.951404, 0.893639, 0.893692, 0.893837, 0.894216, 0.895226, 0.897513, 0.897321, 0.897533, 0.897806, 0.896539, 0.895216, 0.895377, 0.895156, 0.894633, 0.924676, 0.918672, 0.928208, 0.929744, 0.921157, 0.867466, 0.869184, 0.869749, 0.869602, 0.869002, 0.868609, 0.866153, 0.866106, 0.86132, 0.861237, 0.849017, 0.849387, 0.850427, 0.848545, 0.846655, 0.846528, 0.908137, 1.92865, 0.90197, 0.893884, 0.907423, 0.888957, 0.900796, 0.890506, 0.88673, 0.887154, 0.88009, 0.88041, 0.877281, 0.877519, 0.880195, 0.915034, 1.1017, 0.914947, 0.895094, 0.883442, 0.883071, 0.923891, 0.878098, 0.878685, 0.880215, 0.879884, 0.881099, 0.881396, 0.880526, 0.881754, 0.882432, 0.883343, 0.883779, 0.883766, 0.882415, 0.88357, 0.882668, 0.883281
1.07045, 1.08708, 1.01202, 1.01124, 1.00864, 1.00513, 1.07771, 1.00167, 0.990576, 0.992076, 0.971162, 0.98472, 0.954513, 0.953765, 0.951788, 0.951669, 0.863424, 0.862639, 0.862617, 0.862555, 0.862417, 0.863001, 0.862699, 0.863074, 0.862829, 0.862941, 0.863376, 0.863482, 0.928495, 0.928473, 0.968193, 0.954396, 0.956667, 0.967276, 0.958526, 0.959808, 0.971267, 0.977401, 0.971092, 0.890031, 0.888531, 0.890179, 0.887122, 0.887622, 0.887197, 0.957801, 0.967788, 1.33359, 1.35172, 0.918911, 0.919268, 0.919534, 0.921456, 0.921475, 0.924407, 0.92479, 0.924963, 1.40241, 1.37867, 0.930175, 0.929703, 0.930126, 0.931541, 0.931587, 0.933844, 0.934301, 0.93499, 0.939361, 0.942715, 0.942463, 0.942186, 0.942201, 0.936606, 0.934586, 0.93385, 0.932814, 0.933921, 1.43017, 1.4303, 1.45784, 1.41301, 1.39523, 0.980442, 0.976594, 0.977905, 1.14239, 1.50593, 0.974367, 1.20381, 1.27802, 0.984431, 0.984324, 0.983029, 0.988318, 1.09406, 1.05236, 0.989054, 0.990643, 0.989134, 0.988998, 0.982783, 0.985877, 0.98756, 0.984683, 0.987196, 0.981311, 0.965236, 0.965912, 0.965709, 0.967169, 0.977314, 0.977085, 0.985193, 0.987781, 0.991989, 1.63822, 0.964593, 0.964818, 0.964863, 0.965006, 0.965001, 0.963914, 0.96274, 0.960937, 0.961315, 0.96143, 0.961044, 0.960442, 0.959394, 0.961472, 0.962625, 0.962518, 0.963701, 0.962913, 0.962758, 0.961198, 0.959771, 0.959201, 0.959573, 0.959495, 0.960032, 0.959859, 0.958497, 0.956981, 0.955736, 0.955741, 0.955048, 0.954239, 0.954521, 0.953639, 0.949316, 0.950286, 0.950469, 0.947263, 0.951071, 0.952052, 0.952533, 0.953485, 0.954371, 0.958759, 0.954854, 0.952635, 0.948024, 0.945903, 0.944388, 0.943423, 0.945075, 0.943144, 0.970389, 0.934963, 0.931832, 0.929088, 0.927579, 0.926984, 0.979479, 0.984902, 0.970979, 1.06716, 0.963721, 0.941275, 0.957439, 0.96608, 0.910677, 0.910935, 0.911152, 0.905297, 0.905324, 0.90292, 0.902293, 0.900598, 0.898738, 0.897198, 0.896542, 0.89566, 0.891169, 0.889354, 0.891375, 0.890989, 0.892211, 0.891497, 0.891365, 0.890834, 0.896337, 0.896502, 0.897059, 0.897147, 0.897133, 0.896785, 0.896275, 0.895198, 0.915566, 0.890207, 0.912908, 0.936607, 0.915799, 0.914942, 0.948222, 0.868411, 0.868452, 0.869493, 0.868367, 0.866774, 0.865393, 0.863046, 0.861189, 0.861088, 0.858752, 0.853913, 0.848954, 0.850241, 0.846826, 0.846989, 0.845924, 0.844189, 0.844099, 0.844529, 0.899404, 0.898974, 0.900969, 0.901568, 0.899301, 0.910887, 0.876887, 0.878351, 0.876921, 0.876514, 0.871391, 0.872986, 0.8755, 0.887641, 0.895732, 0.896123, 0.87384, 0.876741, 0.878748, 0.879285, 0.878311, 0.879864, 0.879833, 0.879117, 0.879595, 0.878986, 0.882149, 0.880315, 0.879842, 0.878201, 0.879921, 0.880685, 0.883359, 0.882605
1.06629, 1.04917, 1.05019, 1.00779, 1.00565, 1.00738, 0.999243, 0.994242, 0.994523, 1.00094, 0.996289, 0.991224, 0.986134, 0.977503, 0.95215, 0.864915, 0.862841, 0.862545, 0.862058, 0.861829, 0.861623, 0.86171, 0.862037, 0.86215, 0.86275, 0.862795, 0.863525, 0.86281, 0.86322, 0.970568, 0.936095, 0.93643, 0.966484, 0.969284, 0.959176, 0.956247, 0.955088, 0.95444, 0.887969, 0.889742, 0.885383, 0.885874, 0.88678, 0.887204, 0.887332, 0.887083, 0.888529, 1.44836, 0.960743, 0.946954, 0.94979, 0.915568, 0.91605, 0.918173, 0.922903, 0.92386, 0.923845, 0.923981, 1.40979, 1.37765, 0.928096, 0.928775, 0.929244, 0.930772, 0.934325, 0.932267, 0.932228, 0.9353, 0.935841, 0.939802, 0.942319, 0.93662, 0.936442, 0.935596, 0.935298, 0.933972, 0.933244, 0.936209, 0.935311, 0.936989, 0.939009, 0.977746, 0.942792, 0.965096, 0.979159, 1.51437, 1.50582, 0.97712, 0.983729, 0.981124, 0.98193, 0.945019, 0.946395, 0.983067, 0.94582, 0.948919, 0.949093, 0.983731, 0.992023, 0.986506, 0.9824, 0.988714, 0.961772, 0.994307, 0.994842, 0.992529, 0.96308, 0.963556, 0.964129, 1.00084, 1.00013, 1.19932, 1.01611, 1.0175, 1.00605, 0.998107, 0.964956, 0.964177, 0.963355, 0.963601, 0.963742, 0.963462, 0.962955, 0.962766, 0.962112, 0.961727, 0.962076, 0.9642, 0.962859, 0.963005, 0.96373, 0.964523, 0.964942, 0.964695, 0.963861, 0.961766, 0.959609, 0.959207, 0.959555, 0.95967, 0.957609, 0.957887, 0.958606, 0.95973, 0.956109, 0.956493, 0.956224, 0.956421, 0.955809, 0.980464, 0.953004, 0.952875, 0.952747, 0.952217, 0.955072, 0.954246, 1.09208, 0.956208, 0.955878, 0.956027, 0.954331, 0.953139, 0.952899, 0.947603, 0.946421, 0.946546, 0.946089, 1.0536, 1.00104, 0.994544, 0.993293, 0.992717, 1.01031, 0.975697, 0.967159, 0.953712, 0.922043, 0.921216, 0.9191, 0.920519, 0.917847, 0.917834, 0.914892, 0.967056, 0.911076, 0.911177, 0.901661, 0.902744, 0.902104, 0.901491, 0.900821, 0.90032, 0.90011, 0.894166, 0.892819, 0.891796, 0.889003, 0.890289, 0.890651, 0.893983, 0.892371, 0.892481, 0.892756, 0.895391, 0.894977, 0.895935, 0.896279, 0.895967, 0.896042, 0.893727, 0.890719, 0.921337, 0.882466, 0.884624, 0.884164, 0.879777, 0.880095, 0.939611, 0.866979, 0.867934, 0.866377, 0.866667, 0.866288, 0.865725, 0.860434, 0.860943, 0.859691, 0.855024, 0.855777, 0.850797, 0.851078, 0.848534, 0.849412, 0.845416, 0.845754, 0.845382, 0.846013, 0.962287, 0.849957, 0.849813, 0.966085, 0.898054, 0.890417, 0.983282, 1.05996, 0.887226, 0.866801, 0.86698, 1.98247, 0.887881, 0.870103, 0.872803, 0.875382, 0.876507, 0.894255, 0.875913, 0.875995, 0.873881, 0.876451, 0.877927, 0.87793, 0.879307, 0.879239, 0.88071, 0.880547, 0.880248, 0.881105, 0.879867, 0.882441, 0.883593
1.00906, 1.08751, 1.00276, 1.03304, 1.07334, 0.996672, 1.00657, 1.08238, 1.00235, 0.999958, 1.00817, 0.871926, 0.870344, 0.869638, 0.964613, 0.985062, 0.86262, 0.86192, 0.861282, 0.86088, 0.860693, 0.860405, 0.860433, 0.966349, 0.966282, 0.861988, 0.861593, 0.861891, 0.970485, 0.949684, 0.939262, 0.936629, 0.941884, 0.942095, 0.942734, 0.956325, 0.953239, 0.953678, 0.965014, 0.960763, 0.971736, 0.924565, 0.889848, 0.889938, 0.890049, 0.889809, 0.888826, 0.98672, 0.984601, 1.31191, 0.977859, 1.37172, 0.96681, 0.918405, 0.918188, 0.924951, 0.924771, 0.924617, 0.924375, 0.962891, 0.958064, 1.40522, 0.967456, 0.932021, 0.932634, 0.932851, 0.930788, 0.929917, 0.929087, 0.937944, 0.93631, 0.936911, 0.937551, 0.936197, 0.937661, 0.936907, 0.938552, 0.938827, 0.936864, 0.936843, 0.93716, 0.937189, 0.940711, 0.941854, 0.943012, 1.41553, 1.50621, 0.944888, 0.946411, 0.943682, 0.943873, 0.944406, 0.943484, 0.946789, 0.945818, 0.947697, 0.985231, 1.41965, 1.41979, 1.12578, 1.0397, 1.129, 1.12921, 1.05744, 0.998143, 1.25742, 0.963628, 0.963733, 1.00864, 1.01259, 1.00146, 1.01588, 1.0056, 1.00722, 1.21073, 1.08033, 0.963009, 0.962836, 1.31984, 0.961302, 0.963767, 0.961497, 0.961322, 0.961951, 0.962992, 0.963203, 0.964509, 0.963882, 0.965253, 0.965459, 0.966232, 0.966147, 0.965923, 0.964617, 0.96139, 0.961498, 0.961347, 0.961354, 0.961857, 0.9609, 0.956824, 0.956941, 0.959037, 0.957773, 0.958036, 0.957038, 0.959284, 0.959581, 0.958602, 0.951538, 0.952502, 0.953135, 0.954078, 0.954899, 0.956373, 0.959906, 0.960609, 0.958503, 0.958671, 0.956633, 0.956308, 0.955819, 0.954037, 0.951079, 0.951639, 0.947114, 0.997402, 1.06466, 1.06948, 0.995239, 0.990991, 0.991366, 1.09162, 1.09273, 0.997626, 0.923084, 0.922268, 0.921686, 0.921369, 0.921422, 0.921814, 1.1124, 0.981404, 0.98045, 0.966707, 0.91245, 0.965925, 0.966475, 0.973028, 0.904553, 0.903373, 0.899658, 0.900017, 0.895895, 0.897495, 0.893901, 0.89146, 0.890154, 0.889471, 0.891935, 0.891501, 0.893904, 0.893787, 0.894728, 0.894215, 0.892934, 0.895009, 0.893005, 0.893779, 0.890875, 0.890183, 0.89035, 0.88438, 0.88503, 0.882153, 0.883011, 0.943246, 0.941428, 0.943633, 0.862292, 0.864577, 0.865133, 0.865846, 0.866203, 0.864813, 0.86324, 0.861495, 0.860476, 0.925991, 0.850858, 0.852169, 0.849661, 0.8507, 0.851178, 0.849349, 0.849654, 0.848696, 0.849133, 0.850223, 0.852248, 0.852832, 0.854208, 0.909217, 0.90731, 0.90429, 1.0889, 0.866177, 0.867236, 1.1879, 0.868354, 0.869847, 0.871491, 1.13916, 0.868626, 0.864119, 0.864601, 1.31963, 0.872167, 0.872722, 0.875435, 0.876755, 0.876971, 0.876805, 0.878474, 0.879688, 0.880015, 0.877264, 0.878497, 0.87923, 0.879897
1.07468, 1.04371, 1.06758, 1.08708, 1.04375, 1.04454, 1.0026, 1.00571, 0.991878, 1.00839, 1.06322, 0.873085, 0.870106, 0.869319, 1.00221, 0.960225, 1.00145, 0.861108, 0.860448, 0.859971, 0.859656, 0.85942, 0.859381, 0.859932, 0.983645, 0.860189, 0.861487, 0.93879, 0.939533, 0.862949, 0.946714, 0.931709, 0.939716, 0.97407, 0.974672, 0.963771, 0.958971, 0.972954, 0.960779, 0.971727, 0.926419, 0.927001, 0.925875, 0.961953, 0.891326, 0.891475, 0.892666, 0.899287, 0.97226, 1.36357, 0.973919, 0.974249, 0.96819, 0.968571, 0.96782, 1.30527, 1.3967, 1.2769, 1.31924, 1.32127, 0.924835, 0.926205, 0.926909, 1.07432, 0.931199, 0.930206, 1.20795, 0.929931, 0.929659, 1.40128, 0.937219, 0.93941, 0.938517, 0.93758, 0.938419, 0.93883, 0.938573, 0.938874, 0.937518, 0.937743, 0.938077, 0.937574, 0.942439, 0.941891, 0.942117, 0.942845, 0.944412, 0.945812, 0.945536, 0.945483, 0.944239, 0.93858, 0.943316, 0.944096, 0.945551, 0.945508, 0.945865, 0.945846, 0.946786, 0.946525, 0.947208, 1.42453, 0.953891, 1.015, 1.17728, 1.12779, 1.18869, 1.18915, 1.01715, 1.01679, 1.09053, 1.01494, 1.0137, 1.01181, 0.956304, 1.00872, 0.959604, 0.960523, 0.961085, 0.961396, 0.96254, 0.963395, 0.965063, 0.965619, 0.965291, 0.964731, 0.96609, 0.965277, 0.96618, 0.966278, 0.966531, 0.964836, 0.963096, 0.962792, 0.961822, 0.961888, 0.959383, 0.959148, 0.959082, 0.959398, 0.959218, 0.960167, 0.959663, 0.959567, 0.961277, 0.961699, 0.962696, 0.960356, 0.959239, 0.955146, 0.95251, 0.951735, 0.953125, 1.01583, 0.955026, 0.957244, 0.95928, 0.957714, 0.957593, 0.956808, 0.956218, 0.955185, 0.991533, 0.952236, 0.952099, 0.998235, 0.998687, 0.999469, 1.16089, 1.00429, 0.970276, 1.00518, 1.00533, 1.00457, 0.924711, 0.923481, 0.922766, 0.922173, 0.922122, 0.921764, 0.921683, 0.920753, 0.963997, 0.98145, 0.912915, 0.912721, 0.912737, 0.913405, 0.912457, 0.912366, 0.911739, 0.898757, 0.982179, 0.980849, 0.899226, 0.991858, 0.893973, 0.894885, 0.89252, 0.89313, 0.894509, 0.895084, 0.891979, 0.893176, 0.893949, 0.895414, 0.894647, 0.894181, 0.89467, 0.888672, 0.889503, 0.984511, 0.889585, 0.887123, 0.883363, 0.882009, 0.880832, 0.881437, 0.880385, 0.939791, 0.938213, 0.865688, 0.866205, 0.865424, 0.865187, 0.86301, 0.861646, 0.862475, 0.86165, 0.859516, 0.858749, 0.854096, 0.854335, 0.853706, 0.852889, 0.851588, 0.851514, 0.850036, 0.850339, 0.851042, 0.849967, 0.853922, 0.85364, 0.853381, 0.853307, 0.8508, 1.06445, 0.855191, 0.856436, 0.858142, 0.860928, 1.05744, 0.863837, 0.86184, 0.864844, 0.866138, 0.932318, 1.08802, 1.08869, 0.935674, 0.936083, 0.935726, 0.873648, 0.8745, 0.875266, 0.876444, 0.877207, 0.878215, 0.879418, 0.879872
1.06763, 1.06856, 1.04008, 1.08311, 1.08359, 1.05848, 1.03963, 1.04242, 1.07723, 1.02139, 1.01357, 0.872229, 0.86962, 0.868854, 0.866777, 0.865924, 1.00182, 0.860592, 0.859853, 0.859324, 0.859106, 0.859137, 0.859106, 0.859043, 0.858851, 0.859278, 0.976856, 0.860194, 0.988032, 1.13667, 0.980448, 0.962807, 0.971393, 0.938749, 0.939631, 0.939436, 0.984809, 0.945731, 0.943056, 0.946206, 0.964011, 0.966892, 0.950338, 1.28328, 1.43372, 1.28403, 1.28458, 0.899051, 0.902916, 0.907553, 0.90836, 1.36473, 0.916829, 0.91763, 0.918041, 0.918881, 0.968596, 1.3136, 1.31286, 1.35842, 0.924716, 0.925089, 0.925159, 0.92481, 0.924705, 1.0063, 1.00697, 0.928256, 0.928206, 1.00888, 1.3117, 0.931138, 0.93271, 0.936656, 0.937094, 0.937832, 1.39686, 1.2151, 0.939946, 0.938522, 0.938537, 0.94024, 0.940512, 0.942197, 0.942149, 1.39585, 1.39567, 1.3945, 0.945832, 0.945702, 0.944209, 0.937649, 1.11756, 0.944066, 0.946507, 0.945854, 0.945736, 0.946489, 0.947673, 0.948412, 1.13046, 1.06037, 0.9491, 0.949847, 0.950945, 0.952861, 0.952713, 0.95253, 0.953464, 0.953674, 0.953327, 0.952722, 0.952145, 0.954586, 0.956042, 0.958174, 0.959671, 0.960151, 0.960331, 0.962958, 0.963673, 0.964413, 0.965582, 0.965221, 0.964743, 0.964572, 0.965385, 0.965002, 0.964483, 0.964325, 0.964409, 0.962905, 0.961768, 0.962361, 0.960561, 0.961045, 0.960107, 0.959795, 0.959457, 0.9587, 0.962688, 0.963789, 0.962776, 0.963085, 0.963406, 0.964169, 0.963654, 0.956385, 0.956698, 0.954931, 0.950579, 0.952656, 0.952628, 0.950555, 0.956077, 0.957549, 0.958506, 0.958392, 0.957286, 0.955884, 0.955878, 0.992204, 0.994651, 0.99771, 0.990758, 0.995951, 1.20321, 0.991884, 1.14647, 0.976074, 1.00479, 1.00455, 0.967965, 1.04883, 0.992771, 0.923019, 0.922348, 0.921638, 0.921292, 0.921383, 0.920948, 0.920624, 0.987738, 0.916977, 0.917178, 0.914459, 0.913466, 0.91455, 0.915219, 0.911689, 0.911061, 0.91082, 0.904005, 0.903639, 0.90277, 0.90306, 0.896546, 0.896036, 0.896396, 0.893995, 0.892354, 0.94954, 0.894122, 0.895013, 0.895799, 0.896154, 0.895724, 0.895394, 0.89518, 0.894776, 0.893687, 0.890731, 0.889185, 0.890096, 0.888217, 0.887785, 0.880659, 0.881191, 0.956052, 0.960067, 0.938185, 0.908061, 0.86351, 0.864325, 0.864238, 0.862651, 0.861624, 0.861741, 0.937638, 0.945632, 0.864041, 0.862576, 0.862184, 0.862725, 0.852625, 0.85299, 0.853014, 0.852072, 0.850251, 0.852442, 0.851528, 0.852248, 0.852299, 0.852479, 0.852232, 0.851956, 0.850536, 0.847764, 0.847748, 0.848746, 0.851475, 0.85326, 0.853385, 0.853508, 0.855249, 0.85587, 0.853113, 0.854307, 0.85661, 0.862971, 0.85978, 0.931971, 0.873144, 0.87337, 0.875633, 0.87597, 0.875597, 0.867814, 0.871009, 0.876764
1.06032, 1.04102, 1.03947, 1.283, 1.04336, 1.00127, 1.0385, 1.06493, 1.03786, 1.04021, 1.06196, 1.0716, 0.869796, 0.868793, 0.8674, 0.866364, 0.862544, 0.860403, 0.859599, 0.859251, 0.859041, 0.858857, 0.858562, 0.858448, 0.858324, 0.857925, 0.99634, 0.982191, 0.981801, 0.977963, 0.975524, 0.979221, 0.997608, 0.983191, 0.99404, 0.9735, 0.990968, 0.983692, 0.966757, 0.97168, 0.973388, 0.970815, 0.956347, 1.42038, 1.42039, 1.2845, 1.20312, 1.31153, 1.37236, 0.909623, 0.91024, 0.915344, 0.918008, 0.918353, 0.918624, 0.918301, 0.918439, 0.917882, 1.35678, 1.35892, 1.38857, 1.00114, 0.924608, 0.924973, 0.923738, 0.923563, 0.925748, 0.925263, 1.01235, 1.0112, 0.988435, 1.37255, 0.932025, 1.39504, 0.990862, 1.41243, 0.984307, 1.21723, 0.98376, 0.997448, 0.937624, 0.939128, 0.941701, 0.942088, 1.01691, 0.939106, 1.48895, 1.35638, 1.35689, 0.944131, 0.942489, 0.942617, 1.00307, 1.38147, 0.946088, 0.946433, 1.01194, 1.01122, 0.94712, 1.0073, 0.978494, 0.978469, 0.95775, 0.957465, 0.95404, 0.956114, 0.95597, 0.954139, 0.954329, 0.955217, 0.952882, 0.952294, 0.951935, 0.951182, 0.951727, 0.952182, 1.01208, 1.01486, 1.01695, 1.0124, 0.96307, 0.964078, 0.964488, 0.964443, 0.964195, 0.964374, 0.964415, 0.964643, 0.965224, 0.96604, 0.965261, 0.964769, 0.967773, 0.968062, 0.987981, 0.981956, 0.959466, 0.959931, 0.957245, 0.95952, 0.962965, 0.963904, 0.961497, 0.962462, 0.961689, 0.960747, 0.957783, 0.956361, 0.957931, 0.955929, 0.956177, 1.04873, 0.998638, 1.02605, 1.02303, 0.956239, 0.95769, 0.958014, 0.956935, 0.955826, 0.95442, 0.992506, 0.990384, 0.997177, 0.998515, 1.19437, 0.989484, 1.51269, 0.980611, 1.00107, 1.00317, 1.00409, 0.925827, 0.925013, 0.966878, 0.974031, 0.920959, 0.920494, 0.920876, 0.920784, 0.920389, 0.921836, 0.920579, 0.917613, 0.917839, 0.916813, 0.980213, 0.916763, 0.918105, 0.917195, 0.912744, 0.912347, 0.90398, 0.905384, 0.904645, 0.963888, 0.902041, 0.898075, 0.897331, 0.891097, 0.893893, 0.894812, 0.895541, 0.896906, 0.897238, 0.897931, 0.898031, 0.896469, 0.896185, 0.896177, 0.894441, 0.891761, 0.891229, 0.891684, 0.890248, 0.890348, 0.888853, 0.938576, 0.948529, 0.953646, 0.936448, 0.879761, 0.933958, 0.916038, 0.935462, 0.936274, 0.939597, 0.947983, 0.946675, 0.870459, 0.945652, 0.863444, 0.863354, 0.862764, 0.863383, 0.863655, 0.95201, 0.852953, 0.855704, 0.854371, 0.850652, 0.855417, 0.857119, 0.853254, 0.853382, 0.852503, 0.850207, 0.848882, 0.849358, 0.848838, 0.850477, 0.852306, 0.852901, 0.854807, 0.853767, 0.85477, 0.854438, 0.854457, 0.856809, 0.859067, 0.859591, 0.860101, 0.863382, 0.864807, 0.863763, 0.865349, 0.867871, 0.868816, 0.869631, 0.86797
1.04411, 1.06933, 1.06574, 1.04723, 1.00397, 1.06576, 1.06352, 1.01001, 1.05015, 1.0122, 1.01793, 1.03073, 1.07029, 1.03272, 0.866662, 0.866478, 1.08822, 0.86017, 0.859276, 0.85895, 0.858468, 0.85826, 0.858075, 0.857933, 0.857803, 0.857706, 0.857401, 1.01564, 0.983132, 0.998079, 1.00508, 0.859996, 0.997823, 0.984113, 0.970038, 0.97745, 0.979948, 0.867468, 0.959579, 0.981648, 0.873732, 0.978149, 0.980227, 1.26502, 1.26438, 1.20954, 1.19607, 1.1991, 0.98697, 0.911117, 0.914485, 0.916275, 0.918225, 0.918322, 0.918497, 0.917598, 0.918555, 0.917175, 0.913283, 1.35865, 1.29881, 1.39833, 1.36079, 1.36129, 1.34278, 0.924807, 0.925445, 1.00678, 1.39652, 0.985691, 0.986074, 0.990646, 0.991931, 0.983621, 0.983798, 0.993568, 1.21453, 1.21839, 1.22182, 1.42073, 1.42645, 1.01071, 1.01208, 1.46744, 0.940069, 0.943036, 0.939125, 1.01622, 0.942656, 0.942859, 0.942567, 1.01913, 1.01929, 0.998397, 1.0083, 1.01087, 1.00841, 1.00173, 0.99592, 0.951072, 1.00564, 0.95653, 0.957609, 0.957616, 0.956469, 0.955656, 0.955761, 0.955048, 0.9544, 1.00162, 1.0179, 1.01708, 0.959561, 0.994494, 0.952504, 0.952342, 1.00468, 1.01634, 1.00128, 1.53493, 1.53476, 0.963107, 0.963628, 0.964174, 0.964069, 0.964418, 0.963488, 0.962728, 0.962964, 0.965156, 0.96661, 0.966981, 0.968553, 0.96825, 0.968869, 1.00287, 0.959875, 0.959443, 0.959024, 0.960635, 0.961391, 0.961716, 0.963699, 0.962128, 0.963764, 0.961497, 0.962031, 1.00579, 0.962672, 0.962523, 0.963181, 0.964809, 1.11189, 0.987867, 0.960249, 0.958038, 0.958408, 0.957497, 0.956888, 1.00065, 0.953449, 0.953277, 0.991485, 1.00201, 0.991402, 0.996865, 0.991868, 0.994305, 0.983658, 0.981998, 1.00474, 1.00469, 0.921313, 0.921302, 0.921126, 0.920495, 0.917812, 0.917893, 0.921378, 0.921831, 0.921246, 0.921559, 0.921944, 0.918066, 0.918177, 0.917941, 0.981905, 0.91674, 0.917939, 0.917939, 0.915322, 0.913966, 0.907798, 0.906404, 0.905681, 0.904864, 0.903853, 0.901128, 0.900472, 0.891756, 0.895445, 0.895973, 0.896517, 0.89746, 0.898591, 0.898825, 0.898277, 0.897278, 0.897256, 0.897073, 0.975163, 0.892202, 0.891698, 0.89128, 0.891224, 0.889066, 0.888326, 0.888268, 0.887737, 0.907919, 0.96076, 0.932962, 0.931287, 0.930901, 0.915224, 0.937777, 0.939887, 0.874694, 0.874256, 0.873278, 0.873054, 0.946076, 0.861778, 0.863163, 0.864015, 0.863287, 0.863643, 0.862113, 0.860811, 0.861638, 0.861969, 0.860573, 0.860728, 0.860477, 0.857657, 0.86002, 0.856987, 0.856391, 1.08605, 0.849651, 0.852955, 0.852995, 0.854366, 0.941444, 0.852535, 0.855531, 0.854923, 0.857786, 0.856358, 0.857213, 0.857627, 0.859441, 0.861713, 0.863357, 0.863954, 0.865654, 0.864563, 0.866549, 0.866483, 0.869309
1.0404, 1.06939, 1.15603, 1.03938, 1.06733, 1.1004, 1.03065, 1.01369, 0.992832, 0.999088, 1.01911, 1.01514, 1.03509, 1.0356, 1.03597, 1.08662, 1.04924, 1.02373, 0.858906, 0.858245, 0.85786, 0.857667, 0.857505, 0.857406, 0.857379, 0.857254, 0.857077, 0.856579, 1.02386, 1.02488, 1.02526, 1.03227, 1.01051, 0.992142, 1.1536, 0.986205, 1.19737, 0.985687, 0.978357, 0.980193, 1.04727, 1.02691, 0.97982, 0.97473, 0.973464, 1.01945, 0.973836, 1.06517, 0.980954, 0.909788, 0.914214, 0.914732, 0.917322, 0.913695, 0.91439, 0.913795, 0.910803, 0.910971, 0.911674, 0.910095, 0.91416, 0.974157, 0.976573, 1.1225, 1.39467, 1.27818, 0.983582, 1.00519, 1.00509, 0.987687, 0.986538, 1.37037, 0.980063, 0.980105, 1.23249, 1.42333, 1.40311, 0.996842, 0.997767, 0.997357, 1.01185, 1.01229, 1.01209, 1.01242, 0.957001, 1.06651, 0.992803, 1.01981, 1.01273, 1.01838, 0.995983, 0.999357, 1.11533, 1.00127, 1.00135, 0.949056, 1.00917, 1.00424, 1.00582, 0.954461, 0.957502, 1.01559, 0.959529, 0.96062, 0.959659, 0.959263, 0.956815, 0.99992, 1.01913, 1.01852, 1.01738, 1.01804, 0.950851, 0.946115, 0.946785, 0.95211, 0.952837, 1.01804, 1.01222, 1.01945, 1.01931, 0.96209, 0.963084, 0.962763, 0.962679, 0.962943, 0.963147, 0.96276, 1.02849, 1.02902, 0.966648, 0.969074, 0.969647, 0.969694, 1.02256, 1.02395, 1.05134, 1.0529, 1.01892, 0.960291, 0.961064, 0.9659, 0.966564, 0.966453, 0.966066, 0.965016, 0.964634, 0.964894, 0.966642, 0.966345, 0.964644, 0.964859, 0.964695, 0.961437, 0.961508, 0.96303, 0.99529, 1.00233, 0.975669, 1.00031, 1.00053, 0.9923, 0.950685, 0.948047, 0.948018, 0.952391, 1.34753, 1.35, 1.01008, 0.922437, 0.92189, 0.922202, 0.922202, 0.922533, 0.921987, 0.989817, 0.917506, 0.918809, 0.919599, 0.981566, 0.920578, 0.919473, 0.998747, 0.999513, 1.42446, 0.979796, 0.987965, 0.921554, 0.918197, 0.917868, 0.917962, 0.956609, 0.909943, 0.908077, 0.906202, 0.90574, 0.901307, 0.900916, 0.899057, 0.899367, 0.897288, 0.897175, 0.897168, 0.897818, 0.899149, 0.899503, 0.898733, 0.897856, 0.897292, 0.968633, 0.963203, 0.890867, 0.890583, 0.889516, 0.890148, 0.889882, 0.889252, 0.88772, 0.888088, 0.888669, 0.888247, 0.933108, 0.922328, 0.929985, 0.929276, 0.879758, 0.878423, 0.880164, 0.87698, 0.877973, 0.87313, 0.872627, 0.870885, 0.871238, 0.863249, 0.865318, 0.864752, 0.863762, 0.862955, 0.863194, 0.861071, 0.860886, 0.861577, 0.860808, 0.861158, 0.860074, 0.86035, 0.859221, 0.859975, 0.859726, 0.860038, 0.854594, 0.853766, 0.855165, 0.856365, 0.856949, 0.858537, 0.857505, 0.856023, 0.855911, 0.855904, 0.858148, 0.860217, 0.862728, 0.864223, 0.866127, 0.866142, 0.865277, 0.866547, 0.869773
1.01225, 0.973981, 1.06423, 1.06996, 1.01479, 1.01562, 1.01685, 0.963404, 1.03741, 1.0363, 1.03799, 1.07211, 1.02612, 1.01422, 1.0073, 1.00503, 0.991076, 1.01331, 0.860128, 0.857759, 0.857221, 0.857015, 0.856928, 0.856838, 0.856914, 0.856925, 0.856851, 0.856627, 0.856342, 1.01014, 0.998423, 1.01546, 0.991059, 0.989243, 0.99404, 0.978001, 1.00761, 0.966595, 0.978124, 0.97938, 1.03189, 0.956255, 1.06597, 1.06663, 1.06625, 1.00166, 0.984041, 0.978236, 0.984101, 1.22541, 0.993868, 1.1649, 0.984771, 0.913513, 0.914852, 0.912095, 0.911111, 0.910689, 0.910909, 0.908719, 0.90903, 0.908011, 0.908173, 0.908694, 0.977787, 1.34783, 0.994558, 0.979512, 1.00543, 0.986615, 0.98765, 1.37767, 0.977601, 1.00196, 0.999359, 0.9995, 1.02949, 1.01229, 0.999149, 0.997889, 1.01151, 1.01314, 1.01175, 1.01164, 1.00644, 0.967656, 1.00845, 1.01856, 1.01093, 0.997983, 1.01503, 1.00835, 1.00989, 0.947531, 0.950126, 0.949329, 0.950113, 1.02006, 0.956475, 0.957228, 0.956768, 0.957973, 0.960616, 0.960209, 0.96004, 0.958937, 1.21827, 1.01725, 0.989305, 1.02148, 0.991733, 0.944384, 0.944674, 0.949393, 0.948014, 0.998255, 1.01888, 1.0166, 1.02498, 1.0319, 0.961208, 0.963088, 0.963451, 0.961271, 0.961291, 0.961864, 0.961528, 1.00605, 1.02578, 1.0314, 1.02548, 0.970124, 0.969683, 0.969992, 1.02579, 1.02997, 1.02154, 1.02249, 1.27558, 0.987121, 1.36837, 0.966728, 0.967749, 0.967867, 0.967469, 0.967234, 0.968197, 0.96889, 0.967592, 0.966415, 0.966821, 0.963389, 0.962824, 0.96242, 0.962877, 1.31683, 0.975107, 0.996515, 1.23572, 1.23571, 0.995562, 0.999711, 0.946552, 0.947406, 0.949066, 0.998273, 0.934469, 0.987783, 1.009, 0.924549, 0.923325, 0.922404, 1.00587, 0.988514, 1.00128, 0.992693, 0.968378, 0.990791, 1.46946, 1.47018, 0.922685, 0.922542, 0.922455, 0.922922, 0.923896, 0.922751, 0.920544, 0.921007, 0.919716, 0.918006, 0.918919, 0.9747, 0.974352, 0.9605, 0.903189, 0.903294, 0.903221, 0.898696, 0.898687, 0.899388, 0.897213, 0.896289, 0.897208, 0.89712, 0.898386, 0.898928, 0.896466, 0.896865, 0.894593, 0.892017, 0.889506, 0.884442, 0.884064, 0.887349, 0.887161, 0.887735, 0.88751, 0.88879, 0.888961, 0.888328, 0.887434, 0.887452, 0.942094, 0.9354, 0.893194, 0.880913, 0.880215, 0.880283, 0.880322, 0.880585, 0.876001, 0.873018, 0.873193, 0.87073, 0.869651, 0.869965, 0.868987, 0.866696, 0.866276, 0.864234, 0.864839, 0.863294, 0.861931, 0.862109, 0.86131, 0.860355, 0.863322, 0.861391, 0.860665, 0.861554, 0.86263, 0.862715, 0.861157, 0.856787, 0.858562, 0.858515, 0.85819, 0.858104, 0.853957, 0.853392, 1.10566, 0.934212, 0.935224, 0.862789, 0.864696, 0.866213, 0.868903, 0.870019, 0.869425, 0.869972
1.03954, 1.18388, 1.10467, 1.10578, 1.01761, 1.03248, 1.00161, 1.00555, 1.04158, 1.04171, 1.0552, 1.05336, 1.20496, 1.16073, 1.01536, 1.07059, 1.14033, 1.01551, 0.995705, 0.857827, 0.856811, 0.856476, 0.856407, 0.856318, 0.856401, 0.856607, 0.856632, 0.856527, 0.856557, 0.856112, 0.991148, 1.01614, 1.01119, 1.01169, 1.04364, 1.04332, 0.86327, 0.985141, 0.984504, 1.03852, 0.871473, 0.982206, 0.978106, 1.19158, 0.973028, 0.880751, 0.976018, 0.981281, 0.982931, 0.974982, 0.973393, 0.991905, 0.991157, 0.98489, 0.991589, 1.06436, 0.987875, 0.911588, 0.909051, 0.909183, 0.908611, 0.908276, 0.907961, 0.908398, 0.907344, 0.906438, 0.981513, 0.977628, 0.987776, 1.00654, 1.0061, 1.01116, 1.00901, 1.00789, 1.00494, 1.00557, 1.13746, 1.13784, 1.0111, 1.01134, 1.01145, 1.01403, 1.01089, 0.994378, 1.00972, 1.00959, 1.009, 0.98896, 0.94429, 0.946042, 0.946049, 0.946741, 1.12668, 0.948415, 0.94892, 0.949498, 1.00232, 1.0147, 0.957103, 0.957835, 0.957936, 1.19232, 1.19888, 1.01873, 1.01201, 0.955052, 0.954693, 0.952513, 1.02201, 0.990171, 1.25778, 1.01205, 0.945147, 0.981187, 0.953546, 0.952833, 1.13707, 0.989752, 1.0201, 1.01345, 1.03182, 1.02843, 1.02226, 1.02577, 0.961878, 0.963022, 0.962976, 0.96336, 1.02508, 1.03404, 1.02036, 0.973135, 0.973652, 1.03219, 0.967113, 0.967063, 1.32204, 1.27557, 1.04439, 1.02043, 1.01941, 1.04044, 1.02586, 0.971337, 1.0459, 0.970382, 0.970255, 0.970867, 1.01168, 0.966037, 1.01092, 1.05269, 1.05378, 0.961883, 0.961085, 0.960812, 1.00184, 1.2386, 1.23714, 0.948054, 0.947186, 0.946698, 0.946448, 0.946622, 0.940091, 0.940141, 0.934805, 1.35245, 1.35217, 0.994563, 1.02607, 1.4463, 1.0122, 0.964941, 0.983006, 0.925747, 0.929732, 1.00708, 1.00772, 1.47025, 0.924429, 0.925243, 0.922721, 0.923007, 0.922273, 0.924076, 0.922117, 0.925129, 0.921839, 0.923978, 0.922326, 0.983259, 0.975374, 0.956385, 1.05413, 0.986437, 0.905056, 0.902824, 0.901501, 0.895462, 0.896449, 0.898305, 0.897383, 0.895593, 0.896519, 0.896795, 0.897295, 0.896715, 0.894405, 0.890075, 0.886096, 0.886917, 0.885165, 0.885541, 0.886757, 0.885521, 0.886848, 0.887865, 0.890414, 0.888613, 0.887478, 0.887522, 0.888003, 0.888372, 0.929898, 0.880799, 0.882306, 0.881467, 0.949071, 0.905968, 0.919737, 0.9424, 0.8729, 0.871432, 0.872389, 0.870159, 0.869934, 0.868993, 0.869445, 0.86638, 0.865564, 0.863603, 0.861917, 0.860275, 0.8601, 0.857337, 0.86078, 0.860408, 0.859889, 0.860998, 0.862467, 0.862682, 0.863169, 0.862804, 0.862449, 0.860254, 0.858078, 0.85873, 0.858985, 0.854396, 0.934767, 0.911212, 0.908146, 0.911134, 0.933085, 0.870026, 0.869982, 0.869801, 0.869246, 0.874131
1.02038, 1.01547, 1.18375, 1.10808, 1.1074, 1.0289, 1.15816, 1.05017, 1.04425, 1.05073, 1.05099, 1.02503, 1.02491, 1.01282, 1.04422, 1.0707, 1.06879, 1.03674, 1.02017, 1.01013, 0.856895, 0.856115, 0.855997, 0.855895, 0.855826, 0.856106, 0.856366, 0.856402, 0.85621, 0.856373, 0.856473, 1.03578, 1.03728, 0.988788, 1.02485, 0.860257, 0.860804, 1.03913, 1.03897, 1.03879, 0.983228, 0.982571, 0.871254, 0.98445, 0.987942, 0.990979, 0.999144, 0.984439, 1.02677, 1.02674, 0.98513, 0.904121, 0.902168, 0.981753, 0.97129, 0.985558, 0.991064, 0.988621, 0.907774, 0.909319, 0.909916, 0.910085, 0.90986, 0.907625, 0.90662, 0.904492, 0.906427, 0.910954, 0.911717, 0.912396, 0.914454, 1.13708, 1.13635, 1.04552, 1.00602, 1.09465, 0.919533, 1.0069, 1.04566, 1.01062, 1.02165, 1.01552, 1.01095, 0.996953, 1.02195, 1.01534, 1.01565, 0.99471, 1.13091, 1.00519, 0.947457, 0.948591, 0.949278, 0.949033, 0.949641, 1.00566, 1.01843, 1.00223, 1.00098, 1.00266, 1.05802, 1.06067, 1.02219, 1.01892, 1.01733, 0.954009, 0.953221, 0.952697, 0.952426, 0.951151, 0.95024, 1.00451, 1.01565, 1.0093, 0.952655, 0.95326, 1.02883, 1.00141, 1.0154, 0.99063, 1.04641, 0.964704, 0.966045, 0.966708, 0.963465, 0.964929, 0.9652, 0.964772, 1.01194, 1.01517, 0.974212, 0.973156, 0.973422, 0.969018, 0.96854, 0.967812, 0.967121, 0.969884, 0.969607, 0.970093, 1.02749, 1.01903, 0.973317, 0.97391, 0.974896, 0.9756, 0.975567, 0.974941, 1.0127, 1.01332, 1.00864, 1.01882, 1.01517, 0.960135, 0.960268, 0.957759, 0.955702, 0.95027, 0.950203, 0.948496, 0.947123, 0.94793, 0.947254, 0.947561, 0.945575, 0.944099, 0.990229, 1.02185, 1.02059, 0.992706, 0.93203, 0.93031, 0.929749, 0.931545, 0.92985, 0.92916, 0.929681, 0.931572, 0.932679, 0.932016, 0.927043, 0.92647, 0.924329, 0.924654, 0.924097, 0.926819, 0.924002, 0.923978, 0.922862, 0.923676, 0.925034, 0.923545, 1.25647, 0.973527, 0.990073, 0.970741, 0.908111, 0.905282, 0.905149, 0.966617, 1.12657, 0.900976, 0.901561, 0.896198, 0.89644, 0.896541, 0.896537, 0.8969, 0.893491, 0.889307, 0.89042, 0.887198, 0.886811, 0.886887, 0.885566, 0.885956, 0.88598, 0.887334, 0.888434, 0.888571, 0.889083, 0.888751, 0.888577, 0.888418, 0.88865, 0.888657, 0.912667, 0.943108, 0.914852, 0.90781, 0.884103, 0.914876, 0.878874, 0.878861, 0.940874, 0.873838, 0.95957, 0.873973, 0.86733, 0.868057, 0.86647, 0.863784, 0.86209, 0.861897, 0.859606, 0.859246, 0.857752, 0.857073, 0.859984, 0.861019, 0.861791, 0.8616, 0.864759, 0.866186, 0.863524, 0.863606, 0.8658, 0.866285, 0.856529, 0.938589, 0.912013, 0.875262, 0.928659, 0.929846, 0.933506, 0.867138, 0.869732, 0.869885, 0.875244, 0.876129
1.02226, 1.17389, 1.04267, 1.02031, 1.0201, 1.10676, 1.10803, 1.00962, 1.03295, 1.01477, 1.08167, 1.08278, 1.02951, 1.02541, 1.02442, 1.02902, 1.03512, 1.02464, 1.0363, 1.00908, 0.857158, 0.856199, 0.855797, 0.855783, 0.855737, 0.85568, 0.855995, 0.856183, 0.856178, 0.855928, 0.856494, 1.01207, 0.993782, 0.994902, 0.992797, 0.859288, 0.860487, 0.861289, 0.864217, 0.983226, 0.982205, 0.989719, 0.98986, 0.981876, 0.995514, 0.972491, 0.99882, 0.982678, 0.996173, 0.99767, 0.892083, 0.893211, 0.893416, 0.97481, 0.97917, 0.98764, 0.986704, 0.982052, 1.00196, 0.991221, 0.963026, 0.910047, 0.909214, 0.908509, 0.907538, 0.907518, 0.909472, 0.908629, 0.908212, 0.911084, 0.911162, 0.912057, 0.911822, 0.989559, 1.00776, 1.22682, 1.02862, 1.03234, 1.0153, 1.04307, 1.01306, 0.991027, 0.991684, 0.99135, 0.991297, 1.00519, 1.01331, 0.99939, 0.93922, 1.47636, 1.00985, 1.00806, 1.00096, 0.946619, 1.00395, 1.05526, 1.00181, 1.02151, 0.996013, 0.984651, 0.954037, 1.0219, 1.02168, 0.99875, 0.952518, 0.953047, 0.95374, 0.952721, 0.952342, 0.950784, 0.949132, 0.94814, 0.948882, 0.950127, 1.00756, 1.02653, 1.01113, 1.01165, 0.993262, 1.13393, 1.01665, 1.0231, 0.970507, 0.971092, 0.966618, 0.966195, 0.966409, 0.966409, 1.03141, 1.03087, 1.03583, 0.973489, 0.973237, 0.969811, 0.969586, 0.969282, 0.968862, 0.970056, 0.970249, 0.970718, 0.971021, 0.973542, 0.974117, 0.97477, 0.975761, 0.975943, 0.975622, 0.974299, 1.19013, 1.01306, 1.01778, 1.00918, 1.01196, 1.01279, 0.954805, 0.95297, 0.949351, 0.949887, 0.954272, 1.23325, 1.23233, 1.23258, 0.946546, 1.17594, 1.35441, 0.946166, 0.946597, 1.01613, 0.935315, 0.935564, 0.935898, 0.936993, 0.934171, 0.935026, 0.93489, 0.93192, 0.931958, 0.932381, 0.93257, 0.932058, 0.925846, 0.926569, 0.929679, 0.929144, 0.928497, 0.929441, 0.978685, 0.975041, 0.924721, 0.924922, 0.925025, 0.923123, 0.922312, 0.973648, 1.05275, 0.913491, 0.913958, 0.910605, 0.910996, 0.908453, 0.970304, 0.904044, 1.1574, 0.89428, 0.894571, 0.89787, 0.897449, 0.894728, 0.893526, 0.892809, 0.892877, 0.888719, 0.889413, 0.887821, 0.886991, 0.885496, 0.886681, 0.885729, 0.886547, 0.886823, 0.887576, 0.888464, 0.890239, 0.889491, 0.889167, 0.888501, 0.888075, 0.887803, 0.884443, 0.884214, 0.883581, 0.882385, 0.8796, 0.879789, 0.879918, 0.946878, 0.877043, 0.942872, 0.867317, 0.869815, 0.866647, 0.866471, 0.861663, 0.863166, 0.86031, 0.859742, 0.858068, 0.8588, 0.861101, 0.86321, 0.865699, 0.864403, 0.867163, 0.868481, 0.870592, 0.869455, 0.867642, 0.868449, 0.938582, 0.876476, 0.879232, 0.880529, 0.929167, 0.881908, 0.942746, 0.867682, 0.869714, 0.879535, 0.879884, 0.876403
1.04028, 1.02182, 1.09701, 1.14617, 1.14662, 1.04402, 1.01726, 1.0153, 1.09947, 1.0145, 1.01404, 1.03747, 1.03566, 1.03327, 0.870317, 1.01681, 1.11746, 1.11689, 1.00951, 1.00952, 1.02287, 0.85618, 0.85578, 0.855686, 0.855717, 0.855756, 0.855717, 0.855831, 0.856012, 0.855938, 0.855918, 0.856617, 1.01844, 0.993955, 1.02414, 0.859538, 0.867575, 1.02211, 0.861561, 0.890027, 0.990171, 0.9941, 0.989131, 0.987886, 0.981592, 0.982495, 0.977828, 0.97653, 0.977483, 0.992012, 0.99147, 0.893975, 0.890045, 0.978424, 0.98852, 1.04046, 0.99436, 0.994208, 0.995193, 0.996147, 0.99155, 0.991088, 0.997429, 0.907616, 0.907434, 0.908622, 0.909013, 0.9105, 0.909783, 0.909069, 0.908893, 0.913835, 0.911231, 0.909357, 1.02474, 1.03737, 0.994376, 0.994511, 1.00171, 1.0703, 0.994407, 1.02968, 1.01562, 0.991918, 0.993518, 0.994747, 0.930262, 1.00502, 1.0125, 1.02913, 1.02637, 1.02674, 1.02188, 1.03523, 1.06854, 1.03261, 1.06635, 1.01857, 1.04977, 1.04902, 1.01967, 1.01988, 1.03869, 0.984759, 0.952499, 0.952701, 0.952711, 0.952442, 0.951788, 0.950591, 0.949352, 0.948892, 0.949906, 0.950992, 0.951782, 1.04997, 1.04917, 1.04997, 1.12031, 1.02061, 1.02129, 0.968824, 0.97017, 0.970492, 0.96696, 0.966774, 0.966891, 0.966714, 1.04094, 1.0177, 0.970676, 0.971417, 0.971462, 0.970668, 0.969612, 0.96979, 0.96989, 0.969483, 0.969692, 1.12111, 1.03219, 0.974383, 0.975256, 0.973985, 1.16939, 1.02985, 0.972093, 0.968518, 0.966687, 0.962633, 0.961871, 0.959741, 0.956083, 0.956046, 0.955813, 0.955098, 0.953982, 0.954672, 0.956456, 1.23199, 0.954009, 0.952397, 0.952931, 0.952846, 0.952115, 0.950612, 0.948639, 0.949413, 1.0175, 1.08152, 1.03933, 0.939121, 0.937015, 1.00555, 0.935656, 0.935582, 1.00592, 0.935356, 0.933783, 1.00501, 0.935411, 0.934924, 0.933032, 0.933168, 0.979357, 0.979809, 0.996012, 1.02339, 0.924574, 0.924571, 1.0064, 0.922706, 0.922173, 0.921472, 0.921923, 0.912998, 0.91706, 0.919592, 0.916375, 0.916956, 0.912771, 0.984739, 0.961217, 0.905846, 0.972189, 0.895826, 0.897038, 0.89587, 0.896844, 0.896516, 0.893437, 0.892534, 0.891787, 0.890969, 0.890163, 0.885494, 0.886438, 0.885532, 0.884798, 0.885758, 0.886791, 0.887084, 0.887552, 0.889494, 0.890134, 0.889002, 0.887784, 0.887815, 0.884624, 0.884859, 0.883833, 0.883552, 0.882486, 0.883309, 0.883501, 0.929755, 0.936082, 0.938898, 0.925713, 0.962749, 0.925541, 0.870543, 0.86931, 0.869019, 0.86402, 0.863868, 0.862283, 0.861649, 0.861726, 0.865493, 0.866653, 0.866024, 0.869872, 0.870506, 0.871371, 0.871871, 0.87207, 0.874408, 0.876482, 0.963693, 0.955464, 0.943231, 0.883573, 0.884634, 0.887969, 0.88428, 0.885342, 0.885981, 0.920661, 0.89031
1.04307, 1.16392, 1.09469, 1.02678, 1.09437, 1.04682, 1.10228, 1.05739, 1.05591, 1.10584, 1.1052, 1.04008, 1.03821, 1.01705, 0.870185, 0.867456, 0.866946, 1.04275, 1.0415, 1.04172, 1.03916, 0.856378, 0.855789, 0.855676, 0.855543, 0.855628, 0.855736, 0.85578, 0.855777, 0.855815, 0.855732, 0.856026, 0.98736, 1.00383, 0.994516, 0.859468, 0.859591, 1.00795, 0.984094, 0.984465, 0.991992, 0.985079, 0.980901, 0.981012, 0.981017, 0.977711, 0.979911, 0.979635, 1.00322, 0.978913, 0.975641, 0.991573, 0.990463, 1.00941, 0.99338, 1.01445, 0.991765, 1.03869, 0.987436, 0.987582, 1.00274, 1.00068, 1.00112, 0.904652, 1.04362, 1.04392, 1.04653, 1.02998, 0.909087, 0.908703, 0.908805, 0.907576, 0.90949, 0.908226, 1.01937, 0.989987, 1.00216, 1.00555, 0.992053, 1.01957, 1.02044, 1.03055, 1.02171, 1.01939, 1.08148, 1.02138, 1.0335, 0.93014, 1.06235, 1.02307, 0.983067, 0.982368, 1.03227, 1.03289, 1.00262, 1.05386, 1.05261, 1.05056, 1.05287, 1.04863, 1.04891, 1.02018, 1.05431, 0.950139, 1.03991, 0.952156, 0.953473, 0.951737, 0.951558, 0.951054, 0.951621, 0.952778, 0.951546, 0.952592, 0.952606, 0.953271, 1.09499, 1.07494, 1.07411, 1.02538, 1.07476, 1.01978, 1.0138, 1.0975, 0.966124, 0.966243, 0.966349, 0.966539, 1.09009, 1.04137, 1.05124, 0.970165, 0.973729, 0.969788, 0.969706, 0.96962, 0.969323, 1.11423, 1.05981, 0.970238, 0.972344, 0.973042, 0.973824, 0.981732, 0.968157, 0.967123, 0.967975, 0.968084, 0.966282, 0.96427, 0.961957, 0.962415, 1.03212, 0.960023, 1.19188, 1.02634, 1.0284, 1.02509, 1.02554, 0.956207, 0.954369, 0.953521, 0.95513, 0.95585, 0.952976, 0.951335, 0.949623, 1.01862, 1.00159, 1.06952, 1.03328, 1.00344, 1.0115, 0.972238, 1.01629, 0.935779, 0.935717, 1.39502, 1.01584, 0.936635, 0.937177, 0.935315, 0.932871, 1.30488, 1.00158, 1.01362, 1.00731, 1.34738, 1.00517, 0.926423, 0.928913, 1.01933, 0.98813, 1.02277, 1.02254, 1.0064, 0.922373, 0.921543, 0.917393, 0.917072, 0.91742, 0.988815, 0.988719, 0.989345, 0.983676, 0.975333, 0.896652, 0.896367, 0.899678, 0.896472, 0.897104, 0.95065, 0.894713, 0.893971, 0.894145, 0.889276, 0.891486, 0.891041, 0.890749, 0.890786, 0.886784, 0.88806, 0.8881, 0.888809, 0.888658, 0.887164, 0.888123, 0.889396, 0.886688, 0.884396, 0.881796, 0.968157, 0.89156, 0.887096, 0.887691, 0.884366, 0.8849, 0.953232, 0.987884, 0.978892, 0.974978, 0.979796, 0.95965, 0.959484, 0.863689, 0.864012, 0.869518, 0.863016, 0.863203, 0.867029, 0.867701, 0.866342, 0.870653, 0.873481, 0.872613, 0.874729, 0.960521, 0.983419, 0.879938, 0.880517, 0.946386, 0.945848, 0.887944, 0.888906, 0.888854, 0.887297, 0.887532, 0.887965, 0.890969, 0.88914
1.0181, 1.13794, 1.09364, 1.09463, 1.0419, 1.10086, 1.18104, 1.0158, 1.05315, 1.0236, 1.10106, 1.10167, 1.1026, 0.873528, 0.87288, 0.869613, 0.869779, 1.02695, 1.09241, 1.09651, 1.09807, 1.01888, 0.855897, 0.855716, 0.855513, 0.855461, 0.855585, 0.855754, 0.855747, 0.855755, 0.85577, 0.855908, 0.856494, 1.03029, 1.00591, 0.859123, 1.01231, 0.861758, 0.861807, 1.0012, 0.999642, 1.03363, 0.980353, 0.974125, 0.995266, 1.02322, 1.02284, 1.00744, 0.967109, 0.967516, 0.975912, 0.970064, 0.970176, 1.0118, 0.96643, 0.9795, 0.990642, 1.03376, 1.00184, 0.984845, 0.988826, 1.00047, 1.0518, 0.904858, 0.904631, 0.904774, 0.90479, 0.905251, 0.905563, 0.908116, 0.908559, 0.90831, 0.908639, 0.907154, 0.906892, 0.907593, 0.90951, 0.91103, 1.01998, 1.02016, 1.02224, 0.918755, 0.920194, 0.999598, 1.02226, 1.05325, 1.05246, 1.47447, 1.01618, 1.27823, 1.02108, 1.03181, 1.03317, 1.03226, 1.36093, 1.05257, 1.05273, 1.01811, 1.0172, 1.04726, 1.0503, 1.0527, 1.02142, 1.02973, 1.02611, 1.05741, 0.95641, 0.954433, 0.954278, 0.95494, 0.954778, 0.954054, 0.954434, 0.953929, 0.953698, 0.953735, 1.07078, 1.0736, 1.00659, 1.02917, 1.0488, 1.04999, 1.09528, 0.965061, 0.964844, 0.965411, 0.965383, 1.09104, 1.03555, 1.09857, 1.1054, 0.973712, 0.973661, 1.06374, 0.968986, 0.968475, 0.968056, 1.0578, 0.970394, 0.970667, 0.973363, 0.970833, 0.969053, 0.968515, 0.966536, 0.967574, 0.966221, 0.966594, 0.964712, 0.963692, 0.963404, 0.963929, 0.964027, 0.960005, 0.959646, 0.959895, 0.961248, 0.960868, 0.961323, 0.95611, 0.956021, 1.1883, 0.955134, 0.955157, 0.952489, 0.952488, 1.03452, 1.00265, 1.02491, 1.20037, 1.03584, 1.00152, 1.00923, 1.02655, 1.02449, 0.997725, 1.02219, 1.00264, 0.991388, 1.00463, 1.00373, 0.942559, 1.0045, 1.30547, 1.00629, 1.35397, 1.35419, 0.932598, 0.928217, 0.928112, 0.927152, 0.92706, 1.02858, 1.00256, 1.00569, 0.925338, 0.924755, 0.924862, 0.999231, 0.997425, 0.920348, 0.923011, 0.987405, 0.984878, 0.983224, 0.982382, 0.98501, 0.984382, 0.964451, 0.984239, 0.976824, 0.977172, 0.895163, 0.89554, 0.89789, 0.949819, 0.949336, 0.898298, 0.899526, 0.944578, 0.894064, 0.887999, 0.889818, 0.889602, 0.888767, 0.890049, 0.89064, 0.890868, 0.964516, 0.893419, 0.894239, 0.975348, 0.89387, 0.973549, 0.949228, 0.88455, 0.885838, 0.887389, 0.887928, 0.887947, 0.887059, 0.977339, 0.979643, 0.980454, 0.965417, 0.95692, 0.959463, 0.971914, 0.972618, 0.974498, 0.870198, 0.8699, 0.871888, 0.956813, 0.984442, 0.881001, 0.958164, 0.973375, 0.986179, 0.969498, 0.969745, 0.95364, 0.888416, 0.88889, 0.890378, 0.894135, 0.892273, 0.891886, 0.893413, 0.893794
1.01225, 1.09456, 1.04375, 1.1535, 1.01866, 1.05474, 1.06719, 1.10587, 1.01766, 1.01855, 1.01913, 1.10581, 1.05095, 1.04405, 0.872589, 0.870095, 0.869487, 1.0236, 1.02274, 1.02665, 1.01917, 1.03938, 0.856062, 0.855785, 0.855659, 0.855543, 0.85539, 0.855655, 0.855761, 0.855701, 0.855823, 0.85604, 0.85631, 0.856942, 1.00825, 1.01455, 1.01363, 1.029, 0.862529, 0.861916, 0.863486, 0.984556, 0.974724, 1.0393, 1.03876, 1.00208, 0.873485, 1.00905, 1.00864, 0.978537, 0.97338, 0.97056, 1.00968, 1.03879, 1.00677, 0.977902, 0.975683, 1.02107, 1.03625, 0.980875, 1.00987, 1.03921, 0.989753, 0.902083, 0.904281, 0.904316, 0.903693, 0.904012, 0.904037, 0.994756, 0.90724, 0.908263, 0.907911, 0.907476, 0.907021, 0.90656, 0.907665, 0.908769, 0.907648, 0.90931, 0.916049, 0.916497, 1.03012, 1.02156, 1.02632, 1.02942, 1.02892, 1.02817, 1.02923, 1.02211, 0.983898, 1.04699, 1.04612, 1.04777, 1.05149, 0.936107, 0.936592, 1.0458, 1.04876, 1.04845, 0.940576, 1.05236, 1.05402, 1.0256, 1.03242, 0.953641, 0.954332, 0.956057, 0.955783, 0.955831, 0.956006, 0.954836, 0.954766, 0.955071, 0.95399, 0.95403, 1.00548, 1.14702, 1.02669, 1.02869, 0.998025, 1.06791, 0.963697, 0.96409, 0.963661, 0.963981, 0.964225, 1.01877, 1.04963, 0.967607, 1.02617, 1.05374, 0.97197, 0.971192, 1.05398, 0.966744, 0.966316, 1.05603, 0.967533, 0.969525, 0.969821, 0.969565, 0.968518, 0.967717, 0.96786, 0.967498, 0.965671, 0.966516, 0.965909, 0.963241, 0.963464, 0.964431, 0.964335, 0.964124, 1.0354, 0.964101, 0.964488, 0.964461, 0.966629, 0.966234, 1.01923, 1.25993, 1.03053, 1.02276, 0.954596, 1.01166, 1.03397, 1.03942, 0.947269, 0.94586, 1.02277, 1.00647, 0.993826, 0.941964, 0.940792, 0.974928, 0.990364, 0.992349, 0.996105, 0.968676, 0.94165, 0.942438, 0.944068, 1.00585, 0.984453, 0.98263, 0.933382, 0.932984, 0.930555, 0.927497, 0.926862, 1.04049, 0.928569, 0.929657, 1.00567, 0.928248, 0.927837, 0.928277, 0.997969, 1.38766, 0.998618, 0.999047, 0.990356, 0.922219, 0.994124, 0.992075, 0.984796, 0.985317, 0.986899, 0.987491, 0.988087, 0.98962, 0.98852, 0.987779, 0.931848, 0.960291, 0.947889, 0.900316, 0.899665, 0.988221, 0.989227, 0.898044, 0.899069, 0.946132, 0.898031, 0.898175, 0.897581, 0.898807, 0.894202, 0.894671, 0.895028, 0.977183, 0.953366, 0.971283, 0.957934, 0.974111, 0.891935, 0.891063, 0.890444, 0.887549, 0.887805, 0.963489, 0.965016, 0.987095, 0.985108, 0.983029, 0.959368, 0.882018, 0.879348, 0.877666, 0.874554, 0.87152, 0.872472, 0.873511, 0.984751, 0.984582, 0.98471, 0.988336, 0.951251, 1.18764, 0.942557, 0.942893, 0.95438, 0.894295, 0.894789, 0.895345, 0.894572, 0.895118, 0.895085, 0.89593
1.01204, 1.07026, 1.14901, 1.19826, 1.05348, 1.10543, 1.02129, 1.15688, 1.01945, 1.01891, 1.05266, 1.05396, 1.14029, 1.01875, 1.05969, 1.05908, 1.02722, 1.10475, 1.0367, 1.03651, 1.08566, 1.03649, 0.856959, 0.855889, 0.855724, 0.855641, 0.855361, 0.855622, 0.85574, 0.855758, 0.855671, 0.855968, 0.855992, 0.85676, 0.857874, 1.03341, 0.998355, 1.02871, 0.861967, 0.861883, 1.0046, 0.980647, 0.977348, 1.02406, 1.02293, 1.01958, 1.01204, 0.99555, 1.03857, 1.03323, 1.03313, 1.03384, 0.978688, 1.01102, 1.04054, 1.04034, 1.01909, 0.972934, 1.03698, 1.01077, 1.01101, 0.984935, 1.04248, 1.0007, 0.901251, 0.902406, 0.901942, 0.902696, 0.994685, 0.905119, 0.906105, 0.907704, 0.906882, 0.907494, 0.90755, 0.908094, 0.908456, 0.90817, 0.908887, 0.910013, 0.910143, 0.909567, 0.910572, 1.02219, 1.12791, 1.01546, 1.01522, 1.04913, 0.922751, 1.04613, 1.01946, 1.01944, 1.04565, 1.04654, 1.04443, 0.9358, 0.93675, 0.938301, 0.938961, 0.940083, 0.940231, 0.941134, 1.02698, 0.94812, 0.948314, 1.05334, 0.954873, 0.954912, 0.953586, 0.952974, 1.04641, 0.953101, 0.953828, 0.953884, 0.953087, 0.953957, 0.956136, 1.01896, 0.991647, 1.05323, 1.06297, 0.961464, 0.962945, 0.964339, 0.962872, 0.962729, 0.963096, 0.965631, 0.966257, 1.06495, 1.03215, 1.05505, 0.971268, 0.96883, 0.968319, 0.964685, 1.05325, 0.966832, 0.966135, 0.967428, 0.968924, 0.968041, 0.967415, 0.966227, 1.02015, 1.02616, 0.970027, 0.967284, 0.966271, 0.967066, 0.965379, 0.964359, 0.965388, 0.967221, 0.967702, 0.966212, 0.967158, 0.966498, 0.966327, 0.966623, 1.03179, 1.02955, 1.02953, 1.00491, 0.99494, 1.00615, 1.03048, 1.01235, 0.948519, 0.985069, 1.05087, 0.944379, 0.945107, 0.944137, 0.943204, 0.942551, 1.00926, 0.938198, 0.939005, 0.939127, 0.939802, 0.942775, 0.943852, 0.944334, 0.984204, 1.00668, 1.00717, 0.994605, 0.927446, 0.927919, 0.926636, 0.929626, 0.931147, 0.930454, 0.930323, 0.931045, 0.931689, 1.02313, 1.00302, 0.996524, 1.00205, 0.929101, 0.929908, 1.1081, 0.988447, 0.985014, 0.988346, 0.988392, 0.987261, 0.98546, 0.983125, 1.00982, 1.01011, 0.981403, 0.981308, 0.980875, 0.956059, 0.999008, 0.959095, 0.907458, 0.989803, 0.957981, 0.987863, 0.904179, 0.961045, 0.979175, 0.99609, 0.901565, 0.898745, 0.974183, 0.950964, 0.984257, 0.954031, 0.900587, 0.901, 0.959119, 0.981302, 0.894006, 0.886171, 0.887319, 0.887767, 0.987445, 0.989538, 0.976757, 0.966096, 0.983713, 0.986656, 0.988353, 0.990985, 0.993598, 0.949997, 0.984446, 0.977475, 1.00611, 1.00594, 0.967353, 0.990707, 1.16301, 0.99436, 0.950643, 0.974217, 0.898934, 0.897926, 0.894743, 0.896042, 0.895781, 0.894728, 0.995156, 0.900486, 0.995439
1.04835, 1.05015, 1.14008, 1.23554, 1.05595, 1.01581, 1.01546, 1.01507, 1.01558, 1.01497, 1.07886, 1.02455, 1.01968, 1.11, 1.07736, 1.08125, 1.08197, 1.01617, 1.0823, 1.0951, 1.02102, 1.00851, 1.01524, 0.856205, 0.855948, 0.855678, 0.85565, 0.854813, 0.85487, 0.855626, 0.855695, 0.855751, 0.856181, 0.856495, 0.857356, 0.990574, 0.85902, 0.860839, 0.861063, 1.02935, 1.00261, 1.03617, 1.00952, 0.983932, 0.983591, 0.997935, 1.02864, 0.994914, 1.01093, 1.00864, 1.02271, 1.01102, 1.01134, 1.01281, 1.01341, 0.973801, 0.971011, 0.984571, 0.998815, 0.980846, 1.00156, 0.982548, 0.984114, 1.018, 1.03268, 0.90085, 0.902732, 1.00554, 1.01506, 1.01553, 1.00926, 0.907419, 0.907757, 0.907783, 0.908287, 0.907772, 1.02226, 1.01675, 0.913117, 0.911583, 0.912272, 0.91085, 0.909832, 0.907294, 1.02984, 0.915065, 0.914923, 0.915095, 1.04712, 1.04928, 1.02217, 0.924737, 1.0471, 0.929334, 0.931087, 0.933238, 0.935636, 0.938881, 0.939505, 0.940598, 0.940441, 0.942362, 0.944388, 0.946565, 1.02859, 1.02839, 1.26361, 1.02781, 0.952302, 0.952398, 0.95257, 0.952633, 0.952571, 0.953108, 0.952916, 0.954059, 0.955818, 0.956473, 1.07096, 1.03551, 1.03627, 0.963997, 0.963192, 0.962807, 0.96156, 1.05168, 1.05207, 0.965183, 0.966251, 0.966429, 0.966621, 1.05398, 1.07403, 0.966335, 0.960066, 0.959483, 0.961791, 0.968301, 0.967359, 0.967503, 0.967537, 0.967332, 1.06547, 1.06074, 1.02179, 0.972378, 1.043, 0.970383, 0.970047, 0.968081, 0.967968, 1.06805, 1.00903, 0.967282, 0.968228, 0.964887, 0.966102, 0.966269, 0.966323, 0.966265, 1.01164, 1.0184, 1.07802, 1.05786, 1.12185, 1.00443, 0.953087, 0.951003, 0.94903, 1.01642, 1.04374, 0.943659, 0.942591, 0.942342, 0.9413, 0.940682, 0.940552, 0.94045, 0.940492, 0.94082, 0.941469, 0.942313, 0.943906, 0.945457, 0.944346, 1.26038, 0.9946, 1.27976, 0.964438, 0.928029, 0.929051, 0.930268, 0.931824, 0.932208, 0.931922, 0.932384, 0.93286, 0.994446, 1.37125, 1.0296, 0.982534, 1.02153, 0.932472, 0.932821, 0.988296, 1.02546, 1.02665, 0.98775, 1.02082, 0.985408, 0.918223, 0.919012, 0.95799, 1.01648, 0.982293, 0.980863, 0.911229, 0.909887, 0.907591, 0.907669, 0.908149, 0.967986, 0.907684, 0.908362, 1.01263, 0.9845, 0.997825, 0.991478, 0.971234, 0.971721, 0.903817, 0.904014, 0.903378, 0.90321, 0.901337, 0.901616, 0.983756, 0.958377, 0.963003, 0.966769, 1.01035, 0.963135, 0.969459, 0.969865, 0.970959, 0.988252, 0.973952, 0.97166, 0.980974, 0.980764, 1.00267, 0.992021, 0.988982, 1.01414, 1.01365, 0.973991, 0.968686, 0.997666, 1.01214, 0.967496, 0.971267, 0.899451, 0.898612, 0.895802, 0.971298, 0.964127, 0.898296, 0.899863, 0.898921, 0.899013
1.08041, 1.08141, 1.01287, 1.01415, 1.06213, 1.01518, 1.11712, 1.22556, 1.11921, 1.10632, 1.05071, 1.02037, 1.04521, 0.879967, 1.04645, 0.875678, 0.874167, 0.870822, 1.0812, 1.03298, 1.0888, 1.04921, 1.07788, 1.03164, 0.855826, 0.855783, 0.855724, 0.855701, 0.855653, 0.855631, 0.855648, 0.855737, 0.85605, 0.856343, 0.856951, 0.858026, 0.859267, 0.859607, 1.0375, 0.998224, 0.987013, 0.977578, 1.01152, 1.03075, 0.868809, 0.868176, 0.993706, 1.0075, 0.996191, 0.983559, 0.977615, 0.998649, 1.02008, 1.00783, 1.0096, 0.982147, 1.02313, 1.02215, 0.99813, 1.00006, 1.01515, 1.03708, 1.03646, 1.01567, 0.985011, 1.40607, 1.00894, 0.986163, 1.00628, 0.904092, 0.904761, 0.90672, 0.9082, 0.908443, 0.908347, 1.02049, 0.999931, 1.01573, 1.0134, 0.918382, 1.0167, 1.02243, 0.911935, 0.911263, 0.913234, 0.915797, 0.915573, 0.91686, 0.917516, 0.918343, 0.919351, 1.04484, 0.922837, 1.04245, 0.931444, 0.935723, 0.936281, 0.938208, 0.938371, 0.939501, 0.942018, 0.94257, 0.942892, 0.945801, 0.948557, 0.94824, 0.949342, 0.949575, 0.95106, 0.951545, 0.951106, 0.949481, 0.950141, 0.953863, 0.95451, 0.955985, 0.955994, 0.956095, 1.04251, 1.0407, 0.961051, 0.961085, 0.964006, 0.961104, 1.05282, 1.02591, 0.963523, 0.966337, 0.966591, 0.965083, 0.966186, 0.966161, 0.963464, 0.964353, 0.963935, 0.961697, 1.08738, 0.967323, 0.966647, 0.967221, 0.966956, 1.02048, 1.01745, 0.973968, 0.97389, 0.973645, 0.975177, 0.974912, 0.969785, 0.970325, 0.972519, 1.00925, 1.04762, 1.05605, 0.999423, 0.966099, 0.966488, 0.966284, 0.966231, 0.965631, 1.02428, 1.02468, 1.05856, 0.991295, 0.955753, 0.990332, 1.00406, 1.02839, 1.05497, 0.94702, 0.946359, 0.945784, 0.945442, 0.944396, 0.943112, 0.943162, 0.942249, 0.942446, 0.942373, 0.942264, 0.942501, 0.943247, 0.944635, 0.945433, 0.944868, 0.944833, 1.26131, 1.03909, 0.967443, 0.96817, 0.946934, 0.929822, 0.931686, 1.06851, 1.06524, 0.934188, 0.935048, 1.01611, 1.25462, 1.34267, 1.02083, 1.02035, 0.932801, 0.932668, 0.934269, 1.02508, 1.02332, 1.1772, 0.964909, 1.02254, 0.919476, 0.920366, 0.920466, 0.921398, 0.91773, 0.916704, 1.0102, 0.912143, 0.912918, 1.00585, 0.912711, 1.01413, 0.908737, 0.91086, 0.914342, 0.991602, 0.998187, 0.998332, 0.964952, 0.971748, 0.905924, 0.904868, 0.905126, 0.905314, 0.980336, 0.98875, 0.981195, 0.981143, 0.995002, 0.981057, 0.966969, 0.898134, 0.899005, 0.89974, 0.963214, 0.982006, 0.984888, 0.994462, 0.983921, 0.971902, 1.00797, 0.989124, 1.00278, 0.996533, 1.14023, 0.96872, 0.997745, 0.906636, 0.907459, 0.904886, 0.900064, 0.898616, 0.897852, 0.897905, 0.898253, 0.899548, 0.899963, 0.901352, 0.902294, 0.900823
1.11056, 1.05662, 1.10862, 1.11599, 1.01305, 1.06505, 1.01539, 1.01724, 1.01989, 1.01992, 1.02214, 1.04357, 1.04508, 1.07456, 1.07609, 0.877107, 0.873362, 0.872648, 1.03451, 1.03126, 1.03192, 1.01135, 1.00634, 1.0332, 0.856454, 0.85576, 0.855865, 0.856056, 0.855699, 0.855741, 0.855726, 0.855967, 0.856265, 0.856343, 0.857281, 0.858522, 0.859856, 1.03904, 0.859736, 0.861899, 0.86283, 0.86358, 1.00464, 1.03295, 0.973588, 0.985065, 0.996128, 0.996095, 1.02427, 1.02057, 1.01784, 0.935968, 1.0147, 0.980856, 1.02288, 1.02089, 0.970225, 1.01514, 1.01527, 1.00127, 0.98676, 1.03864, 0.987981, 1.01357, 1.02433, 1.00831, 1.01141, 1.00126, 1.0126, 1.00969, 0.908034, 0.907791, 0.907789, 1.01075, 1.01204, 1.01487, 0.914309, 0.915906, 0.917744, 0.918633, 0.920939, 1.23265, 1.01629, 0.91158, 0.912636, 0.913498, 1.04631, 0.917693, 0.917894, 0.919138, 0.920936, 0.921412, 0.921443, 0.928001, 0.930516, 0.93317, 0.93373, 0.93315, 0.933621, 1.03995, 0.940367, 0.942023, 0.942571, 0.944053, 0.948022, 0.948089, 0.947673, 0.949041, 0.949591, 0.949273, 0.948737, 0.951711, 0.951409, 0.953254, 0.952356, 0.95252, 1.04998, 1.04031, 1.02052, 1.04204, 0.957943, 0.960493, 0.959354, 0.955782, 0.958154, 0.959394, 0.9633, 0.964922, 0.964461, 0.963165, 0.963698, 0.964519, 0.963176, 0.963457, 0.963091, 0.96279, 0.963056, 1.08273, 1.03889, 1.49246, 1.01543, 1.0154, 0.972203, 0.972657, 0.974099, 0.974564, 0.974045, 0.974307, 0.971936, 0.97192, 0.974003, 0.974279, 0.974882, 1.03574, 0.966518, 0.967034, 0.967295, 1.0014, 0.966434, 1.03076, 1.02217, 1.06661, 1.00081, 1.07278, 1.08181, 0.993929, 0.95335, 1.00546, 0.949834, 0.949216, 0.948254, 0.947135, 0.94645, 0.945747, 0.945467, 0.944654, 0.944448, 0.944328, 0.94405, 0.943855, 0.943916, 0.94446, 0.945251, 0.945232, 0.944661, 0.944043, 0.946039, 0.942636, 1.01032, 0.95696, 0.949733, 0.978284, 1.07961, 1.07771, 1.06653, 0.934243, 0.937158, 0.938, 1.06715, 1.03812, 0.938594, 1.03648, 1.0356, 1.17161, 0.935595, 0.992888, 0.991921, 1.02047, 1.05608, 1.07424, 0.923284, 0.923539, 0.981717, 0.923128, 1.02658, 0.978411, 1.00998, 1.01487, 1.01128, 1.37094, 1.00891, 1.02698, 1.00888, 0.912647, 0.913155, 0.913164, 1.00065, 1.00878, 0.910337, 0.910187, 0.908236, 0.908481, 0.905873, 0.986916, 0.987819, 0.995001, 0.99796, 0.990854, 0.904087, 0.901818, 0.900241, 0.899741, 0.900255, 0.901041, 0.902647, 0.901681, 0.900473, 0.900458, 0.898359, 0.89729, 0.983439, 0.983964, 0.984524, 1.00811, 1.00141, 0.99212, 0.961357, 0.96254, 0.966684, 0.993221, 0.993641, 0.895688, 0.897207, 0.898762, 0.977148, 0.901657, 0.902028, 0.903013, 0.903944, 0.903126
1.0809, 1.13478, 1.01321, 1.01192, 1.07754, 1.01549, 1.01489, 1.0126, 1.1057, 1.0395, 1.09735, 1.05654, 1.09608, 1.0958, 1.10225, 0.877171, 0.876542, 1.04617, 1.07627, 1.03175, 1.05959, 1.0557, 1.05741, 1.04204, 1.03385, 0.856258, 0.855875, 0.856177, 0.855969, 0.855872, 0.856046, 0.856372, 0.856604, 0.85683, 0.857424, 1.02274, 1.01942, 1.04239, 1.00581, 0.862343, 0.862714, 0.863178, 0.864305, 1.00066, 1.00068, 1.00567, 1.0079, 1.02395, 0.98552, 1.00128, 0.997933, 0.876558, 1.01236, 0.987257, 1.0015, 1.02615, 1.00185, 1.00022, 1.00017, 1.00113, 1.03089, 1.02987, 1.04776, 0.989232, 1.00978, 1.0098, 1.02636, 1.00214, 1.01097, 0.906375, 0.9092, 0.90815, 0.907612, 0.907167, 0.907893, 1.01717, 1.01225, 0.918834, 0.918341, 0.918773, 0.921452, 0.918974, 0.917048, 0.912369, 0.913262, 0.913308, 1.13712, 1.05001, 1.01587, 1.04619, 1.04347, 1.04388, 0.921457, 1.09149, 1.03323, 1.03894, 0.930543, 0.932842, 0.93384, 0.933479, 0.935052, 0.938795, 0.941567, 0.941602, 0.945519, 0.948696, 0.950465, 0.949358, 0.947791, 0.94762, 0.947403, 0.952629, 0.951304, 0.952368, 0.95269, 0.953129, 0.952142, 0.949274, 0.949726, 0.949726, 1.03345, 0.951888, 0.952138, 1.05098, 0.959243, 1.06383, 0.96302, 0.962462, 1.03731, 0.963036, 0.963585, 0.963306, 0.966738, 0.967374, 0.964075, 0.963459, 0.963847, 0.963355, 1.03324, 1.01044, 1.06891, 0.971996, 0.972768, 0.97336, 0.973202, 0.975907, 0.974886, 0.973116, 0.97297, 0.971137, 0.975859, 0.975749, 0.97546, 0.974324, 1.02988, 1.06916, 1.00296, 1.00129, 1.01469, 1.01694, 1.01899, 0.997699, 1.02546, 0.994399, 0.996039, 0.99228, 1.02559, 0.952384, 0.950191, 0.949102, 0.948821, 0.948056, 0.947152, 0.946503, 0.945984, 0.945887, 0.945501, 0.945504, 0.945451, 0.945245, 0.945161, 0.945385, 0.945594, 0.94538, 0.944954, 0.944815, 0.94621, 0.946816, 1.05964, 1.0448, 1.00909, 1.27936, 1.05267, 1.08272, 1.01436, 1.03312, 0.937565, 0.939875, 0.939594, 0.939478, 0.938529, 1.18801, 1.18811, 1.04717, 0.935863, 0.936242, 1.09176, 0.933194, 0.93195, 1.20712, 0.921986, 0.925217, 0.927961, 0.927997, 1.01558, 1.08087, 1.01074, 1.04286, 1.03743, 1.0784, 0.916844, 0.917724, 0.914487, 0.915168, 0.914902, 0.914933, 0.91404, 0.913635, 0.914412, 0.91122, 0.91147, 1.02629, 1.06157, 1.01984, 0.918262, 1.00235, 0.904486, 0.904008, 0.903402, 0.903184, 0.90334, 0.902237, 0.90635, 0.903865, 0.904535, 0.904343, 0.901549, 0.900732, 0.900126, 0.900082, 0.901421, 0.902259, 0.904887, 0.905479, 0.906595, 0.990272, 1.02876, 0.984039, 0.986719, 0.986229, 0.988047, 0.966557, 0.975829, 1.00519, 1.03626, 0.970325, 0.969631, 0.901842, 0.90239, 0.901196
1.01445, 1.07928, 1.07834, 1.02981, 1.03332, 1.01526, 1.07838, 1.01932, 1.04897, 1.02017, 1.0202, 1.09754, 1.09769, 1.09722, 1.09802, 1.09793, 1.01496, 1.0704, 1.02559, 1.05833, 1.03966, 1.05567, 1.06299, 1.02656, 1.05055, 0.856846, 0.856421, 0.856642, 0.856397, 0.856273, 0.856259, 0.85673, 0.857043, 0.857387, 0.857598, 0.984022, 0.86078, 0.861687, 0.862094, 0.863495, 0.863466, 0.86446, 0.864325, 1.03275, 0.98109, 0.981031, 0.993997, 0.987517, 1.01851, 1.00132, 1.00451, 0.99799, 1.01529, 0.989543, 1.029, 1.01199, 1.00851, 1.01346, 1.00209, 1.00173, 0.973263, 1.00342, 1.03651, 0.987766, 0.897957, 0.948796, 1.01979, 1.0176, 1.07317, 0.974984, 0.909808, 0.908815, 0.907571, 0.907357, 0.908724, 0.909362, 0.912283, 1.00125, 0.9951, 0.91745, 0.914679, 0.914813, 0.914876, 0.915009, 0.912289, 1.27426, 1.01628, 1.06847, 1.04577, 1.04948, 1.02477, 1.04552, 1.04471, 1.07043, 1.07804, 1.06146, 1.00924, 1.01674, 1.03932, 1.24018, 0.935686, 1.03698, 1.03061, 1.03326, 1.03049, 0.946605, 0.948564, 0.948798, 0.948868, 0.948351, 0.948091, 0.953341, 0.956045, 0.953728, 0.951541, 0.951999, 0.951181, 0.951121, 0.9508, 0.952076, 0.952598, 0.952682, 0.952841, 1.04196, 1.04586, 1.04618, 1.05832, 1.05696, 1.01218, 1.04643, 1.03989, 0.964435, 0.965666, 0.966901, 0.964529, 0.962694, 0.962928, 1.03751, 0.963263, 0.963077, 1.1543, 0.970739, 0.972363, 0.972497, 0.973196, 1.04692, 0.972467, 0.973102, 0.97334, 0.973728, 0.974187, 0.974912, 0.974058, 0.973655, 0.975016, 1.02712, 1.00259, 1.00263, 1.00266, 1.04771, 0.997119, 0.990515, 1.06769, 1.04294, 0.991437, 1.04331, 1.02074, 0.9525, 0.949665, 0.949026, 0.948848, 0.948238, 0.947573, 0.947345, 0.947208, 0.946987, 0.946357, 0.946104, 0.945978, 0.945824, 0.945701, 0.945657, 0.94566, 0.945604, 0.94562, 0.945629, 0.946038, 0.945916, 0.945939, 1.09538, 1.08385, 1.10476, 0.940077, 1.07057, 1.05638, 1.15512, 0.937085, 0.937775, 0.94048, 0.939923, 0.938031, 0.938591, 1.04072, 1.11356, 0.938128, 0.937328, 0.936792, 0.936156, 1.20452, 1.12964, 1.2265, 1.11166, 0.928003, 0.928383, 1.0909, 1.04658, 1.24319, 1.22244, 1.22346, 1.29528, 1.08829, 1.0167, 0.919121, 0.91688, 0.917985, 0.916153, 0.916319, 0.914616, 0.914745, 0.911947, 0.910985, 0.911769, 1.03645, 1.03426, 1.01186, 0.905853, 0.903842, 0.903386, 0.903387, 0.902978, 0.905462, 0.904871, 0.905548, 0.906287, 0.905474, 0.905035, 0.9019, 0.902608, 0.902139, 0.901624, 0.901705, 0.903229, 0.905098, 0.906577, 1.03888, 1.03153, 1.03289, 1.03951, 1.03704, 0.992584, 0.992374, 0.966302, 1.05072, 0.958073, 1.04427, 0.97393, 0.99027, 1.05386, 0.964, 0.953099
1.07239, 1.0781, 1.06751, 1.01357, 1.05096, 1.01255, 1.01466, 1.01559, 1.04813, 1.08812, 1.05009, 1.02668, 1.09616, 1.0965, 1.03316, 1.03069, 1.08657, 1.01809, 1.01313, 1.02174, 1.05468, 1.05333, 1.01198, 1.01702, 1.03868, 1.03881, 0.857265, 0.856536, 0.856642, 0.856806, 0.856979, 0.857182, 0.857479, 0.85806, 0.858393, 0.859564, 0.859765, 0.863478, 0.863177, 0.863094, 0.864096, 0.864136, 0.864856, 0.986789, 0.978278, 0.989505, 0.989768, 1.03658, 1.00212, 1.03599, 1.03597, 0.974077, 0.990441, 1.02865, 0.978918, 1.02998, 1.00122, 0.995878, 0.9736, 0.991433, 1.02199, 1.00456, 1.04009, 1.02958, 1.03485, 0.948912, 1.02151, 1.00672, 1.00769, 1.00886, 1.01075, 1.01285, 0.907052, 0.907519, 0.985549, 0.908124, 0.908668, 1.0252, 1.00686, 1.00164, 0.915977, 0.915411, 0.913269, 0.916653, 1.05936, 1.05507, 0.908853, 0.909179, 1.02231, 1.02393, 1.04789, 1.02535, 1.04595, 1.04682, 1.01324, 1.03343, 1.02342, 1.05454, 1.04043, 1.03968, 1.03713, 0.934848, 0.935569, 0.950142, 1.03111, 0.944976, 0.946659, 0.945725, 0.946766, 0.948695, 0.949429, 0.950493, 0.954412, 0.9518, 0.952176, 0.952665, 0.953047, 0.952608, 0.952386, 0.952269, 0.951514, 0.951572, 0.952458, 0.95258, 1.04019, 1.0453, 0.955884, 1.03233, 1.03203, 0.959331, 1.03286, 0.958648, 0.952871, 0.965078, 0.961602, 0.960738, 0.958255, 1.0422, 0.963451, 0.963158, 0.963747, 1.10105, 1.02922, 1.05381, 1.04298, 1.0444, 0.970787, 0.971312, 0.971279, 1.00251, 0.972664, 0.973505, 0.973332, 0.976915, 0.976821, 1.00424, 1.05747, 1.02589, 1.01822, 1.04782, 0.963013, 0.962474, 0.960525, 1.01247, 1.03501, 0.954551, 0.991851, 0.999062, 0.950416, 0.949119, 0.948845, 0.948178, 0.947658, 0.947228, 0.946755, 0.946584, 0.946197, 0.945932, 0.945648, 0.94565, 0.945627, 0.945618, 0.94565, 0.945692, 0.945752, 0.945634, 0.945552, 0.945448, 0.944582, 0.942173, 1.1253, 1.01994, 1.10338, 1.13006, 1.10011, 0.939131, 0.939154, 0.938528, 0.939875, 0.941929, 0.939064, 0.938836, 0.939042, 0.938079, 0.937364, 0.936933, 0.936098, 0.936042, 0.935891, 1.12895, 1.13012, 1.11988, 0.929886, 0.930003, 1.09169, 0.928882, 0.927181, 1.22529, 1.2253, 1.16179, 1.26862, 0.918614, 0.91926, 0.918434, 0.918287, 0.915818, 0.916278, 0.912096, 0.912503, 0.911181, 0.911386, 0.912202, 0.912039, 1.20805, 0.906465, 0.906242, 0.905788, 0.903405, 0.904816, 0.905498, 0.904894, 0.906135, 0.90691, 0.906814, 0.906184, 0.898988, 0.89841, 0.899, 0.901242, 0.901182, 0.901499, 0.902088, 1.03816, 1.0482, 0.910566, 0.911999, 0.913492, 1.06506, 1.06467, 1.0409, 1.04238, 1.0456, 1.04426, 1.06608, 1.06966, 1.04946, 0.993643, 1.04563, 1.04624, 1.04939
1.07682, 1.04869, 1.02299, 1.0356, 1.01018, 1.03639, 1.03444, 1.01938, 1.025, 1.02488, 1.06153, 1.06895, 1.04524, 1.01591, 1.09528, 1.04109, 1.08083, 1.0362, 1.07718, 1.02115, 1.06727, 1.01922, 1.01698, 1.03958, 1.03872, 1.0124, 1.03593, 0.858499, 0.857223, 0.857324, 0.857654, 0.857743, 0.858152, 0.858682, 0.85907, 0.998186, 0.863054, 0.864779, 0.865312, 0.865215, 0.865058, 0.864527, 0.864953, 1.03172, 1.03182, 1.03873, 1.03792, 1.01621, 0.990368, 0.977086, 1.04899, 0.975979, 0.984798, 1.02808, 0.995245, 1.04321, 1.00129, 1.05424, 1.00195, 1.00168, 0.993601, 1.04426, 1.04285, 0.974451, 1.00492, 1.00524, 0.899768, 0.901514, 0.902953, 1.03249, 1.02235, 0.904972, 0.905758, 0.985402, 0.907509, 0.908588, 0.909719, 0.909881, 0.91105, 0.910332, 0.912933, 0.911493, 0.911573, 1.06354, 1.05995, 0.904845, 0.904475, 0.904482, 1.06755, 1.05963, 1.28414, 1.0203, 1.02494, 1.05408, 1.05511, 1.01708, 1.0566, 1.0199, 1.02297, 1.03512, 1.01767, 1.01799, 1.01591, 1.0341, 1.03371, 0.939965, 0.941999, 0.946533, 0.945668, 0.946208, 0.945985, 0.948961, 0.947592, 0.950513, 0.951438, 1.04959, 1.04713, 1.04434, 1.48995, 0.949783, 0.949111, 0.950148, 0.951244, 0.950852, 1.05671, 0.95179, 0.95456, 0.952677, 1.02217, 0.957524, 0.954832, 0.952877, 0.953013, 0.953971, 1.02548, 0.959416, 0.957818, 0.959427, 0.962235, 0.962824, 0.995925, 0.98138, 1.02526, 0.984829, 0.99771, 0.992143, 0.969653, 0.969728, 0.969816, 1.03792, 1.03805, 1.03891, 0.9762, 0.976205, 0.977316, 1.30346, 0.970065, 0.969529, 1.04645, 1.01032, 0.962562, 0.962959, 0.990599, 0.986086, 1.03075, 0.992996, 1.0378, 0.997552, 0.950523, 0.94885, 0.947926, 0.947282, 0.946658, 0.946264, 0.946013, 0.945644, 0.945517, 0.94556, 0.945563, 0.945474, 0.945368, 0.945535, 0.945607, 0.945649, 0.945631, 0.94555, 0.945522, 0.945092, 0.94351, 0.941612, 1.1013, 0.939823, 0.942601, 0.939735, 0.940668, 0.938998, 0.940193, 0.938621, 0.938517, 0.938774, 0.939158, 0.94194, 0.94204, 0.942323, 0.938818, 0.937955, 0.937094, 0.936396, 0.935219, 0.93473, 1.04034, 1.04085, 0.932751, 0.93174, 1.11199, 0.93081, 0.929627, 0.930696, 1.16388, 1.0794, 0.923147, 0.922162, 0.9201, 0.920735, 0.916219, 0.918478, 0.916665, 0.910811, 0.911312, 0.911133, 0.911445, 0.912895, 0.913335, 0.909374, 0.906238, 0.906122, 0.996281, 0.904731, 0.905607, 0.90791, 0.907554, 0.908104, 0.906955, 0.905432, 0.902545, 0.900616, 0.900624, 0.898767, 0.900752, 0.902056, 0.902058, 0.903366, 0.907909, 0.908232, 0.911605, 0.912874, 0.913169, 0.915151, 1.07409, 1.01536, 1.01498, 1.07394, 0.925195, 0.925987, 1.05307, 1.02692, 1.07214, 1.01916, 1.07117, 0.9929
1.06786, 1.00277, 1.0594, 1.06006, 1.02559, 1.01178, 1.01821, 1.03341, 1.07171, 1.07446, 1.01252, 1.04575, 1.03009, 1.01928, 1.07112, 1.06648, 1.08241, 1.02217, 0.997819, 1.02312, 1.01025, 1.01772, 1.02268, 0.990901, 1.03563, 1.03615, 1.03485, 1.0329, 1.0433, 0.858457, 0.858406, 0.85835, 0.858921, 0.859171, 0.859805, 0.860149, 1.04048, 0.864756, 0.865502, 0.866205, 0.865201, 0.865061, 0.865163, 0.997683, 1.03914, 1.02497, 1.02222, 1.02221, 0.93634, 1.02259, 1.02209, 1.02503, 1.02361, 0.997434, 0.987625, 1.03195, 1.0321, 1.0542, 1.00122, 0.990929, 1.04394, 0.896168, 1.04404, 1.06027, 1.03765, 1.03669, 0.900152, 0.90123, 0.903063, 0.904277, 0.905841, 0.90453, 1.00317, 1.00422, 0.906394, 0.907541, 0.908182, 0.908662, 0.910454, 0.908247, 0.898738, 0.899009, 0.899167, 0.904968, 0.905804, 0.904891, 0.90424, 0.906308, 0.907291, 1.06428, 1.25002, 1.06015, 1.29515, 1.05465, 1.05406, 1.0523, 1.01708, 1.05723, 1.0362, 1.03269, 1.01247, 1.00785, 1.02723, 1.02623, 0.939006, 0.939702, 0.940152, 1.04644, 1.04612, 1.04286, 1.04324, 1.03892, 0.949163, 0.94992, 0.950112, 1.0281, 1.04918, 1.04221, 1.05231, 0.948625, 0.949453, 0.950165, 0.952246, 0.948777, 0.947968, 1.05015, 1.02856, 0.950365, 0.950271, 1.02966, 1.01728, 0.952398, 0.952855, 1.02318, 0.95494, 0.95684, 0.957434, 1.0153, 1.02354, 0.991877, 0.981771, 1.00952, 1.0236, 0.995565, 0.967234, 0.968375, 1.02675, 1.41643, 0.970626, 0.971186, 0.972864, 0.973273, 0.973524, 0.973794, 0.974797, 0.975291, 0.981754, 0.982718, 0.985501, 1.01553, 0.98653, 1.00189, 0.988264, 0.956752, 1.02687, 1.03004, 1.0046, 1.01271, 1.01046, 0.947085, 0.946433, 0.945912, 0.94579, 0.946075, 0.945497, 0.945505, 0.945277, 0.944826, 0.944615, 0.944538, 0.944649, 0.944853, 0.945298, 0.945487, 0.94556, 0.945462, 0.945469, 0.945148, 0.944028, 0.942923, 0.942341, 0.942124, 0.941732, 0.941403, 0.941167, 0.940923, 0.940838, 0.940572, 0.939937, 0.939709, 0.941436, 0.942096, 0.942079, 0.939944, 1.0613, 0.936734, 0.936361, 0.936446, 0.935254, 0.934397, 0.934315, 1.10218, 1.12077, 0.935416, 0.933403, 0.930445, 0.930471, 0.929982, 0.928014, 0.922786, 0.923715, 0.923414, 0.919751, 0.91903, 0.918528, 0.919127, 1.09077, 1.14402, 0.912528, 0.913656, 0.913601, 0.914462, 0.914372, 1.11521, 0.998499, 1.12286, 1.12398, 0.910197, 0.909837, 0.908467, 0.90997, 0.90912, 0.904714, 0.902364, 0.900805, 0.902637, 0.900925, 1.03423, 0.900843, 0.901213, 1.04434, 1.0742, 0.909045, 0.910856, 0.912829, 0.91304, 0.913892, 0.916444, 0.918041, 0.923348, 0.924732, 0.926278, 0.926607, 0.928793, 0.930042, 1.08421, 1.02305, 1.0904, 0.932717, 1.03022
1.03249, 1.05661, 1.0104, 1.00932, 1.56353, 1.13068, 1.03251, 1.02222, 1.04057, 1.00839, 1.02902, 1.0227, 1.01181, 1.07673, 1.07604, 1.02978, 1.08703, 1.01957, 1.01514, 1.01675, 1.02506, 1.00062, 1.03645, 0.871424, 1.03661, 1.02653, 1.03774, 0.981699, 1.04597, 1.04712, 1.04192, 0.860039, 0.859203, 0.859521, 0.860091, 0.86134, 0.862502, 0.863896, 0.865261, 0.864992, 0.865283, 0.865128, 1.02266, 1.02223, 0.992697, 0.998956, 1.04015, 1.02276, 1.03966, 1.03971, 1.02574, 0.878037, 0.991994, 0.990812, 0.987914, 1.0055, 1.00437, 0.992576, 1.06331, 0.974515, 0.894542, 0.89716, 0.900487, 0.902566, 1.06046, 1.05507, 1.05502, 0.901193, 0.902624, 0.903863, 0.904057, 0.904487, 0.904817, 0.906106, 0.906871, 0.908282, 0.908246, 0.907499, 0.899165, 0.898049, 0.899452, 0.899425, 1.08139, 0.904252, 0.904787, 0.904082, 0.905234, 0.906089, 0.905008, 1.06079, 1.04714, 1.02369, 0.916146, 0.917421, 1.05173, 1.29352, 1.02649, 1.01392, 1.01694, 1.02025, 1.05568, 1.01957, 1.0227, 0.93346, 0.934867, 0.937419, 0.939651, 1.00525, 1.01762, 1.02896, 1.03439, 1.04039, 1.03362, 1.03328, 0.946703, 0.946882, 0.943812, 1.02332, 1.0248, 1.06748, 1.05587, 1.0153, 1.0485, 1.03573, 1.00406, 1.03597, 1.02569, 1.03221, 1.02904, 1.03182, 0.99916, 1.01622, 0.990167, 1.00964, 0.996373, 1.00139, 0.973939, 0.986209, 1.01166, 0.992251, 0.960711, 0.982256, 1.00866, 1.00875, 0.966214, 0.96665, 0.9858, 0.9849, 0.969797, 0.970996, 0.971348, 0.969919, 0.970964, 0.973455, 0.973317, 0.980299, 1.00826, 1.00181, 0.995926, 0.984073, 1.00084, 0.959471, 0.985686, 1.01692, 1.0262, 0.989107, 1.02588, 0.948639, 1.00873, 0.99155, 0.998475, 0.944188, 0.945153, 0.945574, 0.945704, 0.945187, 0.94383, 0.943294, 0.943096, 0.943138, 0.94326, 0.943971, 0.944402, 0.94479, 0.944896, 0.945189, 0.9454, 0.945351, 0.944798, 0.944192, 0.943785, 0.943663, 0.94357, 0.943268, 0.942741, 0.942175, 0.942062, 0.94253, 0.944547, 0.9406, 0.942612, 0.942716, 0.942674, 1.06348, 0.934827, 1.06453, 0.932703, 0.93383, 0.933507, 0.933703, 0.934879, 0.935174, 0.934678, 0.934751, 0.933958, 0.933325, 1.09634, 1.06112, 0.926595, 0.922533, 0.924029, 0.923843, 1.14147, 0.91897, 0.92027, 0.918443, 1.08049, 0.915607, 0.915278, 0.91239, 0.912764, 1.11444, 1.05529, 1.11979, 0.918435, 0.918136, 0.918635, 0.915544, 0.908735, 0.909798, 0.911767, 0.905871, 0.906349, 1.0674, 0.905495, 0.905762, 1.36864, 1.03967, 1.03714, 0.99543, 1.20863, 0.992294, 1.07373, 1.07382, 0.911414, 1.09144, 1.09507, 0.917413, 0.919026, 1.21246, 0.926337, 0.926157, 0.92814, 0.930072, 0.931743, 0.932617, 0.934186, 0.934532, 0.93521, 0.998828
1.05447, 1.04129, 1.0045, 1.0129, 1.56242, 1.02262, 1.01269, 1.01899, 1.01379, 1.04298, 1.02039, 1.0731, 1.08474, 1.03096, 1.08064, 1.03227, 1.02376, 1.0254, 0.993022, 1.00925, 1.00949, 0.966975, 0.872705, 0.87288, 1.02545, 0.97531, 0.98055, 0.978319, 1.0219, 1.02285, 1.02681, 1.02556, 0.861273, 0.862001, 0.861163, 0.861865, 0.862518, 0.863108, 0.864006, 0.8645, 0.864768, 0.865012, 0.989458, 1.04246, 1.04283, 1.02817, 1.02761, 1.02868, 1.02926, 1.01915, 0.999625, 0.981534, 0.984053, 1.02687, 0.991304, 0.962154, 0.961428, 0.9781, 0.980342, 0.894115, 0.896847, 0.898615, 0.902692, 0.904904, 0.904383, 0.908004, 0.906415, 0.90235, 0.902772, 0.903137, 0.903252, 0.902852, 0.903199, 0.90315, 0.907513, 0.90765, 0.908745, 1.00458, 0.898456, 0.898938, 0.899926, 0.901003, 1.00294, 1.00443, 1.22618, 1.05688, 0.904824, 0.907833, 0.902534, 0.910912, 1.04904, 1.05425, 0.915839, 0.916875, 0.916695, 1.01949, 1.02979, 1.02258, 1.02884, 1.01374, 1.03233, 1.03215, 1.00454, 0.933301, 0.935678, 1.03318, 1.00296, 1.02948, 1.0293, 1.03241, 1.03326, 1.03408, 1.04391, 1.04921, 1.01928, 1.38074, 1.04251, 0.942623, 0.942081, 0.941088, 0.940785, 1.01185, 1.04242, 1.49906, 1.02975, 0.991043, 1.43502, 1.02116, 1.02168, 1.03548, 1.00922, 1.00664, 1.00301, 0.950189, 0.950096, 1.00259, 0.977089, 0.976401, 0.971554, 1.00103, 1.00594, 0.958666, 1.00403, 1.019, 0.999097, 1.00065, 0.992894, 0.964929, 0.965396, 0.969762, 0.967638, 0.969419, 0.970017, 0.969492, 0.969985, 0.97055, 0.99644, 0.974179, 0.978684, 0.981905, 0.983684, 0.996527, 0.996899, 0.98227, 1.00861, 0.990381, 1.04247, 1.02289, 1.04616, 1.00878, 1.02759, 1.01328, 0.942203, 0.942852, 0.941746, 0.942622, 0.942257, 0.942033, 0.941956, 0.942037, 0.942178, 0.942433, 0.943554, 0.943634, 0.943911, 0.944576, 0.945291, 0.945471, 0.945324, 0.945347, 0.945324, 0.945514, 0.94547, 0.944852, 0.944255, 0.943151, 0.942869, 0.944598, 0.944504, 0.947399, 0.945602, 0.944865, 0.943914, 1.06313, 1.06385, 1.06499, 0.933026, 1.0639, 1.06045, 1.08195, 0.935568, 0.935711, 0.936152, 0.935153, 0.934077, 0.932875, 0.93501, 0.931879, 0.929764, 0.925069, 1.11362, 1.11725, 1.1185, 0.921934, 0.921463, 0.920682, 0.917743, 0.91731, 0.915361, 1.03277, 1.10203, 1.11203, 1.0596, 0.924171, 1.11689, 1.1159, 0.922262, 0.920904, 1.13003, 1.0048, 0.91086, 0.911337, 1.28004, 1.0698, 1.10803, 1.0856, 1.08799, 1.17661, 1.07938, 1.08745, 1.19821, 0.993983, 1.08366, 1.08463, 0.99104, 1.08736, 1.098, 1.07349, 1.0293, 0.924757, 0.927726, 0.929585, 1.20569, 1.049, 1.14252, 1.08129, 0.935342, 0.935532, 0.936658, 1.11615
1.04726, 1.0465, 1.03971, 1.00495, 1.0048, 1.01557, 1.04477, 1.01447, 1.07441, 1.08087, 1.03697, 1.0195, 1.09386, 1.03617, 1.05402, 1.03009, 1.02837, 0.979759, 1.00948, 1.0022, 1.01977, 0.968569, 1.02172, 0.873158, 1.03197, 1.03233, 1.0364, 1.01954, 1.0335, 0.988314, 1.03728, 0.98139, 1.03915, 1.00525, 0.863849, 0.863328, 1.04128, 0.863187, 0.863867, 0.864184, 0.864609, 1.00422, 1.02845, 1.03012, 1.03536, 1.03565, 1.0303, 1.03002, 1.01139, 1.01015, 0.978684, 1.0267, 0.988336, 0.989126, 0.977987, 1.02848, 0.979257, 1.031, 0.991292, 0.998436, 0.897703, 0.900915, 0.904349, 0.905422, 0.908504, 0.911156, 0.906541, 0.906808, 0.902786, 0.902964, 0.902415, 0.901604, 0.904155, 0.906102, 0.907297, 0.90679, 0.90582, 1.00403, 0.998809, 1.21355, 1.21533, 1.00782, 1.22309, 1.22571, 1.05006, 1.02497, 1.0892, 1.05501, 1.25216, 0.912847, 0.91593, 0.916849, 0.916824, 0.916336, 0.914894, 0.91754, 0.917948, 1.03697, 1.03602, 0.923648, 0.924766, 1.03475, 1.20094, 0.929277, 1.01511, 1.02145, 1.03217, 1.02978, 1.02526, 0.932121, 0.932113, 1.02928, 1.02537, 1.02499, 1.05362, 0.932914, 1.05557, 0.941246, 0.942383, 0.941132, 0.939784, 0.938511, 1.05058, 1.03031, 0.990482, 1.45043, 1.01543, 1.45884, 1.01499, 0.982668, 0.983849, 0.999858, 1.00178, 0.971721, 1.00039, 0.995593, 1.58474, 0.955778, 0.956269, 0.957483, 0.957558, 0.95841, 0.959581, 0.96076, 0.961708, 1.00785, 0.963814, 0.964257, 0.964436, 0.968108, 0.96745, 0.968771, 0.966767, 0.969132, 0.970033, 1.0027, 0.979438, 0.981253, 0.980875, 0.981776, 1.01156, 1.00257, 0.994631, 1.01913, 0.981016, 1.02566, 1.02359, 1.03352, 0.991795, 1.05564, 0.980959, 1.01521, 1.04375, 0.941267, 0.942101, 1.0568, 1.12638, 1.05224, 0.974768, 1.05321, 1.05273, 1.05123, 0.943307, 0.945599, 0.945419, 0.946268, 0.946333, 0.947576, 0.947522, 0.945644, 0.946003, 0.946703, 0.945645, 0.945506, 0.945554, 0.943841, 0.943741, 0.945531, 0.946465, 0.94685, 0.946643, 0.946622, 1.04675, 1.05686, 1.05551, 1.07108, 0.937248, 1.06551, 0.935714, 0.938369, 0.940634, 0.938676, 0.935199, 0.932481, 0.932913, 0.935249, 0.93535, 0.936748, 0.939582, 1.11613, 0.930397, 0.928203, 1.08725, 0.923271, 0.924147, 1.1446, 1.05201, 1.1019, 1.10052, 1.03348, 1.06302, 1.10071, 1.10254, 1.08279, 1.04008, 1.08273, 1.11272, 1.11997, 1.11315, 0.918169, 0.916645, 1.13632, 1.16115, 1.16037, 1.15861, 1.14898, 1.08496, 1.15721, 1.08988, 1.30361, 1.09015, 1.25479, 1.23074, 1.23017, 1.05169, 0.933605, 1.02321, 1.07377, 1.07436, 1.21319, 1.21574, 0.931024, 1.14268, 0.934979, 1.14629, 1.0944, 0.936751, 0.948975, 0.948439, 0.949867
1.04971, 1.01219, 1.01244, 1.02965, 1.01486, 1.03371, 0.93152, 1.01344, 1.03048, 1.01968, 1.0871, 1.0055, 0.98143, 0.991398, 0.988319, 1.03976, 1.02618, 1.02029, 1.0215, 1.01018, 1.00583, 1.0056, 0.998544, 1.01219, 1.02936, 1.00948, 0.974118, 0.981836, 1.00454, 1.0186, 1.03553, 0.963388, 0.956138, 1.0518, 1.01603, 1.01862, 1.03401, 1.04703, 1.0184, 1.02432, 1.0255, 1.00999, 0.98109, 1.03206, 0.976933, 1.00187, 0.874108, 0.977334, 0.977594, 1.03185, 1.02597, 1.02899, 0.980752, 0.998017, 0.997852, 0.994146, 0.988258, 0.997659, 1.10979, 0.897336, 0.899674, 0.903495, 0.906253, 0.90793, 0.910482, 0.910412, 0.909609, 0.911025, 0.903921, 0.90352, 0.90294, 0.902164, 0.903819, 0.904383, 0.905316, 0.9055, 0.905017, 1.22893, 1.22188, 1.18177, 1.00293, 1.00281, 1.20032, 1.04929, 1.0502, 1.0512, 1.05282, 1.03839, 1.03976, 1.0401, 0.918366, 0.91815, 0.917986, 0.920857, 0.920486, 0.919516, 0.919111, 0.918319, 0.919997, 0.923016, 0.924659, 0.924713, 0.927245, 0.927469, 1.02236, 1.02199, 1.01108, 1.0107, 0.929854, 0.929003, 0.929248, 1.04057, 1.35266, 1.39166, 1.0223, 0.934184, 0.933889, 0.938546, 1.37703, 1.0252, 0.938559, 0.938677, 0.937602, 0.994479, 1.00231, 0.982775, 0.986564, 0.979032, 0.97801, 0.994111, 1.00602, 0.989183, 0.992611, 0.991861, 0.987322, 0.989405, 0.952645, 0.953222, 0.954569, 0.956395, 0.956227, 0.957663, 0.959133, 0.973884, 0.969821, 0.951745, 0.981414, 0.981168, 0.969993, 0.97036, 0.966673, 0.966487, 0.966638, 0.966483, 0.967176, 0.97527, 1.00404, 0.959381, 0.999046, 0.958331, 0.98726, 1.01575, 0.997687, 0.981937, 1.02713, 0.98367, 0.963129, 1.01096, 1.03754, 1.00014, 1.01933, 1.0181, 1.01881, 1.0266, 1.055, 1.01087, 0.976703, 0.972931, 1.00768, 1.06774, 1.058, 1.05622, 1.06916, 1.06655, 0.947154, 1.05936, 0.946055, 0.949598, 0.950077, 0.947281, 0.948685, 0.946831, 0.945657, 0.945661, 0.945659, 0.945897, 0.945707, 0.946916, 0.947222, 0.94486, 1.05249, 1.03923, 1.05066, 1.05235, 1.05358, 1.07006, 1.09127, 1.08549, 1.04415, 1.06017, 1.09058, 1.09119, 1.07156, 0.941276, 0.941296, 0.940844, 0.941863, 0.939197, 0.939831, 0.934149, 0.930501, 0.930044, 0.92924, 0.929828, 0.930937, 0.931529, 1.11744, 1.05056, 1.08871, 1.05779, 1.03662, 1.04263, 1.08222, 0.980846, 1.0984, 0.928757, 0.928739, 0.927409, 0.925338, 1.13684, 1.11085, 1.10117, 1.10124, 1.10304, 1.15023, 1.15012, 1.1518, 1.17963, 1.0952, 1.15211, 1.09232, 0.99064, 1.23496, 1.18462, 1.05793, 0.940904, 1.17048, 0.99066, 1.19101, 1.08558, 1.10494, 1.11162, 1.11135, 0.936895, 0.937815, 0.941343, 1.097, 1.03206, 1.02985, 1.03058
1.0133, 1.0111, 1.03563, 1.04271, 1.04383, 1.02832, 1.0376, 1.03751, 1.00443, 1.04924, 1.01952, 0.982004, 0.983706, 0.987707, 1.01528, 1.01601, 1.00459, 1.00947, 1.00499, 1.00105, 0.998129, 1.00602, 0.996031, 1.02291, 1.00633, 1.0129, 1.02255, 0.98048, 0.984762, 1.02956, 1.01827, 1.03973, 0.968023, 1.01219, 1.05019, 1.04933, 1.048, 0.967361, 1.01253, 1.05478, 1.02603, 1.00268, 1.0564, 1.00526, 0.872475, 0.872818, 0.875141, 0.875255, 0.877065, 0.989753, 1.02847, 0.981963, 0.978958, 0.995907, 1.07366, 1.07453, 1.04991, 0.978068, 0.998664, 0.998538, 1.08748, 0.904045, 0.905026, 0.908788, 0.911703, 0.911051, 0.908392, 0.907243, 0.904345, 0.903886, 0.903939, 1.02194, 1.02374, 0.904309, 0.904616, 1.24609, 1.03256, 1.00205, 1.03882, 1.0407, 1.04582, 1.02516, 1.02489, 1.01148, 0.993585, 1.08095, 1.20183, 1.04341, 1.20531, 1.04103, 0.917871, 0.918308, 0.918808, 0.920727, 0.921116, 0.921298, 0.92108, 0.921269, 0.922502, 0.923823, 0.924406, 0.925777, 0.925931, 0.925729, 0.927506, 0.927942, 0.925992, 0.924608, 0.923152, 0.923969, 0.923923, 1.04362, 1.02914, 1.04884, 0.933691, 0.934354, 0.936008, 0.937535, 0.938311, 0.937371, 0.936052, 0.937319, 0.93527, 0.933799, 0.931221, 0.998215, 0.936364, 0.980742, 0.994846, 0.996083, 1.25125, 0.964345, 0.994838, 0.961572, 0.94367, 0.944548, 0.948248, 0.949347, 0.951317, 0.953135, 0.956831, 0.957563, 0.957985, 0.991579, 0.951473, 0.951936, 0.968663, 1.01204, 1.01484, 0.987572, 1.51638, 1.01903, 1.01846, 0.963252, 0.962907, 0.95993, 0.959389, 0.958598, 0.957179, 0.958627, 0.957969, 0.95787, 0.987394, 0.9881, 1.01811, 0.959759, 0.959281, 1.01238, 1.02291, 1.01484, 1.01499, 1.0073, 1.02164, 1.01969, 1.00705, 1.00853, 0.991044, 1.00441, 1.0485, 0.988262, 1.05628, 1.07415, 0.990888, 0.946154, 1.06044, 0.951151, 0.951174, 0.952519, 0.953549, 0.951701, 0.948215, 0.948158, 0.947344, 0.94564, 0.945985, 0.945639, 0.947708, 1.02926, 1.02953, 0.94578, 1.06702, 1.04988, 1.05054, 1.06066, 1.05942, 0.946952, 0.94704, 0.944428, 1.08459, 0.943515, 0.944221, 0.945935, 0.943763, 0.942098, 0.942968, 0.943397, 0.943506, 0.940399, 0.93907, 0.936589, 0.930214, 0.931743, 0.929638, 0.931002, 0.930625, 1.11276, 1.06727, 0.937587, 0.936962, 0.936222, 0.934747, 0.935456, 0.935167, 0.935325, 1.08736, 0.929044, 0.93047, 1.06348, 0.970299, 1.10122, 1.10181, 1.21843, 1.14053, 1.15753, 1.15331, 0.960472, 1.16759, 1.15331, 1.09478, 1.15261, 1.18819, 1.14906, 1.05363, 1.05419, 1.17618, 1.06715, 1.06907, 1.1391, 1.07166, 1.07337, 1.18824, 1.08227, 1.26811, 1.11801, 1.20111, 1.0902, 0.946114, 0.950247, 1.21615, 0.952887
1.05414, 1.05427, 0.997786, 1.02456, 1.06091, 1.3272, 1.03549, 1.03322, 1.03187, 1.02225, 1.02205, 1.01573, 1.01648, 1.02039, 1.04896, 1.00539, 1.00799, 1.00248, 0.994667, 0.99214, 0.970092, 0.956727, 1.01544, 0.968093, 1.00907, 0.981028, 0.966728, 0.984029, 0.978061, 0.970562, 0.977327, 1.00185, 0.968356, 1.00803, 0.869602, 1.05411, 0.981491, 0.983227, 0.976861, 0.974362, 0.986671, 1.0088, 0.975497, 1.02346, 0.873125, 0.872976, 0.875724, 0.876648, 0.974648, 1.02705, 0.999211, 1.0286, 1.02854, 1.02861, 1.07189, 0.993801, 0.971874, 1.08093, 1.01973, 1.04993, 0.991931, 1.0922, 0.907423, 0.908817, 0.908654, 0.909897, 0.910851, 0.905976, 0.905699, 0.906492, 1.10775, 1.1081, 1.01477, 1.02906, 1.00193, 1.00193, 1.00275, 1.2508, 1.24874, 0.991225, 1.01639, 1.02905, 1.05347, 1.04157, 1.04118, 1.15118, 1.04273, 1.17262, 1.12035, 1.19882, 1.19892, 1.11414, 1.22298, 1.13635, 1.02939, 0.921099, 0.92284, 0.923963, 0.922839, 0.924094, 0.92475, 0.924906, 0.925096, 0.926567, 0.92696, 0.925826, 0.924144, 0.921687, 0.92175, 0.914689, 0.915267, 1.02274, 1.03658, 1.01448, 1.0408, 1.04103, 1.01164, 0.937414, 0.937732, 0.93311, 0.935594, 0.935444, 0.932063, 0.931698, 0.932027, 0.93031, 0.929174, 0.930367, 0.935096, 1.36085, 0.934581, 0.935228, 0.936467, 0.938526, 0.944743, 0.945665, 0.946715, 0.950289, 0.952288, 0.955741, 0.956453, 0.957084, 1.00016, 0.998653, 0.952638, 0.952558, 0.99509, 0.993979, 0.971611, 1.01648, 1.02139, 0.970271, 1.01852, 0.96276, 0.96148, 0.959209, 0.958064, 0.958953, 0.957928, 0.958231, 0.958162, 0.956672, 1.02248, 1.01627, 1.02203, 1.00473, 1.00499, 1.00839, 1.01907, 1.00088, 1.01275, 0.969514, 1.01036, 1.00918, 1.00199, 1.00412, 1.0197, 0.978942, 0.989211, 1.0558, 1.05847, 1.0574, 0.943279, 0.944191, 0.947156, 0.950997, 0.952067, 0.950188, 0.952468, 1.07146, 0.949862, 0.947747, 0.948094, 0.947284, 1.04647, 1.05378, 1.0475, 1.0511, 1.04662, 1.04696, 0.949922, 0.949722, 0.95097, 0.951269, 0.950798, 0.950682, 0.949972, 0.947977, 0.948646, 0.945487, 0.942705, 0.943675, 0.946218, 0.946166, 0.943328, 0.942241, 0.938267, 0.935664, 0.937542, 0.939239, 0.938246, 0.939381, 1.11709, 0.939221, 0.936843, 0.935808, 0.936793, 0.936308, 0.935835, 0.937186, 0.936963, 0.936511, 0.93659, 0.93569, 0.935288, 0.929511, 1.01484, 1.09372, 1.04698, 1.04905, 1.09794, 1.01479, 1.04069, 1.08644, 1.21133, 0.950942, 1.10849, 1.11067, 1.16624, 1.04035, 1.14278, 1.10188, 1.17368, 0.952544, 0.953366, 1.1714, 0.946566, 0.947315, 1.22319, 1.14419, 1.18873, 0.950754, 1.1894, 1.12249, 1.18472, 1.18911, 0.948907, 0.952289, 0.952753, 1.13224
1.03013, 1.02478, 1.02386, 1.03156, 1.03353, 1.02568, 1.02656, 1.04064, 1.03016, 1.01875, 1.03129, 1.01219, 1.02035, 0.994107, 1.02524, 1.0052, 1.018, 0.998856, 0.999032, 1.00638, 0.963822, 0.963936, 1.00345, 1.01895, 0.964946, 0.965479, 1.00366, 0.963345, 1.00122, 1.01874, 0.967555, 0.968084, 0.977106, 1.00456, 1.01808, 0.980889, 0.969429, 0.980651, 1.01136, 1.02215, 0.97365, 0.970393, 0.997734, 1.02204, 0.878213, 0.877446, 0.877491, 0.879252, 0.966096, 0.998797, 0.99892, 1.02368, 0.995958, 1.06762, 1.01811, 1.01901, 1.0164, 0.990634, 0.976884, 1.00954, 1.01112, 1.01086, 1.0527, 0.908058, 0.909631, 0.911027, 0.910539, 0.90857, 0.906486, 1.07139, 1.00879, 1.01019, 1.01856, 1.01684, 1.03384, 1.02606, 0.913467, 1.13141, 1.03146, 1.03993, 0.917091, 1.01562, 1.05295, 1.15175, 1.01178, 0.993746, 1.17221, 1.17268, 1.27901, 0.95626, 1.19431, 1.00563, 0.927718, 0.928534, 1.01314, 0.923254, 0.925264, 0.926746, 0.924126, 0.924845, 0.925275, 0.925569, 0.92602, 0.925704, 0.925481, 0.925305, 0.924054, 0.925187, 0.922289, 0.916654, 0.916382, 1.038, 1.04249, 1.04675, 1.01807, 1.00802, 0.934169, 0.934714, 0.936458, 0.935872, 0.935115, 0.934894, 0.933242, 0.931814, 0.931677, 0.928456, 0.928296, 0.92839, 0.928038, 0.929541, 0.933189, 0.936001, 0.935856, 0.938952, 0.990162, 0.984725, 1.10214, 1.10305, 0.953324, 0.955004, 0.953174, 1.22205, 0.990986, 1.00443, 0.9498, 0.949263, 0.948292, 0.948009, 0.998355, 0.950944, 0.995135, 0.953767, 0.9982, 0.955059, 0.954775, 0.95589, 0.958357, 0.95866, 0.958412, 0.956129, 0.957264, 0.99692, 0.999964, 1.02574, 1.02662, 0.991573, 1.02959, 1.02914, 1.00558, 0.992146, 1.00465, 1.03928, 0.980003, 1.01283, 1.01338, 1.01224, 0.994152, 1.05585, 1.0034, 1.05826, 1.05694, 0.939779, 0.942015, 0.942201, 1.06331, 0.950087, 0.953174, 1.07206, 1.06844, 0.957763, 0.956721, 0.957263, 0.950305, 0.953212, 0.95736, 0.955208, 0.953467, 0.952674, 0.953508, 0.952062, 0.952708, 0.951276, 0.952184, 0.951382, 0.952365, 0.95346, 0.952702, 0.95255, 0.949641, 0.947674, 0.947843, 0.949061, 0.946739, 0.946801, 0.943142, 0.94301, 0.942825, 0.94273, 0.942917, 1.10367, 1.14176, 0.938763, 0.938793, 0.937774, 0.936024, 0.937073, 0.938037, 0.937766, 0.936678, 0.937857, 1.10158, 1.10317, 0.939078, 0.93747, 0.935394, 1.00761, 1.04335, 1.16459, 1.04654, 1.04586, 1.00242, 1.07728, 1.00395, 1.00515, 0.957713, 0.956032, 1.14436, 0.955289, 0.955824, 0.95468, 0.954694, 1.09836, 0.953662, 0.954659, 0.955498, 0.955225, 1.16687, 0.951634, 1.1739, 1.21069, 0.953564, 0.951783, 0.953886, 1.07031, 1.13257, 1.13586, 1.24368, 1.13303, 1.08432, 0.955772
0.970129, 1.72315, 1.25243, 1.26124, 1.27865, 1.03069, 1.02692, 1.03027, 1.03646, 1.01938, 1.00959, 0.929615, 1.00228, 1.02265, 1.00935, 0.997101, 0.987825, 1.00634, 1.0039, 0.994766, 0.956834, 0.960006, 0.973701, 0.986667, 0.961271, 0.957724, 0.991993, 0.999093, 0.979875, 0.991211, 0.992089, 1.01577, 0.97007, 0.98084, 0.998141, 1.4614, 1.01284, 0.980226, 0.980052, 0.999573, 0.986431, 0.97192, 0.977447, 1.01494, 0.878465, 0.982707, 1.01974, 0.998692, 0.979673, 0.997893, 0.99798, 0.994354, 0.997744, 0.895847, 0.896334, 0.89951, 1.01523, 1.01483, 1.01162, 1.01126, 1.01176, 0.980302, 0.980529, 0.907772, 0.908534, 0.909689, 0.909693, 0.908337, 1.00789, 1.07019, 1.00832, 0.992755, 1.02814, 1.01358, 1.01254, 1.12068, 0.91472, 1.00543, 1.03057, 0.917266, 0.917569, 0.917869, 1.15074, 1.0068, 1.00963, 1.22971, 1.21974, 1.00237, 1.00219, 1.00175, 1.02187, 0.986596, 0.928334, 0.927562, 0.929042, 0.925322, 0.925969, 0.926295, 0.924788, 0.924817, 0.924943, 0.924973, 0.924637, 0.925677, 0.924737, 0.924223, 0.924837, 0.92555, 0.922436, 0.922105, 0.922434, 0.92338, 0.924549, 0.92896, 0.931892, 0.932555, 0.934826, 0.935001, 0.935764, 0.936593, 0.935339, 0.93026, 0.930951, 0.929942, 0.930521, 0.928758, 0.929043, 0.926628, 0.927437, 0.926752, 0.926695, 0.932408, 0.935032, 0.937378, 0.978889, 0.988286, 0.981189, 0.94475, 0.983483, 0.983946, 0.953794, 0.94894, 0.943411, 0.943744, 0.94269, 0.944066, 0.946627, 0.948464, 0.959453, 0.949011, 0.949251, 0.952693, 0.952706, 0.947754, 0.953181, 0.954407, 0.957311, 0.958208, 0.997974, 0.998486, 1.00118, 1.0165, 1.0132, 1.01884, 1.01921, 1.0181, 1.00426, 1.02684, 0.986291, 0.987095, 1.02502, 1.02015, 1.04731, 1.04698, 1.04142, 0.922992, 0.921904, 0.922383, 0.929006, 1.06371, 1.05989, 0.94088, 1.06359, 0.9485, 1.06806, 1.05603, 1.04831, 1.06885, 0.958176, 0.957922, 0.957848, 0.957527, 0.958271, 0.959625, 0.957347, 0.957681, 0.956182, 0.955985, 0.954096, 0.953973, 0.952514, 0.953496, 0.952798, 0.95249, 0.953106, 0.953533, 0.952202, 0.950954, 0.946819, 0.94853, 0.949549, 0.949901, 0.949004, 0.949274, 0.946253, 0.94555, 0.945504, 0.945235, 1.00782, 0.946186, 0.946527, 0.94576, 0.937556, 0.938874, 0.93732, 0.93955, 0.938902, 0.939675, 0.940464, 0.940252, 0.941609, 0.941949, 0.938778, 0.938829, 1.08087, 1.07203, 1.00831, 1.03928, 1.08473, 1.07511, 0.96377, 1.08129, 1.04994, 0.955068, 0.957802, 0.958145, 0.958187, 0.956259, 0.956335, 0.957312, 0.95712, 0.959103, 0.95911, 0.959962, 0.957326, 0.959871, 0.961003, 0.954486, 0.956029, 0.954679, 0.955964, 0.954226, 0.956678, 1.18024, 1.17568, 0.963564, 1.18122, 1.13349, 1.18925, 1.19029
