1.33316, 1.19796, 1.19865, 1.26874, 1.20867, 1.20976, 1.21295, 1.21668, 1.21888, 1.21878, 1.40218, 1.17401, 1.17379, 1.15994, 1.1608, 1.12632, 1.12656, 1.12664, 1.13942, 1.1394, 1.12821, 1.12846, 1.13225, 1.13436, 1.13503, 1.13848, 1.14501, 1.14526, 1.12333, 1.12337, 1.12464, 1.12537, 1.12643, 1.11983, 1.11745, 1.11572, 1.11532, 1.14381, 1.26072, 1.25701, 1.26371, 1.1652, 1.17351, 1.15041, 1.15066, 1.15097, 1.12311, 1.12919, 1.13406, 1.15814, 1.10187, 1.09456, 1.08761, 1.08758, 1.07919, 1.0739, 1.06823, 1.06732, 1.06288, 1.06484, 1.06396, 1.06505, 1.06467, 1.0646, 1.06484, 1.0664, 1.064, 1.06105, 1.06061, 1.06087, 1.06114, 1.06042, 1.0605, 1.06013, 1.05957, 1.05949, 1.06082, 1.06006, 1.06064, 1.06015, 1.06019, 1.05995, 1.05882, 1.05927, 1.05971, 1.05843, 1.05896, 1.05954, 1.05975, 1.06026, 1.06109, 1.05958, 1.05919, 1.0593, 1.05805, 1.05639, 1.05615, 1.0537, 1.05112, 1.04878, 1.04871, 1.04913, 1.04857, 1.04921, 1.0483, 1.04783, 1.04773, 1.04721, 1.04589, 1.04307, 1.04293, 1.04281, 1.04122, 1.03679, 1.03925, 1.03677, 1.03745, 1.03557, 1.03473, 1.03525, 1.02541, 1.02955, 1.02921, 1.0276, 1.0262, 1.02615, 1.02216, 1.02327, 1.0232, 1.02129, 1.01864, 1.01912, 1.01965, 1.0191, 1.01564, 1.01694, 1.01911, 1.10431, 1.01485, 1.11193, 1.22796, 1.04126, 1.04234, 1.15983, 0.988508, 0.988262, 0.981687, 0.987599, 0.988478, 0.98808, 0.988765, 0.982916, 0.984428, 0.98345, 0.983612, 0.980237, 0.980072, 0.990078, 0.990861, 0.993135, 0.98924, 0.988568, 0.987938, 0.988975, 0.989364, 1.27923, 0.998947, 0.981431, 0.978476, 0.967063, 0.970684, 0.973754, 0.975509, 0.976971, 0.97052, 1.20067, 0.973384, 0.973467, 0.966924, 0.966995, 0.970302, 0.97074, 0.965185, 0.966291, 0.958377, 0.961014, 0.960007, 0.959321, 0.958483, 0.953168, 0.959302, 0.959633, 0.956923, 0.959061, 0.960043, 0.957372, 0.956712, 0.957307, 0.958732, 0.958872, 0.958361, 0.95933, 0.959117, 0.959143, 0.959568, 0.960426, 0.959269, 0.95716, 0.958091, 0.959714, 0.960142, 0.961191, 0.962891, 0.966193, 0.966716, 0.966402, 0.96686, 0.9632, 0.965287, 0.965584, 0.965919, 0.966629, 0.966847, 0.966945, 0.968301, 0.966386, 0.966274, 0.963715, 0.965041, 0.966305, 0.962751, 0.961152, 0.960143, 0.959343, 0.959909, 0.958384, 0.95769, 0.957561, 0.957385, 0.958593
1.35928, 1.19943, 1.19998, 1.20327, 1.20596, 1.21236, 1.21328, 1.21669, 1.21959, 1.22088, 1.40205, 1.37832, 1.16515, 1.16633, 1.16584, 1.1283, 1.12787, 1.12803, 1.13969, 1.14022, 1.1303, 1.13264, 1.13282, 1.13549, 1.1361, 1.13873, 1.1398, 1.14571, 1.18498, 1.12552, 1.12452, 1.12422, 1.119, 1.11894, 1.11876, 1.12012, 1.12369, 1.1232, 1.26125, 1.27924, 1.25955, 1.26096, 1.22836, 1.15144, 1.15161, 1.39926, 1.40661, 1.12507, 1.12519, 1.12518, 1.10097, 1.09497, 1.08438, 1.08161, 1.0786, 1.06886, 1.06677, 1.06699, 1.06701, 1.06653, 1.06665, 1.06527, 1.06536, 1.06658, 1.06645, 1.06704, 1.06425, 1.05322, 1.0533, 1.06262, 1.06312, 1.06057, 1.05935, 1.06198, 1.06049, 1.06172, 1.0608, 1.06065, 1.06009, 1.05967, 1.06215, 1.06187, 1.06006, 1.05927, 1.06, 1.06274, 1.05923, 1.06669, 1.06373, 1.06411, 1.06319, 1.06138, 1.06167, 1.05967, 1.06296, 1.05822, 1.05635, 1.05589, 1.05154, 1.04908, 1.04813, 1.0469, 1.04806, 1.04896, 1.04826, 1.04671, 1.04758, 1.04285, 1.04357, 1.04357, 1.04274, 1.04078, 1.03984, 1.03881, 1.03832, 1.03795, 1.03732, 1.0359, 1.03074, 1.029, 1.0274, 1.02869, 1.02852, 1.02505, 1.0251, 1.02371, 1.02079, 1.02161, 1.02055, 1.01932, 1.01807, 1.01544, 1.01469, 1.00952, 1.01484, 1.09332, 1.09491, 1.01001, 1.00857, 1.10206, 1.04881, 1.12325, 0.990882, 0.989532, 0.988484, 0.989116, 0.988574, 0.991907, 0.991243, 0.990934, 0.984638, 0.981768, 0.985869, 0.985603, 0.984576, 1.2501, 0.993706, 0.991615, 0.991628, 0.993753, 0.990545, 0.987736, 0.986216, 0.98656, 0.987124, 0.983969, 1.28102, 0.984286, 0.965153, 0.968967, 0.969772, 0.971673, 0.972893, 0.971035, 0.97165, 0.973406, 0.973776, 0.97341, 0.972184, 1.44191, 0.97352, 1.38648, 0.966143, 0.966105, 0.96638, 0.965558, 0.965682, 0.961898, 0.963354, 0.962718, 0.961492, 0.960244, 0.959543, 0.959471, 0.960567, 0.957392, 0.956856, 0.957365, 0.958265, 0.958612, 0.958127, 0.958528, 0.959613, 0.960049, 0.960253, 0.960826, 0.959679, 0.958359, 0.960115, 0.960694, 0.957474, 0.962623, 0.96345, 0.966431, 0.965996, 0.9664, 0.966545, 0.966504, 0.964632, 0.966, 0.966529, 0.963708, 0.966771, 0.966931, 0.967632, 0.96562, 0.965299, 0.963247, 0.964011, 0.964864, 0.956608, 0.958379, 0.958208, 0.958842, 0.95927, 0.957591, 0.957328, 0.956544, 0.956378, 0.955942
1.36617, 1.19855, 1.20379, 1.20458, 1.20627, 1.26718, 1.21481, 1.21854, 1.21923, 1.21981, 1.32695, 1.17796, 1.16544, 1.1702, 1.16525, 1.16965, 1.12609, 1.13602, 1.13576, 1.13569, 1.13565, 1.13582, 1.13364, 1.12656, 1.21877, 1.22339, 1.16891, 1.15411, 1.16215, 1.19566, 1.12106, 1.11884, 1.11797, 1.1189, 1.11959, 1.12218, 1.12347, 1.12383, 1.11924, 1.27124, 1.27204, 1.2695, 1.34958, 1.35976, 1.28745, 1.29678, 1.12557, 1.12534, 1.12564, 1.13002, 1.18989, 1.09466, 1.08461, 1.07811, 1.07073, 1.06659, 1.06672, 1.06719, 1.06702, 1.06827, 1.06761, 1.06778, 1.06739, 1.06673, 1.06818, 1.0669, 1.06687, 1.05682, 1.05556, 1.06502, 1.0661, 1.06572, 1.06183, 1.06532, 1.06375, 1.06263, 1.06286, 1.06296, 1.06198, 1.06307, 1.06155, 1.0616, 1.05921, 1.05995, 1.0668, 1.06666, 1.06585, 1.06524, 1.06356, 1.06327, 1.06211, 1.06287, 1.06063, 1.05865, 1.0606, 1.05585, 1.05509, 1.05313, 1.05135, 1.0489, 1.04753, 1.04597, 1.04612, 1.04604, 1.04772, 1.04425, 1.0425, 1.04241, 1.04202, 1.04164, 1.04093, 1.04088, 1.03996, 1.03947, 1.03665, 1.03664, 1.03338, 1.03424, 1.03008, 1.02658, 1.02687, 1.02687, 1.02583, 1.02685, 1.02607, 1.02388, 1.02187, 1.02225, 1.0231, 1.01984, 1.01794, 1.01689, 1.01502, 1.01458, 1.01386, 1.01247, 1.01255, 1.01077, 1.0041, 1.0044, 1.00424, 0.993755, 0.988501, 0.988965, 0.988916, 0.996633, 0.992091, 0.993657, 0.991536, 0.987655, 0.98768, 0.982825, 0.986671, 0.986061, 0.983676, 1.36591, 1.264, 0.992545, 0.992402, 0.990741, 0.989929, 0.98763, 0.986355, 0.984266, 0.984831, 0.981402, 0.975462, 0.974812, 0.971848, 0.970378, 0.969971, 0.971502, 0.970373, 0.971537, 0.97307, 0.969758, 0.971959, 0.973234, 0.973462, 0.974809, 0.974721, 0.973083, 0.970471, 0.966826, 0.96618, 0.966132, 0.96631, 0.965262, 0.96318, 0.96253, 0.96037, 0.95985, 0.959319, 0.959574, 0.95922, 0.959578, 0.957661, 0.958005, 0.958017, 0.956804, 0.95759, 0.958841, 0.958249, 0.960121, 0.958209, 0.959704, 0.958912, 0.958567, 0.959482, 0.959336, 0.960176, 0.961908, 0.963145, 0.963616, 0.964543, 0.964664, 0.964329, 0.965722, 0.964848, 0.966255, 0.963578, 0.961828, 0.966407, 0.966766, 0.958281, 0.960586, 0.963663, 0.963822, 0.962975, 0.961904, 0.955841, 0.957322, 0.959001, 0.958293, 0.955688, 0.955708, 0.955988, 0.955633, 0.956014, 0.956315
1.18687, 1.1911, 1.47807, 1.20508, 1.20473, 1.20456, 1.43388, 1.3967, 1.32008, 1.32266, 1.28483, 1.34775, 1.16711, 1.16874, 1.1581, 1.16355, 1.13252, 1.17099, 1.13723, 1.13628, 1.13565, 1.13541, 1.1337, 1.11968, 1.12045, 1.1203, 1.16701, 1.17126, 1.16053, 1.16809, 1.11941, 1.1191, 1.11825, 1.11841, 1.12059, 1.12244, 1.11572, 1.11365, 1.11078, 1.10668, 1.10805, 1.10895, 1.10733, 1.26353, 1.37723, 1.29624, 1.16417, 1.12564, 1.12645, 1.11146, 1.09443, 1.08898, 1.07553, 1.07505, 1.07169, 1.06997, 1.06756, 1.06799, 1.06798, 1.06902, 1.06924, 1.06928, 1.06881, 1.06652, 1.06644, 1.06615, 1.06633, 1.06722, 1.06438, 1.06395, 1.06382, 1.06526, 1.06637, 1.06648, 1.06391, 1.06369, 1.06453, 1.06422, 1.06376, 1.0622, 1.0637, 1.0604, 1.05985, 1.06023, 1.06539, 1.06546, 1.06574, 1.06583, 1.06545, 1.06496, 1.0642, 1.0627, 1.06034, 1.06036, 1.05888, 1.05773, 1.05444, 1.05383, 1.05134, 1.05026, 1.0478, 1.0459, 1.04368, 1.04587, 1.04425, 1.04305, 1.04293, 1.0395, 1.03874, 1.04048, 1.04005, 1.03893, 1.03844, 1.03729, 1.03643, 1.03557, 1.03492, 1.03396, 1.0319, 1.02976, 1.02605, 1.02674, 1.02629, 1.02518, 1.02554, 1.01938, 1.01894, 1.01921, 1.02037, 1.01939, 1.01656, 1.01701, 1.01353, 1.0133, 1.01245, 1.01185, 1.00964, 1.0086, 1.00855, 1.00423, 1.00322, 0.994509, 0.993314, 0.997319, 0.994566, 0.995967, 0.994033, 0.993548, 0.990892, 0.989366, 0.994158, 1.40274, 1.00121, 0.998862, 0.987752, 0.991383, 1.2707, 0.992715, 0.992093, 0.991678, 0.989256, 0.987541, 0.985042, 0.98459, 0.983258, 1.28572, 0.980347, 0.973461, 0.970847, 0.96978, 0.964946, 0.965537, 0.970278, 0.971269, 0.97173, 0.972593, 0.971648, 0.973438, 0.974022, 0.974435, 0.974176, 0.972808, 0.967859, 0.968034, 0.965355, 0.964188, 0.964462, 0.964897, 0.961802, 0.959289, 0.957091, 0.957723, 0.958087, 0.957971, 0.958266, 0.958083, 0.958034, 0.955934, 0.956589, 0.95629, 0.957166, 0.956677, 0.957284, 0.957791, 0.959218, 0.956595, 0.957506, 0.954431, 0.957504, 0.958612, 0.957979, 0.958555, 0.960653, 0.961503, 0.96282, 0.964235, 0.962848, 0.963965, 0.965651, 0.966041, 0.964213, 0.966217, 0.961545, 0.965175, 0.959094, 0.960123, 0.962838, 0.961637, 0.96269, 0.958362, 0.959218, 0.956876, 0.957455, 0.954615, 0.956275, 0.955876, 0.953638, 0.95363, 0.956461, 0.951701
1.18414, 1.18811, 1.18946, 1.20201, 1.20192, 1.20118, 1.20114, 1.22584, 1.22533, 1.26889, 1.26331, 1.30224, 1.17426, 1.16678, 1.16328, 1.35768, 1.13738, 1.5128, 1.15079, 1.15007, 1.14351, 1.14398, 1.14247, 1.12009, 1.12042, 1.12017, 1.12272, 1.12503, 1.12203, 1.12325, 1.1242, 1.12255, 1.11676, 1.116, 1.11792, 1.11255, 1.11131, 1.10891, 1.10799, 1.10761, 1.10726, 1.1071, 1.1074, 1.10902, 1.11119, 1.11193, 1.11135, 1.11307, 1.10962, 1.12101, 1.33775, 1.37856, 1.07722, 1.07647, 1.07322, 1.07517, 1.06819, 1.06825, 1.06983, 1.0697, 1.06978, 1.06896, 1.06854, 1.06642, 1.06651, 1.06694, 1.06656, 1.06537, 1.06526, 1.06556, 1.06525, 1.06402, 1.06482, 1.06583, 1.06655, 1.06644, 1.06627, 1.06676, 1.06634, 1.06748, 1.06772, 1.06776, 1.06528, 1.24947, 1.06579, 1.06563, 1.06526, 1.06572, 1.06514, 1.06359, 1.06323, 1.06312, 1.06023, 1.05959, 1.05788, 1.05952, 1.05629, 1.06407, 1.06168, 1.05018, 1.04768, 1.04593, 1.04513, 1.04356, 1.04355, 1.0431, 1.04323, 1.03769, 1.03811, 1.03932, 1.03933, 1.03881, 1.03808, 1.03756, 1.03596, 1.03592, 1.03516, 1.03316, 1.03185, 1.03059, 1.02592, 1.02468, 1.02344, 1.02219, 1.02248, 1.01862, 1.01625, 1.01501, 1.0198, 1.01744, 1.01528, 1.01471, 1.01248, 1.01119, 1.01158, 1.00968, 1.0096, 1.01187, 1.00997, 1.2225, 1.23348, 1.28605, 1.24017, 1.00062, 1.00109, 1.00086, 0.994593, 0.994662, 0.995508, 1.29565, 1.00165, 1.00045, 1.00165, 1.00209, 0.978043, 0.978318, 0.99867, 0.991192, 0.99076, 0.990407, 0.990662, 0.990153, 0.984914, 0.982775, 0.982311, 0.980046, 0.980662, 0.982319, 0.974345, 0.97132, 0.963036, 0.964863, 0.966912, 0.969804, 0.971547, 0.972712, 0.971406, 0.972645, 0.973091, 0.973957, 0.974286, 0.972036, 0.966223, 0.966879, 0.960053, 0.963377, 0.963428, 0.962933, 0.962847, 0.96104, 0.959755, 0.958514, 0.956763, 0.956989, 0.957714, 0.956636, 0.955665, 0.955277, 0.955861, 0.955786, 0.9552, 0.956409, 0.956086, 0.95627, 0.955155, 0.956937, 0.956661, 0.957006, 0.956326, 0.955905, 0.959054, 0.958981, 0.959571, 0.960694, 0.963248, 0.962685, 0.961344, 0.96297, 0.966931, 0.961764, 0.965249, 0.963007, 0.963066, 0.963505, 0.963642, 0.96286, 0.962619, 0.960032, 0.959397, 0.956606, 0.957275, 0.956344, 0.955659, 0.956559, 0.955134, 0.954871, 0.954165, 1.20191, 0.952259, 0.949899
1.25413, 1.18069, 1.19119, 1.32695, 1.20093, 1.20247, 1.39589, 1.22355, 1.22639, 1.22675, 1.28509, 1.17353, 1.17419, 1.17126, 1.16137, 1.15542, 1.15475, 1.15613, 1.15289, 1.15622, 1.1424, 1.14267, 1.1446, 1.60375, 1.16202, 1.16808, 1.12449, 1.12509, 1.12521, 1.12562, 1.12611, 1.12425, 1.12356, 1.12195, 1.1122, 1.11204, 1.11225, 1.11064, 1.11285, 1.10996, 1.1102, 1.23109, 1.23046, 1.27469, 1.11315, 1.1124, 1.11232, 1.11285, 1.10788, 1.12641, 1.13041, 1.35315, 1.08173, 1.08194, 1.07742, 1.07528, 1.06729, 1.0677, 1.06933, 1.06881, 1.0686, 1.06807, 1.06782, 1.06761, 1.06821, 1.06727, 1.06522, 1.06541, 1.06621, 1.06492, 1.06502, 1.06558, 1.06382, 1.06442, 1.07705, 1.18878, 1.07105, 1.07049, 1.07069, 1.07022, 1.06809, 1.06797, 1.06755, 1.06782, 1.06719, 1.06154, 1.06471, 1.06548, 1.0654, 1.06376, 1.06303, 1.0605, 1.05982, 1.06003, 1.05919, 1.05911, 1.05629, 1.05618, 1.05472, 1.0529, 1.04796, 1.0474, 1.04575, 1.04376, 1.04317, 1.04299, 1.03952, 1.03797, 1.04008, 1.04218, 1.04053, 1.03882, 1.03886, 1.03894, 1.0373, 1.03701, 1.03612, 1.03236, 1.03206, 1.03006, 1.02877, 1.02537, 1.02371, 1.02069, 1.01809, 1.01879, 1.0184, 1.01662, 1.02335, 1.03972, 1.01209, 1.01063, 1.00837, 1.01185, 1.01047, 1.01092, 1.01409, 1.01475, 1.01481, 1.01174, 1.01139, 1.0042, 1.00459, 1.0044, 1.00422, 1.00092, 0.995497, 0.994658, 1.00035, 1.45096, 1.00356, 0.998841, 1.19994, 0.991963, 1.00129, 0.974862, 0.987531, 1.13533, 0.993555, 0.991774, 0.99185, 0.990462, 0.990476, 0.985411, 0.984033, 0.981097, 0.980315, 0.982141, 0.982795, 0.975267, 0.96886, 0.965114, 0.966214, 0.967697, 0.97313, 0.972074, 0.970285, 0.97088, 0.974179, 0.974557, 1.12519, 0.969006, 1.0619, 1.26224, 0.959047, 0.959834, 0.958438, 0.962492, 0.963218, 1.28878, 0.957662, 0.957692, 0.95696, 0.956582, 0.95702, 0.956353, 0.956002, 0.953823, 0.956218, 0.953661, 0.955669, 0.955968, 0.953271, 0.952703, 0.955896, 0.955465, 0.955051, 0.955627, 0.956125, 0.957524, 0.957633, 0.959405, 0.958625, 0.959162, 0.960004, 0.961112, 0.960684, 0.962079, 0.964114, 0.963188, 0.963798, 0.963556, 0.961997, 0.963684, 0.963315, 0.961784, 0.96077, 0.95985, 0.958295, 0.952487, 0.956675, 0.953057, 0.954981, 0.953789, 0.949389, 0.948664, 0.949884, 0.948749, 0.945132, 0.948638
1.3773, 1.2235, 1.1694, 1.17163, 1.43681, 1.21515, 1.39903, 1.55365, 1.22596, 1.22797, 1.24414, 1.27236, 1.17825, 1.17089, 1.16174, 1.15504, 1.15439, 1.36064, 1.36421, 1.15726, 1.16224, 1.14411, 1.14647, 1.14763, 1.14479, 1.16053, 1.16057, 1.17528, 1.18343, 1.1782, 1.17753, 1.12453, 1.12559, 1.12523, 1.12462, 1.11411, 1.11289, 1.11108, 1.112, 1.20154, 0.00430011, 1.35075, 1.1669, 1.31955, 1.24491, 1.25711, 1.2687, 1.10242, 1.39823, 1.30742, 1.3079, 1.32085, 1.08354, 1.08205, 1.06481, 1.06869, 1.06964, 1.06808, 1.06748, 1.06679, 1.06748, 1.06774, 1.06927, 1.06755, 1.06917, 1.07016, 1.06646, 1.0665, 1.06709, 1.06765, 1.06715, 1.06795, 1.07031, 1.08111, 1.0769, 1.07696, 1.07476, 1.07333, 1.07057, 1.06981, 1.06873, 1.06828, 1.0695, 1.06803, 1.06682, 1.05888, 1.05936, 1.06447, 1.06665, 1.06306, 1.06136, 1.06128, 1.06098, 1.06113, 1.05928, 1.05864, 1.05376, 1.05409, 1.05356, 1.04993, 1.04911, 1.04624, 1.04575, 1.04578, 1.0437, 1.0426, 1.04165, 1.0416, 1.0412, 1.04287, 1.04342, 1.04065, 1.0386, 1.03798, 1.03645, 1.03673, 1.03495, 1.03247, 1.0304, 1.02872, 1.02527, 1.02203, 1.01987, 1.01996, 1.12549, 1.02948, 1.11653, 1.03214, 1.03207, 1.29844, 1.15132, 1.15573, 1.00746, 1.00427, 1.0065, 1.00907, 1.01399, 1.01453, 1.01448, 1.01279, 1.01103, 1.01092, 1.00439, 1.00419, 1.00265, 1.00006, 1.00045, 1.00291, 1.00245, 1.00481, 1.00458, 1.00124, 1.19295, 0.999102, 1.00115, 0.974312, 0.980738, 1.36064, 0.994966, 0.993717, 0.9917, 0.990435, 0.990242, 0.986899, 0.987614, 0.987043, 0.986024, 0.986807, 0.984718, 1.58234, 1.31169, 0.971012, 0.96622, 0.968111, 0.97273, 0.975462, 0.975408, 0.973136, 0.973457, 0.968818, 0.966703, 0.964523, 0.962837, 0.957586, 0.953642, 0.955943, 1.25404, 0.957059, 0.957492, 0.95883, 0.958602, 0.958731, 0.956512, 0.956434, 0.957982, 0.957775, 0.957332, 0.953572, 0.953499, 0.954631, 0.954688, 0.955746, 0.954222, 0.953787, 0.955814, 0.956368, 0.95681, 0.955915, 0.956997, 0.956782, 0.957294, 0.957686, 0.961026, 0.96147, 0.962087, 0.963002, 0.960056, 0.960841, 0.962014, 0.96268, 0.962911, 0.962597, 0.962942, 0.962549, 0.963511, 0.95973, 0.958451, 0.957965, 0.957227, 0.952449, 0.953637, 0.952494, 0.953087, 0.951894, 0.945264, 0.946447, 0.947169, 0.947428, 0.946152, 0.946895
1.36093, 1.24705, 1.18429, 1.27297, 1.18045, 1.18168, 1.40658, 1.55432, 1.45708, 1.2188, 1.21874, 1.32064, 1.28194, 1.30498, 1.16403, 1.16102, 1.16179, 1.167, 1.16726, 1.53391, 1.17443, 1.17045, 1.26081, 1.27213, 1.43668, 1.14737, 1.27183, 1.15822, 1.1505, 1.18429, 1.18063, 1.19851, 1.20291, 1.12427, 1.23601, 1.26502, 1.18012, 1.24683, 1.24682, 1.19146, 1.19445, 1.21562, 1.22686, 1.23431, 1.25049, 1.37824, 1.27725, 1.09262, 1.09491, 1.09492, 1.08523, 1.45487, 1.06711, 1.06625, 1.06615, 1.06651, 1.06877, 1.06878, 1.06865, 1.06825, 1.06778, 1.06757, 1.06858, 1.06876, 1.06981, 1.0698, 1.06992, 1.07001, 1.06789, 1.06771, 1.06787, 1.06783, 1.06956, 1.0713, 1.07705, 1.07679, 1.07515, 1.0735, 1.0701, 1.06957, 1.06722, 1.07003, 1.06936, 1.0671, 1.06679, 1.06695, 1.06389, 1.06444, 1.06308, 1.06274, 1.06234, 1.05952, 1.05863, 1.05757, 1.05668, 1.05673, 1.05416, 1.053, 1.05086, 1.05006, 1.04703, 1.04596, 1.0459, 1.0436, 1.04277, 1.04296, 1.04274, 1.0427, 1.04261, 1.0412, 1.04167, 1.04265, 1.03876, 1.03884, 1.03565, 1.03542, 1.03409, 1.02987, 1.02939, 1.02491, 1.0238, 1.03149, 1.03075, 1.03104, 1.03284, 1.03132, 1.03332, 1.03314, 1.03285, 1.07529, 1.15731, 1.15935, 1.09565, 1.01458, 1.01146, 1.01139, 1.01227, 1.01108, 1.0111, 1.0105, 1.0105, 1.00052, 1.00106, 1.00396, 1.00226, 1.00133, 1.00125, 1.00195, 1.00346, 1.00365, 1.00402, 1.00463, 1.39138, 0.988011, 1.00544, 1.00419, 0.991706, 0.994417, 0.994989, 0.994094, 0.992448, 0.991442, 0.988716, 0.989865, 0.988774, 0.99031, 0.987116, 0.99008, 0.993192, 1.2206, 1.2215, 1.21945, 1.38251, 1.38129, 0.977046, 0.977345, 0.976884, 0.974003, 0.971533, 0.966096, 0.966277, 0.962844, 0.963182, 0.959021, 0.952628, 0.953175, 1.2467, 0.958713, 0.95927, 0.959645, 0.959747, 0.959463, 0.957532, 0.956992, 0.956528, 0.956938, 0.956453, 0.955071, 0.954072, 0.955175, 0.955191, 0.956598, 0.957559, 0.958656, 0.956219, 0.956057, 0.957552, 0.956252, 0.956535, 0.956623, 0.959997, 0.961548, 0.960596, 0.962531, 0.962539, 0.962918, 0.961758, 0.962657, 0.963039, 0.963307, 0.962493, 0.962515, 0.961386, 0.961446, 0.959717, 0.959377, 0.958286, 0.955741, 0.95585, 0.95651, 0.954479, 0.953958, 0.952477, 0.950738, 0.949548, 0.948557, 0.947853, 0.947472, 0.946009, 0.94673
1.34547, 1.51222, 1.18453, 1.18685, 1.18914, 1.19267, 1.19707, 1.20459, 1.20541, 1.21749, 1.21927, 1.21951, 1.49953, 1.29693, 1.16589, 1.16442, 1.16557, 1.3373, 1.27428, 1.17383, 1.17608, 1.17715, 1.1805, 1.18621, 1.18845, 1.20068, 1.48206, 1.15771, 1.15141, 1.15852, 1.17548, 1.15647, 1.24059, 1.60004, 1.24074, 1.24272, 1.25263, 1.21153, 1.27666, 1.19426, 1.19483, 1.22222, 1.25445, 1.30564, 0.0045152, 1.0698, 1.08177, 1.08223, 1.07544, 1.07197, 1.06964, 1.06888, 1.06768, 1.06625, 1.06643, 1.06769, 1.06791, 1.06867, 1.06989, 1.07025, 1.06784, 1.06177, 1.06878, 1.06976, 1.0711, 1.07008, 1.07005, 1.06882, 1.06803, 1.06864, 1.06762, 1.06747, 1.06834, 1.07031, 1.07183, 1.07497, 1.41501, 1.07091, 1.07107, 1.06814, 1.07008, 1.06804, 1.06861, 1.06745, 1.0662, 1.06347, 1.0629, 1.06153, 1.06191, 1.06318, 1.06338, 1.06002, 1.05715, 1.05513, 1.05617, 1.05426, 1.05337, 1.05014, 1.04969, 1.04839, 1.04735, 1.04497, 1.04487, 1.0445, 1.04329, 1.04313, 1.04275, 1.04256, 1.0425, 1.04142, 1.0424, 1.04294, 1.0355, 1.03624, 1.0345, 1.03374, 1.02986, 1.02962, 1.02955, 1.02827, 1.03101, 1.03183, 1.03206, 1.03245, 1.03362, 1.03244, 1.03246, 1.03335, 1.15087, 1.28512, 1.08212, 1.08456, 1.3068, 1.08985, 1.09076, 1.01034, 1.0094, 1.01088, 1.01171, 1.0106, 1.00843, 1.00912, 1.00467, 1.00451, 1.00324, 1.00345, 1.00127, 1.00177, 1.00225, 1.00207, 1.00316, 1.00114, 1.00159, 1.00509, 1.35794, 0.988012, 0.996578, 0.99477, 0.995657, 0.994815, 0.995067, 0.991616, 0.991326, 0.991122, 0.990842, 0.991641, 0.992914, 0.991839, 0.990837, 1.2209, 1.22146, 1.21898, 1.22004, 0.97893, 0.977787, 0.976552, 0.977036, 0.987841, 1.2527, 0.96487, 0.965634, 0.967142, 0.966427, 0.96404, 0.955336, 1.24679, 0.960377, 0.961273, 0.958651, 0.959842, 0.959705, 0.959551, 0.959179, 0.9597, 0.960707, 0.959234, 0.9541, 0.955682, 0.955278, 0.955754, 0.955787, 0.955642, 0.956213, 0.958417, 0.954207, 0.95544, 0.962885, 0.963022, 0.9636, 0.961944, 0.962897, 0.963341, 0.963709, 0.962668, 0.960515, 0.963108, 0.964615, 0.963028, 0.962994, 0.964266, 0.962711, 0.960494, 0.959864, 0.95884, 0.958592, 0.957531, 0.957236, 0.954816, 0.955868, 0.958063, 0.954616, 0.953962, 0.951455, 1.18554, 0.949759, 0.948309, 0.946007, 0.945946, 0.945656, 0.944691
1.24261, 1.24285, 1.24415, 1.42421, 1.27998, 1.28189, 1.20298, 1.20434, 1.21214, 1.22078, 1.22002, 1.22064, 1.22191, 1.32765, 1.32717, 1.3215, 1.31723, 1.3799, 1.27391, 1.34021, 1.31993, 1.35051, 1.19254, 1.19541, 1.19487, 1.1977, 1.20254, 1.1815, 1.17294, 1.17294, 1.33849, 1.2096, 1.23402, 1.24716, 1.23607, 1.25324, 1.22035, 1.24759, 1.27569, 1.19602, 1.19405, 1.30572, 1.31411, 1.34463, 1.06823, 1.07243, 1.07352, 1.07302, 1.07309, 1.06892, 1.06991, 1.07144, 1.06947, 1.06999, 1.06998, 1.06925, 1.06978, 1.06977, 1.06988, 1.06215, 1.06183, 1.06097, 1.06978, 1.06998, 1.07062, 1.07033, 1.06744, 1.06774, 1.06789, 1.06802, 1.06807, 1.068, 1.06756, 1.06844, 1.07177, 1.07299, 1.07178, 1.07027, 1.06877, 1.06665, 1.06791, 1.06844, 1.06673, 1.06357, 1.06343, 1.06328, 1.0629, 1.06144, 1.06064, 1.05991, 1.05937, 1.0561, 1.05627, 1.0562, 1.05601, 1.05603, 1.05217, 1.04872, 1.04898, 1.048, 1.04804, 1.04658, 1.04442, 1.04392, 1.04505, 1.04462, 1.0443, 1.04335, 1.04292, 1.04371, 1.04332, 1.04236, 1.22095, 1.03726, 1.03655, 1.03376, 1.03206, 1.03125, 1.03063, 1.0312, 1.02988, 1.03153, 1.03289, 1.03316, 1.0329, 1.0318, 1.03163, 1.03091, 1.03787, 1.0291, 1.2064, 1.07761, 1.24732, 1.09356, 1.3989, 1.0053, 1.00765, 1.00802, 1.01017, 1.00918, 1.00803, 1.00596, 1.00253, 1.004, 1.0038, 1.00121, 1.00092, 1.001, 0.999057, 0.998886, 0.999957, 0.9993, 1.00009, 0.998654, 0.994538, 0.995957, 0.996587, 0.996374, 0.996651, 0.994229, 0.995589, 0.994377, 0.994304, 0.995667, 0.996402, 0.993835, 0.993246, 0.992504, 0.99081, 0.988712, 0.986699, 0.986236, 0.985369, 0.981628, 0.979874, 0.978045, 0.978657, 1.25083, 1.2514, 1.25239, 0.967055, 0.966317, 0.966086, 0.96616, 0.963809, 1.30325, 1.25291, 0.963451, 0.958618, 0.960054, 0.960151, 0.961245, 0.960952, 0.959825, 0.960491, 0.958424, 0.959293, 0.95677, 0.957315, 0.958549, 0.964175, 0.95738, 0.960817, 0.962973, 0.963239, 0.963605, 0.964119, 0.965577, 0.964915, 0.964255, 0.96457, 0.964302, 0.966813, 0.966872, 0.963273, 0.965367, 0.964888, 0.964102, 0.96287, 0.963307, 0.962345, 0.961245, 0.960331, 0.959765, 0.955849, 0.955962, 0.955864, 0.954574, 0.956147, 0.957923, 0.957168, 0.95837, 0.959654, 0.960215, 1.36466, 1.3893, 1.49858, 0.947652, 0.946221, 0.944191
1.56467, 1.24758, 1.248, 1.36238, 1.26311, 1.38171, 1.33912, 1.20852, 1.30132, 1.41274, 1.2311, 1.23066, 1.25304, 1.24026, 1.32686, 1.31918, 1.31081, 1.31922, 1.34072, 1.34125, 1.35768, 1.40893, 1.27378, 1.22142, 1.2436, 1.29157, 1.18414, 1.18548, 1.18253, 1.23332, 1.25997, 1.23661, 1.34658, 1.25173, 1.25994, 1.27343, 1.26147, 1.29853, 1.29907, 1.19935, 1.20945, 1.2917, 1.30283, 1.08048, 1.06919, 1.07244, 1.07195, 1.07294, 1.07388, 1.07485, 1.07204, 1.07326, 1.07472, 1.0748, 1.07409, 1.06894, 1.06912, 1.06988, 1.07021, 1.06294, 1.06325, 1.06859, 1.06932, 1.07025, 1.06966, 1.06826, 1.06819, 1.06884, 1.06857, 1.06833, 1.0686, 1.06872, 1.06871, 1.06959, 1.07103, 1.07072, 1.06775, 1.067, 1.06684, 1.06409, 1.06642, 1.06639, 1.06358, 1.06302, 1.0621, 1.06256, 1.06281, 1.06118, 1.05941, 1.05906, 1.05705, 1.05662, 1.05536, 1.05495, 1.05466, 1.05343, 1.05061, 1.04854, 1.04906, 1.0494, 1.04275, 1.0401, 1.04194, 1.0442, 1.04526, 1.04463, 1.04437, 1.04582, 1.04468, 1.04452, 1.16667, 1.20841, 1.5927, 1.03147, 1.03581, 1.03474, 1.2399, 1.02995, 1.02967, 1.02934, 1.03011, 1.25467, 1.03257, 1.03337, 1.0331, 1.03274, 1.03159, 1.02952, 1.02993, 1.02823, 1.22709, 1.23048, 1.01705, 1.3187, 1.00658, 1.00478, 1.00562, 1.00529, 1.00636, 1.00584, 1.00681, 1.00589, 1.00428, 1.00455, 1.00356, 1.00122, 1.00037, 1.00039, 0.997869, 0.998598, 1.00003, 0.998781, 0.997122, 0.996602, 0.996411, 0.995538, 0.994727, 0.995587, 0.995262, 0.995362, 0.996357, 0.993432, 0.992204, 0.993624, 0.994767, 0.994651, 0.99425, 0.992391, 0.990606, 0.988326, 0.984668, 0.985601, 0.985818, 0.98105, 1.19485, 1.19915, 1.31379, 1.41891, 0.97016, 0.969248, 0.966572, 0.96622, 0.965405, 0.966298, 0.967054, 0.969824, 1.28426, 1.28033, 1.11412, 1.17087, 0.960766, 0.961083, 1.28473, 0.960673, 0.960692, 0.957054, 0.957396, 1.00291, 1.22226, 1.22371, 0.962065, 0.962861, 0.963943, 0.963767, 0.964244, 0.963543, 0.965227, 0.96607, 0.965562, 0.964965, 0.966268, 0.966249, 0.966338, 0.966242, 0.964017, 0.964613, 0.964242, 0.96316, 0.962838, 0.962659, 0.959421, 0.959249, 0.959436, 0.959364, 0.95815, 0.957138, 0.957427, 0.957636, 0.955185, 0.956977, 0.958549, 0.959526, 0.960517, 0.961533, 0.96163, 0.961136, 0.959525, 0.959718, 1.5105, 0.945557
1.33786, 1.34452, 1.34964, 1.35452, 1.2592, 1.26004, 1.27781, 1.39885, 1.40332, 1.30421, 1.23639, 1.28927, 1.2404, 1.24508, 1.21497, 1.21199, 1.21224, 1.20958, 1.21295, 1.21199, 1.40916, 1.21041, 1.21429, 1.20999, 1.20975, 1.26372, 1.19274, 1.19388, 1.18661, 1.18726, 1.40947, 1.33049, 1.34934, 1.3068, 1.22333, 1.22576, 1.26378, 1.29753, 1.29542, 1.19914, 1.29314, 1.29842, 1.31308, 1.33373, 1.07134, 1.07168, 1.07274, 1.0725, 1.07362, 1.0806, 1.07495, 1.07471, 1.07501, 1.07552, 1.07335, 1.07341, 1.06915, 1.07073, 1.07222, 1.07096, 1.0676, 1.06807, 1.06854, 1.06857, 1.06853, 1.06842, 1.069, 1.06975, 1.06908, 1.0693, 1.06984, 1.06904, 1.06851, 1.06847, 1.07067, 1.07084, 1.06637, 1.06462, 1.0646, 1.06327, 1.06275, 1.06354, 1.06162, 1.06227, 1.06255, 1.06153, 1.06023, 1.05985, 1.05662, 1.05772, 1.05688, 1.0554, 1.05455, 1.05293, 1.05092, 1.04972, 1.04903, 1.04775, 1.04612, 1.0434, 1.04234, 1.04219, 1.04404, 1.04385, 1.0447, 1.04369, 1.04495, 1.04576, 1.0458, 1.03895, 1.03415, 1.03342, 1.03329, 1.03026, 1.03445, 1.03325, 1.03087, 1.03002, 1.03022, 1.02744, 1.02619, 1.02583, 1.03259, 1.03975, 1.03055, 1.03159, 1.19519, 1.02922, 1.02899, 1.02711, 1.02732, 1.33962, 1.60709, 1.00804, 1.00766, 1.00661, 1.00575, 1.00459, 1.00493, 1.00511, 1.00613, 1.00506, 1.00422, 1.00339, 1.00394, 1.00324, 1.00029, 0.998765, 0.995519, 0.998156, 0.998053, 0.997407, 0.99457, 0.995029, 0.994259, 0.993815, 0.994852, 0.994072, 0.994053, 0.993042, 0.993881, 0.992177, 0.993774, 0.994095, 0.994591, 0.991731, 0.990341, 0.989794, 0.99006, 0.9852, 0.98428, 0.985555, 0.986021, 0.982188, 1.18208, 1.18875, 1.42371, 0.97125, 0.968683, 0.967611, 0.964569, 0.964898, 0.965547, 0.967293, 0.969814, 0.972807, 1.2918, 1.16018, 1.16208, 1.27031, 1.27399, 1.38524, 1.18973, 1.1996, 0.950909, 0.954287, 0.956813, 0.95789, 1.14616, 0.962767, 1.44124, 0.963297, 0.964867, 0.965677, 0.96613, 0.967064, 0.966627, 0.966958, 0.96663, 0.965871, 0.964705, 0.965902, 0.966697, 0.966562, 0.963926, 0.964604, 0.964517, 0.962693, 0.961822, 0.962558, 0.95779, 0.959413, 0.959394, 0.957917, 0.956705, 0.955778, 0.955537, 0.954657, 0.95413, 0.954942, 0.956177, 0.957224, 0.958788, 0.959504, 0.96046, 0.960709, 0.959533, 0.960185, 1.32019, 0.952753
1.27794, 1.28433, 1.28512, 1.2875, 1.28524, 1.35916, 1.30184, 1.3076, 1.30894, 1.43612, 1.3145, 1.31379, 1.29219, 1.28917, 1.24051, 1.21184, 1.21176, 1.21164, 1.21142, 1.21107, 1.21183, 1.21274, 1.21297, 1.20931, 1.20957, 1.20898, 1.1982, 1.19801, 1.19848, 1.19286, 1.38187, 1.40356, 1.34316, 1.22189, 1.2245, 1.22564, 1.22638, 1.26712, 1.26946, 1.2884, 1.26807, 1.34076, 1.08226, 1.0698, 1.06823, 1.07165, 1.07352, 1.07525, 1.07964, 1.0801, 1.07739, 1.0771, 1.07531, 1.07474, 1.0733, 1.07345, 1.07053, 1.07001, 1.07053, 1.06979, 1.06829, 1.06825, 1.06855, 1.06874, 1.06913, 1.06896, 1.06988, 1.0699, 1.06913, 1.06968, 1.06893, 1.06858, 1.06999, 1.06971, 1.07083, 1.07464, 1.07553, 1.06657, 1.06521, 1.06274, 1.06328, 1.06332, 1.06322, 1.0636, 1.06277, 1.06159, 1.06051, 1.05978, 1.05843, 1.05756, 1.05634, 1.05621, 1.05353, 1.05238, 1.05077, 1.04905, 1.0491, 1.04789, 1.04677, 1.04613, 1.04573, 1.04418, 1.04556, 1.04111, 1.04463, 1.0445, 1.04495, 1.04208, 1.03973, 1.03609, 1.0356, 1.03432, 1.03346, 1.03123, 1.03203, 1.03025, 1.02987, 1.0265, 1.02617, 1.02548, 1.02439, 1.02513, 1.02305, 1.02273, 1.02299, 1.02308, 1.02344, 1.02256, 1.024, 1.02568, 1.02373, 1.46753, 1.30382, 1.00981, 1.00864, 1.00771, 1.00172, 1.00258, 1.00479, 1.0047, 1.00459, 1.00431, 1.00402, 1.00432, 1.00344, 1.00261, 1.00077, 0.986342, 0.988773, 0.994053, 0.993975, 0.994549, 0.994351, 0.993257, 0.992662, 0.991371, 0.991148, 0.99318, 0.99251, 0.991632, 0.992005, 0.991387, 0.994153, 0.993128, 0.992035, 0.992309, 0.990433, 0.990521, 0.990435, 0.988405, 0.987922, 0.986803, 0.987513, 0.98879, 1.10873, 1.11109, 1.11849, 0.969681, 0.969334, 0.967032, 0.966723, 0.963926, 1.27881, 1.27984, 1.34663, 1.28069, 1.188, 1.15168, 1.31655, 1.15767, 0.993536, 1.17617, 1.18958, 0.960019, 0.950846, 0.954534, 0.956285, 0.959226, 0.959045, 0.961812, 1.31869, 0.962049, 0.963673, 0.965719, 0.966694, 0.967868, 0.966887, 0.96742, 0.966229, 0.962826, 0.962449, 0.965305, 0.964873, 0.964649, 0.964438, 0.963876, 0.962731, 0.9617, 0.960258, 0.960598, 0.958823, 0.958457, 0.957081, 0.957582, 0.956371, 0.956244, 0.955821, 1.15812, 1.26316, 1.14339, 0.956638, 0.957595, 0.958685, 0.959998, 0.960265, 0.959104, 0.957533, 0.959355, 1.34572, 0.953253
1.71656, 1.27553, 1.50254, 1.4273, 1.5933, 1.29016, 1.29118, 1.30841, 1.31027, 1.3161, 1.31927, 1.3591, 1.3395, 1.39252, 1.29538, 1.21123, 1.20993, 1.20672, 1.20839, 1.20887, 1.31152, 1.21374, 1.20556, 1.21171, 1.21005, 1.20455, 1.20249, 1.20155, 1.20127, 1.19834, 1.26822, 1.29021, 1.22547, 1.22591, 1.22136, 1.28528, 1.25657, 1.25826, 1.19815, 1.23204, 1.09988, 1.08427, 1.08399, 1.07114, 1.0702, 1.078, 1.07957, 1.07925, 1.07996, 1.08103, 1.07743, 1.07863, 1.07623, 1.07404, 1.07333, 1.0721, 1.0705, 1.06987, 1.06985, 1.07114, 1.06867, 1.06791, 1.06878, 1.06859, 1.07003, 1.06997, 1.06993, 1.0698, 1.06992, 1.06997, 1.06792, 1.06825, 1.06944, 1.07019, 1.06793, 1.06911, 1.06695, 1.06503, 1.06463, 1.06321, 1.06221, 1.06268, 1.06325, 1.06271, 1.06075, 1.05965, 1.05931, 1.05758, 1.05785, 1.05617, 1.0566, 1.05385, 1.05294, 1.05125, 1.05058, 1.04959, 1.04904, 1.04862, 1.04804, 1.0441, 1.04456, 1.04367, 1.04472, 1.04052, 1.03896, 1.04139, 1.04216, 1.04061, 1.03973, 1.03281, 1.03511, 1.0342, 1.03275, 1.03179, 1.03257, 1.02995, 1.02956, 1.02874, 1.02829, 1.02518, 1.02505, 1.02292, 1.02413, 1.02354, 1.0232, 1.02382, 1.02176, 1.02141, 1.02155, 1.0217, 1.02493, 1.01672, 1.0164, 1.01147, 1.01091, 1.01118, 1.00274, 1.00396, 1.00493, 1.00466, 1.00494, 1.00484, 1.00367, 1.00605, 1.00157, 1.00203, 1.00163, 0.987772, 0.988162, 0.992227, 0.993657, 0.990575, 0.993278, 0.990985, 0.99107, 0.990418, 0.991437, 0.991731, 0.991905, 0.992202, 0.992278, 0.993812, 0.993848, 0.994012, 0.993796, 0.992232, 0.990694, 0.99047, 0.988513, 0.9885, 0.987361, 0.987692, 0.987928, 0.988771, 0.98931, 0.990284, 0.989179, 1.12209, 1.12523, 1.11966, 1.27759, 1.28431, 1.28511, 1.27634, 1.34177, 1.34271, 1.35065, 1.15007, 1.58219, 1.15769, 0.984691, 1.10318, 0.959567, 0.961074, 0.962493, 0.958335, 0.960106, 0.95788, 0.959379, 0.959186, 1.06786, 1.10585, 0.962816, 0.964137, 0.965151, 0.965858, 0.966448, 0.966804, 0.966255, 0.96329, 0.963511, 0.963358, 0.962804, 0.963871, 0.963977, 0.96285, 0.962949, 0.962093, 0.96088, 0.959861, 0.958819, 1.20428, 0.954997, 0.955797, 0.956287, 0.952771, 0.948155, 0.949506, 0.948996, 0.951746, 0.952678, 0.952901, 0.953386, 0.956209, 0.956485, 0.95747, 0.957796, 1.35695, 1.39192, 0.952827
1.33701, 1.27838, 1.27874, 1.51208, 1.4922, 1.29374, 1.29367, 1.29471, 1.53324, 1.53097, 1.55397, 1.56707, 0.00405631, 1.61504, 1.50901, 1.51933, 1.29457, 1.30192, 1.20714, 1.30658, 1.19592, 1.20499, 1.20476, 1.2055, 1.2057, 1.20558, 1.20572, 1.20463, 1.2071, 1.20811, 1.33926, 1.28652, 1.22757, 1.22717, 1.22125, 1.39876, 1.22201, 0.00474916, 1.19172, 1.21513, 1.33206, 1.3347, 1.0764, 1.0722, 1.07161, 1.07724, 1.07813, 1.07966, 1.07917, 1.08082, 1.26361, 1.07464, 1.07415, 1.07312, 1.07206, 1.07085, 1.07123, 1.07044, 1.06867, 1.07002, 1.0702, 1.06884, 1.06995, 1.07101, 1.07257, 1.07008, 1.06997, 1.06978, 1.06803, 1.0675, 1.06681, 1.06984, 1.06942, 1.0679, 1.06724, 1.06721, 1.06563, 1.06618, 1.0627, 1.06268, 1.05968, 1.06038, 1.05932, 1.06084, 1.05924, 1.05887, 1.05983, 1.0583, 1.05776, 1.05469, 1.0552, 1.05209, 1.05262, 1.05138, 1.0505, 1.05002, 1.05027, 1.04915, 1.04768, 1.0468, 1.04506, 1.04452, 1.04485, 1.04201, 1.04197, 1.04029, 1.04195, 1.03944, 1.03917, 1.02807, 1.02866, 1.03252, 1.03332, 1.03191, 1.0288, 1.02879, 1.03035, 1.03141, 1.02966, 1.02379, 1.02336, 1.02266, 1.02282, 1.02462, 1.02301, 1.0232, 1.02255, 1.02148, 1.02093, 1.02195, 1.02742, 1.19919, 1.01228, 1.0131, 1.01237, 1.01136, 1.01149, 1.00899, 1.00931, 1.00848, 1.00786, 1.00957, 1.00774, 1.00752, 1.00099, 1.0021, 1.00256, 0.988742, 0.989169, 0.997513, 0.995123, 0.992544, 0.992555, 0.990673, 0.993879, 0.991903, 0.991781, 0.992624, 0.992328, 0.992294, 0.992794, 0.993317, 0.993193, 0.992326, 0.99399, 0.993968, 0.994202, 0.990674, 0.990649, 0.990699, 0.99033, 0.987112, 0.987943, 0.988014, 0.990112, 0.990738, 0.990487, 0.990619, 1.24415, 1.22091, 1.33004, 1.22443, 1.15061, 1.34416, 1.34162, 1.09848, 1.14743, 1.15213, 1.15496, 1.16563, 1.0878, 1.08401, 0.962697, 0.961984, 0.962208, 0.98117, 0.958496, 0.957592, 0.957243, 1.30151, 1.30998, 1.30233, 1.30368, 0.96415, 0.966549, 0.967021, 0.968284, 1.13982, 0.963443, 0.9625, 0.962635, 0.963127, 0.963316, 0.964742, 0.962849, 0.963937, 0.962266, 0.96606, 0.965982, 0.962464, 1.2991, 1.30475, 0.956063, 0.949085, 0.948357, 0.948776, 0.948904, 0.948614, 0.94906, 0.951627, 0.952036, 0.952249, 0.954302, 0.956104, 0.955172, 0.956174, 1.16029, 1.16939, 1.181, 0.966129
1.28923, 1.41243, 1.2782, 1.50691, 1.3402, 1.43724, 1.38136, 1.48602, 1.37438, 1.37471, 0.00433324, 1.59589, 1.48916, 1.57366, 1.23655, 1.23865, 1.19544, 1.30563, 1.30586, 1.19473, 1.19602, 1.19915, 1.2009, 1.20215, 1.20975, 1.20548, 1.20496, 1.20656, 1.20693, 1.20704, 1.20493, 1.48983, 1.09981, 1.45348, 1.22658, 1.23296, 1.29527, 1.29717, 1.20984, 1.21624, 0.00467785, 1.06834, 1.07669, 1.07447, 1.07486, 1.07463, 1.12456, 1.07878, 1.08313, 1.05856, 1.05317, 1.05619, 1.05718, 1.0806, 1.05841, 1.06044, 1.07166, 1.06976, 1.0701, 1.07105, 1.0716, 1.06929, 1.07055, 1.06195, 1.07402, 1.07291, 1.06941, 1.0699, 1.06771, 1.06793, 1.06657, 1.06779, 1.07023, 1.06948, 1.06537, 1.06533, 1.06448, 1.06511, 1.06309, 1.06312, 1.05918, 1.05912, 1.0595, 1.05966, 1.05985, 1.05969, 1.05907, 1.05817, 1.05735, 1.05661, 1.05489, 1.05266, 1.05236, 1.05235, 1.05098, 1.05027, 1.05075, 1.04872, 1.04632, 1.0458, 1.04506, 1.04364, 1.04445, 1.04154, 1.03941, 1.04002, 1.04047, 1.03945, 1.0389, 1.03907, 1.03073, 1.03413, 1.03396, 1.03579, 1.0282, 1.02879, 1.03188, 1.03174, 1.03127, 1.0256, 1.0203, 1.02333, 1.0249, 1.02492, 1.02267, 1.0222, 1.02183, 1.01974, 1.0166, 1.01422, 1.01165, 1.01122, 1.00929, 1.01148, 1.01206, 1.01136, 1.01035, 1.00994, 1.00852, 1.00854, 1.00892, 1.00966, 1.01047, 1.0064, 1.00646, 1.004, 1.00393, 1.55848, 0.998318, 0.997444, 0.997391, 0.994326, 0.993693, 0.994506, 0.99473, 0.993284, 0.993576, 0.992583, 0.991578, 0.991675, 0.9929, 0.991444, 0.991375, 0.99233, 0.994148, 0.993296, 0.99212, 0.991198, 0.990249, 0.990029, 0.990823, 0.986652, 0.987107, 0.986855, 0.9883, 0.989563, 0.990518, 0.990611, 0.990158, 0.988681, 1.08097, 1.08186, 1.1417, 1.34296, 1.28289, 1.42428, 0.994297, 0.995504, 0.996568, 1.39519, 1.08429, 1.09119, 0.972015, 0.96321, 1.21658, 0.97831, 0.976709, 1.08907, 0.945809, 0.950615, 0.953729, 1.06985, 1.51522, 1.52404, 1.6648, 0.97512, 1.09152, 1.11575, 1.12267, 0.963028, 0.961467, 0.961347, 0.960712, 0.96195, 0.961491, 0.960936, 0.959496, 0.960016, 0.955254, 0.953778, 0.95237, 0.949177, 0.949012, 0.946913, 0.946854, 0.946793, 0.949277, 0.948384, 1.26541, 1.33769, 1.21817, 0.952873, 1.14022, 1.31473, 1.27264, 1.15559, 1.14749, 0.977435, 0.976323, 1.00429
1.41982, 1.38612, 1.43649, 1.3504, 1.43152, 1.34755, 1.46116, 1.46882, 1.53152, 1.53098, 1.20008, 1.19451, 1.30236, 1.20073, 1.17814, 1.23727, 1.17735, 1.17688, 1.18056, 1.3092, 1.5498, 1.21156, 1.18485, 1.19155, 1.19254, 1.21176, 1.20707, 1.20594, 1.20704, 1.20774, 1.08999, 1.09753, 1.09733, 1.09577, 1.09128, 1.3459, 1.07786, 1.20576, 1.20712, 1.19229, 1.19297, 1.07313, 1.07375, 1.07417, 1.07509, 1.08519, 1.05181, 1.05501, 1.05654, 1.05754, 1.06028, 1.05707, 1.05593, 1.0784, 1.06829, 1.06297, 1.06172, 1.06339, 1.06381, 1.06251, 1.05909, 1.06412, 1.06065, 1.06041, 1.05943, 1.06176, 1.0681, 1.06634, 1.06632, 1.06728, 1.06564, 1.066, 1.07074, 1.06481, 1.06473, 1.06407, 1.064, 1.06404, 1.06416, 1.06427, 1.06408, 1.06035, 1.05867, 1.05949, 1.05826, 1.05928, 1.0586, 1.05779, 1.05737, 1.05699, 1.05612, 1.05568, 1.05298, 1.05282, 1.0525, 1.05155, 1.04727, 1.04941, 1.0458, 1.04085, 1.04152, 1.04203, 1.03954, 1.04004, 1.03927, 1.04189, 1.04032, 1.03961, 1.03862, 1.03738, 1.0342, 1.03361, 1.03752, 1.02279, 1.21809, 1.02855, 1.03007, 1.03187, 1.03249, 1.02597, 1.02565, 1.02496, 1.02379, 1.0234, 1.02237, 1.01965, 1.01818, 1.01703, 1.01632, 1.01474, 1.01289, 1.01107, 1.01068, 1.0116, 1.01221, 1.01165, 1.01155, 1.00923, 1.00784, 1.00808, 1.00861, 1.0091, 1.00866, 1.00476, 1.00476, 1.00231, 1.00119, 1.0015, 1.00427, 0.998385, 0.997632, 0.997984, 0.998018, 0.997343, 0.997379, 0.996115, 0.994064, 0.99261, 0.991716, 0.991843, 0.991132, 0.990546, 0.990643, 0.991495, 1.19379, 0.990423, 0.990591, 0.989289, 0.984903, 0.985886, 0.980482, 0.987358, 0.986649, 1.51703, 0.989808, 0.989075, 0.988907, 0.98946, 0.989469, 0.989024, 0.988628, 0.990441, 1.21242, 0.991748, 1.11122, 0.994867, 0.994936, 0.996978, 0.997395, 0.997587, 1.64453, 1.07525, 1.09509, 1.04429, 1.45167, 1.05221, 1.57816, 1.31275, 0.946066, 0.951711, 0.952947, 1.26099, 1.08716, 1.26161, 1.66518, 1.33963, 0.9571, 0.956427, 0.956187, 0.957189, 0.958864, 0.958171, 0.959217, 0.960585, 0.959765, 0.959034, 0.956377, 0.956683, 0.952944, 0.9515, 0.950375, 0.949379, 0.948675, 0.946061, 0.947367, 1.10308, 1.09873, 1.18407, 1.33479, 1.18493, 1.34725, 1.07546, 1.13191, 1.143, 1.14077, 1.14444, 1.1464, 1.1251, 1.27741, 1.13394
1.35891, 1.39709, 1.42393, 1.27628, 1.26565, 1.2123, 1.21541, 1.18289, 1.18782, 1.12316, 1.12617, 1.25329, 1.25676, 1.21284, 1.18901, 1.23084, 1.17526, 1.17558, 1.17874, 1.18206, 1.19129, 1.19492, 1.19515, 1.1864, 1.36928, 1.22037, 1.22166, 1.22347, 1.083, 1.08409, 1.13913, 1.09816, 1.099, 1.09252, 1.09154, 1.09574, 1.07738, 1.07376, 1.07349, 1.07131, 1.0733, 1.0722, 1.07234, 1.06582, 1.06263, 1.06287, 1.05475, 1.05504, 1.41151, 1.06544, 1.06441, 1.06634, 1.06809, 1.06997, 1.07021, 1.071, 1.07016, 1.07102, 1.06536, 1.06226, 1.07484, 1.06863, 1.06541, 1.0618, 1.05862, 1.06121, 1.06499, 1.06699, 1.06699, 1.06221, 1.05638, 1.05746, 1.076, 1.05676, 1.0637, 1.06437, 1.06507, 1.0649, 1.06417, 1.06375, 1.06205, 1.06272, 1.06368, 1.06089, 1.05986, 1.05948, 1.05981, 1.05814, 1.05631, 1.0566, 1.05547, 1.05508, 1.05294, 1.0506, 1.04893, 1.0476, 1.04679, 1.04604, 1.04332, 1.04316, 1.04248, 1.04103, 1.03712, 1.03758, 1.03945, 1.03934, 1.0392, 1.03889, 1.03635, 1.03544, 1.03474, 1.03407, 1.03588, 1.02239, 1.02264, 1.02848, 1.02737, 1.51236, 1.33939, 1.02549, 1.02582, 1.02387, 1.02409, 1.02314, 1.0182, 1.01888, 1.01779, 1.01537, 1.01466, 1.01448, 1.01253, 1.01007, 1.00917, 1.00874, 1.00874, 1.00788, 1.00656, 1.00758, 1.00731, 1.0081, 1.00535, 1.00709, 1.00564, 1.00423, 1.00425, 1.00464, 1.00258, 1.00251, 1.00188, 1.00183, 1.00226, 0.997243, 0.997663, 0.997142, 0.997031, 0.996901, 0.992606, 0.991964, 0.990733, 0.989634, 0.989299, 0.987386, 0.989188, 0.987572, 0.986917, 0.986872, 0.986153, 0.987002, 0.982059, 0.983104, 0.979493, 0.980859, 1.08514, 1.35098, 1.11508, 1.18954, 0.989157, 0.989156, 0.988684, 0.987287, 1.49087, 1.50005, 1.21199, 1.10356, 1.10911, 1.20916, 0.994309, 0.9957, 0.996517, 1.23559, 1.23731, 1.24699, 1.02469, 1.02656, 1.45574, 1.26201, 1.28114, 1.47084, 1.46858, 1.34687, 0.942716, 0.937644, 0.939945, 0.942238, 1.33401, 0.956042, 0.954783, 0.954075, 0.952326, 0.955638, 0.954448, 0.956074, 0.957304, 0.95667, 0.956808, 0.9566, 0.954199, 0.952841, 0.951838, 0.951725, 0.950218, 0.94903, 1.30376, 1.31197, 1.31359, 1.32612, 1.05723, 1.05807, 1.39264, 1.06321, 1.06471, 1.12614, 1.14625, 1.14027, 1.08828, 1.12296, 1.13089, 1.2704, 0.983732, 0.984319
1.28436, 1.19174, 1.20605, 1.22179, 1.21972, 1.32036, 1.1653, 1.12872, 1.12199, 1.12299, 1.12453, 1.12171, 1.12178, 1.11497, 1.32925, 1.36949, 1.52656, 1.17642, 1.18732, 1.35204, 1.18416, 1.20929, 1.19527, 1.19596, 1.34832, 1.21821, 1.27491, 1.10269, 1.0808, 1.08717, 1.32249, 1.09971, 1.10017, 1.10005, 1.09238, 1.0825, 1.08301, 1.08066, 1.07453, 1.07204, 1.06908, 1.0698, 1.06786, 1.06754, 1.06709, 1.05759, 1.07086, 1.07068, 1.07181, 1.09546, 1.06478, 1.06649, 1.06993, 1.06996, 1.07, 1.06981, 1.06941, 1.06975, 1.06988, 1.06863, 1.06993, 1.06895, 1.068, 1.06782, 1.06893, 1.06974, 1.06844, 1.06252, 1.06067, 1.05962, 1.057, 1.05929, 1.05836, 1.06428, 1.06524, 1.06499, 1.06568, 1.06643, 1.06473, 1.06367, 1.06316, 1.06173, 1.06469, 1.06526, 1.06232, 1.06014, 1.06013, 1.05897, 1.05824, 1.05634, 1.05447, 1.05553, 1.05182, 1.05027, 1.04797, 1.04611, 1.04566, 1.04263, 1.04303, 1.04293, 1.04272, 1.04181, 1.03781, 1.0384, 1.0397, 1.03933, 1.03804, 1.03876, 1.03356, 1.03405, 1.0337, 1.03278, 1.0323, 1.02881, 1.02784, 1.02718, 1.02509, 1.02444, 1.02479, 1.02149, 1.02255, 1.02231, 1.02261, 1.02012, 1.01896, 1.01821, 1.01716, 1.01642, 1.01166, 1.01179, 1.01003, 1.00931, 1.00916, 1.00859, 1.00763, 1.00715, 1.00647, 1.00626, 1.00432, 1.00424, 1.00465, 1.00432, 1.00417, 1.00452, 1.00467, 1.00341, 1.00256, 1.00232, 1.00188, 1.00116, 1.0025, 1.00012, 0.998309, 0.997237, 0.995251, 0.99325, 0.989029, 0.989978, 0.986987, 0.987696, 0.985278, 0.984901, 0.984584, 0.984812, 0.986512, 0.985904, 0.98483, 0.984731, 0.983503, 0.983909, 0.980304, 0.984894, 1.2868, 0.970296, 0.991143, 1.3057, 0.984636, 0.983541, 0.98426, 0.983679, 1.14782, 1.14568, 0.987934, 1.21384, 1.10905, 0.992064, 0.994383, 0.996659, 0.996499, 0.998915, 0.999969, 1.4696, 1.02861, 1.24143, 1.44684, 1.54744, 1.12291, 1.12879, 1.14306, 1.50261, 1.33018, 0.935496, 0.94048, 0.942112, 0.948473, 0.949171, 0.950324, 0.951304, 0.952277, 0.952989, 0.952726, 0.953388, 0.955048, 0.9566, 0.956835, 0.956677, 1.07101, 0.953781, 1.08148, 1.15815, 1.08815, 1.08743, 0.98006, 0.978043, 1.17781, 1.05467, 1.11183, 1.39001, 1.33743, 1.06384, 1.35128, 1.41557, 1.1036, 1.08117, 1.13797, 1.3888, 0.987939, 0.986293, 0.983419, 0.985179
1.15087, 1.15052, 1.2127, 1.12193, 1.12199, 1.49898, 1.12367, 1.12305, 1.12263, 1.12942, 1.1263, 1.12537, 1.12209, 1.11554, 1.19337, 1.18455, 1.18061, 1.16382, 1.16405, 1.16507, 1.32791, 1.14282, 1.21472, 1.21955, 1.37727, 1.39141, 1.09897, 1.07692, 1.27618, 1.08659, 1.08543, 1.32154, 1.09947, 1.09926, 1.09427, 1.09167, 1.08339, 1.08254, 1.07591, 1.07416, 1.07217, 1.06791, 1.06828, 1.06716, 1.06676, 1.06679, 1.06722, 1.06926, 1.07706, 1.07739, 1.06534, 1.07016, 1.06997, 1.06889, 1.06969, 1.06928, 1.06989, 1.06897, 1.06766, 1.06708, 1.06714, 1.06767, 1.06731, 1.06719, 1.06716, 1.06974, 1.06817, 1.06848, 1.06911, 1.06958, 1.06088, 1.06027, 1.06215, 1.06537, 1.06217, 1.06175, 1.06516, 1.06578, 1.06473, 1.06343, 1.06307, 1.06302, 1.06342, 1.0648, 1.06245, 1.06074, 1.05994, 1.05849, 1.05591, 1.05569, 1.05328, 1.0529, 1.05149, 1.04946, 1.0476, 1.04686, 1.04573, 1.04518, 1.04755, 1.04679, 1.04372, 1.04227, 1.0394, 1.03898, 1.0378, 1.03674, 1.03796, 1.03877, 1.03317, 1.03363, 1.0322, 1.03114, 1.02869, 1.02814, 1.0284, 1.02592, 1.02521, 1.02478, 1.02254, 1.0218, 1.02165, 1.01962, 1.01881, 1.01945, 1.01879, 1.01907, 1.01878, 1.01487, 1.0117, 1.01094, 1.0091, 1.00506, 1.00596, 1.0077, 1.00767, 1.00496, 1.0042, 1.00398, 1.00256, 1.0029, 1.00355, 1.00465, 1.00465, 1.00338, 1.00105, 1.00125, 1.00142, 1.00213, 1.0002, 0.999744, 0.998011, 0.996939, 0.997567, 0.994765, 0.994174, 0.989438, 0.988607, 0.987441, 0.986757, 0.986173, 0.985686, 0.986096, 0.986186, 0.986039, 0.986401, 0.987715, 0.984674, 0.983508, 0.982809, 0.981111, 0.980549, 0.980201, 0.978976, 0.969699, 0.970931, 1.1273, 0.982885, 0.983532, 0.9845, 0.983024, 1.11201, 0.987049, 0.986841, 0.988468, 1.12985, 0.991257, 0.993867, 0.996275, 0.999236, 1.00072, 1.00065, 0.999193, 1.25265, 1.25923, 1.4774, 1.46361, 1.49307, 1.54697, 1.49172, 1.30873, 1.05557, 1.05794, 0.992231, 1.18715, 0.947524, 0.948315, 0.949523, 0.951174, 1.21328, 1.22273, 1.05274, 1.04089, 1.05125, 1.11229, 1.04843, 1.06697, 1.13717, 1.07421, 1.07884, 1.28762, 1.15736, 1.29914, 1.04428, 1.05311, 1.02297, 1.16988, 1.03511, 1.05643, 1.09984, 1.09327, 1.13411, 1.36296, 1.3671, 1.08006, 1.29624, 0.987284, 0.989085, 0.990474, 0.984395, 0.985385
1.16072, 1.17162, 1.12263, 1.12258, 1.11894, 1.11862, 1.2424, 1.12366, 1.12746, 1.12937, 1.12739, 1.1263, 1.12037, 1.26478, 1.30099, 1.31203, 1.16343, 1.1634, 1.17048, 1.16907, 1.14588, 1.14238, 1.21452, 1.23279, 1.25061, 1.09973, 1.07853, 1.078, 1.27386, 1.08772, 1.0872, 1.08511, 1.0971, 1.09198, 1.09237, 1.09158, 1.09281, 1.09412, 1.09361, 1.08867, 1.36575, 1.0684, 1.06894, 1.06915, 1.06891, 1.06966, 1.0672, 1.07142, 1.36804, 1.07662, 1.0694, 1.06979, 1.06974, 1.06919, 1.06826, 1.06906, 1.0686, 1.06696, 1.06826, 1.06844, 1.06747, 1.06745, 1.06721, 1.06701, 1.06668, 1.06573, 1.06651, 1.0676, 1.06726, 1.06997, 1.06738, 1.06653, 1.06634, 1.06696, 1.06739, 1.06038, 1.05765, 1.05496, 1.06277, 1.0622, 1.06321, 1.06012, 1.05967, 1.06007, 1.0583, 1.05849, 1.05851, 1.05628, 1.05435, 1.0548, 1.05317, 1.05117, 1.05031, 1.05003, 1.04914, 1.048, 1.0481, 1.04898, 1.04841, 1.04589, 1.04586, 1.0425, 1.04184, 1.03896, 1.30244, 1.03741, 1.03677, 1.03473, 1.03259, 1.03197, 1.03218, 1.02931, 1.09171, 1.02552, 1.02579, 1.02478, 1.02433, 1.02356, 1.02359, 1.02217, 1.02121, 1.01981, 1.01921, 1.0181, 1.01514, 1.01421, 1.01163, 1.01126, 1.01048, 1.01014, 1.00817, 1.00588, 1.00623, 1.00318, 1.00441, 1.00234, 1.00307, 1.00397, 1.00256, 1.00261, 1.0047, 1.00458, 1.00158, 1.00195, 1.00147, 1.00051, 1.00063, 0.999253, 0.995116, 0.997746, 0.999575, 0.993654, 0.994771, 0.994173, 0.991601, 0.989047, 0.990877, 0.990294, 0.99051, 0.990961, 0.986369, 0.986776, 0.987306, 0.987356, 0.986975, 0.986176, 0.984819, 0.98349, 0.982603, 0.980133, 0.979769, 0.980116, 0.980264, 0.97915, 0.976455, 0.976723, 1.2746, 0.982749, 0.983764, 1.17338, 1.17805, 1.13476, 1.14256, 1.22573, 1.22626, 1.60667, 1.07068, 0.998385, 0.999949, 1.00058, 1.00063, 0.997691, 1.01618, 1.26348, 1.2722, 1.25355, 0.984511, 1.29232, 1.20139, 1.02863, 1.50996, 1.24721, 1.18726, 1.33143, 0.993815, 1.07926, 0.985281, 1.04677, 0.971335, 1.28109, 1.05081, 1.05296, 1.08112, 1.0946, 1.05296, 1.0583, 1.07409, 1.27923, 0.974374, 0.974565, 0.973566, 0.972638, 0.970859, 1.64677, 1.65798, 1.08831, 1.05345, 1.098, 1.0594, 1.06353, 1.06345, 1.13726, 1.07119, 1.07602, 0.988053, 0.988002, 0.989634, 0.99085, 0.984623, 1.16827
1.187, 1.19839, 1.12387, 1.1229, 1.11988, 1.1195, 1.11597, 1.25463, 1.12946, 1.12922, 1.12957, 1.11901, 1.52644, 1.21598, 1.28026, 1.28055, 1.17385, 1.16654, 1.13939, 1.14234, 1.14436, 1.21612, 1.23956, 1.37827, 1.10194, 1.08271, 1.08183, 1.3949, 1.09065, 1.08966, 1.09054, 1.09037, 1.09295, 1.08979, 1.09024, 1.0901, 1.09296, 1.09343, 1.08939, 1.08841, 1.08097, 1.07265, 1.07349, 1.07054, 1.06782, 1.06785, 1.06839, 1.06788, 1.07347, 1.07145, 1.06876, 1.06836, 1.06674, 1.06723, 1.06744, 1.06765, 1.06693, 1.06709, 1.06812, 1.06681, 1.06672, 1.06665, 1.06665, 1.0664, 1.0671, 1.06658, 1.06649, 1.06629, 1.06848, 1.06963, 1.06717, 1.06436, 1.06427, 1.06686, 1.06805, 1.05982, 1.05392, 1.0538, 1.06016, 1.05935, 1.05931, 1.05974, 1.05958, 1.05756, 1.05679, 1.05643, 1.0564, 1.05447, 1.05445, 1.05341, 1.05083, 1.05252, 1.05152, 1.05067, 1.05058, 1.04725, 1.04695, 1.0478, 1.04006, 1.04277, 1.04291, 1.04143, 1.03971, 1.03623, 1.03564, 1.03313, 1.03347, 1.03138, 1.03077, 1.03137, 1.02997, 1.0291, 1.01748, 1.02559, 1.02482, 1.02449, 1.02345, 1.02464, 1.02452, 1.02359, 1.01898, 1.01815, 1.01621, 1.01481, 1.01506, 1.00907, 1.00886, 1.00876, 1.00762, 1.0067, 1.34747, 1.00452, 1.00481, 1.00398, 1.00241, 1.00318, 1.00308, 1.00195, 1.00252, 1.00182, 1.00115, 1.00108, 0.997831, 0.999207, 1.00173, 1.2243, 0.997644, 0.993659, 0.996187, 0.996068, 0.989553, 0.993927, 0.9961, 0.996449, 0.991909, 0.991641, 0.990787, 0.990629, 0.991818, 0.990896, 0.990894, 0.991463, 0.987591, 0.987374, 0.986466, 0.985497, 0.984544, 0.985233, 0.984887, 0.980848, 0.980416, 0.981701, 0.979963, 0.979728, 0.977556, 0.976299, 0.975363, 1.14864, 1.03783, 1.11751, 1.19739, 1.13001, 1.18802, 1.16443, 1.10981, 1.0643, 0.997556, 0.99847, 0.999253, 1.00015, 1.00025, 1.44121, 1.12189, 0.991704, 1.25743, 1.27488, 1.45756, 1.29074, 1.19101, 1.17452, 1.50872, 1.04958, 0.97139, 1.18545, 1.66174, 1.29521, 1.5384, 1.29177, 0.971168, 1.03503, 0.981718, 0.981596, 1.09859, 1.09997, 1.25958, 1.05646, 1.03327, 1.07277, 0.97446, 0.974885, 0.974753, 0.973925, 0.972037, 1.08329, 1.0864, 1.04934, 1.05149, 1.05435, 1.05708, 1.07979, 1.06095, 1.34977, 1.06924, 1.14988, 1.1258, 0.986343, 0.987798, 0.98899, 0.992129, 1.22052
1.13871, 1.12616, 1.12443, 1.12434, 1.1189, 1.11882, 1.12179, 1.12348, 1.12319, 1.13154, 1.12998, 1.13132, 1.1292, 1.13334, 1.27945, 1.56823, 1.13045, 1.13984, 1.1825, 1.31631, 1.63392, 1.35158, 1.24355, 1.17863, 1.08717, 1.08632, 1.26719, 1.0923, 1.09221, 1.09014, 1.09061, 1.08832, 1.09398, 1.09006, 1.09085, 1.09076, 1.09217, 1.09589, 1.10144, 1.09335, 1.08931, 1.0724, 1.07305, 1.0719, 1.07039, 1.06881, 1.06983, 1.06907, 1.07374, 1.07285, 1.06816, 1.06767, 1.0678, 1.06768, 1.06781, 1.06795, 1.06611, 1.06676, 1.0664, 1.06693, 1.06608, 1.06502, 1.06536, 1.06533, 1.06501, 1.06443, 1.06435, 1.06635, 1.06736, 1.06572, 1.06365, 1.06329, 1.06011, 1.06068, 1.06025, 1.0595, 1.05964, 1.05941, 1.06174, 1.06018, 1.05965, 1.0582, 1.05776, 1.05739, 1.05652, 1.05564, 1.05526, 1.05261, 1.05263, 1.05174, 1.05137, 1.05088, 1.05158, 1.05112, 1.05918, 1.04622, 1.04424, 1.04571, 1.04503, 1.04239, 1.03959, 1.03942, 1.03724, 1.03448, 1.03262, 1.03183, 1.03059, 1.02938, 1.02995, 1.03001, 1.02863, 1.02847, 1.02721, 1.02578, 1.02483, 1.02614, 1.02544, 1.02444, 1.02275, 1.02161, 1.01864, 1.01626, 1.01498, 1.01241, 1.01296, 0.996022, 1.00991, 1.00928, 1.00696, 1.00587, 1.00701, 1.00533, 1.00431, 1.00413, 1.00293, 1.00225, 1.00222, 1.00165, 1.0007, 1.00071, 0.998922, 1.00089, 1.00101, 1.00234, 0.984938, 1.22665, 0.99739, 0.997069, 0.996878, 0.997462, 0.993503, 0.99402, 0.994693, 0.99563, 0.992926, 0.993193, 0.99124, 0.990102, 0.991326, 0.991356, 0.99117, 0.988736, 0.988844, 0.990225, 0.989731, 0.987348, 0.987145, 0.986672, 0.985456, 0.981593, 0.980723, 0.980788, 0.97811, 0.977298, 0.976987, 0.973729, 0.973892, 0.974098, 1.23014, 1.22215, 1.25183, 1.25727, 1.38452, 1.38667, 1.05046, 0.995388, 0.996566, 0.997914, 0.999662, 1.00478, 1.25154, 1.12523, 1.1326, 1.23895, 1.01156, 1.01153, 1.15802, 0.981206, 1.177, 1.1811, 1.27576, 0.970683, 0.973667, 0.974219, 0.975427, 0.977983, 1.3034, 1.03108, 1.0327, 1.03929, 1.23579, 1.36285, 0.987356, 1.03916, 1.01835, 1.00258, 1.03477, 1.07469, 0.973699, 0.975742, 0.975271, 0.973073, 0.970507, 1.31571, 1.04006, 1.08722, 1.05667, 1.222, 1.08059, 1.08066, 1.08096, 1.24053, 1.06765, 1.47563, 1.26033, 1.1192, 1.49461, 1.16292, 1.16525, 1.29687
1.13621, 1.46799, 1.12552, 1.1253, 1.12462, 1.12898, 1.12451, 1.12397, 1.12313, 1.13219, 1.13102, 1.13051, 1.13057, 1.11636, 1.16002, 1.16955, 1.12973, 1.58689, 1.30105, 1.32114, 1.49578, 1.27548, 1.09809, 1.09728, 1.09963, 1.09581, 1.11437, 1.09412, 1.32193, 1.09217, 1.09059, 1.0914, 1.09167, 1.18463, 1.31996, 1.10297, 1.10598, 1.10608, 1.10447, 1.10941, 1.07686, 1.07472, 1.07394, 1.07344, 1.07072, 1.07018, 1.07351, 1.07367, 1.07291, 1.07068, 1.06988, 1.06843, 1.0683, 1.06741, 1.07022, 1.07125, 1.06512, 1.06608, 1.06578, 1.0659, 1.06416, 1.06267, 1.06382, 1.06275, 1.06147, 1.06312, 1.06372, 1.0634, 1.06472, 1.06309, 1.06369, 1.06295, 1.06148, 1.06131, 1.06024, 1.06123, 1.0606, 1.05967, 1.0589, 1.05843, 1.05731, 1.05689, 1.05531, 1.05659, 1.05625, 1.05317, 1.05262, 1.05262, 1.05168, 1.05123, 1.0506, 1.05059, 1.05117, 1.05177, 1.04916, 1.04097, 1.04411, 1.04325, 1.04146, 1.03926, 1.03911, 1.03868, 1.03616, 1.03394, 1.03191, 1.03196, 1.02899, 1.02884, 1.02925, 1.02864, 1.02879, 1.02838, 1.02855, 1.02776, 1.02652, 1.0271, 1.02499, 1.02403, 1.02336, 1.01979, 1.01799, 1.01528, 1.01461, 1.01376, 1.01207, 1.00803, 1.00816, 1.0063, 1.00405, 1.00507, 1.00613, 1.00539, 1.0052, 1.00494, 1.00279, 1.00157, 1.00066, 1.00078, 0.999992, 0.999466, 0.997612, 0.999045, 0.998815, 0.999696, 0.995299, 0.993183, 0.995196, 0.996286, 0.997621, 0.995077, 0.993335, 0.99271, 0.994182, 0.992209, 0.992537, 0.990729, 0.987549, 0.986851, 0.986487, 0.9853, 0.985878, 0.987411, 0.988314, 0.988962, 0.989027, 0.989059, 0.987643, 0.987891, 1.20851, 1.3547, 0.979622, 0.97971, 0.979011, 0.977379, 0.97705, 0.976563, 0.973355, 0.973347, 1.22547, 1.24251, 1.30595, 1.01256, 1.28418, 1.20036, 1.21281, 1.17037, 0.998076, 0.99814, 1.11289, 1.20855, 1.12371, 1.00258, 1.00596, 1.00818, 1.32786, 1.14466, 0.977344, 1.58929, 1.16852, 0.976798, 0.976564, 0.973318, 0.973356, 0.973834, 0.976782, 0.977302, 0.980604, 1.30895, 1.01684, 1.00183, 1.00037, 0.987057, 0.988263, 0.990041, 0.990391, 0.999489, 0.99075, 1.02981, 1.07802, 0.975172, 0.973099, 0.971915, 1.03517, 1.07132, 1.16341, 1.16264, 1.16257, 1.05409, 1.08328, 1.09331, 1.09857, 1.09944, 1.09388, 1.07151, 1.07192, 1.10571, 1.26716, 1.12304, 1.11188, 1.11099
1.13706, 1.1357, 1.13561, 1.13046, 1.12744, 1.12628, 1.12622, 1.12637, 1.12652, 1.1271, 1.13129, 1.11929, 1.11923, 1.11658, 1.10953, 1.2985, 1.41818, 1.57424, 1.37728, 1.24773, 1.1394, 1.09639, 1.09608, 1.09661, 1.37737, 1.09453, 1.09541, 1.09516, 1.09896, 1.09497, 1.09413, 1.09203, 1.09132, 1.31402, 1.10359, 1.10461, 1.10462, 1.10464, 1.10527, 1.36474, 1.32409, 1.07809, 1.07711, 1.07765, 1.07594, 1.07394, 1.07361, 1.07382, 1.07101, 1.07078, 1.06998, 1.0681, 1.06768, 1.06796, 1.07207, 1.07181, 1.06703, 1.06468, 1.06451, 1.06353, 1.06357, 1.06321, 1.06286, 1.06297, 1.06369, 1.06354, 1.06366, 1.06399, 1.06418, 1.06326, 1.06309, 1.06308, 1.06172, 1.06114, 1.06144, 1.06068, 1.06066, 1.05943, 1.05873, 1.05341, 1.05641, 1.05557, 1.05644, 1.0559, 1.05395, 1.05347, 1.05312, 1.05245, 1.05172, 1.05186, 1.0509, 1.05057, 1.05016, 1.04891, 1.04619, 1.04229, 1.04187, 1.04, 1.03934, 1.0386, 1.03584, 1.03603, 1.03416, 1.0322, 1.02978, 1.02918, 1.02936, 1.03227, 1.03084, 1.03181, 1.0301, 1.02881, 1.02891, 1.02958, 1.02698, 1.02544, 1.02187, 1.0216, 1.01964, 1.01829, 1.01732, 1.01522, 1.01349, 1.01175, 1.01122, 1.00781, 1.00805, 1.00462, 1.00517, 1.00235, 1.00198, 1.00109, 1.00086, 1.00121, 0.997718, 1.00003, 1.00232, 1.00143, 1.00006, 0.999504, 0.996247, 0.998316, 0.999711, 0.999163, 0.997038, 0.994681, 0.995203, 0.994347, 0.994917, 0.993672, 0.991683, 0.990884, 0.990611, 0.990621, 0.990642, 0.9892, 0.987028, 0.986691, 0.984998, 0.984976, 0.985378, 0.986061, 0.98678, 0.986988, 0.987116, 0.987108, 0.986328, 0.977372, 0.979128, 0.980788, 0.977744, 0.978206, 0.976655, 0.976926, 0.976844, 0.97571, 0.973801, 0.972274, 0.97321, 0.972523, 1.32571, 1.32944, 1.32342, 1.29922, 1.14631, 1.06629, 1.0522, 1.20545, 1.2067, 1.53912, 1.12134, 1.00209, 1.00614, 1.35202, 1.32582, 0.973139, 0.974289, 0.978671, 0.992061, 0.973887, 0.975048, 1.61956, 0.97302, 0.974564, 0.976313, 0.979807, 0.980758, 0.985634, 1.01145, 0.990275, 0.991045, 0.991396, 0.99154, 0.991262, 0.991491, 0.992062, 1.02745, 1.02182, 1.01978, 1.28256, 1.04467, 0.970664, 0.964349, 0.965495, 0.967317, 0.967557, 1.07089, 1.21655, 1.05555, 1.23348, 1.06948, 1.21027, 1.09293, 1.07805, 1.07636, 1.48029, 1.4858, 1.24311, 1.11505, 1.25281
1.13779, 1.13702, 1.13242, 1.13025, 1.12659, 1.12568, 1.12509, 1.12602, 1.12632, 1.12337, 1.12105, 1.12051, 1.11943, 1.10926, 1.10538, 1.10496, 1.10717, 1.10986, 1.1031, 1.09898, 1.09824, 1.09699, 1.0839, 1.10074, 1.09531, 1.0955, 1.09737, 1.09765, 1.09765, 1.09512, 1.094, 1.09378, 1.27458, 1.26407, 1.33949, 1.10581, 1.10613, 1.10589, 1.33361, 1.25518, 1.09123, 1.07665, 1.0766, 1.07737, 1.07571, 1.07508, 1.07364, 1.07191, 1.07121, 1.071, 1.07049, 1.06844, 1.06839, 1.0668, 1.06669, 1.06662, 1.06649, 1.06649, 1.06555, 1.06508, 1.06364, 1.06409, 1.06433, 1.06323, 1.06354, 1.06351, 1.06384, 1.06366, 1.06431, 1.06454, 1.0642, 1.06337, 1.06328, 1.0636, 1.06286, 1.06206, 1.06087, 1.05986, 1.05842, 1.05732, 1.05671, 1.05627, 1.05619, 1.05607, 1.05594, 1.0534, 1.05315, 1.04537, 1.05321, 1.05237, 1.04976, 1.04962, 1.04818, 1.04961, 1.0427, 1.04387, 1.04178, 1.04066, 1.0382, 1.03769, 1.03542, 1.03598, 1.03445, 1.03348, 1.03073, 1.02922, 1.02837, 1.03021, 1.03012, 1.03036, 1.03024, 1.02998, 1.02883, 1.02828, 1.02425, 1.02355, 1.02277, 1.01738, 1.01938, 1.01806, 1.01442, 1.01446, 1.01449, 1.0096, 1.00888, 1.0075, 1.00518, 1.00439, 1.00463, 1.00327, 1.00066, 1.00125, 1.00162, 1.00097, 1.00082, 1.00337, 1.00395, 1.00225, 1.00146, 1.00143, 0.999975, 0.999914, 0.999569, 0.9982, 0.997476, 0.994648, 0.994965, 0.993819, 0.992622, 0.991457, 0.990852, 0.991864, 0.989043, 0.989043, 0.989404, 0.988632, 0.987103, 0.983814, 0.984404, 0.985977, 0.986164, 0.985778, 0.985071, 0.985367, 0.980331, 0.981207, 0.980419, 0.980064, 0.979973, 0.980102, 0.979737, 0.970724, 0.977598, 0.976098, 0.976566, 0.976646, 0.973682, 0.972835, 0.972619, 0.972291, 0.973163, 1.17594, 0.980496, 1.23012, 1.22682, 1.10379, 1.10722, 1.11016, 0.99205, 1.49779, 1.00125, 1.22205, 0.964049, 0.965757, 0.967485, 0.968949, 0.970348, 1.00256, 1.01113, 0.973524, 0.974257, 0.972593, 0.970352, 1.28227, 0.97724, 0.97949, 0.982985, 0.984569, 0.991231, 0.991042, 0.992722, 0.990914, 0.99321, 0.993858, 0.992673, 0.991737, 0.994039, 0.994787, 1.08367, 1.08724, 1.0201, 1.15678, 0.964393, 0.964003, 0.966193, 0.966352, 1.0729, 0.947934, 0.948507, 0.949337, 1.08806, 1.077, 1.55412, 1.07963, 1.07377, 1.11598, 1.11994, 1.48228, 1.18374, 1.11997
1.13753, 1.13616, 1.12717, 1.1279, 1.12652, 1.12666, 1.12753, 1.1276, 1.12699, 1.11703, 1.11612, 1.11477, 1.11236, 1.10741, 1.10609, 1.10458, 1.10474, 1.10175, 1.10127, 1.09875, 1.09879, 1.10065, 1.08352, 1.09308, 1.09709, 1.09563, 1.09606, 1.0958, 1.09605, 1.09532, 1.09404, 1.09285, 1.09441, 1.22933, 1.16018, 1.13995, 1.14613, 1.08531, 1.17897, 1.25389, 1.09273, 1.0944, 1.0943, 1.074, 1.07539, 1.07474, 1.07334, 1.07234, 1.07095, 1.07127, 1.07129, 1.07226, 1.05843, 1.06471, 1.06507, 1.06444, 1.06301, 1.06225, 1.06483, 1.06458, 1.33962, 1.06433, 1.0646, 1.06475, 1.07033, 1.06845, 1.06452, 1.06649, 1.06639, 1.06641, 1.06636, 1.0657, 1.06549, 1.06594, 1.06323, 1.0605, 1.0602, 1.05636, 1.05708, 1.05767, 1.05674, 1.05732, 1.05725, 1.05719, 1.05584, 1.05527, 1.05489, 1.05057, 1.053, 1.05129, 1.4952, 1.16782, 1.04037, 1.04048, 1.04287, 1.04227, 1.04106, 1.03816, 1.03924, 1.03607, 1.03685, 1.03733, 1.03565, 1.03305, 1.03311, 1.19481, 1.02843, 1.0285, 1.02918, 1.02985, 1.03028, 1.03069, 1.02692, 1.0257, 1.02528, 1.0241, 1.02208, 1.02151, 1.01912, 1.01843, 1.01151, 1.0135, 1.01187, 1.01073, 1.01024, 1.00636, 1.00563, 1.00451, 1.00486, 1.00176, 1.00243, 1.00228, 1.00083, 1.00138, 1.0045, 1.00447, 1.00518, 1.0042, 1.00426, 1.00434, 1.003, 1.00381, 0.999275, 0.996714, 0.996715, 0.995051, 0.994597, 0.993186, 0.992366, 0.990961, 0.989481, 0.988859, 0.9874, 0.988151, 0.987807, 0.986948, 0.986274, 0.984514, 0.984375, 0.984542, 0.98496, 0.985511, 0.984034, 0.983693, 0.979907, 0.980789, 0.979057, 0.979338, 0.978795, 0.978031, 0.97747, 0.97387, 0.973931, 0.990283, 0.977088, 0.975717, 0.976911, 0.974201, 0.973559, 0.972096, 0.971776, 0.973467, 0.974013, 1.14452, 1.23007, 1.19516, 1.19522, 1.19954, 1.28776, 1.13297, 1.13619, 1.14036, 0.96351, 0.964905, 0.966504, 0.969009, 1.16059, 1.17051, 1.00549, 1.02308, 0.969656, 0.966599, 0.967203, 0.974696, 0.97617, 0.97713, 0.98207, 0.990466, 0.995826, 0.995412, 0.995093, 0.99504, 0.994683, 0.993111, 0.993766, 0.99392, 0.994955, 0.995531, 0.995116, 1.00637, 1.01847, 1.02324, 1.17408, 1.19073, 1.06379, 1.0639, 1.06326, 0.947454, 0.949153, 0.950035, 0.951084, 0.952978, 0.952548, 0.952768, 0.952754, 0.953757, 0.955037, 1.12545, 1.33164, 1.28531
1.13128, 1.13049, 1.12709, 1.12756, 1.12798, 1.12825, 1.12784, 1.12359, 1.11828, 1.11638, 1.11713, 1.11587, 1.1084, 1.10806, 1.10723, 1.10789, 1.10486, 1.10168, 1.10077, 1.09982, 1.09895, 1.08746, 1.10348, 1.09645, 1.09615, 1.0961, 1.09651, 1.09572, 1.09518, 1.09481, 1.08986, 1.08973, 1.09211, 1.09088, 1.08885, 1.08816, 1.08526, 1.08379, 1.08545, 1.08795, 1.09417, 1.09387, 1.09408, 1.07494, 1.07472, 1.07357, 1.07223, 1.0714, 1.07036, 1.07222, 1.07125, 1.0705, 1.07112, 1.06507, 1.06585, 1.06366, 1.06296, 1.06153, 1.06223, 1.14301, 1.17215, 1.19299, 1.06501, 1.06669, 1.15831, 1.06905, 1.07, 1.0702, 1.06966, 1.07156, 1.07108, 1.06914, 1.06876, 1.06683, 1.06005, 1.0602, 1.05897, 1.05792, 1.05745, 1.05755, 1.0582, 1.05861, 1.05759, 1.06475, 1.06475, 1.05918, 1.05983, 1.05367, 1.05375, 1.05289, 1.22431, 1.26058, 1.0427, 1.0425, 1.04069, 1.04162, 1.03962, 1.03897, 1.03589, 1.03519, 1.03712, 1.03727, 1.03352, 1.03238, 1.02974, 1.0208, 1.02459, 1.02748, 1.02741, 1.02778, 1.02777, 1.02723, 1.02728, 1.02566, 1.02471, 1.0241, 1.02204, 1.02023, 1.02027, 1.01828, 1.01488, 1.01429, 1.01315, 1.01046, 1.00862, 1.00573, 1.00615, 1.00612, 1.00487, 1.00273, 1.00205, 1.00127, 1.00185, 1.00328, 1.00455, 1.00198, 1.00219, 1.00388, 1.00429, 1.00455, 1.00184, 0.998622, 0.999824, 1.00105, 0.997888, 0.993927, 0.993811, 0.991206, 0.990898, 0.985132, 0.988559, 0.988096, 0.986996, 0.987211, 0.985471, 0.985401, 0.985528, 0.983985, 0.983682, 0.984387, 0.985025, 0.984921, 0.9834, 0.983376, 1.21981, 0.977363, 0.978503, 0.979338, 0.977754, 0.978024, 0.977789, 0.973057, 0.973274, 0.97064, 1.25645, 1.25194, 0.974654, 0.973351, 0.973656, 0.97305, 0.972546, 0.973549, 0.97377, 0.974988, 1.14969, 1.17028, 1.06, 1.16789, 1.23299, 1.13616, 1.06643, 0.96142, 0.963184, 0.964728, 0.965364, 1.15835, 1.10583, 0.964563, 0.967145, 0.964502, 0.966223, 0.96645, 0.968066, 0.971972, 1.19654, 0.977999, 1.28811, 1.09809, 0.995149, 0.99471, 0.99528, 0.995249, 0.993877, 0.994426, 0.993564, 0.991944, 0.993773, 0.994596, 0.994435, 0.993985, 1.01153, 1.02093, 1.02292, 1.10249, 1.10781, 1.0609, 1.06014, 0.94823, 1.09144, 0.950504, 0.951219, 0.952257, 0.952341, 0.952611, 0.952541, 0.953216, 0.971516, 0.972361, 1.38141, 1.14028
1.13112, 1.13111, 1.12968, 1.12954, 1.13127, 1.13115, 1.12465, 1.11989, 1.11832, 1.11696, 1.11735, 1.11116, 1.10881, 1.10841, 1.10825, 1.10843, 1.10339, 1.10121, 1.10011, 1.0975, 1.09544, 1.08972, 1.19208, 1.09682, 1.09587, 1.09489, 1.09497, 1.09424, 1.09461, 1.09146, 1.09115, 1.08973, 1.09011, 1.0875, 1.08643, 1.08569, 1.08441, 1.08472, 1.08569, 1.08523, 1.07614, 1.09434, 1.09397, 1.09376, 1.0665, 1.07, 1.07045, 1.07048, 1.07066, 1.07184, 1.0722, 1.07046, 1.2544, 1.0671, 1.06759, 1.06977, 1.13302, 1.10981, 1.1114, 1.11102, 1.36695, 1.28476, 1.29617, 1.31976, 0.00409116, 1.07116, 1.07315, 1.0707, 1.07153, 1.07212, 1.07133, 1.06673, 1.06536, 1.06081, 1.06002, 1.05873, 1.05767, 1.05783, 1.06367, 1.05818, 1.06027, 1.06339, 1.06325, 1.06426, 1.06631, 1.05874, 1.05871, 1.05508, 1.05414, 1.05224, 1.05604, 1.04481, 1.04362, 1.0418, 1.04225, 1.04148, 1.041, 1.28301, 1.47783, 1.03221, 1.03354, 1.03445, 1.03345, 1.03237, 1.0247, 1.0252, 1.02653, 1.02542, 1.02586, 1.02779, 1.02748, 1.02775, 1.02734, 1.02497, 1.025, 1.02469, 1.0217, 1.02154, 1.01974, 1.01564, 1.01488, 1.01418, 1.01169, 1.01053, 1.00904, 1.00825, 1.12623, 1.1274, 1.02683, 1.03293, 1.15622, 1.01547, 1.00457, 0.998465, 1.00021, 1.00046, 0.999757, 0.99629, 0.99599, 0.999415, 1.00106, 1.00139, 1.00018, 1.00088, 0.99618, 0.994511, 0.991905, 0.988111, 0.990702, 0.988782, 0.987521, 0.987629, 0.984599, 0.982476, 0.982567, 0.984861, 0.984186, 0.983573, 0.984461, 0.983301, 0.984042, 0.984479, 0.982489, 0.98425, 0.961155, 0.959519, 0.965587, 0.978623, 0.981343, 0.982049, 0.982666, 0.974528, 0.973373, 0.969751, 0.969875, 0.970045, 1.12561, 0.970908, 0.974085, 0.97446, 0.973326, 0.973205, 0.972539, 0.973265, 0.973244, 1.19414, 0.972529, 0.972897, 0.970036, 0.957176, 0.959534, 0.961125, 0.962181, 1.24347, 1.01041, 0.973913, 0.964939, 0.950453, 0.968687, 0.967031, 0.966277, 0.966237, 0.967083, 0.97272, 0.973197, 1.36361, 1.29908, 0.999063, 0.992337, 0.993805, 0.994997, 0.994503, 0.993958, 0.994119, 0.992778, 0.993711, 0.993746, 0.994271, 0.994265, 1.00635, 1.02123, 1.27106, 1.04237, 1.05273, 1.0575, 1.0529, 1.05622, 1.05615, 1.06548, 1.06487, 0.956959, 0.956123, 0.955649, 0.95502, 0.954597, 1.08047, 1.12933, 1.10393, 1.15606, 1.15669
1.13419, 1.13352, 1.13203, 1.13111, 1.13157, 1.13116, 1.11469, 1.12064, 1.11757, 1.11546, 1.11342, 1.11017, 1.11128, 1.10868, 1.1094, 1.10498, 1.10213, 1.10129, 1.09883, 1.09874, 1.09476, 1.09637, 1.09689, 1.09565, 1.09504, 1.09455, 1.09419, 1.09355, 1.09346, 1.09001, 1.0906, 1.08796, 1.08571, 1.08579, 1.08499, 1.08502, 1.0851, 1.08308, 1.08363, 1.08396, 1.08741, 1.08739, 1.09253, 1.09355, 1.06467, 1.06549, 1.06979, 1.06906, 1.07131, 1.0714, 1.26555, 1.24787, 1.25391, 1.28495, 1.33403, 1.10813, 1.10823, 1.1096, 1.1107, 1.11083, 1.37556, 1.28585, 1.268, 1.22326, 1.08389, 1.08133, 1.07243, 1.07183, 1.07205, 1.06741, 1.06686, 1.05945, 1.06657, 1.07638, 1.07422, 1.0735, 1.07373, 1.07338, 1.0703, 1.06951, 1.14225, 1.06589, 1.05773, 1.05859, 1.05732, 1.06003, 1.06054, 1.0575, 1.05327, 1.05083, 1.04546, 1.0442, 1.04251, 1.04119, 1.03997, 1.03989, 1.04041, 1.04069, 1.2153, 1.03204, 1.03294, 1.03361, 1.03064, 1.0298, 1.0248, 1.0245, 1.02373, 1.02564, 1.02605, 1.02804, 1.02871, 1.02717, 1.02641, 1.02556, 1.0258, 1.02159, 1.02191, 1.02058, 1.01936, 1.01567, 1.01431, 1.01476, 1.012, 1.0116, 1.01849, 1.0168, 1.02486, 1.02525, 1.02746, 1.02523, 1.02495, 0.99738, 0.998246, 0.997776, 0.999427, 0.999812, 0.999234, 0.997358, 0.996434, 0.998587, 0.999625, 1.00088, 0.994272, 0.994069, 1.37219, 0.99281, 0.99104, 0.991246, 0.9885, 0.986881, 0.987104, 0.985772, 0.984566, 0.984424, 0.983488, 0.983546, 0.983907, 0.982762, 0.983414, 0.983759, 0.98276, 0.982859, 0.981557, 0.981252, 0.957391, 0.958419, 0.989096, 0.980183, 0.980715, 0.982018, 0.983954, 0.98013, 0.972635, 0.972572, 0.969541, 0.969348, 0.968042, 0.97196, 0.971733, 0.97411, 0.974833, 0.975117, 0.974383, 0.972208, 0.971628, 0.972826, 0.973462, 0.973738, 1.23328, 1.28951, 0.961376, 0.961096, 1.14394, 1.03331, 0.970362, 1.15679, 0.950855, 0.952112, 0.953668, 0.964529, 0.962792, 0.963875, 0.966574, 0.971965, 0.9837, 1.28813, 0.998865, 1.00608, 0.990227, 0.993032, 0.994223, 0.993879, 0.993881, 0.994315, 0.992127, 0.984305, 1.004, 1.0151, 1.0149, 1.00694, 1.01327, 1.04265, 1.04399, 1.27423, 1.03921, 1.04989, 1.05019, 1.02518, 1.0547, 0.959037, 0.958012, 0.957107, 0.956035, 0.955896, 0.955322, 1.07909, 1.05271, 1.0503, 1.15393, 1.31696
1.13673, 1.13582, 1.36891, 1.37245, 1.12833, 1.12821, 1.12421, 1.12203, 1.11968, 1.11518, 1.11612, 1.11539, 1.1135, 1.16379, 1.25533, 1.10491, 1.10363, 1.09423, 1.09864, 1.09875, 1.09686, 1.09535, 1.09492, 1.09483, 1.09097, 1.09161, 1.09198, 1.09054, 1.08975, 1.08801, 1.0872, 1.0871, 1.08563, 1.08579, 1.08507, 1.08442, 1.08195, 1.0827, 1.08424, 1.08515, 1.08718, 1.08889, 1.22685, 1.09445, 1.06564, 1.06658, 1.07031, 1.07119, 1.07181, 1.07658, 1.26437, 1.20904, 1.53637, 1.10156, 1.2896, 1.21266, 1.63437, 1.26102, 1.11153, 1.18215, 1.26857, 1.20491, 1.21988, 1.21956, 1.08404, 1.08482, 1.08416, 1.08136, 1.08141, 1.0783, 1.06968, 1.07573, 1.07536, 1.07573, 1.075, 1.07361, 1.0736, 1.0737, 1.12196, 1.0599, 1.05748, 1.05693, 1.05698, 1.05772, 1.05662, 1.05709, 1.05638, 1.05224, 1.05166, 1.04532, 1.04486, 1.04493, 1.04126, 1.04104, 1.03918, 1.03988, 1.04006, 1.04045, 1.0286, 1.02908, 1.03139, 1.03184, 1.03035, 1.02325, 1.02388, 1.02283, 1.02449, 1.02412, 1.1582, 1.02945, 1.02969, 1.02982, 1.02861, 1.02707, 1.02621, 1.02218, 1.01985, 1.01828, 1.01817, 1.01707, 1.01465, 1.01558, 1.01665, 1.01651, 1.01663, 1.01974, 1.02194, 1.02284, 1.02637, 1.02375, 1.02416, 0.997122, 0.999055, 0.99915, 0.998073, 0.997733, 0.997812, 0.997576, 0.997486, 0.997771, 0.998249, 0.999066, 0.993419, 0.991582, 0.990388, 0.990552, 0.986245, 0.987875, 0.987799, 0.987188, 0.982088, 0.983475, 0.983227, 0.983569, 0.98389, 0.982997, 0.981561, 0.982697, 0.983723, 0.982991, 0.982448, 0.982108, 0.980166, 0.980124, 0.974372, 0.962998, 1.2363, 0.979266, 0.980545, 0.984684, 0.984606, 0.984849, 0.973102, 0.973135, 0.970254, 0.96793, 0.966689, 0.9705, 0.97073, 0.973788, 0.971955, 0.973582, 0.973983, 0.97413, 0.972143, 0.97113, 0.971333, 0.969621, 0.969993, 0.966919, 0.970176, 0.961392, 1.15071, 1.12723, 0.96143, 0.962071, 0.95606, 0.956626, 0.960352, 0.964517, 0.964747, 0.965338, 0.969484, 1.28569, 0.988976, 0.993807, 1.00918, 0.993698, 0.992324, 0.993286, 0.99463, 0.994234, 0.994238, 1.00412, 1.00958, 0.984248, 0.983803, 1.00965, 1.006, 1.199, 1.0114, 1.01005, 1.02422, 1.27222, 1.00884, 1.05219, 1.05071, 1.30674, 1.02199, 1.10674, 0.958122, 0.955607, 0.954812, 0.955045, 0.954367, 1.07799, 1.01907, 1.38157, 1.21223, 1.39111
1.13984, 1.13965, 1.44726, 1.3776, 1.13043, 1.12706, 1.12361, 1.12223, 1.3037, 1.39402, 1.11915, 1.32325, 1.11453, 1.11297, 1.425, 1.11227, 1.09311, 1.09775, 1.10026, 1.09936, 1.0987, 1.0951, 1.09409, 1.09429, 1.09275, 1.09243, 1.09249, 1.08928, 1.09058, 1.08979, 1.08835, 1.08846, 1.08789, 1.08756, 1.08552, 1.08562, 1.0856, 1.08655, 1.08727, 1.08723, 1.08605, 1.09316, 1.09381, 1.19516, 1.1051, 1.06758, 1.07177, 1.07204, 1.07689, 1.08123, 1.08898, 1.09249, 1.26724, 1.44945, 1.28893, 1.25048, 1.27161, 1.27565, 1.64206, 1.38728, 1.20239, 1.14008, 1.06325, 1.11864, 1.22309, 1.08486, 1.08409, 1.0805, 1.08203, 1.07819, 1.07492, 1.07462, 1.07478, 1.07616, 1.09864, 1.10925, 1.11208, 1.11291, 1.05741, 1.05577, 1.05636, 1.05414, 1.05299, 1.05611, 1.0552, 1.05323, 1.05259, 1.05265, 1.04923, 1.04488, 1.04499, 1.04286, 1.04207, 1.03995, 1.04051, 1.038, 1.03913, 1.03974, 1.03675, 1.03208, 1.03193, 1.03243, 1.02537, 1.02326, 1.02231, 1.02207, 1.02761, 1.03149, 1.03358, 1.03306, 1.03198, 1.03138, 1.14275, 1.28114, 1.0201, 1.02153, 1.01968, 1.01643, 1.0163, 1.01578, 1.01517, 1.01545, 1.0157, 1.0153, 1.01809, 1.01965, 1.0196, 1.02348, 1.02484, 1.02884, 1.02875, 1.02495, 0.998348, 0.998901, 0.997888, 0.997536, 0.997573, 0.995307, 0.997547, 0.996766, 0.997132, 0.998267, 0.991517, 0.992238, 0.989285, 0.988957, 0.986771, 0.986779, 0.986643, 0.984573, 0.984573, 0.982443, 0.982961, 0.983167, 0.984289, 0.984626, 0.980463, 0.980403, 0.982246, 0.981416, 0.981767, 0.981536, 0.980301, 0.980514, 1.22723, 0.991862, 1.22754, 1.05732, 0.981897, 0.983953, 0.984465, 1.37061, 0.998737, 0.975631, 0.973633, 0.97084, 0.96493, 0.96642, 0.969014, 0.969895, 0.972195, 0.974428, 0.974603, 0.975364, 0.971693, 0.97006, 0.969487, 0.968685, 0.969721, 0.966008, 0.965409, 1.27099, 0.954836, 1.09995, 0.960628, 0.957288, 0.956283, 0.955369, 0.961596, 1.17225, 0.966897, 1.33102, 0.985776, 1.31353, 1.36155, 1.19236, 1.03628, 0.999592, 0.991204, 0.992344, 1.00268, 1.20913, 1.01112, 1.01032, 1.01432, 0.983649, 0.984323, 1.01187, 1.03194, 1.00876, 1.00912, 1.0287, 1.02592, 1.06356, 1.03538, 1.06207, 1.24098, 0.959407, 0.959957, 1.01905, 0.952538, 0.95335, 0.954433, 1.09923, 1.32369, 1.01537, 1.00511, 0.987469, 1.25952, 1.42905
1.13952, 1.13936, 1.13894, 1.1365, 1.12872, 1.1256, 1.12458, 1.12443, 1.33785, 1.34009, 1.08537, 1.25902, 1.10913, 1.10958, 1.09345, 1.0944, 1.09475, 1.09909, 1.09985, 1.09937, 1.0994, 1.09655, 1.09687, 1.09611, 1.09717, 1.09796, 1.09836, 1.2165, 1.10139, 1.10445, 1.10439, 1.1035, 1.35372, 1.24631, 1.46154, 1.13361, 1.19779, 1.08874, 1.20258, 1.09194, 1.40969, 1.09756, 1.10203, 1.10246, 1.09811, 1.26514, 1.07813, 1.07824, 1.08083, 1.08556, 1.08986, 1.09095, 0.0044347, 1.05963, 1.06359, 1.06359, 1.06377, 1.0623, 1.06314, 1.06343, 1.06149, 1.06304, 1.06119, 1.0621, 1.06447, 1.09945, 1.28773, 1.08099, 1.06163, 1.0603, 1.06283, 1.07603, 1.07751, 1.10075, 1.31479, 1.26676, 1.1089, 1.05791, 1.04911, 1.05127, 1.05237, 1.05479, 1.05475, 1.05592, 1.05364, 1.05309, 1.05217, 1.05207, 1.05132, 1.04539, 1.04501, 1.03996, 1.04002, 1.03747, 1.03675, 1.0379, 1.04128, 1.04207, 1.04143, 1.03255, 1.03221, 1.02481, 1.02319, 1.02285, 1.02395, 1.24088, 1.03942, 1.03178, 1.03235, 1.03327, 1.03276, 1.26563, 1.0262, 1.02778, 1.02116, 1.01955, 1.01781, 1.01553, 1.01517, 1.01511, 1.01189, 1.01162, 1.01381, 1.01389, 1.02157, 1.0248, 1.02531, 1.02675, 1.02816, 1.0325, 1.03522, 1.03553, 0.999284, 0.998333, 0.991236, 0.992862, 0.993841, 0.994712, 0.994412, 0.997132, 0.99758, 0.997841, 0.992189, 0.990645, 0.988162, 0.987226, 0.987311, 0.986991, 0.986992, 0.987159, 0.986995, 0.988896, 0.988929, 0.987862, 0.984499, 0.984283, 0.983465, 0.982852, 0.982141, 0.982288, 0.981561, 0.982481, 0.980049, 0.977551, 0.976679, 0.977003, 0.977608, 0.980566, 0.981665, 0.982385, 1.72885, 0.971079, 0.970491, 0.972941, 1.37182, 0.970121, 0.965272, 0.966276, 0.970594, 0.971712, 0.971446, 0.972866, 0.974721, 0.974766, 0.969904, 0.968829, 0.967798, 0.967507, 0.966377, 0.963646, 0.962813, 0.957912, 0.952909, 0.955921, 0.956095, 0.956685, 0.957094, 0.959685, 0.960909, 0.967386, 0.967887, 1.17697, 1.17909, 1.17788, 1.18212, 1.01702, 1.37909, 1.00911, 0.990064, 1.01437, 1.01044, 1.1617, 1.01563, 1.02318, 1.01804, 0.983919, 1.01818, 1.02901, 1.01197, 1.01014, 1.00855, 1.00895, 1.02304, 1.27792, 0.996189, 0.964868, 0.956506, 0.960098, 0.959558, 0.960745, 0.951523, 0.952807, 0.953476, 1.18663, 1.19481, 1.00294, 0.99533, 0.932682, 0.929535, 0.92574
1.1405, 1.14047, 1.33083, 1.12905, 1.12686, 1.12525, 1.12466, 1.12595, 1.08362, 1.08518, 1.08394, 1.08311, 1.08628, 1.08802, 1.11453, 1.1161, 1.09953, 1.10037, 1.09937, 1.09953, 1.09666, 1.09559, 1.09754, 1.09592, 1.09642, 1.09544, 1.09786, 1.09965, 1.10113, 1.10289, 1.10318, 1.10434, 1.10497, 1.10998, 1.11304, 1.11542, 1.11991, 1.49968, 1.13371, 1.13518, 1.10999, 1.11087, 1.1068, 1.31835, 1.12591, 1.12657, 1.07503, 1.07498, 1.07618, 1.08129, 1.09045, 1.07158, 1.06522, 1.0644, 1.06217, 1.06339, 1.06409, 1.06109, 1.06299, 1.06277, 1.06225, 1.06091, 1.06127, 1.06361, 1.06446, 1.06286, 1.06104, 1.06061, 1.06075, 1.0623, 1.06174, 1.0596, 1.06266, 1.05686, 1.05725, 1.05391, 1.05498, 1.05301, 1.05182, 1.05031, 1.05148, 1.05254, 1.05369, 1.05562, 1.05575, 1.05755, 1.05986, 1.05947, 1.25813, 1.04473, 1.03962, 1.03923, 1.03917, 1.03925, 1.03804, 1.04403, 1.04327, 1.04101, 1.03941, 1.18793, 1.03189, 1.02469, 1.02434, 1.02385, 1.03511, 1.03273, 1.03228, 1.03025, 1.03284, 1.1205, 1.22689, 1.26596, 1.02256, 1.02895, 1.01534, 1.01876, 1.01831, 1.01614, 1.01122, 1.00668, 1.01023, 1.05554, 1.05488, 1.02355, 1.02422, 1.02459, 1.02397, 1.02618, 1.02805, 1.03116, 1.03022, 1.03019, 1.05023, 0.998254, 0.991576, 0.992406, 0.991023, 0.990879, 0.992243, 0.991137, 0.993114, 0.993975, 0.988977, 0.986857, 0.986707, 0.985755, 0.985745, 0.98674, 0.985403, 0.986226, 0.986517, 0.987454, 0.988624, 0.988092, 0.982121, 0.977957, 0.978546, 0.981178, 0.981547, 0.981458, 0.98171, 0.976718, 0.972177, 0.97346, 0.975116, 0.975291, 0.976605, 1.18123, 1.20894, 0.970569, 0.971499, 0.971061, 0.969913, 0.969994, 0.970263, 0.968086, 0.967352, 0.967495, 1.10605, 0.971618, 0.972518, 0.973105, 0.974368, 0.970194, 0.968434, 0.968802, 0.966694, 0.965157, 0.963588, 0.960892, 0.96031, 0.957336, 0.958165, 0.956015, 0.956249, 0.958592, 0.959309, 0.959742, 1.34382, 0.966399, 1.18817, 1.17745, 0.987998, 0.979959, 1.01954, 1.01846, 1.19922, 1.01599, 1.33059, 1.02233, 1.02314, 1.16215, 1.23245, 1.23797, 1.02287, 1.17843, 1.02214, 1.18164, 1.06153, 1.25645, 1.01028, 1.00998, 1.05723, 0.970521, 0.968739, 1.11603, 0.956925, 0.957996, 0.957779, 0.959239, 0.955655, 0.952654, 0.953158, 1.23967, 1.2442, 0.938797, 0.933354, 0.932523, 0.930747, 0.92514
1.13761, 1.15717, 1.13411, 1.12646, 1.1257, 1.12577, 1.1242, 1.12699, 1.09128, 1.08971, 1.40997, 1.12263, 1.11937, 1.11205, 1.10845, 1.10167, 1.10094, 1.10087, 1.09853, 1.09822, 1.0965, 1.0953, 1.0953, 1.09412, 1.09425, 1.09505, 1.09417, 1.09467, 1.09855, 1.10266, 1.10492, 1.10825, 1.10809, 1.10919, 1.11525, 1.11661, 1.12363, 1.12426, 1.12447, 1.13057, 1.81719, 1.11185, 1.11049, 1.11598, 1.08916, 1.08041, 1.07747, 1.07501, 1.07579, 1.07861, 1.0803, 1.07125, 1.06763, 1.06598, 1.06408, 1.06452, 1.0647, 1.0656, 1.06551, 1.06304, 1.06303, 1.06134, 1.06171, 1.06063, 1.06085, 1.06026, 1.05804, 1.05786, 1.05862, 1.06094, 1.06038, 1.0597, 1.05748, 1.05749, 1.05544, 1.05283, 1.05457, 1.05562, 1.05277, 1.05119, 1.195, 1.18557, 1.05415, 1.05513, 1.06313, 1.06392, 1.06485, 1.06419, 1.06847, 1.31834, 1.09944, 1.03991, 1.04745, 1.04737, 1.04932, 1.28261, 1.04564, 1.04398, 1.03673, 1.03612, 1.02698, 1.02703, 1.03374, 1.03539, 1.03467, 1.0332, 1.03295, 1.03181, 1.0251, 1.02351, 1.02524, 1.02243, 1.02374, 1.0057, 1.01551, 1.01576, 1.01581, 1.0123, 1.01134, 1.00792, 1.00763, 1.00559, 1.00617, 1.02598, 1.02502, 1.0236, 1.02352, 1.02309, 1.02326, 1.02419, 1.02903, 1.00587, 0.99306, 0.99222, 0.991242, 0.989552, 0.990173, 0.987603, 0.990685, 0.988588, 0.991738, 0.987717, 0.989893, 0.985216, 0.984193, 0.984197, 0.981774, 0.981659, 0.984076, 1.12493, 0.981088, 0.982884, 0.985209, 0.981, 0.98005, 0.978694, 0.978247, 0.977485, 0.977153, 0.976825, 1.21254, 0.974827, 0.971959, 0.973453, 0.972835, 0.974073, 0.976354, 0.973091, 0.973853, 0.970721, 0.970994, 0.970075, 0.96958, 0.969747, 0.968865, 0.969561, 0.966676, 0.966971, 0.967196, 0.968015, 0.970329, 0.972054, 0.972808, 0.967272, 0.967295, 0.967426, 0.964091, 0.963898, 0.961172, 0.96098, 0.95963, 0.95801, 0.958013, 0.961223, 0.961023, 0.962723, 0.961344, 1.12536, 0.964975, 1.18387, 1.18177, 1.00776, 0.976835, 0.987983, 1.1952, 1.1435, 1.41006, 1.15048, 1.21827, 1.22107, 1.02609, 1.15082, 1.14283, 1.05556, 1.44818, 0.957344, 0.956864, 1.05505, 0.967395, 0.967842, 1.07759, 1.06356, 1.05714, 1.20245, 1.18556, 1.19449, 0.954103, 0.957149, 1.20979, 0.952674, 0.954014, 0.955747, 0.945935, 0.933534, 0.935826, 0.935737, 0.934229, 0.934593, 0.93133, 0.931771
1.1359, 1.38165, 1.12844, 1.12617, 1.12576, 1.1263, 1.39814, 1.13072, 1.09139, 1.35562, 1.12005, 1.33791, 1.38285, 1.54678, 1.10619, 1.10459, 1.102, 1.10145, 1.10058, 1.09935, 1.0987, 1.09762, 1.09574, 1.09528, 1.09744, 1.0973, 1.09899, 1.10095, 1.09976, 1.50613, 1.10916, 1.10883, 1.10851, 1.11978, 1.20499, 1.12522, 1.1246, 1.12483, 1.12198, 1.1219, 1.43536, 1.17347, 1.53442, 1.09434, 1.08874, 1.0834, 1.07907, 1.07481, 1.07639, 1.07709, 1.0768, 1.07618, 1.0756, 1.0687, 1.06779, 1.06636, 1.06679, 1.06557, 1.06507, 1.06449, 1.06343, 1.06262, 1.06182, 1.06216, 1.0597, 1.05975, 1.05689, 1.05771, 1.05809, 1.06078, 1.06076, 1.06099, 1.05846, 1.0587, 1.05617, 1.0579, 1.12185, 1.10466, 1.23609, 1.12739, 1.10912, 1.20134, 1.0672, 1.06444, 1.06406, 1.06581, 1.0673, 1.0699, 1.06995, 1.09159, 1.05712, 1.05129, 1.05128, 1.05063, 1.0494, 1.04912, 1.44346, 1.0402, 1.03745, 1.03599, 1.03212, 1.03602, 1.03544, 1.03508, 1.03535, 1.0357, 1.02684, 1.02436, 1.0242, 1.02267, 1.02192, 1.02169, 1.02075, 1.01343, 1.01783, 1.01702, 1.0146, 1.01153, 1.01094, 1.00859, 1.00821, 1.00575, 1.00725, 1.00571, 1.00596, 1.00395, 0.999227, 0.997492, 0.996346, 0.997387, 0.98982, 0.98905, 0.993051, 0.99243, 0.99149, 0.991279, 0.987618, 0.986997, 0.986039, 0.988113, 0.988987, 0.990097, 0.991037, 0.98662, 0.984696, 0.981768, 0.980597, 0.980803, 0.98021, 0.980062, 0.981299, 0.981571, 0.979183, 0.980015, 0.979965, 0.977643, 0.976817, 0.977134, 0.976622, 0.976042, 0.975107, 0.975008, 0.975796, 0.975133, 0.975815, 0.975452, 0.973983, 0.972606, 0.972774, 0.972419, 0.9709, 0.969915, 0.969628, 0.96909, 0.967905, 0.967492, 0.966712, 0.966382, 0.967546, 0.968321, 0.972534, 0.972171, 0.97002, 0.968953, 0.968486, 0.967431, 0.966421, 0.963646, 0.963772, 0.963233, 0.962406, 0.957554, 1.15693, 0.962224, 0.963322, 0.96233, 0.963094, 0.964319, 0.962899, 0.965781, 0.9675, 1.13704, 1.13977, 1.16037, 1.06583, 1.16523, 1.38886, 1.13704, 1.14728, 1.04301, 1.03526, 1.2404, 0.955142, 0.956758, 0.958163, 0.958099, 0.958237, 0.959367, 1.06844, 1.08237, 0.959557, 1.07383, 1.05668, 0.96145, 1.12215, 0.951604, 0.953216, 0.953038, 0.951454, 0.95193, 0.954119, 0.943975, 0.945646, 0.934289, 0.934785, 0.935985, 0.934352, 0.935056, 1.25966, 1.42182
1.13609, 1.13097, 1.12861, 1.12626, 1.12522, 1.12307, 1.1222, 1.41768, 1.08884, 1.10106, 1.55905, 1.11295, 1.1056, 1.10646, 1.10642, 1.10436, 1.10383, 1.10359, 1.10119, 1.10075, 1.10011, 1.10189, 1.10028, 1.09862, 1.09881, 1.42206, 1.1018, 1.11684, 1.10624, 1.12374, 1.11068, 1.11147, 1.10028, 1.10136, 1.10209, 1.11607, 1.39444, 1.29494, 1.12197, 1.12212, 1.40257, 1.18743, 1.09296, 1.0921, 1.08787, 1.07947, 1.0756, 1.07527, 1.07638, 1.07728, 1.07813, 1.07594, 1.07759, 1.06832, 1.06807, 1.06752, 1.06639, 1.06666, 1.06507, 1.06514, 1.0641, 1.06046, 1.06037, 1.06007, 1.06037, 1.0597, 1.05977, 1.05771, 1.05702, 1.06163, 1.06125, 1.06236, 1.06153, 1.05974, 1.07382, 1.06923, 1.06835, 1.06837, 1.06849, 1.06826, 1.06865, 1.06902, 1.06931, 1.07089, 1.07095, 1.0692, 1.07044, 1.07083, 1.07059, 1.35839, 1.08444, 1.37432, 1.05129, 1.05085, 1.05021, 1.04637, 1.03916, 1.03925, 1.03753, 1.03664, 1.03627, 1.03526, 1.03553, 1.03579, 1.03614, 1.02549, 1.02554, 1.02387, 1.0239, 1.02199, 1.02199, 1.02221, 1.12, 1.01831, 1.01827, 1.01481, 1.00814, 1.01021, 1.00828, 1.00719, 1.00868, 1.00684, 1.0063, 1.00643, 1.00556, 1.00474, 1.00441, 0.998243, 0.989022, 0.985537, 0.989537, 0.99074, 0.991742, 0.991233, 0.991037, 0.998837, 1.0144, 0.986132, 0.987255, 0.987649, 0.989178, 0.988858, 0.990107, 0.989008, 0.98922, 0.980021, 0.978718, 0.97874, 0.979618, 0.980438, 0.980699, 0.981918, 0.979506, 0.979511, 0.97849, 0.977974, 0.978639, 0.976864, 0.97504, 0.974449, 0.972651, 0.973408, 0.974248, 0.974968, 0.974281, 0.974208, 0.973596, 0.970682, 0.970576, 1.30541, 1.30416, 1.2536, 0.966246, 0.966779, 1.33311, 0.9651, 0.964439, 0.964369, 0.967048, 0.971388, 0.97242, 0.969746, 0.969293, 0.970056, 0.968925, 0.969764, 0.967734, 0.965323, 0.966844, 0.966172, 0.969817, 0.966698, 1.39005, 0.966192, 0.964033, 0.962206, 0.963055, 0.96131, 0.962969, 0.962988, 0.96002, 0.96432, 0.966739, 0.966716, 0.967449, 1.22203, 1.13348, 0.967925, 0.951339, 0.951227, 0.952657, 0.953028, 0.955871, 0.957074, 0.958763, 0.958672, 0.957781, 0.957934, 0.959254, 0.959599, 0.95996, 0.959924, 0.959348, 0.959758, 0.955955, 0.952171, 0.951667, 0.952094, 0.951241, 0.980069, 1.14691, 1.22014, 1.17212, 0.942413, 0.942013, 0.942788, 0.941819, 0.940905, 0.940018, 0.992662
1.13584, 1.12918, 1.12874, 1.12527, 1.12526, 1.12474, 1.12304, 1.12245, 1.41629, 1.40943, 1.42426, 1.11002, 1.10927, 1.10719, 1.10652, 1.10543, 1.10454, 1.10414, 1.10403, 1.10408, 1.1031, 1.10304, 1.10328, 1.10431, 1.1049, 1.10704, 1.10833, 1.11423, 1.11688, 1.34008, 1.12589, 1.12309, 1.24259, 1.11491, 1.11549, 1.11378, 1.11439, 1.11872, 1.11171, 1.11324, 1.35938, 1.37773, 1.16124, 1.08618, 1.07758, 1.07562, 1.07423, 1.07447, 1.07495, 1.07507, 1.07643, 1.07559, 1.07232, 1.06975, 1.06925, 1.06777, 1.067, 1.06566, 1.064, 1.063, 1.06327, 1.06332, 1.06219, 1.06175, 1.06069, 1.06027, 1.06069, 1.06654, 1.06784, 1.06836, 1.06919, 1.06723, 1.06679, 1.0699, 1.07109, 1.06995, 1.06859, 1.06809, 1.0673, 1.06668, 1.06686, 1.2428, 1.07107, 1.07042, 1.07074, 1.17549, 1.18974, 1.19029, 1.04976, 1.04864, 1.36706, 1.26626, 1.26746, 1.28898, 1.04349, 1.04179, 1.03966, 1.04, 1.03891, 1.03877, 1.0374, 1.03599, 1.03638, 1.02502, 1.02489, 1.02567, 1.02622, 1.02465, 1.02492, 1.02876, 1.09994, 1.11722, 1.07545, 1.02209, 1.01885, 1.01928, 1.015, 1.01129, 1.00845, 1.01029, 1.00783, 1.00784, 1.0074, 1.00744, 1.0078, 1.00494, 1.00379, 1.00189, 0.988803, 0.987354, 0.989782, 0.993322, 1.01718, 0.984188, 1.00429, 0.995141, 0.970843, 0.988143, 0.994192, 0.990727, 0.989506, 0.988489, 0.971727, 0.988517, 0.988209, 0.988016, 0.976674, 0.976853, 0.979107, 0.980252, 0.980646, 0.982156, 0.979031, 0.977363, 0.977085, 0.978092, 0.977082, 0.972795, 0.971322, 0.972399, 0.972017, 0.972413, 0.972882, 0.973414, 0.974498, 0.973154, 1.11256, 1.30444, 1.33025, 1.31909, 1.32063, 1.31615, 1.25746, 0.957863, 0.959519, 0.960695, 0.963148, 0.964885, 0.965427, 1.27367, 1.27418, 0.973766, 0.971584, 0.969774, 0.969852, 0.969621, 0.969384, 0.969599, 0.971462, 0.967468, 0.970532, 0.970981, 0.972254, 0.972591, 0.970789, 1.17706, 0.960626, 0.959615, 0.96117, 0.957433, 0.95976, 0.960103, 0.965134, 0.966762, 1.21651, 0.962771, 0.96205, 0.952904, 0.953023, 0.953063, 0.953301, 0.95338, 0.954231, 0.955452, 0.955957, 0.956269, 0.955191, 0.957351, 0.958487, 0.958116, 0.956181, 0.957363, 0.957756, 0.958444, 0.95445, 0.955929, 0.952436, 0.948822, 0.950767, 0.947134, 0.948232, 0.949154, 0.945197, 0.944259, 0.943356, 0.941639, 0.942155, 0.94261, 0.942276, 0.939666
1.12911, 1.12855, 1.12787, 1.12539, 1.12527, 1.12487, 1.12326, 1.12085, 1.11915, 1.41331, 1.11525, 1.11021, 1.11133, 1.10912, 1.10798, 1.1061, 1.10549, 1.10466, 1.10307, 1.10341, 1.10173, 1.10198, 1.10315, 1.10361, 1.10645, 1.10909, 1.11168, 1.11806, 1.11684, 1.12077, 1.12402, 1.12537, 1.37051, 1.11412, 1.11463, 1.11654, 1.11546, 1.33016, 1.11284, 1.35207, 1.22983, 1.22956, 1.21076, 1.26481, 1.07628, 1.07544, 1.07043, 1.06912, 1.07135, 1.07464, 1.0752, 1.07442, 1.0722, 1.07189, 1.07099, 1.06883, 1.06629, 1.06682, 1.06103, 1.06694, 1.06497, 1.06312, 1.06277, 1.06167, 1.06156, 1.06584, 1.06658, 1.06727, 1.068, 1.07005, 1.07025, 1.06583, 1.06549, 1.06818, 1.071, 1.17812, 1.17967, 1.22801, 1.13056, 1.13341, 1.15031, 1.15552, 1.15581, 1.16055, 1.17494, 1.17398, 1.16777, 1.04594, 1.04629, 1.04511, 1.04011, 1.04009, 1.03523, 1.10307, 1.04114, 1.0416, 1.03923, 1.03939, 1.0396, 1.0398, 1.02528, 1.02902, 1.02795, 1.02604, 1.02638, 1.02653, 1.02829, 1.02956, 1.03407, 1.05765, 1.03683, 1.0614, 1.34355, 1.3893, 1.01829, 1.01725, 1.01452, 1.01451, 1.01138, 1.01108, 1.00062, 1.00112, 0.996617, 1.00749, 1.00839, 1.13203, 0.986173, 1.02477, 0.990967, 0.990587, 1.00059, 1.03384, 0.955944, 0.954442, 0.995061, 0.994928, 0.961841, 0.952511, 0.984391, 1.12829, 1.12905, 0.976527, 0.970857, 1.13858, 0.988104, 1.21335, 0.978156, 0.979774, 1.06773, 0.98417, 0.985328, 0.981472, 0.981895, 0.97662, 0.977271, 0.971724, 0.971854, 0.969714, 0.970709, 0.972386, 0.972582, 0.971237, 0.968901, 1.02302, 1.43211, 1.3002, 1.26745, 0.963403, 1.27378, 0.956317, 0.957677, 0.955789, 0.957025, 0.958699, 0.959743, 0.961169, 0.961897, 0.962755, 1.24019, 1.27554, 1.07807, 0.971035, 0.97055, 0.96889, 0.969365, 0.970219, 0.969559, 0.971027, 0.974699, 0.970682, 0.969044, 1.10414, 0.969671, 0.970731, 1.11254, 1.11289, 1.06693, 0.959437, 0.961309, 0.959677, 0.959634, 0.959426, 0.962061, 0.961946, 0.961416, 0.957918, 0.957428, 0.957775, 0.955951, 0.955838, 0.956463, 0.954878, 0.95368, 0.953559, 0.956012, 0.955369, 0.956087, 0.955722, 0.957264, 0.957698, 0.956002, 0.956841, 0.956785, 0.957519, 0.955951, 0.955539, 0.95435, 0.954467, 0.949854, 0.949697, 0.949552, 0.949463, 0.949248, 0.946159, 0.946232, 0.945424, 0.941051, 0.940544, 0.941095, 0.939937
1.12965, 1.12978, 1.12612, 1.12604, 1.12558, 1.12503, 1.12123, 1.11945, 1.11779, 1.11785, 1.11269, 1.11293, 1.11132, 1.10959, 1.108, 1.10731, 1.10728, 1.10447, 1.10434, 1.10368, 1.10259, 1.10226, 1.10351, 1.10453, 1.31553, 1.1139, 1.1136, 1.56954, 1.36058, 1.12284, 1.12549, 1.36053, 1.36952, 1.26719, 1.6208, 1.33384, 1.33978, 1.33781, 1.08021, 1.07772, 1.0788, 1.08523, 1.08091, 1.07431, 1.07046, 1.06732, 1.06669, 1.06832, 1.07454, 1.07563, 1.07668, 1.07599, 1.07319, 1.07286, 1.07053, 1.0694, 1.0678, 1.06664, 1.06625, 1.06372, 1.06428, 1.06251, 1.06055, 1.06169, 1.06305, 1.06465, 1.06507, 1.06416, 1.06593, 1.06574, 1.06881, 1.06978, 1.06361, 1.0622, 1.06201, 1.05724, 1.05608, 1.05607, 1.28867, 1.14389, 1.15132, 1.28934, 1.2862, 1.12728, 1.05696, 1.05463, 1.04131, 1.04142, 1.04147, 1.04077, 1.03938, 1.03711, 1.03562, 1.03281, 1.03874, 1.03747, 1.03809, 1.03732, 1.04259, 1.20785, 1.02673, 1.02652, 1.02537, 1.02513, 1.02738, 1.02782, 1.07831, 1.04158, 1.04262, 1.04253, 1.06057, 1.08914, 1.04631, 1.02916, 1.02843, 1.06822, 1.02044, 1.0185, 1.01656, 1.00196, 1.00452, 1.00287, 0.995943, 1.03959, 0.986695, 0.98664, 0.986312, 1.05005, 1.04262, 0.973455, 0.970768, 1.02717, 0.959694, 0.960556, 0.993184, 1.01931, 0.959687, 0.950872, 0.951301, 1.12937, 0.990848, 0.965624, 0.967757, 1.0529, 0.976747, 1.03801, 1.05971, 0.969002, 1.06501, 0.982146, 0.982764, 0.979925, 0.979246, 0.973731, 0.973349, 0.972648, 0.970161, 0.967891, 0.969761, 0.973401, 0.974005, 0.967051, 0.966249, 0.961191, 1.30697, 0.961696, 0.960856, 0.959408, 0.958712, 0.957583, 0.957389, 0.956339, 0.957208, 1.06374, 1.12153, 1.12327, 1.12531, 1.12844, 1.12726, 1.20537, 1.14396, 1.14275, 1.14081, 0.968452, 1.14038, 1.31416, 1.1404, 0.976787, 0.980264, 0.982354, 0.981117, 0.98119, 0.978102, 0.980822, 0.976739, 1.1027, 1.10478, 0.960735, 0.959363, 0.955573, 0.956601, 0.955883, 0.957011, 0.957157, 0.958441, 0.956662, 0.956429, 0.955476, 0.954394, 0.95587, 0.955265, 0.956371, 0.956832, 0.957837, 0.956797, 0.957211, 0.95769, 0.956979, 0.95751, 0.957541, 0.956256, 0.957491, 0.95585, 0.954719, 0.954449, 0.953665, 0.953651, 0.955504, 0.953114, 0.948753, 0.949997, 0.949656, 0.947624, 0.948751, 0.948067, 0.948046, 0.946639, 0.946829, 0.939926, 0.942668
1.13167, 1.13018, 1.12809, 1.12638, 1.12575, 1.12451, 1.12299, 1.11863, 1.1189, 1.11651, 1.11491, 1.11459, 1.11249, 1.10865, 1.10809, 1.10681, 1.10545, 1.10449, 1.10522, 1.10297, 1.10346, 1.103, 1.10308, 1.36086, 1.10908, 1.11443, 1.31692, 1.12511, 1.12536, 1.12542, 1.1191, 1.14671, 1.07703, 1.07992, 1.08065, 1.30995, 1.08611, 1.08496, 1.07498, 1.07367, 1.07627, 1.07278, 1.07284, 1.30014, 1.0647, 1.065, 1.07106, 1.07276, 1.07316, 1.07484, 1.07778, 1.0769, 1.07234, 1.07303, 1.06985, 1.06843, 1.0675, 1.06769, 1.06604, 1.06523, 1.06381, 1.06353, 1.06238, 1.06162, 1.06263, 1.06339, 1.064, 1.06507, 1.0648, 1.06549, 1.06691, 1.06985, 1.06835, 1.06133, 1.06053, 1.05702, 1.05632, 1.05477, 1.05374, 1.05011, 1.04929, 1.04693, 1.04852, 1.12857, 1.18037, 1.05069, 1.3333, 1.04132, 1.03916, 1.03883, 1.03868, 1.03746, 1.03553, 1.03348, 1.03926, 1.03852, 1.03601, 1.03391, 1.20505, 1.02912, 1.02806, 1.02675, 1.02554, 1.0269, 1.02736, 1.03516, 1.14685, 1.04199, 1.0423, 1.04294, 1.03965, 1.04311, 1.07666, 1.01786, 1.03791, 1.02205, 1.0128, 1.01474, 1.00619, 0.99145, 0.992304, 1.01299, 1.03898, 1.03864, 1.0324, 0.991517, 0.98613, 0.982286, 0.982928, 0.972543, 0.970229, 0.980525, 1.00095, 0.977696, 0.998518, 0.960463, 0.959519, 1.01278, 0.953193, 0.95524, 0.959889, 0.959203, 0.968966, 0.969238, 1.0383, 1.03835, 0.957633, 0.983702, 1.10739, 0.981906, 0.982195, 0.978429, 0.975717, 0.967933, 0.969001, 0.970353, 0.968803, 0.968231, 0.971011, 0.973654, 0.974397, 0.973232, 0.959992, 0.961411, 0.956257, 0.959604, 0.961036, 0.960208, 0.959266, 0.959325, 0.959602, 1.11062, 1.0352, 1.03586, 1.03063, 1.12674, 1.27054, 1.12534, 1.12639, 1.20034, 1.01306, 1.14724, 1.14012, 1.31977, 1.13787, 1.13974, 1.14256, 0.981193, 0.98284, 0.983916, 0.981675, 0.981802, 0.979748, 0.977342, 0.977055, 0.976805, 1.07839, 1.0362, 1.20122, 0.954143, 0.955589, 0.953925, 0.955702, 0.956195, 0.95637, 0.957006, 0.956197, 0.953982, 0.954385, 0.954587, 0.954904, 0.953931, 0.95757, 0.958376, 0.962367, 0.957891, 0.958745, 0.959893, 0.957932, 0.95715, 0.957646, 0.957958, 0.953625, 0.95242, 0.952477, 0.954069, 0.954924, 0.954555, 0.953673, 0.953858, 0.952059, 0.950559, 0.947712, 0.947711, 0.949141, 0.946886, 0.947251, 0.947371, 0.946896, 0.942568
1.13183, 1.13065, 1.12861, 1.12676, 1.12597, 1.12487, 1.12236, 1.12111, 1.12069, 1.1191, 1.11546, 1.11488, 1.11025, 1.11092, 1.10827, 1.10804, 1.10626, 1.10509, 1.10425, 1.10401, 1.10415, 1.10511, 1.10524, 1.31671, 1.11178, 1.46536, 1.12253, 1.1245, 1.12553, 1.37409, 1.3757, 1.27294, 1.08012, 1.0802, 1.08025, 1.08347, 1.24991, 1.07955, 1.07268, 1.07353, 1.0755, 1.07399, 1.05783, 1.06138, 1.05706, 1.06491, 1.06961, 1.45463, 1.07433, 1.07102, 1.07086, 1.07052, 1.07285, 1.06829, 1.06675, 1.06674, 1.06984, 1.06338, 1.06314, 1.06338, 1.06307, 1.06395, 1.0637, 1.06307, 1.06372, 1.06421, 1.06417, 1.06559, 1.06564, 1.06737, 1.06809, 1.07014, 1.06171, 1.05855, 1.05758, 1.05693, 1.05314, 1.05288, 1.0494, 1.04978, 1.04668, 1.04586, 1.17763, 1.03959, 1.17726, 1.04972, 1.19475, 1.20605, 1.04142, 1.04086, 1.04076, 1.03826, 1.03537, 1.03579, 1.03945, 1.03908, 1.03572, 1.03286, 1.03226, 1.02784, 1.02863, 1.02436, 1.02538, 1.02669, 1.02968, 1.03964, 1.0572, 1.0422, 1.04294, 1.07561, 1.07466, 1.01882, 1.02315, 1.01642, 1.01346, 1.01473, 0.998278, 1.02332, 1.02163, 0.993587, 1.04685, 1.01321, 1.0316, 1.0354, 1.02956, 1.05687, 1.01258, 0.998908, 1.00504, 1.00606, 1.01549, 1.08097, 1.00936, 0.97927, 1.0042, 0.982399, 1.00807, 1.00944, 0.971256, 0.954721, 0.958263, 0.96747, 0.968377, 0.969258, 1.00469, 0.956814, 0.957061, 0.958138, 0.9595, 1.18113, 1.14746, 1.13447, 1.05705, 0.968131, 0.968692, 0.969623, 0.968814, 1.06916, 0.970693, 0.972274, 0.974044, 1.07035, 1.36133, 1.08276, 1.09558, 1.09309, 0.96056, 1.10416, 0.961118, 0.962519, 1.10841, 1.22163, 1.10267, 1.10442, 1.10486, 1.11125, 1.11332, 1.29815, 1.0116, 1.26411, 1.14777, 1.17439, 1.31268, 1.13941, 1.05333, 1.13214, 1.13582, 1.14918, 0.984161, 0.983232, 0.983863, 0.978635, 0.978058, 0.976825, 0.976696, 0.971272, 0.970869, 0.966838, 0.966479, 1.21907, 1.22297, 0.95364, 0.954932, 0.955453, 0.95521, 0.957076, 0.956211, 0.953753, 0.955832, 0.953739, 0.955439, 0.956425, 0.956978, 0.959502, 0.961057, 1.21016, 1.28166, 0.959634, 0.958974, 0.957849, 0.957575, 0.957507, 0.956794, 0.957129, 0.955, 0.957405, 0.956923, 0.956082, 0.956402, 0.952874, 0.953275, 0.952556, 0.95257, 0.952236, 0.950807, 0.946786, 0.94778, 0.947885, 0.948182, 0.950669
