1.82603006189323,1.82528503199989,1.77830039039354,1.773333524438,1.77465165424928,1.77570233743218,1.77485223922056,1.89908119810087,0,1.77689629559457,1.77924600525815,1.77827173539764,1.77916004027046,1.78001969014738,1.78176764489712,1.8414655530166,1.90888120669776,1.83697627032601,0,1.90681804699315,2.01233529355249,2.00986141224001,2.01228753522599,2.01554465309299,2.00645146772823,1.82717626172912,1.89803051491796,1.82368990389494,0,1.89804006658326,1.93349584817358,1.93343853818179,1.93393522477734,1.89121062589439,2.00329941817952,1.93168103176675,1.81107215403481,1.8868741698486,0,1.88671179153851,2.00473216797439,1.81097663738182,1.80808248279619,1.88213654386023,1.88097124069374,1.88153478894639,1.8814010656322,2.02062613903212,0,2.02056882904032,1.87765681283495,1.8792137342787,1.87888897765853,1.92820422559787,1.92721085240676,1.88200282054605,1.92660909749292,1.88307260705955,0,1.88719892646877,1.88807767967628,1.88730399478706,1.81745266645462,1.92432624948643,1.92334242796062,1.82454955377186,1.90187983603351,1.99962202703936,0,1.9235621162625,1.98331733437377,1.89672193677198,1.96631537014134,1.98180817125651,1.97639237703191,1.96700309004288,1.97631596370952,1.89156403751046,0,1.9646247253834,1.96476800036289,1.89023635603388,1.8900548743932,1.96629626681075,1.96366000718819,1.97370835908286,1.97449159563739,1.9765452036767,0,1.9624947040217,1.96983038297142,1.96425221043673,1.97993604485788,1.96278125398067,1.96131029752461,1.971158064448,1.96670698841861,1.88994980607491,0,1.9797068048907,1.97388028905824,1.97309705250372,1.88740906310535,1.88888001956141,1.98003156151088,1.9797068048907,1.97463487061687,1.97286781253654,0,1.88800126635389,1.97306839750782,1.9722182992962,1.88756188975013,1.8878675430397,1.97052765453825,1.88736130477885,1.98113955468557,1.96692667672049,0,1.98800720203564,1.966783401741,1.96371731717998,1.88519307675595,1.95999216771333,1.96825435819706,1.88387494694467,1.97345046411978,1.88203147554194,0,1.8824517488151,1.97634461870542,1.97715651025584,1.9625233590176,1.9668120567369,1.97055630953415,1.97641148036251,1.96662102343092,1.95693563481761,0,1.95284752206959,1.95375493027301,1.95314362369386,1.95125239396464,1.87661568131734,1.95336331199574,1.9538026885995,1.87513517319598,1.87446655662504,0,1.90963578825639,1.79859767915416,1.9938241662028,1.84307023278685,1.84173299964497,1.79143393017983,1.79217896007316,1.91450713755894,1.78972418209129,0,1.78898870386325,1.9073147335887,1.78762281572548,1.78710702579933,1.78553100102497,1.9862401439553,1.78476686780104,1.785244451066,1.83375735912021,0,1.78284698307592,1.78493879777643,1.90192759436,1.90045663790394,1.78427973287079,1.78475731613574,1.78553100102497,1.78674406251796,1.78619961759591,0,1.78644796089369,1.78656258087728,1.78558831101677,1.78778519403556,1.78615185926942,1.78825322563522,1.78778519403556,1.89505994700994,1.78931346048342,0,1.78711657746463,1.78805264066394,1.79143393017983,1.79090858858838
1.77916004027046,1.77897855862978,1.89357943888857,1.77597933572586,1.77785146212448,1.97612493040354,1.87997786750263,1.77562592410979,0,1.77564502744039,1.77818577040995,1.77933197024585,1.78084113336311,1.780965305012,1.780869788359,1.91369524600851,1.91367614267791,1.91235801286664,0,1.93710637765665,1.93642820942041,2.01457038323248,1.90448744066017,1.83252519429662,1.90206131767419,1.90096287616479,1.90216638599248,1.82496982704502,0,1.82444448545357,1.82263922071204,2.00857193742463,1.93340033152059,1.93408805142213,1.8900262193973,1.8878866463703,1.8879057497009,1.88777202638671,0,1.81396630862044,2.00563002451251,2.00917369233848,1.81154018563447,1.80924778596268,1.80876065103242,1.88180223557476,1.88017845247391,1.88056051908588,0,1.88013069414742,1.88039814077579,1.80504505323107,1.88269054044758,1.88369346530399,1.87975817920075,1.8814488239587,1.81136825565908,1.8847059418257,0,1.88455311518091,1.8857757283392,1.88851705628004,1.89366540387627,1.92565393096301,1.92471786776369,2.01036765050087,1.92399194120096,1.92542469099583,0,1.92344749627891,1.99407250950058,1.98601090398812,1.96706040003468,1.97423370067431,1.97982142487429,1.8933310955908,1.96485396535058,1.89165000249815,0,1.89064707764175,1.96877969978852,1.89137300420448,1.89064707764175,1.88976832443423,1.9689707330945,1.96469158704049,1.96294363229076,1.89062797431115,0,1.97305884584252,1.97717561358644,1.96702219337348,1.97030796623637,1.98073838474301,1.98394774428351,1.88962504945474,1.97197950766372,1.97982142487429,0,1.97823584843464,1.89024590769918,1.89067573263764,1.890112184385,1.88978742776483,1.89013128771559,1.88988294441782,1.88998801273611,1.97692727028866,0,1.88834512630466,1.88888957122671,1.88991159941371,1.97897132666267,1.96733739832835,1.95974382441555,1.96975396964903,1.88766695806842,1.88732309811765,0,1.98993663842606,1.9668025050716,1.97469218060867,1.95973427275025,1.97306839750782,1.96947697135535,1.97009782959979,1.97372746241346,1.98256275281514,0,1.98229530618677,1.98387133096112,1.96723233001006,1.96577092521929,1.88079931071836,1.88064648407357,1.96799646323399,1.96695533171639,1.96849314982954,0,1.87776188115324,1.8793092509317,1.8770646095864,1.87678761129273,1.87685447294982,1.95334420866514,1.95088943068327,1.95221711215985,1.9506315357202,0,1.80073725218117,1.79840664584818,1.79558890458494,1.84438836259813,1.84317530110514,1.90763949020887,1.79188285844889,1.99661325247014,1.91297887111108,0,1.91008471652545,2.0003001952756,1.78773743570907,1.78779474570086,1.78505341776002,1.78423197454429,1.78262729477404,1.78531131272309,1.83143630445253,0,1.88891822622261,1.78453762783387,1.78299025805541,1.9019371460253,1.78480507446224,1.87702640292521,1.78400273457711,1.78500565943352,1.98578166402094,0,1.83412032240158,1.78754640240309,1.78674406251796,1.78513938274771,1.98339374769616,1.97925787662165,1.78898870386325,1.97628730871362,1.89318782061131,0,1.88771471639492,1.79082262360068,1.78797622734155,1.83890570671643
1.78153840492994,1.88984473775662,1.77577875075458,1.77518654750603,1.77725925887594,1.77860604368311,1.9592662411506,1.88330184702673,0,1.87933790592759,1.88011159081682,1.85369168459947,1.78130916496276,1.84132227803711,1.84082559144156,1.94092704377629,1.91436386257945,1.83796964351712,0,1.90759173188238,1.90880479337537,2.01163802198565,1.9073720435805,1.90325527583658,1.9030833458612,1.90186073270291,1.82968834970279,1.82554292696297,0,2.00800838917199,1.89617749184993,2.00949844895865,1.89507905034054,1.89352212889678,1.81859886629051,1.88839288463115,1.88760009641133,1.88830691964346,0,1.93322840154521,1.93394477644264,1.93473756466247,2.01241170687488,2.02026317575075,1.80874154770183,1.8079869661432,1.80656376801363,1.88155389227699,0,1.88113361900383,1.80749027954764,1.93079272689393,2.01252632685847,2.00291735156756,1.88081841404896,1.88230847383562,1.88352153532861,1.88728489145646,0,1.88558469503321,1.99988947366774,1.89094317926602,1.89211803409781,1.89406657381883,1.92632254753394,1.89731414002053,1.90424864902769,1.9235239096013,0,1.92394418287447,2.00916414067318,1.97909549831156,1.89673148843728,1.89699893506566,1.97995514818848,1.96847404649894,1.89399971216174,1.89086676594363,0,1.96810153155228,1.89267203068516,1.89234727406499,1.89015039104619,1.88994980607491,1.96930504137997,1.96561809857451,1.96708905503057,1.88966325611594,0,1.98612552397171,1.98249589115805,1.98122551967326,1.99302182631767,1.98009842316797,1.89031276935628,1.98042317978814,1.88995935774021,1.89125838422089,0,1.89350302556618,1.97246664259397,1.97587658710576,1.98009842316797,1.98307854274129,1.98545690740077,1.97281050254474,1.97056586119945,1.96812063488288,0,1.8900357710626,1.98363253932864,1.97606762041174,1.97824540009994,1.96406117713075,1.96449100206921,1.96831166818886,1.97446294064149,1.97642103202781,0,1.96092823091264,1.96088047258615,1.9603455793294,1.96043154431709,1.97588613877106,1.9775672318637,1.88507845677236,1.97062317119125,1.95622881158548,0,1.96967755632663,1.97797795347156,1.88421880689544,1.96803466989518,1.96595240685998,1.98339374769616,1.88093303403254,1.96579958021519,1.87866928935665,0,1.8770932645823,1.87838273939768,1.87642464801136,1.8771219195782,1.8770741612517,1.87745622786367,1.95721263311129,1.98040407645754,1.94983874750037,0,1.94888358097046,1.79841619751348,1.90668432367896,1.79593276453571,1.79368812319042,1.79247506169743,1.90789738517195,1.78896960053265,1.78642885756309,0,1.78804308899864,1.787384024093,1.78581755098395,1.99294541299528,1.78548324269848,1.78333411800618,1.78250312312515,1.78212105651319,1.83163688942381,0,1.90715235527862,1.78187271321541,1.78140468161575,1.78296160305951,1.78423197454429,1.87914687262161,1.83092051452637,1.98734813713,1.90218548932308,0,1.78676316584856,1.78422242287899,1.78530176105779,1.78409825123011,1.89778217162019,1.78559786268207,1.78580799931865,1.78748909241129,1.78896960053265,0,1.78841560394531,1.78867349890838,1.97590524210166,1.83793143685592
1.77954210688243,1.78136647495456,1.96616254349656,1.96608613017417,1.77704912223936,1.77802339209987,1.7776890838144,1.77848187203423,0,1.77945614189474,1.77931286691525,1.77932241858055,1.84052948981728,1.84293650947266,1.84166613798788,1.91456444755073,1.84175210297557,1.93736427261972,0,1.9084609334246,1.91031395649263,1.90895762002015,1.90828900344921,1.90500323058632,1.90397165073401,1.90353227413025,2.01043451215796,1.8986609248277,0,1.89846033985642,1.93686758602417,1.82124467757837,1.93681982769767,2.01515303481572,1.93619896945323,1.81811173136026,1.93771768423579,2.00885848738361,0,1.9365046227428,1.93489039130725,2.01317584009881,1.88318722704314,1.81081425907173,1.81231387052369,1.93529156124982,1.88234668049681,1.88227981883972,0,2.0056586795084,2.01564972141128,1.88083751737955,1.88133420397511,1.88208878553374,1.88230847383562,1.92968473371923,1.88764785473782,1.88616734661646,0,1.88507845677236,1.88709385815048,1.89026501102978,1.92746874736984,1.89158314084106,1.89830751321164,1.92709623242317,1.8294973163968,1.92282663803447,0,1.92379135622968,1.85181955820084,1.99986081867184,2.00018557529201,1.97685085696627,1.98305943941069,1.89431491711661,1.96804422156048,1.99021363671973,0,1.89290127065234,1.89275799567285,1.89276754733815,1.8922135507508,1.88989249608312,1.8900262193973,1.97887581000968,1.98900057522675,1.98943040016521,0,1.8911246609067,1.99204755645716,1.97681265030507,1.99001305174845,1.98572435402915,1.97422414900901,1.89031276935628,1.9775958868596,1.98031811146985,0,1.97918146329925,1.9754754171632,1.89068528430294,1.97338360246269,1.98475008416864,1.98010797483327,1.97657385867259,1.89063752597645,1.97354598077278,0,1.97340270579329,1.88874629624722,1.97187443934543,1.97271498589175,1.98036586979634,1.96700309004288,1.88721802979936,1.98721441381581,1.96423310710614,0,1.96294363229076,1.88661627488552,1.88714161647697,1.88846929795355,1.97623955038713,1.97379432407055,1.98605866231462,1.8868646181833,1.88632017326125,0,1.88475370015219,1.97412863235602,1.976554755342,1.9646342770487,1.88302484873305,1.88090437903665,1.96387969549007,1.96362180052699,1.88288157375356,0,1.88159209893818,1.87886032266264,1.87700729959461,1.87570827311393,1.87772367449204,1.87759950284315,1.87789560446743,1.96202667242204,1.95941906779538,0,1.80118618045022,2.00627953775285,1.91121181303074,1.7960569361846,1.79488208135281,1.79288578330529,1.78998207705436,1.89121062589439,1.78553100102497,0,1.78826277730052,1.99669921745783,1.83479849063781,1.83363318747132,1.78504386609472,1.78573158599625,1.78438480118908,1.90314065585299,1.78487193611933,0,1.78454717949916,1.78189181654601,1.7819682298684,1.78389766625882,1.8305957579062,1.878201257757,1.87608078806059,1.78365887462635,1.7819586782031,0,1.89998860630428,1.78511072775181,1.88514531842946,1.78471910947455,1.78532086438839,1.83458835400123,1.83369049746312,1.78771833237847,1.78882632555317,0,1.98719531048521,1.7885206722636,1.78886453221436,1.83664196204054
1.78108947666088,1.78051637674294,1.77970448519251,1.78074561671012,1.77942748689884,1.96484441368528,1.88583303833099,1.7809462016814,0,1.78134737162396,1.78205419485609,1.78172943823592,1.84166613798788,1.86497220131772,1.84388212433727,1.91714339718149,1.91365703934732,1.9127878378051,0,1.91067691977399,1.90986502822357,1.83692851199952,1.90900537834665,1.90704728696033,1.90572915714905,1.90571960548375,1.90332213749367,1.90121121946257,0,1.89914805975796,1.89970205634531,2.01011930720309,1.82177957083512,1.89166910582875,2.01039630549677,1.89359854221917,1.89067573263764,1.81631601828402,0,2.00962262060754,1.81510295679104,1.88653986156313,1.81140646232028,1.88473459682159,1.93700130933836,2.02755109637398,1.93645686441631,1.80783413949841,0,1.88095213736314,1.93310422989632,1.80990685086832,1.88174492558297,1.8111772223531,1.93085003688573,1.88150613395049,1.89076169762534,1.88507845677236,0,1.8867977565262,1.81623005329633,1.88814454133338,1.8901026327197,1.9981224155874,1.89686521175147,2.01518168981162,1.90464981897025,2.01079747543933,0,1.92655178750112,1.85143749158887,1.90028470792855,1.89967340134941,1.97886625834438,1.89754337998771,1.96977307297962,1.98775885873786,1.89444864043079,0,1.89478294871626,1.89420029713302,1.89228996407319,1.89196520745302,1.89141121086568,1.89024590769918,1.96327794057623,1.97688906362747,1.89099093759251,0,1.97291557086303,1.98379491763873,1.89189834579593,2.00282183491457,1.98938264183871,1.98027035314335,1.97715651025584,1.97093837614612,1.98154072462814,0,1.97767230018199,1.89237592906089,1.97602941375055,1.98380446930403,1.97508379888593,1.97272453755705,1.98328867937787,1.98148341463634,1.89091452427012,0,1.96611478517006,1.97421459734371,1.97859881171601,1.99073897831118,1.89049425099696,1.97962083990301,1.97939159993583,1.98726217214231,1.88675954986501,0,1.88842153962705,1.97425280400491,1.88688372151389,1.88698878983218,1.88662582655082,1.97710875192935,1.88342601867561,1.98650759058368,1.9613389525205,0,1.97334539580149,1.97071868784424,1.97195085266782,1.97267677923056,1.96972531465313,1.96497813699947,1.95553154001864,1.88096168902844,1.88060827741238,0,1.87976773086605,1.87871704768315,1.88132465230981,1.87906090763392,1.87736071121068,1.87847825605067,1.87770457116144,1.97045124121586,1.951615357246,0,1.80072770051587,1.79949553569228,1.79654407111485,1.79453822140204,1.79270430166461,1.79159630848991,1.78879767055727,1.90702818362973,1.7917300318041,0,1.78770878071317,1.7852062444048,1.83508504059679,1.83433045903816,1.78479552279694,1.78611365260822,1.78294249972891,1.90369465244034,1.78361111629985,0,1.78490059111523,1.78370663295284,1.78181540322362,1.78119454497917,1.7830953263737,1.87748488285956,1.78320039469199,1.97604851708114,1.90031336292445,0,1.78181540322362,1.78454717949916,1.90007457129197,1.7820159881949,1.78540682937608,1.78547369103318,1.83407256407508,1.83436866569935,1.7873935757583,0,1.78805264066394,1.78840605228001,1.78600858428993,1.78775653903967
1.78277056975353,1.89316871728071,1.78002924181268,1.78115633831798,1.96750932830373,1.88542231672313,1.78137602661986,1.78142378494635,0,1.78131871662806,1.95742276974787,1.78266550143524,1.84114079639643,1.84223923790583,1.84393943432907,1.91684729555722,1.91530947744406,1.91662760725534,0,1.94023932387476,1.94063094215202,1.94036349552365,1.91012292318664,1.93806154418656,1.90575781214495,1.94074556213561,1.90418178737059,1.90257710760034,0,1.82816008325493,1.89836482320343,1.89939640305574,1.93877791908399,1.94005784223407,1.93825257749254,1.81992654776709,1.93781320088878,1.88822095465577,0,1.93667655271819,1.88720847813406,1.88565155669031,1.88662582655082,1.88441939186672,1.8111772223531,1.81021250415789,1.81059457076985,1.81133960066319,0,2.01704426454495,1.81104349903891,1.88121958399152,1.93354360650008,1.811205877349,1.88398001526296,1.81207507889122,1.81179808059754,2.00375789811388,0,1.88986384108722,1.88992115107901,1.81754818310761,2.00266900826978,1.92844301723035,1.89809737657506,1.92530051934694,1.90484085227623,1.92623658254625,0,2.00709142930327,1.97824540009994,1.97426235567021,1.899788021333,1.98571480236385,1.97047989621176,1.96987814129791,1.97057541286475,1.89490712036515,0,1.89531784197301,1.96685981506339,1.89377047219456,1.89315916561541,1.8932642339337,1.89150672751867,1.89141121086568,1.97788243681857,1.98372805598163,0,1.9862974539471,1.99028049837683,1.97388984072354,1.89215624075901,1.97279139921414,1.98097717637549,1.98023214648216,1.97408087402953,1.89322602727251,0,1.8922135507508,1.89024590769918,1.97752902520251,1.89263382402396,1.9829830260883,1.97235202261039,1.9711294094521,1.89156403751046,1.98573390569445,0,1.88998801273611,1.89018859770739,1.97962083990301,1.96994500295501,1.96714636502237,1.97275319255295,1.97424325233961,1.9689134231027,1.97714695859054,0,1.97532259051841,1.97554227882029,1.88750457975834,1.88690282484449,1.96605747517827,1.98059510976352,1.98339374769616,1.88623420827355,1.88410418691185,0,1.96719412334886,1.95793855967402,1.95727949476838,1.95513992174138,1.97795885014097,1.96147267583469,1.88028352079221,1.95310541703267,1.95003933247165,0,1.88149658228519,1.87984414418845,1.87959580089067,1.87949073257238,1.87681626628863,1.87781919114503,1.95589450330001,1.96221770572802,1.96686936672869,0,1.84828544204017,1.79916122740681,1.91530947744406,1.90344630914256,1.90245293595145,1.85185776486204,1.85124645828289,1.99080583996828,1.99016587839324,0,1.7885302239289,1.78764191905608,1.83521876391098,1.83396749575679,1.78402183790771,1.83149361444432,1.99035691169922,1.90583422546734,1.78399318291182,0,1.78323860135319,1.78149064660345,1.78131871662806,1.78013431013097,1.77933197024585,1.78169123157473,1.90065722287522,1.78192047154191,1.78475731613574,0,1.78236939981097,1.78371618461814,1.83111154783236,1.86996772226916,1.868429904156,1.83263981428021,1.78545458770258,1.83440687236055,1.83359498081013,0,1.78166257657883,1.78755595406839,1.78689688916275,1.78766102238668
1.78435614619318,1.89735234668173,1.77938928023764,1.96741381165074,1.78324815301848,1.78228343482327,1.78169123157473,1.7819586782031,0,1.781987333199,1.78263684643934,1.78343918632447,1.78598948095933,1.78509162442121,1.84461760256531,1.91731532715688,1.91669446891244,1.84236340955471,0,1.8413986913595,1.94041125385014,1.91201415291587,1.93918864069185,1.83486535229491,1.94110852541698,1.83209536935816,1.83288815757799,1.90202311101299,0,1.82728133004741,1.89880419980719,1.89849854651762,1.89736189834702,1.89522232532002,1.89379912719045,1.89321647560721,1.81812128302556,1.94034439219305,0,1.93843405913322,1.81506475012984,1.8878961980356,1.93933191567134,1.81380393031036,2.01893549427417,1.8857757283392,1.88670223987321,1.81097663738182,0,1.81143511731618,1.93393522477734,1.81078560407584,1.88307260705955,1.88307260705955,1.88439073687083,1.93022917864128,1.81406182527343,1.81453940853839,0,1.89021725270329,1.89264337568926,1.891134212572,1.89782992994668,1.92991397368641,1.89961609135762,1.92783171065121,1.9289397038259,1.92655178750112,0,1.92620792755036,1.90318841417949,1.90054260289163,1.98962143347119,1.89746696666532,1.97878984502199,1.98288750943531,1.97092882448082,1.89519367032413,0,1.89417164213712,1.89288216732174,1.89416209047182,1.895508875279,1.89350302556618,1.96801556656459,1.96709860669587,1.97639237703191,1.98593449066573,0,1.98956412347939,1.9797450115519,1.97918146329925,1.97379432407055,1.98068107475121,1.9992495120927,1.9829639227577,1.89254785903627,1.9926970696975,0,1.99024229171563,1.97553272715499,1.98176041293002,1.9808243497307,1.97613448206884,1.993766856211,1.99253469138742,1.89102914425371,1.89169776082465,0,1.97774871350439,1.97596255209345,1.89077124929063,1.98891461023905,1.97899042999327,1.89086676594363,1.96991634795911,1.96952472968185,1.88880360623902,0,1.97258126257756,1.88807767967628,1.9710720994603,1.97067092951774,1.88672134320381,1.98022259481686,1.97422414900901,1.88699834149748,1.97069003284834,0,1.97627775704832,1.88757144141543,1.97477814559636,1.97067092951774,1.95658222320155,1.95669684318513,1.95753738973146,1.96948652302065,1.88053186408998,0,1.88014024581272,1.88022621080041,1.88000652249853,1.87952893923358,1.87829677440999,1.87769501949614,1.96281946064187,1.94992471248806,1.96693622838579,0,1.80070859718527,1.79895109077023,1.9160449556721,1.79587545454392,1.8716392636965,1.87023516889754,1.85250727810238,1.79140527518393,1.98321226605548,0,1.7885111205983,1.78647661588959,1.78447076617677,1.89703714172686,1.78569337933506,1.78375439127934,1.78276101808823,1.78447076617677,1.90602525877332,0,1.78119454497917,1.77974269185371,1.78100351167319,1.78134737162396,1.78149064660345,1.78084113336311,1.77836725205064,1.78115633831798,1.78178674822772,0,1.78252222645575,1.78335322133677,1.78186316155011,1.87019696223634,1.78477641946634,1.7841746645525,1.83143630445253,1.78247446812926,1.78564562100856,0,1.78487193611933,1.88530769673954,1.78507252109062,1.78781384903146
1.89854630484412,1.78281832808002,1.96765260328322,1.78236939981097,1.8933597505867,1.78335322133677,1.88968235944654,1.7819682298684,0,1.78264639810464,1.87421821332727,1.7841937678831,1.78495790110703,1.78464269615216,1.78880722222257,1.91688550221842,1.84460805090001,1.94363016505594,0,1.91147925965912,1.93944653565493,1.91268276948681,1.94077421713151,1.83641272207336,1.9040767190523,1.90644553204648,1.94062139048672,1.90171745772342,0,1.9008387045159,1.90136404610735,1.89987398632069,1.89918626641916,1.939799947271,1.94047811550724,1.89692252174327,1.93820481916605,1.89383733385165,0,1.891134212572,1.88760009641133,1.88715116814227,1.88908060453269,1.8867977565262,1.88648255157133,1.81260042048267,1.93614165946144,1.81188404558523,0,1.8846963901604,1.88551783337612,1.81062322576575,1.8825281621375,1.88451490851971,1.88496383678877,1.93260754330076,1.93162372177495,1.88634882825714,0,1.88970146277713,1.89057066431935,1.89126793588619,1.89250010070977,1.89618704351523,1.93017186864949,1.92872956718932,1.92615061755856,1.90868062172648,0,2.01617506300273,2.00720604928686,1.99561987927903,1.90023694960206,1.98149296630164,1.89772486162839,1.96848359816424,1.96919997306168,1.98258185614574,0,1.89647359347421,1.89522232532002,1.89577632190737,1.89312095895422,1.89358899055387,1.8933310955908,1.96715591668767,1.98705203550573,1.98112045135497,0,1.98259140781104,1.97953487491532,1.9808816597225,1.98206606621959,1.96818749653997,1.96640133512904,1.97584793210986,1.89353168056208,1.98665086556316,0,1.98415788092009,1.9840719159324,1.97630641204422,1.97585748377516,1.97574286379157,1.9765452036767,1.89134434920858,1.89163089916756,1.97858926005071,0,1.89133479754328,1.89170731248995,1.89095273093132,1.89125838422089,1.97956352991122,1.97934384160934,1.89069483596824,1.97445338897619,1.96944831635945,0,1.98009842316797,1.97500738556354,1.99934502874569,1.88760009641133,1.88723713312996,1.97304929417722,1.97073779117483,1.97072823950954,1.97723292357823,0,1.88674999819971,1.88551783337612,1.88500204344997,1.96771946494031,1.96512141197895,1.96202667242204,1.9732498791485,1.96066078428427,1.88078975905306,0,1.87883166766674,1.87864063436076,1.88015934914332,1.88046500243289,1.87844004938948,1.87893673598503,1.97013603626099,1.96832121985416,1.94927519924772,0,1.96645864512083,1.79895109077023,1.84796068542,1.84397764099027,1.84245892620771,1.79263744000752,1.89776306828959,1.79152944683282,1.90367554910974,0,1.87574647977513,1.90458295731316,1.78581755098395,1.90013188128377,1.84439791426343,1.84344274773351,1.78151930159934,1.78252222645575,1.99844717220757,0,1.98309764607189,1.7819968848643,1.78170078324003,1.78120409664447,1.7809079950202,1.98373760764693,1.77936062524174,1.8976771033019,1.90077184285881,0,1.8997498146718,1.78148109493815,1.89793499826497,1.78150974993405,1.99247738139562,1.78464269615216,1.83189478438688,1.83398659908739,1.83412032240158,0,1.83347080916124,1.78532086438839,1.83406301240978,1.78543548437198
1.78656258087728,1.78451852450327,1.96916176640048,1.78317173969609,1.88413284190775,1.88517397342535,1.78462359282156,1.88737085644415,0,1.78601813595523,1.7863524442407,1.95767111304564,1.78381170127113,1.78925615049163,1.78972418209129,1.94574108308705,2.0338074371449,1.84474177421419,0,1.94268455019133,1.91572975071723,1.91414417427757,1.91101122805946,1.91136463967553,1.90706639029093,1.8338528757732,1.83255384929252,1.9041149257135,0,1.93934146733664,1.93988591225869,1.90066677454052,1.82562889195066,1.89752427665711,1.89538470363011,1.89408567714943,1.89392329883934,1.8911533159026,0,1.89040828600927,1.8911437642373,1.94012470389117,1.88987339275252,1.88698878983218,2.02363491360134,1.88184999390126,1.88440984020142,1.88556559170262,0,1.81153063396917,1.88379853362228,1.88597631331048,1.811205877349,1.8111676706878,1.88749502809304,1.93353405483478,1.8879535080274,1.81399496361634,0,1.88541276505783,1.8932642339337,1.81941075784094,1.89346481890499,1.9311079318488,2.00993782556241,1.92935997709906,1.90403851239111,1.83647958373046,0,1.92709623242317,1.92890149716471,1.90053305122633,1.98941129683461,1.98418653591599,1.98205651455429,1.97303974251192,1.97017424292219,1.97193174933722,0,1.97116761611329,1.89480205204686,1.89699893506566,1.89674104010258,1.89462057040618,1.8954229102913,1.96645864512083,1.97963994323361,1.89349347390088,0,1.98250544282335,1.96615299183126,1.96748067330784,1.98920116019803,1.96579002854989,1.98591538733513,1.97470173227397,1.97591479376696,1.98432981089548,0,1.99346120292143,1.97206547265141,1.97281050254474,1.97352687744218,1.89363674888037,1.97968770156011,1.98670817555496,1.9797068048907,1.99928771875389,0,1.98244813283155,1.98556197571906,1.9840337092712,1.98455905086266,1.97083330782783,1.89105779924961,1.97296332918953,1.97087151448902,1.98184637791771,0,1.99327972128075,1.96930504137997,1.88852660794534,1.88816364466398,1.97375611740936,1.8878579913744,1.88765740640312,1.96938145470236,1.96747112164254,0,1.96717502001826,1.96668788508801,1.96746156997724,1.97602941375055,1.95630522490787,1.95858807291436,1.96726098500596,1.9776436451861,1.881458375624,0,1.88047455409819,1.87976773086605,1.88014979747802,1.87845915272007,1.87791470779802,1.87760905450845,1.95074615570378,1.95297169371848,1.96144402083879,0,1.91343735104544,1.79800547590562,1.9073147335887,1.79683062107383,1.79507311465879,1.90808841847793,1.79290488663589,1.79104231190256,1.78686823416685,0,1.78798577900685,1.90534709053709,1.7852731060619,1.78423197454429,1.784126906226,1.88287202208827,1.88096168902844,1.78444211118087,1.78334366967148,0,1.90716190694392,1.78065965172242,1.9030355875347,1.9938528211987,1.90288276088991,1.99336568626844,1.78147154327285,1.78027758511046,1.89998860630428,0,1.77848187203423,1.78240760647216,1.89889971646018,1.90349406746906,1.9808243497307,1.7852826577272,1.7831144297043,1.78485283278874,1.89688431508207,0,1.7819968848643,1.7831239813696,1.88055096742058,1.8793092509317
1.78759416072958,1.78461404115626,1.78335322133677,1.83146495944842,1.89832661654224,1.89686521175147,1.78498655610292,1.87127630041514,0,1.78696375081984,1.78554055269027,1.78580799931865,1.78730761077061,1.7873553690971,1.7884729139371,1.84427374261454,1.91993248344884,1.91830870034799,0,1.91666581391654,1.94387850835372,1.91318900774766,1.91053364479451,1.94340092508876,1.90894806835485,1.90803110848614,1.90775411019246,2.01567837640718,0,1.83163688942381,1.8998166763289,1.89914805975796,1.90019874294086,2.0262043115668,1.89670283344139,1.89680790175968,1.94142373037185,1.8208626109664,0,1.94067870047852,1.89072349096414,1.81816904135205,1.94168162533492,1.88829736797816,1.88972056610773,1.81147332397737,1.9376317192481,1.9408888371151,0,1.88449580518912,1.81244759383788,1.81266728213976,1.81187449391994,1.88415194523835,1.88509756010296,1.93558766287409,1.88731354645235,1.93290364492504,0,1.89024590769918,1.89343616390909,1.89166910582875,1.89663597178429,1.93188161673803,1.93040110861667,1.93026738530248,1.90489816226803,1.90715235527862,0,1.92747829903514,1.92690519911719,1.97782512682678,1.89996950297368,1.99464560941852,1.98916295353683,1.99537153598126,1.97186488768013,1.96887521644151,0,1.97139685608047,1.97123447777039,1.89585273522976,1.89640673181711,1.89665507511489,1.968922974768,1.97725202690883,1.97824540009994,1.97744306021481,0,1.8944104337696,2.0003097469409,1.96857911481723,1.97674578864798,1.97643058369311,1.89388509217815,1.99007991340554,1.98345105768796,1.9894781584917,0,1.89320692394191,1.98202785955839,1.89348392223558,1.98447308587496,1.98254364948454,1.96967755632663,1.8933119922602,1.89366540387627,1.89318782061131,0,1.97752902520251,1.97276274421825,1.97336449913209,1.97418594234782,1.98343195435736,1.89049425099696,1.98055690310233,1.97770095517789,1.97451069896799,0,1.97780602349618,1.98042317978814,1.97020289791808,1.96947697135535,1.98106314136318,1.97988828653139,1.98577211235564,1.97303019084662,1.97729978523533,0,1.98049004144523,1.97616313706473,1.97614403373413,1.97531303885311,1.97630641204422,1.97573331212627,1.97678399530918,1.9711103061215,1.88054141575528,0,1.88113361900383,1.88057962241648,1.87779053614914,1.87915642428691,1.88000652249853,1.87972952420486,1.87847825605067,1.95396506690959,1.97274364088765,0,1.90452564732136,1.84684314058,1.79752789264066,1.79782399426494,1.90316931084889,1.98752961877068,1.90400030572991,1.79073665861299,1.8792996992664,0,1.90772545519657,1.90699952863383,1.78699240581574,1.78604679095113,1.78643840922839,1.88331139869203,1.78407914789951,1.78142378494635,1.82813142825903,0,1.7809462016814,1.77894035196858,1.78055458340413,1.77920779859696,1.90364689411384,1.7787970769891,1.90386658241572,1.77915048860516,1.98555242405376,0,1.7787779736585,1.90375196243213,1.7809079950202,1.78184405821951,1.78161481825234,1.86891703908626,1.77921735026226,1.98067152308592,1.78267505310054,0,1.78265594976994,1.89416209047182,1.8792710442705,1.78232164148447
1.78504386609472,1.89712310671455,1.78349649631626,1.89966384968411,1.90059036121813,1.89728548502463,1.83582051882482,1.78552144935967,0,1.83435911403405,1.78707837080343,1.78868305057368,1.78827232896582,1.78800488233744,1.78943763213231,1.85021487843059,1.92177595485157,1.84558232076052,0,1.84550590743812,1.91624554064338,1.94459488325115,1.91433520758355,1.91132643301433,1.9095116166075,1.94646700964978,1.90977906323588,1.90550946884717,0,1.94326720177458,1.90285410589402,1.90057125788753,1.89916716308856,1.8263070601869,2.01898325260067,1.94468084823885,1.94251262021595,1.94339137342347,0,1.89035097601747,1.89313051061952,1.8889755362144,1.88826871298227,1.81538950675001,1.88424746189134,1.88731354645235,1.81195090724233,1.88691237650979,0,1.88502114678057,1.88382718861818,1.88710340981577,1.88210788886434,1.88442894353202,1.93417401640982,1.88690282484449,1.93630403777152,1.8901026327197,0,1.89032232102158,1.8187230379394,1.81935344784914,1.82399555718451,2.01346239005778,1.82791173995715,1.90345586080786,1.90462116397435,2.0111031287289,0,1.92885373883821,1.93661924272639,1.98415788092009,1.98453994753206,1.98242902950095,1.97615358539943,1.98750096377478,1.99327972128075,1.97378477240525,0,1.97196040433312,1.89703714172686,1.89786813660788,1.8954897719484,1.8965691101272,1.96887521644151,1.9689993880904,1.99301227465237,1.98979336344657,0,1.98981246677717,1.98056645476763,1.9894972618223,1.98308809440659,1.99987037033714,1.98335554103497,1.979811873209,1.96652550677792,1.97260991757346,0,1.9732403274832,1.99298361965648,1.8944008821043,1.97154013105996,1.97568555379978,1.97962083990301,1.97442473398029,1.89365585221097,1.97351732577688,0,1.97901908498917,1.97618224039533,1.9808243497307,1.8922804124079,1.89186013913473,1.97314481083021,1.97564734713858,1.89051335432756,1.89122972922499,0,1.89083811094773,1.97256215924697,1.89017904604209,1.89016949437679,1.97658341033789,1.97738575022302,1.88648255157133,1.88594765831458,1.97307794917312,0,1.97523662553072,1.88295798707596,1.97563779547328,1.97425280400491,1.88447670185852,1.88328274369613,1.88334005368792,1.97035572456287,1.88117182566502,0,1.88059872574708,1.88431432354843,1.88187864889716,1.8793092509317,1.88055096742058,1.87931880259699,1.87866928935665,1.8802930724575,1.87791470779802,0,1.9992304087621,1.84748310215504,1.79785264926083,1.79562711124614,1.7927616116564,1.79086083026188,1.79017311036034,1.79130975853094,1.78813860565163,0,1.78777564237027,1.78559786268207,1.7842128712137,1.7852157960701,1.78451852450327,1.78212105651319,1.87427552331906,1.78131871662806,1.78103216666909,0,1.82877138983407,1.82901973313185,1.8284657365445,1.78025848177986,1.77931286691525,1.78074561671012,1.78114678665268,1.77870156033611,1.77830039039354,0,1.78112768332208,1.77967583019662,1.87044530553412,1.77969493352721,1.78131871662806,1.77957076187832,1.997023974078,1.77993372515969,1.89814513490155,0,1.78265594976994,1.78459493782566,1.87632913135837,1.7831144297043
1.7884633622718,1.78840605228001,1.89851764984822,1.8338815307691,1.9008769111771,1.83555307219644,1.83719595862789,1.83470297398482,0,1.83451194067884,1.88363615531219,1.89022680436859,1.79094679524957,1.79152944683282,1.79104231190256,1.85144704325417,1.84785561710171,2.02199202716989,0,1.92058199668918,1.91631240230047,1.84073007478857,1.91750636046286,1.91409641595108,1.91106853805126,1.9462855280091,1.90720011360511,1.90664611701777,0,1.90260576259624,1.90014143294907,1.90240517762496,1.90383792741983,1.89773441329369,1.89798275659147,1.82235267075307,1.89415253880652,1.89019814937269,0,1.89279620233405,1.89264337568926,1.94281827350552,1.88805857634569,1.81627781162283,1.88484921680518,1.81377527531446,1.88674999819971,1.88663537821612,0,1.88486832013578,1.88177358057887,1.88445759852792,1.89020770103799,1.88625331160415,1.88590945165338,1.93702996433425,1.81644974159821,1.81812128302556,0,1.89039873434397,1.89148762418807,1.89392329883934,1.93629448610622,1.93305647156982,1.90246248761675,1.90176521604992,1.90705683862563,1.90726697526221,0,1.92951280374385,1.90370420410564,1.90328393083248,1.97361284242987,1.98705203550573,1.90130673611556,1.90037067291625,1.99721500738398,1.97398535737653,0,1.97084285949312,1.89693207340856,1.89781082661608,1.97042258621996,1.89677924676378,1.89824065155454,1.99079628830298,1.98262006280694,1.89487846536925,0,1.98018438815566,1.89354123222738,1.97806391845926,1.89499308535284,1.98669862388966,1.89357943888857,1.98768244541547,1.98238127117446,1.9851894607724,0,1.98215203120728,1.97028886290578,1.98364209099394,1.97302063918132,1.96765260328322,1.8933501989214,1.96960114300424,1.98256275281514,1.97424325233961,0,1.98683234720385,1.97702278694165,1.98042317978814,1.98984112177307,1.89309230395832,1.89300633897063,1.89091452427012,1.96655416177382,1.9743101139967,0,1.97394715071534,1.97164519937825,1.89160224417166,1.89022680436859,1.97912415330746,1.98106314136318,1.97641148036251,1.97681265030507,1.9710816511256,0,1.97774871350439,1.88426656522194,1.96792960157689,1.97382297906645,1.88557514336792,1.971062547795,1.88266188545169,1.8814488239587,1.96710815836117,0,1.88201237221135,1.88088527570605,1.8802930724575,1.88090437903665,1.87831587774059,1.87834453273648,1.87992055751084,1.9495330942108,1.87865973769136,0,1.80012594560202,1.90640732538529,2.00283138657986,1.79669689775964,1.79201658176307,1.79064114196,1.78898870386325,1.83774995521524,1.78975283708718,0,1.78893139387146,1.78721209411762,1.83117840948945,1.78358246130395,1.78238850314156,1.78115633831798,1.78189181654601,1.98591538733513,1.99355671957442,0,1.7808888916896,1.78004834514328,1.78107037333029,1.77887349031149,1.78054503173883,1.77929376358465,1.9030069325388,1.77907407528277,1.77923645359286,0,1.78012475846567,1.78032534343696,1.7787779736585,1.82776846497766,1.87079871715018,1.89854630484412,1.78156705992584,1.89664552344959,1.7809270983508,0,1.83148406277902,1.96959159133894,1.96817794487467,1.99069121998469
1.88375077529578,1.88235623216211,1.83655599705285,1.8382179868149,1.83471252565012,1.78779474570086,1.78802398566804,1.89100048925781,0,1.8576460740333,1.78917018550394,1.79023042035214,1.79094679524957,1.79089903692308,1.84173299964497,1.92176640318627,2.0359279068413,1.84544859744633,0,1.91853794031517,2.02546883333877,1.9462759763438,1.84285054448497,1.83921136000601,1.94446115993697,1.83500862727439,1.90970264991348,1.944079093325,0,1.90433461401538,1.90712370028272,1.90036112125095,1.90055215455693,1.9008482561812,1.82616378520741,1.89567125358908,2.01607954634974,1.82232401575717,0,1.8965882134578,1.94338182175817,1.8922422057467,1.94263679186484,2.03236513568473,1.88846929795355,1.81390899862865,1.94048766717253,1.88633927659184,0,1.88659717155492,1.88712251314637,1.88512621509886,1.886855066518,1.88589034832279,1.88781023304791,1.88763830307252,1.81746221811992,1.89126793588619,0,1.89083811094773,1.93352450316948,1.89422895212891,1.82478834540434,1.93178610008504,1.93148044679547,1.93477577132366,1.93100286353051,1.9300668003312,0,2.01717798785914,2.01944173253503,1.90404806405641,2.00315614320003,1.90077184285881,1.99945964872928,1.98853254362709,1.98385222763052,1.98315495606369,0,1.89921492141505,1.89886150979899,1.89842213319523,1.89757203498361,1.89754337998771,1.89862271816651,1.97266722756526,1.96901849142099,1.96693622838579,0,1.96699353837758,1.99048108334811,1.97982142487429,1.8965022484701,1.97672668531738,1.98685145053444,1.97989783819669,1.99689980242911,1.99561987927903,0,1.97639237703191,2.00017602362671,1.99237231307733,1.99291675799938,1.89319737227661,1.98219978953377,1.89314961395011,1.89377047219456,1.89487846536925,0,1.89472563872447,1.89409522881473,1.9873672404606,1.98090076305309,1.96623895681895,1.89355078389268,1.99034736003392,1.98078614306951,1.97771050684319,0,1.97348867078098,1.9710912027909,1.89135390087388,1.89032232102158,1.89050380266226,1.9775576801984,1.97610582707294,1.96760484495672,1.98353702267565,0,1.97345046411978,1.97024110457928,1.88652075823253,1.9797354598866,1.88538411006193,1.88438118520553,1.88238488715801,1.88255681713339,1.88189775222776,0,1.88217475052143,1.88128644564861,1.88176402891357,1.88041724410639,1.88148703061989,1.95434713352155,1.95268514375951,1.97134909775398,1.96577092521929,0,1.85058739337725,1.88704609982398,1.79666824276374,1.79743237598767,1.79420391311657,1.79192106511008,1.79158675682461,1.83756847357456,1.83591603547781,0,1.90690401198084,1.83410121907098,1.78601813595523,1.78186316155011,1.78104171833439,1.98369940098574,1.87097064712557,1.77681033060688,1.77897855862978,0,1.77864425034431,1.77937017690704,1.77692495059047,1.90633091206289,1.77704912223936,1.78179629989302,1.77682943393748,1.89998860630428,1.86780904591156,0,1.89908119810087,1.77997193182089,1.78012475846567,1.78169123157473,1.78174854156652,1.78000058681678,1.89824065155454,1.78019162012277,1.89455370874908,0,1.78122319997507,1.78249357145985,1.78129961329747,1.89494532702635
1.7895809071118,1.78938987380582,1.78933256381402,1.87721743623119,1.79106141523316,1.83532383222927,1.78604679095113,1.89092407593542,0,1.7885206722636,1.7895522521159,1.78997252538906,1.8749823465512,1.87401762835599,1.84087334976805,1.92340928961771,1.9506124323896,1.92052468669738,0,1.84755951547743,1.94745083117559,1.84422598428804,1.9495139908802,1.83900122336943,1.94671535294756,1.94450891826346,1.90804066015144,1.90501278225162,0,1.9051465055658,1.90480264561504,1.82966924637219,2.0186202893193,1.8273863983657,1.89815468656685,1.8976579999713,1.89593870021746,1.89506949867524,0,1.9440981966556,1.81859886629051,1.82070023265632,1.94331496010107,1.88929074116927,1.88804902468039,1.8154563684071,1.8132976920495,1.88769561306432,0,1.8879248530315,1.89049425099696,1.93841495580263,1.93854867911681,1.88806812801098,1.81508385346044,1.93664789772229,1.93640910608981,1.93607479780434,0,1.82051875101564,1.89689386674737,1.89622525017643,1.82562889195066,1.82732908837391,1.93390656978144,1.93151865345666,1.93052528026556,1.92931221877257,0,1.93083093355513,1.93038200528607,1.99029005004213,1.99033780836862,1.98631655727769,1.98610642064111,1.98600135232282,1.90100108282599,1.97526528052662,0,1.97502648889414,1.89796365326087,1.89824065155454,1.8976388966407,1.89756248331831,1.89755293165301,1.9894495034958,1.97083330782783,1.97885670667908,0,1.98609686897581,1.98531363242129,1.98697562218333,2.00235380331491,2.00481813296208,1.98384267596522,1.97786333348798,1.89468743206327,1.89418119380242,0,1.98141655297925,1.98825554533341,1.89638762848652,1.97942025493173,1.982973474423,1.98250544282335,1.98316450772898,1.99759707399595,1.89285351232584,0,1.97660251366849,1.97584793210986,1.89336930225199,1.96451010539981,1.89359854221917,1.97461576728628,1.97082375616253,1.9787134316996,1.98664131389786,0,1.89042738933987,1.98354657434095,1.97132044275808,1.98525632242949,1.98614462730231,2.00318479819593,1.98560018238026,1.98418653591599,1.97268633089585,0,1.96061302595777,1.97879939668729,1.97369880741756,1.97340270579329,1.88429522021783,1.97960173657241,1.96685981506339,1.88154434061169,1.88435253020963,0,1.881458375624,1.88104765401613,1.88093303403254,1.879223285944,1.88009248748622,1.87917552761751,1.96655416177382,1.95225531882105,1.94906506261114,0,1.84997608679811,1.79887467744784,1.90745800856819,1.90711414861742,1.99093001161717,1.79270430166461,1.8392877733284,1.78800488233744,1.88567066002091,0,1.88386539527937,1.78463314448686,1.78445166284617,1.7841937678831,1.78052592840824,1.78132826829336,1.77827173539764,1.7776890838144,1.99718635238809,0,1.77973314018841,1.77905497195217,1.77831949372414,1.7776795321491,1.77682943393748,1.77781325546329,1.77605574904825,1.77748849884312,1.77804249543047,0,1.8986800281583,1.77840545871183,1.77838635538123,1.77863469867901,1.77836725205064,1.77840545871183,1.78099396000789,1.82931583475612,1.8284466332139,0,1.8274055016963,1.87044530553412,1.78219746983558,1.77928421191935
1.83726282028499,1.78905556552035,1.78940897713641,1.78746043741539,1.79022086868684,1.8965022484701,1.78917973716924,1.886855066518,0,1.89140165920038,1.96233232571161,1.96017364935401,1.83987997657694,1.84087334976805,1.7927998183176,1.95267559209421,1.92261650139789,1.9224827780837,0,1.91985607012644,1.84730162051436,1.92009486175892,1.94930385424362,1.91210011790356,1.94477636489184,1.94604673637662,1.91030440482733,1.9462759763438,0,1.90506054057811,1.83368094579782,1.90329348249778,2.01947038753093,1.94593211639303,1.82587723524844,1.89730458835523,1.89773441329369,1.94502470818961,0,1.82262011738144,1.89259561736277,1.82044233769324,1.94333406343167,1.94388806001902,1.94341047675406,1.88828781631286,1.81129184233669,1.9419681752939,0,1.81435792689771,1.88953908446705,1.88516442176005,1.81497878514215,1.9376126159175,1.88781978471321,1.88973011777303,1.81808307636436,1.93699175767306,0,1.89079035262123,2.02208754382288,1.8965882134578,1.89892837145608,1.90061901621402,1.93306602323512,1.93315198822281,1.83787412686413,1.83810336683131,0,2.02503900840031,1.93159506677906,1.98675593388145,1.99289765466878,1.98925847018982,1.99105418326605,1.99194248813887,1.89897612978258,1.97730933690063,0,1.97720426858234,1.89906209477027,1.89740010500822,1.89833616820753,1.89861316650121,1.89716131337574,1.98414832925479,1.97038437955877,1.89690341841267,0,1.89728548502463,1.89668373011079,1.89668373011079,1.98326002438198,1.98237171950916,1.97836002008353,1.98159803461993,1.97443428564559,1.89473519038977,0,1.97719471691704,1.97841733007532,1.8954420136219,2.00230604498841,1.97585748377516,1.97746216354541,1.89499308535284,1.89369405887216,1.98316450772898,0,1.89416209047182,1.89432446878191,1.89363674888037,1.98541870073958,1.98570525069855,1.98804540869683,1.9775958868596,1.89252875570567,1.9744056306497,0,1.8911819708985,1.88775292305611,1.96309645893554,1.97681265030507,1.97994559652318,1.97473993893516,1.97957308157652,1.9732498791485,1.88765740640312,0,1.97392804738474,1.97413818402132,1.97159744105176,1.96197891409555,1.88665448154672,1.96985903796732,1.97174071603124,1.96216039573623,1.8824708521457,0,1.95190190720498,1.87917552761751,1.88074200072656,1.88184044223596,1.88023576246571,1.95330600200395,1.96606702684357,1.96256156567879,1.87879346100554,0,1.80129124876851,1.79975343065536,1.90681804699315,1.99510408935288,1.79487252968751,1.90681804699315,1.78874036056548,1.78915108217334,1.99900116879492,0,2.00692905099319,1.78442300785028,1.83153182110552,1.78082203003251,1.82879049316467,1.83839946845558,1.77918869526636,1.77942748689884,1.77823352873645,0,1.77745029218192,1.90329348249778,1.99956471704757,2.00980410224822,1.77724970721064,1.90327437916718,1.77852963036072,1.90665566868306,1.77603664571765,0,1.77718284555355,1.77741208552072,1.77851052703012,1.77596978406056,1.78069785838362,1.7787684219932,1.77775594547149,1.82784487830006,1.83597334546961,0,1.7776795321491,1.82776846497766,1.78139512995046,1.78074561671012
1.83887705172054,1.78720254245232,1.78621872092651,1.78810995065573,1.78778519403556,1.79108051856376,1.88484921680518,1.89415253880652,0,1.89385643718225,1.7906220386294,1.79424211977777,1.79293354163179,1.79287623163999,1.79428032643896,1.92401104453156,1.92597868758318,2.0251440767186,0,1.92011396508952,1.91957907183277,1.95043095074891,1.91431610425296,1.91315080108646,1.91312214609057,1.9106291614475,1.91339914438424,1.90825079678802,0,1.9084131750981,1.94658162963337,2.02921308613602,1.82833201323031,2.01901190759657,1.89993129631249,1.94939937089661,1.94678221460465,1.82332694061358,0,1.89449639875729,1.89340750891319,1.89381823052105,1.94459488325115,1.88981608276072,1.88751413142364,2.01677681791657,1.94455667658996,2.02661503317466,0,1.81557098839069,1.88807767967628,1.88707475481988,1.8166121199083,1.81793980138487,1.93772723590109,1.81479730350147,1.89034142435217,1.93722099764024,0,1.93733561762383,1.89380867885575,1.89455370874908,1.89966384968411,1.90059036121813,1.9019084910294,1.90691356364614,1.9343363947199,1.91034261148852,0,1.93136582681188,1.98785437539085,1.90527067721469,1.99577270592382,1.99537153598126,1.97592434543225,1.97441518231499,1.97407132236423,1.97778692016558,0,1.90079094618941,1.9765356520114,1.8987086831542,1.89923402474565,1.97811167678575,1.98564794070676,1.98149296630164,1.98147386297104,1.97799705680216,0,1.97671713365208,1.89786813660788,1.97828360676114,1.98560973404556,1.97841733007532,1.89644493847831,1.89690341841267,1.98917250520213,1.96769080994442,0,1.98597269732693,1.9711007544562,1.98741499878709,1.97985007987019,1.98051869644113,1.98277288945172,1.97858926005071,1.98678458887735,1.97997425151908,0,1.9872908271382,1.97663116866439,1.97424325233961,1.97406177069893,1.98918205686743,1.89513636033233,1.89517456699353,1.97101478946851,1.99032825670332,0,1.96598106185588,1.96704129670408,1.96475844869759,1.9732689824791,1.89130614254739,1.98973605345478,1.89088586927422,1.97249529758987,1.88843109129235,0,1.88778157805201,1.96049840597418,1.98146431130574,1.96306780393964,1.97874208669549,1.88189775222776,1.97225650595739,1.97881850001789,1.8824517488151,0,1.8803217274534,1.87892718431973,1.8814010656322,1.88062738074297,1.88135330730571,1.87963400755187,1.96489217201178,1.87825856774879,1.96493037867297,0,1.90679894366255,1.79689748273092,1.79631483114768,1.91103033139006,1.90779231685366,1.90789738517195,1.90677984033195,1.78943763213231,1.78671540752206,0,1.90717145860922,1.78595127429813,1.78375439127934,1.82886690648706,1.77918869526636,1.78105126999969,1.77917914360106,1.77883528365029,1.77843411370773,0,1.77606530071355,1.89899523311317,1.77509103085304,1.77796608210807,1.90391434074222,1.90378061742803,1.77810935708756,1.7755495107874,1.83826574514139,0,1.83654644538755,1.89907164643557,1.77670526228859,1.77759356716141,1.90036112125095,1.77895945529918,1.77790877211628,1.77824308040175,1.77838635538123,0,1.78067875505302,1.77851052703012,1.77807115042636,1.87647240633786
1.84085424643745,1.78923704716103,1.7895427004506,1.78912242717744,1.79097545024547,1.79025907534804,1.79133841352684,1.78904601385505,0,1.89522232532002,1.96398476380836,1.89044649267046,1.79460508305913,1.96087092092085,1.79425167144307,1.92364808125019,1.92347615127481,1.95236993880463,0,1.91738218881397,1.84707238054718,1.95067929404669,1.94984829916567,1.91578706070902,1.91340869604954,1.91337048938834,1.91140284633673,1.90746756023349,0,1.83505638560089,1.90476443895384,1.90399075406461,2.02888832951585,1.89956833303112,1.90052349956103,2.02018676242836,1.82467372542075,1.82432031380468,0,1.94667714628636,1.89399016049644,1.89394240216994,1.89025545936448,1.89104824758431,1.81758638976881,1.88782933637851,1.88842153962705,1.88889912289201,0,1.8878866463703,1.88765740640312,1.88867943459013,1.88735175311355,1.88752368308894,1.88848840128415,1.93936057066724,1.93924595068365,1.82170315751273,0,1.89278665066875,1.89509815367113,1.89576677024207,1.89729503668993,1.82728133004741,1.90636911872409,1.904067167387,1.91159387964271,1.93234009667239,0,2.01945128420033,1.85537277769211,1.99632670251117,1.9808912113878,1.97800660846746,1.90375196243213,1.97452980229858,1.975437210502,1.97394715071534,0,1.97402356403773,1.97621089539123,1.97576196712217,1.89941550638633,1.89960653969232,1.90051394789573,1.99642221916416,1.98658400390607,1.96940055803296,0,1.98262006280694,1.98050914477583,1.89791589493437,1.99455009276553,1.98775885873786,1.98636431560419,1.89689386674737,1.98873312859837,1.99364268456212,0,1.97930563494814,1.96950562635125,1.97945846159293,1.98027035314335,1.97956352991122,1.97913370497276,1.98358478100215,1.98051869644113,1.97695592528456,0,1.89455370874908,1.97930563494814,1.98006976817207,1.97992649319258,1.98383312429992,1.98391908928762,1.98636431560419,1.97381342740115,1.89281530566465,0,1.97309705250372,1.97045124121586,1.97596255209345,1.9635835938658,1.97858926005071,1.89059931931525,1.97708964859875,1.97534169384901,1.97307794917312,0,1.97615358539943,1.9808816597225,1.97582882877926,1.88426656522194,1.88210788886434,1.97346956745038,1.88393225693647,1.95457637348873,1.88184044223596,0,1.95016350412054,1.88167806392588,1.88076110405716,1.88025486579631,1.88017845247391,1.87919463094811,1.87843049772418,1.87861197936486,1.97750992187191,0,1.90862331173468,1.80066083885877,1.79690703439622,1.79466239305093,1.79341112489674,1.79234133838324,1.87467669326162,1.90823169345742,1.78557875935147,0,1.99981306034534,1.78340097966327,1.77958031354362,1.83007996798005,1.82828425490382,1.77903586862157,1.779847760172,1.77897855862978,1.99241051973853,0,1.7776795321491,1.77597933572586,1.77321890445441,1.7776604288185,1.7765810906397,1.77557816578329,1.77567368243629,1.77477582589817,1.87943342258058,0,1.87773322615734,1.77858694035252,1.77734522386363,1.77891169697269,1.77862514701371,1.98767289375017,1.77789922045098,1.87742757286777,1.77965672686602,0,1.77936062524174,1.77537758081201,1.77786101378978,1.780869788359
1.84167568965318,1.79114738022085,1.79157720515931,1.79270430166461,1.79162496348581,1.79020176535624,1.89173596748585,1.89274844400755,0,1.88772426806022,1.96512141197895,1.79207389175487,1.9614249175082,1.96008768436632,1.79468149638153,1.95564616000223,1.92505217604916,2.02906981115654,0,1.95566526333283,2.02701620311723,1.91746815380166,1.94996291914926,1.949475784219,1.84124586471472,1.91316990441706,2.04251855589769,1.83587782881661,0,1.83615482711029,1.83469342231952,1.90487905893743,1.90220459265368,1.94774693279986,1.90161238940513,2.02781854300235,1.89828840988104,1.89671238510669,0,1.89723772669814,2.01747408948341,1.89342661224379,1.94750814116738,2.01662399127179,2.02890743284645,2.02911756948303,1.89020770103799,1.81708015150795,0,1.88868898625543,1.94368747504774,1.88837378130056,1.81829321300094,1.9397521889445,1.88869853792073,1.89018859770739,1.94009604889527,1.89048469933166,0,1.82138795255786,1.89768665496719,1.8241865904905,1.89757203498361,1.90218548932308,1.90162194107043,1.90809797014323,2.00609805611216,1.84165658632258,0,1.93305647156982,1.90975995990528,2.00038616026329,1.98073838474301,1.97969725322541,1.97833136508763,1.90456385398256,1.9765452036767,1.98175086126472,0,1.97500738556354,1.97688906362747,1.97147326940287,1.90054260289163,1.89827885821574,1.89990264131659,1.89853675317882,1.9722182992962,1.99646042582535,0,1.96960114300424,1.97639237703191,1.89938685139044,1.97010738126509,1.98000290651498,1.97380387573585,1.9916081798534,1.89789679160378,1.89739055334292,0,1.98709024216692,1.97670758198678,1.97676489197858,1.98387133096112,1.98332688603907,1.98574345735975,1.89538470363011,1.8954611169525,1.8954324619566,0,1.89464922540208,1.98652669391427,1.9862592472859,1.89499308535284,1.98686100219974,1.89409522881473,1.97741440521892,1.9862783506165,1.99287855133819,0,1.98010797483327,1.98271557945993,1.99199024646537,1.96565630523571,1.96049840597418,1.98199920456249,1.97610582707294,1.97930563494814,1.98425339757308,0,1.96767170661382,1.96094733424324,1.97400446070713,1.96627716348015,1.88667358487731,1.88409463524655,1.88424746189134,1.96956293634304,1.96882745811501,0,1.87943342258058,1.88072289739596,1.88081841404896,1.87912776929101,1.87780963947973,1.87799112112042,1.96762394828732,1.96612433683536,1.87697864459871,0,1.89058976764995,1.79996356729194,1.79719358435519,1.79459553139383,1.79469104804683,1.78824367396992,1.88407553191595,1.78786160735796,1.78600858428993,0,1.78537817438019,1.78285653474122,1.77972358852311,1.83028055295133,1.8284848398751,1.77849142369952,1.77900721362568,1.90436326901128,1.90965489158699,0,1.77530116748962,1.77605574904825,1.77577875075458,1.77676257228038,1.77533937415082,1.77478537756347,1.84585931905419,1.77634229900722,1.88172582225237,0,1.83830395180259,1.83717685529729,1.82636437017869,1.8241961421558,1.99294541299528,1.77575009575868,1.77730701720243,1.77757446383081,1.98245768449685,0,1.87845915272007,1.77703001890876,1.82822694491202,1.82758698333698
1.79183510012239,1.90442057900307,1.78927525382223,1.79270430166461,1.79415615479008,1.7906697969559,1.89674104010258,1.79146258517572,0,1.79210254675077,1.91462175754253,1.7927616116564,1.95930444781179,1.79656317444545,1.79684972440443,1.95586584830411,1.95335376033044,1.92397283787036,0,2.02906025949124,2.02646220652988,2.02957604941739,2.02922263780132,2.03034973430662,2.02860177955688,1.91349466103723,1.84030024985011,1.95036408909182,0,1.90917730832203,1.9094925132769,1.90440147567247,2.02976708272337,1.90138314943795,2.03281406395379,1.89810692824036,1.89704669339215,1.89676014343318,0,1.89620614684583,1.89701803839626,1.8943435721125,1.82084350763581,1.89305409729712,1.89349347390088,1.89184103580414,1.89069483596824,1.81779652640539,0,1.94471905490004,1.8879439563621,1.89075214596004,1.89094317926602,1.89131569421268,1.89083811094773,1.89062797431115,2.02392146356031,1.8933310955908,0,1.93950384564673,2.01691054123076,1.89682700509027,1.93905491737767,2.02792361132064,1.90338899915077,1.93472801299717,1.90988413155417,2.02602282992612,0,2.01833373936033,2.02053062237913,1.9819227912401,1.98326002438198,1.98986022510367,1.9980937605915,1.9786561217078,1.9851225991153,1.97605806874644,0,1.97636372203601,1.97388984072354,1.97694637361926,1.90030381125915,1.90033246625505,1.90021784627146,2.00294600656345,1.99976530201885,1.89777261995489,0,2.01037720216617,1.96827346152766,1.96919042139638,1.97167385437415,1.98066197142062,1.98928712518572,1.99558167261784,1.89787768827318,1.98684189886914,0,1.97730933690063,1.96652550677792,1.992744828024,1.99450233443904,1.98040407645754,1.97820719343874,1.97876119002609,1.97768185184729,1.98147386297104,0,1.89523187698532,1.99279258635049,1.89481160371216,1.98348926434915,1.8965691101272,1.89487846536925,1.9689802847598,1.98146431130574,1.9808147980654,0,1.98807406369273,1.98143565630984,1.97295377752423,1.96720367501416,1.98108224469378,1.97825495176524,1.98019393982096,1.98290661276591,1.98510349578471,0,1.98375671097753,1.97601986208525,1.88758099308073,1.88648255157133,1.88538411006193,1.88640613824894,1.88310126205544,1.96908535307809,1.88235623216211,0,1.88092348236725,1.88242309381921,1.87881256433614,1.8771410229088,1.87521158651837,1.95123329063404,1.87854511770777,1.96434772708973,1.96645864512083,0,1.91192818792818,1.79752789264066,1.79564621457674,1.79463373805503,1.79109962189436,1.78915108217334,1.78938032214052,2.01044406382326,1.78566472433916,0,1.78485283278874,1.78367797795694,1.78221657316618,1.90664611701777,1.77884483531559,1.8976102416448,1.84015697487062,1.77615126570124,1.77616081736654,0,1.77602709405235,1.99229589975494,1.77470896424107,1.77364872939287,1.90488861060273,1.87324394346676,1.77569278576688,1.82354662891546,1.77491910087766,0,1.87981548919255,1.99002260341375,1.98522766743359,1.83806516017011,1.77757446383081,1.7755495107874,1.77812846041816,1.77744074051662,1.89782992994668,0,1.86883107409856,1.77853918202602,1.82816963492023,1.82803591160604
1.79322009159076,1.79119513854735,1.79264699167281,1.90325527583658,1.90317886251419,1.98969784679358,1.79207389175487,1.79297174829298,0,1.79426122310837,1.79413705145948,1.79116648355145,1.84160882799608,1.79582769621742,1.84425463928394,1.92912118546659,2.02961425607859,1.95447130517044,0,1.84986146681452,1.91999934510593,1.91972234681226,1.84693865723299,1.84446477592052,1.9527520054166,1.95236993880463,1.91301707777228,1.84017607820122,0,2.02372087858903,1.83669927203234,1.90657925536067,1.90670342700956,1.83090141119577,1.95042139908361,2.02464739012305,1.89955878136582,1.89732369168583,0,1.89615838851934,2.03996826126283,1.89408567714943,1.8933310955908,2.02629027655449,1.94682042126585,1.81952537782453,1.81956358448572,2.0176173644629,0,1.81777742307479,1.8900453227279,1.88991159941371,1.8900644260585,1.8932642339337,1.89146852085747,1.94276096351372,2.01618461466803,1.93996232558108,0,1.82244818740606,2.03882206142693,1.89669328177609,1.90047574123454,1.93686758602417,1.90470712896205,1.8360306554614,1.93313288489221,1.8403575598419,0,2.03737975996677,2.02031093407725,1.99032825670332,2.00148460177269,1.98028945647395,1.97795885014097,1.98616373063291,1.98635476393889,1.9030642425306,0,1.97529393552251,1.90139270110325,1.90127808111966,1.97895222333207,1.97673623698268,1.90069542953642,1.99266841470161,1.97393759905004,1.97392804738474,0,1.90002681296548,1.96828301319296,1.98260095947634,1.99026139504623,1.97800660846746,1.97954442658062,1.89840302986463,1.98381402096932,1.99193293647357,0,1.89680790175968,1.98053779977173,1.99526646766297,1.89746696666532,1.89741920833882,1.98678458887735,1.97686040863157,1.97462531895158,1.97378477240525,0,1.98892416190435,1.98140700131395,1.97665982366029,1.97463487061687,1.98110134802438,1.98340329936146,1.89463967373678,1.89322602727251,1.89336930225199,0,1.98076703973891,1.97989783819669,1.97379432407055,1.97392804738474,1.96446234707332,1.9678627399198,1.98351791934505,1.97730933690063,1.88926208617337,0,1.97349822244628,1.97960173657241,1.97093837614612,1.95315317535916,1.88438118520553,1.97466352561277,1.97566645046918,1.97077599783603,1.88096168902844,0,1.88227981883972,1.8803217274534,1.88008293582092,1.87647240633786,1.87609033972589,1.95003933247165,1.9559613649571,1.95024946910823,1.95146253060122,0,1.80201717533125,1.79651541611896,1.79662048443725,1.79592321287041,1.8403384565113,1.79147213684102,1.79003938704616,1.78769922904787,1.78485283278874,0,1.90723832026631,1.90696132197264,1.99717680072279,1.78120409664447,1.90663656535247,1.77805204709577,1.83954566829148,1.77517699584073,1.98316450772898,0,1.90571960548375,1.77564502744039,1.77467075757988,1.90279679590222,1.77489999754706,1.77485223922056,1.82919166310723,1.77592202573406,1.77473761923697,0,1.82427255547819,1.90268217591863,1.77278907951595,1.77636140233782,1.77701091557816,1.82431076213938,1.84584976738889,1.8284752882098,1.77643781566021,0,1.77649512565201,1.7787397669973,1.86390241480422,1.86171508345072
1.9062640504058,1.90674163367076,1.79144348184513,1.88487787180108,1.79422301644717,1.79352574488033,1.79286667997469,1.79240820004034,0,1.79355439987623,1.79255147501982,1.79342067656204,1.96438593375092,1.7949775980058,1.85686283747877,1.85662404584629,1.95991575439094,1.92595003258728,0,1.85206790149862,1.91998024177533,1.95423251353796,1.95288572873079,1.95328689867335,1.91632195396577,1.91390538264509,1.91262545949501,1.91331317939655,0,1.83781681687233,1.95084167235678,2.02313822700579,1.90641687705059,2.03876475143514,1.94943757755781,2.04251855589769,1.82619244020331,1.82756788000638,0,1.89631121516412,2.02233588712066,2.01950859419212,2.02587000328133,2.02972887606218,1.89149717585337,1.89101004092311,1.89073304262944,1.89059931931525,0,1.89067573263764,1.89098138592722,1.89253830737097,1.89077124929063,1.89097183426192,1.89215624075901,2.02664368817056,2.02910801781773,2.03136221082833,0,1.89462057040618,2.01359611337197,1.89855585650941,1.93863464410451,1.90154552774804,1.90617808541811,1.93732606595853,1.91146015632852,1.91645567727996,0,2.00332807317542,1.85671001083399,1.99938323540688,1.98059510976352,1.9808434530613,1.99391968285579,1.99467426441442,1.98346060935326,1.90311200085709,0,1.90311200085709,1.90316931084889,1.9008387045159,1.97419549401312,1.97726157857413,1.90166014773163,1.97983097653959,1.98719531048521,1.97290601919773,0,1.9700596229386,1.98924891852452,1.89993129631249,1.98112045135497,1.89962564302292,1.98041362812284,1.98965964013238,1.98140700131395,1.98390953762232,0,1.99064346165819,1.98705203550573,1.98644072892658,1.97717561358644,1.98021304315156,1.89677924676378,1.9776245418555,1.98098672804079,1.97963039156831,0,1.89661686845369,1.98555242405376,1.97796840180627,1.98956412347939,1.98877133525957,1.97313525916491,1.98274423445582,1.97823584843464,1.89356033555798,0,1.97336449913209,1.97790154014917,1.97228516095329,1.97261946923876,1.97686040863157,1.9602596143417,1.890016667732,1.89037007934807,1.96955338467774,0,1.96916176640048,1.9700787262692,1.97200816265962,1.97079510116663,1.97335494746679,1.97153057939466,1.96614344016596,1.88090437903665,1.88280516043117,0,1.88061782907767,1.88014979747802,1.87998741916793,1.87836363606708,1.95752783806616,1.95746097640906,1.95102315399746,1.95124284229934,1.97882805168319,0,1.79999222228783,1.79611424617639,1.79598052286221,1.79395556981879,1.79294309329709,1.83790278186003,1.78858753392069,1.83521876391098,1.78471910947455,0,1.78317173969609,1.90720011360511,1.77925555692345,1.78029668844106,1.7787779736585,1.77494775587355,1.82583902858724,1.82479789706964,1.77688674392927,0,1.77564502744039,1.77625633401953,1.77495730753885,1.77358186773578,1.77467075757988,1.77450837926979,1.83085365286928,1.8339006340997,1.77459434425749,0,1.90102018615659,1.90097242783009,1.77542533913851,1.82428210714349,1.77511968584894,1.77468030924518,1.77675302061509,1.89792544659967,1.77809025375696,0,1.77639005733372,1.77537758081201,1.7755017524609,1.77533937415082
1.90663656535247,1.90750576689469,1.79253237168923,1.79158675682461,1.79231268338735,1.85326185966101,1.79450956640614,1.79237954504444,0,1.79151989516752,1.89380867885575,1.79522594130358,1.79460508305913,1.79812964755451,1.95730814976428,1.95800542133111,1.92704847409668,1.92797498563069,0,1.92519545102865,1.95912296617111,1.92312273965874,1.84779830710991,1.91787887540953,1.95578943498172,1.84296516446856,1.91413462261227,1.91205235957707,0,1.91144105299792,1.83728192361558,1.95125239396464,1.95348748364463,2.02601327826082,1.83105423784056,1.90259621093094,1.90052349956103,1.90124942612377,0,1.8274150533616,2.03326299222285,1.95253231711472,1.89639718015181,1.89612973352344,1.82113005759478,1.8187803479312,1.89101004092311,1.89475429372037,0,1.89090497260482,1.81856065962932,1.89012173605029,2.03353999051652,1.89149717585337,1.82076709431341,1.89095273093132,1.82100588594589,1.8943435721125,0,1.89558528860139,1.89730458835523,1.94001008390758,1.93965667229151,1.90223324764957,1.90683715032375,2.02364446526664,1.91052409312921,2.01620371799863,0,1.93694399934656,1.85883048053039,1.99008946507084,2.00215321834363,1.98723351714641,1.98095807304489,1.99255379471802,1.98235261617856,1.99699531908211,0,1.90619718874871,1.90346541247316,1.90284455422872,1.9029878292082,1.9029878292082,1.90102018615659,1.90059036121813,1.98421519091189,1.90158373440923,0,1.99819882890979,1.98380446930403,1.99124521657204,1.90049484456513,1.97960173657241,1.9884370269741,1.9797832182131,1.98864716361068,1.98384267596522,0,1.98418653591599,1.98334598936967,1.99359492623562,1.9819705495666,1.98871402526777,1.89756248331831,1.89715176171044,1.98438712088727,1.97773916183909,0,1.89698938340036,1.97504559222474,1.98884774858196,1.98309764607189,1.98923936685922,1.97717561358644,1.97913370497276,1.97293467419363,1.98023214648216,0,1.97922922162575,1.89270068568106,1.9743292173273,1.97637327370131,1.97886625834438,1.97469218060867,1.97346001578508,1.88997846107081,1.89016949437679,0,1.88844064295765,1.88740906310535,1.98603955898402,1.97788243681857,1.98059510976352,1.88258547212929,1.88160165060348,1.9537740336036,1.88089482737135,0,1.88189775222776,1.95399372190548,1.87880301267084,1.8782299127529,1.87997786750263,1.88046500243289,1.95645805155266,1.95562705667163,1.8771028162476,0,1.79966746566767,1.79812964755451,1.7971649293593,1.85705387078475,1.84195268794685,1.78973373375658,1.78832963895761,1.83420628738927,1.78475731613574,0,1.78301891305131,1.7819777815337,1.78064054839183,1.78033489510225,1.77806159876106,1.77501461753065,1.84166613798788,1.77530116748962,1.90687535698494,0,1.77220642793271,1.77211091127972,1.7754635457997,1.77506237585714,1.77458479259219,1.77488089421646,1.98395729594881,1.77573099242808,1.77497641086945,0,1.90238607429436,1.77683898560278,1.77579785408517,1.82233356742247,1.77585516407697,1.77474717090227,1.77687719226397,1.77525340916312,1.77822397707115,0,1.77652378064791,1.77617036903184,1.89058021598465,1.7766001939703
1.79466239305093,1.79432808476546,1.99971754369235,1.79298129995828,1.89417164213712,1.79226492506085,1.8911819708985,1.90329348249778,0,1.9040767190523,1.79517818297708,1.79619065949879,1.79723179101639,1.7981965092116,1.79918988240271,2.03530704859686,1.92912118546659,2.03288092561088,0,1.95808183465351,1.92306542966695,1.84942209021076,1.92200519481874,1.91780246208713,1.91757322211995,1.91593033568851,1.90933968663212,1.95635298323437,0,1.91047633480271,1.90826990011862,1.8371386486361,1.95424206520326,2.03206903406046,2.02632848321569,1.83047158625731,1.82830335823442,1.90050439623043,0,1.82589633857904,1.82455910543716,1.82442538212297,1.89391374717404,1.89416209047182,1.89363674888037,1.82072888765222,1.89048469933166,1.82005071941598,0,1.94524439649149,1.9451393281732,1.82084350763581,1.94549273978927,1.89058021598465,1.82070023265632,1.94509156984671,1.94368747504774,1.8933501989214,0,1.82294487400161,1.89733324335113,1.94054497716433,1.89895702645198,1.83120706448535,1.90530888387589,1.83637451541217,1.91108764138185,1.91582526737022,0,2.02174368387211,2.01877311596409,1.99044287668691,1.90827945178391,1.98870447360247,1.99549570763014,1.9970335257433,1.99127387156793,1.98985067343837,0,1.90669387534426,1.9019658010212,1.9030260358694,1.90310244919179,1.90108704781368,1.90171745772342,1.9819705495666,1.9873099304688,1.98712844882812,0,2.00323255652243,2.00205770169064,1.90145001109505,1.9937955112069,1.99686159576792,1.89994084797779,1.89880419980719,1.89949191970873,1.98658400390607,0,1.89876599314599,1.9754276588367,1.98926802185512,1.98606821397992,1.97337405079739,1.97753857686781,1.99528557099356,1.9808625563919,1.89772486162839,0,1.89630166349882,1.982973474423,1.89688431508207,1.98050914477583,1.89445819209609,1.9775576801984,1.97313525916491,1.97090016948492,1.97707054526815,0,1.98794034037854,1.97449159563739,1.97038437955877,1.96694578005109,1.98451129253616,1.97562824380798,1.97319256915671,1.88971101444243,1.96625806014955,0,1.88765740640312,1.88729444312176,1.97688906362747,1.8857184183474,1.97894267166678,1.96617209516186,1.97071868784424,1.9667929534063,1.88056051908588,0,1.88184044223596,1.88366481030809,1.88018800413921,1.88082796571425,1.87850691104657,1.87878390934024,1.96338300889452,1.96103329923093,1.96621030182305,0,1.85387316624015,1.79945732903108,1.91428744925706,1.79187330678359,1.78973373375658,1.8436528843701,1.84196223961215,1.78577934432275,1.78578889598805,0,1.78434659452788,1.78225477982738,1.78147154327285,1.77758401549611,1.77633274734192,1.82582947692194,1.85030084341828,1.77820487374055,1.86340572820867,0,1.77355321273988,1.77498596253475,1.77411676099253,1.76966568496314,1.98016528482506,1.90936834162801,1.90806931514733,1.77521520250193,1.77468030924518,0,1.77286549283835,1.77523430583253,1.77539668414261,1.77464210258398,1.88072289739596,1.98755827376658,1.87152464371292,1.77491910087766,1.77535847748141,0,1.82529458366519,1.82404331551101,1.82284935734862,1.85776069401689
1.7960473845193,1.90683715032375,1.79537876794836,1.98052824810643,1.79447135974495,1.79478656469982,1.85864899888971,1.79458597972854,0,1.90387613408102,1.79407974146768,1.79538831961366,1.79596141953161,1.84524801247505,1.85830513893894,2.03360685217362,1.92724905906796,1.93017186864949,0,1.92108823495003,1.92417342284164,1.95618105325898,1.95691653148701,1.91800304705842,1.95501575009249,1.95543602336565,1.95430892686036,1.91389583097979,0,1.910581403121,1.90995099321126,1.90811707347383,2.04278600252607,1.95421341020736,2.03562225355173,1.83029965628193,1.95188280387438,1.95023991744293,0,1.95064108738549,1.89862271816651,1.89743831166942,1.89966384968411,1.82391914386212,1.89498353368754,1.89364630054567,1.94719293621251,1.82058561267273,0,1.94572197975645,1.89236637739559,1.89097183426192,1.89484025870806,1.89391374717404,1.94370657837834,1.94456622825526,1.94373523337423,1.89559484026669,0,1.82190374248401,1.89844123652582,1.82784487830006,1.90273948591043,1.90312155252239,1.90445878566427,1.83540024555166,1.93752665092981,1.91546230408885,0,2.02061658736682,1.93403074143033,1.99529512265886,1.99462650608792,1.98964053680179,1.99531422598946,1.99033780836862,1.99726276571048,1.90236697096376,0,1.90379016909333,1.90600615544273,1.90126852945436,1.90359913578735,1.9019180426947,1.90176521604992,1.9786465700425,1.9797927698784,1.97717561358644,0,1.90053305122633,1.90068587787112,1.982973474423,1.98570525069855,1.90010322628787,1.99108283826195,1.9873672404606,1.99000350008315,1.9905670483358,0,1.97658341033789,1.97616313706473,1.97932473827874,1.99307913630947,1.98279199278232,1.98230485785206,1.97644968702371,1.9949035043816,1.98042317978814,0,1.98364209099394,1.89694162507386,1.98305943941069,1.97994559652318,1.97412863235602,1.97675534031328,1.97392804738474,1.98366119432454,1.98584852567804,0,1.99045242835221,1.97899042999327,1.89420984879832,1.89269113401576,1.89106735091491,1.97253350425107,1.89039873434397,1.9722278509615,1.97357463576867,0,1.88760964807663,1.96615299183126,1.97605806874644,1.96932414471057,1.97475904226576,1.96377462717178,1.96018320101931,1.96295318395606,1.88078020738776,0,1.88129599731391,1.8814106172975,1.87878390934024,1.87720788456589,1.87840184272828,1.87762815783905,1.96866507980493,1.97066137785244,1.97231381594919,0,1.8533287213181,1.8511795966258,1.79619065949879,1.79251326835863,1.9073720435805,1.7906506936253,1.84394898599437,1.84280278615847,1.78429883620139,0,1.78257953644755,1.82922986976843,1.82804546327134,1.8273386400392,1.77889259364209,1.86783770090746,1.85061604837315,1.77508147918774,1.77563547577509,0,1.98662221056727,1.7722255312633,1.77279863118125,1.90702818362973,1.77247387456108,1.77428869096791,1.77478537756347,1.77381110770296,1.7744892759392,0,1.90041843124274,1.77368693605407,1.77464210258398,1.77457524092689,1.88076110405716,1.77398303767834,1.77477582589817,1.82709984840673,1.77516744417543,0,1.82468327708605,1.77436510429031,1.85542053601861,1.83128347780774
1.79675420775143,1.7960760395152,1.79535011295246,1.7970789643716,1.84603124902957,1.84717744886547,1.79591366120511,1.79472925470802,0,1.88149658228519,1.79514952798118,1.79642945113126,1.79790040758733,1.79809144089331,1.9300572486659,1.93032469529427,1.95851165959197,1.92691475078249,0,1.92453638612301,1.92625568587685,1.92691475078249,1.92041006671379,1.91942624518798,1.91838511367038,1.918117667042,1.95398417024019,1.91435431091415,0,1.9106482647781,1.90976951157058,1.90695177030734,1.95267559209421,1.83311739754517,1.90496502392512,2.02988170270696,1.90366599744444,1.95228397381694,0,1.8975815866489,1.95130015229113,1.82250549739785,2.03362595550422,1.95095629234037,1.82168405418213,2.029499636095,2.0230236070222,1.89178372581234,0,1.89386598884755,1.94692548958414,1.8198405827794,1.94581749640944,1.89201296577952,1.82110140259888,1.89358899055387,1.894391330439,1.9430379618074,0,1.94135686871475,1.89692252174327,1.82696612509254,1.90373285910154,1.90360868745265,1.93911222736946,1.90792604016785,1.84109303806993,1.84411136430445,0,2.02276571205912,1.94278961850962,1.99400564784348,1.98676548554675,2.00515244124755,1.98029900813925,2.00282183491457,1.9808530047266,1.90373285910154,0,1.904067167387,1.90368510077504,1.90315975918359,1.90368510077504,1.90389523741162,1.90249114261265,1.90261531426154,1.97616313706473,1.97515066054303,0,1.90102018615659,1.90136404610735,1.98705203550573,1.97609627540764,1.97600075875465,1.90141180443385,1.97947756492353,1.97259081424286,1.97122492610509,0,1.97069003284834,1.97819764177344,1.96968710799193,1.9937859595416,1.97995514818848,1.89748606999591,1.89683655675557,1.97664072032969,1.98984112177307,0,1.9840528126018,1.97876119002609,1.98926802185512,1.98588673233923,1.89615838851934,1.89511725700173,1.97705144193755,1.97785378182268,1.893273785599,0,1.97831226175703,1.97134909775398,1.8921944474202,1.98054735143703,1.96961069466954,1.97609627540764,1.97528438385721,1.96863642480903,1.97422414900901,0,1.97793974681037,1.88774337139081,1.97046079288116,1.88483011347458,1.88450535685441,1.95713621978889,1.96275259898477,1.97253350425107,1.88150613395049,0,1.88025486579631,1.87410359334368,1.88019755580451,1.87842094605888,1.87767591616555,1.8759757197423,1.95095629234037,1.97803526346336,1.97704189027225,0,1.85405464788083,1.80044115055689,1.8479415820894,1.79319143659486,1.79107096689846,1.79003938704616,1.84412091596975,1.84271682117078,1.90507964390871,0,1.78366842629165,1.83009907131065,1.82904838812775,1.82590589024434,1.77797563377337,1.99286899967289,1.77519609917133,1.77298011282193,1.77528206415902,0,1.77412631265783,1.77575009575868,1.77375379771116,1.77218732460211,1.98236216784386,1.86325290156388,1.77364872939287,1.90279679590222,1.77286549283835,0,1.77326666278091,1.90462116397435,1.77258849454467,1.90047574123454,1.77451793093509,1.77482358422466,1.89985488299009,1.77164287968006,1.77405945100073,0,1.86450416971807,1.77415496765373,1.85563067265519,1.87318663347496
1.84572559574,1.90000770963488,1.90944475495041,1.84676672725761,1.84746399882444,1.84797978875059,1.84914509191709,1.90144045942975,0,1.79738461766118,1.7960282811887,1.79620021116409,1.89103869591901,1.79913257241091,1.93063990024915,1.93138493014248,1.95807228298821,1.92810870894488,0,1.92739233404745,1.95951458444837,1.95616194992838,1.9246605577719,1.84749265382034,1.95753738973146,1.84457939590411,1.84451253424702,1.91426834592646,0,1.91126912302254,1.91046678313741,1.95449040850104,1.95363075862412,1.90857555340819,1.83379556578141,1.90965489158699,1.90676073700136,1.8998071246636,0,1.89923402474565,1.82688016010485,1.89626345683763,1.89630166349882,1.95151028892771,1.89757203498361,1.89623480184173,1.94790931110995,1.82122557424777,0,1.94794751777114,1.89457281207968,1.896530903466,1.8209103692929,1.94597987471953,1.8921753440896,2.02956649775209,1.94468084823885,1.89664552344959,0,1.94176759032262,1.94176759032262,1.94332451176637,1.90452564732136,1.83408211574038,2.01899280426597,1.83783592020293,2.02695889312543,2.02314777867109,0,1.93722099764024,1.93447011803409,2.00040526359389,1.91020888817434,1.91014202651724,1.99930682208449,2.00182846172346,1.97994559652318,1.97915280830336,0,1.97969725322541,1.90416268404,1.90378061742803,1.90370420410564,1.9030164842041,1.90674163367076,1.90347496413846,1.90171745772342,1.90100108282599,0,2.00712963596447,1.90140225276855,1.9959828425604,1.98608731731051,1.90113480614018,1.98674638221615,1.99287855133819,1.99898206546432,1.98285885443941,0,1.90037067291625,1.98715710382402,1.99038556669512,1.99697621575151,1.97303974251192,1.98010797483327,1.97692727028866,1.97282960587534,1.98734813713,0,1.89634942182532,1.98059510976352,1.97943935826233,1.97535124551431,1.97831226175703,1.98487425581753,1.97670758198678,1.89368450720687,1.97483545558816,0,1.97036527622817,1.89348392223558,1.8921753440896,1.98004111317617,1.97318301749141,1.89055156098876,1.98252454615394,1.96742336331604,1.9689993880904,0,1.97061361952595,1.97968770156011,1.96858866648253,1.88473459682159,1.88381763695288,1.96164460581008,1.95659177486684,1.97162609604765,1.88118137733032,0,1.87902270097272,1.87700729959461,1.8781726027611,1.8781821544264,1.87759950284315,1.87678761129273,1.9689325264333,1.96656371343912,1.87580378976692,0,1.85103632164631,1.79902750409262,1.79780489093434,1.79452866973674,1.79364991652922,1.79055517697231,1.84261175285249,1.84293650947266,1.78461404115626,0,1.9030260358694,1.87959580089067,1.8274055016963,1.78018206845747,1.87837318773238,1.77785146212448,1.77479492922877,1.77509103085304,1.77358186773578,0,1.7744606209433,1.90370420410564,1.82002206442008,1.8208530593011,1.77350545441339,1.77155691469237,1.77356276440518,1.77353410940928,1.77288459616894,0,1.77176705132895,1.77432689762911,1.77262670120587,1.89877554481129,1.98035631813104,1.77309473280552,1.77389707269065,1.77531071915492,1.98694696718743,0,1.77435555262501,1.77366783272347,1.88982563442602,1.87307201349137
1.79772847761194,1.79515907964648,1.91131688134903,1.79583724788272,1.79512087298529,1.84762637713453,1.79665869109844,1.79687837940032,0,1.84369109103129,1.90775411019246,1.79483432302631,1.79754699597126,1.96555123691741,1.79906571075382,1.93152820512196,1.96004947770512,1.92934087376847,0,1.9256825859589,1.96005902937042,1.92500441772267,1.95784304302103,1.95633387990377,1.84823768371367,1.92040051504849,1.9570980131277,1.91567244072543,0,2.03216455071345,2.03833492649668,2.02964291107448,1.83608796545319,1.90865196673058,1.90466892230085,1.90669387534426,1.90533753887179,1.90321706917538,0,1.90165059606633,1.82773025831647,1.89709445171865,1.89849854651762,1.89833616820753,1.823116803977,1.82249594573255,1.89121062589439,1.82210432745529,0,1.89355078389268,2.04187859432265,1.89228996407319,1.95014440078994,1.82122557424777,1.82268697903853,1.89346481890499,1.89432446878191,1.89752427665711,0,1.89817378989745,1.94283737683612,1.8998166763289,1.90257710760034,1.94044946051134,2.02382594690732,1.9376030642522,1.93958025896912,1.91786932374423,0,2.01922204423315,1.93296095491683,2.0034904514855,1.99553391429134,2.00910683068138,1.99423488781066,2.01385400833504,2.00731111760515,2.00505692459456,0,1.9764878936849,1.98131148466096,1.90498412725572,1.90393344407282,1.90405761572171,1.90398120239931,1.90286365755932,1.99188517814708,1.99630759918057,0,1.97244753926338,1.98235261617856,1.99062435832759,1.98507484078881,1.99332747960724,1.90093422116889,1.98464501585035,1.90065722287522,1.98560018238026,0,2.00951755228925,1.99253469138742,1.98307854274129,1.9797545632172,1.9807956947348,1.98151206963224,1.98623059229,1.98557152738436,1.98173175793412,0,1.98107269302848,1.98072883307771,1.98617328229821,1.96878925145382,1.89503129201404,1.89477339705096,1.96557989191331,1.98348926434915,1.9743387689926,0,1.89553753027489,1.89374181719866,1.97311615583431,1.97550407215909,1.97382297906645,1.8933024405949,1.97302063918132,1.98307854274129,1.97179802602304,0,1.88801081801919,1.98966919179768,1.88527904174364,1.96883700978031,1.971062547795,1.97034617289757,1.95625746658138,1.95242724879643,1.88054141575528,0,1.8792805959358,1.87841139439358,1.87752308952076,1.87787650113683,1.87703595459051,1.87792425946332,1.96581868354579,1.95004888413695,1.95070794904259,0,1.91044767980681,1.79762340929365,1.7981869575463,1.79562711124614,1.79194016844068,1.79051697031111,1.7884824656024,1.84110258973523,1.78569337933506,0,1.78293294806361,1.87945252591118,1.87828722274469,1.77997193182089,1.77821442540585,1.77783235879389,1.99547660429955,1.77472806757167,1.77403079600484,0,1.77469941257578,1.77454658593099,1.86080767524731,1.85797083065347,1.82081485263991,1.7722446345939,1.77398303767834,1.77244521956518,1.77196763630023,0,1.87139092039873,1.87087513047258,1.77195808463493,1.86374958815944,1.7744128626168,1.77468986091048,1.77323800778501,1.77047757651357,1.77208225628382,0,1.77509103085304,1.77303742281373,1.8943435721125,1.76931227334707
1.79863588581536,1.79891288410903,1.79747058264887,1.84416867429625,1.85420747452562,1.84450298258172,1.79690703439622,1.79786220092613,0,1.79732730766938,1.90038977624684,1.79576083456033,1.79808188922801,1.96597151019058,1.96621030182305,1.93684848269357,1.86038740197415,1.85615601424664,0,1.96049840597418,1.85391137290135,1.92445997280062,1.84925971190068,1.92215802146353,2.03284271894969,1.91835645867448,1.95659177486684,1.95747052807436,0,1.95806273132291,1.91344690271074,1.95987754772974,1.90748666356409,1.90804066015144,1.9062353954099,1.90485040394153,1.90375196243213,1.90373285910154,0,1.90023694960206,1.90102018615659,1.95025902077353,1.95247500712292,1.95050736407131,1.89475429372037,1.82161719252503,1.82241953241016,1.89349347390088,0,1.8219610524758,1.94818630940362,1.89168820915935,2.02902205283004,1.89378957552516,1.89098138592722,1.89211803409781,1.94672490461286,1.89846033985642,0,1.89779172328549,2.01583120305196,1.89780127495078,1.94345823508056,1.90692311531144,1.93803288919066,1.93719234264434,1.93938922566314,1.9203432050567,0,1.93774633923169,1.94262724019954,1.91195684292407,1.98395729594881,1.90965489158699,1.9829925777536,1.99425399114126,1.99946920039458,1.97938204827054,0,1.90608256876512,1.90595839711623,1.90403851239111,1.90400030572991,1.90486950727213,1.9798023215437,1.97912415330746,1.97780602349618,1.97410952902542,0,1.98703293217513,1.98635476393889,1.99010856840144,1.90268217591863,1.98654579724487,1.90180342271111,1.98236216784386,1.97667892699089,1.90014143294907,0,1.98415788092009,1.9927257246934,1.99091090828657,1.89854630484412,1.99258244971391,1.98917250520213,1.99669921745783,1.98402415760591,1.97945846159293,0,1.99356627123972,1.98898147189615,1.98273468279053,1.97565689880388,1.98509394411941,2.0024684232985,1.89532739363831,1.98980291511187,1.99670876912313,0,1.89386598884755,1.98685145053444,1.98322181772078,1.96310601060084,1.96902804308629,1.9625138073523,1.96280990897657,1.9732880858097,1.88743771810124,0,1.9732307758179,1.97232336761449,1.97614403373413,1.97582882877926,1.97576196712217,1.8835788453204,1.96664012676151,1.9602787176723,1.95298124538378,0,1.87914687262161,1.87837318773238,1.87851646271187,1.87841139439358,1.87775232948794,1.87691178294162,1.97189354267603,1.9635644905352,1.87662523298264,0,1.85070201336084,1.97697502861516,1.79619065949879,1.99657504580894,1.79256102668512,1.79102320857196,1.79003938704616,1.90931103163622,1.90423909736239,0,1.78387856292823,1.78082203003251,1.77794697877748,1.77835770038534,1.77790877211628,1.90373285910154,1.77622767902363,1.77587426740757,1.77196763630023,0,1.8219706041411,1.82148346921085,1.86462834136695,1.85854393057142,1.77291325116484,1.77432689762911,1.77284638950775,1.77527251249372,1.86998682559976,0,1.87379794005411,1.77069726481545,1.77365828105817,1.77250252955698,1.89679835009438,1.9008673595118,1.7722350829286,1.77112708975391,1.7690448267187,0,1.77316159446262,1.88374122363049,1.77149005303527,1.77139453638228
1.9138576243186,1.91304573276817,1.9851417024459,1.84414957096565,1.84473222254889,1.84584976738889,1.84395853765967,1.79762340929365,0,1.79612379784169,1.79960060401057,1.97172161270064,1.79881736745604,1.96976352131432,1.80212224364954,1.93387791478555,1.93308512656572,1.92800364062659,0,1.9613485041858,1.92753560902693,1.96094733424324,1.96068943928016,2.03230782569294,2.0413914593924,1.91987517345704,1.91782156541773,1.84481818753659,0,1.91359017769022,1.91196639458937,1.91122136469604,1.83965073660977,1.90726697526221,1.90663656535247,1.90699952863383,1.90715235527862,1.83112109949765,0,1.82998445132706,1.90053305122633,1.82834156489561,1.89718996837164,1.8965118001354,1.89637807682122,1.95232218047814,1.82176046750452,1.89475429372037,0,1.89211803409781,1.8943531237778,1.82227625743067,1.89675059176788,1.89342661224379,1.94699235124123,1.95020171078174,1.89562349526259,1.8975911383142,0,1.89771530996309,1.90116346113607,2.02941367110731,1.90256755593504,1.90318841417949,1.90645508371178,1.83793143685592,1.91647478061056,1.91633150563107,0,1.93988591225869,1.91282604446629,1.91219563455655,2.00069181355286,1.99944054539868,1.9094734099463,1.99235320974673,1.99577270592382,1.97945846159293,0,1.90610167209572,1.9819418945707,1.90354182579555,1.90206131767419,1.90400030572991,1.90400985739521,1.97746216354541,1.90333168915897,1.97587658710576,0,1.98683234720385,1.98648848725308,1.99609746254399,1.99294541299528,1.98583897401274,1.98593449066573,1.99469336774502,1.98641207393068,1.98154072462814,0,1.89969250468001,1.98355612600625,1.99064346165819,1.99673742411903,1.9873099304688,1.98810271868863,1.99990857699834,1.99036646336452,1.89617749184993,0,1.98051869644113,1.89801141158736,1.895508875279,1.96655416177382,1.98997484508725,1.98592493900043,1.98745320544829,1.98564794070676,1.89362719721507,0,1.97075689450543,1.97783467849208,1.9764878936849,1.97660251366849,1.96815884154407,1.97074734284013,1.97696547694986,1.97997425151908,1.98285885443941,0,1.97399490904183,1.97279139921414,1.88493518179287,1.88520262842125,1.98055690310233,1.88401822192416,1.8803694857799,1.96837852984595,1.87981548919255,0,1.87865973769136,1.8781917060917,1.87892718431973,1.88062738074297,1.87656792299085,1.87693088627222,1.97270543422645,1.87728429788828,1.97054675786885,0,1.79803413090152,1.79902750409262,1.89416209047182,1.90460206064375,1.79107096689846,1.90719056193982,1.88851705628004,1.78508207275591,1.78470000614395,0,1.78337232466737,1.78207329818669,1.90748666356409,1.77857738868722,1.77866335367491,1.77726881054124,1.77505282419184,1.82354662891546,1.82467372542075,0,1.82266787570794,1.77355321273988,1.77109843475801,1.76937913500417,1.98454949919736,1.77375379771116,1.77489044588176,1.7733908344298,1.77349590274809,0,1.86623302113721,1.90128763278496,1.89958743636172,1.89890926812548,1.77106977976211,1.86142853349175,1.76783176522571,1.77127991639869,1.77004775157511,0,1.77132767472519,1.76930272168177,1.77275087285476,1.77144229470878
1.79964836233707,1.79987760230425,1.79913257241091,1.79967701733296,1.8457638024012,1.79669689775964,1.97897132666267,1.7993236057169,0,1.79532145795657,1.79981074064715,1.80028832391211,1.97134909775398,1.80153959206629,1.80313472017124,1.93517694126623,1.93628493444092,1.96469158704049,0,1.92756426402283,1.92615061755856,1.92596913591788,2.03725558831788,1.96054616430068,1.92041006671379,1.84776010044871,1.84456029257351,1.91700012220201,0,1.91550051075005,1.95963875609726,1.91123091636134,1.91096346973297,1.91091571140647,2.04541271048332,1.90717145860922,1.9062544987405,1.90332213749367,0,1.90287320922461,1.90142135609915,1.89971160801061,1.82617333687271,1.82558113362417,1.89579542523797,1.9537740336036,1.9538122402648,1.89500263701814,0,1.89734279501643,2.03430412374045,2.04258541755479,2.04045539619308,1.95011574579404,1.82146436588025,1.8954324619566,1.82290666734041,1.82473103541255,0,1.89694162507386,1.90278724423692,2.02432263350288,1.90315975918359,1.94229293191407,1.94264634353013,1.94355375173355,1.91686639888782,1.91657029726355,0,2.03024466598833,2.02196337217399,1.91204280791177,1.98702338050983,1.98561928571086,1.99946920039458,2.00227738999252,1.97921966996045,1.97669803032148,0,1.90682759865845,1.9051942638923,1.90475488728854,1.90507009224341,1.90504143724751,1.97985963153549,1.97601986208525,1.90428685568888,1.90384747908512,0,1.90166969939693,1.90384747908512,1.90374241076683,1.90427730402358,1.99357582290502,1.98696607051803,1.9029878292082,1.98290661276591,1.97391849571944,0,1.98219023786848,1.98368984932044,1.98955457181409,1.98734813713,1.8998071246636,1.98241947783565,1.98379491763873,1.8987564414807,1.98245768449685,0,1.9786847767037,1.89635897349062,1.97428145900081,1.98418653591599,1.98509394411941,1.98710934549752,1.98632610894299,1.9873099304688,1.98563838904146,0,1.98598224899222,1.99449278277374,1.97683175363567,1.98655534891017,1.98359433266745,1.88917612118568,1.97010738126509,1.97690816695806,1.88837378130056,0,1.97041303455467,1.97251440092047,1.95684011816462,1.9570980131277,1.96735650165895,1.96577092521929,1.88101899902024,1.8792710442705,1.9657136152275,0,1.95279976374309,1.9537835852689,1.8771410229088,1.87687357628042,1.87755174451666,1.87733205621478,1.95924713782,1.96380328216768,1.96403252213486,0,1.90154552774804,1.99803645059971,1.99773079731014,1.79441404975315,1.79133841352684,1.78913197884274,1.78542593270668,1.78572203433096,1.78501521109882,0,1.89210848243251,1.78162436991763,1.78176764489712,1.77823352873645,1.77840545871183,1.77544444246911,2.00724425594806,1.82392869552742,1.77651422898261,0,1.77567368243629,1.77465165424928,1.90477399061914,1.992744828024,1.77098381477442,1.77282728617715,1.97969725322541,1.77469941257578,1.77267445953236,0,1.77083098812963,1.77154736302707,1.89997905463898,1.96919997306168,1.86135212016936,1.77112708975391,1.77050623150946,1.89572856358088,1.86467609969345,0,1.77094560811322,1.77036295652998,1.76950330665306,1.76982806327323
1.84703417388598,1.79979163731655,1.80053666720988,1.90989368321947,1.9830021294189,1.9051656088964,1.9051465055658,1.7982060608769,0,1.89033187268688,1.80010684227142,1.80084232049946,1.79994446396134,1.80121483544612,1.8024947585962,2.03654876508575,1.93282723160264,2.0424230392447,0,1.92990442202111,1.96114791921452,1.92564437929771,1.92439311114352,1.92397283787036,2.0413245977353,1.91949310684508,1.91841376866628,1.96051750930478,0,1.84305112945625,1.91371434933911,1.91548140741945,1.90978861490117,1.91006561319485,1.90696132197264,1.90681804699315,1.90667477201366,2.05227080616809,0,1.90281589923282,1.90176521604992,1.90039932791214,1.82713805506792,1.8262975085216,1.89925312807625,1.89662642011899,1.95331555366925,1.89999815796958,0,1.89723772669814,1.89569990858498,1.89663597178429,1.95046915741011,1.8230977006464,1.89536560029951,1.89405702215353,1.9008960145077,1.94771827780397,0,1.89826930655044,1.82731953670861,1.90403851239111,1.90395254740341,1.90666522034836,1.90812662513913,1.94231203524467,1.91426834592646,1.84819947705247,0,2.02705440977842,2.02317643366698,2.00234425164961,1.99237231307733,2.00337583150191,1.99806510559561,1.99070077164999,1.98339374769616,1.90885255170186,0,1.90681804699315,1.90598705211213,1.90485995560683,1.97625865371772,1.9051656088964,1.90345586080786,1.97639237703191,1.98599180065752,1.90384747908512,0,1.98693741552214,1.90437282067658,1.90477399061914,1.9041435807094,1.9019466976906,1.9884561303047,1.90381882408923,1.9019753526865,1.90144045942975,0,1.90100108282599,1.90093422116889,1.98432981089548,1.90030381125915,1.9700118646121,1.98663176223256,1.97065182618714,1.96961069466954,1.97695592528456,0,1.89709445171865,1.98679414054265,1.9819418945707,1.98228575452147,1.89492622369575,1.97894267166678,1.98906743688384,1.96636312846784,1.98091986638369,0,1.89375136886396,1.97718516525174,1.9830403360801,1.89188879413063,1.9786752250384,1.98047093811463,1.97346956745038,1.97597210375875,1.97742395688422,0,1.96628671514545,1.97691771862336,1.95750873473556,1.97507424722063,1.95612374326719,1.96937190303706,1.97850329506302,1.95317227868976,1.97227560928799,0,1.87876480600965,1.87716967790469,1.87695954126811,1.87737981454127,1.87623361470538,1.87689267961102,1.95325824367745,1.94780424279166,1.96772901660561,0,1.90468802563145,1.90444923399897,1.84417822596155,1.84168524131848,1.7917013768082,1.90697087363794,1.78867349890838,1.83611662044909,1.83459790566653,0,1.88434297854433,1.78183450655422,1.89903343977437,1.77905497195217,1.77776549713679,1.77571188909748,1.77745984384722,1.77689629559457,1.77485223922056,0,1.98554287238846,1.77515789251013,1.8900930810544,1.77276042452005,1.77250252955698,1.77182436132074,1.86166732512423,1.77236880624279,1.9819036879095,0,1.99344209959083,1.90105839281778,1.77138498471698,1.77104112476621,1.7712226064069,1.76877738009032,1.96971576298783,1.77211091127972,1.77160467301886,0,1.77159512135356,1.77166198301066,1.77070681648075,1.76986626993442
1.7992662957251,1.79790995925263,1.7981965092116,1.89208937910191,1.80073725218117,1.98053779977173,1.79871229913775,1.79921853739861,0,1.79772847761194,1.97599120708935,1.89304454563182,1.80074680384647,1.80210314031894,1.93360091649187,1.93487128797665,1.86233594169517,1.93069721024094,0,1.96305825227435,1.93128941348949,2.03977722795685,1.92479428108609,1.92407790618865,1.96163505414478,1.92287439636096,1.95969606608906,2.03287137394559,0,1.91469817086492,1.8425353395301,1.84061545480498,1.91368569434321,1.83831350346789,1.95728904643368,2.03003452935175,1.95683056649932,2.04171621601257,0,1.904067167387,2.0381152381948,1.95284752206959,1.89988353798599,2.04628191202554,1.89951102303933,1.89816423823215,1.8965691101272,1.8975911383142,0,1.89568080525438,1.89228996407319,1.89410478048003,1.89417164213712,1.89399971216174,1.82446358878417,1.89553753027489,1.94552139478517,1.89883285480309,0,1.82700433175374,1.90318841417949,1.90347496413846,1.83093006619167,1.90802155682084,1.90882389670596,1.91326542107005,1.91346600604133,1.8479415820894,0,1.93922684735305,1.91295976778048,1.99985126700654,1.91301707777228,1.99357582290502,1.99468381607972,1.99293586132998,1.99720545571869,1.90772545519657,0,1.90711414861742,1.90470712896205,1.90649329037298,1.90689446031554,1.90533753887179,1.90542350385948,1.90645508371178,1.99893430713783,1.9041435807094,0,2.00259259494739,1.90353227413025,1.99128342323323,1.98280154444762,1.90336034415487,1.98545690740077,1.9808625563919,1.90373285910154,2.00007095530842,0,1.90354182579555,1.98382357263462,1.9019466976906,1.97036527622817,1.96997365795091,1.89838392653403,1.96984948630202,1.97120582277449,1.99097776994366,0,1.89501218868344,1.8965691101272,1.98935398684281,1.98326957604728,1.98465456751565,1.98427250090368,1.98399550261001,1.89476384538567,1.96706040003468,0,1.98448263754026,1.98289706110061,1.97899042999327,1.97846508840182,1.97930563494814,1.97746216354541,1.96017364935401,1.88643479324484,1.88544142005373,0,1.97211323097791,1.96797735990339,1.97134909775398,1.97613448206884,1.95002978080635,1.88110496400793,1.96600971685177,1.95374537860771,1.95701204814,0,1.95568436666343,1.8781439477652,1.87721743623119,1.87551723980795,1.87691178294162,1.87660612965205,1.87484862323701,1.95747052807436,1.9570693581318,0,1.80206493365774,1.80172107370698,1.79755654763656,1.7950062530017,1.789619113773,1.79042145365812,1.83761623190105,1.83503728227029,1.83394839242619,0,1.83225774766825,1.78073606504482,1.7808888916896,1.82832246156501,1.82765384499408,1.82424390048229,1.77435555262501,1.8867882048609,1.77478537756347,0,1.7744224142821,1.82283025401802,1.77480448089407,1.77369648771937,1.7723019445857,1.77192942963903,1.98688010553034,1.98598224899222,1.77246432289578,0,1.77164287968006,1.77076412647254,1.89702759006156,1.86249832000525,1.86123750018577,1.76975164995083,1.81666942990009,1.81811173136026,1.8176723547565,0,1.77131812305989,1.98755827376658,1.89604376853575,1.77145184637408
