1.90690125691109,2.04429074410642,1.8571794385885,1.95004464372562,1.95103236740686,1.85323813341385,1.85242302163807,1.92480494732735,1.96370975290782,1.84532675441363,1.84287182953598,1.84168272529838,2.03150787355213,1.83687836059642,1.83684000239521,1.83412615965938,2.03795205135594,1.82901492934772,1.87309809209197,1.87275286828106,1.82385575128455,1.94372513007575,1.94138527980175,1.93413557977246,1.82239813963845,1.87299260703864,1.87438309183262,1.91107271129303,1.99132765778132,1.99184549349769,1.88258215734193,1.988661762797,1.94817468141648,1.94494300296427,1.94714859953403,1.94209490652419,1.98505609188296,1.86393048200202,2.07522663338486,1.92862158834806,1.97778721275306,1.97809407836277,1.97454594475055,1.97466101935419,1.91804431436352,1.97074848283044,1.9153592402786,1.91781416515625,1.91501401646768,1.96778531178672,1.91816897851747,1.92202397773939,1.85093664134106,1.92748043186197,1.85931790830614,2.04750324345803,2.02281974097734,2.01546455589471,2.01634679452262,2.00123366324462,2.00083090213188,1.9994404173379,1.99529773160688,1.99493332869535,1.99140437418374,2.01319183247283,2.01236713114675,2.01480287692378,2.00772578879995,2.01020948232851,2.00739015453934,1.99030157589886,2.00104187223855,1.91253991248943,1.91063159197908,1.90862737596569,1.90794651789415,1.90781226418991,1.98444236066355,1.90485868269649,2.0046571327029,1.99197015765164,1.89988170608908,1.98911247166125,1.98668631543452,1.98881519560185,1.99038788185159,1.97465142980388,1.88812491741724,1.88508502997109,1.88455760470441,1.88349316462075,1.88035738167157,1.95796561227615,1.95846426889192,1.85880007258976,1.80485885213372,1.9174018144932,1.80041889034329,1.79611318225711,2.01058347479033,1.83790444247888,1.83586186826427,1.78602497533804,1.78380978921798,1.82875601148953,1.77606143257292,1.87399950982048,1.77620527582747,1.77508329844198,1.77414352251226,1.77294482872435,1.90215442951096,1.90099409392426,1.77314620928072,1.7707584112552,1.81893631197896,1.77162147078249,1.80353549419186,1.85319018566233,1.67975357887691,1.80483008348281,1.67548622899195,1.67318473691915,1.80217377804879,1.66849544682084,1.66534048477106,1.66627067115048,1.80762064262107,1.66263623158553,1.66275130618917,1.79998736057964,1.66239649282795,1.66241567192855,1.71024834884139,1.66203208991642,1.66265541068613,1.6619841421649,1.66091970208124,1.66391164177587,1.66301022404736,1.78888266132843,1.66392123132617,1.78520986356226,1.66600216374199,1.66668302181352,1.78463449054406,1.66906123028874,1.77709710400567,1.66960783465602
1.85961518436554,1.85585608064665,1.85614376715575,1.94901856184317,1.97130467674803,1.85316141701142,1.89804051243085,1.92375968634429,1.8947129384756,1.8941279759071,1.84595007518334,1.95726557510401,2.04041656578389,1.83647559948369,1.83870037515405,1.9514255389693,1.82931220540712,1.82842996677922,1.90781226418991,1.82262828884573,1.8219857889754,1.82075832653658,1.91553185218406,1.81954045364806,1.82070078923476,1.82620519110885,1.87435432318171,1.87448857688595,1.96137949218412,1.88492200761594,1.88252462004011,1.87973406090186,1.87460365148959,2.06386301627545,1.94274699594482,1.94011945916171,1.93591923612887,1.93677270610586,1.93264919947544,1.855424550883,1.92564882775404,1.92265688805941,1.84981466395557,1.92135270921816,2.05883809191652,1.91688397877683,1.91607845655135,1.84526921711181,1.84338007570206,1.84221974011536,1.91619353115499,1.92141024651998,1.85139693975561,1.96000818649075,1.85889596809279,2.04717719874771,2.0337614178734,1.92947505832505,2.02108403237244,1.92455561901946,2.00097474538643,1.92143901517089,1.92161162707635,1.92090200035391,2.01086157174913,2.01461108591772,1.92092117945451,2.00685313972235,1.91770868010291,1.91615517295378,2.02168817404155,1.9144770016507,1.99552788081416,1.99094407576918,1.98645616622724,2.01466862321954,2.00444616259623,1.90790815969294,1.90536692886257,1.98741512125757,1.98857545684427,1.90329558599705,1.98882478515215,1.90041872090607,1.8967459231399,1.97903385429249,1.8932553268295,1.98085586885012,1.96609755093334,1.96135072353321,1.88239995588617,1.88331096316499,1.87825727015515,1.98508486053387,1.95192419558507,1.81488952175097,1.80798504553259,2.00365022992105,1.7995654203663,1.79624743596136,1.91271252439489,1.89853916904662,1.90801364474628,1.90870409236811,1.78021370785425,1.77932187967604,1.77660803694021,1.77773960387599,1.77646419368566,1.82473798991245,1.82235978143723,1.77365445544679,1.98357930113625,1.77298318692556,1.98122986131194,1.77176531403704,1.77326128388436,1.77171736628552,1.68637995813649,1.68501824199342,1.77796016353297,1.78935254929329,1.6727436176052,1.8079946350829,1.66957906600511,1.80838780664533,1.80932758257505,1.66405548503042,1.66128410499276,1.66145671689822,1.80200116614333,1.66062242602184,1.66136082139519,1.79708172683774,1.66216634362067,1.66060324692123,1.79560493609104,1.65811955339268,1.65982649334666,1.6622526495734,1.66338421650919,1.66231018687522,1.78759766158778,1.66340339560979,1.78786616899628,1.76179218172161,1.78516191581075,1.78168090905065,1.7774710964675,1.66730634258323
1.91082338298514,1.86003712457888,1.90396685451829,1.85415873024296,2.04661141527982,1.85211615602836,1.8525285066914,1.89548969205017,1.89374439389497,1.89268954336161,1.96213706665808,1.84296772503902,1.84013880769954,1.83560295040609,1.88369454517712,1.88148894860736,1.95074468089777,1.82670384772463,1.82540925843368,1.82274336344936,1.82187071437176,1.82377903488212,1.92074856754905,1.82042269227597,1.81971306555352,1.82445989295365,1.82570653449308,1.9648125511927,1.96110139522533,2.07117984315686,1.95780258992099,1.88123962029947,1.94936378565409,1.87311727119258,1.94262233179087,1.93966875029746,1.93416434842337,1.98171892837741,1.85877130393885,1.93037647605356,1.92603240976617,1.8504955220271,1.92113214956119,1.91924300815144,1.9188594261393,1.84230604606809,1.91654834451621,1.91427562109433,1.91439069569797,1.91762237415018,1.91417013604099,1.91924300815144,1.92151573157332,1.92899558080989,1.93403968426942,2.03794246180564,1.93081759536751,2.01786194347054,2.00785045295389,2.00737097543873,1.92444054441582,1.92260894030789,1.92227330604728,2.00255702118648,2.01665366013232,2.00744769184116,1.9197224856666,2.00184739446403,2.00369817767257,1.9179867770617,1.91638532216105,1.91445782255009,1.99411821691957,1.91188782306881,1.98775075551819,1.98868094189761,1.98395329359808,1.99450179893171,1.99792526838998,1.90317092184311,1.99074269521281,1.98563146490116,1.99287157538015,1.89898028836057,1.89763775131811,1.99021526994613,1.9802421376307,1.9877795241691,1.95482023977667,1.95701624679612,1.88532476872868,1.88405894808864,1.88064506818067,1.88078891143522,1.9639303125648,1.90825338350386,1.80828232159199,1.90787939104203,1.79909553240144,2.00415847608713,1.79542273463527,1.89758021401629,1.7882305719078,1.78567975152712,1.78360840866161,1.77948490203119,1.77858348430269,1.77706833535476,1.88635085061113,1.82365437072818,1.77525591034744,1.77528467899835,1.77554359685654,1.77539975360199,1.89805969153145,1.87157335359375,1.77358732859467,1.77004878453275,1.68646626408922,1.79685157763046,1.7780368799354,1.67705891524169,1.67429712475434,1.67080652844394,1.66922425264389,1.80621097872648,1.66538843252257,1.66289514944372,1.85172298446593,1.6599415679503,1.65928947852968,1.6596347023406,1.80202993479424,1.65927988897937,1.6587812323636,1.66210880631885,1.65884835921573,1.79542273463527,1.66066078422305,1.66242526147886,1.78894019863025,1.66235813462673,1.78758807203748,1.66217593317097,1.66324996280494,1.66334585830797,1.66275130618917,1.79726392829351,1.66618436519775,1.78004109594879
1.85929872920553,1.85839731147702,2.04981432508112,1.96467829748845,1.85272988724777,1.96824561020128,1.84891324622706,1.89494308768288,1.89396495355195,1.8920758121422,1.9610246788229,1.93773166113619,1.88600562680021,1.88516174637352,2.10789823126819,1.8801655906655,1.82978209337198,1.82709701928706,1.94102087689022,1.82444071385305,1.82124739360205,1.86942529432581,1.93120117737965,1.86901294366277,1.81895549107956,1.92765304376743,1.9275667378147,1.82656000447008,1.96108221612472,1.96109180567502,1.88155607545948,1.87963816539882,1.98504650233266,1.94623759225522,1.98439441291203,1.86581962341177,1.93476849009247,1.93232315476513,1.93143132658693,2.05718868926435,1.92632009627527,1.85184764861987,1.84908585813252,1.97446922834812,1.9159442028471,2.05754350262558,1.91630860575863,1.9141797255913,1.84333212795054,1.91553185218406,2.05802298014074,1.92216782099394,1.92415285790672,1.93059703571054,1.95881908225314,2.04173033417544,2.02151556213609,1.92897640170928,2.02079634586334,1.99759922367967,1.92414326835642,1.92185136583393,1.92084446305209,1.9208828212533,2.02748026242474,2.02043194295182,2.00481056550775,2.0069969829769,2.00726549038539,1.91705659068228,2.01685504068869,2.00484892370896,1.99644847764328,2.00108023043977,1.91121655454758,1.91108230084333,1.90757252543232,1.90738073442626,1.90561625717045,1.99645806719358,2.00345843891499,1.98882478515215,1.99539362710991,1.89869260185147,1.89745554986235,1.89431976691317,1.89200868529007,1.97911057069492,1.8871467832863,1.8853823060305,1.88242872453708,1.88261092599284,1.88188212016979,1.87946555349336,1.9613315444326,1.90729442847353,1.80847411259806,1.8033628822864,1.79855851758445,1.79778176400988,1.79204721292851,1.78904568368358,1.7887963553757,1.87801753139757,1.78266863273189,1.78130691658882,1.77926434237422,1.77916844687119,1.77603266392201,1.77778755162751,1.77612855942504,1.77621486537777,1.89843368399328,1.77564908190988,1.77635870863232,1.77482438058379,1.77598471617049,1.77443120902136,1.68395380190976,1.67983988482964,1.67701096749017,1.77740396961538,1.6727436176052,1.67047089418332,1.66665425316261,1.80779325452653,1.66334585830797,1.66117861993943,1.80461911337613,1.80503146403918,1.80129153942089,1.65895384426906,1.65748664307266,1.65724690431508,1.65717977746295,1.79604605540499,1.65747705352235,1.79204721292851,1.65811955339268,1.65927988897937,1.78827851965932,1.75171356435285,1.66123615724125,1.66231977642552,1.66279925394068,1.77883281261057,1.66406507458072,1.66620354429835,1.66597339509108,1.66654876810927
1.98152713737135,1.8586274606843,1.85886719944188,1.8560191030018,1.85450395405388,1.84912421633373,1.96693184180973,1.8472926122258,1.84819402995431,1.8923826777519,1.84253619527537,1.9578313585719,1.95386128474634,1.88380003023045,1.88382879888136,1.95099400920565,1.82748060129919,1.82686687007978,1.82557228078884,1.82132411000448,1.82031720722263,1.82086381158992,1.82185153527116,1.8214008264069,1.8231461245621,1.82393246768697,1.91571405363982,1.96433307367754,1.96472624523997,1.95778341082038,1.95558740380093,1.95070632269655,1.9511474420105,1.94708147268191,1.94433886129516,1.94464572690487,1.93565072872038,1.98304228631927,1.93199711005482,2.06697962012402,1.92490084283038,1.92289662681699,1.91934849320477,1.91908957534658,1.91713330708471,2.05661331624616,1.97081560968256,1.9130385691052,1.91765114280109,1.91574282229073,1.9173826353926,1.91828405312111,1.96255900687143,1.96090001466896,2.04798272097319,1.95820535103373,1.93098061772267,2.00121448414401,2.00864638562907,2.0014542229016,1.9226377089588,1.92341446253337,1.92077733619996,1.91915670219871,2.01400694424861,1.99123176227828,1.9921619486577,2.01142735521702,2.00666134871629,2.00133914829796,2.00300773005073,2.00369817767257,2.01694134664142,1.98427933830839,1.99830885040212,1.90963427874753,1.99178795619587,1.98491224862841,1.99101120262131,2.00092679763492,1.99676493280328,1.99631422393903,1.981105197158,1.89816517658479,1.89637193067807,1.89328409548041,1.89110726756156,1.97735568298941,1.95800397047736,1.88476857481109,1.88164238141221,1.88070260548249,1.88064506818067,1.87945596394306,1.96594411812849,1.81286612663697,1.85625884175939,1.85178052176775,1.90160782514367,1.89734047525871,1.79527889138072,1.9106987188312,1.78650445285321,1.78609210219017,1.78193982690884,1.99685123875601,1.77904378271724,1.77705874580446,1.9019722280552,1.7765984473899,1.77648337278626,1.98979332973279,1.85207779782715,1.83144108557445,1.77710669355598,1.7751312461935,1.77577374606382,1.77525591034744,1.68411682426491,1.80313273307912,1.67694384063805,1.67437384115676,1.80740967251439,1.66810227525841,1.667804999199,1.66362395526677,1.66004705300364,1.65933742628119,1.65943332178423,1.65734279981811,1.65652768804233,1.65743869532114,1.65574134491746,1.79704336863653,1.65401522586286,1.65685373275264,1.65683455365203,1.65807160564116,1.65759212812599,1.65918399347634,1.78836482561205,1.78808672865325,1.66046899321698,1.66039227681456,1.78274534913432,1.71243476631055,1.6634321642607,1.78160419264822,1.7835604609101,1.78045344661183
2.04647716157557,1.85562593143937,1.85520399122602,1.85544372998361,1.90191469075338,1.84952697744647,1.96441937963027,1.84955574609738,1.92697218569589,1.89068532734822,1.84194164315656,1.88770297720389,1.83569884590912,1.83484537593212,1.83482619683152,1.8301081380823,1.93806729539681,1.87445980823504,1.8243064601488,1.82307899770998,1.82194743077419,1.8199336252105,1.81915687163593,1.8688211526567,1.82124739360205,1.82263787839603,1.82565858674157,1.92434464891279,1.88820163381967,1.95805191822888,1.9557887843573,1.98514239783569,1.95193378513537,1.87208159975982,1.9453074058758,1.94079072768294,1.8638633551499,1.93263002037484,2.06841805266952,1.93140255793602,1.92518852933948,1.85133940245379,2.06419865053606,1.84627611989365,1.91868681423385,1.97089232608499,1.91562774768709,1.91428521064463,1.91558938948588,1.9162414789065,1.91772785920352,1.91597297149801,1.84819402995431,1.85235589478594,1.960458895355,1.9581286346313,2.00101310358765,2.00096515583613,1.99753209682755,1.99724441031845,1.99377299310866,1.92225412694667,1.92177464943151,1.92257058210668,2.00644078905931,2.01001769132244,1.99834720860333,1.99068515791099,1.99761840278028,2.00546265492837,2.01038209423396,1.99807870119484,1.91401670323614,1.9109864053403,1.9942045228723,1.98678221093755,2.00050485742157,1.98729045710363,1.90485868269649,1.98754937496182,1.9022695041146,1.97165949010925,1.97358698972022,1.98383821899444,1.89538420699683,1.89385946849861,1.89242103595312,1.88929484255424,1.96865796086432,1.88437540324865,1.88214103802798,1.87931212068851,1.87814219555151,1.87852577756364,1.87905320283032,1.86099607960921,1.85535742403088,1.8036409792452,1.90299830993765,1.89758980356659,1.84248824752385,1.79099236239515,1.98814392708062,1.78550713962167,1.83148903332597,1.78039590931001,1.99478948544081,1.7783341559948,1.77781632027842,1.90524226470862,1.77676146974506,1.82616683290764,1.77618609672686,1.82476675856336,1.89461704297257,1.77800811128449,1.96752639392853,1.7760134848214,1.6826304439679,1.6785452955387,1.6756588408974,1.80808094103562,1.71873510085981,1.66856257367297,1.77590799976807,1.80740967251439,1.65932783673089,1.65953880683756,1.65809078474177,1.80197239749243,1.80011202473359,1.65606738962777,1.65604821052716,1.65484951673925,1.65601944187625,1.65699757600719,1.6564317925393,1.65543447930775,1.65649891939142,1.65667153129688,1.65875246371269,1.66026761266061,1.65995115750061,1.78452900549073,1.78324400575009,1.7652444198308,1.66244444057946,1.66068955287396,1.6628567912425,1.66352805976373
1.85756302060063,1.9686004235625,1.85532865537997,1.95036109888563,1.9508597555014,1.9005146164091,1.89874054960299,1.84828033590704,1.89097301385732,1.89683222909263,1.888307118873,1.83899765121345,1.83492209233455,1.8359385846667,1.95762997801553,1.82856422048347,1.93680147475677,1.82548597483611,1.82305022905907,1.94438680904668,1.8205281773293,1.82076791608689,1.81983772970747,1.93522878850703,1.87105551787737,1.82436399745062,1.92529401439282,1.82848750408104,1.96023833569803,1.95844508979131,1.95919307471497,1.9523077775972,1.95039945708685,1.87281999513318,1.98365601753868,1.98383821899444,1.93679188520647,1.86109197511225,1.92950382697596,1.92878461070322,1.92740371545954,1.92462274587159,1.97453635520024,1.92004853037691,1.91755524729806,1.91806349346413,2.06214648677116,1.96444814828118,1.84295813548871,1.91802513526292,1.91665382956955,1.84734055997732,1.92158285842544,1.93113405052752,1.933962967867,2.0477333926653,2.01460149636742,2.02688571030594,2.0014542229016,1.9982513131003,1.92153491067392,1.99555664946507,1.92278155221335,1.91930054545326,2.01337403392859,2.0066997069175,1.91836076952353,1.91897450074294,1.91787170245806,1.99760881322997,2.00963410931031,1.99440590342867,2.00130079009674,1.99501004509778,1.90912603258146,1.9979828056918,1.98810556887941,1.98523829333872,1.98525747243933,1.90513677965529,1.99225784416074,1.98767403911576,1.96767982673339,1.89771446772054,1.98262034610592,1.89341834918466,1.97490075811177,1.97420072093963,1.97536105652633,1.96847575940856,1.88169991871403,1.88125879940008,1.88172868736494,1.9650906481515,1.96601124498061,1.86057413939587,1.89846245264419,1.80537668785009,1.8018860915397,1.84779126884157,1.84176903125111,1.83968809883529,1.78834564651144,1.83460563717454,1.78508519940832,1.78256314767855,1.90728483892323,1.78201654331127,1.77866020070511,1.90304625768917,1.77736561141417,1.82535172113186,1.7789287081136,1.77872732755723,1.77544770135351,1.89317861042708,1.77493945518743,1.89252652100645,1.80956732133264,1.67649313177379,1.67481496047071,1.80564519525859,1.66933932724753,1.66626108160017,1.66519664151651,1.65950044863635,1.80462870292644,1.65881959056482,1.80370810609732,1.65755376992478,1.65535776290533,1.65378507665559,1.74972852744007,1.6552810465029,1.79457885420858,1.65416865866772,1.65588518817201,1.79526930183042,1.6555591434617,1.65752500127387,1.65684414320234,1.6564317925393,1.70635499141826,1.7859099007344,1.70952913256865,1.77239822435706,1.66006623210424,1.66086216477942,1.65958675458908,1.66250197788128
1.90631629434259,1.85821511002126,1.85817675182005,1.90205853400793,1.96520572275514,1.96813053559764,1.8478583956937,1.84920093273616,1.84569115732515,1.842334814719,1.84099227767654,1.8365043681346,1.83705097250188,1.95598057536336,1.83210276454538,1.82832448172588,1.9194156200569,1.92015401543025,1.82271459479846,1.82355847522515,1.82184194572086,1.82499690777064,1.82135287865539,1.93463423638823,1.93178613994815,1.87360633825805,1.87514066630658,1.8280943325186,1.9610150892726,1.95819576148343,1.95435994136211,1.98454784571689,1.94872128578377,1.94777192030374,1.94424296579213,2.07052775373624,1.940666063529,1.93612061668524,2.05301723488242,2.06054503187051,1.92599405156496,1.92193767178666,1.92065267204602,1.84560485137242,1.91713330708471,1.91602091924953,1.91620312070529,1.96896482647403,1.91668259822046,1.91498524781677,1.91573323274043,1.91645244901318,1.92185136583393,1.9589916941586,2.03831645426747,2.0424687295488,2.0186291074948,2.01790030167175,1.92485289507886,1.99829926085181,1.99616079113418,1.92155408977453,1.92054718699268,2.01025743008002,2.00818608721451,1.99103997127222,1.99096325486979,1.99051254600554,2.00659422186416,1.91433315839615,2.01153284027036,1.99956508149185,1.99637176124085,2.00073500662885,2.00045690967005,1.99311131413773,1.99411821691957,1.99169206069284,1.90447510068436,1.90332435464796,1.98202579398712,1.97719266063426,1.98209292083924,1.97662687716636,1.98154631647195,1.89523077419198,1.89180730473371,1.99088653846736,1.98089422705133,1.96198363385323,1.88125879940008,1.88144100085584,1.87959021764731,1.87672294210662,1.87834357610788,1.81400728312306,1.80955773178233,1.805089001341,1.80200116614333,1.86464969827477,1.84170190439898,1.83980317343893,1.83834556179283,1.78628389319623,1.78455777414164,1.9083780476578,1.78054934211486,1.77974381988938,1.77888076036209,1.90421618282617,1.77808482768691,1.8263394448131,1.82738470579616,1.77826702914268,1.77840128284692,1.7760038952711,1.77845882014874,1.77726012636083,1.67963850427327,1.67515059473133,1.78172885680217,1.67027910317726,1.66905164073843,1.7853249381659,1.80612467277375,1.80440814326946,1.6596442918909,1.65838806080117,1.80113810661604,1.80260530781244,1.80193403929121,1.7957967270971,1.79852015938324,1.70627827501583,1.65339190509315,1.65524268830169,1.65320011408708,1.88600562680021,1.65624959108353,1.78973613130542,1.65612492692959,1.65671947904839,1.70553029009217,1.6561632851308,1.66043063501577,1.65901138157088,1.66054570961941,1.66010459030546,1.66286638079281,1.71003737873472
1.90570256312318,1.90758211498263,1.8557314164927,1.85555880458725,1.90055297461031,1.85128186515197,1.85073526078469,1.84591171698213,1.84542264991666,1.84103063587775,1.84163477754686,1.95039945708685,2.02773918028293,1.83508511468971,1.83161369747991,1.8274997803998,1.94012904871202,1.94155789170721,2.02072921901122,1.82113231899841,1.82151590101054,1.82347216927242,1.81985690880807,1.82239813963845,1.82044187137657,1.87261861457681,1.82696276558282,1.82831489217558,1.98786583012183,1.95793684362524,1.95494490393061,1.95044740483836,1.94878841263589,1.94927747970136,1.87053768216099,1.94021535466475,2.05780242048377,1.86322085527958,1.85943298290978,1.92885173755534,1.92305964917215,1.97533228787542,1.92036498553692,1.84590212743183,1.92041293328844,1.91721961303744,1.91517703882284,1.91554144173436,1.84220056101475,1.84346638165479,1.91616476250408,1.91908957534658,1.92562005910313,1.85180929041866,1.931939572753,2.0451154454325,2.00108981999007,1.99806911164453,2.00742851274055,1.99676493280328,1.99788691018877,1.92111297046058,1.99330310514379,2.0244499645289,1.91892655299143,1.99896093982274,2.00143504380099,1.91729632943987,1.91791965020958,2.01729616000264,1.99494291824566,2.00679560242053,2.00625858760355,2.00645996815992,1.99790608928938,1.99259347842135,1.99808829074514,1.90544364526499,1.99146191148556,1.98163262242468,2.00131037964705,1.98493142772902,1.98425056965748,1.98562187535085,1.97768172769972,1.9837327339411,1.98059695099193,1.97443087014691,1.97105534844015,1.88390551528379,1.87896689687759,1.88109577704492,1.88156566500978,1.87743256882906,1.81651974530253,1.9976951191827,1.90742868217778,1.90700674196443,1.80209706164637,1.84439656803421,1.8420375386596,1.8391223153674,1.90641218984563,1.78689762441564,1.78556467692348,1.78278370733553,1.83043418279261,1.90533816021166,1.82851627273195,1.7812397897367,1.77904378271724,1.82787377286163,1.82554351213793,1.77663680559112,1.77840128284692,1.7762915817802,1.82589832549915,1.77492027608683,1.67689589288653,1.67287787130945,1.67103667765122,1.66963660330693,1.66764197684385,1.66477470130316,1.66340339560979,1.66042104546547,1.65729485206659,1.6581770906945,1.65300832308102,1.65431250192227,1.6529507857792,1.65322888273799,1.65306586038284,1.65310421858405,1.79651594336985,1.79749407750079,1.65509884504714,1.65543447930775,1.65281653207495,1.7896690044533,1.79076221318787,1.7838673265198,1.65571257626655,1.74973811699037,1.65976895604484,1.66070873197457,1.66098682893336,1.66230059732491,1.66092929163154,1.77889993946269
1.85576018514361,1.85742876689639,1.855424550883,2.03877675268203,1.85413955114236,1.85287373050232,1.8504763429265,1.84766660468763,1.84345679210449,1.84247865797355,1.83920862132012,1.83778936787524,1.8347590699794,1.83473989087879,1.83088489165686,1.82670384772463,1.93815360134954,1.93959203389503,1.87310768164228,1.82325160961544,1.82502567642155,1.93062580436145,1.82216799043117,1.81940619994382,1.82384616173424,1.82361601252696,1.82530377338034,1.87634894964479,1.96440979007996,1.96118770117805,1.98455743526719,1.95077344954867,1.87610921088721,1.94675542797159,1.98075038379678,1.93913173548047,1.93558360186825,1.93449039313368,1.92881337935413,1.92860240924745,1.92535155169464,1.97552407888148,1.92118968686301,2.06063133782324,1.91572364319013,1.91359476302279,1.917679911452,1.8423252251687,1.91607845655135,1.91633737440954,1.9179675979611,1.84520209025969,1.92201438818909,1.95913553741315,2.04145223721665,1.95508874718516,1.93033811785235,2.01207944463765,1.99818418624817,1.92255140300607,1.92073897799875,1.91879229928718,1.92197602998788,1.99482784364202,2.00471467000472,1.99035911320068,1.99150985923708,2.0180537344766,2.00772578879995,1.91568528498891,1.91529211342648,2.00777373655147,1.99169206069284,1.99759922367967,1.91064118152938,1.98915082986247,1.90797528654506,1.90562584672076,1.90441756338254,1.9043024887789,1.98791377787334,1.98589997230965,1.90078312381759,1.97881329463551,1.897033609649,1.9799448615713,1.8917881256331,1.9773173247882,1.97746116804275,1.8816136127613,1.95804232867857,1.88042450852369,1.8801560011152,1.95891497775617,1.9487980021862,1.86315372842746,1.80912620201868,1.80562601615798,1.79919142790447,1.79779135356019,1.7957967270971,1.79479941386556,1.90651767489896,1.78681131846291,1.78609210219017,1.78310975204584,1.88927566345364,1.82887108609317,1.7800698645997,1.77932187967604,1.78022329740455,1.77907255136815,1.89834737804055,1.77860266340329,1.82639698211492,1.82737511624586,1.77800811128449,1.82713537748827,1.72576424123213,1.6750546992283,1.669828394313,1.66922425264389,1.7128854751748,1.7120032365469,1.77973423033908,1.65798529968843,1.65804283699025,1.75643162310207,1.75319994464986,1.70198215647995,1.65156989053552,1.65365082295134,1.75438904888747,1.65261515151858,1.79211433978064,1.79787765951292,1.65253843511616,1.69938338834776,1.6538330244071,1.65281653207495,1.78861415391993,1.65656604624354,1.65342067374406,1.65806201609086,1.65979772469575,1.77195710504311,1.65472485258531,1.77534221630017,1.6607950379273,1.66228141822431
1.85527111807815,2.03723283508319,1.96870590861584,1.85355458857386,1.94187434686722,1.84828033590704,1.8984720421945,1.84673641830821,1.84237317292021,1.8414621656414,2.03450940279706,1.83766470372129,1.83497004008607,1.83059720514776,2.03755887979351,1.87593659898175,1.82647369851735,1.94042632477142,1.87123771933313,1.82141041595721,1.82321325141423,1.8813067471516,1.82146795325903,1.87117059248101,1.87255148772469,1.87327070399743,1.82264746794633,1.88957293951304,2.06699879922463,1.88687827587781,1.9549065457294,1.95050494214018,1.95147348672082,1.94437721949638,1.97951333180765,1.9380385267459,2.06581928453732,1.93545893771431,1.92904352856141,1.97700086962819,1.92453643991886,1.92337610433216,1.92424875340976,2.06180126296024,1.91817856806777,1.91557021038527,1.91432356884585,1.84166354619777,1.9141893151416,1.91648121766409,1.91688397877683,1.96206035025565,1.84920093273616,1.95781217947129,1.95776423171978,1.95512710538637,2.01149448206915,2.0166057123808,2.00537634897564,2.01591526475897,1.92155408977453,1.91886901568961,1.91863886648233,1.91872517243506,1.99103038172191,2.00061034247491,2.00809978126178,1.98964948647824,1.99894176072213,2.01713313764749,1.99988153665186,2.01335485482799,2.00549142357928,1.91145629330516,1.99985276800095,2.00332418521074,1.90727524937292,1.99110709812434,1.90529021246014,1.98794254652425,1.90181879525035,1.98101889120527,1.98746306900909,1.8961513710211,1.97858314542823,1.89184566293492,1.89018667073245,1.88821122336997,1.97336643006324,1.88444253010077,1.88137387400372,1.87914909833335,1.88078891143522,1.87784491949211,1.97094986338681,1.85991246042494,1.80879056775807,1.80556847885616,1.99406067961776,1.99586351507477,1.79604605540499,1.79308288436127,1.7888155344763,1.78701269901928,1.78567975152712,1.88590973129718,1.78273575958401,1.78308098339493,1.77899583496573,1.77963833483605,1.78195900600945,1.78303303564341,1.78005068549909,1.77819031274025,1.8280943325186,1.8269244073816,1.77679982794627,1.78373307281556,1.72570670393031,1.67075858069242,1.67003936441967,1.66878313332994,1.71154293813234,1.7186871531083,1.65938537403271,1.65941414268362,1.65578929266897,1.8042163522634,1.80359303149368,1.65305627083254,1.80308478532761,1.65273022612222,1.79592139125104,1.65048627135125,1.76400736784167,1.76519647207928,1.64915332385909,1.64905742835606,1.65076436831005,1.65198224119857,1.65564544941443,1.65309462903375,1.65526186740229,1.7812589688373,1.75262457163166,1.65639343433808,1.65384261395741,1.65783186688358,1.75238483287408,1.65896343381937
1.96824561020128,1.85633555816181,1.96754557302914,1.96542628241211,1.85119555919925,1.89782954232418,1.89482801307924,1.89496226678349,1.89053189454337,1.88881536503908,1.96092878331987,1.83522895794426,1.83466317447636,1.83450974167151,1.82849709363134,1.82789295196224,1.82507362417307,1.82565858674157,1.87192816695497,1.92829554363775,1.82307899770998,1.87338577860107,1.82202414717662,1.87211036841073,1.82478593766397,1.82446948250396,1.82390369903606,1.98796172562486,2.06184921071176,1.95823411968464,1.95417773990635,1.98123945086225,1.94992956912198,1.86961708533188,2.05453238383034,1.93829744460409,2.05126234717692,2.05308436173454,1.92875584205231,1.97712553378213,1.92576390235768,1.92295416411881,1.97188963931653,1.97065258732741,1.92139106741937,1.91574282229073,2.06290406124512,1.8414717551917,1.91629901620832,1.91500442691738,1.91551267308345,1.91925259770174,1.92323226107761,1.9261283052692,1.93500822885006,2.04707171369438,2.0081573185636,2.01501384703046,1.92399942510187,1.92170752257938,1.92142942562059,1.91858132918051,1.91869640378415,1.9956333658675,1.91736345629199,2.00550101312959,2.01070813894428,2.00511743111746,2.00115694684219,1.91612640430287,1.91416054649069,2.01095746725216,1.99445385118019,2.0037844836253,1.90827256260447,1.90854107001296,1.99347571704925,1.98937138951944,1.99297706043348,1.98724250935211,1.90214483996066,1.98320530867442,1.96925251298313,1.89744596031204,1.96944430398919,1.975572026633,1.98105724940649,1.88901674559545,1.96546464061332,1.95747654521068,1.88167115006312,1.95412020260453,1.87872715812001,1.87933129978912,1.9607465818641,1.91137957690273,1.80998926154598,1.80389989710339,1.80171347963424,1.79843385343051,1.79453090645707,1.79216228753215,1.79058960128241,1.83809623348494,1.8676320484191,1.78666747520836,1.85350664082234,1.7841454234786,1.78202613286157,1.83137395872233,1.77859307385299,1.7786122529536,1.77932187967604,1.7818247523052,1.78022329740455,1.82803679521678,1.77826702914268,1.95169404637779,1.67526566933497,1.67212029683549,1.66804473795659,1.81371959661396,1.66140876914671,1.65958675458908,1.6590593293224,1.6570167551078,1.65598108367504,1.80296012117366,1.65375630800468,1.64923962981182,1.80349713599065,1.64850123443847,1.65008351023851,1.79664060752379,1.76372927088288,1.69665995606162,1.6962859635998,1.64784914501785,1.65037119674761,1.65102328616824,1.65268227837071,1.65346862149558,1.653545337898,1.65332477824103,1.78108635693185,1.65794694148722,1.65865656820966,1.656738658149,1.77495863428804,1.65774556093085
1.85763973700306,1.85519440167572,1.85469574505995,2.04098234925178,1.85044757427559,1.89729252750719,1.92803662577956,1.89258405830827,1.89096342430702,1.84137585968867,1.95655594838156,1.95602852311488,1.83434671931635,1.93876733256895,1.87809424779999,1.92416244745703,1.82470922126154,1.82543802708459,1.87211036841073,1.82438317655123,1.82540925843368,1.8234338110712,1.82246526649057,1.82445989295365,1.82370231847969,2.00049526787127,2.0206525026088,2.02141966663306,1.96194527565202,1.95700665724582,1.95385169519603,1.8781230164509,1.98418344280536,1.94517315217155,2.05350630194789,2.06115876308992,1.93628363904039,2.05082122786297,1.85812880406853,1.97530351922451,1.85184764861987,1.92227330604728,1.92149655247271,2.06369040436999,1.84459794859058,1.91492771051495,1.83848940504738,1.9144961807513,1.84241153112143,1.91488935231374,1.91442905389918,1.95952870897558,1.84654462730215,1.92556252180131,1.93131625198329,1.94554714463338,1.92752837961348,1.92575431280737,1.92445972351643,1.92214864189334,1.92066226159632,1.92068144069693,1.91813062031625,1.91769909055261,1.91744976224472,1.91820733671868,2.00439821484471,2.02093059956759,1.91602091924953,1.91496606871617,1.9970909775136,1.99997743215489,1.91236730058397,1.91165767386153,1.90931782358752,1.90916439078267,1.90736155532565,1.99818418624817,1.98937138951944,1.9031229740916,1.99752250727724,1.97380754937719,1.98421221145627,1.97954210045856,1.98365601753868,1.89214293899432,1.89417592365862,1.97050874407286,1.98064489874344,1.95719844825188,1.88080809053582,1.88037656077218,1.88041491897339,1.8778257403915,1.94785822625647,1.81306750719334,1.80983582874113,1.80505064313978,1.991855083048,1.79726392829351,1.79515422722678,1.79676527167773,1.7922869516861,1.79086769824121,1.78580441568107,1.7859099007344,1.83268772711388,1.78234258802158,1.83178630938537,1.78367553551374,1.78287960283856,1.84771455243915,1.7815466553464,1.7812589688373,1.89423346096044,1.78115348378397,1.78052057346395,1.78074113312093,1.7361497242106,1.67194768493003,1.66628026070078,1.71185939329235,1.65920317257695,1.65912645617452,1.65717977746295,1.65624959108353,1.65370836025316,1.65291242757799,1.6500547415876,1.64959444317305,1.80321903903185,1.64948895811971,1.64855877174029,1.79893251004628,1.69694764257072,1.69614212034525,1.69731204548225,1.65010268933912,1.64979582372941,1.74383095400354,1.65008351023851,1.65095615931611,1.65635507613687,1.65348780059618,1.6538234348568,1.65474403168592,1.70351648452848,1.65952921728726,1.74992031844613,1.65808119519146
1.85482999876419,1.85580813289513,1.85236548433625,1.8496036938489,2.03761641709533,1.84896119397858,1.84835705230947,1.8920949912428,1.96064109681077,1.839994964445,1.93917009368169,2.03736708878744,1.8353632116485,1.93815360134954,1.87795040454544,1.87566809157326,1.82551474348702,2.03107634378848,1.87137197303738,1.8237214975803,1.87179391325073,1.82394205723728,1.82264746794633,1.92712561850075,1.82309817681059,1.82538048978277,1.82591750459976,1.82689563873069,1.96294258888356,1.88515215682322,1.98273542070956,1.98190112983318,1.94725408458737,1.97854478722702,2.07646368537398,1.93770289248528,1.93440408718095,1.9342506543761,1.8589055576431,1.92817087948381,1.92486248462917,1.97278146749474,1.92103625405815,1.91744976224472,1.84282388178447,1.91821692626898,1.839994964445,1.96775654313581,1.96435225277814,1.91407424053796,1.91423726289312,1.96138908173442,1.9223308433491,1.9246706936231,1.85599033435089,2.04080973734632,2.01797701807418,2.00911627359393,2.01074649714549,2.00866556472968,1.91967453791509,1.91897450074294,1.91821692626898,1.99363873940441,1.91753606819745,1.9886713523473,2.00718877398297,2.02143884573367,2.00822444541572,1.99736907447239,1.99952672329063,1.91387285998159,1.91308651685672,1.91104394264212,1.91039185322149,1.90872327146872,1.90812871934992,1.90596148098137,1.99764717143119,1.99794444749059,1.90156946694246,1.98652329307936,1.98102848075558,1.966845535857,1.89480883397864,1.89193196888765,1.98415467415445,1.97436374329478,1.96521531230544,1.95791766452463,1.95740941835856,1.88039573987278,1.87619551683994,1.87574480797568,1.96304807393689,1.81239623867211,2.00021717091247,1.8062493369277,1.80135866627301,1.99163452339102,1.90782185374021,1.90803282384688,1.83955384513104,1.79209516068003,1.78853743751751,1.78857579571872,1.7856222142253,1.90476278719346,1.78399199067374,1.78401116977435,1.78361799821192,1.78156583444701,1.78313852069675,1.78033837200819,1.78207408061308,1.78149870759489,1.96211788755747,1.77947531248089,1.67132436416031,1.66742141718687,1.81479362624793,1.7102771174923,1.70902088640257,1.65661399399506,1.8091837393205,1.70603853625825,1.65245212916343,1.65250007691494,1.65214526355372,1.80319027038094,1.80250941230941,1.64844369713665,1.64601754090992,1.64708198099358,1.79605564495529,1.6462764587681,1.64446403376078,1.64988212968214,1.73913207435492,1.78896896728115,1.64904783880576,1.78352210270888,1.78293714014038,1.65341108419376,1.65282612162526,1.77256124671221,1.65719895656356,1.6561441060302,1.65448511382773,1.66089093343033
1.85247096938958,1.85253809624171,1.95913553741315,1.8539861183375,1.85082156673742,1.85129145470228,1.84782962704279,1.84543223946696,1.84056074791289,1.96173430554534,1.8385661214498,1.8356508981576,1.94075236948173,1.93753987013013,1.82870806373802,1.82746142219859,1.8743351440811,1.8242968705985,1.82497772867003,1.8717267863986,1.82355847522515,1.8234146319706,1.82675179547614,1.82541884798398,1.93068334166327,1.82536131068216,1.82564899719126,1.98742471080787,1.9619069174508,1.98097094345376,1.98142165231801,1.95122415841293,1.94875964398498,1.8723021594168,1.87007738374644,1.93840292965742,1.93801934764529,1.86163857947954,1.92977233438446,1.97561997438452,1.92464192497219,2.0561530178316,1.92103625405815,1.84450205308754,1.91775662785443,1.91744976224472,1.91458248670403,1.83935246457467,1.91509073287011,2.06182044206085,1.91620312070529,1.91939644095629,1.84675559740882,1.92588856651162,1.93071211031418,2.02684735210472,1.93119158782934,2.01298086236616,2.0168742197893,1.99830885040212,1.91990468712236,1.91743058314411,1.9176895010023,1.99142355328435,2.01234795204614,1.91482222546162,1.91669218777076,2.0008788498834,1.91495647916586,1.99952672329063,1.91396875548462,2.00229810332829,1.91139875600334,1.99487579139354,1.9947798958905,2.00573116233687,1.99851023095848,1.90578886907591,2.0008884394337,1.90251883242249,1.90041872090607,1.98891109110488,1.98453825616658,1.97814202611428,1.8944060728659,1.89213334944402,1.99490456004445,1.8882975293227,1.97288695254808,1.951732404579,1.95715050050037,1.87660786750298,1.87722159872239,1.87732708377573,1.94921994239954,1.9965060149451,1.81160030599693,2.00507907291624,1.90087901932062,1.80153127817847,1.9034298397013,1.84212384461233,1.79163486226547,1.78973613130542,1.83821130808858,1.78781822124476,1.90214483996066,1.99781019378634,1.9019818176055,1.99716769391602,1.90049543730849,1.78342620720585,1.83665780093945,1.78214120746521,1.78237135667249,1.78169049860095,1.78216038656581,1.78174803590277,1.67043253598211,1.66799679020507,1.71344166909239,1.79851056983294,1.79596933900256,1.6584935458545,1.65303709173193,1.65231787545918,1.65067806235732,1.65232746500948,1.64954649542153,1.80129153942089,1.64644907067356,1.646842242236,1.64591205585658,1.64455992926381,1.79553780923891,1.64369686973652,1.64530791418747,1.64634358562023,1.64579698125294,1.7899854596133,1.64852041353908,1.64878892094757,1.78197818511005,1.65128220402643,1.77071046350368,1.65459059888106,1.73895946244946,1.65583724042049,1.65582765087019,1.70418775304971
1.85472451371086,1.9127412930458,1.85409160339084,1.85230794703443,1.84775291064036,1.96139867128473,1.96284669338053,1.84517332160878,1.96235762631506,1.84002373309591,1.83693589789824,1.8347878386303,1.93657132554949,1.93783714618953,1.82850668318165,1.82734634759495,1.8257640717949,1.82278172165058,1.94461695825396,1.82359683342636,1.8245941466579,1.82260910974512,1.82453660935608,1.82510239282398,1.82257075154391,1.91556062083497,1.92073897799875,1.82521746742762,2.05510775684854,1.95635456782519,1.98005993617494,1.98077915244769,1.95087893460201,1.94721572638615,1.97859273497854,1.86613607857178,1.93566990782098,1.85943298290978,1.9278544243238,1.85491630471692,1.92394188780005,1.92211987324243,1.97420072093963,1.91772785920352,1.91802513526292,1.9147646881598,1.91451535985191,1.91299062135369,1.91450577030161,1.84255537437598,1.84153888204383,1.92404737285339,1.84679395561003,1.92220617919516,1.9281612899335,1.95487777707849,1.99937329048578,1.99759922367967,1.92220617919516,1.92109379135997,1.91874435153567,1.91695110562895,1.91729632943987,1.99053172510614,1.91552226263376,1.91557021038527,2.00818608721451,2.01149448206915,2.00025552911368,1.91474550905919,2.00096515583613,1.91184946486759,1.99714851481542,1.99550870171355,1.99075228476312,2.00400504328227,1.98543008434479,1.98202579398712,1.99182631439709,1.90166536244549,1.98359848023686,1.98642739757633,1.97733650388881,1.96852370716008,1.89478006532773,1.89290051346828,1.88872905908635,1.88666730577114,1.88514256727291,1.88266846329466,1.87954226989579,1.87712570321936,1.87960939674791,1.96488926759513,1.81744034213164,1.81520597691097,1.80978788098961,1.90541487661408,1.80254777051062,1.84705287346822,1.84488563509968,1.84228686696748,1.84096350902563,1.79166363091638,1.83665780093945,1.90166536244549,1.78801001225083,1.78463449054406,1.8813163367019,1.78179598365429,1.78367553551374,1.78224669251854,1.8353632116485,1.83540156984972,1.83381929404967,1.78117266288457,1.78384814741919,1.78049180481304,1.66862011097479,1.81094821657631,1.70963461762198,1.79586385394923,1.65677701635021,1.65419742731863,1.65298914398041,1.70490696932246,1.75757277958816,1.64868343589423,1.71697062360401,1.64461746656563,1.64592164540688,1.64693813773903,1.64409963084926,1.64464623521654,1.79296780975763,1.6442147054529,1.64442567555957,1.6445311606129,1.64606548866143,1.64658332437781,1.64875056274636,1.64966157002517,1.65074518920944,1.65086985336338,1.76402654694228,1.70081223134295,1.65340149464345,1.65488787494046,1.70398637249334,1.7055974169443
1.85342992441991,1.85547249863452,1.96491803624604,1.84967082070102,1.84762824648642,1.96052602220713,1.84510619475665,1.8900332379276,1.84013880769954,1.8353632116485,1.83512347289092,1.83189179443871,1.93796181034347,1.93709875081617,1.93724259407072,1.82678056412705,1.82679015367736,1.82345299017181,1.8242872810482,1.94455942095214,1.82454619890638,1.82237896053784,1.8240091840894,1.82399000498879,1.82419138554516,1.82315571411241,1.82387493038515,1.88926607390333,1.9810956076077,1.95706419454764,1.98005993617494,1.97875575733369,1.94771438300192,1.97719266063426,1.94084826498476,1.94104005599083,1.86321126572928,1.85898227404552,1.93097102817237,1.92513099203766,1.92445972351643,1.97330889276142,1.9191279335478,1.97128549764743,1.91557979993558,1.84121283733351,1.91285636764944,1.91199330812214,1.91299062135369,1.91380573312947,1.96187814879989,1.91602091924953,1.9589821046083,1.92635845447648,1.9263968126777,1.95429281450998,1.9979732161415,1.9258214396595,2.01536866039168,1.99432918702625,1.91962659016357,1.91578118049195,1.9165291654156,1.91794841886049,1.91382491223007,1.91436192704706,1.91556062083497,2.00429272979137,1.98442318156294,2.00462836405199,1.99837597725424,1.98228471184531,1.91124532319849,2.00138709604947,2.00433108799259,1.9074862194796,1.99372504535714,1.98526706198963,1.90398603361889,1.98186277163196,1.97683784727303,1.98472045762234,1.98434646516052,1.98131616726467,1.97424866869114,1.98271624160896,1.8885948053821,1.98409713685263,1.97117042304379,1.97487198946086,1.87854495666425,1.8781326060012,1.87777779263998,1.87611880043751,1.87568727067386,1.81404564132428,1.85787947576064,1.80706444870348,1.8499009699083,1.87921622518548,1.79616113000863,1.98842202403942,1.84012921814924,1.79128004890425,1.78890184042903,1.78903609413328,1.78604415443865,1.78799083315022,1.78578523658046,1.98443277111325,1.99373463490744,1.78547837097076,1.83542074895032,1.83426041336362,1.78193982690884,1.78159460309792,1.78291796103977,1.78146993894398,1.81844724491349,1.66552268622682,1.70900170730197,1.79629538371287,1.70360279048121,1.6526535097198,1.65160824873674,1.64937388351607,1.64903824925545,1.64860671949181,1.64565313799839,1.64351466828076,1.644818847122,1.64513530228201,1.7981078087202,1.64100220610129,1.64281463110861,1.64366810108561,1.64310231761771,1.64450239196199,1.76169628621858,1.64381194434016,1.64566272754869,1.64868343589423,1.7725324780613,1.64985336103123,1.69982450766171,1.65223156950645,1.65362205430043,1.65425496462045,1.77344348534012,1.65447552427742
1.85246137983928,1.85460943910722,1.96270285012598,1.84907626858222,1.84605556023668,2.03468201470252,1.84737891817853,1.84458835904027,1.84028265095409,1.83985112119045,1.88420279134319,1.83325351058178,1.88136428445342,1.8318534362375,1.94018658601384,1.95239408354993,1.82712578793797,1.82514075102519,2.02064291305849,1.82325160961544,1.94147158575448,1.87109387607859,1.87250353997317,1.82528459427974,1.82511198237428,1.93592882567917,1.87207201020952,1.87406663667261,1.9572559855537,1.95447501596575,1.95429281450998,1.94971859901531,1.94616087585279,1.94433886129516,1.97599396684634,1.97571586988755,1.93311908744031,1.9316422966936,1.92876543160261,1.92634886492618,1.8522408201823,1.92167875392847,1.92097871675633,2.04791559412107,1.91479345681071,1.91516744927254,1.91450577030161,1.91150424105668,1.9118686439682,1.96370975290782,1.91227140508094,1.91486058366283,1.91799636661201,1.92384599229702,2.0422002221403,2.0407426104942,2.00182821536343,2.0110533627552,2.00618187120112,1.91987591847145,1.91836076952353,1.91766073235139,1.91712371753441,1.91531129252708,2.01798660762448,2.00153093930402,2.00025552911368,1.9973786640227,1.98711784519817,1.9907139265619,1.999728103847,1.91209879317548,1.91103435309182,2.01418914570437,1.9944922093814,1.99016732219462,1.98999471028916,1.99748414907603,1.98533418884176,1.9016749519958,1.90209689220914,1.97778721275306,1.98047228683798,1.99803075344332,1.97392262398083,1.97546654157966,1.97681866817243,1.96984706510193,1.98114355535921,1.88261092599284,1.87806547914908,1.87722159872239,1.87609962133691,1.95150225537173,1.97552407888148,1.81524433511219,2.00158847660584,1.85409160339084,1.85058182797983,1.84671723920761,1.90799446564567,1.90008308664545,1.90699715241413,1.9048874513474,1.8990761838636,1.78807713910295,1.83526731614547,1.83474948042909,1.83414533875998,1.78422213988102,1.78579482613076,1.78620717679381,1.87736544197694,1.78533452771621,1.78216997611612,1.7844331099877,1.78173844635247,1.78504684120711,1.66601175329229,1.81146605229269,1.70841674473347,1.70596181985582,1.65307544993314,1.650035562487,1.97726937703668,1.70053413438416,1.64613261551356,1.64447362331109,1.64300642211468,1.64322698177166,1.64317903402014,1.80330534498458,1.64257489235103,1.64187485517889,1.6398706391655,1.64210500438617,1.6410309747522,1.64250776549891,1.64282422065892,1.64347631007954,1.64550929474384,1.7821220283646,1.64744638390511,1.64983418193063,1.65042873404943,1.64885604779969,1.65141645773067,1.77590799976807,1.65438921832469,1.70267260410179
1.85415873024296,1.85221205153139,1.85094623089136,1.84674600785852,1.84590212743183,1.84761865693612,1.8461130975385,1.84313074739417,1.95567370975366,1.83873873335526,1.94488546566245,1.88154648590918,1.8324575779066,1.83326310013208,1.82922589945439,1.82687645963009,1.82462291530881,1.82447907205426,1.82301187085786,1.82337627376938,1.82530377338034,1.82432563924941,1.87243641312105,1.82528459427974,1.99013855354371,1.93384789326336,1.917679911452,1.91926218725204,1.98192030893378,1.97780639185367,1.9784872499252,1.97691456367546,1.8751982036084,1.87168842819739,1.93986054130352,1.94194147371934,1.86500451163599,1.85893432629401,2.06006555435534,1.85318059611203,1.92431588026188,1.92182259718302,1.91944438870781,1.97068135597832,1.91744017269442,1.91474550905919,1.83847981549707,1.91375778537795,1.8388346288583,1.83874832290557,1.96374811110903,1.84199918045838,1.9188594261393,1.92440218621461,1.92772017061955,2.03770272304806,2.00779291565208,2.0101998927782,2.01790030167175,1.99149068013647,1.99253594111953,1.91528252387618,1.91550308353315,1.91639491171136,1.9141893151416,1.99989112620216,1.99846228320697,2.0081573185636,2.00347761801559,1.99446344073049,2.00622981895264,1.91152342015728,1.99469358993777,1.91057405467726,2.01103418365459,1.99042624005281,1.99314967233894,1.98684933778968,1.99696631335965,1.90126260133276,1.98465333077022,1.98532459929145,1.98731922575454,1.98119150311073,1.89260323740888,1.96988542330314,1.88953458131182,1.97018269936255,1.97201430347048,1.96869631906554,1.88001215786065,1.87605167358539,1.876070852686,1.9581286346313,1.819348662642,1.81549366342007,1.97836258577126,1.8062685160283,1.8027779197179,1.96028628344955,1.90792733879355,1.89832819893995,1.90086942977032,1.7917307577685,1.89898028836057,1.9848834799775,1.78614004994168,1.78694557216716,1.78819221370659,1.78606333353926,1.88756872349965,1.78692639306655,1.78544960231984,1.78527699041439,1.83192056308962,1.78408788617678,1.78497012480468,1.81419907412913,1.75891531663062,1.66161973925338,1.65991279929939,1.71420883311666,1.86129335566862,1.81283735798606,1.64634358562023,1.64552847384445,1.64381194434016,1.64153922091828,1.64464623521654,1.73987046972828,1.64285298930983,1.8024710541082,1.64106933295341,1.64076246734371,1.64024463162733,1.63843220662001,1.63881578863214,1.63793355000424,1.64294888481286,1.64134742991221,1.64313108626862,1.64514489183232,1.64529832463717,1.70283562645695,1.6491629134094,1.64993007743366,1.8900332379276,1.65011227888942,1.65423578551984,1.65389056170892
1.96385359616237,1.97035531126801,1.85198190232412,1.85059141753014,2.03473955200434,1.84614186618941,1.84255537437598,1.84179779990201,1.83932369592376,1.83865242740253,1.83514265199153,1.83284115991874,1.88033820257096,1.83174795118416,1.82920672035379,1.87539958416477,1.82854504138286,1.82365437072818,1.82587914639854,2.01451519041469,1.82282007985179,1.82503526597185,1.8251599301258,1.82412425869304,1.87251312952347,1.82499690777064,1.82384616173424,1.91765114280109,1.9639303125648,1.95440788911362,1.95410102350392,1.97605150414816,1.94885553948802,1.97509254911783,1.94207572742358,1.97423907914084,1.93452875133489,1.93482602739429,1.92929285686929,1.92472823092492,1.85028455192043,1.84822279860522,1.84593089608274,1.84479932914695,1.9147646881598,1.91590584464589,1.84136627013837,1.91114942769545,1.83843186774556,1.96264531282416,1.96406456626904,1.92063349294541,1.91882106793809,1.92445972351643,1.95531889639244,1.95444624731484,2.01539742904259,2.01214657148977,2.01879212984996,1.91761278459988,1.91809226211504,1.91631819530893,1.91522498657436,1.91452494940221,2.00601884884597,1.91207002452457,1.91445782255009,2.01167668352491,2.00326664790892,1.99963220834397,1.98439441291203,1.91203166632336,1.91031513681907,1.90890547292448,1.9072081225208,1.99817459669787,1.90523267515832,1.98421221145627,1.90391890676677,1.90133931773518,1.89912413161512,1.9819874357859,1.97509254911783,1.89279502841495,1.98057777189132,1.88838383527543,1.88826876067179,1.8859864476996,1.88173827691524,1.87871756856971,1.88038615032248,1.87594618853205,1.8752077931587,1.87611880043751,1.81788146144559,1.81699922281769,1.81186881340543,1.80689183679802,1.84939272374223,1.84696656751549,1.79682280897955,1.99807870119484,1.89551846070108,1.79068549678545,1.90247088467097,1.90193386985399,1.78872922852357,1.79003340736482,1.78608251263986,1.78498930390529,1.88576588804263,1.88469185840866,1.83397272685452,1.78540165456833,1.7850276621065,1.96841822210674,1.78496053525438,1.78523863221317,1.66161014970308,1.81243459687332,1.65734279981811,1.65375630800468,1.652375412761,1.64935470441546,1.81563750667462,1.64519283958383,1.80970157503688,1.6933803298579,1.64242145954618,1.640455601734,1.6407432882431,1.80200116614333,1.64009119882248,1.6392952661473,1.63772257989756,1.68748275642137,1.6392664974964,1.63940075120064,1.64002407197036,1.64194198203101,1.64197075068192,1.78664829610776,1.6439270189438,1.64665045122993,1.77877527530875,1.64994925653427,1.64980541327972,1.64973828642759,1.65302750218163,1.65344944239497
1.85157914121138,1.96536874511029,1.84893242532767,1.84817485085371,1.84685149291185,1.8481556717531,1.84206630731051,2.02836250105265,1.83800992753221,1.83606324882064,2.02931186653267,2.02740354602232,1.94109759329265,1.83178630938537,1.90038036270485,1.8277778773586,1.82562022854035,1.94252643628784,1.8225515724433,1.93851800426106,1.82452701980578,1.93216013240998,1.82491060181791,1.82457496755729,1.8947033489253,1.82450784070517,1.82359683342636,2.0686769705277,1.96061232815986,1.9787845259846,1.87969570270064,1.94883636038741,1.94820345006739,1.94484710746124,1.97418154183902,1.97452676564994,1.93303278148758,2.05398577946305,1.92943670012384,1.92506386518554,1.97158277370683,1.97057587092498,2.06389178492636,1.91319200191006,1.9150619642192,1.83950589737953,1.96502352129937,1.96474542434058,1.8397264570365,1.9139016286325,1.91533047162769,1.91639491171136,1.84762824648642,1.96069863411259,1.85695887893153,1.95206803883962,1.92515017113827,2.01402612334922,2.00154052885433,1.9191471126484,1.9162318893562,1.91726756078896,1.91762237415018,1.99263183662256,1.91472632995858,2.00432149844228,2.00829157226785,2.00578869963869,2.01419873525468,1.91176315891487,1.99205646360437,1.9104206218724,1.90938495043965,1.90787939104203,1.90670946590503,1.98758773316303,1.90465730214012,1.90468607079103,1.98995635208794,1.90195304895459,1.99356202300198,1.97821874251671,1.97695292187667,1.89273749111313,1.8917881256331,1.97772967545124,1.8865426416172,1.97476650440752,1.97912016024522,1.96396867076601,1.87736544197694,1.94569098788793,1.8743351440811,1.87501600215263,1.86563742195601,1.81455388749035,1.80851247079927,1.80528079234706,1.80173265873484,1.79793519681474,1.79613236135772,1.90646013759714,1.8915100286743,1.88953458131182,1.79008135511634,1.79021560882058,1.78866210167145,1.78730997507868,1.78661952745685,1.90037077315455,1.78754971383627,1.83472071177818,1.83400149550543,1.78545919187015,1.78628389319623,1.78346456540706,1.78449064728952,1.78574687837925,1.66281843304129,1.65894425471876,1.81278941023454,1.65287406937677,1.65275899477313,1.81721978247467,1.81405523087458,1.81190717160664,1.64059944498855,1.80971116458719,1.64200910888314,1.63855687077395,1.80492597898584,1.80239433770577,1.7332345009184,1.63771299034726,1.63611153544661,1.63706090092664,1.69604622484221,1.79120333250182,1.63893086323578,1.63791437090363,1.6421913103389,1.63988022871581,1.73981293242646,1.6462668692178,1.7786218425039,1.77549564910502,1.77706833535476,1.77401885835832,1.77259001536312,1.77051867249761
2.03304220160065,1.84977630575436,1.85035167877256,1.84958451474829,1.8478775747943,1.84522126936029,1.84471302319422,1.84240194157112,1.88766461900268,1.8853918955808,1.92372132814308,1.8338864209018,2.02655966559563,1.83018485448472,1.87668458390541,1.82539007933307,1.8254763852858,1.82491060181791,1.82297351265664,1.87268574142893,1.8228392589524,2.01055470613942,1.82296392310634,1.87496805440112,1.82408590049183,1.82309817681059,1.82463250485911,1.82534213158156,1.95895333595739,1.95785053767251,2.05472417483641,1.95157897177415,1.94878841263589,1.94104005599083,1.93889199672289,1.97194717661835,1.93271632632757,1.93122994603056,1.92916819271535,1.92614748436981,1.92141983607028,1.92283908951517,1.84546100811787,1.96894564737342,1.9648029616424,1.91277006169671,1.96664415530063,1.96627975238911,1.9127412930458,1.91138916645304,1.91513868062163,1.91721002348714,1.91903203804476,1.95456132191848,1.95432158316089,2.03981242411478,1.92538990989585,2.0069778038763,2.00217343917434,1.91879229928718,1.91573323274043,1.91545513578163,1.91314405415854,1.91421808379251,2.00732302768721,1.91403588233675,2.00200082726888,1.98885355380307,1.99678411190389,1.98443277111325,2.00237481973071,1.9924592247171,1.99314008278864,1.99377299310866,1.99705261931238,1.98885355380307,1.98529583064054,1.90496416774983,2.00782168430299,1.9008023029182,1.98973579243097,1.98213127904045,1.97414318363781,1.9863410916236,1.89029215578578,1.89006200657851,1.97600355639665,1.88466308975775,1.96724829696974,1.97017310981224,1.87880387452244,1.87619551683994,1.87332824129925,1.9549161352797,1.96000818649075,1.81296202214,1.90682454050867,1.80589452356647,1.80328616588398,1.99439631387837,1.79593098080135,1.79458844375889,1.79358154097704,1.79350482457461,1.83978399433832,1.78957310895026,1.87314603984349,1.83730989036007,1.78931419109207,1.97805572016155,1.786782549812,1.83524813704486,1.83444261481939,1.78787575854658,1.78508519940832,1.78464408009437,1.78581400523137,1.78519068446166,1.66129369454307,1.65627835973444,1.65306586038284,1.65276858432344,1.6500451520373,1.81261679832908,1.64347631007954,1.69063771847115,1.80905907516656,1.80721788150833,1.64024463162733,1.73193991162745,1.63683075171936,1.68536346580434,1.63925690794609,1.68330171248913,1.6372335128321,1.63668690846481,1.6349320207593,1.63591974444054,1.63571836388418,1.63560328928054,1.63779929629999,1.7824001253234,1.64062821363946,1.78170008815126,1.77937941697786,1.77532303719956,1.64708198099358,1.7748531492347,1.77537098495108,1.77168859763462
1.85104212639439,1.85177093221744,1.94281412279694,1.84957492519799,1.84599802293486,1.84491440375059,1.93342595305001,1.89057025274458,1.84127037463533,1.83920862132012,1.83694548744855,1.82858339958407,1.94575811474005,2.02905294867448,1.82978209337198,1.87518861405809,1.89390741625013,1.82514075102519,2.01467821276984,1.82454619890638,1.82215840088086,1.82235978143723,1.82214881133056,1.92774893927046,1.93039565515417,1.82336668421908,1.9310765132257,1.82310776636089,1.96041094760349,1.88331096316499,1.97591725044392,2.05405290631518,1.94694721897766,1.94712942043342,1.97753788444518,1.93586169882705,1.93214095330937,1.93099020727297,1.92659819323406,1.92492002193099,1.92149655247271,1.92144860472119,1.91755524729806,1.91580994914286,1.84011962859894,1.91066036062999,1.96557971521696,1.9115809574591,1.90885752517297,1.83873873335526,1.84009085994803,2.05023626529447,1.9182552844702,1.91900326939385,1.95429281450998,2.04166320732332,1.92482412642796,2.00125284234523,1.9211800973127,1.98767403911576,1.98871930009882,1.91571405363982,1.91420849424221,1.91276047214641,2.00529004302292,1.91321118101066,2.00730384858661,1.99469358993777,1.9979732161415,1.99155780698859,1.91153300970759,1.99470317948808,1.98826859123456,1.98754937496182,1.9912701204795,1.98009829437616,1.98884396425276,1.99749373862634,1.97430620599296,1.9718033333638,1.89826107208782,1.97398975083296,1.97421990004023,1.98468209942113,1.97810366791307,1.9767323622197,1.88777969360632,1.97821874251671,1.96108221612472,1.88029025481945,1.87675171075753,1.87634894964479,1.87622428549085,1.97271434064262,1.81800612559954,1.81225239541756,1.81094821657631,1.80579862806344,1.80258612871184,1.79924896520629,1.7960844136062,1.79497202577102,1.89809804973267,1.79355277232613,1.83978399433832,1.83920862132012,1.79155814586304,1.78971695220481,1.78987038500966,1.7899662805127,1.78688803486534,1.83445220436969,1.78651404240351,1.893840289398,1.78510437850893,1.98148877917013,1.78521945311257,1.81576217082857,1.81252090282605,1.65576052401806,1.65292201712829,1.81442922333641,1.6468326526857,1.64366810108561,1.69062812892085,1.64010078837278,1.64007201972187,1.63748284113998,1.7361497242106,1.80788915002956,1.63285108834349,1.63551698332781,1.6346347446999,1.63634168465389,1.63247709588166,1.79498161532132,1.63257299138469,1.63412649853383,1.6349128416587,1.63573754298478,1.78756889293687,1.78865251212115,1.64042683308309,1.64208582528556,1.64436813825775,1.64517366048323,1.77335717938739,1.64774365996451,1.77172695583583,1.74614203562663
1.85113802189743,1.95914512696345,1.84763783603672,1.84884611937494,1.84721589582338,1.84359104580873,1.84340884435297,1.8897455514185,1.84034977780622,1.83743455451402,1.83529608479638,1.83298500317329,1.83210276454538,1.94959393486137,1.87649279289934,1.87430637543019,1.82494896001912,1.91417013604099,1.82375985578151,1.87169801774769,1.82297351265664,1.822541982893,1.82247485604087,1.82660795222159,1.82850668318165,1.90903013707843,1.91799636661201,1.88144100085584,1.9773269143385,1.977595421747,1.87767230758665,1.94950762890864,1.97455553430085,1.94243054078481,2.04959376542414,1.97097863203772,1.93698367621253,1.93110528187661,1.85497384201874,1.92450767126795,1.84905708948161,1.92052800789208,1.91781416515625,1.96710445371519,1.91559897903618,1.96533997645938,1.96398784986662,1.90889588337418,1.9112836813997,1.83886339750921,1.84129914328624,1.84196082225717,1.84457876948997,1.84746522413126,1.92770099151894,1.95427363540938,2.01812086132873,2.01156160892127,1.99350448570016,1.91815938896716,1.91529211342648,1.91369065852583,1.91286595719974,1.9136235316737,2.01481246647409,1.99443467207958,1.91232894238276,2.00714082623145,2.00416806563743,1.99504840329899,2.01147530296854,1.99742661177421,1.98554515894843,1.9860534051145,2.00100351403734,1.97828586936883,1.98802885247698,1.97205266167169,1.97492952676268,1.97048956497225,1.98771239731697,1.97492952676268,1.96609755093334,1.97155400505592,1.97038407991892,1.97725019793608,1.96265490237446,1.96290423068234,1.96251105911991,1.87896689687759,1.87741338972846,1.87496805440112,1.87295424883742,1.87217749526286,1.81828422255833,1.97451717609964,1.85657529691939,1.80584657581496,1.80285463612033,1.89038805128882,1.98885355380307,1.79586385394923,1.79408019759281,1.79322672761582,1.85490671516662,1.83857571100011,1.79156773541335,1.79004299691512,1.79016766106907,1.78964023580239,1.88869070088513,1.89103055115914,1.78671542295988,1.78553590827258,1.78381937876828,1.78475915469801,1.78455777414164,1.66243485102916,1.65844559810299,1.74351449884353,1.81284694753636,1.64695731683964,1.64524078733535,1.6436585115353,1.80180937513727,1.64031175847945,1.63821164696303,1.80808094103562,1.89478006532773,1.80321903903185,1.6331675435035,1.75450412349111,1.63328261810714,1.63285108834349,1.79573918979528,1.63426075223807,1.63204556611801,1.63368537921988,1.7923061307867,1.63290862564531,1.78805796000234,1.74045543229678,1.63796231865515,1.64222966854011,1.64315985491953,1.77655049963839,1.77853553655117,1.77391337330498,1.76964602342001,1.77152557527946
1.85183805906957,1.85004481316285,1.85009276091437,1.8510517159447,1.95186665828325,1.84420477702814,1.89811722883327,1.84081966577108,1.92406655195399,1.88498913446806,1.83783731562675,1.95409143395362,1.82981086202289,1.94675542797159,1.82819022802164,1.87358715915744,1.8251791092264,1.82508321372337,1.8234146319706,1.8714295103392,1.87118977158162,1.82486265406639,1.93176696084754,1.82683810142887,1.82782582511011,1.87484339024717,1.828075153418,1.82677097457675,1.9758693026924,1.95487777707849,1.87842988206061,1.87622428549085,1.94548960733156,1.97124713944621,2.06020939760989,1.93870020571682,1.93289852778333,1.93037647605356,1.92688587974316,1.92683793199165,1.9252460666413,1.91843748592596,1.91636614306045,1.96610714048365,1.91262621844216,1.91170562161305,1.91203166632336,1.91001786075967,1.90993155480694,1.9101041667124,1.91206043497427,2.05767775632982,1.91784293380716,1.92141024651998,1.85303675285748,2.04324548312336,1.92210069414182,1.92231166424849,2.00577911008838,2.01119720600975,1.91571405363982,1.91429480019494,1.91309610640702,1.99456892578383,1.91173439026396,1.91097681578999,2.00298855095012,2.0049639983126,1.91113983814515,2.0037844836253,1.99908560397668,1.99472235858868,1.98995635208794,1.9843081069593,1.99875955926637,1.90302707858856,1.98505609188296,1.98122986131194,1.9752747505736,1.89804051243085,1.89922002711815,1.97852560812641,1.98178605522954,1.8923826777519,1.99110709812434,1.97423907914084,1.97326094500991,1.96235762631506,1.95565453065305,1.87892853867638,1.87689555401208,1.87342413680229,1.87325152489683,1.96579068532364,1.94466490600548,1.81310586539455,1.80896317966353,1.90674782410624,1.80249982275911,1.79834754747778,1.79739818199775,1.79532683913224,1.79629538371287,1.79334180221946,1.89496226678349,1.79231572033701,1.898203534786,1.89368685659315,1.79202803382791,1.88094234424007,1.78810590775386,1.89806928108176,1.7879428853987,1.9677277744849,1.78830728831023,1.78512355760953,1.78455777414164,1.78471120694649,1.81462101434247,1.81489911130127,1.7591454658379,1.64920127161061,1.64381194434016,1.64206664618496,1.6378376545012,1.80895359011322,1.63356071506593,1.6334648195629,1.63318672260411,1.80097508426088,1.62983996954825,1.63266888688773,1.63165239455558,1.63003176055432,1.63241955857984,1.63116332749011,1.78945803434662,1.63209351386953,1.63124004389254,1.63270724508894,1.73996636523131,1.63561287883084,1.6375499679921,1.63988022871581,1.640455601734,1.78064523761789,1.64311190716802,1.77286811232192,1.64604630956083,1.64644907067356
1.84949820879556,1.85010235046467,1.84799264939794,1.84422395612875,1.84595007518334,1.84331294884994,1.890330513987,1.95493531438031,1.92356789533822,1.9147646881598,1.8845288360535,1.83372339854664,1.94490464476306,2.02120869652639,1.82874642193923,1.82658877312099,1.82378862443242,1.82316530366271,1.82279131120088,1.93818237000045,1.8228392589524,1.82204332627722,1.82334750511847,1.8245845571076,1.82334750511847,1.82920672035379,1.82678056412705,1.96060273860955,1.95531889639244,2.0480210791744,1.97205266167169,1.94929665880197,1.94544165958004,1.97051833362316,1.93924681008411,1.9688881100716,1.9319491623033,1.97168825876016,1.93038606560387,1.85104212639439,1.92221576874546,1.91952110511023,1.91537841937921,1.96855247581099,1.91164808431123,1.91208920362518,1.91048774872453,1.91064118152938,1.8374057858631,1.91239606923488,1.91261662889186,1.83919903176982,1.95590385896094,1.91954987376114,1.85210656647806,2.03266820913883,2.01075608669579,1.92152532112362,2.00721754263388,1.99030157589886,1.91528252387618,1.91242483788579,1.91279883034762,1.91117819634636,2.00081172303128,1.91076584568332,2.0154261976935,2.00988343761819,2.00148299155251,2.00326664790892,1.99004265804067,1.90787939104203,1.99181672484678,1.97816120521489,1.98846997179093,1.98577530815571,1.90216401906127,1.98190112983318,1.98595750961147,1.89768569906963,1.89751308716417,1.98153672692165,1.98601504691329,1.97739404119063,1.97619534740271,1.98504650233266,1.97460348205237,1.95439829956332,1.95251874770388,1.95589426941064,1.87522697225931,1.87472831564353,1.87314603984349,1.97293490029959,1.81274146248303,1.81424702188064,1.80875220955686,1.88740570114449,1.80349713599065,1.99439631387837,1.79719680144138,1.99880750701789,1.79494325712011,1.79457885420858,1.89330327458102,1.79174993686911,1.83988947939166,1.7887963553757,1.79158691451395,1.79017725061937,1.89127987946702,1.78994710141209,1.78783740034537,1.78630307229684,1.78787575854658,1.78568934107743,1.78450982639012,1.65951962773696,1.81378672346609,1.8167498945098,1.64661209302872,1.64389825029289,1.81290448483818,1.64040765398249,1.63779929629999,1.80938511987687,1.63389634932655,1.63342646136169,1.6334744091132,1.6305495962707,1.63005093965493,1.67872749699446,1.63067426042464,1.62908239507429,1.63007970830584,1.67870831789385,1.62957146213976,1.79324590671643,1.63049205896888,1.62731791781849,1.78717572137444,1.78421255033072,1.6343374686405,1.63809657235939,1.63946787805276,1.64268037740437,1.64141455676433,1.77035565014246,1.76875419524181,1.64407086219835
1.85108048459561,1.85174216356653,1.84805977625007,1.84775291064036,1.84336089660145,1.84543223946696,1.84101145677714,1.84070459116744,1.83994701669348,1.83519059974304,1.83211235409569,1.8347686595297,1.83225619735023,1.83014649628351,1.94611292810127,2.01993328633605,1.94104964554113,1.82144877415842,1.9083780476578,1.82142959505781,1.82185153527116,1.92083487350178,1.87213913706164,1.82444071385305,1.88929484255424,1.87341454725198,1.82676138502645,1.95932732841922,1.95728475420461,2.04563328114888,1.97064299777711,1.94831852467103,1.97087314698438,1.97009639340982,1.93840292965742,1.9357082660222,1.85864663978491,1.85925078145401,1.92891886440746,1.84938313419192,1.92243632840243,1.9220527463903,1.84479932914695,1.96504270039998,1.96404538716844,1.91126450229909,2.05447484652852,1.9080807715984,1.90891506247479,1.83715645755522,1.91132203960091,1.91196453947123,1.84210466551172,1.95155979267355,2.03789451405412,1.95138718076809,1.92214864189334,2.02365403185373,1.91747853089563,1.9909920235207,1.98706989744665,1.91414136739008,1.91209879317548,2.00114735729189,1.99890340252092,1.91113024859485,1.90944248774147,1.99227702326134,1.99790608928938,1.90828215215477,1.90795610744446,1.90873286101902,1.98907411346004,1.98244773420046,1.99669780595116,1.99163452339102,1.9825436297035,1.89930633307088,1.97912974979552,1.97822833206701,1.98506568143326,1.894693759375,1.96494680489695,1.96753598347884,1.99514429880203,1.97303079580263,1.88409730628985,1.88319588856135,1.95075427044807,1.96784284908854,1.87262820412711,1.87410499487382,1.87337618905077,1.87217749526286,1.81521556646128,1.81254967147696,1.80842616484654,1.90483950359589,1.90241334736915,1.90328599644675,1.79910512195174,1.99936370093548,1.97251296008625,1.89904741521269,1.79323631716612,1.7917115786679,1.89735006480901,1.91111106949424,1.79060878038302,1.90000637024302,1.78742504968232,1.78873881807388,1.78835523606174,1.8935430133386,1.7882209823575,1.78520027401196,1.78811549730416,1.81594437228433,1.65446593472712,1.6480217569233,1.74843393814912,1.64317903402014,1.64124194485887,1.63922813929518,1.63839384841879,1.63356071506593,1.63036739481494,1.80695896365014,1.62985914864886,1.63030985751312,1.62835358925124,1.63028108886221,1.62893855181975,1.62957146213976,1.67932204911326,1.62891937271914,1.62956187258946,1.62973448449492,1.63243873768045,1.63208392431923,1.63067426042464,1.63082769322949,1.63477858795445,1.78207408061308,1.64018709432551,1.77873691710754,1.68907462177172,1.64433936960684,1.76880214299332,1.6459791827087
1.84789675389491,1.89669797538839,1.95416815035604,1.84714876897125,1.84457876948997,1.95421609810756,1.84219097146445,1.94914322599711,1.84160600889595,1.83598653241822,1.83294664497207,1.88204514252495,1.94262233179087,1.83037664549079,1.82764362365435,1.82557228078884,1.82486265406639,1.82117067719962,1.93749192237861,2.01759343606204,1.82019254306869,1.86855264524821,1.89449237881863,1.93812483269863,1.87255148772469,1.82590791504945,1.8251599301258,1.97424866869114,1.97356781061961,1.95073509134746,1.95145430762021,1.96939635623768,1.87151581629193,1.940666063529,1.86542645184934,1.96956896814314,1.93437531853004,1.96729624472125,1.92690505884377,1.96848534895886,1.92162121662665,1.91861968738172,1.91545513578163,1.9144770016507,1.91147547240577,1.96425635727511,1.90903013707843,1.90932741313783,2.05771611453104,1.91057405467726,1.91050692782513,1.8391510840183,1.95529971729183,1.92188972403515,1.92294457456851,2.03501764896313,2.01013276592608,1.92075815709936,2.00039937236823,1.91502360601799,1.9872041511509,1.91204125587366,1.91171521116335,1.90930823403722,1.99393601546381,2.00866556472968,1.997388253573,1.90950002504329,1.99478948544081,1.9095383832445,1.99286198582984,1.99181672484678,1.98930426266732,1.90457099618739,1.90405316047101,1.98906452390974,2.00604761749688,1.89981457923696,1.98441359201264,1.89765693041872,1.98855627774366,1.9746897880051,1.89196073753856,1.89072368554943,1.88820163381967,1.88671525352266,1.97788310825609,1.88234241858435,1.87911074013214,1.87793122544484,1.87523656180961,1.87400909937079,1.87212954751134,1.87236928626892,1.81246336552423,1.81213732081392,1.80773571722471,1.8950006249847,1.89854875859692,1.84827074635674,1.79890374139537,1.90181879525035,1.7943295259007,1.79355277232613,1.79427198859888,1.79293904110672,1.89795420647812,1.89897069881027,1.79024437747149,1.79062795948363,1.97918728709734,1.83728112170916,1.78582359478167,1.78907445233449,1.84045526285955,1.78499889345559,1.83607283837095,1.65669071039748,1.6526630992701,1.64956567452214,1.69458861319611,1.69144324069663,1.75516580246204,1.75528087706567,1.63367578966957,1.63213187207074,1.63226612577499,1.80565478480889,1.62964817854219,1.63003176055432,1.62775903713244,1.62633019413725,1.62866045486095,1.62747135062334,1.67574514685013,1.7402156935392,1.79697624178441,1.62713571636272,1.7315083818638,1.62984955909856,1.74192263349318,1.63078933502828,1.78192064780823,1.63537314007326,1.63714720687937,1.77806564858631,1.6410213852019,1.77197628414371,1.64664086167963,1.64604630956083
1.84833787320886,1.95597098581306,1.84673641830821,1.84667888100639,1.84275675493234,1.92576390235768,1.9421332647254,1.84140462833958,1.83993742714318,2.02099772641971,1.8330329509248,1.88147935905706,1.93852759381137,1.87731749422542,1.94144281710357,1.93943860109018,1.82637780301431,1.93754945968043,1.81968429690261,1.82214881133056,1.82215840088086,1.82173646066752,1.87062398811372,1.93768371338468,1.87224462211498,1.9077930850893,1.82492019136821,1.95976844773317,1.97211019897351,1.96902236377585,1.95191460603477,1.9671236328158,1.96778531178672,1.86751697381546,2.04003298377176,1.93496028109854,1.96708527461458,1.85722738634002,2.05054313090417,1.85187641727078,1.96557012566666,1.91775662785443,1.91760319504957,1.91503319556829,1.91063159197908,1.83503716693819,1.90766842093536,1.9089438311257,1.90796569699476,2.03546835782739,1.90995073390754,1.91193577082032,1.95470516517303,1.91774703830412,1.85319977521263,1.95208721794023,2.00839705732118,2.00168437210888,2.01723862270082,1.91528252387618,1.99060844150857,1.91297144225308,1.91089050983727,1.90999868165906,2.00235564063011,2.00667093826659,2.00271045399133,1.90882875652206,1.98852750909275,2.0055297817805,1.9054628243656,1.90526144380923,2.00403381193318,1.98887273290367,1.90221196681278,1.90116670582972,1.98973579243097,1.98410672640293,1.89894193015936,1.9851807560369,1.99052213555584,1.98674385273634,1.99481825409172,1.97548572068027,1.88850849942937,1.88537271648019,1.97126631854682,1.88204514252495,1.9677085953843,1.96317273809084,1.87568727067386,1.87219667436346,1.87191857740467,1.87408581577321,1.95540520234517,1.97513090731905,2.00674765466902,1.9078026746396,1.80296012117366,1.97750911579427,1.79779135356019,1.79649676426924,1.79323631716612,1.79541314508497,1.89910495251451,1.79190336967396,1.9755624370827,1.78964023580239,1.89144290182218,1.79213351888124,1.79130881755516,1.79100195194545,1.78631266184714,1.88777010405602,1.8877317458548,1.78656199015503,1.97233075863049,1.7027013727527,1.76213740553253,1.64815601062755,1.69259398673303,1.64061862408916,1.63646634880783,1.63857604987456,1.74707222200605,1.80693019499923,1.63128799164405,1.80635482198103,1.62726038051667,1.62718366411424,1.62567810471662,1.62688638805484,1.79532683913224,1.62579317932026,1.6256109778645,1.79525012272981,1.62423967217113,1.62687679850454,1.62716448501363,1.78893060907994,1.78664829610776,1.62988791729977,1.78057811076577,1.63344564046229,1.6366581398139,1.63659101296178,1.63982269141399,1.64034052713036,1.64124194485887,1.64390783984319
1.84944067149374,1.94700475627948,1.8487310447713,1.84821320905492,1.95313247892329,1.84308279964266,1.940666063529,1.90195304895459,1.83837433044374,2.01897433130572,1.83440425661817,1.88221775443041,1.94539371182853,1.82967660831865,1.8269244073816,1.82828612352467,1.82591750459976,1.82530377338034,1.81966511780201,1.93523837805733,1.8711322342798,1.82095011754265,1.82174605021782,1.82302146040816,1.87119936113192,1.82451743025547,1.82587914639854,1.97242665413352,1.97228281087897,1.95039945708685,1.95011177057775,1.94542248047944,1.96723870741943,1.93896871312532,1.93909337727926,1.9304915506572,1.8586370502346,1.96443855873087,1.92440218621461,1.96546464061332,1.91857173963021,1.92022114228237,1.84299649368993,1.91384409133068,1.91116860679606,1.90812871934992,1.90746704037899,1.90876162966993,1.91088092028696,1.90813830890022,1.91118778589667,1.91210838272578,1.91518662837314,1.95165568817658,1.94962270351228,2.03395320887947,1.92123763461452,1.99175918754496,1.99037829230129,1.98710825564786,1.9118782335185,1.91132203960091,1.90903972662873,1.90916439078267,1.90873286101902,1.90797528654506,2.00091720808461,1.97773926500154,2.00063911112582,1.99522101520445,1.90637383164441,1.99552788081416,1.90489704089771,1.90317092184311,1.98044351818707,1.99417575422139,1.89765693041872,1.89756103491568,1.98094217480285,1.98087504795072,1.98248609240168,1.97901467519188,1.98076956289739,1.97825710071792,1.98353135338474,1.97825710071792,1.98177646567923,1.98596709916177,1.87945596394306,1.96461117063633,1.8760900317866,1.87414335307503,1.87277204738166,1.87191857740467,1.86193585553894,1.80989336604295,1.80813847833744,1.80349713599065,1.85052429067801,1.79949829351417,1.79823247287414,1.79662142842319,1.8443773889336,1.79535560778315,1.79315001121339,1.79231572033701,1.89610342326958,1.79224859348488,1.79283355605338,1.79251710089337,1.78952516119875,1.78858538526902,1.79012930286785,1.83579474141215,1.88106700839401,1.88210267982677,1.78614004994168,1.654398807875,1.64933552531486,1.64651619752569,1.64205705663465,1.63820205741273,1.73541132883724,1.63292780474592,1.63335933450956,1.62843030565367,1.62961940989128,1.62800836544033,1.62711653726212,1.62572605246814,1.62567810471662,1.6250164257457,1.62754806702577,1.62537123910692,1.62543836595904,1.62455612733114,1.62423008262083,1.78871004942297,1.62685761940393,1.62610004492997,1.78897855683146,1.62820974599669,1.62956187258946,1.63070302907555,1.63250586453257,1.63933362434852,1.77110363506611,1.63738694563695,1.76533072578353,1.69053223341782
1.84861597016766,1.84684190336155,1.94664035336795,1.84498153060271,1.84344720255418,1.84269921763052,1.93852759381137,1.90075435516668,1.83632216667883,1.88519051502443,1.83413574920968,1.88178622466676,1.9266940887371,1.94179763046479,1.82638739256462,1.82414343779365,1.82486265406639,1.82512157192458,2.01504261568137,2.00565444593444,1.8202309012699,1.82155425921176,1.82136246820569,1.87082536867009,1.87152540584223,1.92108420180967,1.91766073235139,1.97124713944621,2.04352358008216,1.95423527720817,1.8754858901175,1.87334742039986,1.94461695825396,1.93872897436773,1.93504658705127,1.93756863878104,1.93124912513116,2.0512048098751,1.92403778330308,1.92358707443883,1.91939644095629,1.91892655299143,1.91422767334281,1.91271252439489,1.96157128319019,1.83774142012372,1.90909726393055,1.90849312226144,1.90831092080568,1.90759170453293,1.90871368191842,1.95426404585907,1.95500244123243,2.02446914362951,1.92430629071158,2.02773918028293,2.0084354155224,1.99032075499947,1.98869053144791,1.91411259873917,1.91254950203974,1.91059323377786,1.91061241287847,1.90887670427357,1.90809995069901,2.00474343865563,1.99745538042512,1.98071202559557,1.9776050112973,1.97774885455185,1.90428330967829,1.90457099618739,1.98233265959682,1.90229827276551,1.9915865756395,1.98385739809505,1.89881726600542,1.98361765933747,1.98088463750103,1.9851807560369,1.97144852000258,1.97857355587793,1.97228281087897,1.9711991916947,1.97021146801346,1.97146769910319,1.95780258992099,1.98678221093755,1.87739421062785,1.87653115110055,1.87742297927876,1.87237887581923,1.87155417449314,1.87275286828106,1.81154276869511,1.85823428912186,1.80756310531925,1.89347588648648,1.8586274606843,1.9741144149869,1.90152151919094,1.79760915210443,1.79590221215044,1.84248824752385,1.79386922748614,1.79272807100005,1.89781995277387,1.98806721067819,1.79158691451395,1.79122251160243,1.79057042218181,1.9776146008476,1.83869078560375,1.83619750252489,1.7864852737526,1.96967445319647,1.78377143101677,1.65133015177794,1.81609780508918,1.64622851101659,1.64182690742738,1.81464019344308,1.63435664774111,1.80965362728537,1.63050164851918,1.62672336569968,1.62614799268149,1.62935090248279,1.6736066771325,1.62469038103538,1.62403829161476,1.62408623936628,1.62334784399292,1.73476882896692,1.62567810471662,1.62231217256017,1.62297385153109,1.62247519491532,1.78700310946898,1.67298335636279,1.73995677568101,1.62993586505129,1.67679040783319,1.63343605091199,1.77839169329662,1.7730982615292,1.6343470581908,1.63962131085762,1.68744439822016,1.64283381020922
1.84944067149374,1.94351415996908,1.846698060107,1.84519250070938,1.94887471858862,1.94463613735457,1.94622800270491,1.83665780093945,1.94742669649282,1.88459596290563,1.89246898370463,1.92054718699268,1.83211235409569,1.93966875029746,1.826051758304,1.93808647449741,1.86843757064457,1.8213816473063,1.8193582521923,1.82157343831236,1.82001993116323,1.82048022957779,1.90442715293284,1.88717555193721,1.87371182331139,1.82531336293065,1.99059885195827,1.95817658238282,1.95662307523369,1.96674964035397,1.94882677083711,1.87228298031619,1.94431968219456,1.93780837753862,1.93876733256895,1.93671516880404,1.93150804298935,1.85510809572299,1.92601323066556,1.92450767126795,1.91723879213805,2.03329152990854,2.0584832785553,1.91405506143735,2.05186648884603,1.90736155532565,1.83546869670184,1.90708345836686,1.90802323429658,1.90786980149173,1.90831092080568,1.90912603258146,1.91113983814515,1.91960741106296,1.92162121662665,1.92939834192263,2.03019410516058,2.01666324968262,2.01034373603275,2.00091720808461,1.91425644199372,1.91079461433423,1.90827256260447,1.90660398085169,1.90887670427357,1.90852189091235,2.00430231934168,1.98656165128058,1.98878642695094,1.99468400038747,1.98434646516052,1.99105915037282,1.98396288314838,1.98774116596788,1.89932551217149,1.98475881582356,1.97249378098564,1.97857355587793,1.98465333077022,1.89425264006105,1.96935799803646,1.89100178250823,1.97829545891914,1.95875195540102,1.88805779056512,1.9732513554596,1.9621850144096,1.87902443417941,1.96756475212975,1.95794643317554,1.87530368866173,1.8731843980447,1.86986641363976,1.86990477184098,1.85914529640068,1.85755343105033,1.85449436450358,1.80376564339914,1.80157922592999,1.80050519629602,1.7981173982705,1.79821329377353,1.79431034680009,1.86196462418985,1.84919134318586,1.79262258594671,1.98483553222598,1.79178829507032,1.79273766055035,1.79019642971998,1.7888155344763,1.79010053421694,1.8359385846667,1.83493168188485,1.78699351991868,1.78568934107743,1.87917786698426,1.64947936856941,1.64478048892079,1.64415716815108,1.64051313903582,1.81484157399945,1.63481694615567,1.81154276869511,1.62990709640038,1.80266284511426,1.67424917700282,1.62591784347421,1.62490135114206,1.72246543592779,1.62022165059405,1.62118060562438,1.80069698730209,1.62253273221714,1.6215258294353,1.62324235893959,1.62272452322321,1.78746340788354,1.6250356048463,1.76646229271932,1.67492044552405,1.67607119156045,1.76090994309371,1.62908239507429,1.6334744091132,1.63369496877018,1.63558411017993,1.63669649801511,1.63719515463088,1.64225843719102
1.84952697744647,1.8475707091846,1.97131426629834,1.89127028991672,1.94679378617281,1.84154847159413,1.83892093481103,1.83514265199153,1.84073335981835,1.83528649524608,1.8341836969612,2.09984300901342,2.01441929491165,1.87784491949211,1.82625313886037,1.82363519162757,1.90923151763479,1.82305022905907,1.86899376456216,1.99401273186624,1.81933907309169,1.92487207417947,1.81925276713896,1.90201058625641,1.82241731873905,2.00107064088946,1.8248914227173,1.88158484411039,1.96739214022429,1.96524408095635,1.8740378680217,1.94426214489274,1.96467829748845,1.93807688494711,1.93910296682956,1.96250146956961,1.96146579813685,1.8545423122551,1.8548395883145,1.84887488802585,2.04060835678996,1.91774703830412,1.84217179236384,1.84014839724985,1.90987401750512,1.96100549972229,1.91168644251244,1.83367545079512,1.90598066008198,1.9069108464614,1.90911644303116,1.91182069621668,2.02418145712041,1.949392554305,1.94728285323827,1.94772397255223,2.00447493124713,2.00842582597209,2.00796552755753,1.91430438974524,1.91118778589667,1.91101517399121,1.98071202559557,1.90723689117171,1.90734237622505,1.99571967182023,1.90811912979961,1.98466292032052,1.99143314283465,1.97724060838577,1.97706799648031,1.98205456263803,1.90188592210247,1.99090571756797,1.89809804973267,1.98066407784405,1.97930236170098,1.9845957934684,1.9758788922427,1.96786202818915,1.97961881686099,1.97888042148764,1.9776146008476,1.88849890987907,1.97361575837113,1.96453445423391,1.96576191667273,1.9653879242109,1.96054520130773,1.96108221612472,1.87415294262534,1.87232133851741,1.872877532435,1.94099210823931,1.81203183576058,1.80967280638597,1.89796379602842,1.80236556905486,1.80171347963424,1.90754375678141,1.90150234009034,1.84396503827056,1.84274716538204,1.79507751082435,1.84181697900262,1.79214310843155,1.79235407853822,1.84077171801956,1.79281437695278,1.79191295922427,1.79183624282184,1.78899773593206,1.8368112337443,1.83695507699885,1.78724284822656,1.78538247546772,1.78517150536105,1.64688060043721,1.64409963084926,1.63994735556793,1.63680198306845,1.81475526804672,1.63321549125501,1.63048246941858,1.62808508184275,1.80577944896283,1.67316555781855,1.62614799268149,1.62267657547169,1.66998182711785,1.6180352331249,1.79525971228012,1.61918597916129,1.61699956169214,1.62247519491532,1.6203654938486,1.62272452322321,1.78812508685446,1.78545919187015,1.68032895189511,1.62139157573105,1.67304089366461,1.67468070676647,1.67605201245984,1.63169075275679,1.63263052868651,1.76588691970112,1.63424157313747,1.63878701998123,1.80994131379446
1.84761865693612,1.84502947835423,1.9703457217177,1.84435820983299,1.84431026208148,1.83998537489469,1.94917199464802,1.83678246509339,1.8350755251394,1.9450388984673,1.83494127143516,1.83323433148117,1.9203074482351,1.93878651166955,1.93725218362103,1.88272600059648,1.93540140041249,1.92260894030789,1.81943496859473,1.86790055582759,1.82095011754265,1.92488166372977,1.81920481938745,1.90085025066971,1.82328037826635,1.82452701980578,1.82581201954642,1.9552230008894,1.95620113502034,1.96443855873087,2.0424687295488,1.96348919325085,1.96120688027866,1.9409441604878,1.93729054182224,1.93463423638823,1.92913942406444,1.96143702948594,1.92527483529221,1.92459397722068,1.92057595564359,1.91907998579628,1.91226181553064,1.83822089763889,1.90921233853419,1.83532485344729,1.83453851032242,1.90785062239112,1.90544364526499,1.8330233613745,1.90755334633172,1.95186665828325,1.91270293484459,1.91873476198536,2.03809589461049,1.94337990626483,1.99814582804696,2.01113966870793,1.98873847919943,1.91451535985191,1.91461125535494,1.90940412954025,1.90935618178874,1.99781978333665,1.99888422342031,2.00515578931867,2.00341049116347,1.99888422342031,2.00196246906767,1.98787541967213,1.98439441291203,1.98833571808669,1.99155780698859,1.98444236066355,1.99147150103586,1.89787749007569,1.98433687561021,1.97793105600761,1.97859273497854,1.972378706382,1.9717937438135,1.9784968394755,1.97368288522325,1.97289654209838,1.97157318415652,1.96420840952359,1.96032464165076,1.87936006844003,1.96124523847987,1.87514066630658,1.87266656232833,1.87184186100224,1.87024999565189,1.94061811577748,1.96758393123035,1.99587310462508,1.80628769512891,1.80281627791912,1.98884396425276,1.90355450385524,1.84649667955063,1.84478015004634,1.84367735176146,1.79475146611404,1.84119365823291,1.79444460050434,1.79165404136608,1.87769148668725,1.83811541258555,1.83851817369829,1.78885389267752,1.90088860887093,1.788805944926,1.96932922938555,1.881604023211,1.78595784848592,1.78571810972834,1.64648742887478,1.64342836232803,1.6407336986928,1.63775134854847,1.63369496877018,1.63062631267313,1.62655075379422,1.62586989572269,1.80323821813246,1.693984471527,1.62263821727048,1.62106553102074,1.62001068048738,1.79848180118202,1.61752698695882,1.6195120238716,1.6180448226752,1.61964627757585,1.79223900393458,1.72725062152914,1.62027918789587,1.78581400523137,1.62359717230081,1.6241629557687,1.67317514736885,1.67544787079073,1.62730832826818,1.77232150795463,1.63263052868651,1.63331138675805,1.63249627498227,1.63365661056897,1.75669054096026
1.95092688235353,1.84225809831657,1.94795412175951,1.84324582199781,1.84457876948997,1.84140462833958,1.8394291809771,1.83700302475037,1.83464399537576,1.83497962963637,1.8321603018472,1.8307026902011,1.91450577030161,1.8277970564592,1.82562022854035,1.89415674455801,1.93142173703662,1.92069103024723,1.86801563043123,1.86730600370878,1.86773753347243,1.86784301852577,1.81896508062987,1.86890745860943,1.86862936165064,1.87115141338041,1.82357765432575,1.88269723194557,1.95240367310024,2.04115496115724,1.9450388984673,1.94368677187454,1.86828413783972,1.93849882516046,1.93707957171557,1.93173819219663,1.85799455036428,1.92533237259403,1.96143702948594,1.84838582096038,1.84293895638811,1.91723879213805,1.91306733775611,1.91112065904454,1.90828215215477,1.90815748800083,1.83306171957571,1.91131245005061,1.83472071177818,1.90767801048566,1.90727524937292,1.83574679366063,1.91181110666638,1.91818815761807,1.92108420180967,2.04573876620222,2.00302690915134,1.99956508149185,1.91489894186404,1.99956508149185,1.91160972611001,1.90856024911356,1.9075053985802,1.99567172406871,1.90757252543232,1.9971005670639,1.90585599592803,1.99148109058617,2.00423519248955,2.01238631024735,1.98835489718729,1.97808448881246,1.9834354578817,1.97670359356879,1.89755144536538,1.8964390575302,1.97493911631298,1.9860342260139,1.99121258317768,1.97792146645731,1.97604191459786,1.97249378098564,1.97775844410215,1.96734419247277,1.97057587092498,1.95479147112576,1.9517132254784,1.95804232867857,1.87698185996481,1.96100549972229,1.87281040558288,1.87020204790038,1.94746505469404,1.96168635779383,1.97514049686935,1.8088768737108,1.80677676219438,1.80460952382583,1.84972835800284,1.89777200502236,1.89696648279688,1.98485471132659,1.79264176504732,1.79515422722678,1.79465557061101,1.79483777206677,1.88938114850697,1.83930451682316,1.79191295922427,1.83850858414798,1.79109784744849,1.96410292447026,1.78907445233449,1.78725243777687,1.78523863221317,1.97758583219669,1.78484546065074,1.64467500386745,1.64175978057525,1.63690746812178,1.81288530573758,1.6340306030308,1.7314892027632,1.62725079096636,1.62597538077603,1.62428761992265,1.623002620182,1.66948317050208,1.62051892665345,1.72672319626246,1.61778590481701,1.6192147478122,1.61872568074673,1.6186201956934,1.61664474833092,1.61807359132611,1.62003944913829,1.61878321804855,1.62089291911528,1.62044221025102,1.6229930306317,1.78118225243488,1.62402870206446,1.7754381118032,1.76962684431941,1.62970571584401,1.76679792697993,1.63264011823682,1.63426075223807,1.63763627394483
1.84747481368157,1.849891380358,1.84376365771419,1.94709106223221,1.84158682979534,1.83981276298923,1.83771265147281,1.8385565318995,1.83514265199153,1.83414533875998,1.83086571255626,1.92136229876847,1.94101128733992,1.82966701876834,1.82651205671856,1.87145827899011,1.92899558080989,1.82136246820569,1.86551275780207,1.81781433459347,1.86655801878513,1.86682652619362,1.86644294418149,1.86777589167364,1.82192825167358,1.9185621500799,1.82477634811366,2.0407426104942,1.95068714359595,1.95102277785656,1.94757053974737,1.96068904456228,1.94376348827696,1.96021915659742,2.0517993619939,1.93573703467311,1.9290339390111,1.92774893927046,1.96024792524833,1.96221378306051,1.84285265043538,1.91518662837314,1.91459207625434,1.90769718958627,1.9572463960034,1.906930025562,1.90735196577535,1.90464771258982,1.90530939156075,1.83196851084114,1.952585874556,1.949392554305,1.95190501648446,2.03662869341409,1.9226185298582,1.94758971884798,1.91868681423385,2.02426776307314,1.98759732271333,1.99686082830632,1.91131245005061,1.90854107001296,1.90669987635472,1.98628355432178,1.90724648072201,1.99471276903838,1.98370396529019,1.90502170505165,2.00014045451004,1.9031325636419,1.98897821795701,1.90154069829155,1.99006183714128,1.98004075707434,1.89715827380294,1.89561435620411,1.89404166995437,1.99010019534249,1.89182648383431,1.9810956076077,1.97397057173235,1.96790038639036,1.88749200709722,1.88531517917837,1.88514256727291,1.9648125511927,1.95786012722281,1.88012723246429,1.87745174792967,1.87401868892109,1.87242682357074,1.86950201072824,1.8702691747525,1.96564684206909,1.96210829800717,1.89742678121144,1.80607672502224,1.80378482249975,1.84821320905492,1.885967268599,1.79712967458926,1.79498161532132,1.98765486001515,1.79478023476495,1.89105931981005,1.79193213832487,1.79234448898792,1.84023470320258,1.83886339750921,1.83845104684616,1.79087728779151,1.98099012255436,1.97421031048993,1.97481445215904,1.7853249381659,1.78316728934766,1.87340495770168,1.64339000412681,1.64113645980554,1.63716638597997,1.86089059455588,1.63250586453257,1.62816179824518,1.62720284321485,1.80267243466457,1.80099426336149,1.6200682177892,1.71565685521245,1.71178267688992,1.61785303166913,1.71852413075314,1.79295822020733,1.79399389164008,1.79527889138072,1.61464053231753,1.61768041976367,1.61671187518304,1.78704146767019,1.78538247546772,1.6197901208304,1.61786262121944,1.62136280708014,1.62282041872624,1.62568769426693,1.62770149983062,1.77118994101884,1.76661572552417,1.63062631267313,1.75657546635662,1.63628414735207
1.94566221923702,1.84574869462697,1.84557608272151,2.12100714653279,1.84112653138078,1.83674410689218,1.83718522620613,1.88587137309597,1.8353440325479,1.93668640015313,1.88050122492612,1.87938883709094,1.87795999409575,1.92190890313575,1.87422006947746,1.92187054493454,1.81918564028684,1.81852396131591,1.8650141011863,1.81781433459347,1.81938702084321,1.86435242221537,1.81816914795469,1.90579845862622,1.91054528602635,2.00037060371732,1.82378862443242,1.96127400713078,1.95542438144577,1.9490952782456,1.8743351440811,1.94582524159217,1.961312365332,1.93983177265261,1.8615330944262,1.93130666243298,1.92725987220499,1.92773934972016,1.92129517191634,1.92031703778541,1.91882106793809,1.95758203026402,1.91101517399121,1.91149465150637,2.04049328218632,1.9072177120711,1.90553954076803,1.95407225485301,1.90480114539467,1.90484909314619,1.95109949425899,1.90599024963228,1.90908767438025,1.91545513578163,1.91776621740473,1.94390733153151,2.03470119380313,1.91482222546162,1.9860534051145,1.91177274846517,1.9877891137194,1.90928905493661,1.90672864500563,1.99086735936676,1.99726358941906,1.98911247166125,1.90553954076803,1.9048778617971,1.99368668715593,1.99870202196455,1.98211209993985,1.98943851637157,1.9909824339704,1.97938866765371,1.99077146386372,1.99068515791099,1.89530749059441,1.97243624368382,1.98093258525254,1.97773926500154,1.96694143136003,1.98091340615194,1.88613029095415,1.88530558962807,1.95864647034768,1.97159236325713,1.97133344539894,1.96532079735878,1.96261654417325,1.87330906219865,1.87117059248101,1.86902253321307,1.9488171812868,1.941835988666,1.97445004924751,1.80899194831444,1.80602877727072,1.85225040973261,1.8478583956937,1.79849139073233,1.79581590619771,1.79500079442193,1.79598851810317,1.79387881703644,1.79369661558068,1.98050105548889,1.79319795896491,1.79361989917825,1.79175952641941,1.8373866067625,1.78824975100841,1.78867169122175,1.78768396754051,1.97118960214439,1.78526740086408,1.78173844635247,1.78075072267123,1.64096384790008,1.81387302941882,1.63680198306845,1.63223735712408,1.63051123806949,1.80185732288879,1.62329989624141,1.62264780682078,1.61974217307888,1.716654168444,1.71429513906939,1.79815575647171,1.61721053179881,1.6148515024242,1.70627827501583,1.61497616657815,1.79507751082435,1.61325004752355,1.61722012134912,1.61628034541939,1.61651049462667,1.78380019966768,1.61829415098309,1.61715299449699,1.62146829213348,1.6215258294353,1.7713433738237,1.62591784347421,1.7242395027339,1.62943720843552,1.75960576425246,1.7594139732464,1.75465755629596
