0,1.96951904940258,1.96501238116204,1.79259412885753,1.9619952049671,1.98577933756708,1.79516254783361,1.95521610655442,1.92561722616102,1.85067477061013,0,1.95363113424948,2.0262056793689,1.91900044418921,1.94903853377554,1.94961141533154,1.9160501041758,1.91346258914786,1.94978327979834,1.90953835048925,0,1.90982479126725,1.83567482186883,1.90603422497171,1.90297885667304,1.9024250711689,1.90247281129857,1.90149891265337,2.02575692215004,1.94875209299754,0,1.89673444771262,1.89764151017629,2.03287020147039,1.94838926801207,1.82128594678726,1.89309664983202,1.89159760976048,1.89086241176361,1.81717074760999,0,1.94413084844579,2.02529861690524,1.94267954850392,1.81743809233612,1.81739035220645,1.94054079069485,1.89013676179268,1.93939502758285,1.89602789379356,0,1.82150555138373,1.82242216187333,1.82426493087847,1.82538204991267,1.90126021200503,1.90247281129857,1.90382863098111,1.90989162744879,2.00817900640673,0,1.93406722911204,2.02141257035036,2.00162906061645,1.99894606532918,1.98149227392301,1.97849419377993,1.98710651317182,1.97850374180587,1.98214153968648,0,1.90250145537637,1.97620266755593,1.97326187556846,1.90042953374883,1.89851992856216,1.97655594451546,1.97298498281639,1.89874908118456,1.99610075360104,0,1.98193148311594,1.9773675267198,2.00639352555719,1.96977684610278,1.98080481605581,1.9798882055662,1.97086532105918,2.01196002467634,1.89780382661716,0,1.97307091504979,1.96810594156445,1.97539108535159,1.9956329003303,1.98270487321654,1.97666097280073,1.98693464870502,1.89615201813069,1.89616156615662,0,1.97901933520627,1.98372651199141,1.979200747699,1.89593241353422,1.98553108889282,1.89585602932676,1.97706198988993,1.97803588853513,1.98629493096748,0,1.98362148370615,1.97924848782867,1.97456040709539,1.96508876536951,1.9624821542897,1.98277170939808,1.97612628334846,1.9780836286648,1.88850404935807,0,1.97276537821992,1.96719887910078,1.98440442183268,1.96637774887051,1.88634619549714,1.88603111064133,1.8834435956134,1.88144805819333,1.96990097043992,0,1.88199229567153,1.87970076944752,1.88115206938939,1.87855500633552,1.87995856614772,1.87901331158032,1.97277492624586,1.96618678835184,1.96001876359889,0,1.80424272049623,1.90374269874771,1.79881944176608,1.84376199983438,2.00329041712885,1.78888949479539,1.90926145773719,1.78761960734626,1.90608196510138,0,1.78680802514192,1.78372401276545,1.99585250492677,1.77788062089424,1.82965001750488,1.77894045177284,1.77952288135477,1.7788163274357,1.77707858671583,0,1.86338319312742,1.77693536632683,1.77564638282583,1.77727909526043,1.77576095913703,1.90379043887737,1.84648318722538,1.84522284780218,1.7755795466443,0,1.87943342472139,1.8378995119113,1.77662028147103,1.82463730388987,1.77473932036216,1.77745095972723,1.78028672342944,1.7781861577241,1.78058271223337,0,1.99608165754917,1.87781980833865,1.7776132761681,1.82818916953708,1.82685244590641,1.88980258088501,1.7785871748133,1.77929372873237,1.80711667630216,0,1.80459599745576,1.75877502100159,1.70556387247501,1.80076723905648,1.80540757966009,1.7019547186722,1.70219341932054,1.79780735101714,1.698402853025,0,1.74399467685676,1.7442333775051,1.69499420776679,1.77828163798344,1.69167149474198,1.69062121188931,1.68915081589558,1.80703074406876,1.68916036392151,0,1.69059256781151,1.68794776462797,1.68692612585311,1.68665878112697,1.68773770805744,1.68553211406684,1.73304309111121,1.68524567328884,1.68710753834584,0,1.68562759432617,1.80768955785817,1.68650601271204,1.90755236109511,1.6848351081737,1.80760362562477,1.68287776285736,1.81209119781344,1.81158515243897,0,1.80982831566724,1.68461550357723,1.6856084982743
0,1.79399768866974,1.91520032986773,1.7941886491884,1.79426503339587,1.79718672933148,1.79686209644974,1.95578898811042,1.92423276240068,1.85172505346279,0,2.03123748903578,1.85034058970246,2.02893641478584,1.95226576654101,2.03121839298391,2.02565189386477,1.91327162862919,1.95231350667068,1.95046118963961,0,1.90927100576312,1.83617131921736,1.83579894620596,1.948828477205,1.83178877531395,2.03339534289672,2.04507257861321,1.82846606228914,1.82678560972487,0,1.89723094506116,1.8236729532706,1.89606608589729,1.8231287157924,2.01980850199356,1.89318258206542,1.89293433339115,1.89138755318995,1.89100563215261,0,1.94292779717819,1.94446502935346,1.94369163925286,1.88935382366614,1.89076693150428,1.89084331571175,1.94249813601119,1.94213531102572,1.89349766692122,0,1.82136233099473,1.82268950659947,1.89729778124269,1.93782915132978,1.93702711715138,1.93677886847711,1.90627292562005,1.90681716309825,1.84075437166537,0,2.0259192385909,2.0246588991677,1.99986267581878,1.98953171175889,1.98253300874974,1.97820775300193,1.97880927863574,1.99942346662585,1.98240888441261,0,1.98204605942714,1.97492323208086,1.97632679189306,1.90109789556417,1.9023391389355,1.98520645601108,1.97247893744192,1.97193469996372,1.97295633873859,0,1.98611351847475,1.96844012247211,1.96896526389845,1.98030831870727,1.98050882725187,1.8987299851327,1.98831911246536,1.97057888028118,1.98404159684721,0,1.98242798046448,1.98270487321654,1.98817589207636,1.89651484311616,1.89758422202069,1.98013645424047,1.98630447899342,1.976622780697,1.98536877245195,0,1.89595150958609,1.98219882784208,1.97887611481727,1.98538786850382,1.9793153240102,1.98596075005982,1.98265713308688,1.98642860333055,1.9781409168204,0,1.98431848959928,1.97962086084007,1.96846876654991,1.96629181663711,1.97223068876765,1.97600215901133,1.98260939295721,1.88976438878128,1.98018419437014,0,1.98257120085348,1.97327142359439,1.97731978659013,1.88775930333527,1.88626981128967,1.9773102385642,1.97270809006432,1.8838446127026,1.88276568577213,0,1.88278478182399,1.88183952725659,1.88031184310726,1.87931884841019,1.87658811299325,1.87808715306478,1.94912446600894,1.96275904704177,1.95166424090721,0,1.95151147249228,1.91270829509913,1.79566859320807,1.79603141819354,1.79240316833887,1.790378986841,1.791095088786,1.78972017305159,1.78700853368652,0,1.78567181005585,1.90785789792498,1.78319887133911,1.90724682426525,1.90610106115324,1.89856766869183,1.8408784960025,1.7775559880125,1.77748915183097,0,1.77684943409343,1.77565593085176,1.7762956485893,1.90420100399251,1.77365084540576,1.77419508288396,1.7749493769327,1.77361265330203,1.77465338812876,0,1.8235297328816,1.7759805637335,1.90240597511704,1.7774700557791,1.77740321959757,1.7770403946121,1.77637203279677,1.7765820893673,1.77719316302703,0,1.87008590733263,1.77742231564943,1.77694491435277,1.82784544060348,1.82703385839914,1.77617152425216,1.7779283610239,1.77710723079363,1.71161732091676,0,1.71206607813563,1.75833581180866,1.75531863561372,1.70497189486714,1.8091599538519,1.70414121661094,1.69853652538806,1.69935765561833,1.6983455648694,0,1.74407106106423,1.74271524138169,1.74121620131016,1.69136595791211,1.68962821719224,1.68983827376278,1.68677335743817,1.80720260853557,1.80387034748482,0,1.68733669096824,1.68859703039144,1.6864678206083,1.68644872455644,1.68686883769751,1.68841561789871,1.68539844170377,1.68873070275451,1.6866396850751,0,1.8072408006393,1.81444956021898,1.6836320569061,1.85979313537648,1.73279484243694,1.73027416359053,1.68181793197876,1.68042392019249,1.68235262143103,0,1.8080714788955,1.68355567269863,1.6826581582609
0,1.79382582420294,1.84055386312077,1.79412181300687,1.96542294627717,1.7949333952112,1.84362832747131,1.93052491149076,1.854704037554,1.92538807353862,0,1.852985392886,1.95528294273595,1.85019736931346,1.95197932576301,1.95349746188641,1.95196977773708,1.91445558384493,1.91359626151093,1.91312840824019,0,1.91094191030146,1.94982147190207,1.90803931041772,1.90661665455365,1.90589100458271,2.0412056281102,1.9490289857496,2.04813749493782,1.82983142999761,0,1.89640981483089,2.0220809321657,1.94953503112407,1.82173470400613,1.89027998218168,1.9463650865142,1.89381275177702,1.89078602755615,1.9486279686604,0,1.89012721376674,1.89120614069721,1.94280367284106,1.81940498567839,1.89089105584141,1.89341173468782,1.93988197690545,2.02928969174538,2.02774291154417,0,2.03145709363225,1.89617111418256,1.8998184600891,1.82614589198734,1.93711304938478,1.90629202167191,1.90570959208998,1.8366105284103,1.91387315426299,0,2.00692821500946,2.00734832815053,1.90947151430772,1.98774623090935,1.99629171411971,1.99535600757824,2.01151126745747,1.97620266755593,1.98870103350269,0,1.90343716191784,1.90362812243651,1.90295976062117,1.9009642232011,1.976479560308,1.97879018258387,1.90121247187537,1.98709696514589,1.97314729925726,0,1.97157187497825,1.97046430396998,1.98505368759615,1.98904476243629,1.98594165400795,1.98589391387828,1.98598939413762,1.98664820792702,1.98561702112622,0,1.9913935768159,1.98232295217921,1.98214153968648,1.89762241412443,1.98913069466969,1.98153046602674,1.9795731207104,1.89606608589729,1.9775393911866,0,1.89628569049376,1.99246295572043,1.98237069230888,1.97551520968873,1.97292769466079,1.98856736113962,1.97185831575625,1.89271472879468,1.89314438996168,0,1.98528284021855,1.9794585443992,1.98944577952549,1.97458905117319,1.97784492801647,1.96449678776164,1.98207470350494,1.97183921970439,1.9769665096306,0,1.88880958618794,1.96928989678018,1.97634588794493,1.97619311953,1.96885068758725,1.96953814545445,1.88279432984993,1.88079879242986,1.88067466809272,0,1.88423608176586,1.88136212595992,1.88015907469232,1.87939523261765,1.87855500633552,1.95262859152648,1.95269542770801,1.96629181663711,1.95987554320989,0,1.96683605411531,1.79828475231381,1.79729175761674,1.79565904518214,1.84170917425871,1.83988550130544,1.79033124671133,1.78871763032859,1.78533762914818,0,2.00125668760505,1.90782925384718,1.78188124376031,1.78092644116697,1.90646388613871,1.90719908413558,1.87976760562905,1.82586899923527,1.90051546598223,0,1.90435377240744,1.77579915124076,1.77616197622623,1.98663865990109,1.77528355784036,1.77639112884863,1.77528355784036,1.77593282360383,1.77550316243683,0,1.77429056314329,1.9024537152467,1.9011360876679,1.7751498854773,1.82337696446667,1.77734593144197,1.8241599025932,1.77788062089424,1.89606608589729,0,1.7766393775229,1.78090734511511,1.77768966037557,1.86280076354548,1.77808112943884,1.89477710239629,1.89066190321901,1.82576397095001,1.71447218067083,0,1.79602187016761,1.80251452780229,1.79716763327961,1.70502918302274,1.70440856133708,1.80620006581256,1.81106955903857,1.69512788012986,1.69640731560493,0,1.69522336038919,1.78772463563152,1.74146444998442,1.69250217299818,1.69193883946812,1.68824375343191,1.68872115472858,1.69109861318598,1.68780454423897,0,1.68842516592464,1.68664923310104,1.80433820075556,1.80152153310522,1.6854366338075,1.80461509350763,1.80180797388322,1.6866110409973,1.80677294736856,0,1.80251452780229,1.68316420363536,1.732642074022,1.73449439105307,1.73306218716307,1.7309807175096,1.68145510699329,1.74409970514203,1.68275363852023,0,1.68032843993316,1.68191341223809,1.68179883592689
0,1.7918398348088,1.90017173704863,1.7948761070556,1.79448463799234,1.96541339825124,1.79891492202541,1.95859610773482,1.95820463867156,1.92748863924396,0,1.85351053431233,1.92557903405729,1.92354530453348,1.92290558679595,1.918026545544,1.95539751904715,1.9171385791322,1.84153730979191,1.91574456734593,0,1.91164846422052,2.03820754796713,1.95179791327028,1.95207480602234,2.04766964166708,1.95259039942275,1.90246326327264,1.9027974441803,1.90038179361917,0,1.95108181132528,1.9492008502164,2.02165127099869,1.89617111418256,1.89640026680496,2.03131387324325,1.89260970050942,1.89367907941395,1.89611382602696,0,1.89593241353422,1.94575401285446,1.81775317719192,1.89233280775735,1.89179811830508,1.82072261325719,2.01590335938682,1.8216965119024,1.821753800058,0,1.82446543942307,1.89789930687649,1.93999655321665,2.01366912131841,2.01853861454442,1.93829700460051,1.93925180719385,1.91003484783779,1.91047405703072,0,1.91968790205641,1.85860918016074,1.98261894098314,1.99009504528896,1.98889199402136,1.98183600285661,1.9797163410994,1.9792866799324,1.98846233285436,0,1.90537541118231,1.90370450664397,1.90380953492924,1.90226275472804,1.97528605706633,1.9023391389355,1.9000189686337,1.9920237465275,1.99881239296611,0,1.90005716073743,1.99623442596411,1.98225611599768,1.99221470704616,1.90026721730797,1.8995893074667,1.98988498871843,1.98618035465628,1.98318227451321,0,1.98196012719374,1.98461447840321,1.9767373570082,1.97721475830486,1.97923893980274,1.98857690916556,1.89743145360576,1.98507278364802,1.97840826154653,0,1.9799741377996,1.98176916667507,1.99833499166944,1.98918798282529,1.98884425389169,1.99111668406383,1.97784492801647,1.97274628216806,1.97674690503413,0,1.98121538117094,1.89264789261315,1.89280066102808,1.97380611304666,1.89332580245442,1.97494232813273,1.97439809065453,1.98565521322995,1.89025133810388,0,1.88975484075534,1.88805529213921,1.97203018022305,1.9770237977862,1.97956357268447,1.88299483839453,1.88248879302006,1.95558847956582,1.95179791327028,0,1.88191591146406,1.88073195624832,1.87898466750252,1.88295664629079,1.87930930038425,1.88112342531159,1.95282910007108,1.95659102228882,1.87719918665298,0,1.80222808702429,1.79869531742895,1.79759729444661,1.79529622019667,1.84249211238524,1.79084684011173,1.78909000333999,1.83491097979416,1.78622559555999,0,1.78450695089198,1.78347576409118,1.78145158259331,1.78068774051864,1.77868265507264,1.7782148018019,1.84274036105951,1.77601875583723,1.90688399927978,0,1.77275333096802,1.77193220073776,1.77504485719203,1.77510214534763,1.7773554794679,1.7752071736329,1.77490163680303,1.77464384010283,1.77553180651463,0,1.98322046661694,1.90238687906517,1.77677304988597,1.77490163680303,1.77713587487143,1.77513078942543,1.77408050657276,1.77671576173037,1.77169350008942,0,1.7778710728683,1.7762383604337,1.77734593144197,1.77647706108203,1.77619062030403,1.7755795466443,1.77642932095237,1.77415689078023,1.80212305873902,0,1.8067538513167,1.70876246116269,1.70318641401761,1.70552568037128,1.80746040523577,1.80526435927109,1.80443368101489,1.78625423963779,1.7441474452717,0,1.69472686304066,1.74128303749169,1.74107298092116,1.74145490195849,1.68711708637177,1.80350752249936,1.68567533445584,1.68793821660204,1.79712944117588,0,1.79799831153581,1.79526757611887,1.6853793456519,1.68518838513324,1.80425226852216,1.79872396150675,1.79754000629101,1.79725356551301,1.80052853840815,0,1.80008932921522,1.73279484243694,1.73168727142867,1.68240990958663,1.73248930560707,1.73093297737993,1.6825722260275,1.81052532156037,1.6822857852495,0,1.68129279055243,1.68295414706483,1.80836746769943
0,0,0,0,0,0,0,0,0,0,0,0,0,0,0,0,0,0,0,0,0,0,0,0,0,0,0,0,0,0,0,0,0,0,0,0,0,0,0,0,0,0,0,0,0,0,0,0,0,0,0,0,0,0,0,0,0,0,0,0,0,0,0,0,0,0,0,0,0,0,0,0,0,0,0,0,0,0,0,0,0,0,0,0,0,0,0,0,0,0,0,0,0,0,0,0,0,0,0,0,0,0,0,0,0,0,0,0,0,0,0,0,0,0,0,0,0,0,0,0,0,0,0,0,0,0,0,0,0,0,0,0,0,0,0,0,0,0,0,0,0,0,0,0,0,0,0,0,0,0,0,0,0,0,0,0,0,0,0,0,0,0,0,0,0,0,0,0,0,0,0,0,0,0,0,0,0,0,0,0,0,0,0,0,0,0,0,0,0,0,0,0,0,0,0,0,0,0,0,0,0,0,0,0,0,0,0,0,0,0,0,0,0,0,0,0,0,0,0,0,0,0,0,0,0,0,0,0,0,0,0,0,0,0
0,1.90421055201844,1.79555401689687,1.79585000570081,1.79730130564268,1.87817308529818,1.79943051542581,2.03347172710419,2.03818845191526,1.9306490358279,0,1.95852927155329,1.92269553022541,1.84977725617239,1.92281010653661,1.92216084077315,1.91872355143714,1.84376199983438,1.84296951368191,1.91077959386059,0,1.91140021554626,1.90926145773719,1.90818253080672,1.83643866394349,1.90591010063458,2.02804844837404,1.83095809705775,1.90103105938263,1.82805549717401,0,1.82580216305374,2.0417785096662,1.89748874176136,1.89360269520648,1.89497761094089,1.89298207352082,1.89437608530709,1.82063668102379,1.89204636697935,0,1.94391124384933,1.94520977537626,1.89005082955928,1.89066190321901,1.89013676179268,1.89077647953021,1.9453338997134,1.94538163984306,1.89345947481748,0,1.8238734618152,2.01350680487754,1.8996465956223,1.89922648248123,1.90281654023217,1.90454473292611,1.83639092381383,1.83734572640716,1.91210676946532,0,1.91591643181273,1.9320525956401,1.99449668524424,1.90865038407745,1.9952032391633,2.00541962691199,1.98516826390735,1.98231340415328,1.99713194040184,0,1.90521309474144,1.90470704936698,1.90189992974257,1.90341806586597,1.90181399750917,1.9018235455351,1.99118352024536,1.9944584931405,1.98950306768109,0,1.98623764281188,2.00267934346912,1.90115518371977,1.9919951024497,1.99631081017157,1.89972297982976,1.90032450546357,1.98350690739495,1.99140312484183,0,1.9917086616717,1.98522555206295,1.89802343121363,1.98378380014701,1.97338599990559,1.9768519333194,1.97549611363686,1.99177549785323,1.89759377004663,0,1.89720230098336,1.89619021023442,1.89712591677589,1.98051837527781,1.89592286550829,1.98555973297062,1.97362470055392,1.98956990386263,1.97762532342,0,1.98847188088029,1.89355495507682,1.97218294863799,1.97569662218146,1.89275292089842,1.89045184664848,1.97433125447299,1.88943020787361,1.88961162036634,0,1.97520012483293,1.97485639589933,1.97489458800306,1.97619311953,1.96564255087364,1.96576667521077,1.96992006649178,1.96575712718484,1.88116161741532,0,1.95615181309589,1.88264156143499,1.88003495035519,1.88154353845266,1.88017817074419,1.87901331158032,1.9619665608893,1.95986599518396,1.96887933166505,0,1.85428392441293,1.85286126854886,1.9160787482536,1.90817298278078,1.7913242414084,1.78850757375806,1.84291222552631,1.78698943763465,1.78672209290852,0,1.78465971930692,1.78311293910571,1.78217723256424,1.77863491494297,1.77697355843057,1.8680426297829,1.82663284130994,1.84984409235392,1.7775846320903,0,1.77505440521796,1.7749780210105,1.7748920887771,1.77196084481556,1.77120655076682,1.77449107168789,1.90916597747785,1.77377496974289,1.77544587428123,0,1.77485389667336,1.77470112825843,1.77591372755196,1.77468203220656,1.88189681541219,1.77398502631343,1.87180455200064,1.87220556908984,1.7758373433445,0,1.82573532687221,1.83023244708681,1.82306187961087,1.82302368750713,1.85699556377801,1.8715085631967,1.7750066650883,1.77350762501676,1.8538733592978,0,1.70642319480901,1.70804635921768,1.8076131736507,1.70480957842628,1.70237483181327,1.80676339934263,1.80768955785817,1.69559573340059,1.69282680587992,0,1.74179863089209,1.69425900976992,1.78677938106412,1.69173833092352,1.78780101983899,1.69170013881978,1.68905533563624,1.79440825378487,1.80008932921522,0,1.79842797270281,1.68539844170377,1.73432252658627,1.6865251087639,1.80108232391228,1.79862848124741,1.68639143640084,1.78205310822711,1.78149932272298,0,1.68493058843303,1.731353090521,1.68153149120076,1.68322149179096,1.79150565390113,1.75559552836579,1.80725034866523,1.67987013468836,1.68206618065303,0,1.68149329909703,1.80955142291517,1.7759805637335
0,1.79507661560021,1.79585955372674,1.79603141819354,1.96736119554164,1.79832294441755,1.79949735160735,1.9305917476723,2.03281291331478,1.93101186081337,0,1.95643825387389,1.8544748849316,1.85233612712253,1.95587492034382,1.84720883719632,1.84625403460298,1.9185707830222,1.9151334936862,1.95532113483968,0,1.91371083782213,1.90942377417805,1.91181078066139,1.95196977773708,1.95375525858661,2.03793065521506,1.95612316901809,1.83049979181295,1.95243763100781,0,1.82828464979641,1.8993601548443,1.95083356265101,1.82665193736181,1.82422673877474,1.89570326091182,1.82089447772399,1.82098995798333,1.89373636756955,0,1.94628870230673,1.94700480425173,1.94686158386273,1.89327806232475,1.82037888432359,1.82059848892006,1.94611683783993,1.89323032219508,1.89694450428316,0,1.8214100711244,1.89991394034843,1.8995606633889,1.82776905639601,1.83074804048722,1.93905129864925,1.83616177119143,2.01916878425602,1.91657524560213,0,1.93701756912544,1.93919451903825,1.9952032391633,1.9948595102297,2.00145719614965,1.90652117429431,2.00235471058739,2.00221149019839,1.99252024387603,0,1.90329394152884,1.90554727564911,1.90297885667304,1.90420100399251,1.9027115119469,1.90292156851744,1.98044199107034,1.98185509890848,1.99272075242063,0,1.99341775831377,1.9013652402903,1.9948595102297,1.98685826449755,1.99042922619663,1.9003340534895,1.98230385612734,1.99041013014476,1.99559470822657,0,1.97900978718034,1.98169278246761,1.9791721036212,1.98257120085348,1.99760934169851,1.98602758624135,1.98428984552148,1.97550566166279,1.98945532755142,0,1.98620899873408,1.8989877818329,1.99632035819751,1.98901611835849,1.97355786437239,1.89698269638689,1.98129176537841,1.98243752849041,1.89365043533615,0,1.98838594864689,1.89340218666188,1.97591622677793,1.97035927568472,1.97081758092952,1.97411164987652,1.89078602755615,1.97040701581438,1.9777398997312,0,1.88924879538088,1.96662599754478,1.8851335962036,1.88512404817767,1.88520998041107,1.96687424621904,1.95682972293715,1.96346560096084,1.96975775005092,0,1.88041687139252,1.883214442991,1.87980579773279,1.87825901753158,1.87888918724319,1.87579562684078,1.96820142182378,1.95925492152423,1.95966548663936,0,1.85331002576773,1.85199239818893,1.84968177591306,1.79511480770394,1.79202124730153,1.79124785720093,1.84439216954598,1.84308408999311,1.90597693681611,0,1.90591010063458,1.83036611944988,1.82878114714494,1.82798866099248,1.77956107345851,2.00579199992339,1.77717406697517,1.77377496974289,1.90261603168757,0,1.99518414311144,1.99160363338643,1.77266739873462,1.77245734216409,1.77295383951262,1.77329756844623,1.77419508288396,1.77406141052089,1.77435739932483,0,1.90254919550604,1.77434785129889,1.90628247364598,1.7754936144109,1.77437649537669,1.98730702171642,1.77433830327296,1.77240960203442,1.82700521432134,0,1.86488223319896,1.7753217499441,1.85624126972927,1.85442714480193,1.7753217499441,1.77502576114016,1.86647675352983,1.77398502631343,1.70944037100395,0,1.70581212114928,1.70555432444908,1.70394070806634,1.70174466210167,1.70007375756333,1.69703748531653,1.6980591240914,1.69360019598052,1.7914961058752,0,1.69327556309879,1.78871763032859,1.73915382770855,1.68902669155844,1.68795731265391,1.68971414942564,1.68818646527631,1.68700251006057,1.68788092844644,0,1.68557030617057,1.68548437393717,1.68336471217996,1.79604096621947,1.68568488248177,1.68479691606997,1.91882857972241,1.6843195147733,1.80099639167888,0,1.73219331680314,1.79025486250386,1.68405217004717,1.79179209467913,1.73190687602514,1.67869572749855,1.7770117505343,1.68101589780036,1.68061488071116,0,1.81011475644524,1.8064960546165,1.67897262025062
0,1.79675706816448,1.79669023198294,1.79628921489374,1.79752091023914,1.79826565626195,1.79886718189575,1.93109779304677,1.9327400535073,1.92891129510803,0,1.92869169051156,1.96203339707083,1.95748853672656,1.9623389339007,1.84973906406866,1.91903863629294,1.84621584249925,1.84449719783125,1.95614226506995,0,1.91568727919033,1.91241230629519,1.95398441120901,1.95526384668408,1.90829710711792,1.83456725086056,1.83451951073089,1.83036611944988,1.90011444889303,0,1.89972297982976,1.8996465956223,2.04257099581867,1.95154966459601,1.95179791327028,1.95258085139681,1.89645755496056,1.89579874117116,1.82193521255073,0,1.82144826322813,1.89195088672001,1.89255241235382,1.89230416367955,1.89183631040881,1.89262879656128,1.89281020905402,1.8232432921036,1.89605653787136,0,1.94218305115539,1.94219259918132,1.90085919491583,1.90301704877677,1.83009877472375,1.83495871992383,1.90950970641145,1.93940457560878,1.93715124148851,0,1.93845932104138,2.0241719498451,2.00287030398779,2.00221149019839,1.99569973651184,1.90923281365939,1.99886013309578,1.98909250256596,1.97996458977367,0,1.90678851902045,1.90558546775284,1.90444925266677,1.90361857441057,1.90347535402157,1.90315072113984,1.90254919550604,1.97563933402586,1.98932165518836,0,1.99332227805443,1.9024537152467,1.99247250374636,1.98172142654541,1.90260648366164,1.98507278364802,1.98013645424047,1.97338599990559,1.97315684728319,0,1.8993601548443,1.97239300520852,1.98682962041975,1.89714501282776,1.97947764045107,1.97351012424272,1.97190605588592,1.89667715955702,1.97507600049579,0,1.89723094506116,1.97007283490672,1.98201741534934,1.98432803762521,1.97926758388054,1.98160685023421,1.97668961687853,1.89433789320335,1.98063295158901,0,1.975763458363,1.89450020964422,1.89316348601355,1.9928257807059,1.96625362453337,1.98186464693441,1.99548013191537,1.95913079718709,1.96996780662145,0,1.98234204823108,1.978914306921,1.8866230882492,1.96932808888391,1.97321413543879,1.95649554202949,1.97978317728094,1.8836154600802,1.88240286078666,0,1.87993947009586,1.88053144770372,1.88020681482199,1.87936658853985,1.87828766160939,1.87714189849738,1.87674088140818,1.87744743532725,1.87613935577438,0,1.85345324615673,1.80087226734175,1.79924910293308,1.79565904518214,1.90468795331511,1.79099006050073,1.78839299744686,1.84431578533851,1.78630197976745,0,1.9021386303909,1.78197672401964,1.82754945179954,1.78127017010058,1.78000983067737,1.98013645424047,1.90951925443739,1.98029877068134,1.77462474405096,0,1.77548406638496,1.7752644617885,1.77567502690363,1.82087538167213,1.82078944943873,1.77164575995976,1.77314480003129,1.77402321841716,1.77434785129889,0,1.77208496915269,1.77237140993069,1.77284881122736,1.8999903245559,1.7749493769327,1.77446242761009,1.77281061912362,1.77361265330203,1.82546798214607,0,1.8237302414262,1.86194144121148,1.77447197563603,1.87368551310951,1.77288700333109,1.86672500220409,1.87270206643837,1.88908647894001,1.89111066043788,0,1.92281010653661,1.91979293034167,1.70468545408914,1.70340601861407,1.69964409639633,1.69789680765053,1.92325886375548,1.69485098737779,1.80469147771509,0,1.69167149474198,1.69152827435298,1.68992420599618,1.68686883769751,1.68835832974311,1.68536979762597,1.68685928967157,1.79306198212827,1.68467279173283,0,1.80053808643408,1.6838898536063,1.68530296144444,1.68468233975877,1.68198979644556,1.78166163916384,1.91855168697034,1.91552496274947,1.80029938578575,0,1.73214557667347,1.7328425825666,1.73038873990173,1.73817038103742,1.7307229208094,1.67933544523609,1.68255312997563,1.80894989728137,1.68194205631589,0,1.68220940104203,1.68173199974536,1.68123550239683
0,1.84331324261551,1.90754281306918,1.79540124848194,1.79715808525368,1.79713898920181,1.79938277529615,1.92989474177916,1.96028610832503,1.9296751371827,0,1.92707807412882,1.92633332810602,1.92551219787575,1.92566496629069,1.95603723678469,1.91895270405954,1.91987886257507,1.95736441238942,1.84498414715385,0,1.9158209515534,2.03843670058953,1.90992027152659,1.95528294273595,1.95541661509902,1.90739959268018,1.90897501695918,1.90894637288138,1.90389546716264,0,1.90316981719171,1.82792182481094,1.82780724849974,1.89805207529143,1.8997038837779,1.95296277243415,1.82231713358806,1.82414080654133,1.82102815008706,0,1.89333535048035,1.89490122673342,1.89286749720962,1.89271472879468,1.82091357377586,1.82326238815547,1.89351676297308,1.82248899805486,1.89579874117116,0,2.0222241525547,1.94269864455579,1.9003913416451,1.82735849128087,1.90640659798311,1.90704631572065,1.8390166309455,2.0259478826687,1.93979604467205,0,1.91879993564461,1.93258728509237,2.00477036114852,1.99608165754917,1.99567109243404,1.99505047074837,2.01481488443041,2.00714781960593,1.98091939236701,0,1.97618357150406,1.9764222721524,1.90600558089391,1.90580507234931,1.90521309474144,1.90452563687424,1.90310298101017,1.98285764163148,1.99804855089144,0,1.97905752731,1.97296588676452,1.98989453674436,1.9955469680969,1.9927112043947,1.90155620080897,1.98281944952774,2.00335725331039,1.90066823439717,0,1.9956901884859,1.89954156733703,1.98301995807234,1.9796590529438,1.89932196274056,1.97284176242739,1.98559792507435,1.9771670181752,1.98572204941148,0,1.98181690680474,1.979487188477,1.98845278482842,1.96895571587251,1.96820142182378,1.89534998395229,1.96818232577191,1.98673414016042,1.89403235637349,0,1.99977674358538,1.89442382543675,1.89242828801668,1.98811860392076,1.97378701699479,1.89344037876562,1.98307724622794,1.98493911128495,1.98009826213674,0,1.98237069230888,1.99882194099205,1.88608839879694,1.96874565930198,1.97028289147725,1.97050249607372,1.88025455495166,1.96530836996597,1.95200796984081,0,1.87990127799212,1.87943342472139,1.88296619431673,1.87838314186872,1.87732331099012,1.87762884781998,1.87768613597558,1.95180746129621,1.95136825210328,0,1.94957322322781,1.79792192732834,1.79767367865408,1.88353907587273,1.79388311235854,1.791095088786,1.78897542702879,1.84186194267364,1.78689395737532,0,1.78374310881731,1.78109830563378,1.87903240763219,1.78003847475517,1.77988570634024,1.7781861577241,1.91284196746219,1.90940467812619,1.7748634446993,0,1.77479660851776,1.77776604458303,1.82056984484226,1.85881923673128,1.85729155258194,1.77343124080929,1.77437649537669,1.77382270987256,1.77310660792756,0,1.8718236480525,1.87192867633777,1.87048692442183,1.86451940821349,1.77456745589536,1.77507350126983,1.77394683420969,1.96667373767444,1.86392743060562,0,1.77436694735076,1.77412824670243,1.89037546244101,1.77420463090989,1.89245693209448,1.86677274233376,1.77221864151576,1.86429025559109,1.70926850653715,0,1.70860969274775,1.78706582184212,1.75139439695511,1.70005466151147,1.6976008188466,1.69806867211733,1.69474595909252,1.69459319067759,1.69272177759465,0,1.69261674930938,1.69157601448265,1.80197983835002,1.68734623899417,1.68727940281264,1.79848526085841,1.68778544818711,1.80173158967575,1.73422704632694,0,1.73373054897841,1.73274710230727,1.6852647693407,1.91297563982526,1.79654701159394,1.68433861082517,1.68210437275676,1.68381346939883,1.68249584182003,0,1.68367024900983,1.68213301683456,1.73105710171707,1.80473921784476,1.67977465442902,1.68047166032216,1.81011475644524,1.80857752426997,1.68039527611469,0,1.68173199974536,1.68063397676303,1.7776132761681
0,0,0,0,0,0,0,0,0,0,0,0,0,0,0,0,0,0,0,0,0,0,0,0,0,0,0,0,0,0,0,0,0,0,0,0,0,0,0,0,0,0,0,0,0,0,0,0,0,0,0,0,0,0,0,0,0,0,0,0,0,0,0,0,0,0,0,0,0,0,0,0,0,0,0,0,0,0,0,0,0,0,0,0,0,0,0,0,0,0,0,0,0,0,0,0,0,0,0,0,0,0,0,0,0,0,0,0,0,0,0,0,0,0,0,0,0,0,0,0,0,0,0,0,0,0,0,0,0,0,0,0,0,0,0,0,0,0,0,0,0,0,0,0,0,0,0,0,0,0,0,0,0,0,0,0,0,0,0,0,0,0,0,0,0,0,0,0,0,0,0,0,0,0,0,0,0,0,0,0,0,0,0,0,0,0,0,0,0,0,0,0,0,0,0,0,0,0,0,0,0,0,0,0,0,0,0,0,0,0,0,0,0,0,0,0,0,0,0,0,0,0,0,0,0,0,0,0,0,0,0,0,0,0
0,1.79865712532521,1.79731085366861,1.80012752131895,2.08481146254783,1.96605311598877,1.96654006531138,1.93518434814624,1.93618689086924,1.9623389339007,0,1.85786443413794,1.85514324674693,1.854131155998,1.92547400577202,1.92291513482188,2.03781607890386,1.84843098451579,1.91904818431887,1.95813780249002,0,1.91555360682727,1.91320479244766,1.91282287141033,2.0260911030577,1.90919462155565,1.83567482186883,1.90673123086485,1.90355173822904,1.90342761389191,0,2.04454743718688,1.83017515893121,1.89972297982976,1.89667715955702,2.04411777601988,2.04650478250321,1.89558868460062,1.82349154077787,1.8218683763692,0,1.82276589080693,1.89288659326148,1.89560778065249,1.82050300866073,1.89509218725209,1.89245693209448,2.02803890034811,1.94558214838766,1.89851992856216,0,1.89818574765449,1.89703998454249,1.89779427859123,1.94387305174559,1.90406733162944,1.93962418020525,1.90958609061892,1.94153378539192,1.93954779599778,0,1.84894657791619,2.02825850494458,1.99578566874524,1.98462402642915,1.91027354848612,1.98342097516155,1.99180414193103,1.99266346426503,1.90692219138351,0,1.98465267050695,1.90582416840118,1.90355173822904,1.90385727505891,1.90484072173004,1.98036560686287,1.98015555029234,1.97973543715127,1.90311252903611,0,1.99273030044657,1.98574114546335,1.98930255913649,1.9926539162391,1.98621854676002,1.98689645660129,1.90229139880584,1.99925160215905,1.98855781311369,0,1.98415617315841,1.99135538471216,1.9954896799413,2.00317584081765,1.99172775772356,1.98709696514589,1.99712239237591,1.99654951081991,1.98596075005982,0,2.00533369467859,1.89775608648749,1.98296266991674,1.99036239001509,1.976479560308,1.98573159743742,1.98538786850382,1.98289583373521,1.98616125860442,0,1.97641272412646,1.89298207352082,1.98746933815729,1.96977684610278,1.9914222208937,1.9634846970127,1.9616514760335,1.96568074297737,1.88985032101468,0,1.97447447486199,1.97252667757159,1.97055978422932,1.96981503820652,1.97674690503413,1.88329082719846,1.88380642059886,1.95384119082001,1.88011133456266,0,1.88010178653672,1.87917562802119,1.87949071287699,1.87918517604712,1.87949071287699,1.87761929979405,1.97219249666392,1.95002198044667,1.95189339352961,0,1.85132403637359,1.79939232332208,1.79690983657941,1.79672842408668,1.90612015720511,1.99684549962384,1.79078955195613,1.90918507352972,1.90363767046244,0,1.78492706403305,1.98839549667282,1.9932267977951,1.7784439544243,1.77853943468364,1.90383817900704,1.77716451894923,1.7771836150011,1.77273423491616,0,1.82286137106627,1.82216436517313,1.77225683361949,1.85861872818668,1.77311615595349,1.77411869867649,1.77386090197629,1.77418553485803,1.77436694735076,0,1.8678707653161,1.86414703520209,1.77032813238095,1.77465338812876,1.89707817664623,1.77021355606975,1.77268649478649,1.77214225730829,1.89579874117116,0,1.77184626850436,1.77278197504582,1.77181762442656,1.77415689078023,1.97959221676227,1.77139751128549,1.77138796325955,1.80073859497868,1.70649957901648,0,1.75427790078698,1.70448494554454,1.7772981913123,1.69899483063286,1.69596810641199,1.81145148007591,1.69626409521593,1.80465328561136,1.69118454541938,0,1.69167149474198,1.68918900799931,1.68974279350345,1.6860381594413,1.68533160552224,1.6864105324527,1.6841762943843,1.68808143699104,1.73335817596701,0,1.73176365563614,1.80176023375355,1.79842797270281,1.6832596838947,1.79102825260446,1.68427177464363,1.68278228259803,1.91901954024107,1.68189431618623,0,1.80353616657716,1.68281092667583,1.72948167743806,1.80265774819129,1.68194205631589,1.8070689361725,1.78638791200085,1.67842838277242,1.68057668860743,0,1.77429056314329,1.72935755310093,1.72779167684786
0,1.79897221018101,1.80021345355235,1.80071949892682,1.97189650785999,1.79969786015195,1.80207531860935,1.93414361331951,1.93591954614311,2.03783517495573,0,1.96250125034157,1.9615655438001,1.85334821787146,1.96174695629283,1.96109769052936,1.92023213953461,2.04026992156873,1.95985644715803,1.9147038325192,0,1.914875696986,1.91295654377339,1.91271784312506,1.91257462273606,1.90710360387625,2.04581732463601,1.90754281306918,1.90886044064798,1.83087216482435,0,1.90278789615437,1.83068120430568,1.9002481212561,1.95282910007108,1.89842444830283,1.89635252667529,1.89644800693462,1.95366932635321,2.02739918261057,0,1.94893350549027,1.8235010888038,1.82323374407767,1.94883802523094,1.94837971998614,1.89658167929769,1.9492867824498,1.945534408258,1.82432221903407,0,1.82625092027261,1.89830032396569,1.94605954968433,1.90311252903611,1.90471659739291,1.90474524147071,1.91209722143939,1.91677575414673,1.9163651890316,0,1.93931864337538,1.93306468638904,2.00186776126479,1.98980860451096,1.99919431400345,1.98598939413762,1.98293402583894,1.98238024033481,1.99521278718924,0,1.90686490322791,1.98108170880787,1.90477388554851,1.90422010004437,1.90579552432338,1.90602467694578,1.97929622795834,1.90430603227777,1.98307724622794,0,1.99536555560417,2.00830313074387,1.99841137587691,1.90264467576537,1.98277170939808,1.99649222266431,1.90211953433904,1.99010459331489,1.98684871647162,0,1.98106261275601,1.98886334994356,1.98843368877656,1.98646679543428,1.98648589148615,1.98320137056508,1.98544515665942,1.99934708241838,1.98892063809916,0,1.99272075242063,1.9793726121658,1.98955080781076,1.97333825977592,1.97510464457359,1.97956357268447,1.98798493155769,1.98701103291249,1.89500625501869,0,1.89351676297308,1.99839227982504,1.96558526271804,1.98232295217921,1.9629118154567,1.97151458682265,1.98551199284095,1.9769665096306,1.88904828683627,0,1.98124402524874,1.88583060209673,1.96550887851057,1.97210656443052,1.96677876595971,1.97030198752912,1.95572215192889,1.96911803231338,1.95935994980949,0,1.87916607999525,1.95220847838541,1.87779116426085,1.87745698335318,1.87595794328165,1.87632076826711,1.9616228319557,1.94844655616767,1.95208435404828,0,1.90204315013157,1.90066823439717,1.79841842467688,1.89289614128742,1.79116192496753,1.90412461978504,1.78868898625079,1.78711356197179,1.78538536927785,0,1.78396271341378,1.78220587664204,1.78161389903418,1.90916597747785,1.77846305047617,1.8701050033845,1.77525491376256,1.82376843352993,1.82657555315434,0,1.77449107168789,1.77470112825843,1.77395638223563,1.77179852837469,1.77208496915269,1.77398502631343,1.77240960203442,1.77385135395036,1.77301112766822,0,1.77174124021909,1.97313775123132,1.89929331866276,1.89955111536296,1.77159801983009,1.86321132866062,1.90080190676023,1.89649574706429,1.77094875406662,0,1.77014671988822,1.77149299154482,1.77328802042029,1.77193220073776,1.77377496974289,1.77285835925329,1.82006379946779,1.70974590783382,1.70828505986602,0,1.70767398620628,1.70350149887341,1.70180195025727,1.7463530392623,1.80722170458743,1.69577714589332,1.69312279468385,1.80303012120269,1.69041115531878,0,1.69143279409365,1.68892166327318,1.68565623840397,1.68665878112697,1.6855512101187,1.80966599922637,1.80757498154697,1.68568488248177,1.68558940222244,0,1.68223804511983,1.68183702803063,1.6829445990389,1.79782644706901,1.68378482532103,1.68170335566756,1.68365115295796,1.80415678826282,1.68227623722356,0,1.67966962614376,1.68158877935636,1.67843793079835,1.80730763682083,1.90658801047585,1.68113047411156,1.68179883592689,1.80518797506363,1.68061488071116,0,1.80707848419843,1.80737447300237,1.80395627971822
0,1.97537198929973,1.79797921548395,1.80154062915709,1.80073859497868,2.08814372359857,1.80336430211036,2.04478613783521,1.9340003929305,1.93561400931324,0,2.0413202044214,1.9296178490271,1.92588457088715,1.92482474000855,1.92356440058535,1.92257140588828,1.91959242179707,1.92000298691221,1.91931552904501,0,2.03493257507199,1.95872023207196,1.91359626151093,1.91005394388965,1.95875842417569,2.05172755268876,1.95552164338429,1.95636186966642,1.90463066515951,0,1.83091990495402,1.90249190735044,1.90078281070837,1.89989484429656,1.95548345128055,1.825191089394,1.8991310022219,1.95467186907622,1.8998184600891,0,1.89666761153109,1.89651484311616,2.03547681255019,1.89530224382262,1.95030842122467,1.89682037994603,1.82354882893347,1.90026721730797,1.90168987317204,0,1.89997122850403,1.82792182481094,1.82882888727461,1.94305192151532,1.90402913952571,1.94230717549252,1.94555350430986,2.01296256739934,1.9170526468988,0,1.84845008056765,1.93929954732352,1.98533058034822,1.91279422733253,1.9922815432277,2.00627894924599,2.00133307181252,2.00080793038618,1.98777487498715,0,1.90858354789592,1.90698902756505,1.90610106115324,1.90694128743538,1.90559501577878,1.90298840469897,1.90448744477051,1.97597351493353,1.98447125801421,0,1.90314117311391,1.90378089085144,2.00534324270453,1.97985001346247,2.00325222502512,1.90301704877677,1.90340851784004,1.98916888677342,1.90253009945417,0,1.90197631395004,1.98424210539181,1.9925966280835,1.89985665219283,1.8999616804781,1.98896837822882,1.98354509949868,1.98529238824448,1.98652408358989,0,1.98174052259727,1.9798309174106,1.97166735523759,1.96930899283205,1.97221159271579,1.98844323680249,1.98209379955681,1.98371696396548,1.98337323503188,0,1.89289614128742,1.89310619785795,1.98249481664601,1.9787137983764,1.97182012365252,1.97061707238492,1.97477046366593,1.97284176242739,1.97856102996147,0,1.96938537703951,1.96928034875425,1.9631409680791,1.95768904527116,1.97331916372406,1.97105628157785,1.96707475476364,1.88013043061452,1.88031184310726,0,1.87992992206992,1.87938568459172,1.87628257616338,1.87628257616338,1.87524184133665,1.87627302813745,1.87708461034178,1.94907672587927,1.87643534457831,0,1.99885058506984,1.79802695561361,1.79601232214167,1.84310318604498,1.84085939995064,1.79107599273413,1.78774373168339,1.83571301397256,1.83612357908769,0,1.83420442587509,1.78213904046051,1.78134655430804,1.78044903987031,1.77831028206124,1.87129850662617,1.90929010181499,1.82469459204547,1.77461519602503,0,1.97561068994806,1.77398502631343,1.77460564799909,1.88949704405514,1.77186536455622,1.77250508229376,1.77176988429689,1.77284881122736,1.77350762501676,0,1.77415689078023,1.87329404404624,1.77082462972949,1.77100604222222,1.96874565930198,1.77038542053655,1.77056683302929,1.89674399573856,1.77141660733735,0,1.77184626850436,1.77166485601162,1.77086282183322,1.77114926261122,1.89196998277188,1.98509187969988,1.96231983784883,1.75713276054106,1.70507692315241,0,1.70280449298027,1.70235573576141,1.79966921607415,1.81094543470144,1.8073553769505,1.79867622137708,1.69202477170152,1.793816276177,1.68913171984371,0,1.74046190726142,1.81098362680517,1.68891211524724,1.80982831566724,1.80750814536543,1.68768996792777,1.6835461246727,1.80271503634689,1.6820852767049,0,1.68525522131477,1.6830018871945,1.68160787540823,1.68476827199217,1.80092955549735,1.68061488071116,1.80067175879715,1.68249584182003,1.68146465501923,0,1.67976510640309,1.68219030499016,1.68090132148916,1.80670611118703,1.80414724023689,1.68192296026403,1.68073900504829,1.80717396445776,1.67847612290209,0,1.67693889072682,1.80716441643183,1.67871482355042
0,1.79873350953268,1.79794102338021,1.89366953138802,1.80165520546829,1.89744100163169,1.80188435809069,1.86400381481309,2.05991021091364,1.96231983784883,0,1.93166112657683,1.93121236935797,1.93083044832063,2.03946788739033,2.03810251968186,1.92398451372642,1.92323976770362,2.03513308361659,1.95894938469436,0,2.04389817142341,1.84348510708231,1.91305202403273,1.95889209653876,1.84009555787597,1.95850062747549,1.95586537231789,1.95926446955016,1.90570004406404,0,1.90591010063458,1.95712571174109,1.90068733044903,1.95384119082001,1.89745054965763,2.03485619086452,1.8991596462997,1.89678218784229,1.89653393916802,0,1.89923603050716,1.89289614128742,1.89413738465875,1.89529269579669,1.89428060504775,1.82426493087847,1.94752039765213,1.89706862862029,1.8989018495995,0,1.89868224500303,1.82744442351428,1.90326529745104,1.94565853259513,1.90921371760752,1.90912778537412,1.91054089321225,1.91324298455139,1.9178260369994,0,1.93870756971565,2.0252031366459,1.99916566992565,1.91397818254826,1.99522233521517,1.99519369113737,1.99337956621003,1.99773346603564,1.90982479126725,0,1.90760964925072,1.90622518549038,1.90612970523105,1.90663575060551,1.90743778478391,1.90590055260864,1.90571914011591,1.90609151312731,1.98190283903814,0,1.90358993033277,1.90330348955477,1.99486905825564,1.98374560804328,1.98315363043541,1.90405778360351,1.98164504233794,1.90317936521764,1.99058199461156,0,1.90269241589504,1.90186173763884,1.98352600344681,1.98877741771016,1.97023515134758,1.8990450699885,1.97001554675112,1.97141910656332,1.98324911069474,0,1.89613292207882,1.89619975826036,1.89613292207882,1.98603713426728,1.98375515606921,1.89673444771262,1.98470041063661,1.98634267109715,1.96784814486424,0,1.89291523733928,1.98748843420915,1.98075707592614,1.97844645365027,1.97910526743967,1.97932487203614,1.9769665096306,1.95937904586136,1.886078850771,0,1.88634619549714,1.88560144947433,1.96931854085798,1.97516193272919,1.97506645246986,1.88245060091633,1.97238345718259,1.95409898752022,1.95571260390295,0,1.95552164338429,1.87775297215712,1.87824946950565,1.87723737875672,1.87616799985218,1.87671223733038,1.87644489260425,1.95832876300869,1.95654328215915,0,1.80387989551076,1.80289644883962,1.79750181418728,1.84326550248584,1.79472333864067,1.7909232243192,1.83853922964883,1.83554114950576,1.9792580358546,0,1.78379084894698,1.78137519838584,1.78151841877484,1.82965001750488,1.82796956494061,1.82528656965334,1.7756081907221,1.88758743886847,1.77545542230716,0,1.77460564799909,1.9023104948577,1.77521672165883,1.77435739932483,1.89851992856216,1.77275333096802,1.77215180533422,1.98625673886375,1.98948397162922,0,1.77229502572322,1.77125429089649,1.89788021082463,1.86323997273842,1.77202768099709,1.89943653905176,1.81722803576559,1.81797278178839,1.77185581653029,0,1.77191310468589,1.77122564681869,1.89657213127176,1.77154073167449,1.77058592908115,1.77041406461435,1.77077688959982,1.77443378353229,1.70336782651034,0,1.79056994735966,1.74946569571657,1.79861893322148,1.80671565921296,1.69446906634046,1.69286499798365,1.69127047765278,1.79150565390113,1.79031215065946,0,1.74198959141076,1.68702160611244,1.68805279291324,1.80710712827623,1.68637234034897,1.6847491759403,1.68481601212183,1.68204708460116,1.80528345532296,0,1.68243855366443,1.68147420304516,1.68247674576816,1.79987927264468,1.68246719774223,1.68281092667583,1.79996520487808,1.80154062915709,1.68050030439996,0,1.68276318654616,1.77716451894923,1.80189390611662,1.7776705643237,1.68015657546636,1.81040119722324,1.68054804452963,1.67930680115829,1.80400401984789,0,1.80204667453155,1.67876256368009,1.80562718425656
0,0,0,0,0,0,0,0,0,0,0,0,0,0,0,0,0,0,0,0,0,0,0,0,0,0,0,0,0,0,0,0,0,0,0,0,0,0,0,0,0,0,0,0,0,0,0,0,0,0,0,0,0,0,0,0,0,0,0,0,0,0,0,0,0,0,0,0,0,0,0,0,0,0,0,0,0,0,0,0,0,0,0,0,0,0,0,0,0,0,0,0,0,0,0,0,0,0,0,0,0,0,0,0,0,0,0,0,0,0,0,0,0,0,0,0,0,0,0,0,0,0,0,0,0,0,0,0,0,0,0,0,0,0,0,0,0,0,0,0,0,0,0,0,0,0,0,0,0,0,0,0,0,0,0,0,0,0,0,0,0,0,0,0,0,0,0,0,0,0,0,0,0,0,0,0,0,0,0,0,0,0,0,0,0,0,0,0,0,0,0,0,0,0,0,0,0,0,0,0,0,0,0,0,0,0,0,0,0,0,0,0,0,0,0,0,0,0,0,0,0,0,0,0,0,0,0,0,0,0,0,0,0,0
0,1.80146424494962,1.80047125025255,1.80073859497868,1.89654348719396,1.97013012306232,1.80474876587069,1.96824916195345,1.96725616725638,1.96642548900018,0,1.93121236935797,1.93280688968884,1.85670912300001,1.85460855729467,1.92431869463408,1.92384129333742,1.92553129392762,2.03604969410619,1.92076682898688,0,1.91586869168307,2.04587461279161,2.04759325745962,1.95938859388729,2.04632337001048,1.90666439468331,1.8397040888127,1.83604719488023,1.90364721848837,0,1.90564275590844,1.83211340819569,1.90290247246557,1.90260648366164,1.9025396474801,1.89783247069496,1.89792795095429,1.82723436694374,1.95298186848601,0,1.89994258442623,1.8236729532706,1.82599312357241,1.89482484252595,1.8248760045382,1.89791840292836,1.89888275354763,1.89711636874996,1.9477113581708,0,1.90017173704863,1.9027974441803,1.90334168165851,1.94541028392086,1.83578939818003,1.9461932220474,1.84054431509484,1.91311886021426,2.0386276611082,0,1.94176293801432,1.945391187869,1.99990086792251,1.99996770410405,1.99036239001509,2.00499951377093,2.01482443245635,1.98848142890622,1.91015897217492,0,1.90940467812619,1.90694128743538,1.90968157087825,1.90674077889078,1.90675032691671,1.90688399927978,1.90606286904951,1.97849419377993,1.90620608943851,0,2.00287985201372,1.99941391859991,1.9931695096395,1.99548013191537,1.99695052790911,1.90358993033277,1.97644136820426,1.90357083428091,1.90463066515951,0,1.90344670994377,1.99446804116644,1.90226275472804,1.97550566166279,1.8997611719335,1.98235159625701,1.98666730397889,1.98358329160241,1.98230385612734,0,1.9913935768159,1.89691586020536,1.98877741771016,2.0095443741152,1.98509187969988,1.97211611245645,1.89593241353422,1.89408009650315,2.00435979603339,0,1.98522555206295,1.98979905648503,1.99553742007097,1.9774534589532,1.97789266814613,1.89149258147521,1.97803588853513,1.88785478359461,1.8873391901942,0,1.98271442124248,1.97338599990559,1.97594487085573,1.95838605116429,1.98914979072156,1.9782268490538,1.96272085493803,1.96435356737264,1.95636186966642,0,1.87996811417366,1.95349746188641,1.88011133456266,1.87675997746005,1.87684590969345,1.87716099454925,1.9465942391366,1.95983735110616,1.96289271940483,0,1.80286780476182,1.90346580599564,1.79890537399948,1.90717998808371,2.00295623622119,1.7935011913212,1.79077045590426,1.78764825142406,1.78709446591992,0,1.83345013182635,1.83229482068842,1.83021335103495,1.82889572345615,1.82753035574768,1.7787017511245,1.77829118600937,1.77720271105297,1.77551271046276,0,1.77442423550636,1.77261011057902,1.77313525200536,1.77391819013189,1.77315434805722,1.77336440462776,1.98983724858876,1.98677233226415,1.77186536455622,0,1.77205632507489,1.97383475712446,1.76978389490275,1.77007988370668,1.86422341940955,1.77184626850436,1.77045225671809,1.76848536337581,1.81764814890665,0,1.81831651072199,1.81681747065045,1.77029948830315,1.9764222721524,1.8859929185376,1.95967503466529,1.88515269225547,1.70881974931829,1.70437991725928,0,1.78943373227359,1.78937644411799,1.79969786015195,1.79914407464781,1.69542386893379,1.69453590252199,1.69232076050545,1.79003525790739,1.79678571224228,0,1.68931313233644,1.80607594147543,1.80564628030843,1.6859235831301,1.6847491759403,1.80679204342043,1.68099680174849,1.77936056491391,1.68184657605656,0,1.6824576497163,1.68097770569663,1.80064311471935,1.79521983598921,1.67970781824749,1.67727307163448,1.80175068572762,1.79855209703995,1.67850476697989,0,1.68162697146009,1.68150284712296,1.68062442873709,1.67905855248402,1.80499701454496,1.67759770451622,1.77134022312989,1.80085317128988,1.67839973869462,0,1.80110141996415,1.67826606633155,1.67958369391036
0,1.88948749602921,1.89528314777076,1.80391808761449,1.80180797388322,1.89784201872089,1.80379396327736,1.96476413248777,1.93734220200718,1.9333415791411,0,1.93474513895331,1.92800423264436,1.96399074238717,1.8559070888216,1.85538194739527,1.92684892150642,1.92344982427415,2.03465568231992,2.03490393099419,0,1.84416301692358,1.84421075705324,1.84353284721198,1.915878239709,1.91093236227552,1.90929010181499,1.90812524265112,1.90722772821338,1.90893682485545,0,1.96017153201383,2.04101466759154,1.96018108003976,1.95609452494029,1.90124111595317,1.95562667166955,1.89771789438376,1.89756512596883,1.82560165450914,0,1.89753648189103,2.03209681136978,1.89711636874996,1.89813800752483,1.89640026680496,1.89741235755389,1.82429357495627,1.89843399632876,1.8988732055217,0,1.82778815244788,1.9023677830133,1.9026828678691,1.90464976121138,1.83564617779103,1.90982479126725,1.94256497219272,1.91475157264886,2.02295935055156,0,2.03067415550571,1.94075084726539,2.00260295926165,2.0081981024586,1.99167046956796,2.00352911777719,1.99572838058964,2.00674680251673,1.99709374829811,0,1.90813479067705,1.91085597806806,1.90808705054738,1.90829710711792,1.98238024033481,1.90802976239178,1.90707495979845,1.97899069112847,1.98608487439695,0,2.00294668819525,1.99767617788004,1.99535600757824,1.90443015661491,1.9936851030399,1.90348490204751,1.97523831693666,1.90343716191784,1.90346580599564,0,1.98413707710655,2.00156222443492,1.97477046366593,1.98287673768334,1.98113899696347,1.97020650726978,1.8991596462997,2.00474171707072,1.98168323444167,0,1.99406702407723,1.97930577598427,1.98029877068134,1.98162594628607,1.98314408240948,1.98576024151522,1.97798814840547,1.89190314659035,1.89224687552395,0,1.98984679661469,1.89302026562455,1.97899069112847,1.97864696219487,1.97892385494694,1.97120904999279,1.89020359797421,1.88760653492034,1.98260939295721,0,1.96865017904265,1.97541972942939,1.9768519333194,1.97578255441486,1.95327785728995,1.98531148429635,1.95372661450881,1.95271452375988,1.95046118963961,0,1.9474535614706,1.87938568459172,1.87943342472139,1.87779116426085,1.87780071228678,1.94973553966867,1.95678198280749,1.96595763572944,1.87663585312291,0,1.80201803045375,1.84923301869419,1.84683646418492,1.84472635045365,1.7944464458886,1.84017194208344,1.79116192496753,1.83760352310736,1.78716130210146,0,1.83446222257529,1.83158826676935,1.78245412531631,1.78213904046051,1.78038220368877,1.78051587605184,1.98841459272469,1.77816706167224,1.77622881240776,0,1.77505440521796,1.7759805637335,1.77463429207689,1.77265785070869,1.8702195796957,1.77232366980102,1.99565199638217,1.99076340710429,1.77088191788509,0,1.89690631217943,1.77056683302929,1.76817982654595,1.76839943114241,1.77081508170355,1.76893412059468,1.81779136929565,1.81754312062139,1.76942106991728,0,1.81719939168779,1.81697978709132,1.77134022312989,1.77054773697742,1.86971353432123,1.77122564681869,1.76966931859155,1.75403920013865,1.70439901331114,0,1.78802062443546,1.6983169207916,1.6985747174918,1.69497511171492,1.69245443286852,1.69222528024612,1.68941816062171,1.80351707052529,1.68495923251083,0,1.77493028088083,1.68771861200557,1.9138445101852,1.68550346998904,1.68203753657523,1.67984149061056,1.80092955549735,1.67938318536576,1.68132143463023,0,1.68137872278583,1.72909975640073,1.72781077289973,1.68016612349229,1.68142646291549,1.67863843934295,1.67855250710955,1.80608548950136,1.67796052950169,0,1.67718713940108,1.80378441525142,1.68101589780036,1.68017567151822,1.7924413604426,1.67912538866556,1.80535029150449,1.67720623545295,1.67876256368009,0,1.67789369332015,1.67824697027969,1.80601865331983
0,1.80342159026596,1.80396582774416,1.89473891029255,1.8993601548443,1.9026542237913,1.96972910597312,1.97013012306232,1.96722752317858,1.93303604231124,0,1.92992338585696,1.9301907305831,1.92946508061216,1.96536565812157,1.92653383665062,1.96452543183944,1.92549310182389,1.92252366575861,1.92004117901594,0,1.84476454255738,1.84428714126071,1.9162792567982,1.96080170172543,1.95967503466529,1.83665826853996,1.90908004524445,1.90916597747785,1.90672168283891,0,1.90788654200278,1.90633021377565,1.90592919668644,1.83105357731708,1.90068733044903,1.95704932753362,2.02756149905144,1.82715798273627,1.89681083192009,0,2.03703314077733,1.95268587968208,1.82465639994174,1.89634297864936,1.89767970228003,2.03207771531792,1.89796614305803,1.89931241471463,1.82827510177048,0,1.90020038112643,1.83109176942082,1.9470525443814,1.90500303817091,1.94697616017393,1.90998710770812,1.91071275767905,1.91237411419146,1.84374290378251,0,1.94229762746659,1.93980559269798,2.00188685731665,2.00023504883018,2.00016821264865,1.91403547070386,2.00135216786438,1.98865329337302,1.98615171057848,0,1.90930919786685,1.90953835048925,1.90749507293951,1.90665484665738,1.90559501577878,1.90951925443739,1.99104029985636,1.98651453556395,2.00228787440585,0,1.90576688024558,1.98691555265315,1.98898747428069,2.00208736586125,1.99649222266431,1.99645403056057,1.90446834871864,1.90330348955477,1.90429648425184,0,1.9928544247837,1.98315363043541,1.97428351434333,1.8998471041669,1.99104029985636,1.98301041004641,1.8988445614439,1.97549611363686,1.98092894039294,0,1.98219882784208,1.97595441888166,1.98808041181702,1.98877741771016,1.98723063750895,1.89592286550829,1.89344992679155,1.97680419318973,1.96383797397224,0,1.9770237977862,1.98365012778395,1.89158806173455,1.96901300402811,1.96499328511017,1.97456040709539,1.9761071872966,1.96571893508111,1.88681404876787,0,1.96736119554164,1.88495218371087,1.88388280480633,1.88314760680946,1.88278478182399,1.96949995335072,1.96667373767444,1.87971986549939,1.95939814191323,0,1.87980579773279,1.87827811358345,1.87841178594652,1.87842133397245,1.87660720904511,1.87699867810838,1.87639715247458,1.98238978836074,1.87553783014058,0,1.80178887783135,1.84969132393899,1.80049034630442,1.79755910234288,1.79626057081594,1.79711989314994,1.79173480652353,1.79015938224453,1.90403868755164,0,1.78494616008492,1.78251141347191,1.78183350363064,1.78033446355911,1.78101237340038,1.77621926438183,1.7788736155913,1.88253653314973,1.7771263268455,0,1.98868193745082,1.77631474464117,1.77283926320142,1.77208496915269,1.77179852837469,1.81946227383399,1.76910598506148,1.77104423432595,1.77246689019002,0,1.89977071995943,1.86043285311401,1.77212316125642,1.89598015366389,1.76817027852001,1.77002259555108,1.88112342531159,1.83005103459408,1.81678882657265,0,1.87982489378465,1.97208746837865,1.97155277892639,1.85701465982987,1.88984077298874,1.76863813179075,1.81568125556438,1.75268338045611,1.75158535747378,0,1.70024562203013,1.69652189191613,1.74289665387443,1.74163631445122,1.69202477170152,1.80495882244123,1.68732714294231,1.68786183239457,1.68782364029084,0,1.6854079897297,1.6829732431167,1.68284911877956,1.68290640693516,1.6822284970939,1.68121640634496,1.68180838395283,1.79804605166548,1.68250538984596,0,1.80016571342268,1.78413457788058,1.80880667689237,1.67861934329109,1.68159832738229,1.67854295908362,1.67786504924235,1.67922086892489,1.67827561435749,0,1.79989836869655,1.80493972638936,1.80084362326395,1.67856205513549,1.78900407110659,1.80043305814882,1.67908719656182,1.67552578288868,1.80587543293083,0,1.67875301565415,1.67825651830562,1.80097729562702
0,1.91182032868732,1.80495882244123,1.90646388613871,1.92659112480622,1.8066392750055,1.8071548684059,1.96908938823558,1.96870746719825,1.97055978422932,0,1.93358982781537,1.9307063239835,1.92965604113083,1.92933140824909,1.92794694448876,1.92667705703962,1.85328138168993,1.92091004937588,1.91929643299314,0,1.84696058852205,2.04851941597515,1.9151048496084,1.91392089439266,1.91333846481073,1.91097055437926,1.91039767282325,1.90971021495605,2.04501529045761,0,1.90650207824245,1.90573823616778,1.90604377299764,1.90607241707544,1.95892074061656,1.82850425439288,1.82853289847068,1.89823348778416,1.9015657488349,0,1.82715798273627,1.89723094506116,1.82451317955274,1.90029586138577,1.9000476127115,1.90014309297083,1.8999043923225,1.90017173704863,1.8991882903775,0,1.9007923587343,1.83147369045815,1.94707164043327,1.90664529863145,1.90775286963972,1.94615502994366,1.84068753548384,1.84262578474831,1.91816021790707,0,2.01257109833607,2.01197912072821,2.00649855384246,2.00803578601773,2.00461759273359,1.99577612071931,1.91273693917693,1.98299131399454,1.98352600344681,0,1.98335413898001,1.90937603404839,1.90949061035959,1.90909914129632,1.90935693799652,1.90893682485545,1.90672168283891,1.90616789733478,1.9935132385731,0,1.9916227294383,1.98883470586576,2.00299442832492,1.98718289737929,1.98676278423822,1.98652408358989,1.98709696514589,1.99482131812597,1.90440151253711,0,1.98674368818635,1.97909571941374,1.9921956109943,1.98923572295496,1.98294357386488,1.90005716073743,1.9007350705787,1.98477679484408,1.9953178154745,0,1.99473538589257,1.98368831988768,1.89622840233816,1.98230385612734,1.98150182194894,1.9760212550632,1.98217973179021,1.89366953138802,1.89372681954362,0,1.97191560391185,1.97530515311819,1.97233571705292,1.97149549077079,1.96854515075738,1.96653051728544,1.96363746542764,1.96791498104578,1.96575712718484,0,1.97212566048239,1.88672811653447,1.97612628334846,1.97286085847926,1.88336721140593,1.95586537231789,1.95541661509902,1.95309644479721,1.95000288439481,0,1.95352610596421,1.94717666871853,1.94399717608273,1.87743788730132,1.94979282782427,1.95699203937802,1.94735808121127,1.96703656265991,1.95804232223069,0,1.85283262447106,1.80205622255749,1.79962147594448,1.79806514771735,1.79620328266034,1.79253684070193,1.79025486250386,1.87660720904511,1.87496494858458,0,1.87458302754724,1.78545220545938,1.90609151312731,1.90412461978504,1.90407687965537,1.77912186426557,1.77728864328637,1.77865401099484,1.77587553544823,0,1.98886334994356,1.77424282301363,1.77172214416722,1.77376542171696,1.77350762501676,1.77170304811536,1.90243461919484,1.76935423373575,1.86063336165861,0,1.76908688900962,1.89738371347609,1.76858084363515,1.86399426678715,1.86235200632662,1.77062412118489,1.76877180415382,1.76806525023475,1.81540436281232,0,1.81708481537659,1.76538225494747,1.88937291971801,1.76736824434161,1.76760694498995,1.76775016537895,1.76752101275655,1.70105720423447,1.6994340398258,0,1.81354249775531,1.69526155249292,1.69292228613925,1.69090765266731,1.69253081707598,1.80047125025255,1.68916036392151,1.80201803045375,1.68693567387904,0,1.68571352655957,1.68263906220903,1.80753678944323,1.89998077652996,1.6827727345721,1.67983194258462,1.79688119250161,1.67997516297362,1.67954550180662,0,1.67829471040935,1.67918267682116,1.80935091437057,1.67639465324862,1.67615595260028,1.67852386303175,1.72653133742466,1.67941182944356,1.67829471040935,0,1.68026160375162,1.67751177228282,1.72653133742466,1.67875301565415,1.72493681709379,1.73590749889121,1.72510868156059,1.80388944353669,1.80389899156262,0,1.77455790786943,1.76714863974515,1.67638510522268
0,0,0,0,0,0,0,0,0,0,0,0,0,0,0,0,0,0,0,0,0,0,0,0,0,0,0,0,0,0,0,0,0,0,0,0,0,0,0,0,0,0,0,0,0,0,0,0,0,0,0,0,0,0,0,0,0,0,0,0,0,0,0,0,0,0,0,0,0,0,0,0,0,0,0,0,0,0,0,0,0,0,0,0,0,0,0,0,0,0,0,0,0,0,0,0,0,0,0,0,0,0,0,0,0,0,0,0,0,0,0,0,0,0,0,0,0,0,0,0,0,0,0,0,0,0,0,0,0,0,0,0,0,0,0,0,0,0,0,0,0,0,0,0,0,0,0,0,0,0,0,0,0,0,0,0,0,0,0,0,0,0,0,0,0,0,0,0,0,0,0,0,0,0,0,0,0,0,0,0,0,0,0,0,0,0,0,0,0,0,0,0,0,0,0,0,0,0,0,0,0,0,0,0,0,0,0,0,0,0,0,0,0,0,0,0,0,0,0,0,0,0,0,0,0,0,0,0,0,0,0,0,0,0
0,1.80499701454496,1.80439548891116,1.80304921725456,1.88340540350966,1.88475167516627,1.89983755614096,1.97114221381125,1.97076029277392,1.93950960389405,0,1.86295353196042,1.96809639353851,1.9331124265187,1.93295011007784,1.96638729689644,1.96581441534044,1.96669283372631,1.96617724032591,1.92184575591735,0,1.91940146127841,1.84712290496292,1.9143601035856,1.9160501041758,1.91288015956593,1.91080823793839,1.91147659975372,1.9632555443903,1.90761919727665,0,1.90574778419371,1.90595784076424,2.04786060218575,2.04195992215894,1.83107267336895,1.89837670817316,1.9005632061119,1.90014309297083,1.95723074002636,0,1.89906416604036,1.89791840292836,1.8232719361814,1.8996465956223,1.89909281011816,1.82655645710247,1.82606950777987,1.95195068168521,1.9012220199013,0,2.03255511661458,1.90351354612531,1.90626337759411,1.90523219079331,1.90624428154225,1.8382718849227,1.84103126441744,1.9171385791322,1.92254276181048,0,2.03626929870266,1.94176293801432,1.91531490617893,2.00492312956346,2.00129487970878,2.00689957093166,1.91397818254826,1.98954125978482,1.91274648720286,0,1.98705877304215,1.98217018376428,1.98507278364802,1.90891772880358,1.91056953729005,1.90910868932225,2.00178182903138,1.90666439468331,1.90673123086485,0,1.98779397103902,1.90651162626838,1.90641614600905,2.00232606650959,1.98942668347362,1.99224335112396,1.99904154558851,2.00001544423371,1.99723696868711,0,1.90358038230684,1.97638408004866,1.9934273063397,1.90247281129857,1.98487227510341,1.97503780839206,1.99616758978257,1.98468131458475,1.97809317669073,0,1.8990164259107,1.89686812007569,1.98909250256596,1.89622840233816,1.98618990268222,1.97905752731,1.97878063455794,1.97142865458925,1.97225933284545,0,1.97097034934445,1.98177871470101,1.97431215842113,1.97058842830712,1.96818232577191,1.97895249902474,1.97433125447299,1.8869954612606,1.88628890734154,0,1.88486625147747,1.96008559978043,1.96910848428745,1.96442040355417,1.96574757915891,1.96629181663711,1.95451910066128,1.96272085493803,1.95233260272254,0,1.95176926919248,1.95020339293941,1.95330650136775,1.87619664392998,1.87838314186872,1.87686500574532,1.94935361863134,1.95283864809701,1.96527972588817,0,1.85326228563806,1.80076723905648,1.80017526144862,1.79814153192481,1.79549672874127,1.91215450959499,1.79365395973614,1.79056994735966,1.78781056786492,0,1.78628288371559,1.78589141465232,1.78466926733285,1.88330992325033,1.83128272993948,1.7785298866577,1.87380008942071,1.99662589502737,1.77382270987256,0,1.77584689137043,1.77424282301363,1.77207542112676,1.7749780210105,1.77316389608316,1.77203722902302,1.90058230216377,1.98040379896661,1.77144525141515,0,1.76759739696401,1.76893412059468,1.76564005164768,1.76958338635815,1.76884818836128,1.76533451481781,1.76899140875028,1.76686219896714,1.89689676415349,0,1.98223701994581,1.89272427682062,1.98331594687628,1.77060502513302,1.76755920486028,1.76806525023475,1.87229150132324,1.69959635626667,1.69935765561833,0,1.84896567396806,1.69630228731966,1.69522336038919,1.74059557962449,1.79333887488034,1.68780454423897,1.68808143699104,1.6862100239081,1.80599000924203,0,1.80340249421409,1.6847491759403,1.68109228200783,1.68071990899643,1.79746362208354,1.68134053068209,1.72701828674726,1.79688119250161,1.67851431500582,0,1.79877170163641,1.67954550180662,1.80380351130329,1.67847612290209,1.67648058548202,1.72664591373586,1.78761005932032,1.67547804275901,1.67581222366668,0,1.73436071869001,1.73259433389234,1.7312385142098,1.72528054602739,1.72355235333345,1.67818013409815,1.72423026317472,1.67243222248627,1.67739719597162,0,1.80544577176383,1.67817058607222,1.72614941638732
0,1.88929653551054,1.85130494032173,1.80662017895363,1.80734582892457,1.90045817782663,1.80931272226684,1.94258406824459,1.86607573644063,1.96949040532478,0,1.96862153496485,1.86091025441068,1.93229129628843,1.85648951840354,1.85684279536307,1.92844344183729,1.854274376387,1.96706520673771,1.85107578769933,0,1.92020349545681,1.91940146127841,1.9179692573884,1.96295000756043,1.91350078125159,1.91254597865826,1.96297865163823,1.91037857677139,2.06110371415531,0,1.90633976180158,2.03632658685826,1.90483117370411,1.90361857441057,1.90409597570724,1.82939222080468,1.90103105938263,1.82716753076221,1.8992455785331,0,1.95702068345582,1.8985867647437,1.8999616804781,2.02924195161571,1.89732642532049,1.89829077593976,1.8986154088215,2.02522223269777,1.9019381218463,0,1.9011074435901,1.83059527207228,1.90960518667079,1.90926145773719,1.90990117547472,1.947825934482,1.8409357841581,2.02789567995911,1.9174250199102,0,1.85003505287259,2.04468110954994,2.01499629692315,2.01002177541187,2.01850997046662,1.9938856115845,1.99613894570477,1.91261281483979,1.99015233344456,0,1.91128563923506,1.98349735936901,1.90945241825585,1.90807750252145,1.90884134459612,1.90797247423618,1.90717998808371,1.99612939767884,1.99576657269337,0,1.98928346308462,1.99570928453777,1.90719908413558,1.97621221558186,1.9928544247837,1.98823318023196,1.90621563746445,1.90465930923731,1.90379998690331,0,1.98950306768109,1.97571571823333,1.97559159389619,1.99021916962609,1.99569973651184,1.97226888087139,1.98830001641349,1.97459859919913,1.89939834694803,0,1.89925512655903,1.8995033752333,1.98797538353175,1.98667685200482,1.89714501282776,1.97394933343566,1.98189329101221,1.89323987022102,1.98174052259727,0,1.89346902284342,1.97156232695232,1.97533379719599,1.97248848546785,1.978341425365,1.97327142359439,1.98528284021855,1.88658489614547,1.97025424739945,0,1.88660399219734,1.95669605057409,1.96918486849491,1.96975775005092,1.96989142241398,1.95507288616542,1.9602765602991,1.95303915664161,1.96071576949203,0,1.95220847838541,1.95577944008449,1.95294367638228,1.95203661391861,1.95080491857321,1.87555692619245,1.94924859034607,1.95996147544329,1.9479977989488,0,1.90342761389191,1.85069386666199,1.84784855493385,1.79796966745801,1.90418190794064,1.79448463799234,1.79256548477973,1.78848847770619,1.78829751718752,0,1.90363767046244,1.78537582125192,1.83109176942082,1.78402000156938,1.78106966155598,1.7783580221909,1.7782434458797,1.77739367157163,1.7765248012117,0,1.77376542171696,1.77471067628436,1.77108242642969,1.77143570338922,1.77401367039123,1.77278197504582,1.77128293497429,1.77130203102615,1.98223701994581,0,1.89772744240969,1.77139751128549,1.76857129560921,1.76907734098368,1.89758422202069,1.76797931800135,1.76733960026381,1.76607926084061,1.76773106932708,0,1.89452885372202,1.76640389372234,1.76499078588421,1.76530587074001,1.76582146414041,1.85502867043573,1.76745417657501,1.84690330036645,1.6994626839036,0,1.69592036628232,1.84977725617239,1.69413488543279,1.69135640988618,1.69146143817145,1.68700251006057,1.68579945879297,1.80931272226684,1.8068970717057,0,1.68226668919763,1.78644520015645,1.80068130682308,1.79810333982108,1.67955504983256,1.67700572690835,1.67863843934295,1.67708211111582,1.67696753480462,0,1.80395627971822,1.77391819013189,1.67615595260028,1.67760725254215,1.79773096680968,1.67330109284621,1.67315787245721,1.77209451717862,1.76780745353455,0,1.7310952938208,1.73386422134147,1.67565945525175,1.78853621783586,1.67592679997788,1.67552578288868,1.67584086774448,1.67877211170602,1.67646148943015,0,1.85366330272727,1.79051265920406,1.67488606515115
0,1.88891461447321,1.89006992561114,1.80696390788723,1.85435076059447,1.80677294736856,1.8097614794857,2.06800693690513,1.97199198811932,1.93888898220838,0,1.93735175003311,1.96944266519511,1.86009867220635,1.96843057444618,1.92995202993476,1.92785146422943,1.92729767872529,1.92688711361016,1.92398451372642,0,1.92232315721401,2.06100823389598,1.91954468166741,2.04586506476568,2.05588094396977,1.96003785965076,1.91214496156906,2.03840805651173,2.0418357978218,0,2.04933099817949,1.90794383015838,1.96147006354076,2.03461749021619,1.90333213363257,2.03430240536039,2.03277472121105,1.82852335044474,1.90084009886397,0,1.9008782909677,1.82669012946554,1.89670580363482,1.90048682190443,1.89735506939829,1.89896868578103,1.82733939522901,1.82759719192921,1.90098331925297,0,1.83142595032848,2.02868816611158,1.90682671112418,2.04560726806548,1.90903230511478,1.83860606583037,1.91396863452233,1.9156204430088,1.91575411537187,0,2.01807076127369,2.05902224450184,2.0096303063486,2.00921019320753,1.98986589266656,1.9139017983408,1.91244095037299,2.00451256444832,1.91281332338439,0,1.98512052377768,1.91022580835645,1.90984388731912,1.90981524324132,1.90930919786685,1.90827801106605,1.90929010181499,1.99137448076403,1.98337323503188,0,1.90885089262205,1.90733275649865,1.90618699338665,1.99192826626816,1.97625995571153,1.97243119731225,1.99885058506984,2.00140945601998,1.99378058329923,0,2.00320448489545,2.01347816079974,1.90432512832964,1.99158453733456,1.98570295335962,1.98077617197801,1.98516826390735,1.97793086024987,1.9943439168293,0,1.99638719437904,1.98182645483067,1.98709696514589,1.89619021023442,1.98103396867821,1.98372651199141,1.97260306177906,1.97575391033706,1.97350057621679,0,1.97515238470326,1.89217049131648,1.97275583019399,1.9758780346742,1.97591622677793,1.88913421906967,1.97534334522193,1.97084622500732,1.88712913362367,0,1.96929944480611,1.96900345600218,1.97049294804778,1.97060752435898,1.97220204468985,1.97262215783092,1.95363113424948,1.95344017373081,1.87968167339565,0,1.87777206820898,1.87750472348285,1.87614890380031,1.87683636166752,1.87534686962191,1.87487901635118,1.96567119495144,1.95577944008449,1.96215752140797,0,1.80739356905423,1.80355526262902,1.90424874412217,1.79860938519555,1.79680480829414,1.89796614305803,1.90154665278304,1.7902930546076,1.85217381068166,0,1.78879401453606,1.78632107581932,1.83237120489589,1.97706198988993,1.98893973415102,1.82712933865847,1.78077367275204,1.8696466981397,1.77448152366196,0,1.86650539760763,1.7749780210105,1.77261965860496,1.77387045000223,1.77103468630002,1.77342169278336,1.77165530798569,1.77133067510395,1.76817027852001,0,1.76924920545048,1.9795731207104,1.76746372460095,1.76958338635815,1.76739688841941,1.76603152071094,1.76870496797228,1.89356450310275,1.76561140756988,0,1.76465660497654,1.76714863974515,1.89159760976048,1.8565945466888,1.76697677527834,1.76775016537895,1.76452293261347,1.84676962800338,1.69855562143993,0,1.84799177532285,1.85116171993273,1.91973564218607,1.69014381059265,1.68754674753877,1.6862100239081,1.68845381000244,1.6844913792401,1.6821998530161,0,1.79826565626195,1.68152194317483,1.68055759255556,1.67787459726829,1.67601273221128,1.80362209881056,1.80051899038222,1.67585996379635,1.67822787422782,0,1.67816103804629,1.67547804275901,1.79720582538334,1.67606047234095,1.67303374812008,1.67518205395508,1.67219352183794,1.67452324016568,1.80366029091429,0,1.67417951123208,1.67346340928708,1.67488606515115,1.72489862499005,1.67273775931614,1.72241613824738,1.72396291844859,1.79789328325054,1.78122242997091,0,1.79885763386981,1.67522979408475,1.67443730793228
0,1.80464373758543,1.89965614364823,1.86033737285468,1.80725034866523,1.8088162249183,1.80969464330417,1.97500916431426,1.86810946596443,1.93650197572504,0,1.96969091386938,1.9340003929305,1.86111076295528,1.93448734225311,1.97060752435898,1.92882536287463,1.92688711361016,1.96562345482177,1.84985364037986,0,1.96608176006657,2.04744048904468,1.96575712718484,1.9172817995212,1.91609784430547,1.91255552668419,1.91317614836986,1.96157509182603,2.05227179016696,0,1.96284497927517,1.90758100517291,1.90634930982751,1.90533721907858,1.95953181427629,1.90316981719171,1.9005918501897,1.82837058202981,1.90307433693237,0,1.95669605057409,1.8996179515445,1.90077326268243,1.8997611719335,1.82671877354334,1.95310599282315,1.82745397154021,1.82771176824041,1.95290548427855,0,1.90300750075084,2.02539409716457,2.04139658862887,1.9490003416718,1.90861219197372,1.8403342585243,1.94804553907847,1.94643192269573,1.94345293860453,0,1.94409265634206,2.03486573889046,2.00228787440585,1.98884425389169,1.98881560981389,2.00262205531352,2.00610708477919,1.91292789969559,1.91262236286573,0,1.91145750370186,1.90946196628179,1.90932829391872,1.90985343534505,1.98088120026327,1.90876496038865,1.90934738997059,2.00077928630838,1.98875832165829,0,1.90712269992811,1.97815046484633,1.99344640239157,2.00818855443267,1.97689967344906,1.98939803939582,1.99002820910743,1.9955183240191,1.99548013191537,0,1.99565199638217,1.90445880069271,1.90376179479957,1.99056289855969,1.99621532991224,1.98184555088254,1.98561702112622,1.98237069230888,1.97503780839206,0,1.89780382661716,1.9920237465275,1.98533058034822,1.98388882843228,1.89642891088276,1.97554385376653,1.97514283667733,1.98637131517495,1.98935984729209,0,1.97453176301759,1.97513328865139,1.97510464457359,1.96644458505204,1.96972910597312,1.88824625265787,1.97233571705292,1.9798595614884,1.97975453320314,0,1.97285131045332,1.97238345718259,1.97923893980274,1.87963393326599,1.88053144770372,1.87948116485105,1.95326830926401,1.87847862212805,1.95247582311155,0,1.95262859152648,1.87862184251705,1.87665494917478,1.87665494917478,1.87729466691232,1.87554737816651,1.95261904350055,1.87416291440618,1.96037204055843,0,1.85303313301566,1.80331656198069,1.80117780417162,1.98612306650068,1.79525802809294,1.79452283009607,1.8408212078469,1.90898456498512,1.78900407110659,0,1.78753367511286,1.78532808112225,1.78341847593558,1.83093900100588,1.88878094211014,1.82894346358581,1.82711979063254,1.82736803930681,1.82509560913467,0,1.86820494622376,1.7754363262553,1.77498756903643,1.87588155907418,1.81993967513066,1.85784533808607,1.77145479944109,1.77165530798569,1.76925875347642,0,1.89755557794289,1.98701103291249,1.89297252549488,1.76914417716522,1.76747327262688,1.76859039166108,1.76759739696401,1.76680491081154,1.76620338517774,0,1.76626067333334,1.76647072990388,1.89473891029255,1.89281020905402,1.76471389313214,1.76565914769954,1.76497168983234,1.6994913279814,1.84663595564032,0,1.84843098451579,1.79987927264468,1.69204386775338,1.68989556191838,1.68695476993091,1.73497179234974,1.6854366338075,1.73180184773987,1.73099026553553,0,1.76070372224013,1.75837400391239,1.67887713999129,1.79759729444661,1.84821137991932,1.67879120775789,1.80094865154922,1.67255634682341,1.67602228023722,0,1.67626098088555,1.67587905984821,1.67403629084308,1.80142605284589,1.67509612172168,1.67323425666468,1.67535391842188,1.67401719479121,1.80073859497868,0,1.67221261788981,1.80218989492055,1.67670973810442,1.67460917239908,1.79842797270281,1.67316742048314,1.67254679879747,1.67604137628908,1.67511521777355,0,1.67588860787415,1.67452324016568,1.77393728618376
0,0,0,0,0,0,0,0,0,0,0,0,0,0,0,0,0,0,0,0,0,0,0,0,0,0,0,0,0,0,0,0,0,0,0,0,0,0,0,0,0,0,0,0,0,0,0,0,0,0,0,0,0,0,0,0,0,0,0,0,0,0,0,0,0,0,0,0,0,0,0,0,0,0,0,0,0,0,0,0,0,0,0,0,0,0,0,0,0,0,0,0,0,0,0,0,0,0,0,0,0,0,0,0,0,0,0,0,0,0,0,0,0,0,0,0,0,0,0,0,0,0,0,0,0,0,0,0,0,0,0,0,0,0,0,0,0,0,0,0,0,0,0,0,0,0,0,0,0,0,0,0,0,0,0,0,0,0,0,0,0,0,0,0,0,0,0,0,0,0,0,0,0,0,0,0,0,0,0,0,0,0,0,0,0,0,0,0,0,0,0,0,0,0,0,0,0,0,0,0,0,0,0,0,0,0,0,0,0,0,0,0,0,0,0,0,0,0,0,0,0,0,0,0,0,0,0,0,0,0,0,0,0,0
0,1.80449096917049,1.80700209999096,1.89200817487561,1.89250467222415,1.8081287670511,1.81051577353444,1.97554385376653,1.94099909593965,1.94243129982966,0,1.93684570465864,1.86289624380482,1.93662610006218,1.96840193036838,1.92886355497836,1.97196334404152,1.92782282015163,1.96748531987878,1.96772402052711,0,1.92234225326588,1.96707475476364,2.05136472770329,1.91774965279194,1.91774965279194,2.04639020619201,1.91435055555966,1.96254899047123,1.9632841884681,0,2.04846212781955,1.90753326504325,1.95952226625036,1.9603911366103,1.90439196451117,1.96001876359889,1.90232959090957,1.90128885608283,1.83055707996855,0,1.90003806468557,1.82774041231821,1.9001621890227,1.90207179420937,1.95564576772142,1.8993601548443,1.90297885667304,1.82774041231821,1.9007064265009,0,1.90292156851744,1.83049024378702,1.95244717903374,1.83394662917489,2.0381407117856,1.91054089321225,2.03850353677106,1.84425849718291,1.91957332574521,0,1.92378400518182,1.94230717549252,1.91996479480847,2.01836675007762,2.00414019143692,2.00015866462271,1.9142455272744,2.01305804765868,1.98554063691875,0,1.91330027270699,1.91139066752032,1.90965292680045,1.91085597806806,1.91015897217492,1.90977705113759,1.98274306532028,1.90982479126725,1.98186464693441,0,1.90937603404839,1.99007594923709,1.99659725094957,2.01340177659228,1.97609763927066,1.99558516020064,1.99536555560417,1.90618699338665,1.99538465165604,0,1.90665484665738,1.98102442065227,1.90443015661491,1.9029693086471,1.98929301111056,2.00889510835173,1.97232616902699,1.90206224618344,1.98947442360329,0,1.97281311834959,1.98382199225075,1.98690600462722,1.89698269638689,1.89691586020536,1.89582738524896,1.98979905648503,1.97569662218146,1.89554094447096,0,1.98890154204729,1.98811860392076,1.95909260508336,1.89116794859348,1.97863741416893,1.88904828683627,1.88865681777301,1.98528284021855,1.88704320139027,0,1.88648941588614,1.88597382248573,1.96850695865365,1.96699837055618,1.96661644951884,1.95995192741736,1.87996811417366,1.87928065630645,1.87773387610525,0,1.95148282841448,1.87789619254612,1.87655946891545,1.87670268930445,1.87580517486671,1.87537551369971,1.87470715188438,1.94259361627052,1.94946819494254,0,1.8531572573528,1.80154062915709,1.80148334100149,1.80057627853782,1.79587864977861,1.7942172932662,1.7937589880214,1.89968478772603,1.8372406981219,0,1.790378986841,1.78807791259106,1.90358993033277,1.78127971812651,1.78051587605184,1.77959926556224,1.7788736155913,1.78042994381844,1.78087870103731,0,1.77742231564943,1.98149227392301,1.77386090197629,1.77301112766822,1.8216678678246,1.82050300866073,1.82011153959746,1.77111107050749,1.76861903573888,0,1.76735869631568,1.76855219955735,1.76808434628661,1.76679536278561,1.76673807463001,1.76860948771295,1.76658530621508,1.76542999507714,1.98231340415328,0,1.76588830032194,1.76693858317461,1.76562095559581,1.85080844297319,1.86663906997069,1.86524505818442,1.76575462795888,1.77447197563603,1.69756262674286,0,1.74436704986816,1.78179531152691,1.69001968625551,1.68868296262484,1.68917945997338,1.78421096208805,1.73336772399294,1.78326570752065,1.68279183062396,0,1.68156013527856,1.79253684070193,1.67977465442902,1.67607956839282,1.67609866444468,1.79815107995075,1.77507350126983,1.77482525259556,1.67558307104428,0,1.7773268353901,1.67489561317708,1.80116825614569,1.79808424376921,1.67182114882654,1.67273775931614,1.80361255078462,1.80255271990602,1.67350160139081,0,1.80845339993283,1.67381668624661,1.80202757847969,1.80190345414255,1.67264227905681,1.67239403038254,1.80135921666435,1.67522024605881,1.67315787245721,0,1.67522979408475,1.67485742107335,1.67457098029535
0,1.8056940204381,1.80647695856463,1.89171218607168,1.89222777947208,1.92180756381361,1.94307101756719,1.94244084785559,1.94085587555065,1.94128553671765,0,1.86324952076435,1.93516525209437,1.93431547778631,1.93431547778631,1.92910225562669,1.92807106882589,1.92954146481963,1.92616146363922,1.92567451431662,0,1.92236134931775,1.92181711183955,2.0383412203302,1.84556657673578,1.9166516298096,1.84320821433024,1.91332891678479,1.96509831339544,1.96257763454903,0,1.90808705054738,1.90883179657018,1.83419487784916,1.90591964866051,1.96061074120676,1.90390501518857,1.83152143058782,1.90038179361917,2.04543540359868,0,1.9015371047571,1.90118382779757,1.9005059179563,1.82719617484001,1.9002767653339,1.82770222021448,1.82810323730368,1.90144162449777,1.83049979181295,0,1.95257130337088,1.90558546775284,1.90621563746445,1.90615834930885,1.90967202285232,2.03827438414866,1.91541038643827,1.94726260095193,1.84958629565372,0,1.92007937111968,2.02794342008877,2.01124392273134,2.01261883846574,1.99864052849931,2.00261250728759,2.00712872355406,1.91334801283666,1.98555973297062,0,1.98492956325901,1.91262236286573,1.91032128861579,1.91296609179933,1.91046450900479,1.91207812538752,1.90762874530258,1.98536877245195,1.98726882961269,0,1.90743778478391,1.99698872001284,1.90648298219058,1.99991996397438,1.90678851902045,2.00149538825338,1.90631111772378,1.99244385966856,1.98634267109715,0,1.97710018199366,1.97611673532253,1.97178193154879,1.99606256149731,1.9951459510077,1.99462080958137,1.98140634168961,1.9005632061119,1.9767373570082,0,1.9005632061119,1.97301362689419,1.97081758092952,1.98045153909627,1.89735506939829,1.96765718434558,1.89585602932676,1.96924215665051,1.89302981365048,0,1.89450975767015,1.98331594687628,1.98224656797174,1.98507278364802,1.9765082043858,1.89042320257068,1.96695063042651,1.89153077357895,1.88761608294627,0,1.97036882371065,1.97498052023646,1.8839878330916,1.9625107983675,1.9638570700241,1.96632046071491,1.97535289324786,1.87945252077325,1.96653051728544,0,1.87647353668205,1.87748562743098,1.87664540114885,1.87955754905852,1.87345636048711,1.87500314068831,1.96447769170977,1.96046752081776,1.94457960566466,0,1.91011123204525,1.80261000806162,1.80045215420068,1.79755910234288,1.8521833587076,1.84275945711138,1.7937876320992,1.89650529509022,1.83786131980756,0,1.78674118896039,1.78505118837018,1.78325615949471,1.87286438287924,1.78104101747818,1.78054452012964,1.77955152543257,1.77748915183097,1.77683033804157,0,1.7758086992667,1.9022818507799,1.77106333037782,1.77082462972949,1.77072914947015,1.88029274705539,1.87401014599124,1.77121609879275,1.76923010939862,0,1.76880044823162,1.8394749361903,1.77055728500335,1.76730140816008,1.85876194857568,1.76716773579701,1.76660440226694,1.89632388259749,1.85679505523341,0,1.76675717068188,1.76530587074001,1.81364752604058,1.85103759559559,1.81391487076671,1.87318901576097,1.76495259378047,1.6981737004026,1.74743196619277,0,1.69521381236326,1.79856164506588,1.68940861259578,1.68803369686137,1.68840606987278,1.6839757858397,1.68292550298703,1.68203753657523,1.68189431618623,0,1.79923955490715,1.84983454432799,1.84926166277199,1.76798886602728,1.67794143344982,1.80007978118928,1.79880989374015,1.67567855130361,1.67524889013661,0,1.67431318359515,1.67300510404228,1.67414131912834,1.67319606456094,1.67171612054127,1.80186526203882,1.80004158908555,1.67198346526741,1.67242267446034,0,1.80567492438623,1.80404221195162,1.80334520605849,1.67030301270314,1.67088544228507,1.67251815471967,1.67320561258688,1.67202165737114,1.67057035742927,0,1.6696919390434,1.66881352065753,1.80203712650562
0,1.80484424613003,1.8065819868499,1.8099906321081,1.80989515184877,1.8100765643415,1.89975162390756,1.94436000106819,1.97600215901133,1.93979604467205,0,1.94031163807245,1.97300407886826,1.93443005409751,1.97344328806119,1.9318807311733,1.97527650904039,1.96929944480611,1.92618055969109,1.85190646595553,0,1.92460513541208,1.96790543301984,1.91965925797861,1.91692852256167,1.96594808770351,2.0389713900418,1.84412482481984,1.96631091268897,2.0553176104397,0,1.90842123145505,1.96379023384257,1.96404803054277,1.9641148667243,1.96292136348263,1.96218616548577,1.90298840469897,1.9023104948577,1.82811278532961,0,1.90083055083803,1.90058230216377,1.82793137283688,1.82944950896028,1.9026542237913,1.90061094624157,1.82724391496967,2.02838262928171,2.02575692215004,0,1.90283563628404,1.90354219020311,1.90656891442398,2.04092873535814,1.95176926919248,1.83834826913017,1.9149329851416,2.02938517200471,1.94557260036173,0,1.94601180955466,2.03257421266645,1.99892696927731,1.99243431164263,2.00647945779059,2.00279391978032,1.99529871942264,1.98815679602449,1.98602758624135,0,1.98257120085348,1.91061727741972,1.91007303994152,1.90956699456705,1.90913733340005,1.90789609002872,1.90621563746445,1.90742823675798,1.99603391741951,0,1.99749476538731,1.90865993210338,1.90688399927978,2.00182002113512,1.90868857618118,1.99022871765203,1.90683625915011,1.99800081076178,2.00923883728533,0,1.97766351552373,1.98940758742176,1.99300719319863,1.90327484547697,1.90270196392097,1.98569340533368,1.99909883374411,1.99231973533143,1.99986267581878,0,1.99886968112171,1.89880636934016,1.98650498753802,1.96738029159351,1.99257753203163,1.97279402229772,1.98774623090935,1.97290859860892,1.89364088731022,0,1.89340218666188,1.89310619785795,1.89323032219508,1.96935673296171,1.97042611186625,1.97275583019399,1.96945221322105,1.95388893094968,1.8863366474712,0,1.887081393494,1.97224978481952,1.96675012188191,1.97359605647612,1.96926125270238,1.95928356560203,1.9621384253561,1.96018108003976,1.96369475358324,0,1.87820172937598,1.87669314127851,1.87655946891545,1.87565240645178,1.87438251900264,1.87513681305138,1.87399104993938,1.96550887851057,1.95425175593515,0,1.90934738997059,1.90877450841458,1.99949030280738,1.79845661678061,1.84471680242771,1.79614599450474,1.7935011913212,1.78981565331093,1.78826887310972,0,1.98892063809916,1.90274970405064,1.78285514240551,1.90414371583691,1.78060180828524,1.90392411124044,1.9021672744687,1.89807117134329,1.89362179125835,0,1.7773554794679,1.77619062030403,1.89757467399476,1.89826213186196,1.89784201872089,1.89685857204976,1.77302067569416,1.77082462972949,1.76970751069528,0,1.76576417598481,1.89337354258408,1.81486012533412,1.81473600099698,1.76528677468814,1.76464705695061,1.76543954310307,1.76788383774201,1.76365406225354,0,1.76415055960207,1.87014319548823,1.86830997450903,1.81215803399498,1.81313193264018,1.81332289315884,1.7458374458619,1.69642641165679,1.69495601566306,0,1.69312279468385,1.69142324606772,1.69147098619738,1.6854652778853,1.6861240916747,1.79534396032634,1.77820525377597,1.6827727345721,1.80420452839249,0,1.80023254960422,1.79821791613228,1.67843793079835,1.79471379061474,1.79862848124741,1.79710079709808,1.79630831094561,1.67497199738455,1.67518205395508,0,1.7916966144198,1.7917825466532,1.67071357781827,1.6710954988556,1.79854254901401,1.67182114882654,1.67134374752987,1.90881270051832,1.6699783798214,0,1.80171249362389,1.80080543116022,1.67169702448941,1.80029938578575,1.67312922837941,1.67176386067094,1.75138484892918,1.76568779177734,1.80250497977635,0,1.79998430092995,1.67185934093027,1.67219352183794
0,1.90908004524445,1.98075707592614,1.8093031742409,1.80989515184877,1.80846294795877,1.98198877127154,1.94379666753813,1.94000610124258,1.94028299399465,0,1.93956689204965,1.94089406765439,1.97357696042426,1.93443005409751,1.97208746837865,1.97292769466079,1.92904496747109,1.92590366693902,1.92619965574296,0,1.96969091386938,1.92344027624822,1.91943010535621,1.91909592444854,1.96848786260178,2.0555181189843,1.84201471108857,1.91314750429206,1.83922668751603,0,1.90973885903385,1.83600900277649,1.83628589552856,1.96617724032591,1.90811569462518,1.83196063978075,1.96104040237376,1.82918216423415,1.9012220199013,0,1.90083055083803,1.95878706825349,1.90155620080897,1.82769267218854,2.0391146104308,2.04516805887254,1.89977071995943,1.9014511725237,1.82984097802355,0,1.90416281188877,1.83235210884402,1.90684580717605,1.90777196569158,2.03528585203152,1.9486566127382,1.84068753548384,1.91697626269133,1.9460213575806,0,1.85392109942747,1.94588768521753,1.99871691270678,1.99260617610943,1.99189007416443,1.91597371996833,1.98736430987202,1.98592255795608,1.98546425271128,0,1.98287673768334,1.98870103350269,1.98605623031915,1.90955744654112,1.91009213599339,1.90963383074859,1.91103739056079,1.98238024033481,2.00003454028558,0,1.98936939531802,2.00039736527105,1.98708741711995,1.98987544069249,1.99581431282304,1.90717998808371,1.99013323739269,1.99897470940698,1.97631724386713,0,1.97598306295946,1.97499006826239,1.99923250610718,1.98526374416668,1.9928544247837,1.98364057975801,1.98630447899342,1.98539741652975,1.89994258442623,0,1.98531148429635,2.00024459685611,1.99869781665491,1.99210013073496,1.89672489968669,1.89714501282776,1.89461478595542,1.89465297805915,1.89365998336208,0,1.97412119790246,1.96862153496485,1.98966538412196,1.99023826567796,1.98263803703501,1.97065526448865,1.97855148193553,1.96822051787565,1.97244074533819,0,1.88661354022327,1.97195379601559,1.96901300402811,1.96654006531138,1.97189650785999,1.97055023620338,1.96527972588817,1.9645445278913,1.95940768993916,0,1.87752381953472,1.87654992088951,1.87483127622151,1.87468805583251,1.87448754728791,1.87481218016964,1.96309322794943,1.95647644597762,1.96481187261744,0,1.8068111394723,1.80091045944548,1.80048079827848,1.79888627794761,1.90631111772378,1.88363455613206,1.79362531565834,1.79039808289286,1.78774373168339,0,1.78497480416272,1.9019954100019,1.78490796798118,1.78293152661298,1.99107849196009,1.98156865813047,1.77837711824277,1.77797610115357,1.7771549709233,0,1.82411216246353,1.86091980243661,1.8231573598702,1.77430965919516,1.77124474287055,1.76971705872122,1.76861903573888,1.89239009591295,1.77015626791415,0,1.76815118246815,1.76781700156048,1.96483096866931,1.81487922138598,1.81335153723664,1.89408964452909,1.89589422143049,1.76723457197855,1.89408964452909,0,1.85655635458507,1.76244146296,1.88724370993487,1.89052823085594,1.86521641410662,1.94531480366153,1.763587226072,1.69702793729059,1.74401377290863,0,1.74134987367322,1.73854275404882,1.68838697382091,1.79788373522461,1.78394361736191,1.6852361252629,1.77205632507489,1.79409316892907,1.68139781883769,0,1.72634992493192,1.67839019066869,1.67907764853589,1.67630872101522,1.78190988783811,1.78777237576119,1.72108896264265,1.67277595141988,1.77538858612563,0,1.67309103627568,1.67102866267407,1.78627333568965,1.67078996202574,1.67101911464814,1.6698638035102,1.66968239101747,1.73300489900747,1.67172566856721,0,1.6702075324438,1.7779570051017,1.79521983598921,1.67154425607447,1.80462464153356,1.79893401807728,1.79828475231381,1.80137831271622,1.67050352124774,0,1.67291917180888,1.67169702448941,1.78606327911912
0,0,0,0,0,0,0,0,0,0,0,0,0,0,0,0,0,0,0,0,0,0,0,0,0,0,0,0,0,0,0,0,0,0,0,0,0,0,0,0,0,0,0,0,0,0,0,0,0,0,0,0,0,0,0,0,0,0,0,0,0,0,0,0,0,0,0,0,0,0,0,0,0,0,0,0,0,0,0,0,0,0,0,0,0,0,0,0,0,0,0,0,0,0,0,0,0,0,0,0,0,0,0,0,0,0,0,0,0,0,0,0,0,0,0,0,0,0,0,0,0,0,0,0,0,0,0,0,0,0,0,0,0,0,0,0,0,0,0,0,0,0,0,0,0,0,0,0,0,0,0,0,0,0,0,0,0,0,0,0,0,0,0,0,0,0,0,0,0,0,0,0,0,0,0,0,0,0,0,0,0,0,0,0,0,0,0,0,0,0,0,0,0,0,0,0,0,0,0,0,0,0,0,0,0,0,0,0,0,0,0,0,0,0,0,0,0,0,0,0,0,0,0,0,0,0,0,0,0,0,0,0,0,0
0,1.8080141907399,1.8099906321081,1.80842475585503,1.80703074406876,1.9786565102208,1.94341474650079,2.06414953442805,2.068885355291,1.86766070874556,0,1.86686822259309,1.93867892563785,1.86380330626849,1.93581451785784,1.93700802109951,1.92757457147736,1.92775598397009,1.92890174708209,2.04513941479475,0,1.97009193095858,1.92344027624822,1.92244728155115,1.84722793324818,1.84778171875232,1.9167662061208,2.0423227471444,1.90939513010025,1.91031174058985,0,1.9635419851683,1.90929964984092,1.90892727682952,1.90891772880358,1.82973594973828,1.83143549835442,1.83142595032848,1.90434422438151,1.96114543065903,0,1.82919171226008,1.90031495743763,1.89939834694803,1.90103105938263,1.82882888727461,1.90058230216377,1.9017949014573,1.82961182540115,1.90350399809937,0,1.9027401560247,1.95200796984081,1.90551863157131,1.90676942296858,1.90992981955252,1.91066501754939,1.94955412717594,1.91783558502534,1.92302016310715,0,1.9457062727248,1.94677565162933,2.00450301642239,1.91919140470787,2.01520635349368,1.91684259032827,1.99780030221718,2.00608798872733,2.01360228513688,0,1.91281332338439,1.98649543951209,1.98595120203388,1.98613261452662,1.91013032809712,1.90924236168532,1.90911823734818,1.98873922560642,1.99851640416218,0,1.99925160215905,1.90693173940945,1.98893018612509,1.99949985083331,1.90757145714698,1.90725637229118,1.99542284375977,1.99993906002625,1.9954610358635,0,1.98828092036162,1.99231973533143,1.98566476125588,1.98514916785548,1.98527329219262,1.9913362886603,1.99464945365917,1.98005052200707,1.97227842889732,0,1.979200747699,1.98845278482842,1.98348781134308,1.98947442360329,1.89804252726549,1.89696360033503,1.98661956384922,1.98820453615416,1.89338309061002,0,1.97290859860892,1.97539108535159,1.97267944598652,1.89095789202295,1.979487188477,1.88952568813294,1.9779976964314,1.98156865813047,1.97236436113072,0,1.9762790517634,1.88644167575647,1.96633955676677,1.97202063219712,1.97369153673546,1.97315684728319,1.97233571705292,1.96544204232904,1.87996811417366,0,1.94951593507221,1.87582427091858,1.87533732159598,1.87508907292171,1.87381918547258,1.87485037227338,1.94921039824234,1.95916898929083,1.96868837114638,0,1.80444322904083,1.80329746592882,1.79818927205448,1.79843752072875,1.79729175761674,1.7937589880214,1.79136243351213,1.7904076309188,1.90084009886397,0,1.88938246774394,1.78336118777998,1.78207220427898,1.99766662985411,1.78138474641178,1.7785871748133,1.99648267463837,1.77573231505923,1.87303624734604,0,1.77570367098143,1.87930930038425,1.77206587310082,1.77247643821596,1.77063366921082,1.76919191729488,1.77008943173262,1.89304890970235,1.89264789261315,0,1.76837078706461,1.76770242524928,1.88930608353648,1.76663304634474,1.76395005105747,1.76744462854908,1.76394050303154,1.76448474050974,1.7626419715046,0,1.76363496620167,1.7625560392712,1.76205954192267,1.96029565635096,1.76413146355021,1.95339243360115,1.88950659208108,1.7910091565526,1.78785830799459,0,1.69215844406458,1.80697345591316,1.68808143699104,1.68651556073797,1.6860095153635,1.79754000629101,1.79704350894248,1.91231682603586,1.78100282537444,0,1.67815149002035,1.72483178880852,1.78089779708917,1.76947835807288,1.67251815471967,1.67386442637628,1.72106031856485,1.66956781470627,1.67022662849567,0,1.670465329144,1.6689471930206,1.79960237989262,1.79808424376921,1.66932911405793,1.6686893963204,1.71770896146224,1.67173521659314,1.71576116417183,0,1.73458987131241,1.66887080881313,1.79995565685215,1.79601232214167,1.80110141996415,1.66821199502373,1.67154425607447,1.6706658376886,1.66806877463473,0,1.66836476343867,1.72101257843518,1.71890246470391
