1.85803942173476,1.85776832841671,1.8567556056831,1.85551479208057,1.85512442014233,1.85499232890589,1.87900608844061,1.89094182855247,1.88124326298932,1.86069360711751,1.86256915842487,1.86296030121781,1.86287297325995,1.86300631919953,1.86232542982111,1.86425456920395,1.87879141924857,1.89034812794309,1.89414392154361,1.87489975631348,1.87669076429794,1.89611113349588,1.89861209222469,1.90259297974684,1.91907638557795,1.92507051221791,1.89293744020894,1.87839855519353,1.8850851146447,1.89381916213821,1.90060398003257,1.93953398253676,1.9385113362561,1.90054236314414,1.87015779801525,1.87027822458547,1.86987376923541,1.86944274144168,1.89030465099375,1.94260636317663,1.94252058654418,1.943901316891,1.94654567993197,1.94672934792239,1.94628448646715,1.94722484395479,1.95080368495654,1.9504649644415,1.93899758086443,1.93858231540494,1.93816904116705,1.95440495515446,1.95430011682864,1.94892827691248,1.89349952681472,1.87054670926601,1.87066327858822,1.87381557534094,1.8779414993735,1.8857310893072,1.89566478332646,1.90514370607241,1.91108569053332,1.9483930360731,1.96126314497782,1.96028766567949,1.95853159643805,1.95831538721497,1.96333462970255,1.96174388585647,1.95603727787563,1.9548810508782,1.95582213587947,1.95604020630927,1.95735394182121,1.95877246458666,1.96146300008996,1.96492341500588,1.96469251502426,1.87185473444055,1.8718371225841,1.89280310728829,1.96650238908496,1.96689776397558,1.96134733391124,1.95770612495276,1.95302624304408,1.94852066945062,1.96344431813011,1.95629239183761,1.95563595324955,1.9528051197075,1.95074743717392,1.95222572166571,1.95094074001186,1.89785832288159,1.88996503230806,1.87981323881879,1.86932993872997,1.86957259842502,1.86907868900691,1.95174393257466,1.95459080452607,1.9555820170242,1.95051512528315,1.90782440793689,1.82563835529512,1.8000004434644,1.80019676043424,1.7998980667745,1.7988744670762,1.79860271442562,1.79826568712692,1.79842454632206,1.81716049362133,1.82605581044401,1.84703193859814,1.84728792525356,1.84662256656347,1.84629537452443,1.84572801816743,1.82186628567547,1.79849504124425,1.79864150698215,1.79848311203734,1.79878158286751,1.79855536938857,1.79795426853604,1.79813341630068,1.81144132749987,1.82081315753986,1.83242978010065,1.84208229329568,1.83560146866243,1.82056287142021,1.79912840556962,1.79996231328679,1.79946970187673,1.79914233871399,1.79883971242997,1.79742064257674,1.79687899747635,1.79680539965087,1.79754109685655,1.79759169063848,1.79747930682238,1.81916673657583,1.83216837800945,1.79571176918473,1.79565003891358,1.79618288688856,1.79664160523571,1.79677646706757,1.79650282502662,1.79577057269257,1.81831411550398,1.76089462766901,1.7256973392431,1.72522775022725,1.72106792446813,1.72150817450433,1.77228848040204,1.76345682070038,1.75483567455416,1.74761137283913,1.73870718244769,1.73134351465813,1.72308072267076,1.70802532162043,1.70729516374868,1.70668911640406,1.74421651605876,1.73420781476313,1.72468059138772,1.71938520795758,1.7026719357079
1.85765144667187,1.89843232588033,1.85714611392532,1.85614723940303,1.85714202030803,1.85709861091983,1.98318287603984,1.9807012833006,1.86001113317409,1.86010044378054,1.86272767580305,1.86207977912539,1.86245401868919,1.8627118084013,1.86094477385297,1.86803671508536,1.86957316334697,1.98363765800301,1.89935857268859,1.79923854483716,1.87677279605888,1.89772084568777,1.89740010825556,1.90196500495279,1.89711959082514,1.96390039210608,1.95779141747217,1.87203051979336,1.94359308608639,1.94358218046917,1.8704268191518,1.94119057352754,1.94031790265402,1.90667365652941,1.86905211217813,1.86999538101735,1.87016759368239,1.86896180841037,1.94300619577864,1.94531592821597,1.94473902299812,1.95986922545018,1.86903415151951,1.94870326150004,1.97000119086818,1.94715823788428,1.86844623905043,1.96274205543648,1.86958195488858,1.86947275392417,1.86816941130652,1.9531711953986,1.95390081724273,1.94704161213956,1.86968504124792,1.86976499282755,1.86980265351662,1.96235254919639,1.87112359818529,1.94779063858144,1.87186613516797,1.87250800393161,1.87357190988261,1.94889968221822,1.95978035493821,1.95516084240898,1.95973335396999,1.95331233040489,1.96002549472014,1.95928772317022,1.95674508238003,1.96734569796059,1.95643600727125,1.95706806528689,1.96058158643908,1.95960360629909,1.96809348725378,1.95993995822598,1.95854026667161,1.87132513989599,1.87089163963359,1.87108327105474,1.96177150108167,1.96328581262752,1.95124163458754,1.95829764495347,1.96439433919439,1.94675802361359,1.96535369314994,1.9585020964652,1.86860576595571,1.86846667779608,1.94627609907143,1.95161447518824,1.94678287042693,1.86974204580208,1.8687766483665,1.8683897065716,1.86817831048881,1.86827825431344,1.86734743165385,1.94413719077153,1.96280134156953,1.95657451358815,1.95168299688477,1.90811037734052,1.80166718540093,1.79902594964663,1.80050082384565,1.79981463996592,1.79888568417715,1.79881001976605,1.79814725900292,1.79787428825451,1.7969549444911,1.79481260580516,1.88653442415563,1.95724390148228,1.8459013577881,1.84649599894617,1.84528602746035,1.79802483191274,1.79837932295684,1.79834685990497,1.797436294594,1.98864062135666,1.84644821557826,1.79760569268483,1.79767236692548,1.80024987477344,1.98883318951729,1.98704436562166,1.87629481091754,1.84044814763768,1.88962826384491,1.79797207579757,1.89553895330635,1.88666817508387,1.80003693301833,1.7997711818935,1.79703211665973,1.79628654264356,1.79683981873442,1.7973701165366,1.79730432168874,1.79679434026595,1.97640809524162,1.96318330692328,1.79631763745894,1.96276315112261,1.79698937350468,1.79711626231794,1.79690138112063,1.79626349960071,1.7953324672841,1.8220411816877,1.72705693534776,1.72612313071562,1.82198133341953,1.72062368314622,1.71844159491041,1.80364662843759,1.82184770955633,1.82458999792993,1.8251183574376,1.82298214104727,1.70982491751995,1.70872148490694,1.70830012505455,1.70758207522374,1.70628629143782,1.75354713800677,1.82398924894128,1.75841399635956,1.79396756199738,1.70305097671272
1.90059638716752,1.85845595599988,1.89963389991117,1.88678481400813,1.98940753497081,1.98861742342237,1.85871743151983,1.85871307245092,1.7856100999059,1.8602273919685,1.86071543986143,1.78741702318301,1.86313309748111,1.86325460802264,1.86338872663707,1.86364138940796,1.79608833126439,1.99035876738092,1.8009032284948,1.90284391462048,1.803984333462,1.88248885232294,1.97385895201263,1.92908207683347,1.98712258902687,1.87260259955125,1.95722981360284,1.87342014267015,1.94407871016975,1.87224929090602,1.94467493330597,1.94427846760342,1.94506657407064,1.93361484535333,1.94599781550651,1.94424544150215,1.94181227112768,1.94322162604095,1.94402479435652,1.94704586912216,1.9524704578162,1.94174705666563,1.94471023519659,1.94650342366643,1.94396436031112,1.9615973788309,1.86840509073618,1.96217304589761,1.95380786138779,1.87013699206896,1.95566442692485,1.96663947378912,1.94278537752539,1.94255046976514,1.94302458338551,1.94300587471164,1.94710115007958,1.87118936501448,1.95346714884628,1.95565219789037,1.95583637677589,1.95648860396917,1.9525376137043,1.94938040931427,1.97622706400142,1.87328057017362,1.95305255428174,1.9578818649559,1.95798833467933,1.95957187220564,1.95758340094055,1.95639732859737,1.94322699480069,1.90085799254812,1.87311188063007,1.9575125458905,1.9574266380535,1.9588554552011,1.96027064663581,1.960214596601,1.95468410309259,1.9735077521321,1.87075170820976,1.96238112795367,1.96170370886374,1.9453158344978,1.94457894822528,1.95656925215758,1.95333694185004,1.95836128106705,1.95285560402522,1.94124213638102,1.95617750480409,1.95656297811014,1.86929670450844,1.86832918158351,1.86827232088343,1.86774155170672,1.86860571800962,1.86936981017148,1.8678323656776,1.87056528757235,1.86938904312574,1.95678889242492,1.96216140548162,1.80271689972344,1.8995590992107,1.98613839190533,2.00463487733286,1.79878695294002,1.79882442981188,1.98575866800171,1.98549531227957,1.79743683397265,1.79606135896007,1.79609042480528,1.79549833826203,1.97570188016136,1.79744335240798,1.9566614155213,1.84595754387448,1.84547874344448,1.7998615593072,1.79824687342604,1.79705433053793,1.79937848136334,1.98273941227746,1.79756797855818,1.79840518969223,1.79817652380041,1.79992128020134,1.79830984987779,1.87742800245122,1.82943431680057,1.79881254671859,1.79794215407357,1.9535389311056,1.8462269795044,1.84564772323448,1.79706743241576,1.79566966550245,1.79687703109739,1.79724271817941,1.79792536999683,1.97279902611006,1.79555503784273,1.96549466039834,1.79715170096071,1.79684761354218,1.79540093067423,1.79537407804972,1.79550189298676,1.88359337041764,1.79590448129882,1.79549066313532,1.72679702545664,1.72586600254355,1.72445783089051,1.82216729287395,1.71885862808249,1.8034132555202,1.80595308174669,1.82731328987888,1.82631009253518,1.82662948523653,1.8266476294314,1.70928273262052,1.70839922099169,1.7080759670411,1.70781712187612,1.70657851606931,1.70265894453174,1.70217997972176,1.74218355213264,1.8267870713688,1.70278653914015
1.90239946956007,1.85977366829395,1.90054421937603,1.88283060122299,1.78610882702614,1.98960615171651,1.78465739628351,1.85952718898246,1.78754935119736,1.78810808743845,1.97653263897409,1.90071210139927,1.90102644753895,1.90233312225671,1.97312369169109,1.90086729604541,1.79502262990729,1.87308959924057,1.80141250220174,1.99309040037107,1.90017961874702,1.88170034858073,1.90065885316869,1.92336739358634,1.99340050697979,1.94384478485118,1.94452546094996,1.87342841853467,1.97198735954445,1.95416883596368,1.94542924917464,1.94444514742357,1.94450783706266,1.93332605234673,1.86969547509537,1.86899761689888,1.94873295755178,1.94668728797186,1.94661939035511,1.9486190145787,1.9432452774009,1.94323671662936,1.94404212070464,1.94849091687967,1.94436020527188,1.94364526562719,1.95354884538837,1.96352221027887,1.95860768017561,1.95969633847221,1.9614402768458,1.87006259693787,1.94335877405009,1.941742228051,1.94311265215656,1.87170054717365,1.96378453164015,1.95493307447033,1.95680913494489,1.87148219835578,1.95028059702887,1.8731348511136,1.87294035573346,1.89183602234605,1.87404540314663,1.97623647974547,1.95485939807522,1.95539593075323,1.9548444049179,1.95653829149775,1.95279927542857,1.87469380467051,1.96437677637566,1.89282141608515,1.87356747618176,1.8729065511376,1.95681104204548,1.87375801427388,1.95468517755004,1.97045695612933,1.96248253030176,1.96909793879877,1.96605555146408,1.96255552499052,1.96501546806806,1.87128485383478,1.94546669693407,1.95181834713288,1.95142665442282,1.96223790597818,1.95607509037576,1.94092590970972,1.95685394315501,1.95367878091084,1.86780380124751,1.86775529669128,1.86758657752101,1.86782438945066,1.86820996374665,1.86810759328164,1.96021328468199,1.94955742724634,1.94097239546561,1.94938922702146,1.9458139213697,1.802154214233,1.80141825177074,1.99045691817383,1.98941254942977,1.79873552758523,1.98225223609605,1.97341652550515,1.98697059117226,1.79749179454946,1.7968749309192,1.79546145056888,1.79573681814149,1.84343393299353,1.84352309428869,1.79810956634861,1.79740546306301,1.79758446982697,1.79644068593323,1.79710061842395,1.79609900994966,1.79917544411279,1.79747463218263,1.79972222009397,1.79939656400441,1.79967756145283,1.79977329968561,1.79989421801474,1.79981481629309,1.81740208024449,1.8969809029889,1.79960801301224,1.79989271213697,1.79955368409305,1.79820667086527,1.79749925856019,1.7986972706386,1.79602416315047,1.79791133713418,1.79763928290378,1.79752395037696,1.96407844355185,1.98188942268506,1.79686517149042,1.96951283294273,1.96351809737108,1.95832932995751,1.95979737616237,1.79615733409187,1.79587371336709,1.79543803386742,1.77667625083667,1.72596546777562,1.72505450701666,1.82695971502748,1.71685465971166,1.82508097125726,1.91430257494631,1.71282107102883,1.73857634854048,1.71232329083692,1.71168202995286,1.70889830394246,1.70892778242383,1.75566403968801,1.75384830713582,1.70573471976349,1.70472677323734,1.74904041199779,1.73186439843317,1.70210625304,1.70271154833766
1.90230746456675,1.90136473378131,1.8580429869361,1.85912828918325,1.8588944522746,1.8590576216526,1.85730536722635,1.97637030798,1.85926292914644,1.85974637000458,1.90280571717286,1.98829686160447,1.86453500937258,1.90335477594797,1.99254610858432,1.79452680820707,1.79538885761713,1.90186036021117,1.87655106497521,1.87634099963957,1.80486283060648,1.90000456595543,1.90030781675,1.91498456896437,1.99200444412448,1.8760879414833,1.94950313106168,1.96894104638242,1.87413201311268,1.87371822822491,1.96207357006426,1.95940339537363,1.95215403226081,1.93328973306829,1.86965607227408,1.86922080071368,1.9485158628308,1.94716840519392,1.9464698938369,1.94633032537032,1.94586635219624,1.94289265916989,1.87049368657309,1.95648021698932,1.95639864967743,1.94755770954566,1.96517838591563,1.87107477843042,1.95956410812512,1.94715096485811,1.87089334967232,1.94240490055984,1.94253767786832,1.94119709363397,1.96139565897422,1.87305780249332,1.87310125699737,1.87330579881379,1.95842485432397,1.87276811446581,1.9440502093127,1.95421300807449,1.94858170850147,1.94570440717648,1.94830725705039,1.95602945700824,1.95547944967532,1.95770849842718,1.95346066610104,1.94919109706873,1.95175249931306,1.96590567330569,1.87466740353308,1.88249106563303,1.87349703490131,1.96524545550948,1.87326147240961,1.96052842375727,1.94554835978144,1.9610578429928,1.95923837031102,1.95612534089947,1.94880054889121,1.95879408243572,1.96291592760798,1.95320452708703,1.94458230910901,1.95814725933961,1.95461642597657,1.95684262725745,1.95163278791095,1.94257749867475,1.94422217277311,1.94618401408794,1.9445172082427,1.86825262457012,1.86882769015906,1.86838537122549,1.86920906476633,1.94389455829172,1.96108659719913,1.96547995305516,1.95113588342258,1.94715017046841,1.94587592822259,1.80375397455748,1.97623662363193,1.80103677004445,1.97817552580632,1.79759556755418,1.9885244035849,1.9756695613971,1.79752230555023,1.79761242398924,1.79694760769397,1.79411396948287,1.7962202999675,1.79609203558804,1.79688531262532,1.84478671121434,1.7929478835904,1.97277037946404,1.79737427609902,1.79724367714077,1.79643901386889,1.79764617374659,1.88357427265363,1.79896916385294,1.80027962956816,1.79924473176525,1.79911001210817,1.79799973856358,1.79929526838664,1.79918881191122,1.79896936741851,1.85075476520919,1.79858848277453,1.7987175401281,1.79802228839473,1.79804533548642,1.79654220958969,1.79787608757745,1.79668372935874,1.79794475642124,1.97878589032453,1.96518175818819,1.79494857911445,1.79562140677744,1.79532862859551,1.84652460862656,1.79584301839729,1.79533167648295,1.79553908648874,1.81499015212955,1.95848554073385,1.77751337236691,1.77391486216127,1.81282739002466,1.79674506934053,1.79495251470565,1.82383331251383,1.71681483695722,1.71336329044871,1.74792932912573,1.82710229253634,1.82543041290641,1.82095330555279,1.80537848022151,1.75529085307624,1.81196719880908,1.79034898277819,1.7556970815563,1.75448114902161,1.71850780909102,1.70298720702168,1.70350038070719
1.99348190453329,1.86035138585821,1.98048587612423,1.85984796369395,1.86035743068122,1.86098353883561,1.86251480306309,1.8603105581672,1.85996839278814,1.86000061884419,1.86257904823449,1.86518238500461,1.90456473351602,1.90421321028713,1.8698348566949,1.90584225286691,1.86791411761108,1.86860161561067,1.98913716322093,1.80395568681599,1.90009300911584,1.88254780408134,1.90162367795418,1.91019840815078,1.99375109630793,1.94998903010059,1.95036911730805,1.94904669160882,1.96469765774217,1.9628306555895,1.96894153073505,1.94607217471282,1.94172804226014,1.93352630357852,1.94876130618254,1.94809925036352,1.87025788644202,1.87119831090214,1.87058410649263,1.87043639026576,1.94566178980702,1.87032996563402,1.95596036714585,1.95993407359866,1.87127668718574,1.94767610648812,1.9425687975028,1.95871708229698,1.96216461230217,1.87171455352477,1.9722451786325,1.87031086787001,1.94533639021139,1.94223662554143,1.96016789961308,1.87390060958765,1.95627279221749,1.96149079854467,1.95738041291854,1.95586292923357,1.95425344814706,1.95857168862794,1.9531327794439,1.95195149018036,1.96382222959627,1.94992327950467,1.95208922868163,1.95263132916583,1.966842804115,1.95476380493279,1.87625982135923,1.96415578212262,1.96503582309472,1.89504481340377,1.87421297109205,1.95265164706363,1.98491653995528,1.96820568808218,1.9556120162776,1.87350974334174,1.96128375859346,1.94907251557658,1.95958958989678,1.95693567392094,1.95645641092376,1.87116518097539,1.87080457025496,1.87016514085871,1.96101800706224,1.86899994080614,1.95933617128932,1.95273621113835,1.94290023123708,1.94258445708599,1.94317717908875,1.86948767905826,1.86849455184959,1.86891845526723,1.86851738759434,1.86798895412619,1.95058435180932,1.94287671260856,1.94576272601614,1.94343090883638,1.80341689342018,1.80382056985589,1.80205018246922,1.801087079726,1.99217321830803,1.8002409121053,1.79941511234337,1.79834303520834,1.79745557409569,1.79793970977092,1.9001033874046,1.79718933230292,1.79678370255119,1.79674067625784,1.79562404239245,1.79458031920653,1.79399423455621,1.79675625994271,1.79683546902453,1.79766234377404,1.89551037516011,1.79888430093955,1.79881470096277,1.90965226940978,1.84683017292968,1.80018960221247,1.88978104403719,1.79900251957238,1.79884470679277,1.79911323490878,1.88251434675105,1.79711401901981,1.79783082827371,1.97637030798,1.79862168735023,1.79624173204163,1.79576684302235,1.79725417354701,1.79855916305827,1.79816624841328,1.79792498716135,1.79364181636995,1.79565698356223,1.79650488317198,1.79550598052564,1.79663849465887,1.79646950417581,1.96231435366837,1.79574967458027,1.82641475227009,1.96556035789439,1.8140313536108,1.78445666621806,1.81272057486438,1.72177005183751,1.72127987589458,1.76524452108658,1.81363826084767,1.76032018166251,1.75993073948018,1.75924158061661,1.75896034966354,1.75841075088763,1.70672897023921,1.755055557799,1.75428425487493,1.80437540400994,1.70319892272979,1.70286764918161,1.70246254506927,1.70197644679482,1.82533564130402
1.86052603996862,1.78572687106809,1.85966971409555,1.85954813641018,1.86050646189856,1.78773372872937,1.78751092148249,1.86096328889951,1.90435290690586,1.90496513642468,1.86495134708575,1.86507678911262,1.90481178351831,1.90462850897736,1.90395014918204,1.87054005390588,1.90318767199328,1.97635121021599,1.90331794603467,1.90620721424523,1.88214020162253,1.88269734333272,1.81599085618998,1.90418448048125,1.98484223998394,1.87591606160705,1.94948969032477,1.94856476220833,1.96568394048291,1.94689244740117,1.8741033664662,1.95314831382136,1.96048269732268,1.90636683481225,1.87227193996634,1.8724783007064,1.87159372100342,1.87081791338033,1.87094345843222,1.94416262473852,1.94469661921245,1.94485384230743,1.94525547767808,1.96403810783365,1.97061115999352,1.96935043062948,1.94263835772,1.87207059820324,1.87124338242758,1.95956398890301,1.94487918009378,1.94517693131516,1.96833968170772,1.92667606306278,1.87350163015939,1.96218748251357,1.96115842948564,1.95859547669045,1.87305139700549,1.96081043745094,1.97648447224709,1.96897909002663,1.95459988336332,1.95283958060226,1.95368994574058,1.95886700754604,1.94689751884037,1.95473466443254,1.96221515405577,1.95630592585642,1.96248168654863,1.94684550314774,1.94886935441157,1.905258800531,1.95294690207549,1.96280951653832,1.95703531195047,1.87354844081616,1.96249461445369,1.95982045320004,1.96105086031227,1.96281837411408,1.94909876974062,1.94956213950825,1.94592979228791,1.87181091875725,1.964563790586,1.96496288125789,1.94281554428426,1.87032588104983,1.87022219770285,1.94319595021214,1.94522173990498,1.94277735607477,1.94353345486991,1.8700585548732,1.86935963585249,1.94421686648372,1.94565978982641,1.94621883353185,1.94974317899119,1.95568305986508,1.94056775207222,1.94042432287432,1.94020044326899,1.80246671701027,1.80190791876656,1.80138143349882,1.97578832255835,1.98703597358705,1.79525477170749,1.79719056159896,1.97551090859953,1.79786647193593,1.79699507374645,1.79708102165476,1.97704191172123,1.97640531958755,1.79614238975703,1.79479126139602,1.89785654692041,1.79756599714891,1.96988661709848,1.79801245229461,1.79718672476176,1.79725933565523,1.89748699373518,1.79809937144898,1.79751284889244,1.7977727754455,1.98550381265815,1.98552291042216,1.80047520490583,1.79867066931018,1.79668528809742,1.89424037385342,1.79858594205604,1.79912330053232,1.8435167071184,1.79644115816208,1.84384455639182,1.79712663885995,1.8451065864867,1.827057824631,1.84419466362174,1.79484300541533,1.84409919449312,1.79658347564182,1.79499089762135,1.79604355717209,1.79584190570106,1.79532893553368,1.96062420155345,1.83682379177326,1.9657522742572,1.81445787034037,1.77358070125363,1.7221309000809,1.82584270948682,1.82729605665171,1.8239758242469,1.76351513933733,1.76086278343174,1.76031424068181,1.78603708217836,1.78464238151836,1.81320855689916,1.75775820143342,1.70491688548385,1.82319669173485,1.70378493093459,1.70257843186098,1.70243790362526,1.70241181110175,1.70271448090985,1.79246838752257
1.90460806834266,1.90324257755433,1.85808718046469,1.85830195431551,1.90501469475613,1.9046454713186,1.86146951283074,1.86118188455538,1.97999888314197,1.90539182526795,1.79183815555159,1.90625666726757,1.90594007191958,1.90533036483366,1.90511830055742,1.79495745796624,1.87166098021466,1.90412346288957,1.9896337050852,1.90658380891349,1.88226328160141,1.88352589788193,1.81575735236798,1.90413024465356,1.99159123569562,1.97625034618165,1.97603107147203,1.87535267756874,1.97168381811228,1.94758107858336,1.87426251449962,1.95915849517594,1.96127704412876,1.90286428579921,1.87272371503105,1.87317196977979,1.87246499387402,1.87211507162516,1.87155919731961,1.94666035726501,1.94628735426219,1.94577278740345,1.97576871579972,1.97040145185709,1.97108237064244,1.95979663914775,1.95987719807498,1.87283231639324,1.97314761272095,1.97194429745271,1.94599247465022,1.95637281098815,1.87343601342981,1.92704832254551,1.95791305217642,1.96321745198176,1.95884941907202,1.966567763337,1.96606175972451,1.96009406091106,1.873805758684,1.96292807326049,1.96262962106539,1.95287456416772,1.94779309800429,1.96278884721735,1.96605883747884,1.9711315331355,1.95675821761813,1.96214047547032,1.96044412225427,1.95350687762336,1.95312066428791,1.89986031961531,1.87417214275102,1.97311358899812,1.94669245118013,1.8733595515069,1.8739448418039,1.98240516860442,1.95262595081629,1.96184778174588,1.95264451512919,1.95266006770371,1.95769597220765,1.94388508908163,1.9562416011403,1.94897679203769,1.87135169600861,1.94564494906775,1.94481864390763,1.94365733093015,1.94710730413507,1.94463117451391,1.94815108974316,1.87015452275759,1.87016216933203,1.86961010749306,1.8683543607739,1.86796725294146,1.96072856512853,1.95300660081327,1.96188633896601,1.96136828815736,1.97383984868238,1.80342967843369,1.89724788634524,1.8023102014436,1.8470688929086,1.79684176972213,1.89637932342258,1.79642641834909,1.79693830565937,1.79761041805892,1.89429768126255,1.89399208093803,1.79566454432405,1.79688891239429,1.79615196830764,1.79597028799698,1.90107067386088,1.79769332459225,1.7969224538248,1.79790170243024,1.97318565607175,1.9780175879658,1.79751244241221,1.79734545462197,1.79819810409354,1.79874778316113,1.79953980880108,1.79891482273881,1.7978269738253,1.79827434667918,1.79782045453368,1.79893157390429,1.79875476733427,1.84483445643899,1.79863694805135,1.79765171941594,1.84507954563888,1.7972645150135,1.84386525091076,1.81597530639603,1.79734620979687,1.7968319775246,1.79528439464385,1.79560601695986,1.98235745145117,1.79501550362553,1.79630013459962,1.79544027202776,1.8433734774921,1.81752248170172,1.7945111792545,1.72676494886238,1.72518275315167,1.72153939942301,1.71873098550823,1.71866738496835,1.71497292615261,1.71264642060165,1.71108208104015,1.71101578177622,1.71059009548737,1.78486829981015,1.70700581539847,1.70558972513388,1.70427617708774,1.70386991046139,1.70295311410405,1.82631917615055,1.70169518636279,1.70190734069021,1.70118201754475,1.7021873960779
1.90619318721208,1.78837985274741,1.90664437157815,1.85839982567294,1.86093152820308,1.78787536951926,1.98238610364326,1.86375848682189,1.86337423194089,1.86572793791257,1.86502690270496,1.86389799708363,1.86481286057456,1.88620487320109,1.90490817476745,1.795746832212,1.87294944667646,1.87380039814637,1.88025937746899,1.90549593863318,1.8096259280266,1.81429421815878,1.82072047788119,1.90407637797606,1.99154170776512,1.87640305650892,1.96874184171501,1.96469947815549,1.96360412394,1.96247032354232,1.95589896329863,1.96203760916972,1.96177469378078,1.8960746198822,1.87379265422022,1.8738020143552,1.87368284850702,1.87147542806562,1.87251507350084,1.95229101534942,1.94724479066379,1.96997253220045,1.94713091471936,1.94932234500229,1.94810706528561,1.94737302935399,1.96915100659517,1.94779324715673,1.94711600444544,1.94590379716641,1.87277447940999,1.95495356706505,1.87389346530351,1.92784863997256,1.97391466049979,1.96936141028524,1.95864748446133,1.96832686681352,1.95905959338859,1.8760115504271,1.95215807603279,1.95716526177873,1.95784151608598,1.95370170692205,1.94891253035345,1.96554383298988,1.96330165755241,1.95468652397217,1.95317752372898,1.95235042887056,1.97759242442631,1.873987187442,1.95778074997568,1.89636040057316,1.87443398600667,1.87483846192435,1.87489609461195,1.96001307780968,1.87447524406955,1.96316360261148,1.9620713698203,1.96095236540052,1.96284726227991,1.95374553413403,1.95548553880818,1.87304184812349,1.9641187529889,1.94779450924824,1.94740464236958,1.94655979234788,1.87047974211972,1.87021742895168,1.87054112901891,1.87091890136206,1.86903457688993,1.86966297024857,1.869342951986,1.86857207312381,1.94812446539958,1.86805438470999,1.94368996020259,1.94349736164654,1.96208273749909,1.95960083373059,1.95056871459762,1.80389156370165,1.88582775051059,1.87523869669857,1.89721080883395,1.8476418277585,1.79748527882378,1.79655366551785,1.79678524747093,1.79705174847535,1.79687235318404,1.87983111493453,1.7956884206204,1.79709613203553,1.8423135560769,1.79670774579417,1.98014211637204,1.79766712785067,1.79712804803278,1.79737009055688,1.79603137048748,1.79534815975253,1.97801394058497,1.97347576991274,1.79889752613966,1.79872437162887,1.80032590071552,1.79988914838744,1.798061566435,1.79833979145886,1.79794647977596,1.79835418881477,1.89079354792365,1.88645771262548,1.7984147420064,1.88766119319204,1.79656650883025,1.79801656274909,1.79700441812951,1.79732344322102,1.79779679656934,1.97618606166538,1.97706605532182,1.7956707000797,1.9629923279172,1.84628588458416,1.79516736450297,1.88966645937293,1.79551921413308,1.79595213954451,1.79571934110004,1.72756990720679,1.82574624227044,1.82670113047095,1.71820037612982,1.82558391223615,1.71368184339276,1.71317407823644,1.71242568733033,1.7114657232722,1.71104108235448,1.71030873743046,1.70857477322098,1.81084998730215,1.70556099969883,1.70466911372508,1.70359485964658,1.70403192006888,1.83432113927089,1.70221843488854,1.70244503392358,1.702089818368
1.86341468982728,1.78894646259259,1.8596981791307,1.85808164534637,1.90990053842231,1.9808009892304,1.86432731317425,1.86473221259124,1.86663953348518,1.90688309116224,1.86681594809205,1.86799296894923,1.86832994600399,1.8697301388041,1.86859192452368,1.98401896246615,1.90879531765733,1.90616447124653,1.80534029232407,1.90588759909573,1.81042950355716,1.81389184951293,1.90378549673513,1.90394042392892,1.90645241284847,1.83513296422688,1.97796440738547,1.9534869746444,1.97002093185995,1.87625271581969,1.87639354952179,1.96300142145664,1.96287070772118,1.8881386846425,1.87425532277207,1.87422485239159,1.87363346557413,1.87382915368128,1.95149863083621,1.95146882297494,1.95010397253729,1.87414237796559,1.87361618950758,1.95334937545072,1.9492945819812,1.94790208961142,1.94764205643947,1.94932217745844,1.97065966596947,1.96239128323487,1.9564993503504,1.87445970373802,1.8746235581427,1.92879510539793,1.96532256648773,1.87424594304514,1.95970779856209,1.95858981432128,1.87647141512011,1.95389317142168,1.94712708689762,1.96969373146567,1.87700852743943,1.88954333930741,1.8762201250489,1.87633201032732,1.9799986555263,1.95433357456827,1.94942042747831,1.87504603254001,1.87569950388689,1.96018495298121,1.87374157378567,1.89119101851007,1.87485239227464,1.95669006216732,1.8752820918897,1.97618886768087,1.95026269728367,1.95878867835503,1.9592418091665,1.96262695611323,1.95522983188546,1.95348683422581,1.95802372466448,1.96034880190391,1.98018957420475,1.968855585736,1.9481067826826,1.95372633676991,1.94847770896855,1.9570525023645,1.87135818297123,1.87202281979606,1.87095046433019,1.87040925197205,1.87094800464875,1.94821641149396,1.94582919843398,1.95673376726069,1.94353846212199,1.94361306728278,1.86868002299085,1.95594857150265,1.95589271405436,1.80527070484442,1.80423917601448,1.89312118610861,1.89262768275079,1.79930835782499,1.7984831412244,1.7978654434913,1.79484355775332,1.79613260621608,1.79530440505845,1.84302332118069,1.84204302248157,1.79625090580875,1.86348342042744,1.79633481448111,1.8969904480317,1.99323335641217,1.98571893873245,1.90892204484615,1.99304265596105,1.89586368187469,1.84726941943071,1.7970197160643,1.79802408686765,1.88421404699893,1.84678433976997,1.89268390608657,1.79870564768226,1.7988086915221,1.79831180428083,1.79791707613581,1.79852909172762,1.79738523339907,1.84583708904954,1.88873066797662,1.79596014633551,1.96275360224061,1.79723427001363,1.79698314451843,1.84400131346186,1.79779667075413,1.97265037875985,1.7961655279927,1.79502344929019,1.96290638435269,1.79467095953676,1.79683849049463,1.79684898630417,1.79645646881449,1.796092732572,1.82712127666589,1.72209579553409,1.71788894316571,1.82983316472846,1.71556174610129,1.71473488247829,1.82701942653779,1.82699396285245,1.74340667749742,1.71088409034224,1.70939925651149,1.82750323751919,1.70726426719116,1.70684629350516,1.80739807519231,1.80600392425439,1.82618548465837,1.70239247294334,1.70217453853742,1.70182437175235,1.70230051299988
1.86418043225579,1.81844241103008,1.85707655820133,1.85888924959733,1.86135866742933,1.86301305026677,1.86415923638396,1.86451198897093,1.88293763039108,1.89527951249765,1.86799665976935,1.86837659111153,1.86940331129544,1.87108120696564,1.87194837313163,1.87949646540746,1.88702078655769,1.89161603184997,1.83405329902472,1.88674794734849,1.88978812227332,1.88919391812412,1.90161455671699,1.92503461842429,1.92671378516593,1.93581911905137,1.96132686613172,1.96167138585542,1.96829583950378,1.90610181127158,1.90328281673896,1.89793064071504,1.8912243111232,1.88310990662939,1.87515706461672,1.87517459571173,1.8751645880549,1.87494881505853,1.94918671461938,1.94934590851845,1.95178776120445,1.95986747054543,1.96481358577788,1.95863827986091,1.95440781876672,1.9511562028023,1.9515378213536,1.95487555442102,1.96263123072801,1.96594541040916,1.93326622463434,1.93255835451575,1.9314180080112,1.93026727210511,1.92998456983922,1.89273681281571,1.8976978566149,1.96140424577424,1.96153629727947,1.95570658540231,1.9510900523322,1.95185719492828,1.88855359388818,1.89735257410568,1.9054974498022,1.9101860569703,1.96395479741609,1.96300898785918,1.94884314636576,1.88964003232874,1.89768014477443,1.93734853375096,1.93752760780855,1.9377580020676,1.93790430240928,1.94791801811871,1.94786466005794,1.94783645723691,1.95540435674782,1.9562198777443,1.95666403326329,1.9596891700553,1.94935614830155,1.9494156583191,1.94947306755468,1.96114529787461,1.96522416681173,1.9618315029986,1.95435966452705,1.95666816273993,1.95575547142063,1.89348054588163,1.87265384623795,1.87324005098772,1.87260023887112,1.87179892128812,1.87154358289784,1.94475542644758,1.9435183375971,1.94114781472712,1.9423023037758,1.9445208096763,1.95021269368587,1.9541257320062,1.95253394372473,1.82647188705858,1.80272694805276,1.80170167894678,1.80090093597088,1.80004093976933,1.79908486361519,1.79772381061713,1.79659286683904,1.79664031923092,1.79624192988781,1.83421975990973,1.82673045920771,1.81899314140507,1.81138479471642,1.80571345228748,1.8156799039296,1.82689542601536,1.90534097202429,1.90402303400876,1.89898602028826,1.83056504907044,1.81908241035754,1.81065806704863,1.82025599375455,1.83159365200964,1.84680124281078,1.86316055600024,1.82402033879424,1.7992647903693,1.79872203493228,1.79821587567123,1.79777772007627,1.7968666448,1.79640395049542,1.79686102648521,1.79651452648913,1.79621502428854,1.79619622147149,1.79621681291007,1.84284967573052,1.84232138065523,1.85270851667116,1.79629399860747,1.79621232891311,1.79620709928532,1.79573188259723,1.79658565393206,1.79678864784363,1.79669848302897,1.79658924275646,1.77322150525453,1.76137459067804,1.75069005793543,1.74013896584187,1.71588781802392,1.71534909379744,1.77629675763397,1.78726863779003,1.76354378892276,1.74822850834489,1.73655212945387,1.75343111980035,1.72238440643141,1.73756214494898,1.7457702394325,1.75283418917259,1.76766546401372,1.75272926433653,1.75213893381167,1.75146008739564,1.75847389538753
1.86367150708855,1.79225140897631,2.00473048753539,1.86200560666934,1.86337701016407,1.86363092099448,1.86442677715714,1.86424837811209,1.90867281931895,1.90728687683015,1.79344237169887,1.86745502669216,1.86897430167366,1.87076434277609,1.87086852593452,1.79925054534222,1.80124654624362,1.99328137801118,1.80635247714624,1.88151958110299,1.90741985105372,1.88524256685684,1.90392604614631,1.93013156844034,1.99845184664886,1.95775155309761,1.96212123539408,1.95829662599745,1.97877992790373,1.96455253125178,1.96285390923204,1.87626384427789,1.87534409971109,1.87602468885118,1.87446861183869,1.87536149267628,1.87509447382081,1.87489304906307,1.95288636002726,1.95129051835144,1.95006388304885,1.96210390700042,1.96733653927839,1.96202624326383,1.96185649603967,1.96133241874147,1.87456121680442,1.96265811342055,1.87585071983903,1.98567089331685,1.87373074765293,1.95899959079915,1.95500294605951,1.95535217810476,1.95425557764483,1.87590169609351,1.87578921859601,1.95763766775947,1.96208709189716,1.96691247089444,1.94969671221599,1.95546721575508,1.87748544223058,1.90523462665631,1.97045838211969,1.96011630411059,1.96634054004208,1.978355941882,1.95179148667574,1.87495250576196,1.96554542062426,1.94701692139252,1.94595524841784,1.9560790687809,1.95689096607694,1.97226290378527,1.96281889070352,1.87442788723035,1.96759517621558,1.9569881552897,1.95090696307751,1.96499245526264,1.87301537028977,1.89542388894094,1.87400827273145,1.9545938156148,1.96417253357097,1.87324384602152,1.95048328603516,1.86993981911293,1.9570605656875,1.87066138434266,1.87140939593306,1.87326539611809,1.87292174064055,1.87146116423651,1.87097234642752,1.94701719041535,1.94647960442103,1.94317906453957,1.9444607814689,1.944317315377,1.94600068141212,1.95272602473792,1.95019644631742,1.89632202821094,1.8006629652224,1.80048684355542,1.80038593512483,1.80028181384478,1.80011068344577,1.79695404178591,1.796650723639,1.79672674603558,1.7961830704165,1.92108228116999,1.79527500748338,1.84210347070315,1.79422162565032,1.79611437116641,1.79526222336352,1.79516884750107,1.90241768621499,1.89901874109452,1.89183702865492,1.795614174453,1.79784761362749,1.79731940280946,1.89757293367323,1.79734970595921,1.84588292481181,1.89326638788889,1.84755588781047,1.79924706576655,1.79844840814569,1.84490129861303,1.79751565932972,1.79538053123256,1.79486171977446,1.79738040644124,1.8936578901315,1.79564018462712,1.79500678731707,1.79541827470454,1.96640127516659,1.84262198688086,1.96627713970052,1.79570108544716,1.88610472638493,1.79568515947365,1.79480119992558,1.98270121674943,1.79670546789434,1.7965846997597,1.96293503099871,1.72498220774531,1.82704807318381,1.82717539161054,1.7174219569134,1.71672478709033,1.71540246558793,1.76005953030924,1.82133107674368,1.81940535209004,1.81802204519733,1.71048169332911,1.82684141914045,1.70615605084498,1.75203301664416,1.705234571208,1.70433697620294,1.82680073499035,1.75319690671411,1.75236695242646,1.75120071605894,1.81757725048573
1.79213447542815,1.79317867663037,1.86586998353194,1.86486866301146,1.86526680291675,1.86457973335328,1.90832497190654,1.86303917736833,1.90950221748794,1.86567474101147,1.86618149528471,1.86706183210371,1.87052037361677,1.87099350364449,1.87042535015177,1.87193467952299,1.80119087964464,1.87743150825797,1.88332098082425,1.88430813454069,1.9063175360018,1.88947539085808,1.98339828513581,1.9725291671042,1.99666433814251,1.88034675730904,1.87943532428093,1.87885052269492,1.97367986535841,1.97017688471885,1.95632784635916,1.87683689851073,1.87587053915455,1.87688409338592,1.8761901545976,1.8764892818239,1.87505282578423,1.95473417006286,1.95426925808231,1.94949556043804,1.95179345901562,1.94710903236851,1.96735551360658,1.96282587754051,1.96259114774307,1.87512945081958,1.87520918642114,1.87601558706966,1.96374231161584,1.96527994141183,1.96297147220535,1.96065526955924,1.94838720310131,1.95399360095692,1.87630902200934,1.97622272327806,1.97065009303613,1.97253894011451,1.97434382673806,1.87909824689287,1.95596344502399,1.87645079899934,1.95600451906377,1.90985959150915,1.87750248457543,1.96602824964281,1.96973414965471,1.95905851016298,1.87650809229153,1.95864813739521,1.96802210245702,1.96687956609043,1.87578382334812,1.96181557229599,1.96825060662271,1.96295392116364,1.96324715229402,1.96582563278982,1.96459286355765,1.9670732254189,1.9518385873163,1.96326843491319,1.9605230410545,1.9496499320788,1.95635648505621,1.96472003009,1.96084828580573,1.95330242712604,1.95829193634793,1.95635629684193,1.95737887896672,1.95343897700618,1.94558472242976,1.87380270181111,1.87351707186974,1.86979734270814,1.87016839810557,1.94847487876091,1.94459580516418,1.94460946914869,1.94525207096509,1.95165951510758,1.95690193183228,1.95838066558985,1.97394488973225,1.85200566495198,1.80202870579108,1.80143860984239,1.79929794542034,1.80010477998367,1.79834138988482,1.79707357935865,1.796869234521,1.7969542581322,1.79689013679733,1.79669368892177,1.79496379531582,1.79427778634366,1.79434729256616,1.79438781379692,1.79529635901363,1.79529132742772,1.9028129661209,1.8208254834119,1.79580585582654,1.89059270092744,1.79741377533862,1.79751268665962,1.79636383616178,1.79708952207008,1.88829655913255,1.79842994667138,1.79838092856976,1.79892973880386,1.89373428118754,1.97395461380889,1.79737145538716,1.7962935203738,1.79516320104318,1.79472142266984,2.00193265935452,1.9829208448693,1.79495220519499,1.79522577221295,1.79501007505346,1.89946361231025,1.79555407777672,1.79417279742358,1.7966983778586,1.79680896698072,1.79419893336806,1.79572372257282,1.79689852024479,1.79605558413772,1.794388712558,1.72505204860787,1.72149076062446,1.71675493703163,1.71589694216015,1.76419414790522,1.82909576166293,1.82968946180238,1.82917887027014,1.8252923266141,1.83072878148238,1.82816788969136,1.82769140801474,1.75426076512222,1.75373142855564,1.78635711564392,1.8175917951539,1.82620017383165,1.75299222669844,1.752846068362,1.7005508435735,1.82420993287884
1.79188352243584,1.91014881127405,1.79228695645746,1.86618335241745,1.86633081983201,1.86587840855965,1.79333733002622,1.91031114016051,1.86689755960563,1.86728021500036,1.86700568569647,1.79697545407038,1.87055412194455,1.87148072546493,1.87130809389703,1.87168060543008,1.8735675869651,1.90965225069459,1.80773704409004,1.88615005890017,1.98914671210293,1.90842912909199,1.81908113196857,1.97075657421362,2.00213532213574,1.88102899976042,1.96837632807949,1.98151644732695,1.87997433645925,1.94983903635779,1.95035451719652,1.87820663553928,1.87870410079183,1.8780599389464,1.87717896056436,1.87727996262635,1.95216595831597,1.9528665136116,1.95230887323836,1.95550495829372,1.94995789676589,1.97177506616857,1.96366155947261,1.96380731235789,1.9746740448005,1.95658386598409,1.87540337508117,1.97291361269412,1.87713831850371,1.97234324942097,1.97043462112282,1.97332531026128,1.98345341946124,1.98025474580132,1.98198737553149,1.96069120629764,1.87691339063361,1.97209168040261,1.87731728985848,1.87740574086431,1.96654772200762,1.97996989992588,1.95657586414487,1.95211160326027,1.94846488754994,1.96483393581608,1.87823047729031,1.87774805273348,1.96946427157571,1.96903834149825,1.95301677407415,1.96075119710511,1.95963444298386,1.96701264546057,1.96698994465493,1.87447418042427,1.97246253664816,1.96680685417093,1.97285053894771,1.96807572641103,1.96211419928841,1.95660523453144,1.87445657941503,1.95047368016062,1.95385389651822,1.87589697163531,1.87462887033622,1.96866317093255,1.95793472935006,1.96864398197722,1.95739456593174,1.95831916856294,1.87079138114872,1.8727405736519,1.87189535294273,1.87066256293178,1.87076027135734,1.94742248179805,1.94688062305347,1.94691880784927,1.94389032473223,1.95041210239426,1.94418999785625,1.91393791895548,1.80677034018732,1.80595242909163,1.80207637611693,1.80041126991679,1.79946958675326,1.995133437446,1.98334175168959,1.79662209300382,1.98562317464302,1.82658322291025,1.99608044600199,1.99580190781502,2.00024334444796,1.90364602070892,1.79291806528475,1.79379937770549,1.79465787841981,1.79542648689188,1.7942968453928,1.79379404087295,1.79252187050705,1.84352925678535,1.84399961719921,1.84403343775522,1.79716076697735,1.79545302927095,1.88898684538097,1.79803870775865,1.79857401147423,1.79828022736684,1.79723268995672,1.98636781254361,1.79718025307009,1.79617743863925,1.88519758259451,1.79529278291288,1.79552157317806,1.79537201072176,1.79578072628759,1.79554797118236,1.79637514016935,1.79573495426538,1.79536361356952,1.79551527909679,1.79631390304558,1.7971203374831,1.79671080470164,1.84499678940801,1.79848763740248,1.79605599052034,1.72240531335817,1.7215137907853,1.72061611010725,1.71725057542002,1.80075681902267,1.71241258945117,1.8276622050996,1.70945040161069,1.83000510403644,1.75174438606162,1.70790935516344,1.70726600588287,1.70787387347299,1.70622436559225,1.7525495931983,1.80815718805242,1.70133297475765,1.70397022240795,1.81144201798647,1.76644091336368,1.82710218447497,1.70119061867621
1.8646174378532,1.86617352162115,1.86556495255792,1.86649072438503,1.91200129342326,1.91058805888649,1.86639692190694,1.86585877000359,1.86703417687246,1.86782298280253,1.86850046781633,1.86995445244602,1.79742425600752,1.87241584503064,1.87226372150881,1.8729428753175,1.91111323387556,1.88067573885177,1.8805322029746,1.88088363121868,1.90924650164975,1.90927930279231,2.00883650043924,1.98680454292746,1.98995188811779,1.88119362077591,1.97200679418634,1.97000448887546,1.95291827603565,1.97529579875807,1.97005600413204,1.87844242840738,1.87870923271194,1.87844044771306,1.87739163898956,1.95191544497428,1.95240861325551,1.95274741805316,1.95254097296989,1.87550545968083,1.95002208170993,1.95761220830298,1.96191264640153,1.96592526225195,1.97059327444816,1.95556605478073,1.87612703617762,1.87652584424027,1.9738758683611,1.96633082760554,1.97143542633963,1.97968245375496,1.97300274913684,1.97194466606662,1.95006055997646,1.87784536151732,1.87845818847077,1.87850232459927,1.98606240427772,1.96378262864107,1.9646954210864,1.95741761239162,1.95102569059606,1.95325460662661,1.95621181429764,1.96966638065605,1.96071998519757,1.87867334128481,1.95601251079547,1.96362275626435,1.97621679488867,1.97113469850719,1.96673386729232,1.96793110647749,1.8781329099162,1.96252236293058,1.9601518266205,1.96195734333182,1.95860177056577,1.9623690024004,1.97664645848311,1.87717651403173,1.96822511162958,1.95129918279368,1.96645719850403,1.8755226456919,1.94589028791055,1.95526114410798,1.95659041507033,1.87171545870506,1.87155930639933,1.87166057067391,1.94510726829503,1.87316298524017,1.8716011279603,1.87581441416711,1.87131667777603,1.87045313148826,1.94616143575046,1.94622057521392,1.94445891277371,1.94376850188867,1.94349870043656,1.91312301770833,1.80589467171546,1.9898246827253,1.80159813040389,1.80099812458076,1.79821772567826,1.79755280952672,1.99480855751644,1.98602452737236,1.79511750962033,1.79532829422807,1.79489407254146,1.99300275270144,1.79503619520048,1.79503369456966,1.79421081414553,1.98049542500624,1.79435304978792,1.84227697558555,1.84132839730854,1.79411076166651,1.79370869116347,1.79515625409148,1.79524091240822,1.89947749843377,1.8994492840171,1.89013517447881,1.88334194850255,1.84391776184689,1.91025384800135,1.79774873310469,1.79648380037187,1.84452969229689,1.84395994146047,1.79592655928205,1.79618361555704,1.98225278062344,1.98932777761318,1.79476853633371,1.79447051628366,1.79513294107804,1.99957409125259,1.79678622353691,1.79547518666114,1.88992427726747,1.96179916884226,1.9722266632924,1.79549519375335,1.79440905466832,1.7950415295605,1.79538087033381,1.72225797697852,1.7205818658152,1.83053978199684,1.71461310116724,1.71389504020601,1.71234290800808,1.82730548824652,1.82768376151857,1.70963184400236,1.73528395984138,1.70777423591202,1.70632938237258,1.80452862549512,1.7064141524678,1.79807358317922,1.75205623184629,1.75132550966757,1.75118058828187,1.70203093455341,1.71566599610337,1.70116264982996,1.82730271099708
1.86765406615023,1.79505612878716,1.86632225305983,1.86679422312992,1.86677528653312,1.79267388578448,1.79438594415791,1.79574709915642,1.86686983537168,1.86773238385782,1.79558290973934,1.87051892820404,1.87089947151454,1.87280844311701,1.8725797206127,1.87435612099888,1.8052543347655,1.91000642468339,1.91061921156445,1.8866774544611,1.98957641179317,1.90938453130135,1.99085596642063,1.9881823580242,1.99007425451214,1.97253166036758,1.95293737035259,1.9696177997721,1.96960640434635,1.97531515552016,1.96430549263321,1.96223669298868,1.95193860771726,1.95061017409934,1.95332800488904,1.87826508658032,1.95343747087796,1.95287963094201,1.95303865469374,1.95333342557371,1.95616476500771,1.95634501723452,1.97590680752812,1.96639356120516,1.95848110017391,1.96317431912362,1.87901724987802,1.94989262077249,1.8765144591335,1.96539873975643,1.87387260085794,1.97236922389544,1.95019121047735,1.96194813721437,1.96291419421686,1.96969530288529,1.87912873125881,1.96070844457992,1.96061787408568,1.9618844036879,1.96289906064795,1.96630676327016,1.87775049688814,1.89823063890577,1.87798217337197,1.87851779089041,1.87750829993678,1.87783173996964,1.87768195198317,1.96617388511513,1.96385545290935,1.9687649353278,1.9707646837331,1.96380146724265,1.95963573135735,1.96150426784627,1.97016164433493,1.95625449561833,1.96185275800458,1.87578406713865,1.95735493963606,1.95909340145732,1.87474066540662,1.9388320006625,1.9557098253755,1.96940843331323,1.95886098225015,1.96737140674274,1.96090439306012,1.87290641892612,1.95567854332934,1.9685644588826,1.87298761684773,1.87322624869038,1.87233386801654,1.87166325890871,1.87196980881369,1.94745763710152,1.94653091116484,1.94626590736827,1.9464684514889,1.8678186096498,1.95210652163334,1.91145015428306,1.87122475217088,1.80232917588506,1.80194243486638,1.91990545485828,1.79761757829713,1.84725032408332,1.79683515681881,1.79676781671714,1.7964618967186,1.79585894468127,1.79626282045863,1.90177660125368,1.9010595351194,1.9016079203812,1.79426211726041,1.79346235458807,1.91922024180662,1.7976723264907,1.88270532439116,1.79424414680695,1.79445007818603,1.79709837461614,1.98901302775486,1.79659583091718,1.79619265526149,1.89420144467396,1.79611621855369,1.79545234033736,1.88309682760853,1.79763856817831,1.79724372462149,1.88363156481892,1.84481932913434,1.84477795660912,1.79743573531337,1.89665623908112,1.79639427431675,1.79581700527241,1.7953244677564,1.79505725848806,1.795540069119,1.79485567665915,1.79535480606678,1.79492835802808,1.97899478233712,1.97244615308693,1.84544558296772,1.98129705458009,1.79579966829063,1.79486549078933,1.83187662547757,1.71986448268359,1.7188342919166,1.83059707528887,1.76393632617148,1.71357327883086,1.71191155849618,1.81065022706924,1.82841944012394,1.751432643657,1.7073064002613,1.70574915777089,1.82794643016074,1.82770084495924,1.7047502143085,1.70511419522258,1.70322049209,1.75119458143225,1.80337321269209,1.72687804228026,1.70173829310113,1.70217458328079
1.86956863346808,1.86788217387641,1.86609749071101,1.86708746861649,1.8674317146752,1.79331157254661,1.869224135911,1.91389197274273,1.86806896778693,1.86869468640149,1.79639138174579,1.87484012527015,1.87605792319563,1.87474885440118,1.91170527622981,1.87721887188366,1.87762361273638,1.80689674247358,1.91135747431136,1.91013979858231,1.90925382839926,1.90780189932197,1.90828399898775,1.93044008362098,1.9929591000694,1.99512762383941,1.88132863653766,1.99882926887517,1.96903755996173,1.9658392911188,1.97433496048622,1.95453546387273,1.95285815464966,1.95181204860438,1.9528634128456,1.95127550329625,1.87954268447692,1.87958953129697,1.95542774410449,1.95521217761093,1.9557560147737,1.87717741123357,1.8770716273175,1.89613491612436,1.87680924102915,1.87735387601133,1.95873304752331,1.95244162387912,1.87764759320519,1.95382320158239,1.95396219535213,1.96665884351245,1.95090367618742,1.96000276407284,1.97641914526336,1.97597860439538,1.98270935326008,1.88038947555396,1.96883587387088,1.96041499409261,1.95278453429757,1.96834116135895,1.96520084467261,1.96198142516301,1.95223078951421,1.95622188854576,1.97195726505285,1.96364336384785,1.96481299637265,1.87791337038627,1.96568431873462,1.96879708349182,1.95222835060176,1.96434580083875,1.9663709170194,1.95044008755416,1.95086257439739,1.96199215724375,1.96205317057136,1.87655478340614,1.87603615762358,1.96446937355378,1.87552218841902,1.93838968432427,1.96343016511127,1.87705237856584,1.95643663862563,1.96027820397899,1.94584540566134,1.96104748706425,1.96274859507559,1.96255669578993,1.87270257788904,1.87342258708318,1.87331774431191,1.87307079138751,1.87283108705908,1.87208914830935,1.94554786059169,1.87060662664654,1.87059855202916,1.94330253214824,1.95935386674025,1.9099352745028,1.93946387902996,1.80360144471823,1.80275569261473,1.92073100371803,1.79827363175338,1.79729736266892,1.89405915187283,1.79675066274442,1.79543743499189,1.79527973629039,1.84332573340788,1.79184215211404,1.9202037567268,1.9024069061179,1.90157246231258,1.79239984863845,1.9029680574589,1.7927598584919,1.79238839271676,1.79345184099162,1.87637441178251,1.96947601517226,1.79436694519508,1.79437475551848,1.79627160787349,1.79541973658615,1.79433025849007,1.79483838638506,1.79544073423747,1.79701717930175,1.79729648832828,1.84336392669059,1.795276162928,1.79661484687084,1.98793400408828,1.79384482674835,1.79471489270438,1.79497289034771,1.79424935882715,1.79511025530133,1.79433904801837,1.79478646604901,1.79513244896224,1.79517939339273,1.84372516442862,1.84370609544966,1.79583732551455,1.97350905190122,1.9732544365989,1.79398600334127,1.7226524876163,1.72021065896997,1.71896018197017,1.71543319130126,1.8238269179472,1.7122171227205,1.71073339243573,2.00303078653847,1.8041788863968,1.80581285283424,1.80199700933341,1.70428211405786,1.82786406396114,1.82763450001524,1.70304074842873,1.8016432675547,1.82209856332533,1.70296828441758,1.75114082081533,1.73749603475791,1.74891563848487,1.70138709138714
1.91515242352516,1.9970149908752,1.91553437880537,1.86785826671248,1.86848414741114,1.86811917740832,1.86854273568876,1.86940687125187,1.86931627270808,1.86929969466453,1.86928580562025,1.79862604971799,1.80056858109312,1.82028282768932,1.80254262034052,1.87690018633689,1.87740337036471,1.91305166249925,1.8825715904937,1.8867585273455,1.88925321761944,1.8960086237729,1.90893984720152,1.92474870486651,2.00149287222332,1.88357454585383,1.8826971338775,1.96208397342863,1.95608053324568,1.88235200801305,1.95843868031686,1.95719116179936,1.9611143292577,1.95490218633804,1.95425598534511,1.95523906412704,1.87959348941963,1.87936613636095,1.87939631620908,1.95357810364667,1.95348335525612,1.95151872313338,1.96963743386842,1.96927429375863,1.96952637792041,1.97334236729274,1.97271138080088,1.95284021488422,1.95297987571732,1.9722700035917,1.97283042061286,1.95486646976861,1.87936556046876,1.93751808564571,1.95327197913159,1.9619514337795,1.88089365652385,1.88105694236692,1.96752800019165,1.88063320931761,1.9518034181569,1.96763697350362,1.97886187378575,1.96786011089842,1.97515726343529,1.96165540236751,1.95250836289915,1.96539686784789,1.97445044294431,1.87849266922792,1.96998193404011,1.95939278324885,1.95269670056519,1.96549615229127,1.97151994345953,1.9629392358352,1.9626102778046,1.96266336381981,1.87807306790881,1.87753427424092,1.96755762708768,1.87738303631238,1.87666811822929,1.93779685161081,1.97296007194725,1.96512573458814,1.9560801167154,1.95763996511803,1.95315681129234,1.96274433393532,1.94535084439898,1.95284180860776,1.87262354100074,1.87297379998061,1.87241514594092,1.87019033681559,1.94702022669697,1.87242745156662,1.87215831035579,1.87141786085371,1.87108954637963,1.87009249588632,1.9436367432537,1.88452042440829,1.80533050292677,1.80467626981415,1.90979674898615,1.90857518172812,1.90941007398043,1.90223088851721,1.90265225203753,1.79529800434754,1.79457684251486,1.79438782684832,1.79284143125182,1.79143715168581,1.79080544079081,1.84059159671629,1.84103715367413,1.89583503714828,1.78818671979185,1.79267635169086,1.79332168405797,1.7932559918675,1.9986669474621,1.89180378155402,1.79424560058726,1.79358891125252,1.8441963016023,1.84374426363151,1.79449251025351,1.89480534841225,1.89362765296495,1.81805833203038,1.79646843285531,1.90124925324522,1.79539054525074,1.79532709029869,1.84417077845216,1.84350241424753,1.79506228751561,1.79468228249353,1.79470133103707,1.79510764227385,1.79650474158471,1.79477016455201,1.79622897442121,1.79512126613504,1.84419627139739,1.84333690076281,1.79625162372522,1.79651706611972,1.7959062225678,1.79439987716508,1.7687362410116,1.76753942960607,1.86099595628566,1.7121732000852,1.7131380056524,1.83057797752486,1.71088661114095,1.70943633602706,1.70843777300643,1.81069011186764,1.8271317364614,1.70624411030256,1.82746846033217,1.70389295228367,1.77438280500475,1.80373767084246,1.70191936988422,1.70274021750476,1.70159207314472,1.70167856732746,1.70154905217442,1.7010010327326
1.86986793897341,1.86976687925181,1.79564816670254,1.86813500973532,1.86841855942727,1.91653701213264,1.86864354080895,1.91587813900359,1.86930432455727,1.98938543415306,1.86869287755154,1.91530520755685,1.80099417134385,1.83516852155402,1.87383441706025,1.87744665610763,1.87893922485331,1.80791405291714,1.81159921427074,1.88703236663398,1.88751122242441,1.89631186837643,1.89543434951579,1.92145457023979,1.99372086544407,1.84056610042386,1.98280152349169,1.98316427310624,1.96649680878217,1.97582549759974,1.88083373582938,1.9544323630799,1.95565938840477,1.9563920274535,1.88024438350718,1.87957719484132,1.87906772426707,1.87863668349762,1.87868895851772,1.95298769668708,1.95346197989831,1.95995451230801,1.9678721996264,1.96791278643897,1.87976550872263,1.95194578026325,1.95314624946494,1.95296936068958,1.96892717511929,1.96721868437797,1.88001520921348,1.87999028878908,1.87984145114968,1.93791695861684,1.97483138637419,1.97473006998634,1.95309977977332,1.88125269448723,1.97307133694392,1.96678583449098,1.96374715590516,1.87980246827524,1.88072323965143,1.89481509597431,1.87957790673129,1.87860817052838,1.8801909205355,1.96558629337042,1.96964621303557,1.96290573450773,1.95895755232967,1.87896741606242,1.97134433866878,1.96710807661403,1.96791985416869,1.87708420913215,1.87709694097483,1.96053759959129,1.96592256442943,1.95907248986191,1.96706847149032,1.87725856843515,1.95859983856835,1.93725552832212,1.95918795919136,1.96645948662134,1.87357903929601,1.87215198782411,1.87582436644061,1.95607165666054,1.94745222481713,1.96637756569941,1.87391339874949,1.87251653420943,1.87193184499882,1.86997734518271,1.94688017642748,1.87148649883942,1.87168751967426,1.87175344745425,1.94605102762649,1.9459300543512,1.87276682044259,1.88111099154345,1.80445786243921,1.8035779388599,1.80179973681025,1.8010496126607,1.90495760791245,1.90353514968952,1.79714733394629,1.9951720566482,1.79493293164842,1.79457215653107,1.90019887622465,1.84118678351301,1.79081617630264,1.79044339215683,1.79136245327473,1.79047779697788,1.7896296665309,1.9030539919442,1.79248222452846,1.79256195866479,1.79193684086448,1.8924468056657,1.79102385432194,1.79261116958426,1.79310825349808,1.98626294973737,1.79595192379584,1.84208204951688,1.79448320635794,1.83151458103154,1.96655405727867,1.79424764906589,1.79476705227932,1.98653031843351,1.90149119125677,1.90046327688731,1.88601878666084,1.79373962606621,1.79398490611733,1.79524463919735,1.79568566296536,1.79600711033477,1.79521746312185,1.79539189274571,1.96666864386273,1.79697014390364,1.79572699127364,1.962488963773,1.96192693409188,1.81145881958901,1.8138450035414,1.88272823479324,1.86086224996053,1.76423234343324,1.71195087851966,1.71135031893643,1.71013924736614,1.70900240136159,1.70796236056234,1.81404943040958,1.83146335394,1.70558166832527,1.70505797152843,1.80238012896355,1.70226505864302,1.70193480826132,1.70156168303034,1.70285272930353,1.70169686481456,1.70166326724621,1.70109433543103,1.69922256493262
1.79697545969039,1.86982460387188,1.9163078401674,1.86885370819379,1.86913584247072,1.86799896382233,1.91625054546151,1.87083155663471,1.87058130698678,1.87024386774751,1.80002155443132,1.87514787433281,1.87504148982002,1.87940455028928,1.91576655930078,1.91463269132824,1.91401719184884,1.98923265204098,1.8857771665206,1.88620993767955,1.91365025588381,1.91245113438431,1.91209144963603,1.91153763909547,1.91179067524773,1.96276315112261,1.88408330107283,1.88398419799975,1.95887277101802,1.95600801790209,1.96922797291954,1.95700113053703,1.9579182110616,1.95953952577684,1.95945269512232,1.88041340561105,1.87986897692891,1.95610926473231,1.95668398961399,1.95511189139517,1.95365845495316,1.95414507223307,1.95703248142815,1.96186219101365,1.95653892177852,1.96291602989451,1.95299471429895,1.96633261312195,1.97195389972294,1.9698435068529,1.98503085974584,1.96182684557109,1.88054898673885,1.93866252178483,1.97147392704503,1.96577309109154,1.96644509476173,1.96165645520073,1.97237577587776,1.96676535112043,1.96275126943678,1.96355213031081,1.8813876592272,1.90429697286566,1.96049127948422,1.96131420553892,1.97984608990004,1.95458681063678,1.88007126580194,1.96346217288018,1.88032309464943,1.87988132922012,1.96860089686192,1.96519068831357,1.95527219035461,1.9497640565346,1.97662809118181,1.9592683649572,1.94867169017774,1.87822839871464,1.9561278254835,1.87758989496072,1.87765304998505,1.9367913176273,1.97246436999338,1.87665692237332,1.87340610691638,1.96733117123385,1.96261420250384,1.94964944334108,1.94822096397234,1.96522137119752,1.87367589837005,1.87135979497365,1.94841118146882,1.87398637113125,1.87350553132591,1.9456038101593,1.87199780409663,1.87335443748393,1.8734394957053,1.96339812940291,1.96364643710538,1.88375208807533,1.80470515901111,1.98505979060471,1.80283712431902,1.79878172502911,1.90588939588571,1.90589899551112,1.97841376872911,1.79571501157882,1.90592820542776,1.79367707028608,1.79163585837484,1.79154945548806,1.83899054065182,1.9001033874046,1.79099856487029,1.79010632197554,1.78970612598766,1.79040679795218,1.90640564952802,1.79207208527349,1.79096463765477,1.78974980433289,1.79134763490447,1.79112888165444,1.90101053119509,1.79384342549209,1.8417291883403,1.84170841973682,1.9594210424208,1.88690841594054,1.88416181546174,1.79397009885178,1.96944736852624,1.8964018463184,1.89538217538311,1.90019080201856,1.79419950488473,1.79437146955568,1.79357647549344,1.80986290726532,1.89266480832256,1.79582746948096,1.796015648761,1.84359455249066,1.84658858699675,1.8421621805768,1.98312136755766,1.79781684193561,1.96138129346039,1.81045686124384,1.71975364529291,1.88308727564909,1.88203307614745,1.71151296432634,1.75916186821251,1.71086373573041,1.70953493601306,1.70793905648287,1.83259279162795,1.81554653863897,1.83264447535329,1.83114872964197,1.70342838023635,1.7045695982382,1.70185882331521,1.76858134190036,1.82603748317159,1.82452875981477,1.70078344961047,1.7017156781818,1.82423751987342,1.70090215781306
1.87024048878542,1.87021277108483,1.87026257909311,1.86971276687413,1.86971976448835,1.88665987826618,1.89219643401331,1.87153684347458,1.87146732516849,1.87267715409021,1.87461701409328,1.87736076685227,1.87838841503374,1.88129806061902,1.89612355970771,1.90024491697532,1.90225994941283,1.90248557274289,1.88521633825845,1.88634135039484,1.90421260416152,1.9122134452408,1.91205120535574,1.91153022725164,1.91153722032002,1.95498544200655,1.95469217265195,1.95442049655259,1.9576622688559,1.95808211139149,1.96055772673246,1.95937124383413,1.96032493921093,1.96235733302432,1.96216158856903,1.9023633937914,1.89412165459013,1.90155635826531,1.95205654365332,1.95058182879633,1.94910712435918,1.95919782525771,1.96205334986538,1.96551157177722,1.96228259922726,1.96049434056745,1.96210715955601,1.96390253009588,1.97124684955359,1.96851659244371,1.9670943812605,1.96203751314891,1.93955004951561,1.93959853327377,1.94047030562517,1.94099077535622,1.96648668761098,1.96672532859065,1.97034911389201,1.9699160584058,1.96899247531961,1.96816293622447,1.96705455196886,1.96701492455361,1.965437741399,1.96536586476901,1.96693141316196,1.95919139247897,1.96216443525129,1.96664578510902,1.90099538908961,1.88980212955348,1.89928798170985,1.90828265214588,1.91586849373239,1.94657194009726,1.95477850551366,1.95770552696546,1.96090106415685,1.96544224756387,1.96341607508317,1.90054634327849,1.89732059325995,1.93638880951769,1.93669128724515,1.89762527064689,1.88815595205658,1.89679701212244,1.9594869958284,1.94974638723055,1.94944761455612,1.90574261770964,1.89885972981462,1.86953519932188,1.8702604606678,1.87276790641296,1.89375342926711,1.89965578303002,1.87251196374057,1.87328025979002,1.87472450312968,1.87624287995538,1.880491652942,1.88375291603674,1.88967956688869,1.89445776578732,1.83116092585802,1.81722402774996,1.92163102976699,1.9278108310868,1.94047919606084,1.8301462655609,1.8190662317574,1.79375079053311,1.79301203208506,1.79246217217589,1.79124394337466,1.79047010974752,1.79021790272853,1.79026954484447,1.79021282249259,1.79092258942481,1.79148950199011,1.79191584901863,1.79145893133486,1.79086763286068,1.7910630715371,1.79057584656522,1.89291279160118,1.89297151597822,1.89313293281504,1.8932519054994,1.89221880015074,1.88953906679799,1.88806821815264,1.89046304836623,1.9173088593475,1.89442430437115,1.89541003292137,1.89773401523727,1.79505874363858,1.79497082699877,1.81220731748401,1.82286365967792,1.82919809783986,1.79598183468391,1.79599773967316,1.80971320316686,1.82006336949213,1.82905834463541,1.83744989157771,1.80179619148584,1.80702574690646,1.81067397473069,1.81136512465062,1.81180308529941,1.81240030075871,1.75509129790626,1.73546304443631,1.70962791435191,1.70879697456028,1.70760032316331,1.70653082270746,1.70552920103148,1.70461520457896,1.70375849171856,1.70328192011287,1.73308248680248,1.74675186829264,1.77662997055064,1.78099621590753,1.78301584829504,1.70123160221336,1.70167570595063,1.72366270744302,1.73410464538054
1.87017913773148,1.87031515147524,1.87081219315683,1.87053852538804,1.87080229821303,1.99357739335334,1.91800910195718,1.79781570697678,1.87052868366138,1.87347546670521,1.87449564694119,1.91747069644432,1.87737950367608,1.8806274291471,1.80402417416284,1.80395407751343,1.88298035692036,2.00256289132022,1.81337089569454,1.88867721484241,1.8899829118405,1.98730059395546,1.90009500632932,1.90801491898641,1.90037863734391,1.96268909950572,1.97706120867847,1.96131931419464,1.97919618323857,1.95885929549874,1.96139932577811,1.8830820982969,1.95862146466606,1.96201017370534,1.95984284095319,1.95307294558253,1.88267645790408,1.88229233144322,1.9583229209902,1.88057209318049,1.88136630570442,1.97917472874319,1.97499800550144,1.96947778873418,1.88159967598711,1.95631788552838,1.96274566892095,1.88097840528724,1.97520729774008,1.96274387955041,1.9685588066051,1.96724231414913,1.96942625913272,1.93968055818635,1.88199568180195,1.88195706022275,1.9653757785234,1.96624483313773,1.8820574188837,1.97257448747035,1.98473298310791,1.985453283175,1.95937316925143,1.96295364873647,1.96691142663894,1.96712037813354,1.88160848461482,1.95465218355724,1.95472446013889,1.97230238043757,1.97933935097247,1.87975705791243,1.88062276476814,1.88098722592203,1.87967735789603,1.94954974962594,1.95319827054111,1.95902499784418,1.97674228448441,1.96614188061308,1.96291114012013,1.95801780442672,1.87693115967277,1.93580509125102,1.97057231166513,1.94640174645386,1.87492827179634,1.87411582403227,1.96575557557642,1.94893611998385,1.97046871479155,1.87337746120665,1.95580201614083,1.87065988548053,1.87136490005624,1.87514890753891,1.94713799624166,1.94624676725451,1.87156966064223,1.87170014180048,1.94992945370765,1.87275242595073,1.87052548751374,1.88303409038903,1.91158459141611,1.91071849956353,1.90320694290272,1.79880147302761,1.98599338644959,1.99014718156351,1.98592341646161,1.97628449354831,1.79246581266402,1.79342106268772,1.79360873434623,1.79386052611564,1.79085864515818,1.78757156533067,1.78906511532276,1.89704774516294,1.7897187219962,1.79118430578732,1.79081398798748,1.79165269292661,1.79145619360127,1.7907630362832,1.98696001812375,1.78929715919514,1.90267518368394,1.90180913893744,1.9743554938769,1.89403026776183,1.89307543709705,1.8606889468078,1.84343406248493,1.9002943631251,1.97332421462034,1.85956026806647,1.89531318671726,1.98623430309135,1.79560067458942,1.79498503425075,1.98380888706204,1.82921024665388,1.97922542369955,1.79549190975953,1.79580492455495,1.7958664234,1.79513013704253,1.79659187440563,1.98375159377,1.7976710595963,1.7972464624928,1.81098566856129,1.81175391736204,1.81175240398939,1.8130248374849,1.81190348464082,1.71288780322283,1.70707975723953,1.82765601963127,1.70690387441143,1.70611996038718,1.70515044962122,1.70448159512516,1.70357696565466,1.70298360607248,1.82871453099636,1.82067846507536,1.79437816266954,1.70187505154798,1.82606135633641,1.70025860905069,1.70073520740387,1.69934237363974,1.82360695523252
1.87532384964801,1.9200032565436,1.87070197058765,1.87101681963513,1.87064197138734,1.79746244705246,1.91923778231092,1.79865586552428,1.80003105006858,1.87334632859312,1.91899086619094,1.91751532516843,1.91654350764455,1.89951181156694,1.87957088749955,1.87990948831194,2.01234094649352,1.88373805616969,1.88695379473933,1.88792220823548,1.89022407270484,1.9889684653457,1.89687468564911,1.91535402792467,1.99658528590884,1.96094693207143,1.97719063328654,1.96004494717888,1.9692002368096,1.97236249283797,1.97045440923978,1.88350429131205,1.97637030248995,1.92326377783488,1.8833747861907,1.9591853838366,1.88315396833078,1.88314238272975,1.88193726118643,1.88155934787971,1.96635201496208,1.955801519535,1.96315062630945,1.96575362899179,1.97544932540141,1.9757935668648,1.96357684470922,1.9758541808108,1.88217520681398,1.88264479040558,1.96097797341789,1.96683487120948,1.96902247321844,1.97515756490914,1.97535543798575,1.96268731095235,1.88185726247495,1.96698175079661,1.96371701370281,1.96470730821586,1.96650346908073,1.96708398573752,1.9585402433052,1.95952518227024,1.95789130761704,1.9548201666598,1.96571616046,1.96582680308014,1.95437886776848,1.96054570369354,1.9657987344649,1.96271877129508,1.88054996079788,1.88122811085683,1.88068241296775,1.97249043446964,1.97318918440567,1.95511765636258,1.88010802080732,1.97510914895972,1.95302497988086,1.87708102521168,1.96937662536346,1.96532642501683,1.96489653232244,1.94964738532537,1.87773321850421,1.97566316949572,1.96565505843066,1.9664140943899,1.95831434948506,1.97775443656643,1.87329094290051,1.8725896685758,1.87302306747848,1.87894475051397,1.87481495369174,1.87454403030879,1.87271967027979,1.87282142450988,1.87190082965398,1.87098095463762,1.87037386327032,1.88796950643856,1.91106987057775,1.91023775928055,1.80122162143739,1.79795644183958,1.79763107414924,1.7970046642935,1.79642501571803,1.79524495686073,1.79189705359857,1.79294726829236,1.90936580294963,1.79424712608811,1.79035889742448,1.78883896460127,1.78854770239152,1.79000819362349,1.89805992665549,1.79021519878795,1.83754623322564,1.83773239363617,1.83779172513002,1.83845196089571,1.79106469610739,1.9003039120071,1.7903944820007,1.90134938072829,1.79415756993567,1.79358082540739,1.84171555590132,1.8462153501024,1.79144844561147,1.79160830007643,1.88989402849787,1.88923835273808,1.79464621388726,1.84665228439153,1.84293429914869,1.79562476082367,1.79483040702013,1.79470919965188,1.79464848950209,1.79591778553157,1.79508326613707,1.79634260212451,1.79465559660835,1.90068586920692,1.84415088877935,1.84367535430024,1.86228954447666,1.81965325318789,1.88935134626676,1.81270011661777,1.71214627408008,1.76005701589224,1.78085692331841,1.70754421456714,1.70807568870257,1.70577384474393,1.70452371486926,1.70451468381077,1.70440727819494,1.70344974350923,1.75063746744403,1.70385476148242,1.82762222083265,1.82608338300718,1.69917514783329,1.70039354078355,1.70038655905801,1.70090164083975,1.82368368471712,1.69901285920521
1.79883393735708,1.92053799393589,1.87143222190832,1.87207294872885,1.87177674253075,1.91961311944372,1.79860993512693,1.79884570906947,1.87480357865176,1.91737731303236,1.99305379536358,1.91915381948802,1.91969719649131,1.9184853929054,1.91860301183754,1.88002344652476,1.9166038492353,1.8860641272766,1.88733811978386,1.88848965285408,1.98814407949239,1.91659377446848,1.91460529662585,1.91513262610175,1.91600260183527,1.97811760140476,1.97909726880538,1.97282932868137,1.88679223821107,1.97311372632188,1.97739427309197,1.97747386139876,1.88493113931179,1.91663850553191,1.95981189663057,1.96032468650839,1.88324463832612,1.88288301821605,1.88179145112307,1.88181063286198,1.97085186062169,1.96980867413889,1.95711236825966,1.95965460368107,1.9554866735376,1.98221256297285,1.88296671286779,1.88292276166565,1.88306101003457,1.88260492662242,1.88201295678551,1.97029925713465,1.96973224818102,1.97545464498418,1.97585290374735,1.97094566258361,1.88398307256035,1.9731913118637,1.96439130572189,1.88343103270493,1.88366020587305,1.96803621231809,1.96170344264128,1.9630868318342,1.96338487928721,1.95585416061829,1.96310846235933,1.96070183550305,1.96069228110855,1.9612992446073,1.96219593856685,1.88085906631414,1.88074949208624,1.90110017175461,1.96306016103464,1.97433108130734,1.88045442167821,1.88043124551503,1.96937043234414,1.95355088614468,1.96106139140477,1.96735311398554,1.96155063405097,1.96326836861062,1.9651649075501,1.95251893093318,1.96053697476885,1.87737704055394,1.97181615966665,1.87571553508494,1.96182695856979,1.96565433561183,1.87404245104026,1.87351512802551,1.87284754038999,1.87328214256591,1.95032231390727,1.94322218586527,1.94710735470727,1.87251940827928,1.96186443371035,1.95355150026104,1.95544314726003,1.89841416347837,1.80173080506372,1.90400199024114,1.90340755995465,1.99552898463328,1.98998762123884,1.79466430021274,1.79087776117863,1.79430195180379,1.90284391654009,1.7924335876301,1.79136936013781,1.79047275753189,1.79032227297146,1.78952856331641,1.78805029353982,1.88674450147935,1.78819769337245,1.9026270224825,1.90057536720858,1.83787875421436,1.83805294617309,1.83779927968271,1.83759106749579,1.99437949944177,1.79038555099738,1.90014436638713,1.9002872846553,1.79256476369264,1.79254875534846,1.84920289994549,1.89624563907451,1.79222236844188,1.79206393927895,1.79204282136085,1.79140719798341,1.84280614175503,1.84183079398357,1.84091004645469,1.79440750196151,1.79436590407981,1.79369644888651,1.84371723724439,1.88378434805774,1.7969602588125,1.79667003280874,1.79641797295083,1.79544961142551,1.96688826814885,1.794387034263,1.79402856374104,1.76555626524888,1.76288932045925,1.71287431066374,1.7602381990011,1.70928159574683,1.81096544112671,1.82200153620851,1.82173685738187,1.70484224059344,1.70433206518109,1.79158034341569,1.70297796915121,1.75124481648314,1.74904793175512,1.70279946690495,1.82099185124116,1.69974628209239,1.70016138439658,1.70160980689582,1.70108063944094,1.70064399648961,1.69831136791195
1.80042397239235,1.8005298188012,1.87270482786018,1.87357605742992,1.92102635398049,1.92061164990746,1.87379378339787,1.87263611022198,1.87365770721353,1.87434367416052,1.99447339582169,1.87627116793669,1.91910903430934,1.91836660906256,1.91872755299987,1.80820493930829,1.88402625883309,1.98912973375697,1.88803360848663,1.91766375267074,1.81795434783559,2.000328452931,1.82753190409036,1.93361770112667,1.99538252756092,2.00580911734083,1.88922083816074,1.97883269987714,1.99346263985834,1.96589769610935,1.97254921478655,1.9820156860144,1.95692878229787,1.90673104709041,1.88468925530536,1.88480576874717,1.88568911385142,1.883605957346,1.88190008128852,1.8815174228204,1.88396206377303,1.95618206755422,1.9665629092862,1.92354912430388,1.88312337587354,1.96556341287576,1.88241383291954,1.96998827392442,1.96946603002061,1.97303301179353,1.88327322005656,1.99241242021071,1.88393841737535,1.97216198594075,1.97044130046502,1.88427133336179,1.95766495057883,1.95599952943674,1.96484352767059,1.95798474977466,1.9850978412733,1.96627915872999,1.96615373781778,1.96894383569685,1.88352608735522,1.88300312402755,1.9627547005439,1.96286695041708,1.97228822337853,1.96190754161869,1.88150215758039,1.96386990268179,1.95985436671382,1.96825212410634,1.96854455421995,1.97557607026149,1.88104935916245,1.88032597116349,1.88100656463744,1.87987349935585,1.87883371267107,1.87876980274451,1.95167171375821,1.96285453619719,1.97789977950187,1.97526011880072,1.96775696221269,1.95225359005158,1.97199001300111,1.94737919163978,1.87750878204655,1.87432354068057,1.87388977104873,1.89515834827658,1.95024216314724,1.87411448859493,1.95124542022953,1.87458024570879,1.87361950998624,1.87382127186605,1.87444501878953,1.95475998479742,1.95644415901321,1.9088319543098,1.90952864605455,1.90963478002113,1.79853192183704,1.99581714991501,1.79479868301479,1.79433691466848,1.79197062188431,1.79290384198045,1.79225818488504,1.79212941892273,1.79118868221579,1.79004197546436,1.97494752456123,1.78828938347947,1.90943264512366,1.78745821874805,1.78795914638498,1.78905327320011,1.90255063142646,1.81237412504398,1.78676773829503,1.7873030308058,1.78832083094364,1.78923887678001,1.79022937709331,1.79089704949755,1.79151571392796,1.79168262448967,1.98685498042169,1.8499704968481,1.79088685241582,1.7923525134721,1.97087970082702,1.89406849205772,1.85396307773456,1.84136351289128,1.7915017601031,1.84132109036013,1.89362924348548,1.83161237078938,1.89227330416035,1.79578374351442,1.79647465885785,1.88795720949401,1.79613026174386,1.79649213420982,1.79584534914685,1.79509065256266,1.79436594970656,1.79402521418265,1.71349195655914,1.71326687691342,1.71211285613504,1.75876603369806,1.70929098285707,1.82378825010175,1.70701636093,1.70600008482093,1.70440566103772,1.70427952826888,1.70390284266639,1.81813419183197,1.81755489299032,1.70048481790689,1.70220690033903,1.79793989691154,1.70058155417499,1.79216037804508,1.82384601401688,1.73861869990954,1.82230864570837,1.69870517758798
1.92304660115382,1.92279672257693,1.873743938394,1.87461494566467,1.80098599009622,1.87418233798077,1.80037803998596,1.80111648685831,1.8745846581756,1.87527796401887,1.87562053776884,1.87687542062409,1.9915466634871,1.90328560868892,1.88081396827583,2.0025342446742,1.88430634726821,1.9945301602162,1.91959264959529,1.81791615230757,1.89244518376543,1.91788634932043,1.91679052311344,1.94060386247546,2.01227111819444,1.96198014738182,1.888469659443,1.97243418318175,1.88782761763779,1.88793128144504,1.9687543823346,1.96647339071789,1.88471131364012,1.89728900122139,1.96307348917653,1.88600166128886,1.88723774844653,1.88172308587229,1.88280207694521,1.95410231527267,1.88381226542657,1.95601592929458,1.96634609458706,1.92530990476883,1.88390383251057,1.96840326365913,1.96965853075085,1.9773134430092,1.96777848092582,1.88408094495295,1.88443503256537,1.884182228772,1.98220467488516,1.96813405064052,1.95998136272197,1.96598935757215,1.95540955129793,1.95646548977779,1.96590482362863,1.96573748001736,1.9662690067966,1.96489413148014,1.97554789105542,1.97408995930653,1.9706006945317,1.96936262613896,1.95738296961158,1.88361246047805,1.9709132084687,1.96296304884175,1.96335953503191,1.88220077582941,1.88146547573517,1.971577060109,1.97003305940618,1.96934702133054,1.88282792001967,1.9642527751191,1.88179260745412,1.96229559534947,1.96238826989525,1.88038000423448,1.88025503557079,1.89509986813366,1.87995608981912,1.96359321835814,1.95258055313799,1.95254662536084,1.87784766204798,1.94855790776564,1.95354627306047,1.947047950004,1.95408000527839,1.95031688894482,1.9500608681931,1.95144150272709,1.87405647084848,1.87362393047675,1.8735776004654,1.87311369394282,1.96932274235368,1.95890951511475,1.95765480133918,1.90825155690677,1.90771862199147,1.98590017692896,1.89752518734359,1.7966755550115,1.90668256710617,1.79428116716185,1.79224776187696,1.90690167166399,1.90001796527524,1.83045488788484,1.98324587280919,1.7898175137548,1.78911270806028,1.78863823009293,1.78782113180287,1.78830566920188,1.90210033707415,1.90165722172679,1.7870141935207,1.78660380249891,1.7861478026832,1.78757453140958,1.90288211206811,1.78821033540135,1.78842145712024,1.97313323698024,1.87678523952404,1.89339984642165,1.79091192082363,1.84829387288893,1.9966043837537,1.79149743111573,1.79336616127166,1.79373641660097,1.84070944179946,1.79380876999555,1.79332642481049,1.95567469675429,1.95478346776714,1.81822442159622,1.7945076339598,1.79337129097803,1.79393182634445,1.79268553585621,1.79688221536425,1.97875752118737,1.79490128828808,1.98166993198041,1.96224751508719,1.80693029376495,2.00281116225235,1.71297762488316,1.71149571833887,1.82997639795853,1.70852746478283,1.70685322039493,1.70622218417,1.70562138988568,1.70511801272551,1.70432299556458,1.70466297402803,1.70337653018838,1.70193591422002,1.82687778478805,1.82548364801529,1.7021872925374,1.82486550396546,1.79268527954874,1.7014052523992,1.70054900110255,1.70061762013195,1.69955981151048
1.92355299403174,1.87372813050519,1.87406326038907,1.87576974459608,1.87672260714108,1.87566296076617,1.87476080165402,1.8747464364872,1.87366765077237,1.87382237326526,1.87699083005922,1.87729861516832,1.9908718758254,1.89608447432409,1.88058877669541,1.81007115639964,1.92084354889131,1.81384832857336,1.88758798612898,1.89134739480805,1.91775585683654,1.91894996494522,1.82730273040492,1.94517543880023,2.00768159995306,1.98154160864648,1.98091226751598,1.97128317556415,1.8889625607016,1.96050974745142,1.96346141226994,1.88680471181057,1.88711107642217,1.89090727729733,1.9637419102581,1.88645023876783,1.8848762736167,1.88329428589714,1.88309679498862,1.88339465178379,1.95743237613819,1.95673928041488,1.96971396762605,1.92747663597366,1.88405008723405,1.88399847764368,1.95446562201415,1.96481812779506,1.97533224163353,1.88449888636067,1.97538662432977,1.9827200067253,1.88534878986803,1.9055316610501,1.97081353844742,1.97121416220594,1.97075042076764,1.96891434222221,1.96792995056626,1.96629158275641,1.88566547013434,1.97525195788149,1.88529429487839,1.97287067990753,1.96580990272568,1.95647540355258,1.97042677629759,1.96720359794337,1.97044553014099,1.97321903860355,1.97184029171434,1.88188252291271,1.96919764306003,1.96683686712339,1.96223649558317,1.96882819791982,1.88337201189428,1.98601696822185,1.98201110010978,1.97592174786459,1.95364652610545,1.97048765623021,1.88102611828836,1.90211189740923,1.97185730098994,1.95999059973507,1.96540579776634,1.87754209782382,1.87732384743135,1.94996038051664,1.96031562284768,1.87492297787851,1.94746398765546,1.94869706203278,1.94910813601747,1.87462627966981,1.87335043689413,1.87433386656452,1.87254983377835,1.87378555864905,1.87367813029286,1.95051235400168,1.96533922475357,1.88023175419274,1.80319614790829,1.99909642214052,1.79733071435694,1.79692743502883,1.79624012599206,1.98675949160164,1.79176234199972,1.79306621548683,1.79201051110952,1.81733882451767,1.99225927593156,1.78853276550942,1.90735091160863,1.89374390416257,1.78839120571414,1.90677729722831,1.90510126607974,1.90279450795771,1.78667294955456,1.78649392250628,1.78614387673109,1.78654771688124,1.78703338791143,1.78808775034223,1.7887613838794,1.78850284434577,1.79024116041634,1.84079560261921,1.83889901130111,1.84435001164181,1.97295953334648,1.97036335297281,1.79284962350099,1.79186321272655,1.89089131759007,1.88706655830784,1.95916322260666,1.79405970396913,1.79439654155309,1.79502573735803,1.79564709230162,1.79454007381288,1.79390330088381,1.79258456928523,1.8899815705595,1.96237165233472,1.79447654458943,1.79461140254775,1.79415319732075,1.79364764621867,1.71347145355053,1.71207088947738,1.71155598413944,1.71091737568831,1.81000969032054,1.82765601307682,1.70639415648184,1.70631292062007,1.70434375287608,1.70372048589848,1.70297799158251,1.82153148270833,1.82074702391805,1.7016282789047,1.70003918715159,1.70143797539049,1.82607284054293,1.79346665317901,1.69896814984637,1.69983661566023,1.70000850918791,1.69945776682275
1.87578884202653,1.87503364500056,1.92560845124044,1.87555685135065,1.87624458957205,1.80210048324726,1.80322560460386,1.9227099582906,1.87729062875223,1.80276207656556,1.92319613279796,1.92355406968915,1.87878033203372,1.88101922976968,1.88121072832302,1.81039578990931,1.88479652665077,1.88456735352066,1.92023241575354,1.89163084047923,1.82263011801726,1.9185936694027,1.91944974270806,1.94813211576499,2.00849491239119,1.89141495967487,1.98283262871806,1.89011783188749,1.98315992490424,1.99211604303612,1.96283375967293,1.88719011733406,1.88666907838072,1.88904496640117,1.88792394727392,1.88705007384736,1.88688988032546,1.88585922291509,1.96284070155716,1.96894011648185,1.8839702078447,1.88478466265772,1.97573850656595,1.92848486179744,1.885272867441,1.98564188100976,1.97257436764644,1.97265217352433,1.97213252528943,1.88702932917992,1.96837864826972,1.88669138200828,1.88616626375937,1.89711974140858,1.88699416174902,1.97039325525079,1.97604878347152,1.97019881990309,1.97770145103853,1.97508000098704,1.97971993343051,1.88509253721403,1.97308549257021,1.973026804633,1.96594786124819,1.96562733545519,1.96522351378536,1.88500182410485,1.88433340170607,1.96538954069657,1.87933727759857,1.97950234126048,1.99471369687181,1.97462248533455,1.97720593182535,1.88418597819066,1.88323343073663,1.95855333399467,1.96305616734719,1.96253829085884,1.95418854345382,1.88045178055951,1.96333070809843,1.96669176105836,1.97023505185443,1.96294115253379,1.95373054789424,1.97623660196677,1.95212412177562,1.95153064451697,1.95186677732936,1.95910224815154,1.87522244235089,1.87669987315837,1.87689634892266,1.87532336631139,1.87509775164229,1.87293182336702,1.87426863816933,1.87364448476237,1.87440973914799,1.87226659511535,1.95213585583494,1.87586789465206,1.80321361910424,1.98641586831426,1.79732149235988,1.86689714927177,1.86622872753141,1.79257307169233,1.79239893708451,1.79217025011437,1.79122202553347,1.80614415506632,1.78894707589316,1.78848990581557,1.98612926538929,1.90927030959602,1.99609829820271,1.78720313842478,1.78649691193372,1.78706146472773,1.78718288636331,1.78661287570812,1.78575538844478,1.78694741967566,1.7871324220331,1.87664019187773,1.78836334521766,1.88975239931098,1.79055205083826,1.78904257820695,1.79012552232307,1.81699655064857,1.79078779824515,1.97186576709362,1.79113070274262,1.79077508385558,1.85151867365967,1.79005723137421,1.79131869040451,1.97004894809257,1.7943167278202,1.79455517875593,1.79414142607162,1.79368202181362,1.79410733218411,1.84211161792829,1.79263077544572,1.79438770582948,1.7942745745589,1.96304096988654,1.96945601430286,1.79321423339463,1.71366217819556,1.7115409006117,1.71017037328821,1.70973553207928,1.7087127798601,1.70791864197328,1.70606359729177,1.70304465565558,1.70206972016583,1.70281558866918,1.702649453665,1.82905901014592,1.70119065990636,1.70153488726444,1.82566030329219,1.74799762185656,1.81357269358867,1.81203365821175,1.70055248003788,1.69966615172447,1.69909933262198,1.69787087114142
1.87676909459097,1.80135321905768,1.80224917895784,1.87494162433052,1.87627763314605,1.80046788748076,1.92447459168516,1.923453124367,1.87721567341261,1.8778655857387,1.87863930361759,1.92253153061047,1.88010674531404,1.88189740001208,1.88311577428873,1.81087453834784,1.81174904960305,1.81517945086141,1.88912329873725,1.89637736771298,1.82223543089438,1.8972864761449,1.99952668167854,1.98092608634695,1.99926925767824,1.89266249089936,1.89027255063592,1.88979595910221,1.96368773315384,1.89035397119889,1.96923308559493,1.97741077023287,1.96177345981842,1.9617705918375,1.96150299539369,1.8867186774741,1.88625524669751,1.88604652473899,1.88544465810135,1.88645014053598,1.88628378677422,1.95704362531829,1.88600058934062,1.9280885507122,1.95914695377754,1.95857482557225,1.96309134732079,1.96166836140511,1.88599968095016,1.97281812270813,1.97903256426891,1.97780388279176,1.88521474293925,1.90927397979795,1.97588571665194,1.97094454224191,1.88693547144103,1.97158775103677,1.97313830209823,1.97355149866919,1.96686758779773,1.96678497928019,1.88626808936116,1.97534945088229,1.97367548865353,1.96561112214431,1.96419561732463,1.96275877392868,1.96890509299314,1.97539327750993,1.88447653408392,1.965931015791,1.96361989480342,1.96720256789063,1.96352884223575,1.97894124619584,1.88291788666037,1.97248894336899,1.9632195791643,1.88228198390334,1.8815053415009,1.97218913385891,1.88013794538864,1.96259423046432,1.95521429545761,1.95285775326791,1.8791499506017,1.87848789479171,1.96374374609151,1.96919840428328,1.87772078573179,1.87766289405808,1.95022546904981,1.87746162915733,1.87639364787307,1.87688102060413,1.87505063772705,1.87485846537364,1.87335179436117,1.87429524323426,1.87517018625335,1.96971395453843,1.96096784348691,1.87309260047182,1.80221070347953,1.84687088143923,1.84594158686097,1.79645608553003,1.79384749349791,1.79278756379711,1.90770588800126,1.84087166848724,1.98952866738314,1.81725990768337,1.78933606804276,1.78800425464024,1.78728533202469,1.88822457627055,1.78713840408265,1.78698063523915,1.78677226046318,1.78651849496631,1.78658648065584,1.78670308904362,1.83406331946937,1.78553485668849,1.78719202730803,1.87663382595639,1.78860275056311,1.7882726442074,1.98319013699921,1.78775740011589,1.83843537311558,1.83782897813311,1.83874021669895,1.88741292130011,1.79018447370312,1.78946281783468,1.88698322179283,1.79034346767951,1.7906539132988,1.79242796110425,1.89613105249044,1.82937844766572,1.99883882733819,1.79315631463168,1.79435640256187,1.8414566776279,1.8426834325726,1.79312664488029,1.79262556237128,1.79281541967986,1.79287424913058,1.7929520845229,2.00560898467987,1.70971917984456,1.71073778460972,1.70869286623887,1.70877203891891,1.70702780782835,1.70750459377638,1.70046533494712,1.70201641638708,1.70289901959681,1.70322436740101,1.70282279880801,1.70228546848384,1.70158482888313,1.6958636815464,1.74741838055077,1.81420158071253,1.81296974399922,1.69888429568105,1.69899062357692,1.79521846745967,1.69723953721101
1.87842007610814,1.87838199465043,1.80288867661267,1.87497802421536,1.87680315356549,1.87694386712272,1.87589904559754,1.87892733428979,1.87626416149876,1.87805738284132,1.87868362499421,1.88061685766555,1.88137547194884,1.88258316774731,1.88362037817702,1.99904890274231,1.92132744940485,1.92196144018042,1.92105238142271,2.00880786015161,1.89579972581767,2.00357567463095,2.00848225767005,1.97962328684529,2.01234051343577,1.8933545645724,1.89306503728375,1.9750761356564,1.96292744371479,1.96299723493347,1.89096604511592,1.96115720189453,1.96233169245014,1.96217499150872,1.96200813839526,1.88772850914457,1.88709472389024,1.88677474711486,1.88646999075003,1.96162501339939,1.95975469421186,1.96138208059141,1.96919217375652,1.92700499082367,1.88659413986724,1.98659714528774,1.96243913948297,1.96876766590825,1.95939005438057,1.95883956092948,1.96490528309917,1.97314157726135,1.96690761749384,1.95548615646668,1.97967829398929,1.98550920726256,1.98384270099181,1.88737283396357,1.88674840110201,1.97502177998935,1.88734703626079,1.96968128979175,1.96924215911868,1.9733285740912,1.9698112345607,1.88652589959536,1.96500545520712,1.95919553695007,1.9667614468221,1.96748342264963,1.88434618646197,1.88423905832698,1.98253189891607,1.9727203512173,1.95936386894257,1.97631284413062,1.97652053419849,1.96485753096885,1.88376658589077,1.97333422886948,1.96677059907026,1.97251277518653,1.97099333583056,1.97432762140049,1.97107335318215,1.96942930847181,1.96793176124389,1.9696572949789,1.95983443797553,1.98012554195064,1.87649118621156,1.96163357197652,1.87795794157366,1.8776756255422,1.87690887661892,1.87658892578737,1.87658559826136,1.87570277863112,1.94695020256718,1.87378238174981,1.95965731418149,1.95991325626304,1.95062338023045,1.87320457238894,1.84757484563476,1.84680415336339,1.84633957357209,1.84549477303446,1.79364994047689,1.79192678875822,1.90782684050666,1.7909501248533,1.83629141891625,1.83521145334403,1.85724800496534,1.78776280995289,1.78679263003173,1.78639698489479,1.90631016070797,1.78719187737712,1.90767565083471,1.78730605434799,1.78620754260308,1.78644524544684,1.78548371881415,1.78608995348515,1.78609226241773,1.78713101614138,1.78733665872015,1.89980737014283,1.98544936557981,1.88891209577492,1.83697516898748,1.83669204200198,1.83694843358254,1.78874921270401,1.78999096481424,1.96059555490744,1.79131600457643,1.79140430033596,1.79105034524677,1.79293052774746,1.79408135532908,1.82182072002756,1.89282713739704,1.79301089779633,1.79035742320535,1.79424120564405,1.84118819064813,1.88797630725802,1.79381907591084,1.79353212640246,1.71467160200281,1.76048736370725,1.83074985356174,2.00518883387164,1.71006933272841,1.8288719096468,1.82999231180207,1.70702676991277,1.75434903490839,1.82397015021747,1.82370278152133,1.7032264269618,1.702864181219,1.8243807531035,1.70201148772461,1.70117422786757,1.70125406499256,1.6999650709976,1.82487685467271,1.69832462832673,1.69840193202911,1.69808048836905,1.69639739957948,1.82504671715656
1.87889574441521,1.87813907462083,1.87731256352757,1.87595137357093,1.87669438579013,1.87770454725204,1.87773675388394,1.8781166652654,1.87800214550693,1.87923045355158,1.8796960529814,1.88065181880698,1.88225524847826,1.88258079019264,1.88360036293102,1.90470108036393,1.92203303165148,1.92190111168385,1.92148643590041,1.92222657908409,1.92390835998269,1.9286382598678,1.93454137099428,1.93686787407172,1.93704377322833,1.93738796751863,1.93885946611179,1.97258326967354,1.96556006915024,1.9657123109566,1.96917870310114,1.96833777170711,1.96406525372645,1.96265872097844,1.96289766765966,1.9171312892358,1.90500206291081,1.89473414452938,1.90670313729056,1.95912339034412,1.95920414035454,1.96102081941181,1.96703011011079,1.97302431618403,1.97396660999554,1.96786805028073,1.96370468714593,1.96420686938842,1.96062767817845,1.9593665669059,1.9602097906449,1.95684757621715,1.95646106903334,1.95601037000028,1.97920669889565,1.98230216751433,1.98384468854474,1.93948330438584,1.93960708550775,1.9396850797239,1.93966759011156,1.9732785436317,1.97206544851483,1.96323098922143,1.965289723892,1.96721150882036,1.96248758539178,1.95956775077896,1.96053159764241,1.9634662869739,1.97066296483079,1.97251145641369,1.9804501590436,1.976721704893,1.96961071603052,1.97085946908108,1.97120645106822,1.97146546152005,1.97693464022292,1.97521061967987,1.97313991637031,1.97282285037436,1.97372214010213,1.97164267735196,1.96843713788112,1.9655447375572,1.96413154248881,1.9647042643206,1.96463744271511,1.96382287293034,1.96787680962835,1.96540135784963,1.90555536687062,1.90140018197442,1.8770723638367,1.8769613363851,1.87661858816636,1.87649827821811,1.88342800811225,1.89339825162166,1.90311645006022,1.96099560642362,1.95853266390498,1.87155366878662,1.84764317570835,1.84721659358551,1.84732681632293,1.84853968484182,1.85407523733236,1.85830182071691,1.86088967754563,1.81769256679479,1.83576486363052,1.83520207280412,1.85169586232832,1.81243864328602,1.78636466576793,1.78679410121287,1.82620102729397,1.81373156045291,1.83042149651713,1.81699747482582,1.80732697351149,1.78668433916673,1.78610150249313,1.7859388302573,1.7988398838981,1.80816989584187,1.81861844487362,1.82782227441771,1.83533002650621,1.83573031059892,1.83585748918966,1.83567734077047,1.83567565875242,1.81180234012349,1.82287908874549,1.83456358652982,1.82993844047247,1.82608506868103,1.82222142953766,1.81783011040538,1.81161458742226,1.80599138400615,1.80292197553961,1.79303853313319,1.79327168780118,1.79395058589296,1.81914252507585,1.83235932920519,1.81324901822086,1.79341440843154,1.71460760828992,1.714056795984,1.7131260986243,1.71092459528963,1.70912070972586,1.72459738909032,1.73251108386154,1.7414479996286,1.74815953678037,1.75902669794886,1.74004058104149,1.70335474874785,1.70278345456553,1.70219171024126,1.70152214506151,1.70091296741073,1.70032277711167,1.73041273491534,1.74861496132061,1.69773955329716,1.69816913676445,1.69808589687418,1.69745785541004,1.82403588848662
1.87849547592896,1.87773056398665,1.87856208672432,1.87652395247686,1.87629790169212,1.9266110839,1.8774607157602,1.87700563047906,1.87729149486741,1.88087089714107,1.87970648200991,1.80650525061887,1.88279369453594,1.88159755330918,1.8837854844342,1.88457789658371,1.9232701185654,1.92245315245486,1.92128655597818,1.89456631538464,1.92162854477993,1.92037720949233,1.83114843503447,1.92636532324856,1.9211270503614,2.00010881772512,1.97933364498181,1.97977585333445,1.96518298375006,1.96456432559537,1.97338215788254,1.97972450716717,1.963055771765,1.96230633764982,1.96368112998355,1.96341401003651,1.96338395096862,1.88874085292814,1.96166594669056,1.9606006589586,1.96159796692217,1.96227620866496,1.96869613595348,1.9682915523587,1.96974431311062,1.96635909633432,1.96035779369653,1.8874045504366,1.96131812086572,1.9610347986385,1.96059199005515,1.88761802449914,1.88787615506171,1.95629645088386,1.97132509851141,1.9772314554729,1.98079631139801,1.98096714904278,1.98999618342817,1.88778624055409,1.97184261795916,1.97272542496344,1.96891108749179,1.96296220487418,1.8869851787223,1.97130837137805,1.97279775544925,1.96052103930543,1.95780443375881,1.96232119072784,1.97376398913419,1.9828481351933,1.98104276650116,1.98169959568266,1.96046725685106,1.95993675397493,1.96932982753371,1.99036886276551,1.9739053375458,1.96900887292315,1.8848358850925,1.96536494034294,1.88194339816902,1.96471700138899,1.95649292621201,1.95473602334997,1.96316669308452,1.96569220034253,1.96876953787475,1.96126178419361,1.96343172053448,1.9614228840576,1.94953149805556,1.90570877883036,1.87675893496214,1.87595054702507,1.87645512467247,1.87587677152459,1.87491412034493,1.95156233294136,1.8751125686069,1.96069234473422,1.96493850082148,1.86912807245613,1.84809320706472,1.84747380773492,1.79789474510623,1.79746488882669,1.90611918114826,1.98549934153693,1.99344340472568,1.79141802148701,1.83648116124508,1.83565701579001,1.85807395257131,1.8572528062546,1.78506653116649,1.78769077731688,1.9960792004387,1.78464785692026,1.99266070068084,1.90908089728233,1.90851438781909,1.78629236633589,1.78552563620242,1.78512728661924,1.90473459517711,1.83459006684029,1.83398536184903,1.78793266887137,1.83526796152467,1.83649516440187,1.88651532831122,1.8570326877383,1.8838893857598,1.78929818115392,1.97186323567355,1.83928377923332,1.83828124334694,1.8382606592392,1.88671612376806,1.89348567016034,1.89291314849543,1.80258266675947,1.7903930418782,1.79255556239886,1.88954252813577,1.79382840863448,1.79276414197416,1.88074815530516,1.88947512808816,1.79314586802871,1.71525461912981,1.71466776438174,1.71483474078683,1.71181926814072,1.71018389029753,1.70829303377617,1.70847918322777,1.75458956314592,1.70508355480232,1.80396524337641,1.70347186393953,1.70329137803962,1.70224275773646,1.70209668489889,1.7008824800073,1.70102426756165,1.69801649327847,1.82517850136077,1.80047990676103,1.6964545678758,1.69804903954636,1.6979982915708,1.69735327749718,1.82282352100409
