1.29977975765433,1.33651999646609,1.34031289143265,1.40610998362512,1.35496833351483,1.4005107278438,1.39578990515744,1.45247750628367,1.41173147574591,1.455789200014,1.47869073951322,1.56874999712621,1.53985651642345,1.57788946063076,1.55958997896052,1.55607936394639,1.67612000021374,1.73684000563186,1.58034261345394,1.57942553849531,1.52919479319655,1.58697975158583,1.58885980404007,1.56925059904954,1.6440002397632,1.67948253882214,1.66673520914337,1.65781726597094,1.54712861036991,1.57223161013109,1.53013712331533,1.53003797371075,1.5135300010275,1.43752980697937,1.42385019495559,1.45818001486249,1.37670405225159,1.37780609854725,1.42230805193757,1.42972358788297,1.43976633763706,1.44007307338043,1.34522006268548,1.27474023922385,1.26179015604058,1.33336568393556,1.33270488524402,1.34358981993293,1.37424648358489,1.3681212481507,1.36474680442418,1.34381772324049,1.32266112264064,1.34217441816345,1.30601017002943,1.37818930511762,1.35621007718789,1.38164967382515,1.39589646006658,1.43762476688167,1.5077500033827,1.45147657557962,1.49162776432778,1.45889051473456,1.42591080808072,1.4794500013148,1.49357033118629,1.5467799966263,1.6061900029228,1.47980802656898,1.4495111937922,1.41283966436425,1.42453349156136,1.42760929798289,1.52000020740871,1.5925600029228,1.51619543129793,1.7628300029228,1.56033024775144,1.55816569159442,1.55635763534227,1.52039362728378,1.55880977921394,1.64053202984953,1.62678739902877,0.00438953959033968,1.94433000558837,1.70006999820652,1.67868669729032,1.67475178107909,1.67557729202381,1.71092113231925,1.69965841306935,1.69020815910464,1.6840357887437,1.69002638760386,1.73654895197484,1.83172085413115,1.80812645138258,1.63332271116343,1.84122997773211,1.84749548256483,1.84491423649852,1.84237236578491,1.90036906157017,1.8994508356058,1.8475000005031,1.5753392247472,1.54095840250868,1.51202558517519,1.49226046510053,1.44807582681342,1.44136105181992,1.46961421117611,1.48769860322145,1.48758075140181,1.4540000090897,1.53708845142487,1.60021689696911,1.61977900661363,1.6235504354929,1.5767500095277,1.52464167150606,1.52764506702046,1.49307356800545,1.49232684548118,1.52893969319495,1.62483979926778,1.60697004431276,1.60372782660747,1.59579565479059,1.47791544363658,1.49678128896267,1.42751193550303,1.47232779497222,1.56937051343653,1.67783359518937,1.6972894165148,1.57767716431842,1.57602656670956,1.55721867990543,1.37206333388003,1.3414399833339,1.24264075442018,1.32758998267162,1.31041738184824,1.40902535203543,1.4786500058456,1.39665000295902,1.3043186797048,1.27513460835225,1.25180165651357,1.18482833074199,1.24819136524672,1.25169784113463,1.27395956171154,1.34777000503364,1.17906999598057,1.16100999671853,1.23035539274693,1.27671197766949,1.15865943588645,1.17531440709443,1.14152901110326,1.15589944919114,1.25920958415416,1.29290412402114,1.29386822446778,1.15750984636538,1.14874035444505,1.10320417037067,1.10239917280787,1.08333084660698
1.25898008611175,1.31915017639574,1.34275383977644,1.34323137941373,1.36934185202214,1.37895982085813,1.42643982908277,1.44750126394223,1.43738176970883,1.43556556540744,1.43713598971655,1.50059000056331,1.52635000056643,1.62283000458224,1.56795565368273,1.5725758304988,1.60957333674981,1.60750667009205,1.58602733821719,1.58294297916875,1.55789367062884,1.60585731314121,1.59563253235001,1.64297942553214,1.67250976205852,1.61468999688398,1.66856047393703,1.66868612338458,1.65066945002443,1.62545174477698,1.61674894308024,1.6229535732968,1.53942999979492,1.48960113578919,1.46728893167885,1.46407633827441,1.45526922448741,1.41054999847937,1.36982000059433,1.43035132820167,1.5043800058456,1.41593066989322,1.35856979976554,1.32666999921174,1.29482833052021,1.35481952268935,1.43803977211066,1.42001085002097,1.38224672904237,1.38077707985242,1.38005583136991,1.36728750720386,1.36696288862487,1.33757886022929,1.33540213378365,1.35897003261686,1.33179074588579,1.3654287706514,1.4056544574008,1.4431104681837,1.45177635710218,1.45326204227034,1.51871993322569,1.45534194643785,1.45734605494026,1.41893955392555,1.50384989279103,1.50912977973694,1.92709001334375,1.48757600316034,1.45182246223993,1.45234867510122,1.42197934263829,1.45778115031675,1.50362924127402,1.50677931307991,1.51424600617723,1.9072900058456,1.57431221782442,1.56508582330199,1.56090869964843,1.51740703753157,1.56678221281713,1.62485237761403,1.62658906290375,1.72544025960796,1.8483600029228,1.76194000241864,1.73705437051527,1.72711370196913,1.71969154935217,1.72339541135761,1.72814696910341,1.72562864367228,1.71021153195382,1.7065864842585,1.75127110828445,1.74780845747649,1.8802400058456,1.63346650788515,1.84475954282051,1.8514906723557,1.85153028024393,1.84936243455228,1.91206472408048,1.9937600058456,1.58972953746225,1.53049100138664,1.51329951659128,1.51343011743559,1.51398717953041,1.45168003418184,1.43924805233278,1.47394026157685,1.46615642302424,1.52420954186373,1.49036625357226,1.48502381597657,1.55482079924271,1.55322879548249,1.54372112953687,1.54337058021896,1.54169014917507,1.54358173904276,1.47472106152205,1.51721116034456,1.50155394458141,1.56640999928497,1.69233000547131,1.60893603273874,1.55647107643101,1.52633727123294,1.46143953631728,1.4301585455954,1.49528963366861,1.58569948948627,1.67528699687249,1.63832814557599,1.63712010446015,1.52822648300923,1.48843200701581,1.37463666689177,1.2650495022023,1.25321050754003,1.25897036149334,1.35533996573484,1.41136734659305,1.41201724225225,1.31270165538633,1.32066190499764,1.32886666704985,1.2533729154793,1.22381986242645,1.23274248504948,1.23094844546871,1.25365186053603,1.29181500042719,1.34088000363484,1.1336199955804,1.21159278227059,1.1811308910939,1.21192956407286,1.19938016782594,1.11990996671118,1.13658021363512,1.2650606960086,1.33203036722379,1.29531596485564,1.25127000292951,1.18472110818963,1.17168014619158,1.1311643836363,1.1308009968333
1.30478556682657,1.29469819498284,1.30278988250148,1.30226658568226,1.30185111062087,1.33690000625907,1.390489999797,1.41970000110616,1.45858925411955,1.43267557949211,1.43166755307224,1.43834665590833,1.44752968864417,1.51426999776971,1.54037999836039,1.59580970644066,1.64863188596635,1.63405143945398,1.6050573069283,1.60806009900621,1.61512931956727,1.61741283396003,1.64954942244369,1.64946210181767,1.63473869462846,1.67822000136237,1.70250995394175,1.68451939901851,1.64749978869005,1.62172211708581,1.5819594538638,1.58245297658863,1.5355500001047,1.4783285824965,1.4660490727006,1.46332758143686,1.49026992983017,1.44385022539853,1.43369376757836,1.43194420878579,1.43272644720957,1.43098571774813,1.46081997398535,1.37201790914453,1.29118166418475,1.34128046297298,1.45151944765846,1.42523993784389,1.38661828548065,1.38712020711286,1.38693759602439,1.37658104439059,1.38026831251818,1.36839057292946,1.33557491931656,1.3893600216004,1.35001972177884,1.37950152536807,1.32359999502624,1.44662550733837,1.45331517446217,1.4841799543564,1.47891707257877,1.45080251636112,1.44398830526259,1.43031052517074,1.52952141200988,1.56882,1.95104999542466,1.50448144986325,1.47432969701141,1.47806165776687,1.46428995895238,1.44056634115396,1.47977131946046,1.62381999856624,1.70620480025008,1.76773023384755,1.58187161048471,1.56480050106372,1.53644049285603,1.55693027429721,1.56410822388464,1.62408858264717,1.68908134337946,1.73904960872993,1.73912865226122,1.69224862002074,1.68936767215535,1.73047456511235,1.73272016270402,1.73371802330097,1.75469828415266,1.73806578247993,1.71008202873471,1.7839700055241,1.70773125560925,1.75975290701552,1.770829583106,1.63266553123994,1.83943594005811,1.8515532883834,1.86511334170758,1.86588597962798,1.91275097563406,1.91274423976253,1.57415046083512,1.51594888575516,1.57222611845305,1.56562566248187,1.55977867424554,1.44609400237477,1.42436845519664,1.42393208357102,1.46836175498106,1.50708045982406,1.45435998089097,1.50260992756937,1.55427078761639,1.55430480850227,1.57949930991566,1.62024000358064,1.56219960634495,1.46661285508812,1.46586652986707,1.48497205112253,1.50877299742222,1.54198278165005,1.65033000329709,1.61089322870397,1.60959537174657,1.53324226179349,1.47421913561672,1.45303284665979,1.45004608830933,1.51439,1.71423000469669,1.65180175422731,1.50216,1.43753131179554,1.40465131816256,1.3167199970772,1.25527010032367,1.24351900068601,1.2785295336707,1.33177003519844,1.36266988226178,1.39608169006375,1.33368071367684,1.32719298552317,1.30854033780711,1.24481513634511,1.19531200011194,1.19607999790957,1.19836800027995,1.25489857812738,1.29099500013978,1.3722900047715,1.31283000256752,1.23541799206882,1.2291881766538,1.22803969964869,1.14669999871895,1.12403005598948,1.15395814202148,1.28809972312328,1.34691963954489,1.30603169211433,1.17903014178023,1.19298210232279,1.20904005263889,1.12243447279362,1.17398165378009
1.32643478404699,1.32607268741375,1.32316221135839,1.33073122293707,1.29102346065097,1.3722383303765,1.37123166449501,1.38179000081642,1.40689055130214,1.43189539239055,1.46649934903211,1.43823325624406,1.48873999938409,1.60300997061939,1.59109949787793,1.5568505388137,1.65120764403935,1.62418716184029,1.62575103934652,1.62356161162116,1.62535998401259,1.7714800029228,1.64537036076456,1.5976772692935,1.59834188875384,1.70615000060468,1.74746348025607,1.6685113195044,1.63015586732322,1.62384748708994,1.62320821800644,1.57049316179266,1.56982539490335,1.54293990042328,1.46688934219693,1.58560000583452,1.49901624378256,1.47251000029004,1.44518937407077,1.43879308022078,1.37309500863499,1.38170051099278,1.38039516143106,1.37405147404476,1.32940105299081,1.32827892035549,1.36782999728593,1.5355900058456,1.44534000140542,1.40173324520019,1.40231355794326,1.40267262071646,1.40277001867822,1.37708797377452,1.37588166182403,1.40144613484031,1.40316226317846,1.40343091847528,1.38753026541865,1.4481507004111,1.48852415843549,1.44757090402288,1.49229199569658,1.43405019515179,1.41564071256379,1.47877005381578,1.52283281675263,1.61339166649341,1.66397000002762,1.52038988746136,1.48510056609175,1.4570902327522,1.49872981059548,1.44657229695529,1.47069867817815,1.59248010885789,1.70606484214948,1.79633977199805,1.62012986662035,1.56745736886181,1.57038433532719,1.51247423555213,1.51121322550578,1.60583100722525,1.67759969911615,1.73784240977931,1.73852862786336,1.70464753215532,1.70731299602932,1.72572770167308,1.73984242847327,1.74098380825982,1.75015244500663,1.72918169648043,1.69480776200792,1.69370111327097,1.70149028532311,1.74942537527039,1.74801986571128,1.63183812599035,0.00449275968902357,1.84141750618731,1.84161025774127,1.97324000536152,1.91100024036567,2.0126500058456,1.60624119899079,1.54297984579986,1.5748910538777,1.56802446981233,1.58766421801179,1.42943090631463,1.42311144137253,1.46862241388427,1.46598415841889,1.47414849824953,1.47616868507344,1.4509505552052,1.54653702521074,1.55558302193789,1.58812983110443,1.57922733878432,1.53654318994621,1.52496041365053,1.50309996322148,1.48997792155537,1.51825107487954,1.54435676763275,1.52026015544712,1.55105848315223,1.52777739504736,1.51609585262089,1.4762913299635,1.43782218397933,1.43905651631744,1.4297114325055,1.43682089721209,1.4495099793599,1.39663069406067,1.41270324350711,1.41252337314106,1.38005666774215,1.2390685369314,1.22577062054579,1.24411971591165,1.30770000003848,1.35153351153147,1.39428836195105,1.34272283500258,1.34353092892153,1.34489395467766,1.29916000038779,1.23760047191304,1.17121926835522,1.15108776097125,1.22893999986766,1.26172890951069,1.26740386538876,1.26769757900734,1.2370808892127,1.13673999544817,1.19180955061606,1.09563597714471,1.1149958316241,1.14640505098782,1.19814997835075,1.15827001755688,1.2632299991485,1.33032500257335,1.22950564978394,1.23063039050543,1.13522968691371,1.17865251892328
1.30628259754516,1.29420950632079,1.31197994561914,1.33059728639247,1.28906745793879,1.3063795387276,1.34965012101625,1.41201021982545,1.42436886159834,1.42082845035005,1.38703063929119,1.40593934137226,1.44162999857723,1.53131017196929,1.5447698282009,1.67313043972011,1.69122981882424,1.58347679980147,1.59807156843094,1.64676051662899,1.64731213232026,1.82781000389371,1.66428999971162,1.59495487695794,1.59308105799688,1.77422963029533,1.75227650955049,1.66871896494375,1.62921148436991,1.62488220204623,1.60284050032094,1.60269001188479,1.58616017903456,1.55086009990498,1.5184751704727,1.51936631614269,1.49932142005041,1.50315272056316,1.47446175621933,1.45394572726868,1.44678240844225,1.48134999781992,1.38730994595994,1.46453000583847,1.35539372561793,1.3395301751629,1.43365996985711,1.41336966289369,1.40365475491266,1.40233625321869,1.41898175903285,1.38277638179699,1.38527454226217,1.38558855487845,1.38778133146193,1.40720039249963,1.45533545895504,1.45511056093993,1.44771462681271,1.47464822723633,1.48912709165512,1.46711027654396,1.47071155975515,1.45784020207034,1.50973000472782,1.48932993998322,1.5245157629298,1.61331833350659,1.71374013181214,1.57998224166623,1.54769040389043,1.50936461979881,1.4467264523245,1.44671399609287,1.62567897145038,1.60292208398494,1.69377932905478,1.70210103439126,1.60687013573242,1.56891138764136,1.57006727203295,1.54049994710041,1.51790502518721,1.6235397975484,1.67430286579316,1.72341884914234,1.70655380055094,1.71662257600173,1.71650254894742,1.71867264684975,1.73552621628801,1.74315827827357,1.76487926952536,1.72559946168089,1.7408800965401,1.77201115444183,1.76134008675314,1.75190418780967,1.78247967872626,1.72759612675548,1.8277500029228,1.87644969230397,1.85189857964059,1.85290607611071,1.63702384777185,1.64882161907737,1.5918788011898,1.50307019736698,1.51985193565232,1.51017893557576,1.49601037988742,1.45482953323171,1.41273850969926,1.43836054586614,1.54320024934407,1.46969345460578,1.43158999662667,1.49496826503056,1.52925049758532,1.55540163576097,1.59736995355649,1.57760035065464,1.53754389083397,1.53663245551664,1.54489715556521,1.52816973908643,1.49627489984003,1.49620377829072,1.58941250602161,1.61251983614685,1.6176700058456,1.51351550937235,1.50063008924054,1.42069047966183,1.39847777746647,1.43317237269087,1.47561067607244,1.53789000173485,1.51813913341748,1.41457989318367,1.40458548963174,1.38212333443115,1.24266135433204,1.18735911889449,1.18362501105887,1.27975200017762,1.35390695034568,1.43073000277339,1.35546867887776,1.35384985858448,1.34701147084118,1.33600951949002,1.2545495302483,1.1516245032992,1.16744301573715,1.20662644179706,1.25387007102168,1.29300287745327,1.29397619481638,1.23957836690589,1.24284861854424,1.17454045130936,1.09587815625954,1.11173347056466,1.15380645797849,1.16023999847675,1.21673,1.29366018625305,1.32978500293083,1.22826447739989,1.12992070930169,1.17934232164687,1.16502029264019
1.2911820540978,1.32882950317705,1.27759903485011,1.27661009439608,1.28325455846513,1.28171548391203,1.33752016385053,1.44381993066264,1.43044118771135,1.41899755159737,1.41824003829393,1.41596736275802,1.44438999861463,1.47888960089916,1.50886999900279,1.75176000553196,1.70453974765742,1.58891333668078,1.64759464526565,1.64866996529218,1.80620978206081,1.85994000487469,1.68493999949326,1.59493821267252,1.65159,1.73735945233246,1.73795461654753,1.64135029207691,1.63773543645717,1.62411653834258,1.62193517887886,1.62941927332449,1.75600375286942,1.75744278674461,1.56907000045212,1.5067274629066,1.51952062542573,1.51754022655697,1.47599688481699,1.45842094837422,1.4532065618277,1.40015340283786,1.40433598832388,1.38313059066549,1.35752586593737,1.37116293522434,1.36940752325859,1.50134000584566,1.40481755645943,1.40112186360453,1.38522941525815,1.41423200377442,1.39955796328911,1.43122867617563,1.42099974662039,1.42289976648896,1.4775071458811,1.48665744261575,1.47788871501081,1.47708874834628,1.47605507201343,1.49608241068834,1.46799855678794,1.42495378781848,1.46906000278055,1.53405729940659,1.53353941895151,1.76467095167716,1.71979987182636,1.57947890896495,1.57591043641904,1.51488679576297,1.47802939863381,1.48208928151864,1.60654606544076,1.60588716399244,1.60502614240582,1.62359946530153,1.55082006257968,1.56164326529849,1.55117035927913,1.57821921316816,1.51779691333201,1.63710974663689,1.67244609347025,1.73592638300697,1.73447404802993,1.71633416862799,1.68018399405456,1.715254593021,1.72040833776044,1.78960098408984,1.78108901782172,1.72800289666317,1.70345159451911,1.70293816169546,1.87770000471028,1.74395864894443,1.67133752759712,1.70813391480307,1.77509,1.90407654680761,1.90445249892493,1.85790678122997,1.63494528627127,1.62692647026324,1.62987263137354,1.47456036790973,1.49337272216378,1.49322612062718,1.46896109022907,1.43747725171956,1.43888025588397,1.45401944285516,1.5635797592541,1.50606642698605,1.50925314331057,1.48462171259935,1.50631230976583,1.55450235291139,1.66177000584636,1.58082327243069,1.54347700806741,1.54242807833369,1.4888184942448,1.50887133579912,1.50613375282161,1.55741000041627,1.61890174552801,1.61372070663428,1.52696883952214,1.52700286924194,1.51408945787154,1.44111980526254,1.3921751206024,1.43575562230622,1.47325009749475,1.6484100058456,1.51032087069328,1.41766890480539,1.41745581123964,1.34209999813771,1.18407976598327,1.19059609545037,1.2621398517576,1.27827999933713,1.37065965592268,1.47888944187169,1.36125118648579,1.35670285499883,1.33070551183013,1.33141543659964,1.18008106341176,1.15353544952519,1.14058999427117,1.20278355925483,1.26991929043215,1.26763122186997,1.1134296590324,1.15609788203426,1.18107995670159,1.11183980398924,1.09507442218689,1.096308599727,1.10884994161218,1.20838000168611,1.26264981341478,1.3149398153948,1.41562000335374,1.22604907800305,1.15709925643738,1.13967997722688,1.16184933393109
1.27271146004044,1.29554801001452,1.31965092119943,1.27681731273612,1.31361242700702,1.32794999966037,1.35540971397773,1.3780099988122,1.41981079047449,1.41882138428579,1.4180720793623,1.43469987156382,1.5706300058456,1.45841779943402,1.47904936078354,1.52822099130149,1.54046016143379,1.5540398333567,1.63330677158966,1.64893118734701,1.789408605175,1.78611161860979,1.72792000244327,1.59586890876145,1.75429944566378,1.76532988869407,1.73390632132142,1.6580894764233,1.62449764516515,1.62626622048052,1.63015667508072,1.70591000014525,1.74724382570935,1.60423153285715,1.59975234669145,1.58003007228459,1.53114121543775,1.48341226872184,1.48334427614923,1.46472750100633,1.46075893159968,1.43527999473606,1.36369041964497,1.43015833048071,1.40337087051843,1.3766705504162,1.39297934591962,1.44753000288284,1.39345958493525,1.39115377864532,1.39141104692319,1.39866179136199,1.4141410024154,1.43008073283125,1.42747065942908,1.46148667024293,1.47982600073703,1.47619018139814,1.50219414687051,1.50771514677954,1.55720000292303,1.49054351260498,1.4903675069333,1.42585763061668,1.50609830651626,1.53688302578533,1.68225,1.74621858671758,1.79351320664549,1.57870762681528,1.54795216366765,1.50284858533192,1.45542121580073,1.49360080408627,1.52107978493421,1.67942000114524,1.78606667105087,1.78909333771753,1.60900030692579,1.58963400544839,1.54346671556112,1.55050423950218,1.51924064531084,1.57345999726606,1.6503678943378,1.6489134091271,1.70054666800593,1.69877333464352,1.66096119660308,1.71188407354918,1.7338919124396,1.87200999796391,1.81052000001333,1.75816999298256,1.70517073893402,1.7893900023318,1.82435002561275,1.87229982575868,1.72775499858902,1.72708677987164,1.7051458125024,1.89770255681582,1.88758840796014,1.62791050826309,1.62041015116701,1.59747007789744,1.5487199060904,1.52826000154888,1.49294487304244,1.49275809259679,1.48675963469331,1.44041359573335,1.44093910448691,1.49282166925719,1.49066833622525,1.53323029524758,1.47497296047899,1.47007815872545,1.52327112131191,1.55374683930852,1.5683413315513,1.57082258890142,1.56880555013904,1.54691810891968,1.50182714659616,1.50814033536462,1.52826002025514,1.5827299996108,1.62734295723456,1.62344879222186,1.60253374025496,1.54339724497801,1.48244045667764,1.5279199980716,1.39278733286495,1.44787127845283,1.46454883250586,1.48049000486895,1.44385000011985,1.41937933094252,1.41900977237249,1.40489091634671,1.22219714169007,1.22016742758314,1.24031014928476,1.27648799863863,1.34395000086271,1.46837038325041,1.45407362885682,1.35831610344163,1.3510896893337,1.34353295180056,1.17895692189797,1.09506052846134,1.09340506390849,1.15284,1.20493000067359,1.23358579676994,1.09873033403687,1.14036431764547,1.08673269508655,1.08762782483519,1.09011981108075,1.09538342155153,1.14102997240996,1.16451094649077,1.24767673395569,1.25990999706098,1.38148036575049,1.22204890836436,1.1288458610181,1.12918566894042,1.14153104111794
1.26773215211877,1.30304499974625,1.3084594552553,1.27368336765132,1.30591748434592,1.35819035728503,1.38650952747849,1.41515950722521,1.41259385087017,1.40808850225643,1.3902904243125,1.45761952882698,1.47509982827726,1.46068647535362,1.45897706712227,1.52097149963505,1.59261408314465,1.59182570637366,1.63364717408953,1.65271310663728,1.65687228402331,0.00474599993113465,1.65792996336787,1.59267776584334,1.75290067023522,1.78947151491308,1.78384880176082,1.68713006813811,1.64910785457575,1.65805461392975,1.66967016450238,1.75812589237894,1.76449353107602,1.6062781763751,1.58288786550171,1.67851000218798,1.5196184335953,1.48385171926613,1.47545213445066,1.46925232435489,1.45792222397552,1.38315142836932,1.38423814409244,1.43983161084449,1.39518057808179,1.38821863184184,1.40488983480193,1.36208014898759,1.39161764217131,1.39021617020919,1.38880071379592,1.38786422882423,1.40378487211981,1.40529402877449,1.43929962973859,1.46119333744392,1.49614980216537,1.47467636346185,1.50587602556212,1.50949045068756,1.62166938039745,1.50926994095105,1.49695611940457,1.42296907208876,1.51662449598272,1.51720676801831,1.8135200050169,1.75202058773802,1.78722032289335,1.57908389295359,1.56902730461033,1.51349946058494,1.45738459968678,1.45972513230067,1.50799010782247,1.72473000470036,1.55522999500537,1.60117863126111,1.63453735044423,1.63086016727535,1.63124138766514,1.59109996109793,1.56758003674362,1.63663010195283,1.64152778435178,1.66776598019194,1.6614713141869,1.66200910737714,1.6589175843943,1.705484188981,1.69693568752941,1.8320652780332,1.9012200058456,1.72374118632219,1.71951831415237,1.73971907989984,1.86163986499233,1.84059844263058,1.73322763835005,1.74253503298941,1.73967161621411,1.68628999774077,1.62782999931222,1.57583047363247,1.61020539473595,1.68299000594151,1.5340800939096,1.45809884753226,1.46053457174883,1.4929758575834,1.4928047263015,1.4920906119061,1.48498628556133,1.52393289194791,1.51546266936545,1.55283970405081,1.46612147470978,1.46870786133835,1.54088838996863,1.55334419631356,1.5545452188699,1.5521491038468,1.55159381507172,1.57831933698618,1.50214084863428,1.48409059155401,1.55185995939641,1.6885603364013,1.71104838740355,1.67916176468819,1.64733574630128,1.54147592681514,1.55447241806932,1.59892000440783,1.41965465089275,1.41703477132307,1.45235039488465,1.50698006830601,1.48478000093627,1.42244671967131,1.37512000228068,1.42640911305642,1.22273542625248,1.17389044440667,1.22082967540397,1.25502935926943,1.31048000007523,1.5325800058456,1.45444693773887,1.37479338180415,1.37412231473836,1.34272424126942,1.17980262794068,1.08816518772347,1.12971832694403,1.09993701183781,1.10761364535271,1.23244846404555,1.28153600188284,1.18978891539728,1.19346664079349,1.05631074239162,1.07825945044657,1.09058075361533,1.07204799305791,1.15369921751321,1.25031347701286,1.4765800058456,1.39635963966417,1.21667507949805,1.13044903180777,1.09115999713991,1.13083919384712
1.25352068165497,1.30162551396027,1.27521129751343,1.29561781721741,1.31639021960136,1.36944573467684,1.36622437976225,1.42788096218707,1.41131484504626,1.40063171511416,1.36509043457946,1.43827922495288,1.5096499878446,1.47276451850152,1.47090592802587,1.52045786552452,1.57757108484025,1.69965967743123,1.68341994255089,1.65525786013934,1.64345821014608,1.7648500058456,1.64121008514739,1.65538002305021,1.68489999774686,1.79643004713434,1.81091964109576,1.69434097556961,1.69599854198863,1.69392493691691,1.69767509475755,1.7848203931051,1.74512244022381,1.74375810587984,1.62032999717451,1.67539000256963,1.64871000099068,1.4848218164151,1.51307934868877,1.47241901311737,1.43960996706091,1.43778703672441,1.4224001968531,1.40181900392711,1.41113285353543,1.42295913974267,1.42011071516049,1.39649941606073,1.39230066532121,1.39566090179531,1.40624174700099,1.42162970567619,1.6213800058456,1.47640976135414,1.45750010616355,1.49252230917307,1.47076919428299,1.48213451140147,1.50161153369844,1.51344862614832,1.59900062544815,1.6621700058456,1.44382329754801,1.42583856071072,1.50210666656615,1.50450259834592,1.6417,1.78681043447437,1.78858555388555,1.58174688036852,1.57338297669485,1.49142890146283,1.50545921440045,1.47404007803731,1.48676369207254,1.58595034503059,1.8913800058456,1.60949916139131,1.61328737109877,1.62793321018944,1.67260615090655,1.67290495387955,1.66517910912339,1.54394832894913,1.64056310979908,1.64032241010858,1.68139164520174,1.67643698721346,1.71566560144399,1.73947745175577,1.74215,1.8328659255036,1.82329880569971,1.76943999935433,1.74888696500175,1.74878295621218,0.00443495963376365,1.85824185383218,1.77159000216178,1.74846619420879,1.75202981982394,1.8976000058456,1.59588502458949,1.59602967253995,1.61625267677473,1.62549133581566,1.45560999782023,1.50776999759144,1.46030743875602,1.49359677406621,1.52653010926652,1.56343855312686,1.51152772232438,1.52482686133673,1.52610931812453,1.50447434980895,1.50996699509813,1.51449083369593,1.55223657931876,1.55227349820545,1.55327595591293,1.57004931545794,1.55209609177339,1.5253804605431,1.46678624605295,1.46625650505006,1.46537121915097,1.71264702365638,1.71228251940273,1.68823423829288,1.6998500058456,1.54778981462519,1.54090389925869,1.55151070146582,1.36431999621082,1.40478265117649,1.42788815969815,1.51862556820232,1.35017999415972,1.42672636741836,1.4320575118575,1.39625198774479,1.18979074447106,1.19115028649143,1.204377789622,1.2574219305942,1.1949116624921,1.19651832917592,1.48350961997343,1.37410768631556,1.37211158696961,1.33775282675957,1.16696938382793,1.10556796933357,1.10347856670025,1.17163000506474,1.08152015342813,1.23318522198684,1.27564816443112,1.18717926592882,1.1577893889671,1.1057793957497,1.06065163382477,1.06265938708377,1.09088040202642,1.18050956846455,1.24054964320307,1.31688000022136,1.36141000270144,1.21107263281761,1.15787999868301,1.13365984098175,1.14707456807632
1.29999987628708,1.28301996078246,1.26839276644576,1.29509102860657,1.33625844810431,1.41682929820812,1.4278907049611,1.37096987763755,1.38988242334443,1.38937310212274,1.3881419202898,1.45307128385222,1.4497290111683,1.49015071299151,1.53636474550074,1.53242446063127,1.56913912490904,1.68643446641002,1.66591521334095,1.65819833435405,1.64274452396213,1.64339532345524,1.62044071631076,1.67872081898221,1.6561087100037,1.84099440524355,1.85079226583089,1.70502973800755,1.69572456126568,1.69311319337386,1.71480785169209,1.77341943172131,1.74551437921673,1.76210152500509,1.74011275169226,1.75231275662406,1.72842048562114,1.53097041739783,1.52062014749858,1.4763895847739,1.43926462658532,1.43539744289876,1.43691086200995,1.4081591372627,1.43222866266918,1.45524969133565,1.43884954704422,1.41522707924808,1.41267139847268,1.41963065914013,1.42751102180291,1.4789683318923,1.47588166581399,1.532700002294,1.46527051460574,1.49276776912425,1.51122882224629,1.48474144435447,1.52394809345463,1.5239469645707,1.52354668280949,1.52319546863644,1.44207662237156,1.41849059331224,1.47350066847266,1.5123732205145,1.57697995756796,1.73626999990413,1.77731037064562,1.58551407477772,1.58856984391602,1.51936978107521,1.50227776548133,1.53118914113866,1.48669640411671,1.61158131054999,1.61973442746919,1.58650079653443,1.62682532390352,1.6254914932392,1.6237752300178,1.6957586520052,1.67721033801329,1.54142166228247,1.67083949909524,1.63436701975575,1.66107037427806,1.72329942306205,1.74803965239493,1.74484385380405,1.89686000442743,1.85897765011482,1.85227529562796,1.80190586724835,1.75443006207308,1.82671900924141,1.83525099952702,1.77655,1.72598240589851,1.73068083009779,1.71513441380654,1.57914013031769,1.59887337826598,1.58749073880511,1.65838000178155,1.43956727503056,1.44003355238711,1.45043998218805,1.49496674369791,1.49417601574068,1.54899989515052,1.56849626048775,1.54380419047107,1.48139284409656,1.49395461493029,1.50142348105852,1.48671063342277,1.54073682146911,1.52785460990263,1.55108912905878,1.55809860052826,1.55807069355996,1.55712992277524,1.52966979470491,1.46296067482796,1.46327591934513,1.54810000292284,1.71056123763585,1.68864007639082,1.68083290587726,1.63424427773775,1.56783996615749,1.53113998942231,1.42157357710462,1.42310723784553,1.41110686965555,1.44130184027448,1.50841464157992,1.51703101404151,1.49936942921746,1.4983007153445,1.39529864891787,1.21272880004309,1.18950953245063,1.2125374898932,1.24239879040882,1.2990402363031,1.5786400058456,1.1676999941943,1.23165130355801,1.13696332821227,1.14028808068197,1.33405052910773,1.12808952683272,1.1057834412734,1.08445432085526,1.20614997812392,1.21555051851235,1.27078584359735,1.18564617353609,1.17160358707298,1.11154085874507,1.08446616063092,1.0650033275202,1.06977761134342,1.16071020119445,1.23774044928259,1.2310298869615,1.19917862080789,1.20500753451666,1.19088009685139,1.16779962991034,1.14592550784408
1.26386818136244,1.26713178813184,1.26974788439325,1.26766735270374,1.33296142019336,1.39107352066844,1.3918868119745,1.37268152826304,1.39156316771788,1.39094949276727,1.39185000950903,1.43698999439996,1.46018845321172,1.48155871355145,1.52029043680802,1.57068000123947,1.75340811331937,1.6779100170669,1.64199281022599,1.65992764013355,1.66392733761684,1.69525934772779,1.63394040652405,1.65070929368177,1.71934000277017,1.84410588526857,1.84842745280698,1.77290000268567,1.69832613263083,1.69519089664904,1.7752400026925,1.71884054482681,1.74418663530942,1.74154253862456,1.73779154749531,1.73535563191003,1.74879649266245,1.54833955084891,1.48203544881546,1.4792804030031,1.46403087784969,1.5449100029228,1.6580900058456,1.4408919790178,1.4072747191004,1.47060988207619,1.44360583712619,1.45858620248803,1.45821154701179,1.46047427041872,1.4609796567978,1.53106019120942,1.65762022190984,1.59607952109109,1.47798329196128,1.47891868186906,1.46347468681931,1.46213590210097,1.49326163400091,1.52419509312833,1.52496121529198,1.7396500058456,1.4785300013367,1.41825178676062,1.46810019673301,1.50045820766944,1.57841996552394,1.78993994108423,1.7484300019466,1.5839708127899,1.53871766279486,1.55531238394537,1.49794179064604,1.50424685112743,1.50560172108635,1.60085773858685,1.61115626188235,1.63485965668108,1.59129823291361,1.60407991831801,1.5957691915508,1.70299134032412,1.70172126454888,1.69309871166179,1.66671981722569,1.62542891560043,1.73417220612475,1.73517356807357,1.70507342866736,1.69946381596705,1.69928931432394,1.85423438918551,1.85335248297188,1.79570385594786,1.7553210436497,1.75486988363698,1.72964999784614,1.72916999753884,1.64437984288186,1.67355675915364,1.66645664329669,1.66985349918592,1.59707046800805,1.55218999923543,1.49186000000991,1.43356468768662,1.41683310341433,1.41928755684591,1.46214049347489,1.46440456974588,1.47431175466021,1.56771519229163,1.53666581163598,1.47836746494994,1.53621923685278,1.51576993886248,1.4499106119579,1.51479002532013,1.54367693082822,1.55122120667204,1.56937089056603,1.58074077315768,1.53404036206313,1.53152943319786,1.48579876014888,1.48775077510586,1.49501084279651,1.4494899969251,1.67797916634219,1.67703530204619,1.61897995559504,1.59017175742566,1.57091017044915,1.58996958737907,1.34961820847212,1.36328056382505,1.33398014672829,1.50153870916252,1.7765100058456,1.50100333430293,1.4746916633401,1.41032967701125,1.17671047115141,1.20585248682559,1.20307493868031,1.25897992373659,1.31074979624403,1.4917616674608,1.49320833382239,1.42361808878117,1.4686800058456,1.13154585431465,1.35007947966067,1.09745853679075,1.07935687635654,1.08397402025508,1.18136967028041,1.25579934144945,1.22379012799459,1.18471640338404,1.16413699212901,1.12190974500973,1.0717232573047,1.08923418580366,1.09128572728574,1.14228839549965,1.19771930791443,1.19671091156841,1.248465001423,1.2121830932191,1.19867047443482,1.1012248096677,1.10637712044483
1.26320142817174,1.30383062223381,1.27695763049813,1.28157997765592,1.30234134500123,1.32524012642838,1.41571855337646,1.38562149653479,1.39407005647745,1.41037583672977,1.42307950491961,1.4926098730558,1.4514126009219,1.41211999650122,1.49579064244257,1.53056714050998,1.75812189412904,1.67537532166186,1.64207196842678,1.66013489599611,1.66542164845123,1.66386664722116,1.68900948845432,1.62683690985848,1.65813887005375,1.72034980828248,1.89735996616728,1.72004818016202,1.66497829445301,1.69704975280595,1.708531134022,1.75084537785987,1.79741000366489,1.74002562886081,1.73873870324803,1.78718011504324,1.71838029234423,1.50511001678292,1.49109592672191,1.48506769121629,1.47905395190905,1.47819625513844,1.54062000207862,1.43638801857427,1.40596599965793,1.53730000584592,1.4433418554138,1.44194278820044,1.46535626288009,1.46416511577645,1.46541295296405,1.5192398104638,1.67146978685857,1.57738056862733,1.50452042171006,1.47768831762797,1.49863801004679,1.49466616323841,1.49362416557961,1.5510951481927,1.55408999903072,1.4582299970772,1.4157638924222,1.41775972739841,1.45679913423287,1.61519000482951,1.54704024710675,1.7667900658557,1.5563378451,1.55086198557191,1.54932788540386,1.51101987229692,1.49868322290918,1.49682293460539,1.48801909947342,1.59580105533773,1.63052006175554,1.61477944295833,1.5936498891685,1.60803363730422,1.63111287154511,1.67187000089804,1.71162886757997,1.72474397340367,1.64589654589638,1.64587879675605,1.70712083384326,1.73456375873589,1.6662137525686,1.69239720156281,1.66560345955269,1.7455899970772,1.83542375881464,1.77618041347509,1.81883641995347,1.81871205858712,1.80967159146369,1.80458002608594,1.60174144423252,1.68237731368744,1.68449999998047,1.74184667032897,1.57910010601902,1.52757031260657,1.43415602751897,1.43397363101648,1.43511546960718,1.43756555786425,1.46098966020342,1.46466738019628,1.45422413124307,1.61325000518746,1.50416606284169,1.50764492015169,1.5166216749994,1.4582903447587,1.47577987161967,1.49643362222025,1.55180971904949,1.55085648650063,1.61610148617976,1.60672020574168,1.57821000123832,1.5169703671157,1.47866926268169,1.43667072317165,1.45783986236463,1.43118077215947,1.8668400058456,1.66802199871167,1.6513473366982,1.57768957070168,1.55068580774908,1.54988923442554,1.36969041958183,1.37188065263008,1.4717300029228,1.55415000278384,1.71552357062235,1.5031676423059,1.50583235204824,1.42960897164676,1.43732272045021,1.19044796648664,1.21611476175817,1.22268007796992,1.30818997509894,1.52755000268415,1.56200000480107,1.42361631346661,1.13626087045935,1.13085185103351,1.10310498941062,1.11314350365252,1.08910674881878,1.09103865968904,1.17089019089073,1.26119835632548,1.25740148101194,1.18415494432285,1.17677665682751,1.15331836374359,1.10498834725437,1.10522163142141,1.12890985329316,1.14060172900916,1.14899027220393,1.21570944765657,1.24768500164885,1.23849778940001,1.22679098316208,1.09200727858011,1.10666957932959
1.27891699933836,1.29285913357449,1.23701999875956,1.28326892552791,1.30811577384837,1.34307942610887,1.39424194492675,1.39319629983351,1.4388423799568,1.4414994611014,1.46141993603114,1.46076943319505,1.46102866623644,1.47612019244661,1.51762915017415,1.52433464809222,1.72497465421509,1.7242703001902,1.72496469251579,1.67377903762043,1.68281660146059,1.69640000496227,1.72420333258988,1.62526356586141,1.66102103778883,1.69914018879472,1.87384004222317,1.732372009303,1.66380939216538,1.66892523890458,1.67072978529983,1.74910719723699,1.74927763684064,1.72858967848658,1.76824998506218,1.79440025037761,1.86945000420971,1.52458837299847,1.54160453076405,1.518153942066,1.50930096923157,1.46470956532719,1.51943000183154,1.47264020820014,1.42281977627835,1.41821017180989,1.42122416839546,1.42644203299437,1.44663000724697,1.4635559056167,1.49298065494045,1.4918989202814,1.56640892833535,1.56840098403257,1.50544301866273,1.5085373236092,1.53637912476651,1.50771162641405,1.54144082229777,1.5755923727638,1.59936017967639,1.61292982397691,1.4693141519866,1.42263500148805,1.48399645842356,1.52405585209862,1.56477982497184,1.5922699970772,1.7594000058456,1.54826672609495,1.48576671825301,1.48603337451212,1.53989000008644,1.51266946435105,1.48983017498454,1.51981037251553,1.6411183410672,1.64534133826104,1.5797606648486,1.60997005737576,1.62469668712505,1.62540528271043,1.7203716833541,1.73045798384677,1.71712161165612,1.64961497911565,1.73928178828543,1.71186085408669,1.69806918418163,1.6950872691067,1.69532322715336,1.84245541024226,1.84074142366225,1.80369987018514,1.73406118080991,1.70522999789037,1.82576991119688,1.5884000004186,1.68659322572155,1.68966103968193,1.71916000305622,1.7403133370408,1.51495483176387,1.51873398024002,1.42884330336389,1.39944999900472,1.39996999891178,1.41628034801111,1.47064096388704,1.4676352043568,1.47161908930835,1.49698849876782,1.50606013321118,1.49595859426185,1.49704035236503,1.42640230764571,1.47223916553734,1.49440646845452,1.5446796966936,1.54791286439619,1.57185042930923,1.61551617242606,1.61796153208257,1.51759789251833,1.47300004030473,1.4253296587132,1.4791197486347,1.42432911802789,1.40598110286471,1.57927666324216,1.66132967376331,1.58313864047407,1.55118523252227,1.52300000073818,1.32277099340915,1.31234869396562,1.3474499157922,1.40383,1.72561643522325,1.4701761714903,1.44980043167223,1.4201488596144,1.25373499967583,1.21215969134459,1.22227574868663,1.20588424096042,1.30838977118515,1.15380166228376,1.15516832895043,1.42362299510622,1.44809012199371,1.3886300029228,1.09890998800321,1.10195875188223,1.04521898412006,1.05582101200092,1.15627016395057,1.27104574081984,1.23998009101113,1.18411767350018,1.17119363070637,1.15211169166891,1.1029893454997,1.07306076230042,1.10207957079042,1.11873947761931,1.1490701945714,1.19096033273128,1.26747000155662,1.24481323486062,1.18276000032334,1.10501117030234,1.10574009106535
1.30219323896111,1.25768714221116,1.27433194753187,1.26609489238714,1.30530237923089,1.32656002116207,1.39417157895058,1.3768456293535,1.44582138700638,1.44385678555079,1.44378483447214,1.45664215815039,1.48425579631547,1.4558703443858,1.49568014340254,1.52622808767678,1.72491059127946,1.71256966062687,1.66580375826889,1.65908922342562,1.64149126672158,1.76850000534909,1.72065666633458,1.6442660005943,1.64544379965594,1.76897000228655,1.70869836781604,1.72044143774673,1.67910354042133,1.67390732956212,1.71097956552722,1.76187631360238,1.7647953602204,1.71050055594354,1.73535000092978,1.81010444062604,1.89642000456875,1.8316228028594,1.52507643654665,1.52042770027253,1.49350102477601,1.493969945992,1.48461550443724,1.49706423763736,1.3918698769809,1.36959011645819,1.43013885778052,1.42641706582302,1.45956349161765,1.46338089470742,1.47773050169752,1.47468133677361,1.54144000084083,1.7757600058456,1.53253714239189,1.52207970374635,1.49074987280046,1.50459886817008,1.55769056415221,1.58809066551994,1.64512002102844,1.64556002498885,1.45677430373633,1.48341181317773,1.48094128342364,1.53010473965788,1.8005000058456,1.7505400029228,1.55360237640306,1.54789732862142,1.53800125377221,1.54070316117551,1.57920000201546,1.52730053297619,1.55314280420334,1.53402961375935,1.59346984537334,1.7521700058456,1.64465000184553,1.61562315793812,1.62308591006535,1.65144924536408,1.71003912256687,1.73142758435109,1.71492929052855,1.71293000163866,1.74429774830683,1.78013000259788,1.71040967096075,1.70615767947873,1.70375335223148,1.71101999661792,1.85630200120434,1.85190825119485,1.72370881550589,1.68563,1.56958078716119,1.65114999764817,1.6164629984849,1.63045678434319,1.63677230073686,1.6915900029228,1.53084949766847,1.51740049606887,1.44980907231438,1.37406568766485,1.37530207787587,1.45159032683546,1.45996084987433,1.4587461226637,1.45891599769867,1.49957074144119,1.45419056045446,1.52013934568917,1.48820987788143,1.42909874784533,1.42987430839476,1.49734843715727,1.54518017057244,1.54698159266946,1.55223349498402,1.5990100455893,1.59673003461029,1.51231097922179,1.48991974435698,1.46398996688484,1.5070100013486,1.7116791922791,1.3954289977275,1.5794518928882,1.67315008495977,1.6325198882529,1.60429979376094,1.29519411684957,1.30220383818287,1.30169251861642,1.328977254797,1.34305150691179,1.43868000071289,1.41471002423784,1.38865006933769,1.44381943518045,1.25639499936217,1.19901442673708,1.27454462066507,1.20290547647019,1.27752022505624,1.50335561563583,1.50452109958408,1.47265027873093,1.45844781577765,1.32603942737732,1.32012000315112,1.10252615615965,1.08080779448686,1.09495042404149,1.06443083389101,1.27281088586825,1.27180398967151,1.18472459138747,1.1773777749043,1.1796405120665,1.08447942702166,1.06481840536102,1.11839432704533,1.1160166129558,1.16514140887295,1.23243000184439,1.3721900029228,1.24755150164252,1.11440006185431,1.06663938898447,1.06783774890719
1.29249611953577,1.25884304327446,1.29636828788497,1.26643137072437,1.28790050088006,1.31164052320296,1.33992950543237,1.38689299123664,1.50239997403236,1.44340844828066,1.44305138563098,1.44318085897545,1.47141149369786,1.4911800094221,1.49880018181427,1.56090000058044,1.72932965519821,1.69968046184226,1.64649523296177,1.65684539285648,1.71128930135464,1.68864631591596,1.69290128491032,1.68299661214557,1.66606052304748,1.8273886894511,1.82003180749096,1.84879950954033,1.68107709657181,1.67748970664564,1.67968584612008,1.80722000391226,1.75824746077884,1.74800007110486,1.79289763476732,1.80490490221265,1.83494955730601,1.83614054765972,1.54249712865516,1.5452850916685,1.54692934151941,1.58905028315338,1.47679866095226,1.45215797358875,1.46132209861379,1.41668051565848,1.4321780088552,1.4394169463305,1.46420279843734,1.46374266971355,1.48509436060269,1.47792397736918,1.47032475734166,1.6198900016075,1.52915819638981,1.5282759030609,1.52111036094671,1.51252535092573,1.57891836203311,1.58887026266481,1.67133996494342,1.51321768776825,1.46909179383261,1.44508078481582,1.49923000818247,1.54845940691624,1.64698,1.7143300029228,1.58237968452161,1.54611507735454,1.54246574812025,1.59568947371208,1.60701052945158,1.55061978150946,1.53413549056282,1.54721139543776,1.57170015166102,1.66898438653307,1.59939750102525,1.61450410320639,1.59722830766802,1.63310157413605,1.63070821703441,1.73137985019207,1.74577658021198,1.72461427537375,1.72597892803093,1.82128000446684,1.79093000393992,1.70629306305544,1.71227433348561,1.8698118388109,1.86175001969014,1.81344045447866,1.78120000287103,1.58779514961586,1.6005147064606,1.57021042973557,1.54966713850734,1.56788689843237,1.57747280211589,1.56363832907119,1.57816189840901,1.53016087901881,1.43349042979433,1.37175609245385,1.37976619780551,1.38671021969144,1.41089009358994,1.45000022981648,1.46643547332707,1.62635871368258,1.45463285837386,1.4553670637531,1.47238983263164,1.4283548799257,1.46216609692359,1.49250191346434,1.53196764402401,1.53089966455576,1.5289187019063,1.58587474995849,1.57600715486852,1.5099714241209,1.45484987850754,1.43265015017367,1.46020018719652,1.71669148639486,1.71573766778714,1.57962758872501,1.37476999412524,1.62351011710212,1.58336020995771,1.28496954133392,1.29407797068768,1.29084288773357,1.33687314072076,1.34185818466284,1.37458113151771,1.3668595890192,1.35848757257431,1.36443122420992,1.22480138953962,1.19769264518983,1.2672707424948,1.26728464500677,1.31490950412465,1.50632156279091,1.50624228264901,1.4814654547272,1.40460999897517,1.32979714289328,1.17323064710975,1.10510976377974,1.06117914869099,1.06451120308775,1.11355971382058,1.1996221785827,1.18714972165274,1.18581624801489,1.18682408467552,1.09917808906037,1.10037254231627,1.07509088463794,1.08908096190051,1.10453098060095,1.16546774698285,1.16756992419103,1.46450600344352,1.2498066398438,1.14313983064701,1.06620733821978,1.06789541350345
1.31514984863437,1.296210367935,1.2677644780632,1.26620923797092,1.32233886066145,1.32919958353148,1.3242312634787,1.35266999845786,1.47875003263103,1.44361507609585,1.44241628137815,1.44264074686635,1.48514938881874,1.47725297520215,1.53428999967538,1.58232998921486,1.63892996869213,1.62221659254421,1.64623167472652,1.64398123229724,1.64574709341064,1.68722274503034,1.64807978979059,1.67982321608466,1.85524851979709,1.8471590590013,1.8629995774797,1.79643457743426,1.69426747391167,1.6880176486554,1.69307505789267,1.75250247979664,1.73850026413023,1.71456053631463,1.80580190622044,1.7765501137949,1.84076695025389,1.87523000280399,1.56218884404489,1.56625836002868,1.57508002210907,1.60666953779898,1.5223500000498,1.498189609181,1.48064959728641,1.44135038845351,1.43018424838478,1.42011953846977,1.46473923024455,1.46438363521789,1.48160049019248,1.47729461916737,1.48781943094293,1.59575000214597,1.54811960396972,1.53666004772525,1.54418137973118,1.50947403432399,1.61299044475164,1.59269731975659,1.60205077705241,1.51604902544982,1.51971368973213,1.46161969353418,1.52256163057512,1.51854368285254,1.57353,1.6547500029228,1.54286735417856,1.54414735931153,1.54366366343604,1.7024900058456,1.63395985219531,1.60765329261278,1.56504999206984,1.57731000567028,1.61917000042873,1.67594456984403,1.63959078873295,1.62354557511306,1.63080119051205,1.61033010192118,1.7452944503745,1.7555003747229,1.74191286724877,1.72078773326542,1.79617000431599,1.71503782613775,1.72337175216492,1.70291528926671,1.68444197567449,1.85682968116365,1.84675777981965,1.83873955654275,1.59569866479753,1.60908090525071,1.56240342332319,1.56513404525634,1.55263108786914,1.56412381305062,1.64306987377805,1.64554990080241,1.57538970454381,1.48626999871073,1.38284999844061,1.36538948962652,1.34699173867387,1.41532963955665,1.41256986774363,1.4395438110873,1.46560513367996,1.63655129508582,1.55917125917725,1.53331045687208,1.48554982356699,1.4265201004073,1.45866551929335,1.48430937255388,1.49729714065046,1.51632711677599,1.51323634857319,1.58885763780171,1.57763099551954,1.52623118961016,1.52635867903543,1.48622035859923,1.47831496366107,1.72018397817287,1.72393801890644,1.67379961498953,1.70010979039471,1.35927969241294,1.3134399997567,1.28153921271621,1.23095129026743,1.31227933905832,1.28007085633182,1.37897926637781,1.26068999415035,1.32721658242545,1.26068999625295,1.2403699972645,1.23281881494753,1.20065826080167,1.18183014443673,1.11275999412246,1.2990804978335,1.49600978424042,1.56547333730881,1.48674154748787,1.4751807565587,1.3333434288691,1.19503916408123,1.10799915826999,1.05856423281658,1.08480954021197,1.09484052081872,1.20327883716856,1.18480586032995,1.18513348213998,1.07736996548874,1.0591774694403,1.05998129902481,1.07695972397251,1.08163493352281,1.10217413164854,1.14457078458773,1.46763400344352,1.46629000523494,1.25401697059592,1.12590010457241,1.06410404435939,1.06290284166669
1.29490000690646,1.31434663763719,1.32014293552807,1.29611399657203,1.30038168122962,1.30411411117485,1.38483000325267,1.40471872778162,1.37685122668336,1.42937058829952,1.43272778919062,1.48378993230005,1.46293425747313,1.47214039905346,1.58419882125828,1.59463103147337,1.62604098729303,1.62570617323649,1.61739714134033,1.61271821217562,1.58969090992077,1.65126317810551,1.63486809437378,1.73013509825258,1.82535096437181,1.84286456034186,1.84086154450335,1.79441490263467,1.79581057810058,1.72172426945357,1.7177220626489,1.75710608342999,1.78987000850474,1.7402195956006,1.77861324885609,1.77862739310111,1.82074542396687,1.83094844074228,1.60980031683186,1.60672649137459,1.58054257002148,1.59292164725179,1.56240166535176,1.47881055497201,1.45375033219342,1.42032345532724,1.42370384444085,1.46413156371613,1.44381230250925,1.45391114380897,1.42301884808125,1.42196220486809,1.73095000182804,1.62658000209277,1.5357498275368,1.50712084962739,1.53542929795521,1.50869038293415,1.52521112229336,1.53644758748282,1.5280764116946,1.53124092645906,1.48882488668863,1.49093461156272,1.46938002081775,1.52178187213493,1.51927099826492,1.57660315498775,1.57665567671395,1.56734503929973,1.54985147685165,1.61916575877405,1.61970394438533,1.60369705184744,1.62192530426657,1.58936001081903,1.64833000080144,1.67648105541064,1.70384999790351,1.61828234639508,1.59903009188047,1.74717571890769,1.74611922374773,1.77553681584062,1.77552486064549,1.73462874926762,1.76245984066336,1.67298525652535,1.67426661209214,1.67396430023286,1.67743064557188,1.9244700058456,1.8623300320607,1.6285399941544,1.80593000341481,1.61935977872248,1.57632194749589,1.51947999937415,1.49208090065914,1.52689313975502,1.54446999901066,1.62890023561195,1.60087112797064,1.53285000196734,1.34059727783346,1.34050950790177,1.3430535762831,1.37816718686799,1.38792039261749,1.4286937536197,1.44200999948071,1.50965338589074,1.56105818752526,1.54403014845617,1.45241769584161,1.45404232379754,1.44454854778974,1.47068028965626,1.49708380874312,1.51969899234811,1.52335869857591,1.62813000321123,1.66397000500931,1.54426944763852,1.5101903164033,1.49184223294454,1.48199274767257,1.73472976740748,1.73712990658891,1.67378177681062,1.67926021837369,1.34480030559442,1.26913999713776,1.24424056236174,1.22048911078427,1.27803050832456,1.3591099945902,1.34734121905849,1.45930000509969,1.41511684120024,1.45976000513721,1.38190000147703,1.21967855805751,1.20673407177062,1.19769412094838,1.20162555384882,1.16379031584472,1.51950966386815,1.56592667066771,1.49498451501148,1.40570927531138,1.29830899257256,1.17466988784073,1.10074879535146,1.06408512502238,1.0658322871672,1.11521901670882,1.180999272754,1.19350248988954,1.19643922026021,1.22282009319825,1.08207961617306,1.06697231469698,1.05236997373455,1.08182431089794,1.10431495935041,1.16418424692633,1.16391602571693,1.4962500016138,1.34636340409714,1.33202792382808,1.05792358451395,1.06015359315479
1.33445000201975,1.42232000587112,1.34689046203514,1.33924065842812,1.30387223354801,1.30445920768414,1.33832999971398,1.40649907769361,1.39479096849095,1.42818182539846,1.45616032690759,1.44004847736218,1.46499444966742,1.44850997895024,1.60791878080174,1.57348024675225,1.57427555826901,1.57281520355215,1.60902034656317,1.61048942931097,1.5780303852783,1.64440893901135,1.6636699985149,1.72145490176416,1.84887959431053,0.00438951959032056,1.84199619405904,1.80601667029701,1.73595450606458,1.72831766139561,1.7249475706261,1.75593365999888,1.77792973079888,1.70225691345641,1.70924307949978,1.86759000416916,1.820572180451,1.83434449907424,1.62952999966374,1.62277429433731,1.58676500898987,1.57208104139509,1.54872833580221,1.49836857890307,1.50214897006681,1.41708987757627,1.42242138380664,1.4460175375952,1.46524446056322,1.45591093589656,1.41372897846801,1.44919011842781,1.70364333844842,1.50842999398944,1.51159065612068,1.53168830607479,1.52772848281638,1.52883972148137,1.55074000607238,1.55078375992473,1.58627000153073,1.53313419754451,1.47937004925958,1.45036026449285,1.52354850139021,1.52646273911896,1.52316932632247,1.57523179691963,1.57418016477598,1.58058435896949,1.58803892072294,1.58274058495044,1.66254997405233,1.64594002989895,1.61265488522558,1.62682984068846,1.76640999837125,1.61501198276658,1.6145899844452,1.61549712248134,1.63807154350207,1.65532011104152,1.75543058940721,1.77483624588676,1.77481016443116,1.74375891419236,1.72142011079719,1.58917072000466,1.61094517282224,1.61408654501749,1.62030739420092,1.8624700029228,1.60078304462083,1.83768333746359,1.83817667081281,1.54097955890768,1.52038000020366,1.4758896607269,1.45503283354327,1.49879061349129,1.52418965328756,1.59200399540138,1.59233102737288,1.4234899970772,1.40676,1.33853342019261,1.34071316295535,1.38661293048717,1.40933979334918,1.41758973949217,1.44420999921267,1.51493777923235,1.51499410265426,1.55677995534112,1.45146292128152,1.41199000010043,1.4755293112515,1.43759004003103,1.54456074543637,1.53007756132367,1.52338076894403,1.4451706480959,1.43380967733883,1.45086966312364,1.5020154633935,1.50499118319262,1.54345000164323,1.64105945531448,1.41117044335374,1.44383726328552,1.39663961734218,1.36327034286866,1.6296400058456,1.26468122787929,1.23647963266011,1.29849555585023,1.38102555846929,1.36577958920558,1.37636032569567,1.4004362651301,1.38718995300001,1.3415399985202,1.21723151415062,1.24241950544159,1.15981608689262,1.15359390853939,1.42293333702174,1.36277784002272,1.53578000272707,1.49754882603819,1.41674072260021,1.29178100641335,1.15464029804549,1.07889434210734,1.07845348808127,1.0905695416,1.12328211033683,1.19181120262783,1.1987356025026,1.20128187830818,1.2150795151116,1.0916796372656,1.07018074652075,1.08729464040329,1.09788034823896,1.13780623636071,1.12644376265509,1.18504930316999,1.46696000380103,1.35217160376859,1.35664284828699,1.35371053296413,1.06012447361883
1.25769058000219,1.33740043762765,1.32788279398481,1.33119993321814,1.28790403152361,1.29795087911631,1.30497228702577,1.35343999861157,1.42961974770996,1.42859208790531,1.4551206697418,1.41409879837699,1.43532237541915,1.42950783901384,1.58667057552034,1.6875200058456,1.59938953409714,1.58361050921293,1.69274000466735,1.61133849584691,1.61322849541822,1.61010911786312,1.71428000279915,1.84070000290705,1.86497063409995,1.88130907904805,1.90646923816362,1.80992344659618,1.74786556064499,1.73328531937999,1.73052535297126,1.76568753781978,1.73806345044876,1.74513529085147,1.76063994167181,1.80988152817394,1.81186927692987,1.82367213736944,1.65542411348989,1.64628945201839,1.64489174466047,1.60113977686017,1.58846022379502,1.50326441184838,1.4884378752124,1.44037051817395,1.45094778848934,1.44908963493591,1.46816543878549,1.45839986754574,1.46313173685293,1.46107922257009,1.70369667141474,1.50718921971748,1.48216242234456,1.48706012419608,1.51618003323503,1.52369267061088,1.5212316590974,1.54927607577402,1.54796849325388,1.5204289543291,1.45121182585312,1.50088073858598,1.47776926135318,1.52927075807151,1.56863000156217,1.61657022153289,1.61531660688798,1.59336639948208,1.56870609434054,1.5831220730636,1.60319416252717,1.66769980390005,1.64458991341262,1.6305203407816,1.73846100757137,1.73017449695056,1.61223094364222,1.61367182322955,1.6109003882346,1.68572988554629,1.77337894229779,1.77600162095488,1.74791288624713,1.74506894475388,1.77943983560271,1.52730000050734,1.56523850292564,1.56880517650414,1.58039805117141,1.5793241763587,1.6054764369639,1.58755050533152,1.55597320407812,1.55519387080688,1.47836999952171,1.44413862024892,1.45255891267201,1.47995577029985,1.51338034658843,1.58860385678298,1.50302190911858,1.50294826521408,1.49275992465357,1.36416999805419,1.33874193147181,1.36876016341221,1.39714997383393,1.41154530881969,1.41559982757533,1.47797999928496,1.50845472941354,1.61030084400272,1.45733004835041,1.45625713592571,1.41093411899972,1.39802939683698,1.50357091542308,1.53868473111887,1.55238,1.69024000478877,1.65486000364078,1.51836898952692,1.50004477169748,1.49054726092257,1.4913807411702,1.62324081270053,1.75439905608846,1.46214625028644,1.3749208462034,1.38553918720094,1.27854999719722,1.24800363040435,1.30330411918927,1.30075983820342,1.37507768128026,1.36846670309099,1.40502992494396,1.41053943439815,1.41371565665118,1.42161178677828,1.33672500118726,1.20149323213511,1.26880000498021,1.18228999771567,1.42206667033094,1.35733882566738,1.50195801139235,1.49898725543924,1.49996165492354,1.31722030826242,1.26454000107538,1.0897505145338,1.07855056232092,1.16974000464043,1.12292917463807,1.0380799941544,1.20801419486104,1.20441444299128,1.24391899640382,1.25453101086471,1.1299500057422,1.07865182250333,1.08380624507359,1.07991659111999,1.10720442840943,1.14679999976851,1.18589000115759,1.20205663176334,1.2182199988405,1.35298737773319,1.06297169506079
1.31996025943451,1.35377996456881,1.32199437561103,1.32332021617351,1.28684480349825,1.29841171599732,1.30333835037388,1.39204855768325,1.44849922281871,1.42658377671603,1.41925909316471,1.41737148206447,1.45811918433611,1.41550570356123,1.49278000002181,1.52958999930398,1.59242469560437,1.58945029751668,1.66404000410105,1.61135164965375,1.61222541235059,1.56890119444838,1.64011000047144,1.664509999543,1.88070764719811,1.87865217354286,1.88952059820023,1.829901591018,1.75195219567828,1.73678831935995,1.70835551247297,1.73252221416363,1.72006830893203,1.74428120551098,1.88348000561022,1.82118871459565,1.81301738497893,1.81357353949798,1.8068413480292,1.70631472055575,1.66762500698132,1.62320000016411,1.62519999981268,1.52216034283524,1.51740098049399,1.44044863055017,1.4826396492282,1.4460042169243,1.44575143391665,1.44413550345705,1.43383002274271,1.54084000300694,1.55819000088713,1.48699065922724,1.50093563965124,1.48663574740682,1.47718951755729,1.52542933347563,1.5445144194064,1.54789987006508,1.70007167105087,1.55404033540766,1.4604581723569,1.41612054068589,1.53045998058487,1.50896333530252,1.5082167583361,1.65872000435138,1.61153250525886,1.60642303121872,1.56857561686956,1.60314596413554,1.60445006565946,1.69500999608714,1.67008992239107,1.64719007984237,1.72378889991117,1.72736846374483,1.66934833407208,1.64664262300925,1.65076011340558,1.65111992591711,1.78193405307449,1.78262664151001,1.72953117596257,1.76540107427491,1.74817015274828,1.47605751997515,1.51926052408371,1.52372869173553,1.53133163028517,1.89003181712445,1.87792897328517,1.88715922113615,1.56028395387144,1.55190920676738,1.43416339242632,1.43105671393302,1.4557302765467,1.46695353514578,1.48325000047642,1.54773970044887,1.42197999415426,1.51665960090038,1.47415036104782,1.46207000104684,1.31666451540713,1.31731692970948,1.3568199984893,1.40317563663726,1.39993065595071,1.52357000199787,1.67811942251851,1.59216814920912,1.50351000225678,1.40744637269929,1.40755929821439,1.5226555253139,1.51992524194849,1.5503576483465,1.64332500225321,1.64222500259052,1.54823985708117,1.49240866168263,1.50824503696268,1.50579013659471,1.49944410806297,1.61779973490779,1.75522170740049,1.77500184393151,1.81243000465442,1.65024166649341,1.33962000223833,1.26061450807385,1.22943255279906,1.27294491287648,1.24336035604845,1.34423001196134,1.40298710462125,1.41257540269465,1.46476549258605,1.35804065994388,1.33962500120441,1.21291667350383,1.19884854059495,1.20426118928067,1.27890971929744,1.35673332988001,1.5602400056254,1.43546956364016,1.40962976830447,1.32769932811332,1.28867944579337,1.09258093825004,1.06619961735763,1.04196054627293,1.14000340973736,1.14257561726088,1.03277999415527,1.11626547772785,1.03521040922717,1.03313280916531,1.16533000020911,1.07103850574259,1.09536186261788,1.10557021388143,1.10599351640066,1.10409242845372,1.12702868931726,1.13548149602999,1.13504444684626,1.08945883520422,1.090780263084
1.32914125499013,1.31453139808754,1.32050131336433,1.33943237697781,1.27793845931078,1.2879096093087,1.3370169125962,1.3841585135132,1.38373711720711,1.422870418049,1.41876735570265,1.41724674137653,1.42711930543644,1.42705408364339,1.41754486754576,1.50919000074488,1.55379010051835,1.59784510473825,1.60877124474735,1.59777015939336,1.58959905808754,1.56191823425649,1.58924999850522,1.62788333336151,1.88245179373859,1.87062806090927,1.85947005914088,1.82830823770101,1.7138309613666,1.72925782588836,1.71399806817097,1.76354400310315,1.76724446184172,1.77824994106077,1.82144803762713,1.82125722362096,1.81413179050829,1.81498240791353,1.79919700028358,1.8221264223251,1.84061038783831,1.86141950231104,1.70071,1.6419000029228,1.50921756808326,1.45084004131375,1.45971029436546,1.49652984812232,1.44354331133503,1.4433011482405,1.41095833583194,1.4806796049701,1.60661000487433,1.52555000032014,1.49805553748525,1.49922103444762,1.41857999702716,1.46819921767758,1.54995954046208,1.54931028335158,1.70223833771753,1.56902940769322,1.42960990358475,1.41247015209246,1.39831036832455,1.51755028220257,1.56650000166519,1.56986997774828,1.61783611341703,1.61195870387207,1.64967958675372,1.61950664570355,1.61737340299596,1.72374794818041,1.73214242436466,1.67138999760674,1.72208010289217,1.72805704577419,1.66678166745062,1.6399333189531,1.61352481835375,1.78526642456139,1.81901314251453,1.80298896459093,1.75753436501722,1.75504359871776,1.52248999746624,1.47712377073521,1.49561996770403,1.51336638011293,1.51715468036668,1.58865,1.84884000306824,1.48821664672909,1.48354334504259,1.54055935302147,1.40136989621148,1.3887497535194,1.4171397763711,1.444687134177,1.52356025441906,1.53097700373564,1.53197254090846,1.53242927602401,1.49552256861525,1.50939224650804,1.30517871503629,1.33205773470667,1.41168243186878,1.40717547857156,1.42490020772222,1.4638271430128,1.6893605862499,1.60334101263377,1.41985000522099,1.4100107898663,1.46373194595233,1.49550924371156,1.50390066734131,1.56101932334348,1.598497411154,1.61313486711399,1.52629014002169,1.51492788053296,1.51695370114567,1.49452687573607,1.49326397686535,1.5336199970772,1.79604000237226,1.78325775443298,1.76951990504033,1.64668833350659,1.29856999950903,1.22834470012304,1.23000291026404,1.26900485653828,1.4416600058456,1.37728333353847,1.24154999398111,1.41643028250291,1.47081437978547,1.35094933985139,1.31083000073586,1.17988400165405,1.18077725810027,1.24660991097943,1.26610989145137,1.31481949377796,1.35497999929693,1.41860005577978,1.39462105753021,1.33502036234753,1.26496055313126,1.08199003668729,1.03691058017395,1.08536930899212,1.14415953374117,1.18140333530327,1.21322806104686,1.22447661406434,1.23825000337396,1.03058734002586,1.03034970766675,1.05321953068182,1.07620016713562,1.09903755846465,1.19516333479474,1.19449666812807,1.13468539158072,1.13548805280226,1.13606937291919,1.17920999109537,1.1093094402398
1.31362484009108,1.3164514412826,1.35320905056177,1.32379351039394,1.29499870029693,1.30532108358974,1.33764352808043,1.38645918429441,1.38692875788902,1.42588096239342,1.45247922655414,1.41684509193798,1.4160442153749,1.41442946314971,1.4347396025038,1.4618301034401,1.58861168187162,1.57722069393983,1.56401885522217,1.56727896842881,1.56484124825096,1.56109034838944,1.55777338688665,1.62797666635668,1.86901317206198,1.86122789576327,1.84435521212778,1.74840883254975,1.74557072014591,1.75373323489909,1.75862116006817,1.76393128252654,1.76523001460107,1.75564701773728,1.81456210856367,1.82028246832831,1.82352959817746,1.82794088354125,1.85503999819562,1.86827625856357,1.95814005158084,1.86161952550938,1.75869000030212,1.52194990746153,1.5199509998388,1.50686175665348,1.51098844667198,1.45803970624839,1.46004987018719,1.45424470642411,1.40875166925323,1.46710955418904,1.46510947008495,1.47403587770788,1.47649548789788,1.3613584489838,1.3708115480934,1.48306095401288,1.48712092513543,1.53560632318342,1.6453300029228,1.55279857722543,1.39482751487992,1.4123710999502,1.36880999720364,1.43098000000913,1.53908000126102,1.58203001911807,1.66282003867121,1.61120644314605,1.57628624256926,1.64824000002277,1.6676133329435,1.7590133327195,1.71110838552185,1.72720124726891,1.68867664882177,1.68818331075987,1.64449967324354,1.6356391964562,1.60618324386338,1.77901347928427,1.81219454867512,1.81220824863715,1.67264,1.59882333368053,1.58031000253376,1.50086932138032,1.46812848412003,1.51111576813592,1.52271177697866,1.46526666262541,1.46289332931497,1.7481600058456,1.58929,1.54751085222613,1.36765799227613,1.38059235321384,1.40760977957703,1.41557388054751,1.42446738549143,1.42445251974608,1.57970000440358,1.52262039597928,1.49361524575841,1.47945803239183,1.49422222170606,1.32704215702679,1.38876928581166,1.39430671549363,1.44582979218874,1.46573571436484,1.3752099941544,1.55864000073543,1.4925700005532,1.45836572625738,1.45156605520322,1.49315092881897,1.52263017349785,1.56618537283505,1.59299346634256,1.61307691212261,1.56192011635044,1.50648961781687,1.47323999886548,1.51855898924372,1.49506283767795,1.7431400032884,1.76963625457935,1.78576757132255,1.8372800029228,1.7283396714421,1.28043999985758,1.25371985240205,1.28512934178728,1.29078053623981,1.31439999709529,1.37569666687946,1.43053964477575,1.42158038098027,1.45172013709537,1.22136982434469,1.2090201592078,1.20677356096725,1.19860205030083,1.21583008828546,1.24718038617138,1.29893050477666,1.3159599971099,1.42780641229304,1.49744175552707,1.50311930964499,1.3326002071212,1.05554349879163,1.06202641652233,1.06414062244983,1.1524844689387,1.18109666864946,1.09706999415107,1.23005352223297,1.26965000473295,1.1915300029228,1.14336972508636,1.02860508091903,1.02626510302877,1.09780114963461,1.2650599952465,1.21947000779485,1.27498370193369,1.28763667417884,1.3514300058456,1.12419999971961,1.06501736420745
1.28915722401656,1.35646926567725,1.32601465195537,1.32669158644074,1.30678016670664,1.33741996278596,1.3540481245499,1.37809787914603,1.41479346091595,1.42883670872382,1.43085950002449,1.43165508474878,1.414711123981,1.42338234625495,1.50100027693892,1.48108993897103,1.51884029702822,1.56751064945262,1.58529311900213,1.58414483841372,1.59354339708173,1.5557361033127,1.56154274306633,1.59418999930288,1.63761981691308,1.86155579237082,1.83712550971036,1.75910041784424,1.74175801698307,1.74419986875881,1.86098542500901,1.86108511928377,1.77880156868496,1.75485293809989,1.81492299364799,1.82353547484277,1.82332498935817,1.8297691800049,1.91444192625793,1.86958153443896,1.98151995718756,1.84099058726407,1.78581999969788,1.6816500029228,1.47054267333898,1.47078870466122,1.44969981243094,1.42072030509449,1.44517892947375,1.47961947359343,1.62751994311731,1.60401444152974,1.66560000540154,1.57104000051637,1.29348810808699,1.29472138252681,1.3260199983719,1.43681,1.5090694893109,1.52831337329569,1.55427033945344,1.5547113402268,1.48925000204135,1.38712823982421,1.44760000366645,1.38859011366156,1.40593802518287,1.65105290806929,1.64908409823917,1.60892020378288,1.57989994986176,1.59840999812456,1.66766666660757,1.75585592255355,1.76294540126374,1.66542177761813,1.66550842115488,1.7274299987771,1.63146721886662,1.58339904706935,1.54727081761587,1.76490018757653,1.8113360501307,1.80424904731905,1.61946999966301,1.59811666665646,1.46748972393061,1.45319029206267,1.47084178972806,1.51021212675579,1.5144981196164,1.59968985040571,1.6023904047082,1.60708998110172,1.7370000058456,1.58980000152086,1.40906999890063,1.35791991880979,1.36231942430759,1.38606125349429,1.39952955001179,1.50192000257292,1.53131750349077,1.53900328558268,1.48177759694544,1.4742192189299,1.45062000095817,1.34416999754965,1.36081049592767,1.36929361877589,1.35621034703445,1.46702714361834,1.5303400029228,1.5750400051104,1.52659959291123,1.45906761873526,1.41619826489961,1.49976997353053,1.49945148190705,1.56680805198118,1.65486000293832,1.61428734556146,1.57233929149274,1.550570933172,1.5730337565501,1.56409939958271,1.51368858667858,1.52012085016027,1.7705587484339,1.78684733317284,1.8862300058456,1.7092503314807,1.24818003206474,1.22965028325223,1.25526000059961,1.27913972335067,1.41718000014687,1.32649999587404,1.41862522018122,1.4195715454643,1.41184517626095,1.37853072645351,1.22762946084346,1.19295813455807,1.19981158186547,1.25784051699816,1.33350152733818,1.32224897298772,1.5749700043842,1.48743065530302,1.48365261357761,1.35023650271276,1.35026278705537,1.07578959145629,1.04373004939951,1.10833000118061,1.14538640477969,1.20001152105146,1.26167000000208,1.2319657862854,1.09412988717088,1.10575061567875,1.13381976915462,1.05908563227013,1.08870999581155,1.01917332893336,1.01894666226566,1.2916800029228,1.3648000058456,1.29804476578388,1.11822999707784,1.08921821215099,1.05943775460883
1.28157126837219,1.32656991526449,1.35859104797429,1.35869180822405,1.32202610338702,1.27875999641761,1.35384140845059,1.39936030044742,1.41296712801818,1.43277339497319,1.43619759423687,1.41134718600957,1.42660467148841,1.41327096491813,1.43273000583558,1.49544939101995,1.51988023517338,1.54776980275008,1.5787779843213,1.57955825453089,1.57571900148673,1.5592773581762,1.55040718417832,1.56367511122513,1.62433018312307,1.86657377803481,1.88422938098793,1.73794003181314,1.73941604166473,1.71393300936619,0.00466080984968842,1.87845946739842,1.78057120573123,1.78405034757115,1.83757667452786,1.83561253101654,1.84376201482453,1.8390975284597,1.91410756329444,1.87298217507288,1.91478651873562,1.9909400058456,1.84086000113623,1.49960971235128,1.47470806796388,1.40474241798575,1.40872757497277,1.49830000168429,1.54293277435204,1.54328036223937,1.6478096888725,1.60486781363568,1.59969816187506,1.59963476781178,1.27816168327306,1.26893881683007,1.30518984933812,1.35075897862636,1.43064000009405,1.4606910717474,1.58985028393412,1.6165792771689,1.45564000088145,1.38475216710466,1.32851999865486,1.36028968957393,1.41946153778134,1.65753296935135,1.43955956417062,1.42583126532728,1.41541029621379,1.65417000251433,1.74917997730544,1.74942103563165,1.74718037034739,1.73186000308285,1.69923984411121,1.62916243671381,1.62839067257582,1.57327562764675,1.53283114762398,1.78092278260721,1.78342440834997,1.8716600058457,1.53261,1.49391000000042,1.44552955984998,1.42773026137174,1.50024723101218,1.49779887240955,1.50084616864315,1.53315999848016,1.61246976378438,1.7541000058456,1.63659964192612,1.5507966660241,1.37129826718662,1.34474171127097,1.36852084167361,1.37744104759356,1.3910295781026,1.45185812706575,1.49978204319879,1.48734202645322,1.48023098988291,1.49273409364327,1.34509000224719,1.38836308216407,1.37638161067946,1.37977116834151,1.42541000100509,1.43845658982155,1.45510058120545,1.51974106122555,1.50933848187259,1.45761865147739,1.42625663990143,1.42224332091068,1.57099950316127,1.56901663730429,1.67110055967525,1.66524944680611,1.57230727320165,1.57148073198804,1.57368326556778,1.54483056519032,1.47171020271957,1.49270979464978,1.55047033731005,1.5901135371281,1.7252900029228,1.26102999907052,1.24038968319539,1.17626999632812,1.21600854273992,1.26029694521744,1.38874667065128,1.38901333727331,1.42045921282049,1.41997387185886,1.47940949464076,1.36346927354649,1.21321024875216,1.17322007628479,1.20054354341785,1.27410948537178,1.34657985302722,1.34689967757599,1.5723300043842,1.49059328589321,1.4953991243572,1.40963094809871,1.35114050311066,1.09786999896741,1.08212999508176,1.05906182683418,1.13618003410744,1.190158480665,1.22130546142607,1.24715702831857,1.42208833771753,1.17804883798965,1.07763166472058,1.05041592208965,1.10521048345468,1.13009942169657,1.26350500274954,1.02198198939251,1.01513800183921,1.30680991232209,1.3508800058456,1.10057478907124,1.1050813523515
1.30532027654509,1.30573979351123,1.37352465503506,1.35823044943214,1.32617858871616,1.32859783895474,1.33045573992444,1.41539746510088,1.46804988057581,1.45114033075869,1.44846203952821,1.4108446524666,1.42358889730909,1.42163257150927,1.46576999350677,1.50690029339688,1.53839945841658,1.52975288652245,1.52799311270309,1.57420284869099,1.58371930962685,1.55797222418639,1.56814458488546,1.55682237769657,1.56750980689587,1.6037499975255,1.8506600033148,1.77816302913085,1.77545628208996,1.74420032984557,1.90463000548317,1.76117000323758,1.73150185472973,1.77738630365361,1.81669305827277,1.81547038505086,1.87491020694878,1.96205000497801,1.91632580176351,1.8776959001104,1.91698307117307,1.90583830105631,1.86880000125852,1.48586007532355,1.45816734169689,1.45507036595695,1.45611327511527,1.52466000185014,1.54375351874255,1.54264189725548,1.59580019697651,1.6131192668629,1.61040531670285,1.7068100058456,1.34200666332366,1.29931938562537,1.27687075935564,1.36551083241506,1.40688693054395,1.43576317781491,1.643880005164,1.59188044482477,1.35231414218357,1.35441937182644,1.41219000326139,1.34050016494647,1.40325032095255,1.45892000202331,1.42778014406838,1.40051115978858,1.3575027919131,1.38794618232725,1.69136999999891,1.753523975658,1.72467000239489,1.62508921779344,1.63303078220656,1.41558999881991,1.37463999587662,1.43934701555284,1.37829999514145,1.77717033101593,1.7749828636563,1.7933095368637,1.40814999629157,1.45768974260557,1.43051057601057,1.4715998570445,1.40821999596331,1.49470355131953,1.54386988717409,1.56397833298927,1.77964000440223,1.66462999815486,1.62029896318405,1.5529433327008,1.37670173117525,1.34702884824851,1.37696949023402,1.35945330829229,1.34789294745191,1.46414187378567,1.46822999895809,1.49642697312253,1.49945504826468,1.49264585902343,1.37668701883486,1.37276664769277,1.38346498295501,1.38189900862766,1.38162354853532,1.43936327179364,1.47566939952526,1.50890893958931,1.51649496009652,1.52036681706196,1.4333368250535,1.43316493883641,1.56946652965777,1.56960613304467,1.69466666876693,1.69749333547358,1.57254238494136,1.58304383150414,1.57443885082673,1.56438019383265,1.43039999915122,1.40888993320368,1.38580006583196,1.42204272962181,1.5515600029228,1.28756999914931,1.21393018811811,1.17326999632781,1.21640183215784,1.26730343315065,1.31724023976028,1.35052499991258,1.3977100329487,1.4046483529519,1.45758973804819,1.47292077882555,1.16430951181617,1.14238941802963,1.18511991932071,1.22799666692518,1.2511199970772,1.37061943948639,1.46475244181207,1.4872891672697,1.50069290446281,1.40114901464327,1.13351833286946,1.13559166611526,1.06872046359058,1.05046980419486,1.09511058692314,1.14328000084486,1.22736454228892,1.26638743865092,1.42324167105087,1.16895082723293,1.07951833137088,1.04965844643146,1.12487201513877,1.10546039891707,1.26432500309606,1.37070848184252,1.37110178560431,1.31202090039982,1.01014836667769,1.02124978748699,1.06406833278141
1.28228994820343,1.32312952531909,1.37153578917533,1.36050624979194,1.3306514568491,1.3321893236521,1.31416889204744,1.40514223695057,1.5626400058456,1.45315916268136,1.42824023984902,1.41688774614792,1.45419977059814,1.39958039481611,1.41557048958381,1.43059147487189,1.53740278134344,1.54356774250576,1.52979163938801,1.53072155810659,1.52961822747067,1.56510071810643,1.58589783073763,1.55420030218036,1.59924992544061,1.64500999959943,1.76776344537472,1.75625141146833,1.8885200058456,1.77078411464462,1.85862983715702,1.79077188569854,1.73346551891306,1.80230975254688,1.81179093538914,1.81330688897876,1.89982935523446,1.87669866171092,1.91146424030465,1.88091258165517,1.91378017248785,1.93701913646967,1.8203399990292,1.47268999881032,1.4648605288108,1.4443064506494,1.45369958281003,1.49132975962738,1.54536943396737,1.5411064434561,1.58210046296072,1.60195995027759,1.55107833133982,1.55415166437379,1.34327333041511,1.32654734201616,1.32746252557475,1.34708018784175,1.40611354586403,1.42179867363784,1.5719900029228,1.40346998531091,1.35066460294048,1.36583082994285,1.37166105299133,1.31772013347251,1.37490080656596,1.35822014035313,1.33647039836959,1.35068942124244,1.36621724015476,1.38793327821713,1.51464982711359,1.66627999226377,1.63938612197922,1.37839821473201,1.3779033000732,1.36478957451962,1.48228865801355,1.50000988289787,1.50220989651954,1.49304043847061,1.4002999941544,1.58485000205582,1.54040000251448,1.4086462380667,1.40810202384336,1.41788005687594,1.4714603747072,1.49423290135987,1.52150011408467,1.56529166657138,1.75231000327229,1.6989101023559,1.62922139196703,1.58830937866276,1.40915000089034,1.32626940059599,1.33592211104593,1.35537125747175,1.36043556722005,1.43326999956086,1.51200805959169,1.54448936241078,1.50007572020093,1.43425752422393,1.44966185486826,1.37496012882484,1.38051538914281,1.39607981256898,1.41320018354202,1.41271936100601,1.44728896236672,1.45381105060168,1.53311975634139,1.49978063305785,1.45416188222916,1.46061844982146,1.59564992777057,1.57059573388392,1.57141163433534,1.4561999941544,1.58758997183767,1.59833828699091,1.60921000479747,1.59052887831495,1.38836999823846,1.37114000032875,1.33626101498769,1.328512188791,1.31856418621237,1.32143835782836,1.23613884718295,1.21702068068158,1.23703915834361,1.2815696614859,1.309599652016,1.35074499961543,1.38606820825448,1.38426118221689,1.38245198623331,1.30173,1.13756210185352,1.15707136693868,1.18379898974704,1.22990333325052,1.34045959867819,1.35020069141346,1.46522861609659,1.47524309976135,1.46280050087261,1.37502003862819,1.3371300029228,1.06739488353974,1.06955281458969,1.07011792382555,1.11107984070862,1.17057166469231,1.25168666587645,1.28761939613017,1.34740020510614,1.17939033477742,1.11379857108954,1.07449202910907,1.10020087027169,1.11557688607355,1.1898899998908,1.39792335755179,1.37708915116423,1.38395267301206,1.39562127289309,1.01757183402958,1.0665016661554
1.2682041303401,1.32759994621437,1.35230000208584,1.30147230717079,1.29125368609988,1.31637032232934,1.32189137007357,1.44331000030905,1.47194829189961,1.45394760650488,1.45367336528666,1.41911335953795,1.41914444280752,1.42218136389876,1.39675090748873,1.42079836796026,1.56585948564085,1.54462812879491,1.54400204378049,1.5452234613249,1.58607000197317,1.62433973988839,1.57426097321178,1.55480373782635,1.54418821430568,1.74693659555919,1.7580838496971,1.78845000037429,1.81882554581348,1.79379642739548,1.84507016787478,1.77976075815318,1.72705261690214,1.76228999838917,1.8555492444456,1.82506022064355,1.87596244657104,1.8768150746676,1.92276646674517,1.88111073915375,1.92760243334549,1.87982999863733,1.84521999919225,1.51230000108506,1.46453779561865,1.46718234939441,1.47621124682463,1.46783011859565,1.48976000886099,1.53662187297763,1.52177587774754,1.51964512871599,1.60327050587026,1.63371996859692,1.36462999847855,1.34660552382683,1.31315963098029,1.2951305560175,1.34449145689714,1.32203402706428,1.2947102854324,1.3918068790957,1.3893135047972,1.40924176020205,1.40239777280191,1.37866032591221,1.36391854306946,1.32599076165453,1.31510912243981,1.33790542571487,1.36815953383791,1.37070037409845,1.53053017288641,1.63081016903146,1.64153371964835,1.44359,1.33633999738824,1.37159921273262,1.52239000406528,1.50909703919948,1.51440930654177,1.51439967769148,1.51803010510787,1.55015000055833,1.49665999957307,1.41222387585585,1.40007097797868,1.43976628758576,1.48221683480382,1.49213229903637,1.49607016235404,1.59883000162928,1.71076314087245,1.71692675640396,1.69276052590048,1.59949062344834,1.36108999785119,1.29899401230659,1.33406536872936,1.35232727826482,1.35427253551498,1.41331064091011,1.50794194437688,1.52381041874433,1.51258160590549,1.46800957724029,1.45360013951718,1.46689877229178,1.46607269156899,1.46175383225513,1.46655744933102,1.66818720782791,1.66791612402411,1.67830616894832,1.44718999477001,1.52242976781249,1.46758983665788,1.47874953492549,1.54908427614602,1.54785772072468,1.54628735761303,1.63071982214696,1.6089259343872,1.60897683236364,1.61555168026313,1.58920871289911,1.37015992234055,1.29876109168259,1.29924854006714,1.32612838249703,1.31829582100051,1.27544999818582,1.2416178239159,1.24695210238122,1.20177048487954,1.25776027644455,1.29372010799488,1.32887443694778,1.33033526907339,1.37329734297271,1.45169000581493,1.25093767015897,1.14159537096521,1.17513902872494,1.17971811287514,1.17498364533799,1.3224804047373,1.36835984262183,1.5327200058456,1.48060694858338,1.49235822159163,1.41234000155264,1.28032,1.09172888367654,1.0755121584292,1.06699432319611,1.12643169622129,1.1662983317148,1.25023333285338,1.31001736693619,1.35493979909967,1.24064,1.11655977366283,1.06189867524767,1.15615999927711,1.11076987154169,1.19092999956198,1.39609616522318,1.41283006632262,1.40362363345934,1.39091141699234,1.38416971578828,1.14772022696898
1.25760740096027,1.29523991083559,1.30959547745838,1.30935685947743,1.28976691947949,1.30732852813194,1.32833119386363,1.5361600058456,1.47374161591637,1.43750367514527,1.42835807189775,1.48809000271669,1.41278766834362,1.4547534473975,1.41244183112941,1.47233000141288,1.61661939328806,1.59948035742065,1.54643376977321,1.54552085111353,1.544928680783,1.60616021086718,1.62529957544011,1.59319013591595,1.61165941413266,1.75121163104266,1.77018153662272,1.81631909507239,1.82136496534749,1.789917731957,1.82785000382052,1.78169795691102,1.77970939520016,1.80666557609849,1.83673483628262,1.83832344244356,1.87599517396624,1.88314910509291,1.92984401497982,1.87865128778412,1.9097500593944,1.9866600058456,1.88291999980749,1.47071908064057,1.46645451818717,1.46475833826065,1.49618940829732,1.57463454521568,1.53378102297244,1.54307770659424,1.6679200058456,1.55476999764814,1.62753928635812,1.43304999769789,1.39899000054637,1.34174499866908,1.37567147853981,1.32826378694328,1.33477908255669,1.30779466142466,1.29109971310259,1.25682110078861,1.25782886452633,1.30263999977075,1.37708010260661,1.31584999531775,1.40545992251395,1.31272970364568,1.29717988702378,1.2918983058776,1.28561491005952,1.40268348302146,1.40261673454494,1.46077999898247,1.7046100058456,1.5169699007316,1.36844134022227,1.39473960351813,1.4270265035344,1.42736864840994,1.39092999916038,1.49552049406896,1.6696400058456,1.58456958518462,1.46115999791245,1.396155535616,1.39575243606855,1.43679298915177,1.48403688149946,1.48876712410763,1.50924032248787,1.5228899968817,1.9071200058456,1.8173300029228,1.70889947740624,1.55883999969502,1.4983400029228,1.29874739832855,1.32712288501774,1.34078309343122,1.34326422208559,1.4189490295943,1.44544166520527,1.6139400058456,1.50250876006598,1.44299276679203,1.43725931694923,1.38619713986245,1.38264742551216,1.45746727992584,1.46843250407,1.59966,1.66857345995508,1.67794705243635,1.56554032291536,1.49109998450455,1.44083057871438,1.50990952299737,1.52964078620669,1.54840362393986,1.54719927659623,1.65109000216457,1.60449024318031,1.6038979306395,1.59141129118691,1.5824825713545,1.35527007738289,1.31246955640097,1.3182305884865,1.32892576469082,1.43736692898616,1.43715354164768,1.456839447357,1.22606364952607,1.22518606093172,1.27627773745473,1.21722142559706,1.33107074767827,1.34956956119632,1.363228210151,1.34477017224654,1.25821232910125,1.1361782001455,1.13690838756292,1.13717254467023,1.25169000523278,1.16809999704221,1.12711912101618,1.13545087025035,1.19045772777497,1.12890999596849,1.10960500972131,1.10818500743753,1.1026405456144,1.07211500452318,1.11338800876403,1.11700855158168,1.22327333300124,1.4744900058456,1.34121336345599,1.30607999906412,1.29231000291992,1.11283165585233,1.06990958834789,1.10154827955972,1.09921166426392,1.15102020658662,1.2006099970772,1.43286351561936,1.43079246737995,1.43246928208358,1.43392849340089,1.13980041899223
1.27834705363077,1.2815582064678,1.34847586644862,1.30703533913689,1.28964002888641,1.32346946755376,1.35989000012668,1.42270927500786,1.42370102667338,1.43658128319415,1.4471883213884,1.45009018286508,1.41291651998007,1.45232675779589,1.41863505001625,1.43164816350825,1.53819,1.58481548542812,1.58508826671027,1.57815151371519,1.55152864233657,1.59624100783985,1.5954891178051,1.56696944161409,1.59260033010205,1.75359354544796,1.75459845476474,1.79687039791852,1.87869000565883,1.77114241399724,1.74851137495324,1.75507178173999,1.70531741896079,1.80899637274346,1.83812042449798,1.83621908327848,1.87603174891454,1.917249614194,1.89983010022003,1.87481371219889,1.89965626981749,1.90072594414523,1.84562999956937,1.44883981537312,1.42660002739333,1.5888300058456,1.49570077241406,1.57173518304638,1.55358807974756,1.55334888639344,1.60350398304085,1.60384002809717,1.60445607662284,1.48630000203468,1.42359653124275,1.35432878018321,1.36097916488543,1.33491236611959,1.34509726070973,1.28030406651105,1.22832308109587,1.21659013070603,1.25050073072606,1.30687999944942,1.40184000271238,1.42737000282817,1.37403989542554,1.29575336769725,1.26759776351825,1.27468762353056,1.27429091948149,1.31182999831699,1.4206297643708,1.4446400007083,1.47774042980494,1.49293968473851,1.36864834512337,1.35581028452639,1.37283992362687,1.42727467579088,1.48878999981127,1.5847600029228,1.61524000130961,1.59607039613603,1.54073833450904,1.39596170730713,1.39583572300499,1.43611333079951,1.46832021360172,1.47892396926593,1.52334982102953,1.60975986566732,1.63712051680948,1.7211100029228,1.58098005763292,1.53373000044807,1.33402999967266,1.29117300847937,1.33783346227698,1.33966299874372,1.35525172546328,1.40244032794547,1.44716833187193,1.53059,1.49203089505137,1.44284772730966,1.41913000414035,1.3848954271278,1.44081797227671,1.45218713050464,1.45838959377854,1.51018999887332,1.62758949399419,1.64837171630971,1.57602967737875,1.46937419639375,1.47004259811224,1.49232018693676,1.54177054821892,1.54965107413342,1.5670417276139,1.68243013137727,1.63076999970801,1.59172336225943,1.59094265204327,1.64441000435189,1.33830000081371,1.29627049742236,1.3436389883731,1.33140615663626,1.3819800004939,1.40650000206966,1.43528009286791,1.21940376102282,1.24110919775505,1.27912649405544,1.21742713995514,1.22106142548244,1.43694000471526,1.38846905776766,1.4887000058456,1.22621077072754,1.19153278778253,1.1370066676574,1.18383999700427,1.17863999790295,1.26313333479473,1.37497000191901,1.422920002857,1.38190805428156,1.34329999906653,1.38531000180148,1.12930997702546,1.05871042618749,1.08458875876392,1.12263131076525,1.15736022520007,1.22612666632518,1.35633622232689,1.36158822125586,1.36712437922024,1.23659,1.06547091438589,1.09914995780046,1.08589398120195,1.13684999970474,1.17196979223491,1.3712600029228,1.42557558830865,1.42811848376908,1.42759427909068,1.36079047305292,1.12801434845309
1.31343754747081,1.34817022942573,1.34543528949265,1.31690879700879,1.32038200338313,1.29655147578106,1.31302002208455,1.32432962549407,1.34967999635267,1.40220907122899,1.3464899949992,1.44777289372248,1.41548076714351,1.47613979969954,1.41252276658533,1.44511219005814,1.47543054387386,1.63699576392643,1.59047194897823,1.58104930880922,1.58855289706826,1.57580862088084,1.58846175565109,1.56816116512429,1.64371005960621,1.73022033187022,1.74341845469783,1.74213174115016,1.79981000275248,1.7711690318312,1.77367957103024,1.70984762958087,1.70690492185564,1.79739846290219,1.83939298414505,1.83785107670789,1.88096863136159,1.89061097755887,1.89114323215942,1.87092166083459,1.90045357751327,1.90464594998073,1.91210953940125,1.43785575583692,1.39055000257198,1.45855999893746,1.51263555123623,1.51082200770428,1.55337674434163,1.55323225033312,1.55382886900659,1.55728169891729,1.59374016653765,1.4323392754172,1.42570501030913,1.44412962625712,1.40144966987012,1.33202658819943,1.23092477083671,1.22896537467969,1.23122586424752,1.19803999893641,1.24735930123141,1.28194000077984,1.30703626000628,1.38910000235261,1.36057018795798,1.29812671019074,1.2655448089014,1.27394103946675,1.27211173803819,1.35240000062392,1.40109211739617,1.38808788303912,1.53599940903656,1.51607614542597,1.4539100029228,1.33730808233031,1.37079990443182,1.42697141159714,1.45050000018873,1.49850350090406,1.57762857978162,1.57779773411376,1.54141166786025,1.39310100552943,1.42544947197448,1.43604677044467,1.46756022888273,1.47468315931587,1.52688964512571,1.59649013725548,1.66062469800256,1.65320788536003,1.60417993963944,1.45919,1.36597974460003,1.28404484878506,1.31236991492509,1.33662650793725,1.34859864861627,1.45257166680599,1.51303198449398,1.63019000419943,1.49167950878653,1.43021266154577,1.3830899987348,1.34524340595475,1.41200065699258,1.43978097963137,1.44345486804548,1.48163999856789,1.63055896914819,1.63858982310782,1.60729999988074,1.47080293041715,1.44023403580443,1.47946029089656,1.55545944401109,1.55090997744462,1.56620268992531,1.69590965692028,1.66863000091642,1.64935953196564,1.59978126342406,1.56570978253143,1.3022200003056,1.24578612876319,1.29306977128483,1.3248194068502,1.34030991808669,1.39554999808681,1.31055999549419,1.21414818047296,1.2153602898035,1.27726572686967,1.32037000457178,1.18468999624187,1.2109699958833,1.27025191515487,1.21224487747852,1.22244434791533,1.19908721497961,1.139111378994,1.15790950536764,1.21272103884407,1.26302666812807,1.32731999808099,1.52364408482486,1.52011782592632,1.53144939452129,1.45610924123351,1.3787000029228,1.15002000285966,1.0782311425462,1.0961047083932,1.17001977557321,1.19568000067358,1.44883177819736,1.44348952947168,1.45197940551095,1.10845999743015,1.08849982888087,1.08926091267468,1.09783200982803,1.17456101705855,1.19747945711834,1.23604999841043,1.3967805808398,1.39800372869595,1.39806524352494,1.37769952710055,1.19852000179986
1.53581167105087,1.53461833771753,1.33116928181987,1.32740039685387,1.31908180173693,1.33685943129003,1.34971788086027,1.37845877289901,1.50599001928727,1.506362144347,1.52404951871208,1.47111184432259,1.4187735125033,1.40609328691525,1.39909667617475,1.43330837691206,1.49928945487689,1.63282373112716,1.58511816882424,1.5757134428034,1.55922919599552,1.54792900809561,1.54637952207545,1.63318000306259,1.66142870330145,1.6828498285716,1.68386739326431,1.77924969773015,1.70373182797184,1.70351552100748,1.70016058628308,1.69831023083104,1.68844900026693,1.81205959073473,1.84134875698485,2.0111100058456,1.89337126864863,1.89733243058086,1.89768028837563,1.86835351292051,1.90764737549869,1.91944184965695,1.7684599970772,1.44065015487051,1.42379008418458,1.4356992596948,1.51320867377963,1.51211358203158,1.55983160893716,1.57986468628749,1.58783154893142,1.56003728720176,1.56068632156428,1.41876861870309,1.49902285909027,1.50053257337766,1.38269033154671,1.3301651180862,1.29431925097625,1.22293186365786,1.20930977257501,1.15475000193355,1.20186055583767,1.21164984160245,1.31420252720152,1.35800000267317,1.25666878070819,1.25452185850712,1.3078024719764,1.2925258121046,1.31356668940945,1.31538265643483,1.34102968123901,1.36294333271383,1.51107567539637,1.51357876618718,1.37708999913346,1.34991219012525,1.42574956338239,1.42652744759476,1.53031970208473,1.49859679923818,1.57961371159503,1.54439004168761,1.49601999833085,1.40286786479378,1.41033433846396,1.39369882104183,1.44253925535056,1.44975230523546,1.46205996379353,1.5478499994771,1.65898830753223,1.65205847459652,1.64399012459195,1.36354186841682,1.35923553472082,1.29707857945587,1.28674229182158,1.32860938747214,1.32916720635438,1.45421833379961,1.50627985053887,1.59667781514482,1.5063000547901,1.42330766894127,1.34493155154815,1.34377569236115,1.41288936630814,1.43824432980518,1.43736621543637,1.5363200023978,1.68285963253162,1.66423984031145,1.64822025997807,1.53711000163194,1.44312609260323,1.42194167140863,1.53172085748187,1.54473496935569,1.64738847499413,1.67127174947268,1.63009440979749,1.6313055660513,1.62443046366812,1.55294021745614,1.30569999996795,1.24587319905212,1.28045022587508,1.31946008717559,1.37698439676299,1.37208466782833,1.28895869235015,1.26685000189298,1.2088395887137,1.21520137758118,1.25358999781138,1.46900522401124,1.46888927053986,1.47833295653395,1.49281533312692,1.19311960223796,1.15841878463006,1.13937890568576,1.13994979539372,1.21335071499958,1.19987555727495,1.49262000383159,1.50389069449591,1.5177365631733,1.53453344994181,1.46425076145635,1.1331199975278,1.09104699516602,1.09092736368283,1.09844475107136,1.19170000009152,1.26269089330039,1.43785064533455,1.44006616489925,1.45782074496605,1.16099993376881,1.06670977565949,1.09724470040874,1.12984999934934,1.17990061374595,1.17884914556806,1.27825000158957,1.41191176465016,1.38792080029464,1.37897089076806,1.42669000322149,1.1620316656506
1.32285998571652,1.33954809467291,1.36810439057077,1.36212537719376,1.31757276062425,1.31771231504358,1.35427481982381,1.38391665489432,1.50557241051686,1.50654840902101,1.50749900998441,1.46318852469937,1.4408399971422,1.38497888889425,1.39458827845592,1.42679058112019,1.46185999832652,1.64169041622919,1.61348999796456,1.57298279369964,1.57045172357946,1.53859861648701,1.54968366134116,1.57531999960672,1.67041124112881,1.69524191962302,1.6847504548415,1.65378890563681,1.68007152180271,1.68709750101109,1.62397032373961,1.62600973671011,1.66965003573445,1.84361470004436,1.83982483068511,1.89148999901782,1.85031000156317,1.88668312528816,1.89630879191164,1.86661559997206,1.90091951270901,1.87948085106484,1.87933994197043,1.44321282635531,1.41005035794629,1.42317818405049,1.48138894031966,1.59499293516951,1.58956680716297,1.5916455956184,1.59398754539553,1.60294224666951,1.63139133252076,1.42968093171941,1.50124457337766,1.5742100058456,1.41359000055424,1.3300839890879,1.30008073188723,1.21981070812594,1.18922344458617,1.1893046859022,1.21847844141129,1.24818999917026,1.31443120836187,1.28580000165262,1.25660099890243,1.24430763702153,1.26015710629935,1.28310188587107,1.33955957212378,1.31992996543694,1.32205554060539,1.36399666571024,1.40593999959538,1.48879000329286,1.37548999881554,1.32321666479626,1.41156667704604,1.41124546405131,1.41171258848133,1.47541973992288,1.61741000451839,1.55057219384927,1.55043781011114,1.41666060570013,1.39682965702451,1.44310698199232,1.44096401208884,1.44204117815737,1.44158830074984,1.5205499174968,1.73486400389651,1.73544000389819,1.66509993023432,1.35376986729303,1.35429298033117,1.30889052179123,1.29756980525314,1.32885100258601,1.32966717779564,1.49962287925779,1.49584528802656,1.60354218989347,1.52412951597133,1.4541596679216,1.36165341446229,1.36141467322882,1.40925017134802,1.43892890184303,1.44043461501865,1.4918100001645,1.53886999879388,1.6760202758014,1.71163000468982,1.50100987503621,1.45766868629604,1.42623423086103,1.40242037598004,1.4967297372687,1.65723152893435,1.67896824661007,1.66881022331654,1.64571039356492,1.61294961683435,1.3389199970772,1.24382800313192,1.24410125891902,1.25086036679079,1.31574102525685,1.34415955406958,1.3835109375157,1.29801130923463,1.21410985226092,1.20205785991838,1.23533950370605,1.3277100029228,1.49297868249133,1.48557661437489,1.48083547965946,1.49156845210275,1.2060816878898,1.17130484956382,1.12964792548946,1.13107003917401,1.20167052694695,1.1986121567156,1.23655999803087,1.54051962941641,1.51599541017315,1.50023856526629,1.42648000023295,1.18209666791004,1.09071685927395,1.07185073552199,1.13139956281215,1.22383000177199,1.25130415673909,1.34100000058599,1.36934241970132,1.47048000965488,1.13686983500101,1.073431489444,1.08935024998297,1.10125144588931,1.14021734175314,1.17869976768041,1.22483382149666,1.38898831238398,1.38278236786027,1.37833582106927,1.38052227070259,1.16055887384473
