1.52843331066478,1.5269266439847,1.37825465884546,1.34888507691145,1.33761638741735,1.34052985556049,1.81713997360105,1.83680426807993,1.72519725972614,1.70113795171912,1.70093772730123,1.64662510908081,1.65060499554336,1.361617361617,1.3557168399293,1.34452054980629,1.43047,1.55727999997907,1.38272999395168,1.3626824777388,1.35770237973017,1.40400001500228,1.26400502634025,1.23713833046741,1.00108859489708,0.966430984939198,0.950140270830634,0.960670241939896,0.986638484213002,1.0180599757824,1.05195002037776,0.884532140640312,0.845508065387242,0.80392419207414,0.803715515122085,0.79865614953123,0.821092011538056,0.93171662521599,0.89090142225452,0.86140745017982,0.862853170994454,0.858311298163366,0.859486089072871,0.85905881638005,0.842576481573921,1.21959000001046,1.29071242191528,1.01517619758371,0.996710957506187,1.07515155165796,1.20962500031141,1.29553272574267,1.31613926849985,1.30551827674181,1.35756000414729,1.37170245342471,1.41547807282572,1.04052002807022,0.991688099026064,0.991276765590172,1.03942480206065,1.08432998185071,1.35480011579448,1.36077747152289,1.37994221063862,1.39296181243323,1.3934084791576,1.37276245804694,1.01765857202006,0.97332348870745,0.975325402162316,1.03044100806443,1.08693793548969,1.06766080309525,1.06874784917596,1.38912999997907,1.26803998864329,1.26835998862028,1.05769997928859,0.85670904162953,0.919155017351456,0.945118164594215,0.939937447292155,0.975063979935771,1.04234334563148,1.04019667893968,0.847822231054281,0.834160301596177,0.832747283832059,0.860900345857119,0.881794003904931,0.907350828395733,0.936878557241835,0.974907204131218,0.85803746673708,0.824418699014482,0.835092352756256,0.87140783525988,0.907505596712967,0.949015533091529,0.913488963137757,0.837311597994488,0.843086902757657,0.843855074649678,0.936744132416977,0.91160166809959,0.855823087941251,0.862765901136553,1.1018533333281,1.10206666666143,1.04646996849036,1.00546483539079,0.998733016663839,0.837617918529623,0.825120995574643,0.812892593896594,0.835446957151051,0.8876214790798,0.939965025113417,1.00608767451635,1.16327998832592,0.754503532877006,0.753928389762482,0.743061786157546,0.783004795557594,0.809469033798567,0.881714510122007,1.07659999998954,1.11161999998954,1.01300080830305,1.00595918890874,0.970845977431444,1.06091999997907,0.696062333004479,0.639559227145631,0.639209163884401,0.752884036226577,0.761689739968326,0.812357920762258,0.783831348375813,0.67158293255258,0.672232425871714,0.699888102184464,0.704780945250623,0.698050790924357,0.703943429792404,0.729202688523954,0.60923975045151,0.609877180064794,0.611198548094317,0.623027129859201,0.661242897992964,0.786483726652003,0.786264580398644,0.791223315702652,0.792703504302784,0.53978836272632,0.539794106916236,0.525404567106836,0.575533227244447,0.610083876783136,0.683803325270827,0.667820275818859,0.670160553035767,0.869062365903253,0.884606634065356,0.60813946446596,0.610329464437397,0.643451674927272,0.660021129787445,0.538317315785377,0.494236976163737
1.60307996766224,1.56598002924817,1.36040651245816,1.37386690825171,1.34652755044824,1.41219002128651,1.70601,1.85388575827716,1.22936166668236,1.22964833334903,1.72162431340916,1.67584003957947,1.47449999984112,1.38625001180922,1.3507566247562,1.36095328393322,1.59253999997907,1.38964757535403,1.42594368354158,1.42574139112904,1.3516026989029,1.48814999989933,1.27352497940667,1.2344916638066,1.00146163340599,1.0168298244541,0.957663041048339,0.970691432939981,0.964141619426869,1.06157000365978,1.35726999997907,1.19806001721714,0.818172302340135,0.780523808357245,0.802072757595137,0.870615061458051,0.870908231907592,0.909130324611563,0.847260568594224,0.851709235897862,0.826309310339261,0.873767512330683,0.883037216962245,1.03253689362717,1.32186259407147,1.29776263445826,1.2960623576484,1.0215636214042,0.989898591712037,1.08304843474532,1.1909856099951,1.25473499394414,1.34858411377872,1.31380398922593,1.3598933377905,1.37684911911549,1.35807505307058,1.01901222124138,1.01490735171609,1.01363076854242,1.12942,1.31229100128102,1.34055020247218,1.34651147982327,1.34702611310951,1.35053487293684,1.43995001931618,1.31489999991818,1.01474259751368,1.01492356388415,0.948881108172146,0.990888961717943,1.09271342190085,1.16661153772342,1.16394419132373,1.11965996692505,1.04298000001046,0.885557000020928,1.10776002071141,0.904668056699828,0.869616318287662,0.869869651651877,0.952970535403299,0.805841982202299,0.804569982165565,0.835999046876542,0.791337402902678,0.80733307680994,0.813214781211145,0.833971066652365,0.897573034864998,0.923744951377145,0.954060857604765,0.95608614719977,0.857548731930296,0.813238922091012,0.821801919519915,0.883225893665575,0.882062742851692,0.968659088818312,0.970586243256974,0.828702365511131,0.863765068522114,0.843740292887326,0.88323436204023,0.862584584622785,0.99569790299199,0.999763100518652,1.25627186109319,1.25671985913715,1.2580478614134,1.22342996373068,0.836514719523376,0.838265464591286,0.810408884541869,0.850363415298912,0.867134684617722,0.896655975039496,1.16752118255397,1.16966110156602,1.18723626867569,0.819781,0.721599883511174,0.723024043336924,0.767719826280945,0.781553848142368,0.836250568855191,1.02353999941749,1.06509503315248,1.05832214432435,0.688566301105507,0.690149587295132,0.690439282093016,0.711114072486715,0.68382953849837,0.644518674057125,0.765442375306291,0.740305679899121,0.80274711602878,0.745624989324889,0.672854011195573,0.642453564568957,0.683987328923824,0.689101237165548,0.73181316185114,0.744445958957617,0.741447857064014,0.741940763775235,0.610362485191903,0.611228362323601,0.631842074158212,0.644727855960347,0.740428891738219,0.76625684303057,0.766848177365685,0.849120066754314,0.85193606641817,0.580113819171411,0.538472727119134,0.583941800466712,0.593467218498189,0.595977265699584,0.634828019487982,0.569542000020927,0.672998494075008,0.670618550366662,0.66244302418761,0.573643846603977,0.588643304398487,0.535502916163248,0.537280873040496,0.544360907206243
1.63320896545574,1.44607171822746,1.40265267919936,1.38630498318774,1.35860075810691,1.36051406301589,1.68872999998954,1.24875000021645,1.69258526005128,1.71299966628233,1.68895393932179,1.63535853615521,1.40404353885906,1.40557687219837,1.38131885224235,1.43461895668106,1.42325489245544,1.57168999997907,1.42331739146509,1.36580385852385,1.36016170895394,1.39978762145277,1.37371977633249,1.32271595042652,1.03307000001069,1.12256998985609,0.976839982615688,0.949220216263596,0.946123068477953,1.00806000000002,1.16889499138976,1.16939499137217,0.805073346753828,0.767781661309226,0.770804434846696,0.829477499002389,0.881342740024999,0.898044649490362,0.896056743104854,0.816226528347167,0.778879874589953,0.81094408528909,0.915413038031769,1.02534310636236,1.26855194083835,1.25974944727217,1.22680796632443,1.00239806468183,1.01565675739428,1.03339313664732,0.818243000020928,1.25715499395634,1.31303247236499,1.31580682890846,1.31710259010846,1.35688255258394,1.33585742967977,1.00450409621621,0.975524112218137,0.993554249058469,1.19502999998954,1.29936069020777,1.33463650410764,1.37348138434175,1.35515783642509,1.32394930792472,1.3245426416076,1.27465001528421,1.03169492717119,0.969775487627738,0.947231741073776,1.03936022756011,1.053510845166,1.05306062370942,1.16445969201804,1.18207564522896,1.18151580919484,1.1717798304616,1.17151332705113,0.826945034655576,0.819380438053164,0.820686572229757,0.825965929734122,0.940537983324949,1.00789064676198,1.03967707690933,1.04875660211937,0.833710485943371,0.81510488033876,0.81534423325775,0.865899116001181,0.888597583533013,0.905333662696138,0.935712298625431,1.00828999997779,0.839479169750012,0.840594874694343,0.871004228370983,0.935237013802693,0.947787359558202,0.98144710414675,0.867188248782212,0.840039312076898,0.914179620106901,0.912921406523049,0.915692189766447,0.926456835086652,0.956563110185931,0.956562402805002,1.2803493972383,1.28355343541055,1.25292001586742,0.7958615571395,0.796291563076298,0.788262331987996,0.859836427101805,0.880698873276593,0.899840393715659,1.18692484969092,1.19486040372094,1.19428032704766,0.906658852496254,0.759960490872121,0.730072300959832,0.797662901398395,0.797419173162299,0.846914366094525,0.723613727162171,0.70526527286922,1.08435284845193,0.689678030015224,0.691421744766834,0.691782759061722,0.624295941773126,0.659497179977614,0.679163347161642,0.675994366489508,0.770056645097569,0.666357837640719,0.719342539421922,0.719424539427801,0.649254833890817,0.658404450973829,0.714903750095779,0.689208993357936,0.71401349623943,0.749119175514682,0.742550070552848,0.624108554409965,0.612955597242518,0.638048479702783,0.686875869169978,0.735128795014434,0.734875038602961,0.860206033574,0.808289365148603,0.832062894203398,0.549857944058319,0.571197286486278,0.585658179571593,0.602244811054804,0.797117166650971,0.797593833317638,0.669649964256997,0.692229140115066,0.694138309585834,0.626342992427098,0.582416491702415,0.514394978546469,0.607329645402754,0.611404873699012,0.669160143526947
1.5141538394092,1.45523791657752,1.39942487302316,1.39513707551083,1.39986669133424,1.4095082754792,1.4223314477097,1.43413447360359,1.68580039948039,1.68429572752376,1.68456215599187,1.63355022315732,1.42886567207293,1.42169227652168,1.42761817974556,1.4348952405085,1.43991304790163,1.44739975768365,1.44211738959155,1.44010377616874,1.42974466026049,1.41259968673849,1.39103017527659,1.32692303869558,1.16371931639647,1.13380615884129,1.00726310982896,0.95085688890167,0.95062333481611,0.950723295952064,0.941204398302305,0.921005144422581,0.800522039158323,0.779324111207067,0.775968886457318,0.811906997303236,0.870487191061819,0.88033964907538,0.849939347698091,0.81346596878219,0.80857347890075,0.810602262181021,0.87321012227414,0.92581374556392,0.957941867771082,1.25445622623401,1.24522069457134,1.00211605919528,0.997879335762988,0.990274930708036,0.882930705654154,1.10171455001001,1.10920120675271,1.11338311971531,1.31667815378907,1.31800072003232,1.06204789502565,0.990313260640389,0.98359266125423,0.987938766815265,1.038012214997,1.29644330096596,1.35085649415873,1.35971351261086,1.32955058268134,1.31441816370267,1.30588057467472,1.2533713580112,1.00686422172509,0.967825205468161,0.965764134746049,1.03969748522538,1.04897923678319,0.988977662138848,0.961132572363066,0.937414450077941,0.920734867241684,0.908374379253616,0.898609804424999,0.891445677731438,0.8800311353617,0.869909326621387,0.896596080022569,0.963128679520204,1.01339912810112,1.02681205888832,0.929448216399115,0.86041526560115,0.815531402702332,0.814745196160699,0.849255200117134,0.880173360560731,0.895783827593618,0.900400533907697,0.906941890642223,0.839471078910867,0.839959862091872,0.852291209736735,0.892740597164703,0.951925576771991,0.971132540118001,0.858015886875681,0.851013926336581,0.894509272284305,0.899855174143622,0.90517828293972,0.923344413162328,0.93617642278615,0.963056154248191,1.28113519981248,1.28311953578565,0.860569059776999,0.803104671054026,0.798166385697727,0.799318283080105,0.865804120953251,0.880251436785902,0.889566970248258,1.18835312866374,1.18916243632498,1.18385201695725,0.923645057102755,0.771640675559859,0.773337639361107,0.778726293081866,0.806821159569406,0.858077350044747,0.866753674540791,0.891769817442293,0.920799785060238,0.774945873121177,0.742655898409087,0.690677804647902,0.670916558413563,0.665760177100785,0.668668502223972,0.679831368812359,0.681717651127126,0.673331492158363,0.661944947607938,0.657912246559023,0.651924626541405,0.654843089819342,0.698353128661817,0.700388714502377,0.718183699202886,0.722902283646432,0.726876676139741,0.669192541859146,0.636315443105008,0.646652779584634,0.703374926695472,0.735496532138686,0.735357001679537,0.801446880931238,0.80818906390327,0.815705412591872,0.556471189098373,0.561709753202339,0.579959214398605,0.595013436634091,0.636987069117264,0.656238140041586,0.680848257052032,0.683912322867528,0.688286640269124,0.598367452204351,0.580074786482984,0.580139013265461,0.586036193177607,0.630006363162708,0.641709914559043
1.49122821088966,1.46225813691132,1.37440634668084,1.37467269072656,1.40443210746095,1.77603999997907,1.27067998382242,1.81363999560648,1.74837,1.69043987439122,1.65165288790974,1.63087853539148,1.44101294875707,1.40327746657107,1.44535965412219,1.43458217784281,1.55733999998954,1.45771315262072,1.52969002758592,1.5125910169536,1.4961815431469,1.48924741227172,1.42961001032596,1.33429954639018,1.35445567451458,1.23705,1.04120451503771,0.953067678165376,0.974595651338905,0.950780617987375,0.920443960543873,0.874537996851415,0.796766613820741,0.784087238162136,0.754709946987943,0.78631118665974,0.84906749073384,0.898888920389357,0.827115311794334,0.792256824970516,0.806952403420018,0.811807998276304,0.835814036413071,0.891920296303012,0.916407026449148,1.26251825932222,1.24765779865402,1.00207549490036,0.964530801556487,0.981889619863011,0.818561000020933,1.08879635034637,0.800362666682362,0.797525333349029,1.3127984125509,1.3165759156313,1.02965000000134,0.963932555379769,0.964588224437334,0.956835534600437,0.988819002660244,1.29337725353477,1.38885439535107,1.3915555772327,1.2890891433643,1.28865149597088,1.2885052754905,1.23292997630641,0.987918977062045,0.933080966931089,0.963166551303111,1.03980822773706,1.07945003894995,0.796551000020928,0.908041999999728,0.811995024846504,0.783233954627016,0.819226602565573,0.825160418013188,0.894844193706687,0.915331551098649,0.856809090029596,0.941098006479724,1.00365000067852,1.01931513992115,1.07492844276366,0.877992512492067,0.883270512516802,0.780241159156969,0.812488709487734,0.825004940409577,0.866028012812119,0.890586290100582,0.891289515346343,0.914988377716684,0.839003176674782,0.799918185651063,0.829982762464977,0.863433009444258,0.955329365303284,0.982634087145902,0.828912507678919,0.847761983247689,0.883593736347139,0.890643977455982,0.895351644434527,0.920304116809295,0.921117078587305,0.97021184539648,1.27918714338606,1.28506748344945,0.794302130905569,0.82345324201751,0.791551518694526,0.800905940395627,0.872948119578896,0.879985804770264,0.88078855434701,1.18938684848861,1.19041657510809,1.17752652156294,0.941088560017759,0.738498492938996,0.791239995294721,0.760525728309785,0.811481997748418,0.867109415070562,0.955518126883136,1.06697104813768,1.01503016672572,1.01089982332086,0.926212999989536,0.689797816671108,0.679730266433831,0.657800004660513,0.662491219324346,0.722486121597725,0.681259014586659,0.680719550773194,0.656918217465077,0.657726509505136,0.650637233052665,0.652129571210653,0.688232249139154,0.712232259676811,0.731823194728043,0.71919820387896,0.732258375780078,0.701481025494154,0.622307809690998,0.666699583514053,0.734164343759736,0.736227999501508,0.735947349554404,0.785559070187414,0.808611179474447,0.82249096153738,0.547385354804091,0.548654148711333,0.569621968611589,0.590017047508818,0.591006445140409,0.639305591988505,0.690896373859984,0.673168491705398,0.694756230890955,0.544992729514842,0.517513736784022,0.581144680386619,0.546729708395734,0.664504816560068,0.615432584697619
1.45691667620107,1.43809133174407,1.43889799833213,1.71416999998954,1.80426999997907,1.31878948657746,1.31223052975392,1.85889000436213,1.80214002021097,1.74602997412013,1.68964,1.59986998690932,1.45099513830634,1.4313633679469,1.44068340760627,1.64496001587357,1.6015616699278,1.60208833663367,1.55238999636513,1.41408000001046,1.36309501009497,1.3638350101156,1.34242880034694,1.28557999562536,1.11418000002093,1.36489999997907,1.01869246443919,0.95582642911742,0.956195758616164,1.08893807750511,1.06911758375606,1.09791189508233,1.0846781327244,0.776804894219234,0.766750263315665,0.790391853361048,0.876092723024342,0.854239159203441,0.828552645135121,0.793929063680067,0.808353956202752,0.799355896457983,0.800527512508445,0.876546660443648,0.874934661293514,1.26279911842534,1.26007897099839,1.21871999998954,0.98221874486511,0.991513341050968,1.01455346194764,1.00822372416973,1.25756553842452,1.30990687380974,1.32341387466502,1.30503539322862,0.787108000020928,1.02683315252782,1.00848272397943,1.02900208759501,1.04604003487572,1.39273999997907,1.29182000001046,1.41096002671699,1.49578000644753,1.45196999352108,0.781708820443638,1.02316999998954,0.79553902103276,0.763384965040635,0.79960401396846,0.950436499216659,0.950070499218409,1.09236,1.37560679319856,1.38760395094772,1.43131009235346,1.4072099393894,1.2371816666562,0.946848005855772,0.819140885741985,0.84683412155422,0.849838815092074,0.928196994454958,0.994165132894642,1.0971815903306,1.06584835028559,1.06616168365777,0.786938756635857,0.817920987217708,0.825011676125728,0.815699365630267,0.815872641835843,0.85858028158987,0.97477765983901,0.840213031712379,0.8449530324459,0.796988665350877,0.81949712851356,0.942735826803933,0.951200999780548,0.809550794246019,0.809895017743515,0.825650385042382,0.816100263175854,0.868090029045099,0.858777820156741,0.929364868482322,0.921199914086215,1.26847837349658,1.27020518391148,0.858735030507544,0.813244148638037,0.786675412886391,0.786946465448174,0.83529281113401,0.853117124226521,0.928412088515438,0.887826948395081,1.01497001463306,0.976804985356477,0.762718279596333,0.764835918751234,0.763166108282187,0.739467120347008,0.787237135451422,0.798595109485451,0.9388968731064,1.05022896178435,1.18762999997907,0.68361727488652,0.690896615316885,0.70148112964698,0.667648532273267,0.640496246891111,0.700858727840949,0.675727199137082,0.774381869155658,0.773625193167122,0.853042002146555,0.651447144330794,0.60362499339034,0.636636906455414,0.638937451252888,0.657915063714116,0.734974767531722,0.774440071187149,0.643146133745259,0.640975220319207,0.639882164238808,0.624754846269838,0.761905194656045,0.737916338817092,0.704793740471996,0.862787975305396,0.857541054828949,0.824122943825351,0.593746049389431,0.548595707673368,0.577690169180786,0.627800045846716,0.703939046058099,0.663065637354869,0.652159117179982,0.699136085210259,0.701145591162492,0.547282315336194,0.512069606028976,0.518508519474944,0.555542122712653,0.665678814873795,0.634318878021419
1.45794334286783,1.41521072510798,1.50430999998954,1.60069999998954,1.31508000002093,1.73410438894547,1.71530562169071,1.78180108536328,1.76772431557451,1.77174456208833,1.80317004260093,1.57144401588135,1.4589078970311,1.44721308281763,1.52799935609281,1.53378097484799,1.53165606422374,1.55747001340994,1.62333999995896,1.49677996273468,1.53543003722632,1.45490686797371,1.35709117389498,1.43477001911097,1.28394997744445,1.07485156988205,1.0191122555792,0.955150666260935,0.955872545823141,1.10877006178408,1.07076424913754,1.19372,1.30373729943126,0.780085267849404,0.746966266934729,0.746377722399639,0.779977984115223,0.866866381146674,0.886628120092975,0.801175047845104,0.783564020124538,0.784837008799428,0.845222106656336,0.859406742622341,0.966337610660235,1.24659091833509,1.24216332695263,0.950845169276612,0.949985835948602,0.870255989822053,1.00464007318111,1.00428277104801,1.2424252753351,1.18958994700699,1.21779002434603,1.30037212224627,1.04031175926953,1.03137025272733,0.775064592079865,0.771645965968551,0.766320008204354,1.26039999998954,0.78492990875134,0.785772335000952,0.784498541003729,0.783819885389802,0.782830761845108,0.967573572712577,0.936082239969073,0.959432289248071,0.990646354004543,0.991523096921861,1.11748616423215,1.12210383576785,1.32914826410679,1.36498926063087,1.40185999322265,1.09556000002093,1.23978833332287,0.901526003264276,0.811542447469785,0.81139656161963,0.884532024364639,0.986436083070981,0.970777660035586,1.03605917434723,1.03716899962088,1.03745345909346,0.843229640619791,0.843349837377968,0.829445194833547,0.829048539194182,0.859882430833288,0.860202017793883,0.984937719611294,0.841879032394181,0.84349650157581,0.822606657739223,0.849556650281053,0.890980731458167,1.03250684293728,1.02345510006044,0.82998972164844,0.787178161451745,0.788532364664382,0.828408003865315,0.858125168355001,0.935820340425336,0.937360887626669,1.21367166666143,1.2145583333281,0.800672777898678,0.814947152753175,0.816297244944049,0.807456396825605,0.886806984175706,0.784312422480044,0.784562421890306,0.768841690321477,0.764108907780637,0.766643703240059,0.736264700999724,0.748856280234475,0.715530354812909,0.739266452707678,0.787116004953525,0.791710992675693,0.697772000015695,0.697824000015695,0.948542042145341,1.03600999997907,0.91909057779599,0.70286987326309,0.656955091946225,0.646903377603362,0.68463099472018,0.677285656895967,0.75699697399955,0.774300516209999,0.793804429331178,0.580950977907782,0.581654977869751,0.618589935528267,0.667453342391693,0.654075796420044,0.753363295276634,0.737050276156,0.658477647203429,0.639901450031905,0.659455389211596,0.6416397804387,0.647087783112641,0.739260658897353,0.739033963404801,0.765777163806576,0.784809088492304,0.554752725606061,0.556143708165949,0.513050826438461,0.556126002186065,0.604419543305785,0.586083108355137,0.695044033549263,0.760010230268432,0.763053651768888,0.76448711794125,0.541505844679379,0.51747707467209,0.517740772884212,0.555509836553984,0.646504696037806,0.667204745300092
1.41233512981487,1.41756368313404,1.37131714270038,1.30304000015357,1.67556349788907,1.6807805008577,1.67665498868221,1.72552493316468,1.71547988118361,1.68334500737241,1.67870281249112,1.55963429019497,1.5374042750744,1.48250997056638,1.63475999997907,1.54264199522851,1.54274678205459,1.51420616825674,1.55415804195781,1.43240915420507,1.43085570345895,1.46445844294997,1.44798467425122,1.37406528777694,1.3097538453438,1.06596541503476,1.0319506144403,0.984528987118955,1.25261607710488,1.25169914857695,1.2465539432525,1.24663980542709,1.31204270035277,0.801461292609094,0.75450993584804,0.753982944287789,0.827363076550737,0.846790987850427,0.865603747276095,0.830086481279705,0.770266116151409,0.810522330810488,0.818895251156064,0.872438598742515,0.963923783902857,0.984818730748223,1.2444496893736,1.24149717794017,0.902305996722824,0.870583767719226,0.897099846487535,0.939628019675731,1.24764895586472,1.36132001753495,1.32065002394223,1.29976200188465,1.10198999998954,1.06536002045429,0.997556999989536,0.774058483646439,0.734447950153109,0.793537445909648,0.785209055566376,0.786321909961102,0.784052336212007,1.50670999997907,0.9871810180364,0.969833105535637,0.912395563948004,0.956972419906536,0.991537776220576,0.996466340614744,1.37602390268659,1.3850561219178,1.34407171142527,1.14392996718704,1.16949003295727,1.3549600081353,1.08209997104629,0.864091511229446,0.830086993407046,0.877056250691946,0.926446662533604,0.985799996862541,0.970786715452176,1.03551937475199,1.03652383454681,1.03632509049794,0.858018498398366,0.77956195906245,0.826335424869773,0.843367633969933,0.870451008663359,0.879169661020439,0.974062237633575,0.974510382863803,0.86737350630771,0.82423265917985,0.859852986519466,0.879784948846442,0.879547271427409,1.03545805696043,0.784245642206753,0.804194456311698,0.76929174011334,0.76975443767324,0.858730362971458,0.91198000547231,0.814869417567484,0.775401981909834,0.844781912699914,0.884669686194567,0.804757345096802,0.831946469183844,0.832517205665607,0.908290508172169,0.900052550513999,0.988859589682968,0.995917410285641,0.765262903144393,0.701719125167505,0.703769270020148,0.722952608666368,0.660058034366379,0.717360682377883,0.763716978425575,0.790573467913746,0.791287351157417,0.976308195344702,0.976283749393847,0.949156080206934,0.909806997472639,0.634187572108522,0.652217339062493,0.662830898347266,0.696087136955555,0.766392765424933,0.780249385925427,0.784872139994447,0.812168734963671,0.632310515497128,0.633316460350451,0.651410697675569,0.64687967217648,0.714144072800574,0.710085972607359,0.74510832103088,0.638734521754381,0.636114674844954,0.639900360837403,0.684804986296684,0.68425965472047,0.692027148092739,0.724731991017148,0.804833705354234,0.786941033561956,0.554007429445408,0.556745864360321,0.515033678261813,0.516113872209876,0.521507530650374,0.6015596724949,0.645835656620012,0.601799696341791,0.853568333317638,0.854461666650971,0.525800976180276,0.527841492723343,0.518338919122573,0.611523892773207,0.569277285774496,0.614440469448227
1.4154220730621,1.41645930953014,1.39778374186653,1.43531380454218,1.67624724885628,1.6758029019557,1.67647389791552,1.71884561605444,1.71478704889688,1.68647383455113,1.64978862942331,1.55290296167425,1.55084297008931,1.5551626826271,1.60365927821257,1.59159765998436,1.58733318194247,1.57811713745445,1.56647889643314,1.4883807083143,1.44026420483156,1.4507072439064,1.43457646255209,1.38110026638077,1.31196355427717,1.06509341776682,1.032848887749,1.01338979171045,1.07619214161177,1.24910554948996,1.25068217357972,1.2537395098349,1.25604125671757,0.79812185342298,0.754395529127658,0.75422349185753,0.832631154307897,0.856138865146965,0.859805174607679,0.843293314676488,0.815513710832671,0.816629208044552,0.820152659503952,0.898324309811578,0.952314124917337,0.990005809691182,1.02102277628437,1.01104740891707,0.950344933462254,0.879703880794195,0.887349736163313,0.918760554811218,1.24849993047646,1.31497540286333,1.30710763482813,0.93077655588548,0.935506284057689,0.935840631648076,0.934841856032657,0.933910052443266,0.933562958937127,0.933893154887859,0.934511579736965,0.934923346707262,0.934415290901132,1.05144187285459,1.02011742261165,0.964187031883665,0.928265070702184,0.938660761540718,0.977467828955704,1.04009721844185,1.34200102859101,1.34601754352607,1.33003072767242,1.31546431151023,1.32842542288884,1.33526950420844,1.11278797715245,0.867911022837321,0.849880349307492,0.888157048657342,0.927664028305815,0.967433911089379,0.968777614909013,0.978535185567856,0.994714732487095,0.899583234674827,0.857006459253618,0.831520716451251,0.827680024726337,0.833588586610453,0.850848150203726,0.877362013239601,0.877756376270303,0.86374331101587,0.857735330774538,0.853851107386017,0.857702706952522,0.861678329527427,0.878563658341725,0.924310115917589,0.812590476809207,0.791537702254693,0.787793215082232,0.828756409444224,0.878972531541395,0.889823073243851,0.827081988255156,0.838324332625166,0.852206060358791,0.857233039599088,0.845205813813058,0.832258907514241,0.832242028141959,0.857689752839709,0.875809007492942,0.907744034539118,0.788393116538377,0.743135778906266,0.697534302751424,0.689185129940727,0.686956943950666,0.675099448641185,0.724779839419312,0.742839451844193,0.767634988431952,0.83025439427274,0.975733207338842,0.974467172986063,0.956366028778365,0.920324059403081,0.642581616904482,0.653422910103274,0.65710914076044,0.669152037760088,0.716646905834588,0.746365200800382,0.74622070006564,0.701834858504934,0.632834097843985,0.633384011132107,0.650075305149401,0.658267099638288,0.691145773783426,0.710404763393765,0.710644189776329,0.636951170457941,0.638252273530293,0.638103665535206,0.667627369079755,0.700995253947939,0.708315520749238,0.747022608267771,0.758901996834825,0.772581362306393,0.554643892729583,0.556993220878383,0.55991974949221,0.574731459745066,0.578560117979324,0.604843982201807,0.617880947478144,0.625093355477351,0.713343856313595,0.745412120904649,0.622848032843089,0.608722835856116,0.608258109405217,0.610163893029759,0.610561547023475,0.617136272271542
1.35664997717834,1.42394362686861,1.34464992413215,1.52291254985487,1.67826815356176,1.6483176170348,1.61977148366156,1.73391794534278,1.74214482615252,1.68895881849928,1.61678788565867,1.548179963306,1.50265024607514,1.56381056445379,1.66174998452376,1.69934001546577,1.60355253285896,1.58250741369993,1.6185366458189,1.56578000000027,1.43137075348765,1.47505111245513,1.41430244183305,1.38779739398693,1.31453127932759,1.0643099510607,1.03397047923625,0.97029095329311,1.03603014139561,1.24592569594928,1.27750134906962,1.26428643672341,1.26218217140203,0.794936537549287,0.714732824870991,0.714496158204728,0.840224793987141,0.867537953897884,0.869387228650736,0.867065999921103,0.813614985576597,0.817938997220917,0.820846794781919,0.936487843407333,0.938689384509589,0.995181072081007,1.03444264427864,0.999344353175295,0.998825582599306,0.854346985792885,0.81693717678315,0.818697843429195,1.24928305644497,1.38433999997907,1.28388410275896,0.764900972377358,0.76603234928047,0.7702094784819,0.77870122600847,1.06932147008288,1.1527759530824,1.33495678770304,1.31600292117763,1.31602302538554,1.30512729051564,1.28167498758596,1.28349498761127,0.957106096726062,0.911012105923985,0.925743582807633,0.964230396521138,1.09486999998954,1.33700649871788,1.3508277520405,1.30592860241648,1.29096138858412,1.35397835576327,1.35697168908393,1.12922020724446,0.873298496643577,0.832256670978024,0.903395950061256,0.92870586284459,0.966810623088761,0.959130903823649,0.967777158047852,1.01867726128361,0.836556711058618,0.856634680248002,0.83529161821386,0.825944473982439,0.827306971941657,0.826549717515654,0.89278492006326,0.879846440291532,0.798032920726781,0.8079920629805,0.846865378309518,0.828404124949185,0.827973918245348,0.877736637310629,1.03509001681806,0.839670737900727,0.73921460667357,0.781632409272243,0.892609334925037,0.893015115381776,0.905109616801209,0.800634968293028,1.206148257112,1.22382135258201,0.868031309432223,0.856509837572041,0.832433636039276,0.831840752566976,0.722707833349029,0.723391166682362,1.00119999998954,0.721768308815027,0.708495693835068,0.693271053940724,0.637584698541094,0.64114635438983,0.65895694666411,0.729757563338147,0.71383261115115,0.731662968765839,0.935000240129227,0.998500406341056,0.970998872819531,0.964433112112545,0.928521993651464,0.608111098592101,0.654344767860915,0.635869558305815,0.65528864729679,0.688888974086753,0.746900120126593,0.746511667066558,0.642072565900383,0.632784686743692,0.633410570030554,0.648919204392163,0.676047221908139,0.672060403878731,0.710867518398056,0.711652620614544,0.636257056592655,0.636373398094916,0.605661268643637,0.657339685511246,0.731791743954679,0.72692219244162,0.776561379349397,0.738889878346041,0.783062375864126,0.552073158468383,0.604803946147532,0.562900043151331,0.590399002966418,0.584508761274238,0.607417835259275,0.609072780561693,0.63653317792526,0.669489867042924,0.850628999979072,0.627872588628159,0.610650423780655,0.624729775988159,0.611520187201873,0.611910758073553,0.620554215720601
1.31751353629706,1.33369649594491,1.39453003637741,1.50187745013467,1.63934997220485,1.72781404897259,1.63124537063398,1.64471899419164,1.6590942705899,1.60759348978233,1.60404576831442,1.50009824522185,1.5005313921989,1.73138400376111,1.70600431784857,1.72433923450162,1.77910001467526,1.60279625686549,1.63015122812098,1.63625312910743,1.49248404341561,1.47607658539881,1.49238331614318,1.36921370899209,1.32424209495107,1.20388999998954,1.02333818171118,1.01190002018207,1.04828987095612,1.28317357611134,1.28322052256684,1.28482525139448,1.2535297531501,0.822656839219206,0.83845624096649,0.837453958121385,0.78811596226133,0.857506000283763,0.840379748936195,0.911811020544063,0.79207755534654,0.79274907790192,0.777785192685518,0.846136730053085,0.970625998363081,0.942163804663585,1.26374005092454,1.23251285250273,0.967476047651591,0.901136,0.801731019988199,0.773584877276467,0.757987885321356,0.742347934527171,0.732991968951138,0.748292349624764,0.710665964492448,1.01208433999367,1.00951042140228,1.07033499809483,1.17000915424139,1.40341998743795,1.44154002547329,1.38053086911187,1.38074420319313,1.40334356463255,1.01151999998116,0.959525974144801,0.95403326074495,0.959754650937008,1.00293975075471,1.00507025907534,1.26681425280103,1.28513621183188,1.30193467640252,1.30520024965033,1.3056913918196,1.30540833005152,1.30583520138527,0.854580178106229,0.831740004248445,0.933432032421692,0.975895536425277,0.977901710425457,0.939523431027739,0.940015430305091,0.839271000020928,1.03330999997907,0.794135954794615,0.838235225344623,0.825903630724856,0.844077360563908,0.828536864247063,0.804622235419021,0.811762522722853,0.76779765635991,0.77236234676662,0.830483416956264,0.828687964125003,0.826599844214205,0.922111649792966,0.998440983150548,0.773113326136442,0.751611695952951,0.767677489184931,0.769055775536803,0.778502701296276,0.784388426662311,1.02486999998954,1.22458931793951,1.22577107232462,0.746205000020928,0.843241020319523,0.821024764538735,0.958074027567951,0.891545397900069,0.968760999989536,1.18559169687954,1.18557429788434,1.18291167558549,1.16100983506653,0.704407982436363,0.642246959113425,0.642385045698864,0.73686174226799,0.713866913828401,0.769625038796594,0.922854447487927,0.922611312386786,1.00210744012442,1.01576257436815,0.902714408810577,0.598243917561874,0.599882618475257,0.660116023880646,0.682223672207597,0.681907273361805,0.696005078941928,0.790525053118351,0.618613787032359,0.619537031052109,0.631991893657969,0.633631667882868,0.650252797494536,0.656858529772377,0.710495692678837,0.638734140022471,0.61036480724178,0.597646796920932,0.610423539744805,0.628376386983231,0.711042274786417,0.708600274943106,0.776369370660811,0.78623383665765,0.787260288785013,0.550664887925467,0.578924575467209,0.577342458409906,0.591468873682255,0.607689234409636,0.676123520862118,0.687951464466688,0.704198781534375,0.695282891559941,0.674006477953734,0.615812805505411,0.551865226229941,0.552275226872595,0.599574442546112,0.600608411888096,0.616041973844993
1.28838591904344,1.30045642443847,1.31615187119653,1.45736999991447,1.58284002010127,1.71324595099602,1.66960003767563,1.63070848095743,1.57626,1.48201995565543,1.59256453347128,1.6307385623821,1.72207,1.77293954886651,1.78237388856118,1.69528244389916,1.78966377055238,1.78889691914143,1.62362280559824,1.49829293659084,1.49952638522082,1.47696134169757,1.48101730963566,1.44229181874627,1.3080294251835,1.13336004661573,1.04972002600348,0.978307204317545,1.00793003440946,1.03668002672418,1.29156985231223,1.29213357985554,1.27494510564185,0.917959,0.72818352974607,0.766882824232072,0.749933401587857,0.75006321705527,0.853699854722972,0.770239531095883,0.876887013219758,0.859818303804869,0.815026222344556,0.837504775091017,0.953278720514497,0.942931039859832,1.22655952670816,1.21878075203627,1.21933681777599,0.940892986120853,0.785057345417591,0.7320224498961,0.681511609446028,0.698534254361266,0.72853599755725,1.43001999997907,1.31062999998954,1.00099249960943,1.000710103619,1.0608143841174,1.15034489267622,1.29069472867196,1.36041555285675,1.45872002543157,1.42031066240403,1.42155066224237,0.959151437095611,0.959510164203427,0.944235124435572,0.960082934666259,1.04600967552407,1.0617303244356,1.24789573263231,1.37819310291479,1.27839547097683,1.28124201314136,1.35713012448011,1.32712184530258,1.32931582436656,0.885990398928241,0.879996809532935,0.873543809867605,0.900193068228384,0.899381366367423,0.977345007405981,1.00530005122476,0.959360962586306,0.873768666573693,0.874263333240327,0.826774758433475,0.825661281868583,0.811184906995303,0.806233894526158,0.847268456913152,0.86383639046212,0.696475005810738,0.754442315016393,0.763529684485905,0.831662449126673,0.814200044427589,0.938239057935433,0.940712245950903,0.755692064779462,0.755159091439461,0.784794152632453,0.732401913123786,0.795728049706903,0.77800656412469,0.751716024090394,1.05023418139651,1.05555579865888,0.901563999989536,0.821830012007607,0.812120381391196,0.91637186165965,0.906098732478586,0.853563980393744,1.16980623650866,1.16994668893136,1.16304734329071,1.15931486861307,0.735800718625951,0.66303910110577,0.656862609479778,0.715067320831779,0.735836100164588,0.700281967058087,0.78396001199946,1.11327500886849,1.11381500888665,1.07981999108719,0.894404561555404,0.635544009056696,0.600151276601683,0.650333105991154,0.660095582246519,0.764418029930745,0.708807094599079,0.762127009706282,0.563583820052209,0.56521115335689,0.62962407711486,0.629156113025653,0.644691644001017,0.741097045222288,0.701336148582779,0.654141106508494,0.684420591938948,0.596648065162786,0.583655570095391,0.639802661529242,0.589450544764372,0.6142519928228,0.694327207030224,0.873333999979072,0.789890769972942,0.563563471757599,0.565807048540377,0.600857371456519,0.617665902624103,0.62229141035386,0.621890007198593,0.621351700478149,0.800526301150395,0.801079634417958,0.833774907874932,0.576882729365687,0.521009953674668,0.580328302687909,0.602724108717323,0.576312414531487,0.644951741689421
1.31025549513107,1.4396842074087,1.41665637001503,1.36833995329643,1.56621996526479,1.59288173524502,1.59030180695144,1.599856472427,1.51591459793206,1.51591471278463,1.55843929183275,1.63337189559537,1.7903288922628,1.78673590337101,1.79801673811402,1.83476002856244,1.76389815270577,1.77200467350373,1.58565665792632,1.60303693334453,1.61657042760796,1.491809836501,1.37190998666732,1.46343820754408,1.29930409588161,1.10116995340894,1.25332999997907,0.970669416913218,0.964325300200579,1.02301275530327,0.982267024566709,0.998586387761651,0.946061128537989,1.27565999997907,0.738308797703107,0.738346742688014,0.758852617125349,0.838907226982893,0.83917124834203,0.751650462511819,1.16473999997907,0.870253700536753,0.832074182565921,0.841479218061839,0.873670014039493,0.92636763059656,0.735090000020928,1.15303999998954,0.722694000020928,0.99567801385822,0.768837029303205,0.724865114953407,0.728632246753651,0.705340251999724,0.852868035250378,1.27804001830216,1.23944362289305,1.05320000068552,1.00813259696174,1.03582914995837,1.31684006357221,1.27437530023018,1.36059555272268,1.32923214367865,1.35755272647826,0.936270045866331,0.936652310664098,0.912672909834277,0.946019300681634,0.980883510209574,1.10688602428553,1.11038397129822,1.33260998269738,1.35783691434598,1.27798322661126,1.28186083620609,1.31965883532118,1.31823508195676,1.32917274817136,1.30312693655161,0.815545381739561,0.815221979615627,0.901126176014153,0.890839466110739,0.856493586739841,0.911574135358892,0.993588713512982,0.994221878023787,0.801425004227286,0.762659743564523,0.786554180088542,0.84590789611558,0.805086122524522,0.797938063249914,0.852083278809942,0.689699214570162,0.711512558510785,0.729244930707519,0.754953131768208,0.767070044610988,0.830169003510248,0.974208050888343,0.75611290705324,0.741955877206843,0.710640259416654,0.787040205687534,0.786141854963833,0.842768573831938,0.923657027008316,1.09491001265569,1.140450007268,0.791318311693442,0.761703497234251,0.790915976103492,0.812378053923148,0.990997406611403,0.977391593367669,1.16045567359446,1.16834173493978,1.15737086583605,0.894177000010558,0.711216630562864,0.658448513323938,0.657563731263905,0.695721970576515,0.692032636727717,0.769520484489953,0.738479461787364,0.766246414937336,0.770797608581338,1.08209999110535,0.656026450051158,0.659213146418397,0.615450056876807,0.640818434758091,0.67668173164155,0.66469405798329,0.70817972274352,0.725227896625096,0.809568999979073,0.600227051720563,0.617208375246566,0.616176535372276,0.646747858843461,0.687597874702652,0.701765565104995,0.694587097382715,0.698014671663467,0.579920302165849,0.593120413970045,0.588726112203489,0.58847614765031,0.657538138244848,0.67366059873908,0.74980884049743,0.75628218652402,0.564686656973861,0.565335857781973,0.611651521026471,0.602866050444319,0.609685483673869,0.608344583558264,0.697389014977285,0.721994577590829,0.835727707923266,0.83511844858113,0.581777661364296,0.615207106687801,0.563380683375485,0.533377024980023,0.534634005049762,0.609211087925577
1.31346283655625,1.39231391920932,1.41660653808537,1.436137112654,1.48007296227558,1.55735044021141,1.55618436312497,1.54187409519121,1.53830908602301,1.55005222516377,1.55126655972382,1.62802908037558,1.78665507734163,1.78490143945956,1.80199885342467,1.80273787819214,1.78760263158488,1.77066725433613,1.64197144601052,1.60690991422718,1.49299016872995,1.46105778509717,1.43154443902127,1.42842419782006,1.34324570251923,1.16073660633138,1.10628192324344,1.04538504092996,1.02939231043861,1.00612064924234,0.99902703926208,0.998986840427228,0.93719546334388,0.931074569573883,0.80890768263659,0.7500254477553,0.762863108734717,0.840891510327343,0.841736115183619,0.843759124514025,0.843724325727472,0.841749158434069,0.838288285334114,0.839902596540736,0.849630067246151,0.91767631816846,0.936517994179821,0.966730282791381,0.787062874111893,0.820452647054922,0.759274238205683,0.754751356473175,0.74509050820175,0.762951221323218,0.824829200820623,1.25157754663577,1.23904838725079,1.08208311952318,1.05184139011722,1.06483399439326,1.27906895892837,1.27670463097767,1.33786387736832,1.33375117646189,0.991450602155844,0.934993151854341,0.935203434846148,0.945205091880932,0.960903200881981,0.987419783715824,1.13223581608687,1.16344208670813,1.25140491563245,1.2602567904532,1.27161709406376,1.29462495183028,1.30607769964515,1.31569432678414,1.32325047112915,1.29686277216722,0.827141865357044,0.820878728150557,0.856255767091778,0.867863470315243,0.862570790355613,0.909657179972529,0.993233808969667,0.993452545826392,0.85128012560366,0.809327901011754,0.812209206181847,0.828468322992701,0.81455950840618,0.806229041634285,0.802341085623043,0.699201590644865,0.704347917251871,0.713127408328831,0.756136422377087,0.780561906602374,0.792461578110153,0.789125162130737,0.769697311095241,0.739144575876742,0.736451419685118,0.762511601224704,0.784125010539739,0.818515248649768,0.890927845474189,1.01454598046938,1.04530239647259,0.779662936519598,0.773120123735591,0.779171650512632,0.822004624903886,0.880420484897488,0.923096051827321,1.16103208935762,1.1607170532509,1.15544906945136,0.942468621330268,0.711516160437393,0.711569289272773,0.718476108035822,0.719269626443966,0.75222069069204,0.783256514126799,0.807496865254449,0.8329120259013,0.860234192651253,0.889882338010699,0.651047498493881,0.639359126569554,0.629605929809108,0.646682869719825,0.658388874849938,0.664374133472748,0.72351179676128,0.729940882403356,0.732907492001929,0.607234520828268,0.610558916941195,0.612611702766258,0.648050791659689,0.690855513143173,0.699828863694824,0.698359243911791,0.697754469762999,0.640226550794229,0.590621214312426,0.589461426404181,0.592897073286542,0.637795564501741,0.689239382453526,0.727437573953364,0.74266875643715,0.63962213395746,0.601691176163459,0.602745942109128,0.605665194530739,0.608472564804333,0.608122036798573,0.654065137489184,0.725241716543649,0.762377780639539,0.741125834179477,0.588849738773672,0.58660459693392,0.550913633040148,0.53512349471022,0.536868661337241,0.609219406738666
1.26682268135607,1.37224877013297,1.41643222992523,1.71123999997907,1.42996808572458,1.55789799270745,1.55288338337409,1.53453084073251,1.48123993518668,1.58984999997907,1.49860995292428,1.58186636243238,1.78468169525288,1.73275254879829,1.80785713668806,1.80288368309158,1.7919174898401,1.77643682968229,1.73421999998954,1.60894901041233,1.4461100029102,1.42363895085069,1.43362315930047,1.42481974265604,1.38570881112759,1.34424,1.05224376260906,1.0673999119396,1.06810478907399,0.994598525180248,0.99750021523351,0.998301240718024,0.914009424953188,0.924306746050389,0.950132288054739,0.728206112909677,0.780216251624232,0.851262261654332,0.741516995536069,0.891016057036972,0.72904106496287,0.728402846943938,0.727309195165697,0.745034279530584,0.744523613459693,0.908401998370645,0.98367700036349,1.19754999997907,0.721313000020928,0.905694999989536,0.731625963717229,0.771265723605878,0.732682165735882,0.781426488995697,0.804800655391472,1.25698605112312,1.24036376987276,1.1129873015357,1.00254996553606,1.09146071376339,1.28124282328871,1.23354996140103,1.34050102091326,1.33438803050748,0.933123163736577,0.93334600660387,0.92476439733594,0.955569342303225,0.984182556588919,0.997882788421949,1.22575050310949,1.23218597248763,1.23915815695128,1.25139798287608,1.16742000001866,1.32197006823043,1.22969333860164,1.22998667194552,1.33977002342189,1.27782182904638,0.839961603546059,0.811738994349,0.847421194642238,0.877830032873737,0.854561370126465,0.908470896464308,1.00457261275244,1.28567999997907,1.20192999998954,0.80642340197385,0.815746156976494,0.846728824529724,0.874517398013637,0.894576989659434,0.784541977110427,0.68785325853905,0.677954364293817,0.707732763854052,0.757287263551833,0.819208096494396,0.796619239580334,0.783763053297327,0.785316872947122,0.713380641402722,0.732078752827628,0.745869934999421,0.782195282923522,0.801414129579543,0.873756977619289,0.979474846452985,1.13078974674744,0.764276789664564,0.769604762529482,0.770373615092583,0.828849019704458,0.83697511878334,0.890904000000048,1.16323423389249,1.16073290064209,1.153454420405,1.14968501780263,0.662946250511807,0.712849380703847,0.735506214190173,0.721119497307306,0.825454001026021,0.824806001028219,0.914157008812489,0.981908015969576,0.932187952666959,0.973074031321611,0.643635170231367,0.628882866647481,0.604846542507096,0.653320779459283,0.648147879143126,0.665017936290442,0.782521559279578,0.753033416641341,0.738470321609001,0.574125084808203,0.541503887740048,0.539424554047843,0.64953572085819,0.693851333092894,0.767681011296636,0.817342382066243,0.835825617902366,0.697810011905313,0.545393114851146,0.546273113880963,0.600832748663011,0.622266354101878,0.702157193477504,0.710470332003573,0.756603841910999,0.758967683406828,0.594287883542748,0.556303917813429,0.610809554491367,0.605118551571175,0.610261400377273,0.610936456177395,0.728491770342722,0.813081023727505,0.722606976251538,0.597590622012313,0.583002643745577,0.523392022345004,0.534713132831948,0.540218521062201,0.608827236241005
1.25756960037175,1.25945064968147,1.32225002707804,1.34088000100462,1.43824189755846,1.62074999997907,1.54095006907432,1.55552116885103,1.5771349325576,1.4317430416715,1.45633998207216,1.54174998820218,1.77306838115659,1.8449735475309,1.85167742770098,1.62071,1.62247,1.42096996488077,1.45950004881785,1.40861998634323,1.60291999997907,1.5315701836191,1.51715000542163,1.49539998447262,1.39387076212272,1.39858420031658,1.22224,1.05316451546567,1.03708704185964,1.07541001899649,1.1407,1.30660476864607,0.94002659600799,0.926018725900905,0.925194761208724,0.739157933437867,0.742669906644629,0.771137971618748,0.832724025080344,0.849937942952565,0.991256,1.1372156555627,1.13669589625224,0.930256990955439,0.883425022265927,0.879265134178176,0.92830206805274,0.939057980294031,1.11684545164879,1.13541454831982,0.743067598692331,0.742093369775473,0.780078402067616,0.780091604723731,0.805116385553728,1.23724418019022,1.21157439401171,1.11815168653671,1.0565600111229,1.01198886557291,1.01422429445504,1.01547686577628,1.2606199844846,1.29818001551286,0.944526409606105,0.944179839974756,0.911084619907946,0.962963349256342,0.977609948620174,1.02062456115366,1.22419074715657,1.26390373898293,1.25040830533353,1.25262514241662,1.25428544440344,1.26521073958456,1.36061003369607,1.19869768200168,1.19856793906967,1.19357942488216,0.864195354144725,0.822777057316625,0.839321580834245,0.836896083317541,0.88087890296214,0.917054939047493,1.02767743649548,0.992130981558357,0.762831240870195,0.756860772935581,0.793711993905721,0.832253364200179,0.901575635015743,0.746414033821913,0.705105971240594,0.662808678730328,0.662220290681803,0.660150014131169,0.760355492221617,0.725727468058101,0.799248603183508,0.699034470003417,0.720491693410616,0.713105732904166,0.715698101517357,0.755900797357451,0.796731546624991,0.796980495845566,0.834567789659381,0.97359549886592,1.14302025322116,0.754117388622564,0.766276616396649,0.74006089191708,0.808961822343282,0.829235813651224,0.829877076040011,0.91306953897804,1.15377529968992,1.14722529406855,1.06838,0.675006506614782,0.676507709546927,0.734858448885281,0.733972231338838,0.748796683935583,0.763261347261559,0.888064991166584,0.666437216170017,0.666032333785325,0.665151306810682,0.667982423633304,0.618067953014643,0.618680203280523,0.605385958449855,0.60693551322541,0.676861466137949,0.720227004511703,0.788359020676577,0.736410717996252,0.580512932340319,0.566696467920561,0.596909693486765,0.597420360098722,0.650715,0.732359327674012,0.731448661018889,0.788684999989536,0.642199983483032,0.600217983567859,0.531599715254323,0.615173465649114,0.62836557002946,0.660104404078036,0.704648282666378,0.740286918000311,0.606461075024108,0.603755880918718,0.594679542463014,0.635330569446116,0.60822051725747,0.586038748941355,0.586680596553742,0.730117586269669,0.731161908113146,0.677831657098547,0.588728493158895,0.514541282941116,0.503669256545432,0.528570220277609,0.56950473629568,0.633458018200365
1.25487205208586,1.25424567248801,1.30171301806965,1.48930999302264,1.52310766571858,1.50425199107704,1.49210156755521,1.50627415357525,1.46179107481355,1.42656669831367,1.48634227808678,1.49198480169403,1.68521,1.77581,1.83145902695297,1.41608666668236,1.41591333334903,1.77270999998954,1.67166996588232,1.71248003409676,1.44209000002093,1.53124789986263,1.46739164412699,1.44776998698701,1.40604628399416,1.37057997868112,1.26922382567172,1.27027049168266,1.25666566406485,1.18363000001046,1.28720604037374,1.2858926283503,1.26546965906531,1.26831502580397,1.21364998281072,0.673648140991558,0.674348807649114,0.763237036235528,0.801772974909192,0.946270999989536,1.14532012815211,1.148087036903,1.11189125759296,0.924167009034097,0.828193418735237,0.879225822158308,0.913205443862687,0.98090310822675,0.985069893407719,0.978424965697515,0.755566955844438,0.755881234617057,0.75603880140827,0.783425731742426,0.810185954709058,1.21412978412544,1.28865999997907,1.11464247840004,1.10528140687544,0.973786233912289,0.992046561923906,0.982095081074636,0.960247004969412,0.960356654522185,0.935666781460751,0.905562218728625,0.90589393067826,0.959408426058899,1.01205313878196,1.01212616176861,1.21231635889615,1.22317580329136,1.28409241774177,1.31841010098065,1.31992343379298,1.2929924756909,1.33093000401742,1.22093336259709,1.1867215440559,1.18722707737537,0.866376687434294,0.784560772090682,0.788182104325664,0.852006362269605,0.851277429036192,0.866950894526588,0.970711194796041,0.971491993668066,0.724268610311733,0.744052452789617,0.743909787458949,0.82674398292646,0.720387231234952,0.718836979859715,0.739007643359227,0.728002843129193,0.681437599273343,0.659069206102385,0.695249187340844,0.717333441909337,0.714930812791025,0.750580487502036,0.728106930762715,0.711002802813135,0.694294400630119,0.730297987904598,0.727811788691615,0.775055007914881,0.843569205702036,1.00904164829313,0.767689013793433,0.756090663703826,0.743227303038727,0.744039513040182,0.769515649224056,0.807923236711698,0.848327068454947,0.920194892797893,0.969433020288665,0.930646220491654,0.931915886330251,0.728113823962551,0.675470354974302,0.683612810430562,0.712118222249996,0.710352422560635,0.696797946333553,0.679191676758022,0.939673891878671,0.940389430455691,0.973912037700263,0.611471096054835,0.59826630987117,0.56652351207843,0.61827960449632,0.629042387482357,0.692449666961938,0.67863339873391,1.03996821422381,1.04183881006959,1.04033734569963,0.479625297634843,0.520610382093641,0.516791206028921,0.588316,0.696723333333333,0.698212666666667,0.74728991850365,0.702013004601192,0.598119144229749,0.532571227738788,0.663295707793573,0.659952042056498,0.657275741820363,0.656458211591965,0.754521602421522,0.755066936466147,0.580290308880188,0.621706089313471,0.646631517962716,0.616129045908723,0.617418838496858,0.598793129534003,0.627464611627539,0.682610057107265,0.682170285692855,0.599337901167346,0.541932154028432,0.542643200659234,0.484912697592062,0.529261870413813,0.575695286385637
1.28632004611465,1.25411971544405,1.29995273544037,1.40098740075148,1.45044050664945,1.52089037438893,1.48256997319757,1.49265977856698,1.45195869130809,1.42738015897612,1.51275551533652,1.44749149707492,1.43144055567461,1.43830607576097,1.43743872903112,1.87420996982995,1.90107003527342,1.85980999485478,1.62441066722767,1.60174278721812,1.58634467749882,1.53059410268835,1.46162183674031,1.40344632361968,1.37275310772598,1.34123277630933,1.28387997512624,1.35196736069193,1.32368472768242,1.28535849912586,1.29687654324934,1.30871023513306,1.25771171452797,1.22297158496684,1.24945158205097,0.711869075615029,0.713658868013166,0.709725563471233,0.724719594012287,0.828658,0.98089,1.04257,1.16430002547421,0.821742987017094,0.821183530227971,0.821185318005551,0.898751468854371,0.932661,1.01630974935981,1.02856032286199,0.759023656613138,0.733840815536992,0.734748938498885,0.723542511128547,0.722617312722826,0.911720000010582,1.21477292174477,1.23630892803964,1.10582909515287,1.11882372046255,0.936637355287998,0.987314810148797,0.975630424464897,0.917915902873559,0.916208024643336,0.909773128254375,0.939410972245879,0.956689544267436,0.994103032250082,1.0255140176667,1.20307458416456,1.21162633959358,1.28525245074528,1.28472864227531,1.28959235249609,1.29782139263007,1.28430254862504,1.30269362563045,1.21637474727823,1.19551253055481,0.809015817206405,0.811677948993579,0.731494967109898,0.821434896215824,0.801534558534566,0.872378157275471,0.902558045772329,0.975728794796105,0.723541365332491,0.726101053175824,0.725649705017597,0.798566129058543,0.806855820391493,0.805709790512311,0.826897632959326,0.71820103521075,0.692135678132535,0.665661978038553,0.726057743632401,0.778022989221824,0.818940010705832,0.716104308985784,0.716937532651823,0.715087504350523,0.691850019431468,0.729035030540059,0.752517397804909,0.749416500787973,0.774735008525541,0.747403924878542,1.01108999997907,0.746139658277752,0.704370253074747,0.723152709709151,0.772662479135596,0.791211089427418,0.836639435180775,0.905475581765312,1.12061166665097,1.12089833331764,0.941820707080483,0.70202614533466,0.671710467462024,0.684804115909791,0.724141417885941,0.738178158372466,0.697804762673039,0.698889818009442,0.906473957897312,0.941498691923837,0.83321800134804,0.830374493264727,0.619641848986181,0.598192775509075,0.581388193690886,0.613447018435982,0.684480139642601,0.682909580047867,1.03940312832355,1.0228725016311,0.48984524603682,0.490370134081781,0.490470949256721,0.514562883440757,0.514389807094994,0.621594712209333,0.609484097369031,0.760284081475423,0.639475551400476,0.607768099593943,0.521706771504552,0.570462784477108,0.627033320836427,0.675753289779363,0.676150787485321,0.813979999972592,0.569670005733959,0.625981245188357,0.611353556010813,0.603782033653305,0.606400841147385,0.566106934983792,0.636727130405394,0.633460024593745,0.633077335566474,0.633370835418205,0.569937995257112,0.536163703570943,0.541384657532535,0.474190962506767,0.514201957029442,0.576960207595683
1.32744728472699,1.28136926597514,1.30026073068149,1.40451200548355,1.4345809271866,1.49466762660343,1.49394804241535,1.4935822816875,1.45247266257034,1.45609301340389,1.48181950478155,1.4635835324625,1.46394002041693,1.48745192477004,1.5038524000723,1.7714666709403,1.77208588467932,1.77359265546772,1.65902459079869,1.64136519190865,1.61497719842144,1.52236712207357,1.47701366625219,1.43420282285396,1.36200955044157,1.34251515689813,1.30992955788839,1.33094384638337,1.31768783855114,1.30449460296529,1.29385087655864,1.2902825771632,1.2714186595466,1.25271665249636,1.25147694614645,0.725088223163828,0.71099831140588,0.709683022442909,0.719974108177295,0.755449633605935,0.785593508666377,0.810054911669335,0.830005028264609,0.819981038957724,0.819890820842112,0.819947742145641,0.863451352875335,0.892996792805589,0.897116009773785,0.856890598309573,0.753004973059057,0.734038724073877,0.73404011477671,0.733530390666254,0.732787818821635,0.960015382927916,1.20732066495611,1.20487788453005,1.14830274104773,1.10291436827753,0.95332797792434,0.968776517552217,0.949480223758895,0.922395515070508,0.913740545874531,0.912767632535439,0.95315563944319,0.964241147158304,0.994297987690449,1.06294239422394,1.19553292518106,1.21077303911887,1.28130919676016,1.28228601987888,1.28870710832049,1.28981675148639,1.29209539310795,1.2939596334254,1.19051704114015,1.1855572793558,0.813670589453446,0.788058463588467,0.771205460947915,0.800015198165138,0.814775011962109,0.852386213903328,0.900916116554674,0.912099695484435,0.725935736730039,0.726661874729833,0.73898201920285,0.795039972574453,0.807709623647581,0.806728326545204,0.755074619916107,0.698152004059337,0.695708878145222,0.698715100846694,0.701159632294262,0.719676342348355,0.719789695724427,0.718584547713722,0.718611334129995,0.711145568396978,0.703282055105413,0.746897503933486,0.753659143637095,0.755451321290083,0.782503583297146,0.793664583236024,0.80322731998188,0.78333023879631,0.761688900491409,0.767612111423795,0.771067525870981,0.773099906176752,0.823247513138541,0.876695373361018,0.970435568231023,0.956180990997614,0.928387412762185,0.701054436747188,0.699613257526333,0.714422146483831,0.717589597511614,0.722835602472921,0.728340851672147,0.780677133087825,0.867594234983212,0.867701757445057,0.855024843847541,0.850120708521643,0.610208409846568,0.604053732343109,0.607272879552974,0.609595526794773,0.668676135659895,0.675434224444787,0.807746171600179,0.839474895921281,0.51941323409568,0.511242214796904,0.499270733784666,0.520048890468767,0.523174220193818,0.625482276015651,0.629557149876755,0.634282282775604,0.63651235060613,0.607894502413906,0.538182095466043,0.553378737005515,0.62625921259926,0.651311544373192,0.665706103606518,0.683345632186953,0.578138731803865,0.585219257727393,0.592518782236885,0.59925992184432,0.602402855306778,0.623042230055782,0.635201805782318,0.633707158418336,0.633305296498767,0.62446221087872,0.543780141764414,0.527708338827146,0.515294363924495,0.499089940387853,0.514131522934329,0.564241339561367
1.35513000880922,1.25965949225568,1.30097751342604,1.40794861366489,1.40603890296946,1.49575100853343,1.54260081770564,1.54513488871061,1.44942887681705,1.45861520340082,1.54008001749742,1.46250008878207,1.46377022507025,1.62971920125462,1.63826079872446,1.88669999997907,1.66485909440029,1.84613999997907,1.7375733333281,1.74062666666143,1.61994015754672,1.50544387692549,1.49105579569797,1.44501292733584,1.35080790302703,1.34348085587856,1.25750399799882,1.35397004639655,1.31146848032736,1.35323671949723,1.28557367495744,1.28708475962243,1.28624531094268,1.25337595354837,1.30967002307017,0.747092265215698,0.683182169212327,0.664400514456547,0.702309879013056,0.694220278929022,0.695008719256419,0.797327922924637,0.845769117594679,0.801631413819874,0.778020468576101,0.801680735196232,0.84478197552674,0.883919109886228,0.901284443982919,0.818479945238609,0.74529108961457,0.6943909670903,0.694381633839555,0.732700527713315,0.732398022928753,1.20898052515935,1.20967035599904,1.20231763838787,1.20038297884149,1.08895041189013,0.922254982158446,0.988505914266457,0.926535015309831,0.925907671392553,0.913367978809794,0.912215629450607,0.989141546192388,0.974279665740407,0.994761954327717,1.19597136461297,1.18120722053125,1.21006638606474,1.27772196283691,1.26820662056098,1.28712298123415,1.28224344659972,1.30633392448365,1.29748332092981,1.17131998027991,1.17110322674683,0.819098097152903,0.747280580155432,0.739163920546336,0.781142600621034,0.825483931709665,0.831999999923634,0.901207823531568,0.918140052471859,0.72619201090027,0.71912453294585,0.759583883955893,0.781380829212727,0.808883173665711,0.811238673507106,0.720832672699711,0.683175815128458,0.670749022481292,0.701270773734488,0.673614654463302,0.718434208968115,0.698473198545762,0.675359534329788,0.719521019332934,0.680222794702344,0.688309386759197,0.767580601910733,0.766652826484183,0.757212359865628,0.787408283717186,0.817643689467786,0.818415976880461,1.02700999997907,0.749279013041905,0.77053725459781,0.732530929745538,0.766652121468739,0.808119205177538,0.852302986458807,0.991977734654544,0.938583417477237,0.91494887749945,0.703075223153632,0.701157560237277,0.716650651745451,0.693929877819675,0.712935032938909,0.741551423527316,0.870128732271659,0.867201683154005,0.867322134131358,0.894688633996137,0.863931373758365,0.573269028049997,0.573651132753299,0.662670061643743,0.605697617546564,0.660147826780394,0.646684457631788,0.776535997967042,1.0196999999843,0.531346882556939,0.533712929082919,0.490789734158014,0.593928038300301,0.53241160789036,0.642761811875979,0.644473987312402,0.630327562605873,0.643663698200705,0.607863083503332,0.522891175225068,0.523658330314338,0.625533206370692,0.626011655962878,0.651005382913552,0.708778132116095,0.507214418003535,0.52395837433559,0.494520266112397,0.573059073348035,0.568513517529706,0.768423765343039,0.769874736968855,0.76833656479534,0.707716994468014,0.616045275942994,0.448622067138999,0.450296068176697,0.469926598483289,0.463402567761608,0.514180444605653,0.551577897158952
1.39917088479078,1.32590193870001,1.30054190043636,1.32089002281337,1.49274801109614,1.4933037097401,1.54704511770984,1.54463082665939,1.62270999997907,1.39176956990948,1.41198684186935,1.53152001396624,1.46099811510065,1.48488000519089,1.49999538637628,1.58684,1.67668851736822,1.76304998357927,1.8160800163998,1.52400016411571,1.58647000654467,1.46695611793234,1.46087455800862,1.33390086643598,1.36217977947258,1.2604159979155,1.25983999816073,1.41700999997907,1.29748238955052,1.35306338617366,1.29134039038299,1.30552912453904,1.26826952227778,1.24762763055248,1.22929018463552,0.757040420037965,0.684584169536577,0.667739222128029,0.668750089503594,0.698940719278671,0.697236467806116,0.789985136494484,0.700112614716185,0.701140502422853,0.745854009844871,0.794585794823282,0.768759520828228,0.845174967458193,0.870547035213723,0.832815279790186,0.843241553622943,0.673951140782936,0.67411756413201,0.752409733343598,0.773805373361076,0.789583849850948,1.18421898870464,1.18411829791233,1.20087304976364,1.08892381136562,0.822149473267282,0.821583826310077,0.818134951716331,1.22588999998954,0.955678010350749,0.912718375889213,0.950065765368248,0.967703417750994,0.96847609943766,1.04795995387525,1.18095834354296,1.27901004716781,1.23981727303193,1.25051718058443,1.26232540693455,1.30340890397144,1.30518239969291,1.16625940113646,1.16678313530603,1.29907003468735,0.783546972391474,0.757358539322251,0.773565931614293,0.77172513458938,0.805565380315893,0.771435478611713,0.780720196639026,0.771479108288783,0.725517997393692,0.719475483132564,0.709304809871883,0.782906294914728,0.780915735965285,0.780182976163392,0.718899339393597,0.681733418611333,0.646910002785807,0.676825580621716,0.718464942949478,0.719214894258529,0.722275721041579,0.720419185639951,0.677918427007999,0.678843242458783,0.678148470253254,0.775351088173016,0.756037143306579,0.73866384518511,0.790619672874203,0.814877685791447,0.857055077024533,0.858933076187693,0.701469513584527,0.718299054554831,0.667120241578755,0.760484846027672,0.722598585377978,0.822153535516118,0.829700464483882,1.12557999997907,0.709562429220926,0.722136733516015,0.680874936794198,0.722477966966577,0.726265595130241,0.762260990242346,0.83907597092867,0.839419907369352,0.936133403222915,0.868022634856484,0.945849817195663,0.585250058912493,0.573882169951725,0.577897890722013,0.586254235449984,0.643449039762643,0.666044432476317,0.69781607738425,0.548213696977705,1.0210199999843,0.518937579659381,0.535220904569093,0.492753856705575,0.542013254718334,0.544200906190283,0.544223681318218,0.67995743396338,0.6631867168828,0.653562610493066,0.606999967030415,0.522252093480585,0.556601028471953,0.631329483112096,0.63630774269045,0.678738098427093,0.485702287100163,0.493214735633614,0.50733112774936,0.505729661771202,0.505144248413057,0.585216450113519,0.593542427402774,0.745577329410951,0.73686174119408,0.737851173337962,0.844884499984304,0.642952999989536,0.483628866989829,0.482950752792786,0.410938923374265,0.514255304140966,0.548954240258807
1.38838910884425,1.27126322436472,1.25765446245735,1.26742231519186,1.42334,1.49459601109187,1.53354770936089,1.60529001713468,1.53507,1.40873624300158,1.35071755795112,1.36568405885542,1.4257030537159,1.42566977987765,1.48245461673498,1.50334654962958,1.51360927849301,1.5201657460082,1.50903302044576,1.5226746765033,1.51361549672294,1.46938933478519,1.44334996876203,1.4279600161685,1.27860998551904,1.37052040115999,1.37120114531078,1.29722640916183,1.29718496820014,1.3137305208285,1.34050373278777,1.25479221785427,1.25770628720325,1.2504074839727,1.25021378946979,1.15741998868347,0.722320007752772,0.669160502861948,0.691709219182702,0.796006180611904,0.811115820866082,0.882790670185558,0.875039523418305,0.718164902381322,0.689597435933605,0.689327225656927,0.742285018333544,0.771127023156636,0.820678758242607,0.835031821707329,0.843973047613534,0.686694655573878,0.673613633520684,0.749960399802957,0.780668037338799,0.781829812603623,1.18366533420401,1.18199260360739,1.18090793930042,0.812086337454367,0.76880108610862,0.83512421557989,0.825250052070103,1.30790447253284,1.29307552743577,0.962320070821518,0.925003264708252,0.909910001508299,0.98809831445814,1.08048004612475,1.30265999997907,1.16756700641832,1.18582541418709,1.18386512510613,1.19099731862226,1.19618864680584,1.18540548379133,1.17493710036124,1.16674495089009,1.27475996528126,1.22335999998954,0.770288770571242,0.718956972287657,0.795045339464453,0.842844055540313,0.765967228707549,0.745634109963121,0.734595903371387,0.694495452860835,0.680737197247635,0.713448378114776,0.712871607513935,0.793382286705711,0.794218828853143,0.67431414578359,0.672829764800394,0.691409263955747,0.710113504489334,0.756787096170141,0.720525990734896,0.721864418482223,0.781776022783355,0.756619160990292,0.679722053000678,0.699239456506927,0.771844115518112,0.77076599712116,0.838561031611538,0.790972845159976,0.680831490528434,0.672604509502957,0.843579883845469,0.710737888581471,0.689917767796342,0.677184931558876,0.682357674872216,0.777271050874109,0.694572945752961,0.71199561245873,0.680751996227766,0.670340386575853,0.698488831395217,0.700460571180026,0.731339594241379,0.727046812484612,0.808175966747154,0.759960918382323,0.838451561106688,0.953817891109266,0.962302354560552,0.949876540537026,0.594030697887081,0.550553814596781,0.550279765070336,0.589410365227124,0.590435002394481,0.655675376127107,0.547188896977705,0.547468442258514,0.52675998906505,0.510587458031184,0.501686244791392,0.467585917494054,0.535447263663174,0.484349055644892,0.485541056284734,0.598244275148363,0.614985039360597,0.608573342206832,0.608842173317593,0.52376276245353,0.584292343328351,0.646188775969486,0.658920742783601,0.64301692565703,0.738960026548887,0.491674394101526,0.516189484161044,0.487779376397699,0.519909150484144,0.586446453498473,0.587478035936164,0.472121987450326,0.728923951162707,0.729407743266733,0.846578499984305,0.483943257089932,0.472832452371319,0.470974347508466,0.41317941408547,0.470436232210977,0.473078781255944
1.36397999992744,1.20113839581387,1.19795602467092,1.23909102783359,1.24682057158643,1.4133,1.54544652469919,1.53643410450256,1.38222273678151,1.39635464748588,1.33253997720399,1.35765945512241,1.36263578537091,1.41765092670991,1.56495999998954,1.63233999997907,1.48831368934638,1.73358999997907,1.47647848412215,1.48734030580828,1.55518004840498,1.41185791384892,1.39964364675296,1.39831675799298,1.31929999522417,1.38478290414071,1.36925469115349,1.30249504259677,1.30880441350615,1.43916001603171,1.30929248732564,1.23020599429853,1.23540830960621,1.23563951880375,1.24798246392374,1.18788353993778,0.786518253878437,0.771098178841722,0.749632063289525,0.727835382399199,0.756623031012056,0.84742928956255,0.865096536597111,0.780519126346931,0.744283096436106,0.700526686568675,0.71585800183845,0.745959432810001,0.833289120360767,0.834048450924242,0.665661650031663,0.688411491440075,0.685845285058454,0.733003762900068,0.739641950738527,0.840185852073994,0.824411741706916,1.17400425350408,1.19926232607375,0.796486198980512,0.770646974624942,0.772177469290662,0.817662883236452,0.869879010731177,1.05440999998954,0.928775898628262,0.948917510954957,0.936972026329359,0.975179421825911,1.03335000807985,1.15387000020086,1.18790320113199,1.21186687896979,1.19182257287822,1.20502754627121,1.20521149775543,1.18690544651457,1.17164446071979,1.17338765444569,1.19915711612229,0.907964599917638,0.732656582659437,0.737232292833076,0.784102338842533,0.799031632695063,0.715539601096431,0.715610548096,0.704824812771369,0.680459234588543,0.711368619276897,0.689579507344566,0.729168929369181,0.770662462681469,0.774948606310227,0.721885405249159,0.644797129699906,0.668006283101107,0.711398838385271,0.726137254983998,0.707736239008728,0.678393285722678,0.939211999979073,0.756691827691896,0.679923134178051,0.680255610129371,0.693655483245048,0.768602787711565,0.710011701570742,0.832037041204716,0.832811831550266,0.832216079635743,1.03004999997907,0.722084616050391,0.642089436463603,0.679475394885022,0.69985900168017,0.711753916793524,0.710001480071305,0.709690270870916,0.865981011179125,0.886162650699834,0.69797051032648,0.699337497646544,0.753932625958355,0.766661620011747,0.772748487587907,0.804487816831266,0.83594949757359,0.887868218365945,0.890358791591638,0.891013979360286,0.562011371137687,0.563580159940592,0.548920745854441,0.547122556471886,0.600290491173027,0.66590212718249,0.653108732020223,0.936116999979072,0.784854852341389,0.740910179885908,0.504324535797812,0.469746117765679,0.468460723588595,0.467171827916425,0.535991314575623,0.641193871851482,0.642297205197869,0.712562999978801,0.532195761524985,0.533306604140541,0.599864702708079,0.624717360398948,0.61315945899791,0.659704405039052,0.707382987682279,0.509895790622161,0.511532447373326,0.528654810633609,0.515048889773711,0.529084877959016,0.552729374035735,0.474263027255652,0.474551947154743,0.484134613782357,0.491103475494643,0.420762974848958,0.533147209698696,0.545709795013674,0.426414212170234,0.427217047661299,0.543111196115332
1.26156462214811,1.20091011143054,1.19981664867836,1.21912808714914,1.30204970841834,1.33737331146705,1.34008733356686,1.35580258327197,1.35393051591108,1.35262341562256,1.34223719610392,1.35190954430334,1.35630966787461,1.40933328309071,1.48753191365163,1.54664666409319,1.52434206953167,1.54243661729866,1.51803914767509,1.4898032120794,1.49203748991299,1.42496687449262,1.41176558452702,1.40920525200336,1.35694760494062,1.36780852304851,1.37916616812975,1.39100630291036,1.40145052679808,1.4062894717092,1.32009514499164,1.23177527075603,1.23395179365335,1.23561289955385,1.23673483850542,1.2030342506397,0.764678750999921,0.758890904083355,0.747693346540133,0.744605126501436,0.745247029131396,0.837161034091494,0.837473980272155,0.774228737822858,0.719483368646654,0.704695229813886,0.707765990872101,0.729200405689479,0.755500956877615,0.729830626892728,0.684932392494386,0.687168394762461,0.689430447485783,0.710794235967905,0.789230940764369,0.840734982383633,0.848715068731514,0.969003122869842,1.00018599985544,0.78796395902425,0.784871293668202,0.786864005063836,0.795229849684399,0.843806383605724,0.878945131635495,0.919696570694403,0.925725593545343,0.932587091488314,0.952336122409568,1.00582767918357,1.03797599500324,1.19633186419803,1.2105896373008,1.20919356389388,1.20728299354066,1.2068031679811,1.19733561400714,1.17106003109746,1.17110556337762,1.1836454263832,0.905470999706778,0.770880019002555,0.759616400808985,0.774952423418403,0.77878794471981,0.717167999936781,0.717345738923144,0.707500355921976,0.69077030576917,0.690234472737572,0.689844853959846,0.738358782897877,0.771566313091326,0.772899340659271,0.692840060257692,0.671618426978206,0.669825546823711,0.67987887875639,0.689930822655391,0.688246382806621,0.683131438552469,0.71988706301513,0.72620759433543,0.683177892146606,0.685999968491366,0.690739513378519,0.710692982084471,0.719665471817709,0.822653309672853,0.833888788002693,0.833867148499586,0.835228105029828,0.691500420416453,0.656873269033848,0.669638807125186,0.680857717356345,0.692926592988212,0.698074778969866,0.764800448328741,0.874764291084321,0.880706446225687,0.746765031975011,0.743211253379887,0.747853197413197,0.779782215835992,0.787205616960033,0.798641656271434,0.864408408026572,0.889229420742296,0.890355803955627,0.89188437519532,0.560309145633514,0.557809349954576,0.547791496207882,0.547832196709578,0.605554127100902,0.662968363651304,0.659969078782337,0.748849421077985,0.760964301505709,0.752356071974931,0.511986114279842,0.478618085424967,0.478556797101396,0.495956273336387,0.510030990351363,0.564488666441564,0.619206958064294,0.596972967653593,0.568019771712598,0.553108674348148,0.575052611939507,0.611859764347898,0.617642744560109,0.644753755049717,0.664317152040697,0.509184148275646,0.510678555432383,0.512830325565697,0.513598663609546,0.534216031905605,0.538403230397754,0.529633023402673,0.522306474563224,0.513804425276849,0.50421325263739,0.442555737273987,0.434872858665992,0.431497971237193,0.428643504667448,0.428445757224197,0.518306697587075
1.22978999877234,1.1719996894723,1.16759530849902,1.19626554798725,1.36003883312385,1.3358954213008,1.33704823545771,1.3546809666942,1.35149457355836,1.3503178722356,1.32986272170788,1.29656497112062,1.29722497117835,1.38905439851478,1.45844679199918,1.59664999997907,1.48861731909317,1.60326999998954,1.67966999997907,1.46103068871795,1.49355719056762,1.44368912176648,1.42008356383278,1.42033600616788,1.34060901586353,1.34666942981901,1.4020061680245,1.39136930462279,1.4055693258075,1.4240258859567,1.32943979258373,1.22955972342352,1.26741170807767,1.23665782389872,1.23789364493517,1.21556578485709,0.753360148993632,0.699640180534029,0.700199513783915,0.740638614447803,0.739241467070465,0.837332939278636,0.838247047876915,0.768180477284997,0.702405794465743,0.702284048642749,0.693252822377248,0.718051244856725,0.797839040079692,0.694867147383954,0.683629407648311,0.700846421003263,0.691423875554687,0.693751668080129,0.843283670657493,0.842477624439279,0.853355595679618,0.938959995531656,1.14499999997907,0.74230802402976,0.781915864399424,0.78777033793567,0.777204118425295,0.809177840079597,0.848428997379828,0.91610533461559,0.906238930602821,0.921767353778525,0.898992084383518,0.980898329212078,0.980455662553824,1.33382999997907,1.21094272919096,1.22953896340207,1.21251180351182,1.21435709855812,1.23879887160788,1.14454466951849,1.14509145927925,1.24361001770199,0.902977399917702,0.795861160050483,0.702632019446779,0.770091739908443,0.782827328327595,0.717335455603049,0.878635441966881,0.891664542477209,0.691768120434675,0.677139289737207,0.679647289797923,0.749599306027418,0.770750951493448,0.856975039477427,0.669024070417222,0.674255418960756,0.665031674501937,0.654711850715677,0.689155803169281,0.689758100544329,0.680466499666021,0.709242991269078,0.728964813513314,0.675333405760442,0.704849344898889,0.688922630943631,0.683884430878446,0.736601935189267,0.808175974676658,0.83478453696621,0.860670322808405,0.836184699016889,0.634192276472515,0.635103468586021,0.643478295940004,0.670869447483461,0.686857315260622,0.674851095388944,0.931127684318488,0.932962351002537,0.911524941987428,0.756568925255264,0.731755984723686,0.731860566261047,0.80399798925079,0.803788931404189,0.791777616882616,0.94069899027072,0.909545526907446,0.88876526359402,0.896095571502921,0.52413574354307,0.541431390436687,0.522539161090435,0.514556786449828,0.610444522608104,0.680588683628986,0.655940048371892,0.719415788241631,1.06554002063985,0.792006,0.519191472167018,0.476812164399381,0.476766173454623,0.588419024408793,0.471727974214405,0.518828826343102,0.644289129544705,0.573436830687098,0.594300500790789,0.529055717367892,0.529322069674519,0.607632141938169,0.621407572234076,0.631448760923776,0.716168053310163,0.481385117016538,0.484164621283229,0.514617604719507,0.504189866033216,0.538671982793469,0.593542495853641,0.579953273678051,0.600718945615289,0.669187333317638,0.670024666650971,0.453340688561633,0.425509518367056,0.428278848501922,0.429320790486619,0.429454235087231,0.503730490196583
1.15092000002105,1.31053620196235,1.14760492903183,1.18282581712818,1.33971353440007,1.57157393581265,1.56123329419802,1.56444283906485,1.56419926858709,1.36035417678954,1.33797883632774,1.3373024750866,1.38559488327192,1.38971039569263,1.46057961969097,1.50132274141126,1.53000579639224,1.5031245878545,1.49478563924415,1.50746664965239,1.40587000838812,1.34807208186449,1.45365195747219,1.41047159223357,1.40246966000094,1.39119054979182,1.40998115144019,1.32627994187454,1.37595999106655,1.31248000301189,1.28451997869069,1.2321919121451,1.24330305676876,1.22575680539521,1.21290616550691,0.741602535026208,0.762773186791107,0.765524624042481,0.67920595766094,0.721229524558489,0.800059363297215,0.801278695202856,0.786727794552979,0.770565631695095,0.6749404835625,0.657921314959191,0.65304954350966,0.623160382322753,0.664709692660973,0.664334508844837,0.706863385999115,0.691800018622753,0.669652023781649,0.687902278143065,0.704771012353102,0.833826915952115,0.807592995558094,0.793473760726942,0.836743344604046,0.753686963351529,0.726044383864738,0.798081562604479,0.786566851151973,0.822449574431905,0.784709040809425,0.894545976697536,0.839812088775617,0.850313951036333,0.890714735583894,0.935792485354779,1.31830999997907,1.16026644508162,1.21301288865232,1.21280640953121,1.21372119958316,1.23101686715023,1.19186998392853,1.1356009423526,1.14608710529787,1.20608998834781,0.79977,0.75753908697595,0.685068414377577,0.709873731615002,0.719070376884681,0.828887,0.917536329258774,0.917822996719088,0.860971999989536,0.641990751900031,0.642694582535215,0.695933365585712,0.783759760700405,0.828261509580237,0.828719566841686,0.669543983857209,0.663583131600354,0.671466170957891,0.662047660288988,0.652639686148527,0.675189577153817,0.702101701726357,0.705351587926513,0.675802894336359,0.70745813173146,0.700060921181136,0.700068445812071,0.743486943664848,0.85429300961478,0.880313790596907,0.950696014415627,0.847148071330778,0.655146507281979,0.655797218763293,0.673032527488503,0.648796567413033,0.728486050612728,0.662024310044531,0.628069970284187,0.977364046711011,0.953010975928218,0.72878998344434,0.685303496017996,0.693617504001817,0.733940114081385,0.767948352383438,0.783752629773904,0.908005962708977,0.946449981224502,0.99785401875457,0.55236448324787,0.553259615545374,0.55762261106708,0.48791205764717,0.598779987723324,0.613534391739798,0.653376313852829,0.674395625264155,0.734693187775,1.03152997932876,0.984252315883426,0.607754,0.505777648292488,0.481576588598562,0.589123024458357,0.568315229655185,0.523915590134517,0.524619563484436,0.646918010770512,0.58352630832269,0.530314069647025,0.530695050705283,0.561062385533042,0.590354065796097,0.629704325513848,0.684370951598444,0.68627879857702,0.473527379390558,0.482248416260548,0.529059741122884,0.544330828659378,0.597191598418551,0.604091824948272,0.60208815872983,0.465979274939002,0.4588467238472,0.459756876877337,0.472171517306505,0.427481517620646,0.49296851136906,0.494064511768788,0.504031240127658
1.31645144074124,1.30787237749877,1.28792997974532,1.18273835629995,1.31908000115324,1.46852,1.55890186864127,1.56456592284771,1.56674799422619,1.36482329153303,1.36531690887158,1.28770779850054,1.31057083604232,1.37431573565672,1.46867356178332,1.49190026165436,1.665170021726,1.63190997824261,1.5191174200375,1.42522001921172,1.3710095144174,1.33711786791922,1.42336000916692,1.3234187916561,1.32353879199604,1.36692679025274,1.37858369603941,1.35153999787539,1.44767005145013,1.3784100416839,1.34821330402488,1.23079192428949,1.2261263988975,1.19900994839949,1.19876994842697,0.725483597246027,0.725922172534386,0.727821886340802,0.678365885075796,0.719782857672246,0.731590993106203,0.787809272320609,0.759525932342737,0.694197025361234,0.694342482314494,0.608219537363385,0.633572487638605,0.645509819274014,0.657749104258126,0.660472949285136,0.660214017278452,0.680677060506646,0.661265906751619,0.716427679791911,0.771240999776817,0.850594877980108,0.832118827035191,0.859344901627634,0.836527370525949,0.828852565943295,0.741650271578791,0.712180729884637,0.741594913699489,0.837247706672002,0.812641951722226,0.902793996803448,0.839130070232412,0.831877888021123,0.880670451054874,0.948988503243812,0.965969011401407,1.18813351002982,1.27574002966678,1.23436231789483,1.23630899126308,1.20442292406926,1.14690682533842,1.14792733105246,1.21967000521485,0.704284646969423,0.727983131329988,0.755296786548321,0.669641325296472,0.725619982822433,0.777942026457121,0.902730990637869,0.886027674621553,0.944995006293071,0.688646000010464,0.627870558336234,0.637990605736968,0.677145601022996,0.750167988293385,0.788049975224863,0.828735908823468,0.633428658246363,0.632075324905744,0.698956123504986,0.677313784358437,0.723701440819307,0.721939861642221,0.73709484975584,0.705333414333997,0.684473373371611,0.689293088408861,0.67360651060697,0.708350427674339,0.699590887686715,0.760002018757513,0.87039420820568,0.912061988384141,0.769679493127918,0.666326211882771,0.622668893631897,0.624409125813333,0.599195010911833,0.588767319008757,0.73884024712588,0.874028061837395,0.859964217488905,0.609175271019137,0.601195974740948,0.583537344303864,0.576697409988369,0.74632990575017,0.791790792455399,0.792413831997152,0.791442276448996,1.02118999997907,0.803025833333333,0.804685166666667,0.57350870363156,0.53624061419831,0.497385475043198,0.497123967172794,0.556752873945457,0.655835646771099,0.680591675847782,0.927919564536148,0.932146125855594,0.984253649181103,0.724851999989536,0.503660314111433,0.477082747749256,0.541855416664354,0.542349351840658,0.625196520248379,0.625482520289385,0.539502808276063,0.54020071109208,0.563392689525823,0.581954993255597,0.559787304122593,0.587641935774326,0.630858174947316,0.676545572230754,0.677258687908118,0.678181230403378,0.466010001240015,0.543054838510976,0.547029920062721,0.61128171294161,0.472617166682362,0.472717833349029,0.784282003780769,0.72289603745366,0.752705782292322,0.388725826616517,0.389979037625563,0.466981959538658,0.473418863403469,0.571967999989536
1.09531089091533,1.11298855341139,1.14442998684913,1.17532032626736,1.30166067854684,1.4169464899401,1.57409923004418,1.57059001914088,1.56555312351092,1.4526499572996,1.34121799868539,1.31196899982928,1.3668402318937,1.4021611476582,1.43245000773834,1.4829918565338,1.47932217440519,1.48670710525181,1.46158679111312,1.40349630950105,1.3573225038423,1.38843120469499,1.40028434789048,1.37896811202444,1.34361424864827,1.33982758240105,1.44602122470979,1.41910921828164,1.41715691097123,1.34010204165344,1.3612302212812,1.22769082358572,1.22707873659924,1.15436078082286,1.1723439230742,0.773959098580246,0.675495964062234,0.675532619705639,0.6729994487527,0.742206379267712,0.780576036104552,0.788081938346397,0.871362033048507,0.729426021666726,0.650729281662556,0.610920005363649,0.623340237203432,0.654155309119216,0.639343326968526,0.699032587359101,0.699157706251209,0.662406356697459,0.662409630122457,0.718234662633549,0.715096388133056,0.730550411669768,0.813792926401463,0.807731088370704,0.711143746614006,0.71131022579205,0.720159428829165,0.78358670898813,0.755760220551404,0.761385318076283,0.801143913815704,1.17459999997907,0.798829255440626,0.776543727446123,0.826362332611353,0.849730531772501,0.860963539960735,1.21845036062187,1.21616383584987,1.19864584366056,1.20502821288999,1.21449391338935,1.15890088452985,1.15881174291486,1.15935574304558,0.706163313675218,0.783072542915819,0.665477209489816,0.667110983453197,0.725802463219639,0.725774483707837,0.806845873221677,0.970023944490376,0.971416093479275,0.818327009900518,0.680997204223405,0.627770474086989,0.714911599188209,0.691032542804203,0.711034638599594,0.764903412574728,0.588057972214421,0.589377972182047,0.65346894090349,0.671430047948821,0.680341491208826,0.722142874923933,0.770553070454063,0.683971536388865,0.656313662794951,0.684841135116856,0.661666835984249,0.662799744157592,0.71362178292256,0.729431448801891,0.756971018629443,0.774997457894609,0.768798497664565,0.656984334300733,0.643145167227946,0.610340945623191,0.627239200432888,0.643245766278683,0.746848102395792,0.747201162380986,0.877397720642309,0.71169193906864,0.712986254648146,0.669432485112601,0.669634485115383,0.72775961760367,0.562884000020928,0.781878873008387,0.554927588967398,0.558541588985643,0.531886822088813,0.928484999979072,0.542303010907979,0.509171987575675,0.497552083323471,0.54217744597764,0.573661050538551,0.626216803032999,0.682656850234256,0.925051269269026,0.919761846107487,1.01713003490408,0.481260385960687,0.48419214257654,0.490993431681753,0.543046684736468,0.543842930446625,0.55590006505725,0.597939420025039,0.598252914269165,0.552095405311176,0.580432493507371,0.553063082688417,0.551047997941439,0.604000303685885,0.610251290490525,0.667456728883786,0.669251995727622,0.487550624883798,0.486043854690217,0.438577112812694,0.462536553413579,0.463138989943581,0.612376990598985,0.667524673472699,0.670244776824334,0.724496894876326,0.723366312561454,0.399906191624559,0.390837911609416,0.472968420508575,0.393418998880348,0.484430616225657
1.10107344631153,1.10560771547072,1.18959925529301,1.21989718939085,1.2847088363397,1.43660230385246,1.56365627161154,1.5687906178672,1.5682587524839,1.47163475836934,1.33151919877142,1.32314159629769,1.34357976110876,1.39179735904522,1.41549227366958,1.4825611704373,1.48125194125489,1.4738046601363,1.46934209503406,1.39664411860134,1.36897149963466,1.37555894053578,1.38104489191079,1.38293698773439,1.39121504448836,1.39615604599638,1.43668277429573,1.42938601043668,1.40997951656628,1.33233928879085,1.32421329283091,1.27055000140808,1.24787704100572,1.14481458038978,1.13641994567373,0.786654704952142,0.685146654200883,0.674663858003753,0.67380847059038,0.730410170209153,0.751279585180808,0.809070201791155,0.826030026784211,0.764245016221106,0.630152708336736,0.62013260962908,0.622665944578725,0.641829711422106,0.654299291348688,0.683139203934785,0.688550348972712,0.67995723340649,0.674405863106767,0.694829066574283,0.703559874847602,0.721665365524876,0.811009618106842,0.808908904308429,0.733384289118257,0.727512142414835,0.723654606922723,0.73696243077606,0.746862181264856,0.751994770317147,0.774917920856105,0.794033656770841,0.79734552793097,0.799462023075099,0.809311384631479,0.839707270219435,0.842582650160915,1.18642762828883,1.19530879270614,1.19720741279163,1.1909156146801,1.16757010137454,1.1621295238155,1.15985013535276,1.157907806913,0.793777323586673,0.772678067873849,0.72374875058118,0.718505632272908,0.72231102514906,0.759421931115435,0.79886900913387,0.969427092186826,0.970236897656961,0.775753499999764,0.700353130071933,0.698078508673477,0.697152730342626,0.694016800761187,0.728902730415344,0.745321203844116,0.627830160446272,0.613080898919608,0.641121729055485,0.652149151854341,0.679688501356434,0.706000321330655,0.729354322029014,0.689261254681719,0.673443644722514,0.675502606109886,0.67651388020057,0.680134251522514,0.712211842525037,0.755378351320874,0.761312612055995,0.774927414536086,0.772562384525737,0.638354733001399,0.632708983134393,0.623363182739335,0.632139921969372,0.648988509784779,0.704749390961011,0.769263610922348,0.78154687267178,0.746185707937904,0.714473004938118,0.705090403640868,0.701494463216731,0.733105415924217,0.744937604136966,0.787891958138005,0.801301044545839,0.807272191906184,0.81194941475928,0.818089010599491,0.537533379065975,0.518186291582709,0.528000661179228,0.542905998747557,0.552813203831087,0.621429188538707,0.651235100129847,0.834076310831434,0.942431920704328,0.954231929217298,0.482346732899167,0.486378478497735,0.488807404348782,0.519477036355603,0.536324350309995,0.554121251712377,0.591867638635007,0.584515797365809,0.579735326768873,0.57250068446082,0.565377249709682,0.572358622971677,0.59350619642248,0.597038660520312,0.617081701580732,0.618005929206749,0.542054940446431,0.467320149428094,0.45601019404574,0.463703472553785,0.464046944864982,0.639385322142292,0.670503163519188,0.673380085607485,0.699385552868648,0.69203630987292,0.430373285767481,0.430797846013968,0.454552647544838,0.469536937448385,0.498064022325791
1.06746807878959,1.0773064087915,1.2536971674289,1.26344976145979,1.26152303302159,1.45020195051934,1.51735585850482,1.59425496731446,1.57559647752875,1.5128933751384,1.30570520348499,1.29047547650722,1.2975141108498,1.38137003852192,1.38057022162004,1.48496779047307,1.47978278024712,1.4679801103082,1.51542002480509,1.39161998603998,1.33499660596706,1.33852707239509,1.31630639102096,1.38943089936319,1.39350179019457,1.39997153671581,1.49250003881606,1.45672994670903,1.39551973772119,1.30141614724792,1.31616665642199,1.29851477239175,1.29762795589884,1.12594055697403,1.12571388981666,0.799318309898553,0.701752772430376,0.608696595236781,0.65205944647369,0.72216145603483,0.710576793170854,0.894625678296533,0.911990660658847,0.912024661002765,0.615141724730599,0.61577681151043,0.613294574749054,0.635408546790154,0.666329780188072,0.675906495083749,0.704609724297242,0.767158508900171,0.669770721257172,0.662209726409945,0.697254687523991,0.715313510477809,0.82210090485994,0.831235057091609,0.740117494334162,0.730689988106847,0.67885908892239,0.691859322457389,0.740355317027475,0.742549189305169,0.724659249866556,0.78977708298667,0.773437281945758,0.800809099111673,0.798697924591051,0.832738331337717,0.832754519425775,1.1657477608316,1.19229482876244,1.23516006131751,1.18567767556345,1.14789997216651,0.777116000010464,0.719698000020927,1.15450800497246,1.25947999997907,0.759702785523505,0.727816678000702,0.706425608478187,0.718381657791169,0.792507276170325,0.791450117544163,0.968212951179903,0.98069563166513,0.733179990099482,0.703170239210128,0.697620057134692,0.699969574991052,0.680723165182027,0.746494182486244,0.797608039784692,0.65279247238862,0.590732242371831,0.631024158189821,0.626674157257388,0.679009918640182,0.687711046896557,0.828476052373538,0.694750019038246,0.670603293701758,0.659462464543372,0.677383647386442,0.691461067483724,0.711160371277793,0.770769014263091,0.803498243688604,0.821790796869371,0.795584985716432,0.611759875859498,0.590898408138116,0.612482353597142,0.635310055522722,0.652979285156348,0.653562244952576,0.803532762472853,0.794378676333714,0.790758733950933,0.714772403807783,0.735609801836747,0.698914982558894,0.738452809497052,0.790970687530814,0.790990125735243,0.953424022663332,0.917135009296298,0.892632609523023,0.894989943754861,0.527893906648571,0.4874838399436,0.539523086938581,0.543802088988444,0.545211662858131,0.61652039879558,0.620565276703892,0.79754610784361,0.951184501682446,0.975431607968788,0.479934354313822,0.489293636509255,0.4892475183284,0.496349386309548,0.526745473888556,0.552815323555293,0.6499330059988,0.575883609049431,0.601304279834535,0.565949495468085,0.490653389979508,0.583696582797076,0.582897326442338,0.582925589377394,0.615546693485296,0.619359358521058,0.667455033157555,0.435337408274741,0.437366049370025,0.518983107955223,0.464859875982449,0.716917810513708,0.706668758718667,0.67742710798855,0.707400651246857,0.68394632354935,0.429780554040916,0.431036372133524,0.438938387254074,0.483950972716066,0.511717946497508
1.04670129059457,1.0552841354923,1.14350001098666,1.16356996805787,1.32479,1.4719667945931,1.51588714572478,1.52017449815476,1.51978769964633,1.49287662485551,1.29489542580964,1.29505382631737,1.30612600461444,1.35759719343723,1.43894999983321,1.48595599156547,1.48750162221176,1.48896571472641,1.56098002685669,1.37105534558138,1.32819852533243,1.29830713866195,1.27765829405273,1.35722992898385,1.44322384499904,1.46871744454499,1.39189021184458,1.50291002075077,1.41633686128652,1.33440241222701,1.29073139469439,1.29443124403785,1.22554581986573,1.23768494334574,1.22304831227625,0.690761642613097,0.670073988837123,0.602447225981685,0.63894958872231,0.714459077177382,0.767648003342601,0.824159169337401,0.82195583599861,0.622039919612568,0.655272751204919,0.636404749865174,0.635652994407383,0.621578193872612,0.670852038528871,0.714325013223137,0.732222044055234,0.767384508918574,0.660362300329018,0.650167293276253,0.677309530531409,0.694837469386409,0.770399680005871,0.769778346699764,0.755680425455678,0.658844276416138,0.680936930684502,0.643455409117749,0.696716755026339,0.709286561293513,0.809305347179947,0.812022680540929,0.758878286340184,0.782826949263765,0.791309774849654,0.809035992726678,0.813673709155668,0.92027200930602,1.1287877404183,1.1300950013723,1.1314604454384,0.682156000020927,1.14054054992569,1.14343462189469,1.14443431764401,1.1301840777903,0.777657032841183,0.727641043100032,0.680117680867365,0.690800231024733,0.728653000010985,0.790739337248267,0.816056958860935,0.90478000461721,0.841834999989536,0.639989135560126,0.641896646507855,0.691290074874012,0.702553229676903,0.721971991790246,0.77055099402777,0.626299019770254,0.599748483453234,0.600661029315702,0.673604235736204,0.677933599034457,0.781019995008172,0.783607952597363,0.879677656474388,0.879905452221482,0.678492695586339,0.655481269409073,0.669232529457816,0.665514633554033,0.830619674536261,0.831419980845521,0.854312414803336,0.841143616479569,0.635412368726724,0.629731267246272,0.631050729840623,0.662646321331998,0.683784988018487,0.722106800449671,0.801481611734144,0.838375083327884,0.632534870095289,0.679436986529716,0.708058464953086,0.681240937508309,0.703138874332748,0.683763013643674,0.797840016881497,0.851600923235599,0.852696693183215,0.880024037477486,0.86727336707343,0.535918857987231,0.518583488654642,0.51708312356906,0.515122529207709,0.536381774430539,0.576932989242733,0.604574987742331,0.799986539205651,0.800257127455808,0.800124225484515,0.497721423008606,0.489028324561844,0.467027354697611,0.476597548048954,0.538955189317423,0.527877058818985,0.558805187962722,0.477768963940944,0.571542772623079,0.49071331116115,0.519268816328467,0.539776008426975,0.562873839931461,0.622312448933002,0.653193954894183,0.622254695809553,0.592039946102667,0.43335944462921,0.490248448071509,0.462135582920291,0.528534,0.692597404305552,0.676710844438728,0.655963016583345,0.705355751751058,0.425146722757004,0.518484999989536,0.433293398324317,0.376749639182822,0.518477087091795,0.476174461375437
