0.58573952340675,0.585238924907269,0.585747044920097,0.588201565442594,0.588693806705021,0.58810963583501,0.618377876993937,0.583489755192054,0.582949041954719,0.580604001237618,0.579795020690878,0.88290030847504,0.808561849163986,0.71888033834714,0.599389398685582,0.600153250152236,0.599753774221098,0.599214732431172,0.597727979959426,0.601151939980082,0.602541748502013,0.60288439522119,0.606584144064598,0.60634679853229,0.601693488941123,0.605196842713783,0.605267879228735,0.615636703240519,0.618504071273439,0.900099502330325,0.676331137338678,0.714781949296298,0.635266181630847,0.637601193663484,0.634550802139102,0.644589515287288,0.651613773030421,0.641503187643578,0.680802259162088,0.675522992515643,0.67529901856262,0.750737290269862,0.806142429037112,0.77703333665745,0.825482747025403,0.819192254695532,0.819090296403485,0.869311441026695,0.870297594998961,0.887680648069415,0.897726047007244,0.884897688130731,0.902222240541814,0.940949677045892,0.917766701460585,0.904211262960452,0.903726543211372,0.904094261641708,0.920666662718011,0.952148374697049,0.959302169614505,0.975364779230569,0.981557491886918,0.981014271478466,1.01031474458664,1.01029803011254,1.03180120105017,1.0862903866364,1.15191141197736,1.13128575093031,1.19334659328665,1.35815966521089,1.43517160465523,1.41089383101597,1.46371156919157,1.45919030394585,1.45176907744269,1.39371970887184,1.43825542512782,1.38525382773705,1.37620294000854,1.44983855568342,1.50296551163,1.51261812042633,1.5013609221158,1.47796065836711,1.54225288301663,1.49901253850388,1.4699627825073,1.40943131453167,1.35789223362519,1.35196695255454,1.35160759136125,1.35623750068867,1.2835963962231,1.2758993808972,1.26767585963694,1.31333144565804,1.29056633192539,1.30287654210461,1.37605250974158,1.37576000644472,1.30854274882662,1.29307350304132,1.24596375777298,1.22470294670989,1.1801672304539,1.17501917242919,1.17186849406017,1.16334411226601,1.15848855753816,1.13185404304992,1.11706173346593,1.1019017054516,1.09426319078506,1.08656617545915,1.05012862190763,1.05459138649398,1.02188951790519,1.05958901425174,1.09734701125766,1.03314671621572,1.0229759587221,1.01270491438383,1.02747215225666,0.983070151793529,0.980939056344988,0.977855235872393,0.97835667009558,0.964450227639217,0.968846134329149,0.969447855396972,0.903525969522098,0.939771306621404,0.940490029007971,0.917582842245416,0.890697610645585,0.843378934450917,0.843679794984829,0.853825480767295,0.863085299422133,0.776958957247678,0.777487970353139,0.814620846027485,0.739750866439854,0.730239494949717,0.730298831332794,0.729600166315155,0.727484949617015,0.739627179331468,0.707780256093209,0.681263578647419,0.65051813925276,0.666710286043146,0.643479674206636,0.617917393232311,0.611903525448898,0.639155639755361,0.592448713312981,0.581799086136212,0.568175954015949,0.557763672371488,0.554729159597507,0.490205439481616,0.49363692101562,0.49521226020013,0.490887390025149
0.588128857480232,0.588457296896419,0.590539920370052,0.591095676634083,0.590562484910095,0.590483926881796,0.585599957547963,0.585761252223088,0.578828924087539,0.578923360866239,0.737072371964334,0.730208573172621,0.723641456296293,0.598119934377216,0.597931060819816,0.598325522408722,0.597857517133749,0.597259974684452,0.597830773975179,0.597418762188461,0.5976452433126,0.601128539716333,0.606355991493049,0.608547259048372,0.608253920027808,0.608225505421828,0.608843940963757,0.813090635923062,0.624427680896678,0.625301012168727,0.624453588331543,0.771006097294753,0.660103890152668,0.658124060694788,0.646633695470477,0.64664038126012,0.629727004912051,0.635187623602548,0.637146559967795,0.735566397847365,0.707587203917282,0.709056406191218,0.788742661492552,0.7799683983105,0.825726778347353,0.822566907017575,0.822169102533848,0.866804269910764,0.859500044726352,0.884070321662474,0.894934729831508,0.872069329254219,0.879490555757374,0.886610921726618,0.890112604051868,0.911014053921678,0.902999463587752,0.903133179380602,0.93291837223786,0.935977120999296,0.964007294075402,0.975824427268489,0.978281454962102,0.982426644540441,1.01573023419706,1.01094153736563,1.05339630159539,1.09453062237076,1.12806821466486,1.12824371664298,0.00360558785353128,1.38360745203758,1.41083533035659,1.49604571935003,1.3921234765947,1.39250790949914,1.33159200861907,1.31946565765502,1.31974980371483,1.31064041532694,1.30267596841534,1.36848921020852,1.31700862996141,1.3609008389643,1.37079580763518,1.36573967921805,1.34577423989819,1.48335943350342,1.50950922824258,1.36803791940765,1.36844742402326,1.31903943856531,1.2640488187559,1.28837673581748,1.27367635584107,1.26774271753337,1.2683611530753,1.26745857147356,1.26127421605427,1.28941303321206,1.23571778514588,1.22717668887761,1.22440208617598,1.20074274807864,1.17512781651088,1.16894346109159,1.17186013682312,1.14879416255656,1.14524233680899,1.12012048222736,1.12026255525726,1.1118635320189,1.10943157603644,1.09512398620153,1.10625582595626,1.07581876860886,1.08070775228493,1.03341414780142,1.02588427721658,1.02000078233119,1.01944084744863,1.03791034133599,1.02233245146901,1.01624838289435,1.001715147659,0.995748080403086,0.988393711796356,0.987156840712497,0.967074400073891,0.96639746387259,1.05447438517524,0.929750979394734,0.935367042694419,0.934815465048914,0.921602673267959,0.888892447442115,0.894817728512765,0.857778453893413,0.836693144808435,0.788367421548868,0.808524241597247,0.80585243291137,0.788034803514155,0.720910311227339,0.720287697066883,0.720002715283372,0.720789967013774,0.731583338667856,0.732485920269591,0.732881217582203,0.703912526785033,0.661041572150027,0.667922921139551,0.669148927815242,0.645218815237387,0.624203706943655,0.579260993243184,0.55678671135998,0.548777971091992,0.545956567862865,0.521165659868541,0.519580291999567,0.495997004759416,0.494161755502555,0.488256531800833,0.482993143904788,0.476813802827724
0.590391161550507,0.590620985569467,0.591195127755015,0.59095360360418,0.586428995463631,0.586977230214314,0.587171118113946,0.587309012525322,0.5887849005889,0.589425064947168,0.591419101708038,0.591106541042252,0.594085060327978,0.600834364972064,0.60036635969709,0.598036362006685,0.597503170282697,0.598270364644172,0.599289111840945,0.599858239684261,0.600068842057999,0.59997607672671,0.601319084721144,0.608459508059315,0.609155665905838,0.609255952750475,0.607322923820093,0.813302909744211,0.626220308244569,0.625897718894319,0.625657866190895,0.625977948370029,0.750980485868108,0.747014976886411,0.79599423608353,0.662253371522726,0.644645508775544,0.653283548993631,0.698810433564114,0.687147909256509,0.682032444456305,0.727423106062822,0.800059196186159,0.801501655301525,0.824146424820612,0.842718712723722,0.842075205470633,0.848042272726548,0.891750622514276,0.902648459631522,0.897249684495217,0.898277624652749,0.89232727187094,0.878788547844913,0.892093269233453,0.888808875071584,0.905030272191656,0.940122310577634,0.970066290938902,0.964090866445933,0.972331102180293,0.98064655304813,0.999508837076983,1.01654924342826,1.01673310264343,1.04891682253493,1.06901597764764,1.12241872241696,1.15039875207075,1.20706081929079,1.16892674661748,1.41698625682768,1.34843184128108,1.38573854748613,1.39188111672016,1.33992417396102,1.35015343211401,1.31377437922186,1.31575504440344,1.26842801097172,1.28486669625518,1.28930438913037,1.30408834147731,1.34880791694847,1.35776687506939,1.3519920242657,1.32280855247626,1.32425435448645,1.32437135580519,1.34493851619288,1.31346516145089,1.29893192621555,1.27590773813425,1.24692484003409,1.24570468342434,1.30784074091416,1.30718887642401,1.24979972958036,1.23633622068781,1.31392480948881,1.18092773902574,1.19166678863897,1.16013493323762,1.16627750247165,1.14727314541289,1.13132753711557,1.12293687111426,1.11121166752875,1.11687787425076,1.12238529346875,1.12226829215001,1.12147435462996,1.12534375538555,1.06992691648643,1.06888226185479,1.0681133960459,1.05974780175575,1.03589624720619,1.02482290811083,1.01878062572144,1.0118023327821,1.01161011632988,1.01243748279813,1.01286370188784,1.01404207231233,1.04162931182462,0.968027125097945,0.954571973442449,0.956126419534326,0.987382486112931,0.984908743945212,1.00199093648175,0.990516450007844,0.986187401214337,0.95247430694212,0.951555010866279,0.878654832052064,0.872445404921608,0.871509394371661,0.826637717186142,0.782821559040429,0.750910285076862,0.750604410200718,0.734725659799823,0.728989252286573,0.718998175389589,0.718612906761441,0.721983380464957,0.723669870902273,0.711309517300734,0.672264505788638,0.678585919895605,0.680467133956259,0.640415911102969,0.618756459832443,0.609534248744344,0.593982266312225,0.539346829077566,0.540561135621381,0.526032914728268,0.513538009610174,0.507941167955711,0.492888112575662,0.493956167471049,0.485337348898184,0.468331207218825,0.461744032973569
0.589827883773127,0.589641517386843,0.591297086047063,0.590936053406369,0.586823457052537,0.589935692131113,0.590729629651157,0.590843288075079,0.590863345444007,0.595491583324015,0.591353079535319,0.591232735321754,0.882407231488907,0.606789732096105,0.606661866369192,0.604268353677184,0.603609803397399,0.602815030153649,0.597378647450606,0.597883424568613,0.598879607225343,0.597190609616911,0.605270386399851,0.608065882194114,0.606325069715952,0.6054985389714,0.607301195003755,0.719685975999059,0.623209195734336,0.62550910737135,0.62650696147549,0.62814999428013,0.634606795627357,0.718506769850866,0.66105160083449,0.640807865520759,0.646030302955243,0.665960641879483,0.688885378839849,0.691866405296691,0.737221966507585,0.737417525854627,0.777104373172402,0.75530869893791,0.819419571543377,0.848025558252442,0.848760995113115,0.848401633919832,0.860728558573158,0.859993121712485,0.906726791313436,0.960898401891648,0.857318805855492,0.915903037597743,0.873966422065273,0.90075972405752,0.908941459132508,0.939620876354448,0.963480788141057,0.985176175530911,0.961892913100967,0.993023621123775,1.06771224866735,1.07942073777875,1.08283884773347,1.05636312074924,1.08257141614777,1.20174561652502,1.20369285275839,1.12486739287352,1.20476257910119,1.15789519370739,1.19284515906346,1.27256484331301,1.32927705395536,1.31013062386671,1.28196673499775,1.24511131959357,1.32902633684377,1.24826199796259,1.25954426798427,1.28171601788616,1.49648029567679,1.50059205630692,1.52293095094986,1.5292323076879,1.31969130305546,1.31316430091698,1.30611915008122,1.32219011693433,1.35861931324881,1.35327068153482,1.25442963890778,1.2540869921886,1.24457645642217,1.24310558270082,1.25606765737018,1.23922782470818,1.22733547638162,1.21898659656557,1.17892200213299,1.16422162215658,1.1611712306322,1.14672156776739,1.17178492168964,1.17003825914554,1.16936132294424,1.17625604351305,1.1093145747177,1.15491166007943,1.12065534539876,1.12052162960591,1.05634640627513,1.05642162140861,1.0714813625783,1.05026233770048,1.05160785286603,1.0513989219397,1.08228727008797,1.01887255532902,1.00781593070777,0.999199619306018,1.00131400028045,1.00140592988804,0.976559864129163,0.980153476061997,0.955065050428582,0.961834412441595,0.946991959435285,0.947827683140595,0.936762701282287,0.935609402568959,0.94355713500646,0.906944079476817,0.898127194385793,0.891441404743311,0.89437479494895,0.880276136040366,0.885231977612856,0.786955884210599,0.765845503414462,0.76720188298818,0.770660107680754,0.720799995698238,0.72116854985228,0.727807538967264,0.708509007164239,0.715843318402043,0.716732528424493,0.776162512556517,0.695681484011432,0.683295222975029,0.675563942977203,0.642434183851293,0.612092399006299,0.577143269373928,0.578202967032261,0.542637909029077,0.589336478234405,0.52861279380656,0.551593524255182,0.495935996928929,0.496144092131551,0.49699068024503,0.471247047226653,0.480207676794989,0.457276254044981
0.604068615711615,0.601568130385326,0.600351316670395,0.592607500816989,0.59237934824544,0.592059266066306,0.591521060000086,0.591065590580692,0.596746004605686,0.599391905856698,0.603288049770855,0.604416276773024,0.606818146702085,0.607628798696236,0.906409216305418,0.615972664170054,0.612387409474273,0.613715374442011,0.759030176597656,0.610766941209676,0.602006885330614,0.6026813143608,0.602475726329293,0.845744032536945,0.600647162862074,0.667415636850428,0.617306479203729,0.620087767695002,0.622798855395028,0.623868581737826,0.627995385394648,0.627211476559067,0.736639467084983,0.648879285066646,0.649098244677437,0.647183601668572,0.650750470442836,0.649269568037026,0.684467743333579,0.698348278355077,0.715544965039247,0.705374207545621,0.715354420034436,0.734102209915662,0.755623766774812,0.801951274654981,0.788373271614805,0.787394639155887,0.802427637167008,0.802616510724408,0.866996486362985,0.838222519189153,0.839960824496198,0.860452769750406,0.869294726552589,0.870882601592678,0.932015790636125,0.891483190928576,0.918677640299373,0.949014410802136,0.969815573827309,0.969849002775521,1.11132031161044,1.00741478332922,1.05995673268207,1.03327207477152,1.04183824275095,1.07439803830984,1.07653749099543,1.08516215963423,1.12965608970495,1.13106846276693,1.15141833499123,1.14910338032752,1.13685167080767,1.15344914359514,1.2268925428178,1.22057447160566,1.22943314288195,1.2390105365448,1.2577391047808,1.24948215457234,1.47969060643711,1.48411994207525,1.49979811878687,1.40862901977457,1.33083985728429,1.31371587856249,1.30260911051891,1.24159292279421,1.24108313133397,1.29959214794274,1.28724850881531,1.2708014662948,1.27266513015765,1.23843388718814,1.2201398952789,1.24354015902758,1.21008613910401,1.18663573193301,1.18498099899649,1.15510387653165,1.15547159496199,1.15683382460164,1.10977422275562,1.08957478079827,1.08962492422059,1.08995085646566,1.09994611198117,1.10543681672506,1.1264218389654,1.10572932002192,1.11715366307351,1.09215716704768,1.08898977420455,1.08212848258396,1.09611849741085,1.04430362768161,1.03639768142938,1.02264166923997,0.987917349284329,1.0293191016454,0.972514961395461,1.06363391698544,0.957555507070407,0.955156980036166,0.923265763441526,0.922822829877712,0.894550296927065,0.934171957795825,0.885624767754351,0.879097765615878,0.877317674123567,0.894934729831508,0.892310557396834,0.889978888259018,0.894441652845375,0.894433295608322,0.846270538471291,0.842091919944739,0.84255156798266,0.768894223491434,0.776714925925727,0.730335603175828,0.716546997761914,0.714202792768519,0.760577101176186,0.75626560258049,0.756200416131476,0.663844589457637,0.654876438375953,0.684886440909939,0.652469554104659,0.651869504484246,0.636182970535572,0.597844145554464,0.610606482258257,0.539302535721184,0.531554541249252,0.555996952458462,0.569451268390252,0.504839797285304,0.4986855279194,0.499873091304645,0.482152405857246,0.490572322188247,0.47918475097969
0.605512746274391,0.605332229954044,0.60876872583028,0.592945133193935,0.592335890612764,0.592123616791615,0.591573710593521,0.59154529598754,0.597737172920184,0.596682489604082,0.600489211081771,0.607142407499746,0.607177507895369,0.823548882371315,0.810784038496406,0.61724045703101,0.61767169046295,0.729849211979337,0.756482055020165,0.620848276266834,0.603138455227604,0.60297883199989,0.594522979549561,0.594622430670492,0.59372820630581,0.665222697847694,0.621654749642459,0.621103171996954,0.621037149824234,0.620370242307397,0.701804831600241,0.62940107266698,0.630784195399268,0.738680304373351,0.648171427088248,0.647316481737716,0.647131786798842,0.654960010746484,0.65974536468309,0.697018641939929,0.698039896307818,0.696848154304045,0.7063152324378,0.705548873800031,0.738917649905659,0.738825720298075,0.755819326121854,0.765144331225706,0.858137815086697,0.810514935463296,0.811043112845052,0.833074461164441,0.839133458027941,0.849931008300549,0.849638505003691,0.865057607366665,0.891132186972346,0.88906794942023,0.90345075438862,0.941075035601688,0.951078648354252,1.00397160166334,0.97218902915039,0.988995432864179,1.0065456306757,1.01157668738166,1.01250434069456,1.02560013115677,1.06268119196139,1.06279819328013,1.06223825839757,1.16947832426299,1.09754758494693,1.12949730220094,1.14129772091992,1.18215625287254,1.205205512665,1.21716471888799,1.22665854018032,1.21906181169905,1.22907378168866,1.22680061321022,1.24496088932661,1.24964094207635,1.25064381052272,1.29122655365259,1.3159054746704,1.32324312880302,1.25681980870496,1.26566176550715,1.27116082748809,1.24990001642499,1.21983067750793,1.20416085803336,1.1973998532574,1.19597912295838,1.2245943026282,1.30813324421101,1.320878030717,1.2252712388295,1.18741295497894,1.18288333249616,1.1463622065741,1.14543455326121,1.14094671696369,1.10478495223492,1.09132144334237,1.09218223875884,1.08568030833152,1.11980290721934,1.14048706892577,1.18321762197829,1.22419315524965,1.22339921772961,1.25244061648914,1.06495436043983,1.06558115321881,1.06598230059736,1.01840455005405,0.987474415720515,0.985000673552796,0.973885548272169,0.973409185760143,1.04613386259624,0.955399339910706,0.926240939832431,0.941609898773087,0.926834303663201,0.903442397151566,0.880819356448817,0.869018937729836,0.867347490319216,0.854819991976615,0.887103998712751,0.874618286555415,0.842651854827297,0.855839574897093,0.83163116632537,0.831073738613929,0.856048505823421,0.852805897846817,0.761790571996296,0.769963114110525,0.730754300752189,0.71867725748675,0.689300733521388,0.712382586538353,0.664123721175211,0.664732963756382,0.64497060529691,0.646217505065233,0.631358337584816,0.632026916549065,0.645994366835915,0.600381402723785,0.582801954582584,0.57487093661919,0.574787364248658,0.541212164387818,0.540608771872584,0.528053694647708,0.50638922903495,0.533845259925508,0.482591160802534,0.502916797039385,0.511671838576216,0.482491709681602
0.604467255919047,0.604575900000738,0.608588209509932,0.608067553641524,0.600974766554556,0.598226907011496,0.596210305710582,0.596361571701243,0.596247913277321,0.59558685582642,0.597403719161765,0.810981269290859,0.608090953905273,0.608219655355891,0.611136331087423,0.787137236254651,0.764393851338338,0.701260775468084,0.773256701233153,0.785251843575472,0.828843192044455,0.599768817247793,0.602419732841037,0.603141798122425,0.603878070706804,0.887279500690866,0.885959057236476,0.623473284425214,0.620279148423518,0.620549087180333,0.620710381855458,0.624493703069398,0.845484958188299,0.641610160277857,0.65812740358961,0.632387949189758,0.690749042702691,0.651805153758937,0.671700392287554,0.646489115269459,0.707503631546751,0.715750553070753,0.718438240507031,0.719019904205927,0.70492709536328,0.72942633578445,0.729626909473725,0.825720092557711,0.825562140777407,0.854034411693623,0.908531954516906,0.908782671628499,0.912092137501528,0.878512759022161,0.882666305837553,0.874517999710778,0.89038839287462,0.888591586908203,0.923717054242394,0.920566375873374,0.945830303484904,0.981315132012378,0.978289812199155,0.975949785824286,0.986162329503178,1.00164828976258,1.00677963331318,1.01068246301698,1.03817777292169,1.05364701870698,1.05184185550351,1.05140727917675,1.05940515503657,1.09982075342537,1.13161168317538,1.14627863420357,1.18588358059823,1.18595879573171,1.2108550049129,1.22760290796732,1.2278201961307,1.25497285931623,1.25309248097928,1.23782380888326,1.23585150093873,1.24993344537321,1.2469415545082,1.20022459938135,1.20220526456294,1.22299807035106,1.2617672930404,1.16679565116894,1.16368675898519,1.15277220739383,1.16138016155853,1.169795899271,1.33630549031702,1.34294949377424,1.31630662204895,1.26389838848894,1.18713716615619,1.14851001649675,1.14572705655807,1.13694360041526,1.10010489948518,1.09644442965592,1.15148519288766,1.09145515913522,1.10387401339613,1.09932767643924,1.16755615974077,1.07947923843812,1.22672539807674,1.23367026206787,1.40887137964911,1.01965813561201,0.998221822570805,0.996893021879361,0.989229435501666,0.987198626897762,0.984181664321592,0.976008286483658,0.976994440455924,0.967642692193502,0.944977865305487,0.962302417716569,0.959519457777886,0.927494525390396,0.915802750753105,0.902849033320796,0.926834303663201,0.915794393516052,0.914540807958087,0.888884090205062,0.81743556346697,0.806600405627622,0.822189159902775,0.827688221883717,0.790696583515568,0.8175032570871,0.781897248622356,0.775452983130709,0.753821946466163,0.733153663510134,0.741318684111016,0.714155992241021,0.670578851075027,0.6546006495532,0.640222023203337,0.629299114374932,0.629533117012419,0.671693706497911,0.589200255270439,0.582795268792942,0.580545500578246,0.57810351591133,0.552124208808054,0.559996726112077,0.517115742792607,0.539257406641097,0.549116439192643,0.517134128714124,0.521403841124554,0.482726548042794,0.536069956429044,0.475890328133356,0.474977717847158
0.608369249899141,0.60815196173576,0.605389059166005,0.60569827693697,0.602311088759347,0.602891081010832,0.604180602688126,0.604487313287975,0.605504389037338,0.605518596340328,0.607128200196755,0.610965007727835,0.609135608536911,0.608868176951211,0.611555028663784,0.622931735464173,0.623540978045344,0.637959719133062,0.636312507709896,0.644489228442651,0.608564809246184,0.606588322683125,0.608154468906876,0.604611000396361,0.605017997840847,0.680911738967484,0.617040719065441,0.840228256081897,0.619689127487569,0.619199393396257,0.620157132762543,0.850073081330452,0.73640128582897,0.735240465602294,0.734192468075835,0.690690542043319,0.775701193071186,0.627680317557746,0.626945716420778,0.642122458909213,0.661916574869486,0.71875915840987,0.678231573044554,0.672400728752604,0.756567298838107,0.771403066054775,0.724579138293651,0.756141915472104,0.761351817051008,0.78338817971263,0.817596858142095,0.828102740841551,0.868283500869163,0.868091284416942,0.868417216662013,0.869010580492783,0.879808130765392,0.892828706094126,0.92712680696006,0.927511239864502,0.956853499157946,0.972331102180293,0.966798611251139,0.979050320770987,0.983504728120291,0.98560239462062,1.00214972398576,1.03362307872775,1.01960799218969,1.03609682089547,1.09943632052093,1.03777662554314,1.0654223657148,1.10672383123124,1.13812197083974,1.12922987061524,1.15608167326686,1.16944489531477,1.21398061157076,1.25528207708719,1.28719000815594,1.26590412538169,1.33618013176123,1.2350909923669,1.2363195062137,1.24112491751924,1.18023408835033,1.14924545335742,1.16538327810697,1.12760856662694,1.18605908257634,1.17562925073407,1.15393386334422,1.14394696506576,1.15241284620055,1.15751911804,1.15245463238582,1.16075336877955,1.17224456972756,1.16715501236222,1.13497129247073,1.12869500744385,1.13593237473183,1.08882262946349,1.08060746544029,1.07422253633172,1.07153150600062,1.06991020201232,1.07749021601948,1.07642048967669,1.07654584823248,1.04645979484131,1.04557392771368,1.0310824786636,1.0310824786636,0.998731614031044,0.989931443414127,0.990332590792676,0.981808208998511,0.976509720706844,0.97496363185202,0.972815821929372,0.97472127197748,0.943857995540371,0.921778175246074,0.920624876532746,0.917733272512372,0.915643963249097,0.967074400073891,0.895319162735951,0.917039621836965,0.88047670972964,0.882164871614367,0.832528733584874,0.867339133082163,0.835840706629018,0.836308711903992,0.76336340400969,0.764674654503322,0.775508140895259,0.791264875635179,0.804416659585647,0.761793914891117,0.762311227864704,0.721079127415811,0.724513116120931,0.711530148358936,0.695372266240467,0.642260353320589,0.62227819952662,0.661742744338782,0.651313748220215,0.591143312885286,0.569219772923881,0.583929345861047,0.534650897577427,0.534369258688738,0.507893531704508,0.50892147186204,0.496353023057878,0.495154595264464,0.517612998397266,0.49429630701911,0.48509916764217,0.487704118431622,0.469817123966867,0.542258490466867
0.610498673900272,0.610723483577,0.610069111915742,0.609769922829241,0.843186717998696,0.606793074990926,0.607935509296085,0.607368052900179,0.607019556115065,0.607164136316084,0.609529234402112,0.611045237203545,0.612660691125909,0.611962861831975,0.897817976614828,0.6232192244188,0.624209557009592,0.637398112803094,0.638060005977699,0.637282782931761,0.767547872602179,0.605695769765854,0.606088559907349,0.605906372139592,0.614156636558415,0.614429082486346,0.959135024873443,0.947342963391515,0.850833589902285,0.612709163100817,0.612572104413146,0.611172267206752,0.606274090569928,0.606299998004793,0.608937542018752,0.609654592957908,0.782249088302292,0.788202783978922,0.658206797341614,0.651886218958353,0.651505128948731,0.68575057922123,0.688610425740802,0.705612388801634,0.705052453919076,0.721057398599473,0.722249976326951,0.724284963549382,0.761238158627086,0.760661509270422,0.796616014520281,0.823482860198595,0.886435419748502,0.880008704454666,0.908674027546809,0.857352234803705,0.883226240720111,0.897224612784058,0.924335489784323,1.04437048557804,0.949256770676676,0.979075392482146,0.984081377476955,0.972732249558842,0.974921845666754,0.978674245103597,0.992764546775129,1.00441453522715,1.02413761467248,1.02544134365276,1.02806551608743,1.0852206602936,1.08512037344897,1.08120082927106,1.15420129492991,1.1480921546441,1.16455591163871,1.24498596103777,1.21432325828994,1.2105875733272,1.24682455318945,1.24686633937472,1.24743463149433,1.24662397950018,1.23725551676365,1.17289643421771,1.13963463074636,1.12633826659487,1.10525295750989,1.10531145816926,1.11264075506483,1.11259896887957,1.12002855261978,1.12711548964081,1.13548944116802,1.13604101881352,1.14321152820508,1.13489607733725,1.13673466948893,1.13791303991342,1.12816014427245,1.11530671368477,1.14831780004453,1.13165346936064,1.06853125789856,1.06833904144634,1.05734927472151,1.06235525971632,1.0566556240461,1.07169865074168,1.04188002893621,1.03132483853814,1.05001162058888,1.013833141386,1.00456496549411,0.99502935801652,0.98449923932961,0.984022876817583,0.975849498979649,0.967316759948431,0.970291936339335,0.9669657559922,0.944401215948823,1.00970466628177,0.924586206895917,0.95489790568752,0.952106588511784,0.906008068926869,0.896881966064881,0.88869187375284,0.868400502187907,0.86851750350665,0.842910929175943,0.843378934450917,0.791432020376241,0.760757617496533,0.736474829515037,0.73626757003612,0.740725320280245,0.759664490889987,0.720520863980664,0.733294900816332,0.736336935103661,0.7391758885306,0.71329018248232,0.713722251637965,0.699041093306779,0.697569383861728,0.62141573266274,0.621622156417951,0.626261258706129,0.599284097498713,0.592279061400802,0.576925145486842,0.535348726871361,0.530862562021256,0.519339603572438,0.513741090470564,0.487393229213247,0.488485520096087,0.474911695674438,0.510834443423495,0.488000800347008,0.488633443191927,0.490987676869787,0.441372431932926,0.467300759890177
0.611260018195809,0.611000943847163,0.611265868261747,0.609297738935741,0.608825555042241,0.607470846915933,0.607898737453051,0.608531380297971,0.608457000888199,0.608344178187982,0.609919517372492,0.609719779406923,0.614509311962056,0.611815774459841,0.819968642017766,0.632093774445489,0.631390930809323,0.633301395199663,0.640348217482839,0.639783268258049,0.646122232562828,0.645237201158904,0.641974535813373,0.606142881948195,0.601063353267319,0.600646327138369,0.601077560570309,0.601912448551914,0.608944227808395,0.611098723520685,0.610890628318062,0.608250577132987,0.608273977396736,0.609098836693877,0.609613642496348,0.612539511188639,0.617154377489363,0.625958726724806,0.626165986203723,0.624938308080623,0.648172262811954,0.648674532758845,0.679060610960221,0.67843716107606,0.685255830787686,0.690015277289428,0.738576674633893,0.733462881281099,0.748545186990833,0.781684974801207,0.781876355529723,0.80242011565366,0.82919168882957,0.837161150083409,0.841657343617978,0.845250955550812,0.857552808492979,0.886226488822175,0.932667655126267,0.950610643079278,0.961759197308118,0.998597898238194,0.977245157567517,0.985752824887575,0.976484648995685,0.978849747081712,0.99451956655628,1.00678799055024,1.01389999928243,1.05375566278867,1.01847976518753,1.01817054741656,1.10338093641,1.04472148953427,1.12356366389324,1.09921903235755,1.13834761624018,1.13981013272447,1.19023770110289,1.19152471560907,1.22171105584488,1.22301478482516,1.22488680592506,1.29899878411197,1.31613112007083,1.27417779006426,1.13530558195285,1.10616389634868,1.10606360950404,1.11712859136235,1.11627615318293,1.11703666175477,1.12362216455261,1.11352662219246,1.12037955657601,1.12164149937103,1.12247722307634,1.10111612516861,1.10187663374044,1.14847658754854,1.13661766817019,1.13336670295653,1.13253097925122,1.14722300199057,1.15364136004736,1.06050831032758,1.10285443047565,1.08874741433001,1.0582769280344,1.04498892111997,1.05575304244436,1.02651106999556,1.02228230804669,1.03005453850607,1.02605142195764,1.02423790151711,1.02356096531581,0.9681775553649,0.946791385746011,0.946766314034851,0.952992455639413,0.923775554901765,0.904119333352868,0.931547785361151,0.897400114762173,0.949992207537349,0.887145784898016,0.888248940189026,0.888574872434097,0.857669809811723,0.866453265954534,0.840779833727402,0.855956576215837,0.828703626185669,0.780038599101746,0.746694058983571,0.720754866618151,0.70624753881767,0.706102958616651,0.738112847977445,0.725508463053956,0.716094035513636,0.685483147635531,0.674323728998523,0.674739919403767,0.701065216121041,0.673370168250764,0.663666580308406,0.65788671516248,0.660606995823265,0.579797527861993,0.600116478309202,0.601268941298825,0.569702821225551,0.535964655242175,0.527439437724305,0.517251965756573,0.507411319126544,0.488595835625188,0.489767520260034,0.470447259640671,0.457377376613323,0.450995790399574,0.452987319989328,0.4629449679381,0.440121353546077,0.505072964199086
0.847189834547132,0.606142046224489,0.605831992729819,0.611744737944889,0.611226589247597,0.611755602353058,0.610798698710478,0.613640159308533,0.611536642742267,0.612333923157133,0.828855727900035,0.624504567477567,0.627900112892242,0.628482612314843,0.626085756728014,0.625847575472,0.631520467983646,0.635660643219754,0.635978218227771,0.640210323071463,0.634392850358798,0.623674693838194,0.713822538482602,0.712965921684659,0.605237793175344,0.604899325074693,0.6055929757501,0.602362903629076,0.602417225669921,0.605130820541064,0.608241384172229,0.608349192530214,0.610314814685104,0.611063623125061,0.613239847653689,0.613460478711891,0.614200929914796,0.614760029073649,0.619257058331923,0.617665840397013,0.617660826054781,0.659950116990891,0.665892112535647,0.665751710953155,0.67571771613898,0.646688017511323,0.741731531621439,0.707343172595332,0.721240422090936,0.721661626838413,0.761259887443424,0.780661213262202,0.791877461111171,0.828686075987857,0.828518931246795,0.840345257400641,0.841364840321119,0.871826969379679,0.903032892535965,0.924903781903935,0.959828675548851,0.958240800508761,0.965143878314624,0.957806224182,0.967768050749298,0.982092355058316,0.982175927428848,0.981415418857015,1.1094566477476,0.998898758772106,1.01050696103887,1.01049024656476,1.05063841336787,1.04003307954748,1.08482787015211,1.11952711839659,1.15680039565343,1.23937825497514,1.14900309348288,1.14928723954269,1.14994746126989,1.22717668887761,1.23627772002844,1.32199790048211,1.28429004689851,1.09400411643642,1.10530310093221,1.10086540805701,1.09041886174063,1.10837856416775,1.10848720824944,1.10526131474694,1.0974640125764,1.08368292867583,1.08900648867866,1.16331904055485,1.08963328145764,1.0814431891456,1.05927979648077,1.06017402084546,1.07051192308014,1.06306562486583,1.07627005940973,1.07605277124635,1.073478742234,1.07198279680149,1.05388937858152,1.04029215389612,1.03974057625062,1.04875803503092,1.03170091420553,1.02316817517432,1.00987181102283,1.00772400110018,0.984307022877389,0.98331251166807,1.00480732536865,0.944050211992593,0.945086509387178,0.944292571867133,0.94293869946453,0.942972128412742,0.922379896313897,0.923424550945535,0.918418565950727,0.87420042470276,0.86237493427262,0.857644738100563,0.860553056595043,0.830181185696657,0.830210436026343,0.815144009067009,0.821666832586956,0.821968528844573,0.779299819346252,0.780664556157023,0.76192345206544,0.711564413030854,0.709653112916809,0.703962670207352,0.678926059443666,0.678036013697511,0.666530605446504,0.673637599836463,0.694861639056523,0.695256936369135,0.673814773261989,0.620815683042327,0.612047269926212,0.593455760377879,0.594177825659267,0.556172454436577,0.658902119464432,0.571287353370819,0.577127390623527,0.530215711873346,0.530432164313021,0.497496293086743,0.516096995595834,0.490478721133253,0.464781888642372,0.507931974994952,0.508766862976557,0.448537926982256,0.517424124839867,0.452851097025363,0.468086340173169
0.614148279321362,0.617976729615388,0.620219812040441,0.828503888220099,0.888616658619362,0.627661931636229,0.627070239252869,0.625639480269378,0.626158464690376,0.629816427348519,0.624446066818195,0.625016030385217,0.624961708344371,0.624242985957805,0.626201922323052,0.628156680069773,0.632131382012228,0.634895120305689,0.635084829586795,0.63453325194129,0.635559520651411,0.625357005656983,0.620535715601048,0.843913797622316,0.606351812874522,0.605910550758118,0.608890741491255,0.608645038721893,0.608323285095349,0.607617934288067,0.607928823506443,0.610218706458993,0.610303114553229,0.614172515308816,0.614348853010636,0.614379774787733,0.614965617105155,0.616291074901777,0.619575469063647,0.622637560719904,0.631708505817341,0.630756616516993,0.631656690947612,0.635511884400208,0.631940001283712,0.633560469548309,0.686901370763442,0.707896421688247,0.709764264169616,0.71240264390728,0.731407000966036,0.764850992205142,0.799108978333221,0.796616014520281,0.882950451897359,0.882783307156297,0.843044644968793,0.877777322161488,0.872980268093007,0.880593711048384,0.915643963249097,0.935609402568959,0.94089117638652,0.939269872398218,0.947000316672338,1.02473097850325,1.02534941404518,1.01893105598839,0.978565601021907,0.991051313179243,1.0205690744508,1.00720585240289,1.01922355928525,1.03824463081811,1.04477999019364,1.05256057789008,1.08094175492242,1.07929537922295,1.12460831852488,1.18042630480255,1.18030930348381,1.14945438428375,1.12735784951535,1.22420986972376,1.0790195904002,1.08200312402816,1.07352052841926,1.08473594054452,1.0725510889211,1.07156493494883,1.07745678707127,1.08148497533087,1.08246277206608,1.06875690329899,1.16213231289331,1.05531010888055,1.05430724043418,1.04694451459039,1.05142399365086,1.04839867383763,1.08913184723446,1.0794290950158,1.05447438517524,1.08804540641755,1.11485542288391,1.05932158266604,1.04497220664586,1.04435377110393,1.00235865491209,1.02203159093509,0.995806581062458,0.995196502757582,0.995773152114246,0.992756189538076,1.00123042790992,1.00701363595067,0.972172314676284,1.01245419727224,0.941793757988255,0.970191649494698,0.975891285164914,1.0504712686268,0.929692478735362,0.920909022592551,0.895862383144402,0.827397390034269,0.823879828958618,0.822041236806935,0.807594916836942,0.815210866963434,0.802143491107203,0.80229893571639,0.795700061339261,0.802211184727333,0.802415937035134,0.793680952867231,0.790638082856196,0.753132474409282,0.718033750233661,0.70513017622367,0.689443642274996,0.674393929789769,0.646053703218992,0.653591931040891,0.646550123099946,0.644734931212012,0.605030533696427,0.626590533846021,0.598795199131107,0.573431820398645,0.550895694961248,0.60293955298574,0.563890362855118,0.584782619764169,0.570155783473829,0.574690420298842,0.510933894544427,0.500783194419728,0.549785853880596,0.515237871626775,0.51452583502985,0.452229318588612,0.452720724127334,0.487458415662261,0.487328878487938,0.516667794886561,0.516728802717048
0.62483551406487,0.73471897401018,0.962151987449613,0.627633517030248,0.62860629942323,0.626774393061189,0.624790384984783,0.624772834786971,0.631223786068261,0.631166121132595,0.627945241972329,0.626673270492847,0.62723404109911,0.629115255159763,0.629834813270036,0.632142246420397,0.632634487682825,0.633863837253336,0.637507592608489,0.63706549476838,0.717448743639944,0.632219133001286,0.631057477050905,0.62969859030607,0.637490042410678,0.615080946976488,0.610986736544173,0.611094544902158,0.610146834220336,0.608473715362305,0.609128922747268,0.610549653046296,0.612324730196375,0.614705707032804,0.614895416313909,0.617192820779807,0.616255138782449,0.615889091799523,0.615002388948189,0.624718512746126,0.625504928752823,0.624484510108639,0.635531941769136,0.631239664818662,0.628913010023078,0.638144414071936,0.711417325658719,0.683295222975029,0.681317900688264,0.909777182837818,0.808579399361797,0.740935086930278,0.751491948775758,0.767944841362201,0.797757613101734,0.80513788914333,0.833687046640434,0.832360753120106,0.848944854328283,0.866428194243374,0.876557165551735,0.932575725518683,0.908239451220048,0.912426426983652,0.933720666994958,0.916095254049964,0.924368918732536,0.938007929603199,1.05080555810893,1.01028131563843,0.990992812519871,1.02430475941354,1.01945756192274,1.01713425002198,1.04406126780707,1.04619236325561,1.05055484099733,1.07144793363009,1.06888226185479,1.06969291384894,1.06521343478848,1.074423110021,1.12160807042281,1.12082249013982,1.09494848422342,1.12449131720613,1.06771224866735,1.0656730828264,1.04842374554879,1.04401112438475,1.04350133292452,1.04564914284716,1.07755707391591,1.08244605759197,1.07128914612608,1.04515606586103,1.04016679534033,1.03834491766275,1.05826021356029,1.04082701706752,1.02243273831364,1.03027182666945,1.08193626613173,1.080089316743,1.04862431923807,1.11991155130103,1.06440278279433,0.988786501937852,0.988385354559303,0.985184532767965,0.984248522218017,0.985928326865691,0.986588548592886,0.990600022378375,0.972063670594593,0.952816953661297,0.961048832158604,0.935492401250216,0.945679873217948,0.9109388387882,0.917031264599912,0.922906402248243,0.92106781009656,0.904478694546151,0.892536202797267,0.821573231531961,0.816528803246709,0.792606212182202,0.778924579402567,0.778371330309652,0.779076681116934,0.808968010884766,0.812857469009281,0.796261667669229,0.851418596496002,0.816435202191714,0.816819635096157,0.802274699728937,0.707120870089719,0.696299083829657,0.682509642692037,0.661676722166062,0.642504384642539,0.642857895769886,0.651638844741581,0.615904970549924,0.650191371283983,0.61443911117081,0.562544847689568,0.565541752896811,0.550350803105386,0.603134276609078,0.60083687214318,0.600445753449094,0.509125388446135,0.508922307585745,0.525283270564604,0.503872029234555,0.547639715405359,0.481593306698394,0.482696461989403,0.482473323760086,0.477159792441723,0.441914816617672,0.442300920969526,0.513122654928635,0.438767481143474
0.624640790441532,0.626442610750181,0.963790005912022,0.62952392405166,0.627387814260887,0.626631484307581,0.626015555936768,0.632494086100333,0.631625769170515,0.629930085772441,0.629944293075431,0.629646775436341,0.630666358356819,0.629987750708107,0.632367056097126,0.633169350854224,0.635926403358042,0.63764297984875,0.825088285436496,0.649335590209746,0.643665204869215,0.643492210062216,0.931731644576319,0.636542331728856,0.844515518690139,0.613763846416919,0.612975758962811,0.613221461732173,0.611715487615204,0.611798224262029,0.615149476320323,0.61194781880528,0.611524942610393,0.611931940054879,0.613813154115532,0.615441979617182,0.613248204890743,0.612786049681706,0.613286648181187,0.61712094854115,0.613101117518608,0.730039756984148,0.729100403539379,0.725323768115082,0.629204677596232,0.743926142071584,0.74615251002253,0.735404267448535,0.681678933328959,0.886335132903865,0.887162499372122,0.725892060234693,0.725419876341193,0.821452887318397,0.760851218551527,0.771580239480301,0.797428337961842,0.853959196560145,0.853090043906622,0.852530109024065,0.842869142990678,0.853031543247251,0.851920030719188,0.853466119574012,0.8720191858319,0.883084167690208,0.914557522432193,0.911080911818102,0.919195788996665,0.958499874857408,0.920984237726029,0.969063422492529,0.971052444911168,0.969974361331317,0.972105456779859,0.99284811914566,1.02070279024365,1.02909345624497,1.03300464318582,1.07648734757311,1.0625892623538,1.06384284791177,1.04273246711563,1.06310741105109,1.07083785532521,1.07095485664396,1.03257842409611,1.03286257015592,1.05197557129636,1.05019547980405,1.05055484099733,1.07271823366216,1.04515606586103,1.03953164532429,1.03689911565256,1.03043897141052,1.02544970088981,1.02271688437345,1.02809058779859,1.03076490365559,1.05880343396875,1.00183214897775,1.02921045756371,1.00983002483756,1.01659102961352,1.00140592988804,0.980705053707501,0.978766174711182,0.976066787143029,0.973626473923523,0.970617868584406,0.993040335597881,0.988903503256595,0.960597541357736,0.95320138656574,0.933394734749887,0.900726295109308,0.900834939190998,0.872269902943493,0.873214270730494,0.86862614758834,0.880225992618047,0.894216007444941,0.867297346896897,0.857912169686263,0.84869413721669,0.819437957464894,0.823594847175107,0.776540259671317,0.791715330712341,0.79182063189921,0.756573148904044,0.808032836058524,0.801854330705165,0.781335642292387,0.781364056898368,0.781953242110612,0.709241936853797,0.709899651409876,0.692958696179531,0.675970104697984,0.684476100570632,0.693766005278861,0.661947496646583,0.631761156410776,0.585434484254311,0.571587378181025,0.558514987982562,0.552198588217827,0.542031173619022,0.540518513712411,0.543013984696467,0.528998898158414,0.557440247297533,0.536433496240854,0.52869135183486,0.504197125755921,0.505364631772239,0.506329056928167,0.542532607842208,0.481756272820929,0.483866475176838,0.484895251058075,0.478866340247966,0.511704431800723,0.512200851681677,0.437893314147719
0.627012574317203,0.630786702570384,0.633136757629717,0.631553061208154,0.630381376573309,0.629899163995345,0.62911943377829,0.629695247411249,0.631187014225228,0.63369919968339,0.634042682126273,0.632953734138254,0.633964124097974,0.633081599865166,0.63192077963849,0.637036244438694,0.636299971854316,0.638385102499065,0.647792008526038,0.650552403924677,0.652828079574237,0.652385981734128,0.788705053925814,0.846028178596751,0.749819665641432,0.846972546383751,0.613010023634729,0.611640272481726,0.611788195577566,0.6143588816951,0.61119399602309,0.609964646452579,0.609889431319101,0.619531175707265,0.617796213295041,0.612035569794337,0.611712144720382,0.613392785091761,0.609632028417865,0.603777783862167,0.603429287077052,0.744991689795854,0.676363730563185,0.675998519303965,0.639962113130986,0.640649913740456,0.646225026578581,0.735705127982446,0.732888739095551,0.732771737776807,0.730164279816239,0.71801954293067,0.685382025067188,0.685448882963613,0.764508345485965,0.746035508703787,0.811165964229732,0.854803277502508,0.851711099792861,0.849738791848328,0.828966879152841,0.837060863238771,0.822716501560826,0.823202892757316,0.831332812962575,0.857068088743899,0.852713968239233,0.880819356448817,0.877827465583807,0.883593959150447,0.943247917235495,0.864246955372515,0.909309177562845,0.975983214772498,0.925513860208811,0.907336869618312,0.965219093448102,1.11068516159441,1.1078353437593,1.04458777374142,1.04596671785518,0.991485889506004,0.985970113050956,0.988544142063312,0.990625094089534,1.02910181348202,1.00422231877493,1.01420085981634,1.03616367879189,1.01003059852684,1.01367435388199,0.998388967311867,1.01685846119922,0.986245901873709,0.975824427268489,0.992488757952376,0.982460073488653,0.991001169756924,0.990132017103401,0.99828868046723,0.998681470608725,0.99804632059269,0.972882679825797,0.973325613389612,0.939203014501793,0.940941319808839,0.997152096228008,0.996174299492795,0.968110697468476,0.950209495700729,0.959511100540833,0.9517472273185,0.950167709515464,0.93038612941077,0.951797370740819,0.886076058555219,0.895653452218075,0.897057468042996,0.874718573400052,0.82605521776354,0.825376610114828,0.841055622550155,0.84182448835904,0.840512402141703,0.859583617096883,0.79759798987402,0.797353122828364,0.756552255811411,0.752830778151665,0.751119216003189,0.721339037488163,0.72059106477191,0.745681161852735,0.728093356474481,0.729931948626163,0.742602355722372,0.74174908181925,0.707313086541941,0.653632045778746,0.667710647318403,0.639560130028731,0.647445183188334,0.619568783274004,0.666795529861088,0.594191197238552,0.57141187620291,0.568782689426004,0.55033408863128,0.548870736423281,0.571139430274979,0.556568587472894,0.536390038608178,0.538368196618647,0.526256052957585,0.517266173059563,0.516776438968251,0.491367931155703,0.482327907835362,0.480251970151371,0.481808087690658,0.543863079981062,0.471420042033652,0.464626444033185,0.466078931833014,0.466538579870934,0.621769243790086,0.705135190565902
0.630807595663017,0.633486090138536,0.634481437071561,0.633174365196456,0.633445975400681,0.633040649403606,0.632601894458318,0.634002567388418,0.634905148990153,0.635155030378041,0.634842469712255,0.635089008205321,0.634218184104388,0.635544477624715,0.635931417700274,0.635263674459731,0.638053320188057,0.639860154838938,0.676747327743923,0.67640384530104,0.654186966319072,0.654287253163709,0.64814969827191,0.805480535862507,0.635735022629526,0.636089369480578,0.899890571403998,0.90162051947399,0.612694955797827,0.612450924475877,0.616048715027237,0.611532464123741,0.611482320701422,0.612394930987621,0.613174661204675,0.618234132516624,0.618033558827349,0.61422349445484,0.607756664423149,0.606487200114783,0.604970361589644,0.605687412528801,0.752962822497104,0.634310113711972,0.634925206359081,0.645854800977128,0.645774571501418,0.64598099525663,0.643938486520852,0.639848454707063,0.638707691849315,0.687211424258113,0.658165846880054,0.694661065367248,0.803270882385666,0.746269511341274,0.79806850232011,0.810951183237468,0.784798045603488,0.812132896556776,0.810655337045788,0.809646618533478,0.813551955408393,0.812124539319723,0.808325339355383,0.819839940567148,0.820333017553281,0.849922651063497,0.848819495772487,0.841256196239429,0.842142063367058,0.883351599275908,0.840445544245278,0.86307694218508,0.844131085785696,0.892552917271374,0.913763584912148,0.926199153647165,0.975816070031436,0.975531923971631,0.979309395119633,0.975289564097091,0.948404332497259,0.958257514982867,0.97264867718831,0.974178051569028,0.982175927428848,0.993107193494306,1.0018405062148,1.00321945032856,1.00332809441025,1.0306562595739,1.00448975036063,1.00438946351599,0.967542405348864,0.946465453500939,0.95249937865328,0.960915116365754,0.96190127033802,0.963388858533473,1.00112178382823,0.953176314854581,0.933662166335586,0.97291610877401,0.921301812734047,0.918084276468602,0.910395618379748,0.923391121997323,0.931673143916948,0.923717054242394,0.944267500155973,0.936186051925623,0.916045110627645,0.9155186046933,0.932032505110231,0.852045389274985,0.845877748329795,0.840579260038128,0.841398269269332,0.819448821873063,0.819521529835425,0.834145023230944,0.830622447813061,0.825017248921545,0.824987998591859,0.862583865198947,0.765329861888285,0.769711561275227,0.731100290366187,0.717037567576931,0.693244513686747,0.683276001329806,0.700814499009448,0.712773705232438,0.712293164101884,0.719292350133858,0.69609349579815,0.672643924350849,0.680856581202933,0.638279801312196,0.606372705967155,0.596049011035457,0.599807260538237,0.600540190227794,0.600488375358065,0.586150699469762,0.57814446637289,0.591873735403727,0.536035691757126,0.556395592665895,0.554141645832673,0.52315635373459,0.522305587002584,0.519202544884767,0.548879093660334,0.485363256333048,0.487109083153442,0.502368562288702,0.493107907910159,0.493371160877331,0.499964185188524,0.489576139531517,0.489603718413793,0.468863563219108,0.467475426144587,0.490273133101746,0.490333305208529
0.637117309638109,0.637258546944307,0.638664234216639,0.63614954158736,0.636400258698953,0.635026328927423,0.634396193253619,0.635792687565193,0.635577070849223,0.636961029305216,0.636411123107122,0.635503527163155,0.633660756392946,0.638421038618393,0.636246485537176,0.637120652532931,0.636491352582832,0.637198374837525,0.637677244520667,0.894174221259675,0.657484732060226,0.657074391720919,0.65597290787732,0.645048327601504,0.637480013726214,0.636938464765173,0.63714572424409,0.758075780126192,0.619502761101285,0.617290600453328,0.615645060477573,0.614074735635294,0.613147918046105,0.613190539955076,0.612845386064783,0.613473014567471,0.61893697615279,0.617962522312398,0.616235081413521,0.614265280640105,0.606300833728498,0.606126167474088,0.605613868842733,0.758540442506345,0.633166007959402,0.632952062690843,0.638734435007885,0.635186787878843,0.625776538957049,0.626295523378047,0.632574315576043,0.632689645447375,0.747119442349574,0.747136156823681,0.746211846405607,0.720923682806624,0.764067083369561,0.776083118804513,0.777795516676693,0.784180445785264,0.805640159090221,0.808633721402642,0.820451690319435,0.759234928905457,0.773594333610098,0.787905266339832,0.786585658609147,0.814016617788546,0.82818297031726,0.903467468862726,0.825440960840137,0.849429574077363,0.81066202283543,0.855187710406951,0.826325156520356,0.860828845417796,0.903233466225239,0.914975384284848,0.924895424666881,1.02214023501678,0.950334854256526,0.951103720065412,0.924719922688766,0.961934699286233,0.955507983992397,0.989271221686932,0.967350188896643,0.973325613389612,0.999935056166691,1.02967846283868,1.08512873068602,1.01689189014744,0.986663763726364,0.998071392303849,0.955232195169644,0.930411201121929,0.936846273652818,0.949549273973534,0.944560003452832,0.945328869261718,0.94948241607711,0.931271996538399,0.935408828879685,0.918685997536426,0.911983493419838,0.907796517656233,0.884045249951315,0.939211371738846,0.938475934878173,0.93811657368489,0.943874710014478,0.89704075356889,0.877543319524001,0.878195184014143,0.88532390722044,0.88300895255673,0.835339272405832,0.836751645467807,0.846153537152547,0.847056118754282,0.808105544020886,0.851050878065665,0.854920278821252,0.827615513921355,0.828771319805799,0.786731074533871,0.787554262383601,0.733516367598239,0.735817950682663,0.710552351623723,0.696795503710611,0.663316412075881,0.665893783983058,0.666037528460371,0.675484549225199,0.660594459967686,0.651007873344071,0.625983798435966,0.635104886955722,0.59981394632788,0.602424747183269,0.585510535111495,0.589837912457591,0.591715783623423,0.589985835553431,0.618506578444555,0.574489010885863,0.575123325178193,0.568847040151313,0.543033206341689,0.519802594505179,0.555451224878895,0.510590412101544,0.521715566066635,0.499366642739227,0.494776012425958,0.52333269143641,0.485602273312767,0.500236631116455,0.500376196975242,0.486032671021002,0.485262969488411,0.490613272649807,0.475822634513226,0.480215198308337,0.47704446257039,0.627339342285979
0.639940384314647,0.638751985205696,0.638376745262012,0.637757473996377,0.6371315169411,0.635614678415961,0.634402879043262,0.635496841373513,0.637835196300971,0.637110623848467,0.637256875496896,0.637508428332195,0.636713655088444,0.636953507791869,0.636587460808943,0.637093073650655,0.636220578102311,0.637456613462465,0.640456861564529,0.649247003496983,0.650014197858457,0.650208921481795,0.650113648979389,0.64404211626031,0.643372701572357,0.643005818865725,0.758925711134493,0.76193598792102,0.754536490234203,0.621135765221461,0.617175270581996,0.616369632930076,0.616125601608126,0.613865804708967,0.613946034184677,0.613946869908382,0.614638849136379,0.611239960826882,0.614159979453236,0.613983641751416,0.613942691289855,0.611608514980924,0.608655067406357,0.609234223934137,0.634144640418321,0.633878044556327,0.638452796119195,0.637022872859409,0.629505538130143,0.62975207662321,0.627915155918938,0.62744965781508,0.741622887539749,0.741090531539466,0.738535724172332,0.718513455640509,0.797823635274454,0.798300833510186,0.785870279117401,0.741943805442588,0.735167757639932,0.745213992301467,0.747815600196098,0.79160501518324,0.789137123081459,0.753265354478426,0.752742191438902,0.793457814637913,0.898645343083086,0.819256605420841,0.808835130815622,0.987975849943701,0.987115054527231,0.832268823512522,0.860126837505335,0.857577880204139,0.857745024945201,0.913203650029591,0.869528729190076,0.949532559499428,0.945211867942974,0.952106588511784,0.907512371596428,0.947719039058905,0.933528450542736,0.949766562136915,0.967492261926546,0.959059809739965,0.952156731934103,0.952482664179173,0.962904138784393,0.955499626755343,0.960848258469329,0.940590315852608,0.925772934557457,0.921627744979118,0.909685253230234,0.912785788176935,0.918109348179762,0.923792269375872,0.923808983849978,0.915150886262963,0.946214736389346,0.903634613603788,0.888783803360424,0.87770210702801,0.869495300241863,0.849621790529585,0.880451638018481,0.880836070922924,0.843044644968793,0.882641234126394,0.850098153041612,0.851686028081701,0.851577384000011,0.851326666888418,0.8391585297391,0.829553557193969,0.797730034219459,0.792697306066081,0.770425269319562,0.770965982556898,0.78877525471706,0.797082348347844,0.796188123983162,0.792195036119189,0.723778514983964,0.724045110845958,0.715409577798987,0.69084013658657,0.690388845785702,0.673487169569507,0.658928862623002,0.659033328086166,0.643269907556604,0.629922564259093,0.629134476804986,0.621566162929696,0.664166343084182,0.597516541861982,0.573992591004908,0.571565649364687,0.578020779264504,0.583421225848219,0.601653374203268,0.601945041776421,0.589822869430896,0.571501298639378,0.577489258987927,0.558952071480439,0.52692881054036,0.525574102414052,0.531029706762318,0.537345270803347,0.508519488759785,0.491355395300123,0.508187706448777,0.518449557826282,0.52233483733227,0.523150503668652,0.490150281717066,0.484817528753481,0.491284358785172,0.491233379639148,0.578530570724743,0.471485228482666,0.469751937517852
0.641112068949492,0.637990640910159,0.637604536558305,0.639953755893932,0.680733729818253,0.861714712545424,0.647779472670458,0.648095376231065,0.642646457672442,0.641733011662538,0.640194444321062,0.640245423467086,0.640059892804507,0.640262137941192,0.638618269412846,0.639188232979868,0.639675459900064,0.638619105136552,0.641142990726589,0.648834991710265,0.649135852244176,0.650717041494623,0.65165138059716,0.650153763717244,0.637693958994773,0.636909214435487,0.648855049079192,0.651317091115036,0.652457853972785,0.756137736853577,0.619002162601804,0.618743088253158,0.618244161201087,0.615470394223163,0.612975758962811,0.612957373041295,0.617461923812917,0.611137166811129,0.610441844688311,0.610357436594074,0.610691726076198,0.609742343946966,0.60984848085754,0.609017771494462,0.609419754596716,0.634571695231734,0.616888617351074,0.617709298029689,0.629244792334086,0.629396058324748,0.629621703725181,0.625591844018175,0.623040379545863,0.629287414243057,0.761331759682081,0.843044644968793,0.741863575966878,0.777121923370213,0.803301804162763,0.740959322917732,0.701876703838897,0.759532446544548,0.761484697120153,0.767286291082417,0.863269158637302,0.752948615194113,0.753678201988849,0.78767042797864,0.7935973804967,0.794052014192389,0.790806063320964,0.801730643596779,0.789165537687439,0.81822866526331,0.812329291627524,0.849772220796541,0.846939117435539,0.851050878065665,0.90897488808072,0.908590455176278,0.999283191676549,0.953853251055882,0.953778035922404,0.921326884445206,0.929842909002318,0.934146886084666,0.94948241607711,0.946540668634417,0.959235311718081,0.955650057022299,0.952933954980041,0.952883811557723,0.936495269696588,0.991920465832765,0.992463686241217,0.915969895494168,0.924226845702633,0.901252801043654,0.902439528705194,0.898160623334006,0.887329644113184,0.90320839451408,0.937656925646969,0.893305068606153,0.885507766435608,0.856349366357332,0.858396889435343,0.854778205791349,0.835173799112181,0.829478342060491,0.832105857389987,0.842041776522421,0.826483108300659,0.840395400822959,0.854611061050287,0.854218270908791,0.852663824816914,0.866528481088012,0.798938490697338,0.764404715746507,0.761436225145245,0.755946356125061,0.765470263470777,0.763902445799615,0.763652564411727,0.762147426018464,0.753793531860182,0.738993700762843,0.689700209452527,0.664587547831658,0.671982866899949,0.652511340289925,0.652502983052871,0.613098610347492,0.615560652383336,0.618502399826028,0.612510260858954,0.601467843540689,0.598404916160727,0.583889231123193,0.595362881873397,0.560397873490626,0.551642831953796,0.550959209962852,0.546193913395173,0.583035121496365,0.563808461931997,0.53511555995758,0.534192920986917,0.557308202952094,0.557884016585053,0.548364287857864,0.524315502513855,0.537133832705904,0.51218079431275,0.514562606872884,0.51305579703221,0.51943905469337,0.51992544588986,0.492914020010527,0.47299203832334,0.494385729455578,0.474329196251837,0.472770571541433,0.480358107061945,0.473266991422387,0.470234150095817
0.647675007207294,0.653979706840155,0.654349096717902,0.654328203625269,0.673829816288684,0.672809397644501,0.981407061619962,0.654766958570557,0.681922128927204,0.942796626434627,0.646588566390391,0.645805493278515,0.645642527155979,0.636517260017697,0.639769060955059,0.640248766361907,0.640770257954021,0.640340695969491,0.640087471686782,0.646175718879967,0.642660664975432,0.650396123591784,0.651760860402556,0.658573680048245,0.657714556079186,0.658278669580271,0.652426096471983,0.652372610154843,0.648344421895248,0.648291771301813,0.747864907894711,0.616934582154866,0.617114262751508,0.618265890017425,0.617665840397013,0.617340743875647,0.616698908069969,0.614355538800279,0.615983528578223,0.615079275529077,0.611100394968095,0.608917484649825,0.607447446652184,0.605704962726612,0.605993287404944,0.620342663425122,0.613488893317872,0.611838338999884,0.655010154168802,0.626071549425024,0.627903455787064,0.627883398418136,0.62603477758199,0.622726983156372,0.799668077492074,0.761723714099871,0.776709911583495,0.773446410514259,0.773753956837813,0.663979976697897,0.744110837010457,0.677538758092851,0.813947252721005,0.818452639216333,0.818868829621577,0.815705615396978,0.834694093705333,0.940556886904396,0.878462615599842,0.756483726467576,0.769533552125996,0.771937093502468,0.785090548900347,0.777355090283995,0.785430688448408,0.765069116092228,0.824784917731469,0.813977338774396,0.809130977007302,0.841155909394792,0.835147055953611,0.844072585126325,0.93776556972866,0.898896060194679,0.924552777947704,0.933169089349453,0.930127055062124,0.933286090668196,0.944819077801478,0.995196502757582,0.943506991584141,0.940490029007971,0.950017279248508,0.992371756633633,0.912568500013555,0.855379926859173,0.822661343796275,0.813976503050691,0.814816405374528,0.845267670024918,0.822968054396124,0.879925132084135,0.929851266239371,0.88230694464427,0.915501890219194,0.887187571083282,0.931765073524532,0.827689893331127,0.809621546822319,0.810455599080219,0.802422622824776,0.81121276475723,0.809601489453392,0.842493067323288,0.855739288052456,0.855873003845306,0.827100708118883,0.827818594781745,0.762977299657837,0.759051069690289,0.736916091631441,0.741998963207138,0.731870827622483,0.743104625669264,0.721110049192908,0.723882144723422,0.722075310072541,0.686723361614211,0.67889513766657,0.650169642467645,0.632654545051752,0.612138363810091,0.622488801900358,0.600976438001966,0.598833642421551,0.603364100628038,0.603140126675015,0.602858487786325,0.639344513312761,0.572739005446943,0.577233527534102,0.554608815383942,0.533953068283493,0.573576400599664,0.571131073037926,0.549280241038884,0.533212617080588,0.532241506135018,0.56304711763646,0.521711387448108,0.51934628936208,0.516416242051262,0.513700975732709,0.554755067032371,0.53126454512351,0.491218336612452,0.510772599869302,0.519638792658939,0.496133227723382,0.475841020434743,0.472401181663686,0.460432782479938,0.460174543854997,0.480914699049682,0.479957795407101,0.479956959683396,0.478109174570955
0.652283187718375,0.653031160434628,0.660617860231434,0.857435807174236,0.664582533489426,0.670077416851841,0.669463159928438,0.860736915810212,0.654464426589235,0.86005997960891,0.649773509431328,0.649522792319735,0.648549174203049,0.647742700827424,0.641000081972981,0.643241492950623,0.64200712903788,0.642165916541889,0.642693258199939,0.642724179977036,0.642073151210599,0.646184911840726,0.823461131382257,0.664921001590077,0.65780648568677,0.657466346138709,0.649270403760731,0.647311467395484,0.647588927665647,0.648373672224933,0.636584117914121,0.635979889675182,0.632840075714331,0.631574790024492,0.77320739353454,0.620348513491059,0.620017566903756,0.618931961810558,0.617863906915171,0.617245471373242,0.612269572431824,0.611600157743871,0.609545113152513,0.60734298118902,0.604177259793305,0.604076972948668,0.607377245860938,0.60637354169086,0.606403627744251,0.602701371729727,0.660733190102767,0.625749795798479,0.625775703233344,0.624612375835552,0.628430797445114,0.62703263168613,0.616091336936208,0.616174073583034,0.769988185821685,0.682816353291886,0.644399806006183,0.652798829244551,0.808815073446695,0.808206666589229,0.810769831193416,0.812377763602432,0.776755876387287,0.777157023765836,0.714736820216212,0.734221718405521,0.738803991481737,0.751134259029885,0.739104016291943,0.766853386203066,0.756040792903761,0.75533544209648,0.751341518508802,0.753957333706423,0.75680548009412,0.771521738820929,0.834738387061714,0.817425534782506,0.811840393259918,0.834864581341216,0.852003603089719,0.857937241397422,0.924477562814226,0.932935086711966,0.9341050998994,0.946582454819683,1.00283501742412,0.888533086248831,0.888123581633229,0.834718329692787,0.90671007683933,0.819114532390939,0.830585675970027,0.802344900520183,0.764082962119962,0.764165698766788,0.783977364924873,0.797062290978916,0.797461766910055,0.865951831731348,0.867288989659844,0.848309704312248,0.865517255404586,0.821912535356317,0.799157450308129,0.781978313821771,0.832422596674299,0.769877034568878,0.770359247146842,0.828039225839947,0.846011464122644,0.863394517193098,0.833466415582232,0.814844819980508,0.767533665299188,0.759936936817918,0.709496832583916,0.692433025968891,0.701635179688063,0.699539184635144,0.752814063677558,0.692382046822867,0.672358942567338,0.640447668603771,0.642368997402279,0.643798920662065,0.625476514146842,0.614348853010636,0.608380950031015,0.604382847824811,0.600318723445887,0.616613664252027,0.576751314956138,0.575420842817284,0.580847196835863,0.611277568393621,0.533709036961542,0.533358033005312,0.527805484707231,0.527728598126342,0.524801893710345,0.523096181627807,0.524559533835806,0.525983607029654,0.52758819654385,0.544936149218681,0.51968141456791,0.50426147648123,0.504176232663288,0.515005540436699,0.497693523881196,0.49480944137417,0.492166883017979,0.520166970040695,0.457055622986779,0.45884992178208,0.53332627550451,0.46159610987773,0.477641169295981,0.479027634923091,0.482691447647171,0.483648351289752,0.486415432478034
0.655976250772141,0.656510278219834,0.842860785753625,0.8686512192995,0.674162434323398,0.877359460308833,0.860444412513353,0.867121844918782,0.864338884980099,0.662134698756572,0.660006946202852,0.658380627872319,0.711594499084245,0.656292154332748,0.653093839712526,0.646512515533207,0.641514052051747,0.640233723335211,0.64157589560594,0.638225479271351,0.828689418882678,0.663382434248601,0.664356888088992,0.663819517746478,0.662338615340668,0.638146085519346,0.637822660445391,0.637488370963267,0.636236456852712,0.634912670503501,0.636526452978455,0.64032314577168,0.638953394618676,0.630515928089864,0.629982736365875,0.744685814919711,0.617713476648215,0.617847192441065,0.618112952579354,0.616321996678874,0.616920374851876,0.615757883177789,0.614515162027993,0.608493772731232,0.608396828781416,0.605683233910274,0.605185978305614,0.605011312051205,0.603703404452394,0.605396580679353,0.602914481274581,0.603646575240433,0.681374729900226,0.80740102893731,0.678691221082474,0.614604584464461,0.615819726731982,0.616711443925548,0.61495057407846,0.7279705050898,0.727705580675217,0.645750335513964,0.733545617927925,0.66713901230397,0.690460718024359,0.684197804576764,0.684223712011628,0.691497851142649,0.721888943686257,0.693794419884842,0.694248217856825,0.715747210175932,0.741002780550408,0.73999573348551,0.739348047613894,0.732435776847273,0.734080481099323,0.718178330434679,0.744716736696807,0.747800557169402,0.762066360819049,0.787185708229559,0.787999703118532,0.852496680075852,0.856432938727864,0.865918402783135,0.865467111982268,0.891850909358913,0.920441017317577,0.93159792878347,0.929341474779132,0.868241714683898,0.834094879808625,0.842493067323288,0.787992181605184,0.770314118066756,0.77125597868264,0.807754540064656,0.767860433267965,0.735418474751525,0.734951305200257,0.808368796988059,0.73389578616045,0.775864159193721,0.782388654161079,0.816349122650067,0.830283143988705,0.830261415172367,0.819421242990787,0.762322927996579,0.760806925195146,0.737710864875191,0.758022293809052,0.7547562855687,0.817978783875422,0.819800661552998,0.819884233923529,0.785169106928646,0.718641321367421,0.684178582931542,0.685304302762594,0.689227189835321,0.675139395334906,0.690535933157837,0.64715184416777,0.646016095652253,0.64620914782818,0.640770257954021,0.641997100353416,0.626002184357483,0.623056258296264,0.624059126742636,0.598760098735484,0.599150381705864,0.610848842132797,0.652439468051268,0.577864498931611,0.576630135018868,0.562255687287531,0.528449827684025,0.528764895520927,0.528799160192845,0.522097491799962,0.518015817223226,0.514155609428398,0.520615753670446,0.520797941438204,0.519548534498765,0.517238594177288,0.519071336263033,0.535726473986161,0.5071840022787,0.507957046706112,0.522783620962021,0.522487774770341,0.5224025309524,0.517714120965609,0.52183758172761,0.456707126201664,0.467179579952907,0.477712205810933,0.47876772485074,0.480675682069963,0.485480257651792,0.485745182066375,0.485737660553027,0.486150508063451
0.657125370866943,0.873306200338078,1.16838352620903,1.16866767226884,0.889736528384478,0.684109217864001,0.684385842410459,0.68443013576684,0.703484636247914,0.659911673700447,0.660806733788834,0.66109087984864,0.66175193729954,0.660100547257847,0.728127621146398,0.72856386892057,0.64058138439662,0.640541269658766,0.641658632252765,0.876824597137434,0.945964019277753,0.664899272773739,0.664827400535082,0.664454667762514,0.822932118276796,0.637418170172021,0.637250189707254,0.637032065820168,0.633440961058449,0.633220330000247,0.632227490238339,0.631721041672921,0.631512110746593,0.632107146024774,0.778899507691408,0.621012078113075,0.619759328278815,0.616130615950358,0.61613563029259,0.616763258795277,0.616459055366545,0.616845159718398,0.615421086524549,0.610488645215808,0.609821737698971,0.608436943519271,0.607758335870559,0.604409590983381,0.603512023723878,0.601193726165347,0.601612423741708,0.60171187486264,0.62315320224608,0.622564017033836,0.62184696609468,0.622271513736978,0.621949760110433,0.620151282696605,0.619858779399747,0.622960985793859,0.623815095420686,0.695476731703631,0.731786419528247,0.708885918555335,0.778101391552837,0.706334454083022,0.667157398225487,0.68171069082976,0.692721350647223,0.686868777538935,0.709025484414121,0.689444477998702,0.734095524126019,0.721272179591738,0.833425465120672,0.720263461079429,0.714342358627305,0.714319794087262,0.721301429921424,0.736482351028385,0.73831342166672,0.751384140417773,0.758926546858198,0.755501751113836,0.759316829828578,0.867915782438827,0.866946342940667,0.874977647748698,0.879323411016312,0.8497972925077,0.858555676939352,0.810440556053523,0.742108443012534,0.741367156085924,0.75974054174717,0.716320516637775,0.710555694518544,0.696140296325648,0.689210475361215,0.702769256756169,0.705151069316303,0.747566554531915,0.713899425063491,0.724403636315536,0.723343938657202,0.764585232066854,0.760393241961017,0.759957829910551,0.736282613062816,0.77665558954265,0.721552982756722,0.718801780318841,0.73054202693104,0.733597432797654,0.733656769180731,0.744311410699732,0.727606129554285,0.715690380963971,0.70091562157779,0.706745630146035,0.706916953505624,0.69057270500087,0.682063366233401,0.654878945547069,0.638872329419261,0.633176872367571,0.61702484031504,0.620221483487852,0.615432786656424,0.602930360024982,0.603615653463336,0.625444756646041,0.612591326058369,0.614248566165999,0.599979419621531,0.569584984183102,0.583043478733419,0.583314253213939,0.561998284386295,0.53059095181703,0.507285960570747,0.5466702759072,0.507337775440477,0.502465506238518,0.527484566804391,0.512995624925427,0.535940419254721,0.537718839299621,0.539913449749766,0.565908635603442,0.556595330631464,0.540643036544502,0.538827844656568,0.514837559971931,0.514652865033058,0.494531145380302,0.505381346246345,0.509670280301998,0.510521047034004,0.503420738433688,0.503905458182767,0.617377515718681,0.493355282126931,0.492820418955532,0.49008008092582,0.487383200528783,0.487450058425208
0.661779516181816,0.871693253586829,0.871475965423449,0.871099889756059,0.912275996716696,0.684847997619495,0.684044867138692,0.683850143515355,0.901085656302591,0.684939927227079,0.675533856923812,0.675874832195579,0.671626848601487,0.671010920230673,0.666551498539137,0.66584531200815,0.732211802894249,0.935458972302003,0.660983071490655,0.743304363634833,0.811303858641109,0.667446558627525,0.668280610885424,0.665119903831941,0.780337788188247,0.895310805498898,0.6353689756466,0.632232504580571,0.633660756392946,0.632083745761026,0.631440238507937,0.630578607367762,0.631214593107503,0.62373235877386,0.62198068188753,0.619466824981956,0.618529142984598,0.618185660541716,0.617800391913568,0.824102967187936,0.852037032037932,0.851301595177258,0.61819736067359,0.61624427437428,0.612705820205996,0.613900069380885,0.613209761600298,0.614323781299477,0.604718808754346,0.599818124946406,0.599665187508335,0.599387727238172,0.597607635745861,0.597446341070736,0.619638148341545,0.620160475657364,0.625755645864416,0.625109631440211,0.619211093528131,0.618340269427198,0.624091719967143,0.624043247992235,0.623959675621704,0.635902167370588,0.648364479264175,0.648144683929679,0.648369493606407,0.649205217311717,0.65714542823587,0.672986571070026,0.674864442235859,0.695633012036524,0.718943017625038,0.716286251965857,0.721318980119235,0.697625377349984,0.754745421160531,0.713468191631551,0.714307258231682,0.714599761528541,0.718937167559101,0.725144923242146,0.725653043254975,0.725650536083859,0.72543993371012,0.740828950019704,0.7353516168551,0.800624145410949,0.748970570356837,0.746344726474752,0.809415958790813,0.716316338019248,0.713637007820023,0.712790419706544,0.700866313879177,0.684850504790611,0.684449357412062,0.686565409833908,0.672648938693081,0.67296985659592,0.679699939594784,0.680748772844948,0.703886619350168,0.688632990280845,0.689015751737877,0.733424437990655,0.728369145297233,0.709806886078586,0.738608432134694,0.697983902819562,0.729663681316759,0.711168279994537,0.750097125911595,0.724569109609187,0.695888743490349,0.703737860530623,0.687670236572328,0.687639314795231,0.678947788260004,0.679323028203689,0.665781797006546,0.65288992312843,0.648281742617349,0.63904532422626,0.660158212193514,0.631599861735651,0.612277093945172,0.612058970058086,0.585919204003391,0.566893953852003,0.608902441623129,0.565991372250268,0.561276219104907,0.557975110468932,0.591630539805482,0.563108125466947,0.563406478829743,0.555828971993695,0.519903717073522,0.51429601101089,0.510382316898922,0.506141854818178,0.508603896854022,0.507484862812611,0.536252144196802,0.567480631893131,0.514036936662244,0.529339037706475,0.520688461632808,0.549733203287162,0.576997017725499,0.56712795648949,0.564914960117828,0.515192742546688,0.515105827281336,0.513863106131539,0.504982706038912,0.504391013655553,0.504525565172108,0.503365580669137,0.50457320142331,0.504832275771957,0.494124147935816,0.493685392990528,0.488762144642545,0.488320046802436,0.486694564195608
0.666219716228129,0.666122772278313,0.67151569734868,0.670462685479989,0.677460200064552,0.67816805804295,0.685661156784762,0.685584270203873,0.687000821884374,0.681043783312923,0.680950182257928,0.681237671212555,0.678626870357165,0.733521381940471,0.732435776847273,1.03974057625062,1.09482312566762,0.75668262870944,0.833667824995212,0.829991476415552,0.853507905759278,0.667942978508479,0.668896539256238,0.669057833931363,0.728327359111967,0.740880764889433,0.637352983723007,0.633201108355025,0.631471996008738,0.626659898913562,0.626055670674622,0.625625272966388,0.924243560176739,0.620544072838101,0.620025088417103,0.619861286570863,0.619870479531621,0.631538018181458,0.631001483562649,0.627175540439738,0.62754242314637,0.626585519503789,0.625596022636702,0.619903908479834,0.619208586357015,0.618018515800654,0.617126798607088,0.617379187166091,0.614500119001297,0.608344178187982,0.603817062876316,0.600556068978195,0.601222140771328,0.606472992811792,0.606943505257882,0.611766466761227,0.625453949606799,0.625733917048078,0.625661209085716,0.628489298104486,0.623857717329657,0.623820945486623,0.63426414890818,0.652448661012026,0.64628937730389,0.646256784079383,0.646992220940056,0.646848476462742,0.645836415055611,0.654804566137296,0.654592292316147,0.67771008145244,0.679005453195671,0.710073481940581,0.715791503532313,0.782773087065521,0.748107267769251,0.825144278924752,0.702454188919267,0.707157641932753,0.702205978978789,0.701885896799656,0.828228935121052,0.763916653102605,0.739300411362691,0.734871911448252,0.734737359931697,0.741254333385707,0.745806520408532,0.743305199358538,0.697342902737589,0.688372244484789,0.688512646067281,0.687167966625436,0.678875080297643,0.685107071968141,0.674903721250008,0.673081007848726,0.67119143655102,0.672190126378866,0.661340761236528,0.667249327833071,0.680930124889001,0.678923552272551,0.678425460944186,0.667807591268219,0.663015551541969,0.70374371059656,0.700911442959264,0.682507971244626,0.658760882158235,0.659143643615267,0.673447890555358,0.666164558463579,0.696828096935118,0.695582868614206,0.667793383965228,0.683962966215572,0.668837202873161,0.660921227936462,0.65336210702193,0.667935456995131,0.667692261396886,0.637436556093538,0.629152862726503,0.61342872121109,0.609202466433336,0.601553923082336,0.60424411768973,0.563834369366862,0.565845956325544,0.561011294690324,0.561139996140942,0.55919610280239,0.555055927566283,0.598328865303544,0.519591992131441,0.573761095538537,0.516932719301144,0.517139143056356,0.523661130852597,0.527767877140492,0.530502365104267,0.508170991974671,0.50863816152594,0.530803225638179,0.553423759169812,0.533302875240762,0.533744137357166,0.543766136031246,0.543470289839566,0.543539654907107,0.532453779956166,0.51770325655744,0.517784321756855,0.51880641184845,0.50407427437124,0.50239196255245,0.501144227060422,0.502238189390673,0.500694607706965,0.503088120398974,0.493757265229185,0.488224774300031,0.488031722124104,0.487389886318426,0.487008796308804
0.68449615793956,0.871133318704271,0.671539933336134,0.753157546120441,0.680799751990972,0.688078905464225,0.687037593727408,0.686676561086714,0.682119359721657,0.680503070075587,0.678305952454326,0.680628428631383,0.680752951463475,0.680963553837213,0.679223577082757,0.75913464206082,0.978139381932199,0.759189799825371,0.70698882574428,0.888942590864433,0.671478925505647,0.673362646737416,0.673230602391977,0.672679024746472,0.663235346876466,0.662870135617246,0.642422483719419,0.642363147336342,1.01679996053985,0.631711012988457,0.628961481997986,0.625581815333712,0.924410704917801,0.929291331356813,0.621408211149392,0.62142993996573,0.794115529193992,0.905556778126002,0.625953712382575,0.628886266864508,0.627848298022513,0.627480579592177,0.626988338329749,0.624139356218346,0.622528916638213,0.620107825063929,0.620508972442478,0.618290961728585,0.617633247172506,0.612107442032994,0.610323171922157,0.608802154778492,0.608050003443713,0.607251887305141,0.611662837021769,0.613209761600298,0.731488901889156,0.620375256649629,0.737198566243836,0.723391574908405,1.14375474861354,0.686215241601383,0.812139582346419,0.669566789667897,0.645652555840443,0.645851458082307,0.646115546773185,0.643133684592638,0.6459133016365,0.651457492697528,0.650757156232478,0.82340179499918,0.808987232529989,0.693649003960118,0.787139743425767,0.760924762237595,0.733764577538716,0.773656177164291,0.716509390195175,0.860076694083016,0.736524972937356,0.779643301789134,0.762100625490966,0.765298940111189,0.824737281480266,0.684211176156049,0.703464578878987,0.845334527921343,0.710791368603442,0.767965734454834,0.689572343725614,0.680798080543562,0.675174495730529,0.65705099145717,0.69311581223613,0.706281803489588,0.704215058766355,0.66048498016229,0.657996194967876,0.65800622365234,0.648881792237762,0.704816779834179,0.736200712139696,0.655922764455001,0.650757156232478,0.658588723074941,0.652158664886284,0.658258612211343,0.662010175924481,0.660527602071261,0.669718055658558,0.641960328510382,0.644093931130039,0.649943997067212,0.650187192665457,0.643670219211447,0.637880325381058,0.632960419927896,0.652394338971181,0.630739902042887,0.651841925601971,0.653200812346806,0.636981086674144,0.635349754001378,0.632327777082976,0.646822569027877,0.60273647212535,0.616013614631614,0.615346707114777,0.633985852914312,0.562709485259514,0.560175570985014,0.557508776641369,0.5748726080666,0.542184946780799,0.589936527854818,0.522439302795433,0.548039191336498,0.522989208993528,0.527792113127946,0.513665039613381,0.533688979592615,0.537365328172275,0.530012631012955,0.531114950580259,0.531351460388862,0.555619205343662,0.556698124647218,0.532119490474042,0.531450911509794,0.532115311855516,0.525788883406317,0.525976921240012,0.527092612386601,0.518437021970703,0.509426248980047,0.506139347647062,0.505999781788275,0.504497150566127,0.499405086029672,0.499696753602825,0.499207855235218,0.49876910028993,0.494396593863747,0.487987428767723,0.487802733828849,0.487122454732727
0.877518247812842,0.68030834645225,0.682542235916544,0.683847636344239,0.683932044438475,0.684405064055681,0.677776939348865,0.677748524742884,0.679044732209821,0.680706986659683,0.682912461517996,0.682129388406121,0.680600849749108,0.680427854942109,0.679073146815801,0.678294252322452,0.716971545404211,0.760084024190052,0.675484549225199,0.676494103461214,0.677105017489795,0.676447302933716,0.677422592497813,0.673014985676007,0.737534527173371,0.74801115954314,0.767043931207877,0.768030085180143,0.978565601021907,0.629697754582365,0.62946876628711,0.62867566449077,0.629068454632266,0.627315106298525,0.627008395698676,0.62922807785998,0.63198847325862,0.631890693585099,0.840604331749287,0.629169577200609,0.629883285244944,0.630427341377101,0.628304603165612,0.626360709827061,0.626080742385782,0.620015895456345,0.619201064843668,0.61987967249238,0.61848067100969,0.618219925213633,0.613845747340039,0.613553244043181,0.613345984564264,0.613875833393431,0.613396127986582,0.614325452746888,0.614433261104873,0.834455912449319,0.622625024864324,0.623109744613404,0.998012891644477,1.00214972398576,0.655409630099941,0.921000952200135,0.646400528556696,0.664478068026262,0.906150141956772,0.641555002513307,0.64144217981309,0.641138812108062,0.642786023531229,0.804997487560837,0.660451551214078,0.735462768107907,0.769146612050437,0.762956406565204,0.676194914374712,0.756334967648031,0.745973665149594,0.823655855005595,0.753750074227506,0.752880085850278,0.728040705881046,0.756257245343437,0.733678497997069,0.75326284730731,0.831361227568555,0.831706381458848,0.797666519217856,0.664651898556967,0.761619248636707,0.671983702623654,0.680381054414612,0.661970061186626,0.649126659283418,0.763799651783862,0.637709002021469,0.783084812007602,0.643559067958641,0.631970923060809,0.6289322316683,0.639810011416619,0.633117535984494,0.630886989415021,0.630526792498033,0.628980703643208,0.638665069940344,0.687867467366781,0.654387540008346,0.646309434672817,0.634664460563024,0.632293512411058,0.632733938803757,0.63808842058368,0.624812113801121,0.629451216089298,0.657219807645643,0.617117605646329,0.61732068650672,0.61740258742984,0.622228056104302,0.633180215262393,0.633328138358233,0.603587238857356,0.614409860841124,0.614419889525588,0.623866910290415,0.62730173471924,0.600468317989138,0.603933228471354,0.563614574032365,0.560685362445253,0.567544146894734,0.551076211281595,0.566043187119997,0.52459964857366,0.52271425589448,0.521270125331704,0.533638000446591,0.51075337822408,0.510088977878358,0.51196517759678,0.583794794344493,0.530543315565827,0.516629351596116,0.515867171576873,0.7304885406139,0.583920988623994,0.612374037894988,0.521051165720913,0.519865273783078,0.519700636213132,0.526154094665538,0.514092094426794,0.514097108769026,0.514341975814682,0.511691060221438,0.903851901767169,0.504114389109095,0.498710599630559,0.498839301081177,0.499313992145793,0.498302766462367,0.496404837927608,0.495637643566133,0.485320634424078,0.486881766305597
0.684475264846927,0.68513047223189,0.684736010642984,0.685056928545823,0.684407571226797,0.679658989133224,0.677737660334715,0.678081978501303,0.678094514356883,0.678756407531488,0.680812287846552,0.682001522679208,0.677947426984748,0.67987711302031,0.679708296831837,0.677767746388106,0.944326000815345,0.81229084833708,0.675751980810898,0.676789949652893,0.67711838906908,0.677237061835234,0.676668769715623,0.674790898549791,1.01861348098038,1.01731810923714,0.659037506704693,0.659321652764498,0.761514783173544,0.634628524443695,0.627142947215231,0.627529051567085,0.628405725733955,0.629830634651509,0.628813558902147,0.632046138194287,0.632395470703106,0.633167679406813,0.635374825712537,0.635056414980814,0.633015577692447,0.631488710482845,0.631552225484448,0.630157402620285,0.629439515957424,0.63128813679357,0.628500998236361,0.628922202983837,0.621420747004972,0.6206226308664,0.620801475739337,0.619588004919226,0.616050386474648,0.615017431974884,0.646211654999296,0.647051557323133,0.646139782760639,0.626319759365501,0.627035974580952,0.626990009777159,0.634389507463977,0.635190966497369,0.634901806095332,0.63729531878734,0.637359669512649,0.829323733175009,0.773921101578875,0.811918115564512,0.65307712523842,0.653978871116449,0.656964076191818,0.658307084186251,0.658479243269545,0.750573488423622,0.735426831988578,0.662285129023528,0.811923129906744,0.820172558601861,0.741554358195913,0.747630905257224,0.776381472167308,0.766837507452665,0.822344604511963,0.865659328434489,0.660753247471695,0.665917184246807,0.665863697929667,0.665917184246807,0.717386064362045,0.648026011163524,0.647941603069288,0.752163870634827,0.712280628246305,0.724538187832091,0.619038098721132,0.619485210903473,0.619595526432574,0.615000717500778,0.619971602099964,0.62082236883197,0.685488161977763,0.620832397516433,0.672197647892213,0.712504602199328,0.588187358139603,0.594667559750579,0.612305508551153,0.635788508946666,0.630053772880827,0.663923147485936,0.620269119739054,0.619861286570863,0.653406400378312,0.647156858510002,0.625165624928467,0.624111777336071,0.664366081049751,0.608278156015262,0.62292504967453,0.623096373034119,0.654950817785725,0.630693937239095,0.628883759693392,0.630851053295693,0.630030372617078,0.620391971123735,0.594156096842929,0.590146294504851,0.59010534404329,0.574087027783608,0.543872272941821,0.54664353274863,0.573531271519577,0.569116978908128,0.554494321236314,0.517813572086541,0.552674115006149,0.523763089144645,0.52162196501164,0.50805900499816,0.506440208180974,0.50070630783884,0.518447050655166,0.515721755652149,0.529724306334623,0.536682541905037,0.536076642218686,0.526178330652992,0.527279814496591,0.519575277657335,0.520627453802321,0.520168641488105,0.517745878466411,0.516956119564893,0.514795773786666,0.515077412675355,0.514574307004758,0.509861661030514,0.509782267278509,0.506198684030139,0.504267326547167,0.500519941452556,0.4988902802272,0.498590255416994,0.497385141833937,0.493661157003074,0.48658007004798
0.68502349959761,0.684829611697978,0.685260845129918,0.684353249185951,0.683321966133599,0.679552016498944,0.679529451958901,0.679518587550731,0.678580069829668,0.678382003311509,0.675383426656856,0.675172824283118,0.68583080869694,0.685733029023419,0.685652799547709,0.684908169726277,0.681152427394613,0.681281128845231,0.714246250401194,0.788595574120418,0.664342680786002,0.793720231881381,0.796219045760258,0.669706355526683,0.789790659019012,0.898595199660767,0.90595792550455,0.655911900046832,0.647612327929396,0.646045345981939,0.629337557665376,0.631417673967893,0.630218410450773,0.630267718149386,0.633053185259185,0.633069064009586,0.634273341868938,0.635583756638865,0.635567877888464,0.63527286742049,0.634421264964778,0.634655267602265,0.634437143715179,0.634146311865731,0.632722238671882,0.629799712874412,0.628000399736879,0.624301486617176,0.625060323741598,0.622687704142222,0.621690685761787,0.621490112072512,0.620991185020442,0.620468021980918,0.62363959344257,0.627473893802534,0.628890445483035,0.627863341049209,0.62748893682923,0.621118215023649,0.621644720957995,0.972732249558842,0.794082935969485,0.663990841106067,0.639550101344267,0.671426274912212,0.826459708036911,0.826296741914375,0.834438362251508,0.656231982225966,0.785518439437466,0.660455729832604,0.660740711616115,0.6603763360806,0.657167992775913,0.657555768575177,0.656880503821287,0.831876869094732,0.653954635128995,0.651020409199651,0.648759776576787,0.64813549096892,0.826319306454418,0.726155313201866,0.733296572263742,0.652384310286717,0.65498926107617,0.732827731265063,0.649913075290115,0.647469419175788,0.648277563998823,0.738300050087435,0.630718173226549,0.628788487190987,0.628577884817249,0.618103759618595,0.608914977478709,0.608987685441071,0.676366237734301,0.685873430605911,0.610751898182981,0.587359155947641,0.588769857562205,0.587510421938302,0.588321073932453,0.586426488292515,0.586447381385147,0.585555664191581,0.59520910871162,0.681342972399424,0.650470503001557,0.588224965706342,0.639875197865633,0.589881370090267,0.600222615219777,0.619784399989974,0.599198017957066,0.600585319307881,0.606859097163646,0.610811234566058,0.610546310151474,0.590146294504851,0.574267544103956,0.614673949532002,0.56959250569645,0.582512794180547,0.592634243975559,0.545725908120199,0.547780116987852,0.577205948651826,0.558543402588543,0.559693358407049,0.553570010818241,0.550800422458843,0.549482486175569,0.511308298764406,0.544809119215473,0.55154588800398,0.553989544118307,0.552352361379604,0.552706708230656,0.525097739902025,0.526894545868443,0.526673079086535,0.53197908889155,0.529736006466497,0.530194818780713,0.530616859251894,0.528672965913343,0.525607531362265,0.519851902203793,0.519582799170683,0.519896195560174,0.518452064997398,0.530563372934755,0.519392254165872,0.519729050819112,0.519139865606868,0.507806616439156,0.50791108190232,0.507654514724789,0.502198074652819,0.500197352102306,0.49662714043322,0.495927639691876,0.492825433297764,0.492973356393604
0.682137745643174,0.682333304990216,0.683503318177651,0.683454846202743,0.683445653241984,0.680623414289152,0.680223102634308,0.679859562822498,0.792133192564996,0.692366168072466,0.692502391036432,0.692543341497992,0.687755480390269,0.686795233852868,0.685428825594686,0.67773682461101,0.682121866892773,0.681748298396499,0.681454959375935,0.662646997387928,0.663049816213887,0.66307238075393,0.6630046871338,0.662133863032867,0.651127381833931,0.650595025833648,0.65252471186921,0.652843958324638,0.65233750975922,0.645030777403692,0.638281472759607,0.634259134565948,0.632782410778665,0.635756751445864,0.63733459780149,0.635414104726687,0.636613368243807,0.636907542988076,0.637683094586604,0.637706494850353,0.638314901707819,0.639315262983075,0.638441931711026,0.637720702153343,0.636869935421338,0.633795307909501,0.631923286809606,0.627122054122598,0.626234515547559,0.625813310800083,0.625641987440494,0.623144845009027,0.622741190459362,0.623049572506622,0.623552678177218,0.628402382839134,0.628657278569253,0.626936523460019,0.622846491646231,0.621410718320508,0.619725899330603,0.618275918701889,0.61726720018958,0.800390978497167,0.677287205257553,0.660748233129463,0.656449270389347,0.656568778879206,0.655740576687243,0.663090766675447,0.663739288270768,0.663533700239262,0.663075723648752,0.6618714457894,0.656640651117863,0.655417151613288,0.656924797177668,0.70483265858458,0.651987341526695,0.65241773923493,0.643041754985054,0.640649913740456,0.63912555370197,0.828204699133598,0.649168445468683,0.646749861065516,0.646615309548961,0.648974557569052,0.640033985369642,0.640168536886197,0.628667307253717,0.628719957847152,0.624160249310979,0.617828806519548,0.61726887163699,0.600980616620493,0.600955544909334,0.591756734084983,0.591934743234215,0.735842186670117,0.581088720986698,0.575980777699841,0.577250242008208,0.578345875785869,0.578584057041883,0.713891903550143,0.561218554169241,0.561069795349695,0.568579608565614,0.670658244827032,0.588579312557394,0.591724140860476,0.58359923499745,0.584511009559943,0.5854169340565,0.590700379321471,0.589790276206389,0.59390287256022,0.595521669377406,0.634716275432753,0.616163209174865,0.615075096910551,0.574621890955007,0.574204864826057,0.597244931657756,0.556953020377337,0.569073521275452,0.569394439178291,0.572773270118861,0.593586968999613,0.595305216937731,0.584090640536172,0.511525586927786,0.503018755331433,0.531962374417444,0.505867737442836,0.505021149329357,0.536899830068417,0.599265711577196,0.546377772610341,0.540344683181706,0.537024352900508,0.530771468137377,0.530504036551678,0.531145872357356,0.531107429066912,0.531199358674496,0.527150277322267,0.526777544549699,0.527346672393015,0.523529922230863,0.523142146431599,0.523769774934287,0.524892987594224,0.524572069691385,0.524981574306987,0.525152897666576,0.52446258988599,0.723387396289878,0.724269084798981,0.508114998486415,0.499653295970149,0.500016835781959,0.498659620484535,0.49736675591242,0.492969177775077,0.49304522863226
0.797483495726393,0.836434070459789,0.808071279348968,0.807858169804115,0.800027438685357,0.926533443129289,0.725100629885764,0.690739849741932,0.690591926646093,0.690486625459223,0.689584879581194,0.690835957968043,0.685296781249247,0.773640298413891,0.675146916848253,0.675023229739867,0.675408498368015,0.665443328905896,0.665464221998529,0.66810678035472,0.666808065716668,0.666156201226525,0.665045524422168,0.664311759008906,0.805312555397739,0.650696148401991,0.650210592929205,0.799740785454436,0.655567581880244,0.850967305695134,0.642565392473027,0.641365293232201,0.639430592854408,0.640214501689989,0.639350363378698,0.640568848541041,0.638612419346909,0.638943365934212,0.641223220202299,0.640105021884594,0.64084881598232,0.64164358922607,0.640888930720175,0.880501781440799,0.635602978284087,0.634468065492276,0.634678667866014,0.634590081153251,0.633382460399078,0.631526318049584,0.626771885890073,0.626145928834796,0.624737734391348,0.624171113719148,0.627622652622079,0.628447511919221,0.628736672321258,0.620746317974786,0.619635641170429,0.620026759864514,0.619224465107416,0.619580483405879,0.619344809320981,0.701997048052462,0.723420825238091,0.802848841914485,0.655986279456605,0.658971484531973,0.658093974641397,0.662458959554233,0.662921114763269,0.664415388748364,0.667724018897688,0.686450079962575,0.706708858303001,0.656027229918165,0.66110508715163,0.717386900085751,0.744798637619928,0.74325505593622,0.776165019727633,0.740269015137146,0.723764307680973,0.622854848883284,0.628948946142407,0.646914498635462,0.648129640902983,0.648503209399256,0.647616506547922,0.642746744517079,0.629986079260697,0.6291052264753,0.626776900232305,0.617649961646612,0.612200207364284,0.611917732751889,0.602357889286844,0.587818803985562,0.587039909492212,0.584537752718513,0.575065660242527,0.576712035941988,0.576705350152345,0.577683982611264,0.561225239958883,0.5606770052082,0.563350485341487,0.563375557052647,0.557766179542604,0.584914664109608,0.585823095777281,0.577043818252996,0.585920039727097,0.582127525552399,0.592142002713132,0.585448691557302,0.587699295495702,0.590188080690116,0.587512929109418,0.594641652315715,0.58432798606848,0.595335302991122,0.563076367966145,0.5630220459253,0.627805676113542,0.560074448416671,0.574308494565516,0.575484357818887,0.574196507589004,0.599824810736049,0.600953037738218,0.660268527722615,0.530520751025784,0.533246046028801,0.53377004479203,0.52581144794636,0.526526827438106,0.543846365506956,0.544572609406871,0.546583360641847,0.553504824369227,0.677912326589125,0.53464504751149,0.53406589098371,0.533744973080871,0.533549413733828,0.533371404584597,0.533915460716754,0.536912365923997,0.645534718797994,0.76274329702035,0.525493872938343,0.526295331971735,0.528091302214447,0.527484566804391,0.527285664562528,0.52695388225152,0.901503518155247,0.532442079824292,0.725659729044617,0.727698894885574,0.629100212133068,0.504025802396332,0.504231390427838,0.501853756486231,0.629004939630662,0.627582537884224
0.706667907841441,0.706312725266684,0.706688800934074,0.707610604181031,0.726999394144229,0.75281907801979,0.701583364818333,0.894408223897162,0.894358080474844,0.688861142852395,0.682374255451777,0.685681214153689,0.685380353619778,0.683973830623741,0.683431445938994,0.682272297159729,0.668183666935608,0.66799980772044,0.669397973479424,0.669809985266142,0.669118006038145,0.667793383965228,0.66479397158687,0.663658223071353,0.663771881495275,0.666660978344533,0.661570585255488,0.662129684414341,0.661617385782985,0.848393276682779,0.655087040749691,0.642347268585941,0.642875445967697,0.642656486356906,0.64177897646633,0.642780173465292,0.64113212631842,0.641519066393979,0.641636903436427,0.639551772791678,0.643121984460764,0.644529343180506,0.648421308476136,0.649062308558109,0.649769330812802,0.646564330402937,0.643081869722909,0.638097613544438,0.63887065797185,0.639915312603488,0.972514961395461,0.631834700096843,0.63060200763151,0.629937607285789,0.628313796126371,0.628668978701128,0.629295771480111,0.622630039206556,0.622369293410499,0.617756098557186,0.617466938155149,0.808952967858071,0.907554157781693,0.860761987521371,0.71582409675682,0.648051918598389,0.648027682610935,0.660596967138801,0.660713968457545,0.661861417104936,0.661399261895899,0.683804178711563,0.646647067049762,0.646364592437368,0.706112987301115,0.737108308083662,0.735968380949619,0.876941598456178,0.754560726221657,0.716810250729087,0.751500306012811,0.73631938490585,0.728067449039616,0.61742933058841,0.793526343981749,0.725454976736816,0.7260976482662,0.724606717175926,0.651897083366522,0.621489276348807,0.622643410785841,0.622812226974313,0.623120609021573,0.62046050046757,0.611137166811129,0.609814216185623,0.677679159675344,0.678698742595822,0.602303567245999,0.566750209374689,0.567209021688905,0.567736363346956,0.553499810026995,0.553947757933041,0.593682241502018,0.565479909342618,0.567137985173953,0.566221196269228,0.62239937946389,0.581864272585226,0.571299889226399,0.57108928685266,0.584638875286856,0.585867389133662,0.588508276042442,0.603483609117897,0.619211093528131,0.615377628891873,0.589076568162054,0.631299001201739,0.601603230780949,0.600683098981403,0.62568377362576,0.628707421991572,0.585925889793034,0.58645406717479,0.591123255516358,0.591631375529187,0.586615361849915,0.570651367631078,0.563624602716829,0.563528494490718,0.564393468525714,0.553483931276594,0.552211959797112,0.550809615419601,0.551388771947381,0.549771646577606,0.546120369709105,0.545491069759007,0.562755450063306,0.562891673027272,0.72485910573493,0.537684574627703,0.538574620373859,0.538382403921637,0.537551694558559,0.537760625484887,0.53821442345687,0.537896012725147,0.536518740058796,0.536149350181048,0.536608162495264,0.536293930382067,0.540680644111241,0.542512550473281,0.526810137774206,0.531289616834669,0.532879999045875,0.534336665464231,0.534112691511207,0.632381263400116,0.585643415180639,0.504606630371523,0.586643776455895,0.674276928471025,0.512386382344256
