0.861949078217152,0.861680436006076,0.842178661843614,0.841259960493788,0.832571722977874,0.832300330163954,0.826116058103502,0.815460222686665,0.810479797804178,0.806662877924614,0.80391135821321,0.803716982278916,0.800976464978888,0.800315403428764,0.79883649596642,0.797234728243721,0.833619702661358,0.821275913966049,0.821219985041558,0.876947198656718,0.878269321756965,0.893978931465457,0.896332530632126,0.84827216401022,0.829408529707517,0.874028809039458,0.832678996488782,0.870562132588669,0.791305345380127,0.784883604607495,0.784791000978421,0.777764127580155,0.772817626799408,0.769184080442763,0.770824356605276,0.771571603711172,0.778041938467378,0.771973191726365,0.769961584179941,0.771206690400563,0.764464962830437,0.763473828939058,0.75816608231816,0.988603336762248,0.741657880917355,0.742274932821978,1.27230968274676,0.750020630430087,0.749438419494819,0.747069233578702,0.75996130910754,0.761319190044757,0.760873592384063,0.762270898628708,0.762208551630915,0.762562462530149,0.762756838464444,0.760430745326213,1.02855125873021,0.983175480483838,0.953954909606656,0.718333685669642,0.721125547556087,0.75913154391633,0.733305216948383,0.721052198146919,0.719039673732881,0.717465412038619,0.716733751682171,0.718032036224439,0.714330641664314,0.712087983479012,0.711814756929862,0.706920517603148,0.702748769956735,0.702586484388951,0.703169612191834,0.704214841272474,0.706562939233455,0.706529015131715,0.702790945867006,0.700797675672874,0.746858354027345,0.786256155426545,0.693146415429068,0.69370937214443,0.695067253081647,0.696062971311099,0.730027415226202,0.731648437168808,0.675276665620588,0.675988154889514,0.665441426718814,0.662242475611488,0.662109529807371,0.740493459046818,0.651631566707765,0.651537129343462,0.642351949580437,0.636051235332931,0.635354415945838,0.634827217067445,0.63101213092311,0.629554311415902,0.631834561173403,0.623124318834739,0.623055553763644,0.62183978730669,0.760763568270312,0.585154080311465,0.58623231662623,0.58552816229822,0.586829197443332,0.588239339834581,0.580962161577531,0.579242117932549,0.576852760928911,0.57559390169407,0.575645246280487,0.564667590330927,0.564593324054144,0.848253826657928,0.563800233567519,0.612680279836873,0.531076311534964,0.529748687229029,0.530036583660012,0.529182979910823,0.530304309003474,0.525583357655918,0.525654873329857,0.51145442771499,0.512137494087864,0.512224596511251,0.510898805940545,0.509207185191615,0.507613669277447,0.506455665480211,0.500344742828927,0.506857253495405,0.507096555942814,0.675427948776996,0.562810016543755,0.483555063070441,0.4834331196777,0.478408685149713,0.477434054875397,0.445086965432442,0.446383416239481,0.00401852073066156
0.864266002679237,0.864376026792989,0.84510622013702,0.844396564603322,0.832877039893535,0.832512126582926,0.82502040130406,0.82300971062525,0.811989878765418,0.808756086688737,0.80797674921633,0.805260070474282,0.805136293346311,0.803255797868774,0.803747238910198,0.960501344374873,0.818612413545647,0.818817791891316,0.822232206888073,0.878022684368639,0.833862672579226,0.835478193316144,0.836615109158244,0.867874793610288,0.829326928489818,0.833098004988653,1.0720566270428,0.870071608414861,0.792063594897398,0.78351013692083,0.782531839176056,0.784083179179952,0.775305088637808,0.770797767444453,0.772021785709939,0.77801443243894,0.779883008637487,0.772526979765581,0.77137172657119,0.77157527118163,0.764144059165328,0.764269670028528,0.759198475252196,0.758106485923212,0.741401157985268,0.743503535425537,0.999376531233753,0.753075633321922,0.752825328463137,0.909297038702517,0.76585401726655,0.763668204873353,0.764263251955225,0.76410646759313,0.765669726876016,0.766714039089041,0.763373890369067,0.759766016305631,0.759545968078128,0.75779291719902,0.822366069559804,0.729738601927604,0.867524550181512,0.960418826289559,0.735057350959877,0.719987714846373,0.717356304792482,0.714690970636851,0.715029294786637,0.715421714125684,0.714154603082312,0.713457783695219,0.711366408666325,0.704703531711054,0.703249379674304,0.703075174827531,0.705065694418819,0.704676942550231,0.707438547805394,0.706715139257478,0.706139346395512,0.704368875031726,0.70442755455906,1.33351976469721,0.694947143424135,0.696134486985037,0.695917189360378,0.695906186949003,0.738260886405276,0.670450274497353,0.67245638083809,0.675365601779203,0.667167888437098,0.663570099917423,0.664067042164534,0.664414534990466,0.660345476516888,0.653104972964421,0.642602254439221,0.638713818885719,0.636444571539593,0.636892002935516,0.626388367542702,0.628358716046469,0.632871538445512,0.626196742211251,0.62247425969599,0.62489387333091,0.624215391296108,0.763540760274924,0.58681086009104,0.585792220171224,0.587397655364382,0.588223753085133,0.583043451062664,0.579838081882036,0.576613458481501,0.57660520667297,0.576402578930144,0.565316732602061,0.557069508408768,0.555748302176134,0.555273364751774,0.634124896474665,0.531276188674946,0.529965984853688,0.530049419806616,0.528993188314602,0.53066647171124,0.526988915709094,0.527731578476917,0.70972979997427,0.513606316006447,0.511860600068256,0.512099902515666,0.50966103466084,0.509970019046959,0.506156766637853,0.50027139341976,0.499742360806138,0.495367985416899,0.50330347462123,0.485481401928708,0.484898274125825,0.485512575427604,0.47802910195727,0.477309360879812,0.446371496960491,0.448339094861414,0.447592764623133
0.864299926780977,0.863548095337008,0.848614155630465,0.846366913107089,1.00329155594808,0.83420466419947,0.830140190063965,0.826732193140511,0.814736814138748,0.813619152516556,0.809423566312163,0.808269229985386,0.802161057936946,0.802599320656723,0.804885071619912,0.812945254819827,0.819521029351712,0.818658256926376,0.81761761218381,0.826849552195179,0.898318465885341,0.836585769394577,0.836470244075138,0.836465659737065,0.831566836072277,0.830376741908531,1.07041543401267,0.794772021830915,0.794430947078285,0.790476497056532,0.783829206850709,0.783749439368239,0.776299889999645,0.775635160979062,1.02899135518521,0.777829225180791,0.780385452090286,0.770550213188512,0.772602162909978,0.766406888438152,0.765732073873809,0.764527309828229,0.759299330689801,0.758436558264466,1.29131634839734,0.774912669298761,0.75981369342159,0.7579863762657,0.775044698235263,0.828973017590584,0.766028222113323,0.764417285714478,0.765475350941722,0.765964958247916,0.768464339365305,0.767444782577874,0.766999184917181,0.767797776609494,0.757479348474828,0.757542612340235,0.822829087705175,0.732686331308531,0.732866954228606,0.754405091363087,0.737147809121156,0.938716569852066,0.71683735772262,0.715201665898181,0.715537239445123,0.713875875327475,0.713695252407399,0.712628018504009,0.71342202585825,0.696542493073533,0.701719127625543,0.702828537439204,0.703607874911611,0.704718201592887,0.707887812936547,0.707453217687228,0.706331888594577,0.705328835424208,0.705491120991992,0.703324562818701,0.696167494219163,0.695948362859274,0.696884484693777,0.695089257904398,0.69240466952886,0.672311515754983,0.674130581102342,0.673974713607861,1.12140244206037,0.66280543232685,0.663704879456768,0.664277921715891,0.659803607756662,0.659972311397747,0.644087579974867,0.639129159915131,0.63766675606985,0.638316815208599,0.626826630262479,0.625521927646908,0.632116039531084,0.628695206461026,0.625717220448817,0.62513134204309,0.625867586737611,0.00357357404597415,0.589111280936062,0.584444424777767,0.585092650181287,0.586257988919439,0.582074321994036,0.582451154583635,0.577379042939689,0.578046522563115,0.577249764606031,0.860825915389272,0.552316466694701,0.552121173892792,0.557764494060632,0.64991702426847,0.531443975448417,0.529347099213836,0.531188169383945,0.533446414318696,0.532063777955884,0.528614521989773,0.528076320700005,0.705349006511729,0.515086140336406,0.51385020279193,0.513004850851272,0.512508825471776,0.512211760364647,0.507516481310299,0.502083123826202,0.498472499159922,0.49674053623595,0.503687642151745,0.485463981444031,0.486843867203998,0.485800471858587,0.483621077538692,0.687089587967046,0.44606801378006,0.449149605832717,0.745772782771663
0.86818836233448,0.857766328159364,0.850100398033725,0.848906636399521,0.845446378022035,0.835814683730701,0.83489689924849,0.82605371110571,0.830624296164472,0.815372203395664,0.810617327946367,0.8101231363021,0.804829142695421,0.803875600376241,1.10861213883675,0.812963592172119,0.816286320407416,0.818289676145309,0.812733458400856,0.82042231021686,0.940513630376675,0.837419202056245,0.837539311713757,0.835774341555659,0.832277408473589,0.829447955014945,0.828777724788675,0.953303933600293,0.79134385381994,0.790577352494138,0.783262582664889,0.783559647772018,1.04707198454505,1.03926944114484,0.781837770391806,0.780206662905439,0.780280929182222,0.773264141327717,0.771901676052427,0.766435311334204,0.765860435339852,0.765486353353097,0.76108447193542,0.760724142962884,0.771291042221106,1.06324552926653,0.759863204272778,0.763096996349459,0.764331100158706,0.769141904532492,0.768659632167214,0.76394693262819,0.763496750629423,0.76665994389978,0.768787993633258,0.768445085145399,0.766881825862512,0.767526383795574,0.761883063627734,0.757504103900422,0.821594983895928,0.84177890756365,0.737447624831129,0.753523064717845,0.748659998890027,0.730101681502984,0.713325754758717,0.715019209242876,0.715247509278911,0.713104789663599,0.714870676689311,0.711917446102697,0.711734072579778,0.700761917835905,0.699226164581456,0.702643330181056,0.703920526768189,0.705537881240336,0.707206580298902,0.708643311850974,0.706686716361425,0.705988063239103,0.705908295756633,0.706096253617626,0.696203252056132,0.696057470105411,0.696142738793569,0.695334978425109,0.675695674120458,0.675813950042741,0.675053866790241,0.83857720585348,0.75184244638029,0.656853127772891,0.662511117822564,0.66361135896008,0.661357698363402,0.661795961083179,0.643095529215874,0.64225292787806,0.635039930354032,0.628569595597826,0.627418009873893,0.62733365805335,0.629404861994723,0.628322041341885,0.62590334457458,0.621635325828635,0.624539045564061,0.624301576851881,0.732219645692702,0.585728956305817,0.586263490125126,0.585985679237904,0.584117103039357,0.582787644998192,0.579037656454493,0.578324333450338,0.578430690093631,0.953450632418628,0.552486087203401,0.553138896944994,0.559944805248141,0.561431964519017,0.529143554603395,0.528596184637481,0.528922589508278,0.534401790373105,0.534323856625864,0.532025269516071,0.528859325642871,0.533373981777142,0.517200437055665,0.517289373214281,0.51659897190049,0.514285714908863,0.513814444954961,0.508997222507872,0.502043698518775,0.506116424462811,0.509872831079812,0.504407383229204,0.485962757426371,0.487417826330735,0.486968561199583,0.486599980418515,0.482992106355079,0.787903766529975,0.445690264322846,0.50341533247021
0.869867146936806,0.86956274688876,0.950489150023482,0.855189013294734,0.849531940112676,0.841280131581309,1.29229739674496,0.826719356993907,0.824676575948586,0.829385608017152,0.810997828006425,0.864484217171511,0.805313248795928,0.940641991842718,0.994132048478263,0.815613339578302,0.817325131414754,0.816567798765097,0.81255283548078,0.813656744088754,0.831323866154409,0.835953130740505,0.836747138094746,0.834806129354645,0.833706805084744,0.827983717434435,0.829800949046565,0.954294150624056,0.789756755979074,0.78962839451303,0.790028148792994,0.961839971092183,1.04694362307901,0.787347227887915,0.790708464563025,0.781969799328308,0.782099077661966,0.772693849671438,0.768515683951723,0.767312753641373,0.765181036437436,0.763567349435747,0.76117615869688,0.760470170633641,0.759016018596891,0.757875435284333,0.763703045842707,0.763207937330825,0.765508358175847,0.772234498996525,0.769538908209612,0.768195697154229,0.765741242549955,0.76738610305054,0.769085975608002,0.768207616433218,0.768272714033855,0.769174911766617,0.763712214518853,0.758080813630003,0.750890737796339,0.74528134173024,0.908712077164404,0.751954304229271,0.832749595295106,1.06690383104877,0.714547022421359,0.714086754878832,0.714444333248524,0.711944952131135,0.714195862124969,0.712384131718527,0.710816288097567,0.708817516697747,0.700342909336034,0.702236240960175,0.702757938632881,0.704797052207743,0.707555906860063,0.707753033397201,0.706955358572502,0.704283606343569,0.70607516566249,0.705684580058672,0.700708739514258,0.695949279726889,0.696006125518994,0.694759185563143,0.6779722564075,0.676800499596047,0.672467383249465,0.671531261414962,0.655995856553243,0.656607407252179,0.66205543461811,0.663111666110125,0.663672789090258,0.659294746230561,0.642644430349493,0.640101956454218,0.636158508843839,0.63027405249336,0.627077851988878,0.624163129842077,0.619603547194689,0.627151201398046,0.626295763913627,0.623149991127948,0.62264571393992,0.625283542067113,0.773206378667997,0.586657743199403,0.588019291607078,0.585593259898857,0.584592040463717,0.589958466611949,0.578757094964427,0.578856116666803,0.578834111844053,0.871825576161583,0.552513593231839,0.563052986461623,0.560961611432729,0.561466805488371,0.528078154435235,0.527970880924327,0.528018558040286,0.535277398945044,0.535623058035747,0.527412508547038,0.52908670881129,0.534777706095089,0.519439427770509,0.519261555453277,0.519025003608711,0.518572987874715,0.513635655770115,0.509236524955282,0.503011910719788,0.502253661202517,0.510698011932948,0.485892158620047,0.485186170556808,0.487067582901959,0.487109758812231,0.489265314574147,0.483709096829693,0.801163505972266,0.436406062857444,0.438624882484767
0.869205168519067,0.865730240259747,0.861000120236045,0.853919151648519,0.850200336603716,0.841855924443276,0.842239175106177,0.828247775307438,0.830104432226996,0.824425354222187,0.868127849071917,0.866139163215857,0.803762825659646,0.972512310126084,0.956347934080752,0.818053124300743,0.817125254274772,0.816873115680758,0.814774405710947,0.809934261573493,0.829583651421905,0.830415250348344,0.831493486663109,0.835108695667462,0.834919820938855,0.830519773256408,0.00412704118152517,0.955165174857923,0.788315440088929,0.789540375222029,0.789802599359804,0.79585025814568,0.79428424825995,0.793000633599515,0.793106073375194,0.785074313071331,0.809974603748535,0.774526668033016,0.774956678944261,0.767633657306481,0.765819176297195,0.762629393866015,0.761862892540213,0.759115957166882,0.759084783667986,0.758717119754533,0.764988494238371,0.763442655440162,0.768995205714157,0.776460341832199,0.771084747007822,0.763281286739993,0.769155657546711,0.767348511478342,0.768228704388354,0.767210064468538,0.768513850216494,0.769809384155918,0.765507441308233,0.759451530713824,0.752628201925999,0.747889830093766,0.745286842935927,0.752981195957619,0.754189627473657,0.723585503366049,0.713163469190933,0.714120678980572,0.715916822637566,0.712553752227227,0.714050997041862,0.714621288698141,0.710999661620486,0.710326680791373,0.702719430193068,0.703140272428167,0.699920233365705,0.700283312941085,0.706966360983877,0.706522597058413,0.70497400765736,0.705509458344284,0.706110923499459,0.70600731745901,0.7060632463835,0.695869512244419,0.696075807457703,0.683490882579755,0.675156555963076,0.677136073142989,0.671974108472812,0.673222882163892,1.03285136784266,0.657557282100901,0.657434421840545,0.661713442997865,0.664924313384181,0.664657504908334,0.717865166318583,0.644797235508565,0.635739500343969,0.632696416731124,0.627783840052117,0.616882284114568,0.620057396663915,0.626450714540494,0.626207744622626,0.621527135450112,0.62077071966807,0.618699515726698,0.774618354794475,0.741628541153688,0.590957852311859,0.589735667781602,0.592081932007354,0.592370745305952,0.783011360938489,0.578385763580516,0.578667241938197,0.568840254844954,0.554336326049656,0.555552092506611,0.56049309208167,0.562786177985775,0.56089009575879,0.527921370073139,0.528018558040286,0.533296964897516,0.533108090168909,0.534114810809736,0.534607168718774,0.537044202838371,0.53810318493323,0.520961428010739,0.52153813774032,0.521198896722919,0.507072717384835,0.508664399563774,0.50923010688198,0.509884750358801,0.510461460088383,0.488342945753863,0.486587144271911,0.486797106955654,0.488664766286586,0.489243309751396,0.4883264421368,0.659834781255558,0.437477881098907,0.439786553752461
0.863723217051396,0.863968937572108,0.860702138261301,0.851353756062878,0.846879442103649,0.843945465736941,0.841706475022097,0.830063173184339,0.829798198443721,0.823897238476179,0.831055223943332,0.867655662250399,0.94765602909438,0.953734861379153,0.957393163161392,0.821616988718679,0.820333374058244,0.818319015908976,0.817007895220103,0.915398792677655,0.828961098311594,0.827230052255237,0.827238304063768,0.829370938135319,0.83107264442801,1.01122246081434,1.01957512478331,0.842677437825954,0.78889031608328,0.789897036724107,0.79406878437052,0.795838338866691,0.801027809565305,0.793278444486738,0.793425143305073,0.792819093811825,0.788144902712614,0.775525136865311,0.774921837974907,0.769197833456982,0.766577425814466,0.762212219101374,0.761333859926591,0.758856483631951,0.760329889888608,0.75986962234608,0.76454748091575,0.764942650857641,0.770114701071579,0.777565167307788,0.775346347680465,0.770975639761684,0.769154740679096,0.76932894552587,0.767255907849268,0.955889500273454,0.768596368301807,0.766507743875757,0.765622049760057,0.759081116197527,0.753088469468526,0.750130654543839,0.747678033674794,0.00364027616493603,0.731623681743214,0.727958961887673,0.723084893648479,0.714135348862405,0.715198915295337,0.71392080184059,0.714996287552511,0.712088900346626,0.711010664031861,0.711516774955118,0.705828528274163,0.705600228238129,0.701894249339931,0.700099939418166,0.703835258080031,0.701218517907974,0.703441921873369,0.70554063184318,0.70705071280442,0.706659210332988,0.706012818664697,0.700581294915829,0.951185969410575,0.685143078021258,0.681494861782779,0.675829536792189,0.673219214693434,0.673888528052089,0.659577141455856,0.65937634744826,0.657985459276917,0.655774891458126,0.66513152546508,0.664332933772767,0.652319217418712,0.780589913568341,0.635764255769563,0.632776184213594,0.627094355605941,0.61771846737908,0.618947986850253,0.615586750175143,0.610872216900889,0.613618235406605,0.614399406614241,0.623670771933038,0.624547297372592,0.00363707629696109,0.590806569155451,0.591571236746024,0.594297084164219,0.59336371293256,0.588837137519298,0.749798748467355,1.04492651432689,0.570155043004285,0.563447239535899,0.556635830027064,0.556308508288653,1.18572070522429,0.683867715169354,0.527876443560023,0.527777421857647,0.533713222794543,0.534357780727604,0.533210779341744,0.533544519153457,0.537920728277925,0.538373660879536,0.52115121960696,0.522295470389976,0.521531719667017,0.508219718770695,0.509691291292122,0.509754555157529,0.00368629375051261,0.509780227450737,0.490436154517986,0.487826749286845,0.488049548117192,0.488630842184846,0.489929126727114,0.487864340859044,0.65889774255344,0.437606242564951,0.439252019933151
0.862740334968549,0.863900172501013,0.862278233690792,0.849955532950619,0.8496465485645,0.846155116688118,0.842386790792127,0.839048475807382,0.832683580826855,0.831773131285561,0.925137760479896,0.810039701349172,0.810122219434485,0.88325524784514,0.819335822093563,0.823458975756402,0.824473031338146,0.81987585711856,0.819792422165632,0.824702248241795,0.829321427284131,0.827263059489362,0.829085792307179,0.828743800686935,0.829114215203232,0.982029395965593,0.84549130453515,0.844887088777131,0.791238414044261,0.790926679055299,0.792705402227615,1.00668396612209,0.804562334219574,0.792668727523031,0.794982901382272,0.794508880825526,0.785559336039452,0.776932528653716,0.77533351153386,0.769256512984317,0.767076201796807,0.763512337378871,0.762075605826799,0.759242484897696,0.759276408999436,0.761768455175909,0.760875426119292,0.766349125778432,0.768604620110339,0.779039490432058,0.774251607748637,0.771754977234091,0.773008335263244,0.772063044752596,0.772101553192409,1.04510071917367,1.0767051458488,0.767292582553851,0.760867174310761,0.75692922790607,0.755707043375813,0.753082051395224,0.749902354507805,0.794532719383506,0.732307664983703,0.726326937533691,0.726124309790866,0.715107228533877,0.714879845365457,0.719147864111403,0.719738326855203,0.713132295692037,0.712060477450574,0.710124053048547,0.708356332287605,0.703179697735595,0.702758855500495,0.700660145530684,0.697090779907061,0.694170556554572,0.705977977695343,0.706309883771826,0.707296433325132,0.707533902037312,0.706066913853958,1.04530243004888,0.691567569396734,0.687430662719675,0.684836844237983,0.680997919535668,0.677208505684542,0.664387028962028,0.664360439801205,0.658347621984683,0.657896523118301,0.654591215367682,0.66467859286347,0.66634637505442,0.756920976097539,0.782233857201312,0.742368453318667,0.632363593787025,0.624467529890122,0.621021024526855,0.618995663966212,0.614693721118527,0.607518315166697,0.609013726246103,0.611249049490489,0.625405485459854,0.625661291524327,0.782459406634502,0.59105779088185,0.591520809027221,0.595271714438534,0.595030578255896,0.594756434839131,0.587699304809584,0.634905150814686,0.776228374325706,0.564583238510384,0.557527025348451,0.550369039881298,0.550350702529006,0.561740948905135,0.528401808703187,0.527500527838039,0.532461698500619,0.535022509748186,0.538027084921218,0.534768537418943,0.539353792359539,0.539428975503936,0.524692162334531,0.524071442959449,0.523283853678511,0.509514335842504,0.510117634732909,0.00368469840086322,0.558076229049594,0.557385827735803,0.490730469022271,0.490531508749904,0.490280287023505,0.551082362885454,0.489109447079665,0.488868310897026,0.663009893804904,0.662223221391581,0.649942696561679
0.865236965483095,0.865022418461279,0.865688981217091,0.991069710645511,0.851179551216105,0.849376989485809,0.84753408558047,0.83853136247275,0.835001422156554,0.833191525485341,0.926201326912828,0.811140859354302,0.811751493185623,0.816425684284835,0.817161928979355,0.82449778676374,0.823523156489424,0.820195843916054,1.16921708816156,0.826783537726928,0.832472701275498,0.875084123663858,0.831257851686158,0.828884998299583,0.826436961768611,0.817465412159787,0.849224789461786,1.03885685071827,0.797027516162822,0.791454794801306,0.795610955698271,0.852202775473994,0.80829581914621,0.795788828015503,0.795657715946615,0.795567862920385,0.78922130529215,0.775841456192347,0.823230675720368,1.03530857304978,0.765848516060862,0.765269972596052,0.763594855464185,0.757935031679282,0.759951223563779,0.760889179133511,0.761652012988855,0.76563855337712,0.765889775103519,0.779961859252342,0.780016871309218,0.772195073689098,0.77530142116735,0.778879038599504,0.774328624628263,0.774358881259545,0.773465852202928,0.771809989290967,0.760844252620396,0.759150798136237,0.756909973686164,0.756629412196097,0.752189939206222,0.797169630643084,0.733124594028308,0.730448257461302,0.727543620858261,0.858608012629564,0.715035712859939,0.721105376468566,0.720710206526675,0.717756059072446,0.713235901732486,0.711858766575363,0.71116194718827,0.702888133834153,0.701543089043541,0.701389972151903,0.695080089228252,0.697791266764613,0.70591563069755,0.707254257414861,0.707464220098603,0.707498144200343,0.706311717507056,0.883597239465384,0.688855474992758,0.687210614492172,0.686522963781225,0.683568816326996,0.678282157661234,0.664822541078961,0.664772113360158,0.657293224227897,0.653183823579277,0.654134615295613,0.969174912008953,0.666615934133112,0.766412389643839,0.782337463241761,0.781716743866679,0.791974658738782,0.633372148163081,0.621447367967643,0.617701046894402,0.610841960269608,0.608451686398355,0.608349914093135,0.610630163850636,0.625571438498096,0.626226998842533,0.795878681041733,0.590602107677396,0.591947152468009,0.595083756577542,0.594946226435353,0.592678812824456,0.587783656630127,0.583827372873144,0.778397683101841,0.563744304643028,0.560747981278528,0.552103753408114,0.556843958975577,0.560066748640883,0.560679216207433,0.531351371819343,0.682408978794532,0.536222689455693,0.538639552487769,0.537243163110739,0.539355626094768,0.540049694879018,0.525550350421793,0.524985559971202,0.521860875140657,0.522296387257591,0.510445873338934,0.791057791124186,0.563005309345664,0.499977995783089,0.50008985363207,0.493567257421832,0.493850569514742,0.55019391816691,0.496086809626743,0.490497584648164,0.488152237290027,0.593403138239987,0.642537156838585
0.867360430878499,0.865951205354865,0.86438427860152,0.860297799643265,0.85592617485687,0.849117515950878,0.847747715734671,0.845337270775898,0.835343413776799,0.831031385385353,0.835572630680448,0.810457792981428,0.817891755600574,0.817620362786654,0.818782034054347,0.823985257767181,0.823051886535522,0.82219369844826,0.825781401424175,0.915660099947815,0.868843005811302,0.932903629175526,0.831741957786665,0.825680545986569,0.823228841985139,0.816250562570447,0.806494174283528,0.804011296783202,0.801224019234829,0.792081015382075,0.795685221975053,0.814027158605051,0.814149101997792,0.794739931464404,0.79641871606673,0.798893341758525,0.957163946257742,0.804102983544661,0.775545307952832,1.02103294429052,0.765578040114556,0.765500106367316,0.763633363903998,0.754657229957101,0.753937488879643,0.753616585214534,1.25664041521331,0.764089963976067,0.766164835387898,0.8814939451575,1.02411361947556,0.777965838455366,0.780357029194233,0.779266873600478,0.778621398799803,0.777259850392127,0.775198731994515,0.768632126138777,0.758036803984502,0.7584512281463,0.757833259374062,0.757659054527289,0.773284312415238,0.743855612589542,0.732866954228606,0.730007244138681,0.727088854521421,0.726337023077452,0.715334611702297,0.721076953572513,0.72064144145558,0.719014001439672,0.714105092231124,0.711797336445185,0.710877718227745,0.703300724260722,0.701406475768966,0.702229822886873,0.699992665907258,0.699373780267406,0.700091687609635,0.705602061973358,0.70657394164483,0.706872840487189,0.705826694538934,0.700407090069056,0.68949819919059,0.688754619555152,0.687744231443867,0.684191369437307,0.681914787150264,0.665374495382948,0.664910560369963,0.657293224227897,0.652981195836451,0.654943292531687,0.654102524929102,0.667240320978652,0.668622957341463,0.878181302465964,0.745163065807957,0.786514712093862,0.633753565090753,0.743493449881777,0.618326350607557,0.615572997160924,0.609374972086254,0.609106329875177,0.611316897693969,0.612783885877323,0.611635050756233,0.611939450804279,0.590733219746283,0.592653140531248,0.59498748547801,0.594733513148766,0.594143967272581,0.58861617242418,0.584017164469366,0.909240192910412,0.711266470096334,0.560841501775217,0.555917922684835,0.557051171056476,0.558173417016742,0.560012653451622,0.531684194763442,0.643232142490449,0.551404183418178,0.539211677879277,0.535549708626579,0.539277692347528,0.540352261191834,0.527224550686045,0.525465081733635,0.523809218821674,0.523190333181822,0.532399351502827,0.791993912958689,0.572909313318532,0.501148835726928,0.501971265977221,0.499548901739458,0.498029652102072,0.497766511096683,0.49872738835678,0.491365858279187,0.575922140300095,0.584846929660575,0.655123915451762
0.868680720243518,0.86642705964684,0.864766612396807,0.863443572428944,1.08493861702787,1.01739297986057,0.851538963321027,0.844882504439058,0.835863277714275,0.833582111089159,0.834694271505665,0.891033952687374,0.819642972744453,0.819565038997212,0.82078355605701,0.82355432998832,0.824762761504358,0.822900603379113,0.824486784352365,0.867601567061138,0.867274245322727,0.938239798692476,0.840204645869388,0.824012763795618,0.823124319077075,0.816179963764123,0.805613981373516,0.80560481269737,0.803010994215677,0.794846288107698,0.985449312168037,0.81423253695072,0.814094089940916,0.79493247366347,0.796615842603868,0.798864001994858,0.798717303176523,0.805220645166854,0.775460039264675,0.774170006530938,0.764374192936592,0.76667186317877,0.764010196493597,0.763976272391857,0.753265424918144,0.753620252684992,1.00364913431777,0.765160865349915,1.23311359222277,0.775304171770193,0.789932794561076,0.962591802536152,0.781660814942189,0.78232921143323,0.78280598259282,0.779484171225138,0.777346952815514,0.767918803134621,0.765046256898091,0.759633987369129,0.845873638330437,0.989061770569546,0.804831893298265,0.978453612268667,0.732425024038371,0.730585787603491,0.725539348252753,0.725089166253987,0.713443113813385,0.720113325709573,0.721099875262878,0.719398168970188,0.713223065585882,0.711631383406943,0.709683039725926,0.707647593621522,0.703561114663267,0.701060816678263,0.699145480231371,0.699502141733449,0.699850551426996,0.704136907525233,0.705321500483292,0.706106339161386,0.705840447553153,0.701302869728516,0.690217940268048,0.688934325607613,0.687932189304859,0.686777852978083,0.681736914833033,1.05439775678567,0.830463844331918,0.658971091962608,0.65851265815531,0.653758699573629,0.86124033955107,0.668663299516505,0.669496732178173,0.665874188232903,0.745572905631681,0.813737428438838,0.773311818443676,0.630180531996672,0.620290281038022,0.616863946762276,0.61130314467975,0.610090128825639,0.613286329330121,0.612850817213188,0.616898787731631,0.613911633043276,0.59250002363961,0.593952341941131,0.596398544736873,0.59536065059715,0.59339580329907,0.590180348574682,0.582792229336265,0.783300174237087,0.56537449526178,0.565247967530966,0.558734539996874,0.558024884463177,0.558333868849296,0.558747376143479,0.828674118748226,0.825984029167,0.542456472367333,0.543414599024586,0.535973301464523,0.537849212603987,0.540251405754229,0.52677070121682,0.52689631208002,0.522338563167862,0.524496869532622,0.00357469262446396,0.513520130450676,0.514003319683568,0.683656835617997,0.500823347723747,0.501960263565846,0.500472187427356,0.501564176756341,0.499911981314838,0.495635710760361,0.493794640590252,0.6628274371496,0.706918683867918
0.867267827249425,0.868247958729429,0.869543492668853,0.90034290957837,0.865654140247736,0.858408135489582,0.853032540665204,0.844476332085792,0.841720228036316,0.833978197898665,0.832545133817051,0.827772837883078,0.823342533569349,0.823930245710305,0.822302805694397,0.825127674814968,0.825650289355287,1.08404008676557,1.0746696997444,0.84722876866481,0.867057864565683,1.01723711236609,0.841438749678635,0.828552175355484,0.821915887561037,0.883667838271708,0.804790634255608,0.806238368219056,0.802650665243141,0.800044927482458,0.802736850798913,0.81384745255259,0.814394822518504,0.795861260557056,0.796307775085364,0.798456912773978,0.797947134380262,0.8439931428529,0.773716157061713,0.775083206675076,0.840129462724991,0.76729625002431,0.767857373004443,0.776115599609111,0.752755646524428,0.753559739422429,0.76414039169487,0.8320142674682,0.773372331706239,0.776384241820188,1.0518488648171,0.788566661815328,0.782206351172874,0.784152861118662,0.785866486690342,0.781260143794611,0.777017797341874,0.767776688654358,0.764361356789987,0.760891012868741,0.760880010457365,0.764670341176106,0.843218389718566,0.800541869729569,0.737448541698744,0.721724262108418,0.722144187475903,0.722958365917665,0.713347759581467,0.713152466779558,0.720002384728207,0.71306903182663,0.714301301900647,0.732225146898389,0.708862443210862,0.706111840367074,0.702230739754488,0.702029028879277,0.69929676338778,0.699200492288247,0.696672688274805,0.696304107493738,0.703039416990562,0.705376512540168,0.705308664336687,0.693434311860051,0.692401918926016,0.687978949553204,0.686456949312974,0.687909267614495,0.681417844903153,0.821363016389435,1.06760065043586,0.665014166410412,0.660388569294774,0.65514133593644,0.657743406226664,0.66958383460156,0.670473196187718,0.668199364503519,0.745185070630707,0.741279214592527,0.77301750393939,0.818366693024935,0.825322967616877,0.616482529834604,0.609594103446142,0.610457792739092,0.611084013319861,0.612826061787594,0.617832158963289,0.615896651428877,0.00410660420239582,0.595488095195579,0.595497263871725,0.598500922177142,0.598662290877311,0.593949591338287,0.58613054432101,0.659733925817952,0.565362575982791,0.566338123124721,0.565711902543952,0.559735759432013,0.560387652305992,0.563028231036029,0.692867687674231,0.825976694226084,0.542417047059905,0.544708299228781,0.53751272218943,0.538012415039385,0.539914915339672,0.527379501312912,0.528086406243766,0.529662501673257,0.525130425054308,0.522618207790314,0.513939138950546,0.51532635965143,0.512274107362439,0.502330678082143,0.50285879382815,0.501363382748744,0.501874078010074,0.502338929890674,0.719455014762293,0.49679646516044,0.600288814025605,0.665671560490077
0.867498877888303,0.869174911887785,0.869103396213847,0.874445066936484,0.872980829355974,1.02219736616105,0.858044139046587,0.846300898638839,0.845107137004634,0.832681747091626,0.832370928970278,0.826948573897556,0.825084582037081,0.824283239741924,0.82517810253377,0.825671377310423,0.82601978700397,0.912447395826269,0.934168906483669,0.934214749864399,0.934288099273566,0.988704192199853,0.852216528488213,0.826463550929434,0.979324636502534,0.802431533883252,0.803272301485837,0.803130187005575,0.802852376118352,0.80029064800317,0.80041625886637,0.990932180503322,0.864754693117817,0.797842611472198,0.796015294316308,0.797081611352083,0.797746340372665,0.791081629682165,0.783218573019388,0.777803552887583,0.77489249821124,0.773508028113199,0.768955780406729,0.769343615407703,1.00970962925025,1.06760065043586,0.769000706919844,0.774770554818498,0.775554476628978,0.861481475733708,0.803623461782227,0.792026920192814,0.781956046314089,0.785845398735206,0.785946254172812,0.782109163205727,0.776590537033472,0.769086892475616,0.764181650737526,0.76369754463702,0.763284037342837,0.764671258043721,0.763118084304595,0.906992033519422,0.734783207543113,0.721873711529598,0.722552193564399,0.724780181867868,0.718967241191327,0.718794870079783,0.723061971958114,0.721753601872085,0.722886850243726,0.725735557922277,0.719530197906689,0.705188554679175,0.702228906019259,0.7007050720438,0.698973109119827,0.697209972696959,0.697270485959522,0.698351472877131,0.700428178024192,0.704579754583083,0.704026883411482,0.69759322335986,0.690968854844402,0.688379620700783,0.689279067830701,0.687898265203119,0.674765053491643,0.674632107687526,0.674427646209471,0.673847269009432,0.668122347623893,0.655542007084018,0.65801204843774,0.659664243879243,0.670004676836659,0.669328945404702,0.706615200687487,0.74112426396566,0.741947611083568,0.742825970258351,0.725421989198085,0.750255348539424,0.607258841631766,0.60808952369059,0.607012204243439,0.604540329154488,0.616991391360705,0.608684570772463,0.608152787555997,0.600297982701751,0.598501839044757,0.597987476312969,0.599025370452692,0.594446533585398,0.874105825919084,0.671315797525532,0.564021198662636,0.566210678526292,0.565325901278207,0.56006216430281,0.560808494541091,0.565287392838394,0.565768748336057,0.658637352150895,0.543820771377852,0.544868751061335,0.542239174742673,0.536195183427255,0.539098903162681,0.528186344813757,0.529908222193969,0.531096482622485,0.529175644969906,0.524158545382836,0.515032962014759,0.517502086500867,0.522434834267395,0.502624992586428,0.5034272517492,0.502878964915672,0.502543391368729,0.504047054256667,0.725583357898254,0.550008710908762,0.60218489625259,0.00430180531754336
0.872250085867141,0.869866230069191,0.870656569952973,0.877217674603024,0.877373542097505,0.866361045178589,0.858354040300321,0.854538954155986,0.843288071657275,0.842814967968143,0.940522799052821,0.827458352291271,0.824767345842431,0.824016431266077,0.826178405101295,0.826668012407489,0.827309819737707,0.838557951633573,0.963416983389289,0.866900163335972,0.858283441493997,0.962426766365525,0.967982984109978,0.945684763722998,1.04254265852894,0.803289721970514,0.803473095493433,0.802498465219118,0.801308371055372,0.799958741926686,0.797697746389092,0.798526594712687,0.79890617790513,0.797951718718335,0.796558996811763,0.797676658433956,0.798915346581276,0.791318181526731,0.850962253591446,0.779327386863042,0.777795301079051,0.77476688734804,0.769976254061775,0.767643742850242,0.776131186358559,1.00411673680122,0.00367872959269219,0.778015349306554,0.777190168453418,0.807539403364168,0.859108622347133,1.00361245961319,1.04970339459894,0.791262252602241,0.791247582720407,0.779155015751498,0.778381179484778,0.769521487724935,0.764655671294273,0.766203343827711,0.76771525852418,0.767415442814207,0.799947739515311,0.92508274842302,0.734012121879237,0.73414231708051,0.729215987387284,0.724623397505772,0.716303740770926,0.718081547075628,0.724376760117445,0.726079383277751,0.72338837682891,0.725049740946559,0.720524999268527,0.702878048290393,0.703288804981732,0.700812345554707,0.699401286295844,0.697868283644239,0.697781181220852,0.698076412592752,0.697982892096063,0.705004264288641,0.708546123883827,0.699063879013672,0.683324012673899,0.684757076755513,0.687245455461527,0.68679527346276,0.674506496824327,0.67412416302904,0.673945373844194,0.672605830259269,0.66709637276316,0.662039847868662,0.659362594434041,0.660973530832886,0.668622957341463,0.673667562956971,0.704721869063346,0.74354387760058,0.814072085118166,0.626497474788838,0.626927485700084,0.83653259107293,0.60662528611008,0.608878029839143,0.607524733239999,0.604400965277069,0.60771452483622,0.60902106118702,0.609286952795253,0.601755802208959,0.599498474141823,0.598754894506386,0.598251534185972,0.593575509351531,0.601067234630397,0.721396023502393,0.564075293851897,0.565313065131602,0.563456408212045,0.562687156283399,0.559474452161854,0.566490323148744,0.568484510210491,0.568863176535319,0.543001091730403,0.544558849807602,0.543977555739948,0.543491615904212,0.538899026022699,0.531520075460429,0.530936947657546,0.530718733165272,0.525179019037881,0.524394180359787,0.523877983892769,0.523741370618194,0.52345530792244,0.516503617668572,0.51019556848015,0.501932757537408,0.502641496203491,0.504819973655772,0.72729423286709,0.55089990623015,0.551557300309815,0.49427691295553
0.875546224941615,0.870725335024068,0.870968304941936,0.878510457939604,0.877891572299752,0.86856152745362,0.864221076166122,1.08109694172272,0.842101644963988,0.843177130675909,0.827087937774974,0.825995031578376,0.827315320943394,0.819997800511302,0.822280800871646,0.827682067989233,0.00373760166222542,0.845314349085533,0.855556677208187,0.869284019133922,0.859154465727863,0.857733320925239,0.86543959322592,0.937726352828302,0.905685497168622,0.919453181269399,0.803329147277942,0.802931226733207,0.80196026392935,0.800676649268915,0.797728919887988,0.798026901862732,0.799770784065694,0.799224330967395,0.796530573915711,0.798183686224828,0.799067546605299,0.835143536636817,0.788545573860192,0.783669671885769,0.778950554273443,0.778283074650016,0.779019319344537,0.772151980911212,0.772256503819275,0.961454886694053,0.958814307964016,0.786594479576331,0.787998203894278,0.810699846031681,0.815082473229451,0.816781428919298,0.80111857945915,0.792714570903761,0.787861590619703,0.784920279312079,0.775581065789801,0.769413297346413,0.766156583579367,0.767179807837256,0.768691722533725,0.767641909115013,0.800207213050242,0.805090449965581,0.739848901113757,0.732648739736333,0.72936268620562,0.725879506137769,0.718534479677238,0.71901766891013,0.725834579624653,0.728474241487076,0.724274070944611,0.725231280734249,0.725939102532717,0.73510594494345,0.703953534002314,0.701105743191378,0.697873784849926,0.699143646496142,0.699111556129631,0.699449880279417,0.701593516762343,0.706638122377852,0.708285733481281,0.69422006740576,0.693509495004448,0.688463972521325,0.687554439847646,0.686506460164162,0.67698478998658,0.674602767923859,0.673629971384773,0.672041039808677,1.0835266409014,0.662333245505332,0.662646814229524,0.661008371802241,0.669953332250242,0.672838714633376,0.700463018993546,0.700099939418166,0.751536212597015,0.627087020665024,0.750863231767901,0.606859087351802,0.606841666867124,0.605954139016195,0.608503947852387,0.605089532855631,0.608069352603069,0.609445570892578,0.610339516816809,0.602435201111375,0.60106173342471,0.600869191225645,0.598224028157534,0.595103010797449,0.876456674482909,0.601649445565666,0.906216363517473,0.563434403389295,0.563586603413318,0.563802067302748,0.551031018299037,0.550582670035499,0.568736648804505,1.21548222799409,0.543203719473229,0.545688430708784,0.545737024692358,0.54308819415379,0.540800609455372,0.537840960795455,0.531805221288568,0.531855649007371,0.52500114672065,0.526949490401667,0.52589692638011,0.525212026272007,0.525645704653711,0.519420173550602,0.517830325106892,0.503947115686676,0.504032384374834,0.505644237641294,0.510042451588512,0.561476891032132,0.555131250271511,0.495261628773606
0.875277582730538,0.87167337613756,0.872232665382464,0.880030624444605,0.879302631558615,0.869498566155738,0.862941128976146,0.86284027353854,0.839603180714213,0.837976657565919,0.836455574193304,0.827099857053964,0.828076321063509,0.818282341204392,0.819472435368138,0.822421081616679,1.0606874686218,0.844096748893349,0.867483291138855,0.868980535953491,0.860527016546914,0.86101295638265,0.874332292219889,0.873643724641327,0.824791184400411,0.811131690678156,0.809771059138095,0.803333731616015,0.800432762483432,0.801808063905327,0.797681242772029,0.7996204177769,0.800369498618025,0.799166568307675,0.797183383657303,0.798474333258655,0.800846269777615,0.800054096158604,0.797858198221646,0.788703275089903,0.780622920802466,0.784298643069382,0.779313633848823,0.77364372452016,0.776246711677998,0.962041681967394,0.961500730074783,0.788658348576788,0.789541292089644,1.03282386181422,0.815987421565058,0.81659622166115,0.803645466604978,1.12822393711296,0.791978326209241,0.788291601530949,0.778987228978026,0.767642825982627,0.766679198119687,0.769405045537881,0.767219233144684,0.768681636989965,0.797639983729372,1.04167163429508,0.740321087935274,0.734988585888782,0.732424107170757,0.730152109221787,0.720628605308976,0.720712040261904,0.7355047823558,0.730460176740291,0.728583348733213,0.725598944647702,0.725991363986749,0.733859921855214,0.858805139166702,0.861471390189948,0.699257338080352,0.70048777441914,0.699835881545162,0.700643641913622,0.704334034062372,0.706120092175605,0.709962684348378,0.694564809628849,0.695822751996075,0.689545876306549,0.686735677067811,0.686906214444126,0.686373514360046,0.675202399343805,0.673120192991057,0.67186591809429,1.03532691040207,0.662278233448457,0.663377557718358,0.664570402484947,0.670795016720441,0.671398315610846,0.79758772227534,0.702014358997443,0.752738226039751,0.757081427930093,0.751385846308221,0.781371084775977,0.606314467988732,0.606716972871539,0.605901877562163,0.604695279781355,0.60587528840134,0.607059881359398,0.608275647816353,0.601067234630397,0.601286365990286,0.601397306971652,0.599076715039109,0.598471582413475,0.89736859103662,0.605523211237335,0.910168062936383,0.563670038366246,0.562923708127965,0.561552991044143,0.551426188240928,0.551308829186259,0.564742773475324,0.567677666709646,0.538326900631191,0.545315265589644,0.547860490087763,0.545995581359674,0.544938433000045,0.537809787296559,0.531603510413357,0.532789937106645,0.527956211042493,0.52783793512021,0.5270897711467,0.524820523800574,0.526249003544115,0.518689430061769,0.519940954355693,0.512261271215835,0.505841364178432,0.506978280020531,0.510798867370554,0.512561086925808,0.675307839119484,0.497013762785099
0.874536753697944,0.873894029500112,0.871797153265531,0.879840832848383,0.879667544869225,0.87027698676053,0.865496439018025,0.955935343654184,0.842854393275571,0.836840658591434,0.834710775122727,0.831251433612856,0.826364529227058,0.816797015668746,0.815319941941632,0.81525576120861,1.11786333306802,0.941082088297725,0.869758039690669,0.860927687694492,0.86059211414755,0.860454584005361,0.954752584431354,0.872141895488619,0.815351115440528,0.813379850069146,0.812422640279507,0.800657395049008,0.80067756613653,0.801634775926168,0.799839549136789,0.799290345435645,0.798614614003688,0.791416286361493,0.797249398125554,0.797637233126529,0.800974631243659,0.799429709313064,0.796614008868639,0.788543740124963,0.785729873415767,0.783981406874732,0.784514106958813,0.782025728252798,0.778046522805451,0.79028853919554,0.79394500724255,0.79543124964581,0.792405586517642,0.808444351699774,0.817034484380926,0.816856612063695,0.800057763629063,0.802293086873448,0.791325516467648,0.788750952205862,0.785434642043867,0.766554504124101,0.768354315251554,0.771859500142155,0.769197833456982,0.770557548129429,0.768728397238309,0.971650454568363,0.740303667450597,0.739858986657517,0.731375210619658,0.727530784711656,0.722257879060113,0.723251763554336,0.735126116030972,0.733958943557591,0.737550314003964,0.724826025248597,0.727767336556222,0.728536588484868,0.734101058037853,0.859049025952185,0.699329770621905,0.700143949063667,0.700697737102883,0.704633849772345,0.706015569267541,0.706121925910834,0.925110254451458,0.705770765614444,0.693581927546001,0.687784573618909,0.687030908439711,0.688075220652737,0.687143683156307,0.674846654709342,0.674514748632858,0.675892800657596,0.675629659652207,0.663049319112332,0.664659338643563,0.666035556933072,0.670633648020272,0.672120807291147,0.672321601298744,0.703243878468617,0.696204168923747,0.767475039209156,0.67223908321343,0.61521908626169,0.611905526702539,0.606787571677863,0.607337692246621,0.605673577526129,0.606071498070863,0.605196806366539,0.604449559260643,0.604941917169681,0.600236552571573,0.599372863278623,0.59985696937913,0.00375825868958227,0.944511173176314,0.604857565349138,0.603685808537684,0.562248893563622,0.561938075442274,0.563115333459415,0.55142068703524,0.552502590820464,0.551864450960705,0.544479082325132,0.544396564239818,0.540616319064838,0.544844912503356,0.545913063274361,0.539718705670148,0.539013634474524,0.537412783619439,0.53197117432681,0.532895376882323,0.527350161549245,0.530028331851481,0.525308297371539,0.525486169688771,0.519713571187273,0.519897861577807,0.514014322094943,0.51053480949755,0.509095327342634,0.511862433803486,0.510577902275436,0.511148193931715,0.494318171998187
0.873606133069129,0.873435595692814,0.873910533117175,0.878510457939604,0.87971247138234,0.871122338701188,0.866512328334998,0.956219572614708,0.844168264567288,0.835975135563256,0.835058267948659,0.831888656605,0.8293571851211,0.816292738480718,0.816111198693028,0.817667123034998,0.831041470929113,0.952772150383827,0.865821010153592,0.860839668403491,0.861880313146058,0.861144068451537,0.944694546699234,1.02831287315041,0.817167430185043,0.81226952338787,0.813222148839435,0.802852376118352,0.801012222815857,0.80121026622061,0.800119193759241,0.800111858818324,0.992151614430735,0.790358221134249,0.797179716186845,0.797951718718335,0.799061128531997,0.798032403068419,0.79751987407186,0.793405889085167,0.787485674897719,0.785059643189497,0.784846013035296,1.02029945019884,0.989034264541108,0.795328560472975,0.797391512605817,0.799637838261578,0.799615833438827,0.809965435072389,0.815984670962214,0.816309242097781,0.800447432365266,0.803796749761386,0.796267432910322,0.789871364430898,0.785220095022052,0.76972594920299,0.769713113056386,0.772251919481203,0.772960658147285,0.771865918215457,0.77032649749055,0.861517233570678,0.742996507634666,0.743634647494425,0.733655460377159,0.727358413600112,0.725881339872998,0.724382261323133,0.725283542188281,0.73465301234184,0.73583393782944,0.73302923979639,0.728536588484868,0.729108713876376,0.735092191929232,0.917756976182396,0.745263004377948,0.699102387453485,0.700720658793248,0.704389046119247,0.706443746443557,0.708392090124574,0.00384535194429277,0.747288364938591,0.690216106532819,0.687285797636569,0.687652544682408,0.688192579707405,0.68672742525928,0.683833791067614,0.674855823385488,0.676647382704409,0.676822504418797,0.66776660298943,0.66481428927043,0.664613495262833,0.671565185516702,0.673411756892499,0.684347236931788,0.685461231083523,0.709263114358441,0.785296195034063,0.675369269249662,0.622914356150996,0.613162552202151,0.611489268805513,0.605017100314078,0.608049181515548,0.605879872739413,0.605126207560215,0.604697113516584,0.604893323186107,0.599983497109945,0.599570906683376,0.599002448762327,0.86296588440174,0.610232243305901,1.25744725871416,0.605216060586445,0.713309251141654,0.56227456585683,0.562989722596216,0.560066748640883,0.552047824483624,0.547661529815396,0.546332071774231,0.545094300494526,0.542717779637493,0.546001082565362,0.544994361924535,0.546915199577114,0.538811006731698,0.538018833112687,0.533522514330707,0.533168603431473,0.527923203808368,0.530062255953221,0.527267643463932,0.527390503724287,0.519089184341733,0.520133496554758,0.515080639130718,0.514766153538912,0.509756388892758,0.513000266513199,0.514129847414382,0.512316283272711,0.494463953948907
0.874505580199048,0.87438638740915,0.873958210233134,0.878039187985702,0.879207277326697,0.873588712584452,0.867307252556853,0.997047687492679,0.848273080877835,0.845077797240967,0.830240128633956,0.832235232563318,0.841901767824006,0.839951590407759,0.81421053212797,1.07881394136237,0.955522753227615,0.955183512210215,0.864340268956019,0.859119624758508,0.860322555068859,0.860472004490038,1.02611239087538,1.02836788520729,0.940742847280324,0.812761881296908,0.812447395705101,0.803668388295343,0.802354517003626,0.801787892817806,0.802803782134778,0.802360935076928,0.803154025563554,0.790090495790787,0.798368893482976,0.798392732040956,0.79872463811744,0.79769132831579,0.797579470466809,0.7986907140157,0.795005823072637,0.785266855270396,0.79161708036909,0.990712132275819,0.989080107921838,0.795450503865716,0.801250608395652,0.800819680616792,0.801941009709443,0.814886263559928,0.815133817815869,0.817419568779057,0.808893616830927,0.809576683203801,0.797309911388118,0.791139392341885,0.784627798543023,0.769945997430493,0.769393126258891,0.772011700166178,0.937194569611836,1.0073257734523,1.00679399023584,0.762545042045472,0.743379758297567,0.739784720380735,0.730164028500777,0.730275886349758,0.729395693439745,0.728083655883258,0.727492276271843,0.736416148764709,0.736898421129986,0.73677556086963,0.730354736964613,0.730048503181338,0.735043597945658,0.735934793267045,1.05470949177464,0.793559005976804,0.71748558312614,0.898863085248412,0.716141455203142,0.716677822757681,0.718906727928764,0.905809274296593,0.693988099899268,0.688107311019247,0.687643376006262,0.689493614852517,0.686502792693704,0.67772286841633,0.676716147775504,0.677113151452624,0.679686798846796,0.667015688413075,0.665135192935538,0.664622663938979,0.663307875779648,0.67331823639581,0.684791000857253,0.686405604726557,0.713924469311048,0.659937470428393,0.76627302576642,0.674592682380099,0.612841648537042,0.614134431873623,0.610398196344143,0.611392080838365,0.610991409690787,0.606176020978928,0.604156161623972,0.604438556849268,0.599411371718437,0.599727691045472,0.597618895531901,1.0579735404826,0.611002412102162,0.613647575170272,0.605255485893873,0.71499995502297,0.562567046625887,0.563710380541288,0.558293526674253,0.557253798799301,0.547900832262805,0.545933234361882,0.54635774406744,0.545079630612693,0.544914594442065,0.545754445177035,0.542492230204302,0.538105935536074,0.538008747568926,0.53321994801789,0.533805826423617,0.527807678488929,0.527764585711043,0.527350161549245,0.528716294294994,0.527433596502173,0.52288868373662,0.515891150102021,0.516033264582284,0.510662254095979,0.511504855433793,0.513481622010862,0.514194945015018,0.500727993491829
0.875845123783973,0.872453630477582,0.874767804336822,0.876543776906295,0.876231125049718,0.871279123063284,0.869874481877722,0.970100948299696,0.919132277604291,1.0349326573278,0.897887538106481,0.835074771565722,0.840285330219472,0.842082390744081,1.07782372433861,1.07924486914123,0.955751970131264,0.960684717897792,0.858892241590089,0.857450925699943,0.858863818694036,0.861003787706504,0.963655368969084,1.02837705388343,1.02348098082149,0.810283588134654,0.81003328327587,0.804281772729508,0.804382628167113,0.804629265555439,0.804239596819236,0.802646997772682,0.805393016278398,0.816496283091159,0.800703238429738,0.80039242030839,0.798911679110817,0.797357588504077,0.799396702078939,0.800478605864162,0.799548902102962,0.79964425633488,0.800505195024985,0.988374119858599,0.989556879081428,0.91486517572596,0.805039105379164,0.806012818785865,0.802765273694965,0.815508816670238,0.817386561544932,0.817495668791068,0.810388111042718,0.80959043621802,0.79476101941954,0.796819387214309,0.782187096952967,0.76975987330473,0.770004676957827,0.774916336769219,0.999321519176878,1.00344742344256,0.975776358834046,0.747408474596103,0.746751997384052,0.739542667330482,0.737245913955918,0.731960172157771,0.729717513972468,0.72848707763368,0.727504195550833,0.734203747210688,0.735339746185173,0.737000193435206,0.737979408047595,0.738705567198355,0.735719329377615,0.735805514933388,1.06407987879581,0.00410389944293276,0.716662236008233,0.717955019344813,0.71923313279956,0.722092842889486,0.721726095843648,0.890187683879102,0.691242081393552,0.689675154640207,0.686971312044763,0.688221002603457,0.685489653979575,0.682876581277976,0.677379959928471,0.678416020332965,0.679156849365559,0.724708666193929,0.66523513150553,0.662654149170441,0.663734219220436,0.672694766417885,0.686421191476005,0.687510430202145,0.00375248242361031,0.72104027886793,0.00362007757138647,0.857822257083855,0.622007574080161,0.615206250115086,0.611386579632678,0.614092255963351,0.615043047679688,0.60753298504853,0.605303163009832,0.604674191826219,0.601290033460744,0.598497254706684,0.597952635343614,1.05893625147793,1.05883539604032,0.608572712923482,0.859771517632486,0.599318768089362,0.918527144978657,0.642836055680943,0.56599888210732,0.559831113663931,0.54919636620223,0.548074120241964,0.54600475003582,0.545202490873049,0.54664105616035,0.546015752447195,0.544359889535235,0.539855318944723,0.538357157262473,0.534672266319411,0.534859307312788,0.52747485554483,0.519033255417243,0.520300366460615,0.528087323111381,0.528419229187864,0.52775816763774,0.522212035437048,0.516961134608255,0.512426307386462,0.512699533935612,0.514785407758818,0.514165605251351,0.494381435863594
0.879330137587053,0.869526072184176,0.874070984949729,0.876657468490505,0.875011691122305,0.87004960359211,0.86965259991499,1.07463302503981,1.00223715819129,1.03530857304978,0.847369049409843,0.840217482015992,0.840485207359455,0.844423153764145,1.08981635273753,1.08327908664546,1.13146964846863,0.842979087271156,0.858468648752145,0.857910276374856,0.858223845099048,0.00385658357257157,0.838650555262647,0.83682782244483,1.02365518566826,0.809750888050574,0.809014643356053,0.807879561249183,0.804530243853063,0.805140877684384,0.804895157163672,0.803996626901368,0.80760358409719,0.813497209123814,0.8030375833765,0.801235021646204,0.799994499763656,0.799424208107377,0.800884778217428,0.802491130278201,0.805262821077125,0.79979187202083,0.800344743192431,1.15302520608779,0.808647896310215,0.805096868038883,0.808272897455845,0.807503645527199,0.816822687961955,0.816998726543957,0.818403367729519,0.815770123940398,0.813116709063757,0.795897018394025,0.797386011400129,0.787294966433883,0.933783822085539,0.767623571762721,0.7707253349029,0.774124163150208,1.00651892995146,1.00598714673499,0.791396115273972,0.74888004711753,0.746875774512022,0.740791441021562,0.740806110903395,0.733502343485522,0.729484629598361,0.728024059488309,0.721291500594329,0.721162222260671,0.731931749261718,0.738893525059347,0.738685396110834,0.73926302270803,0.735576298029738,0.00400101772789892,0.785086232350321,0.985605179662518,0.718444626651008,0.718129224191587,1.06134761330431,0.725860251917862,0.726994417157118,0.969266598770413,0.787855172546401,0.687960612200912,0.687227118109235,0.68747742296802,0.686138796250709,0.679048658987036,0.678187720296931,0.679519928940939,0.680041626613644,0.678571887827446,0.665520277333669,0.66306490586178,0.663471995082661,0.673129361667203,0.686716422847905,0.688202665251165,0.71241072087935,0.72528537592351,0.778933133788765,0.77980782549309,0.625333969785916,0.622880432049256,0.613715423373752,0.613559555879271,0.616500867186896,0.608613971966139,0.608168374305445,0.605139043706819,0.603482263927244,0.598049823310761,0.594638158916848,0.595499097606954,0.630238294656391,0.839818644603643,0.858487902972052,0.598016816076636,0.721968148893901,0.566963426837876,0.567773937809179,0.55651938784001,0.547494659909539,0.548052115419214,0.547064648998293,0.545639836725211,0.546728158583737,0.541678051762541,0.544074743707095,0.538463513905766,0.53076824401646,0.535141702538084,0.537383443855772,0.528322958088332,0.526805542186175,0.520956843672666,0.527399672400433,0.527715991727469,0.527853521869658,0.521999322150462,0.521682085955811,0.514257292012811,0.515409794604358,0.512114572397499,0.512389632681878,0.500211797024811
0.880934655912597,0.965819176539531,0.875125382706515,0.87557923217574,0.875478376738134,0.872025453301565,0.870472279562439,0.867877544213132,0.865993381265136,1.03507935614613,0.850347952289666,0.846756581843293,0.972567322182959,0.838277390143507,0.00386395518819292,0.931005713213312,0.844329633267456,0.844058240453536,0.858115654720526,0.859291995870053,0.859960392361093,0.899336188937543,0.838204957601954,0.837743773191812,1.02128049854646,0.80976005672672,0.809278701229057,0.803838925671657,0.805301329516938,0.807280846696852,0.805857868158998,0.805335253618679,0.806779320111668,0.808116113093749,0.80644466343234,0.801759469921753,0.801633859058554,0.802168392877863,0.805166549977593,0.808674485471038,0.81028267126704,0.793900080729434,0.798343221189768,0.81355222118069,0.813535717563627,0.814392988783275,0.811249966600439,0.811235296718605,0.816201968586873,0.817451659145568,0.816499033694002,0.817351720575577,0.816380757771719,0.797615228303778,0.797522624674704,0.788916905244104,0.783533058611195,0.770272402301289,0.771535845874203,0.778020850512242,1.00379583313611,1.0399204171512,0.982542841829766,0.74721043119135,0.746804258838084,0.747191176971443,0.741568944758739,0.736435402984615,0.736318960797561,0.722250544119197,0.722425665833585,0.722000239260412,0.73264232166303,0.73435778096994,0.740363263845545,0.740293581906836,0.72955431153707,0.72832937640397,0.707308352604122,0.714650628461808,0.71325057161432,0.711925697911228,0.731685111873392,0.727439097950197,0.727951626946756,0.729117882552522,0.728679619832746,0.687899182070734,0.688043130286226,0.687865257968994,0.686763183096249,0.683886052521646,0.678132708240055,0.680126895301802,0.679445662664157,0.678439858890945,0.663837825260885,0.662687156404567,0.662882449206476,0.672370195282318,0.705328835424208,0.686456032445359,0.712507908846497,0.724689411974023,0.6765777007657,0.639220846676591,0.625973026513289,0.624681160044323,0.61669524312119,0.61425545839875,0.616487114172677,0.609626193812653,0.608689155110536,0.605061109959579,0.603277802449189,0.599717605501712,0.596260097727069,0.597297991866792,1.06358477028393,0.829862379176742,0.865040755813571,0.584960621244785,0.920718458577542,0.56904288258778,0.569193248876574,0.560541686065244,0.556684424010637,0.551172215911685,0.548126381695996,0.547271861079192,0.545701266855389,0.542787461576202,0.544413067856881,0.537836376457382,0.532100452660468,0.534494394002179,0.536364803935955,0.526860554243051,0.527302484433286,0.527893864044701,0.531655771867389,0.529269165466595,0.527176873570087,0.523348951279147,0.522940028323037,0.515086140336406,0.513442196703435,0.512723372493591,0.513320253310694,0.499021702861065
0.884202372091018,0.988465806620058,0.875747018949211,0.876322811811178,0.930611460139036,0.870215556630352,0.869741536073606,0.867431946552438,0.865029753402196,0.863363804946474,0.856658752080932,0.855115663885567,0.85762788114956,0.85497263253769,0.839534415643118,0.839377631281022,0.845563737076703,0.846520946866341,0.852759314116054,0.860869925034773,0.873277894463104,0.83834982268506,0.83828014074635,0.838756911905941,1.01827317277058,0.808791844525706,0.808238973354105,0.809973686880921,0.80666012732177,0.810135972448704,0.805313248795928,0.80726250934456,0.808711160175622,0.807750282915525,0.807107558717693,0.804744790874879,0.805086782495123,0.810819955689193,0.810444039967209,0.809786645887543,0.809982855557067,0.795001238734564,0.799987164822739,0.800181540757033,0.814408575532723,0.814442499634463,0.812497823423904,0.812145746259899,0.818527144857489,0.818403367729519,0.818861801536817,0.819609965510327,0.811544281104724,0.798308380220413,0.797513455998558,0.788882981142364,0.77867274338622,0.77129195908872,0.778715836164106,0.779230198895895,0.997698663499042,1.01193761755372,1.01374384675448,0.92122273576557,0.744887088655963,0.745938735809905,0.744812822379181,0.736495916247178,0.73711663562226,0.722461423670554,0.721663748845855,0.724777431265024,0.726773452062,0.73447147255415,0.739847067378528,0.739138328712445,0.730831508124203,0.72407052633417,0.709727966239041,0.714710224856757,0.715403376773392,0.715340112907985,0.715601420178145,0.728774057197049,0.729283835590764,0.728875829502269,0.723186665953699,0.686317585435556,0.688888482226883,0.689389091944453,0.687179440993276,0.677486316571765,0.677486316571765,0.679599696423409,0.6794044036215,0.67849670468305,0.668825585084288,0.662813684135381,0.662859527516111,0.671037986638309,0.706952607969658,0.68584173114358,0.725419238595241,0.725832745889424,0.741645044770751,0.641210449400264,0.627568376162687,0.625998698806498,0.619193707370965,0.614145434284998,0.616416515366353,0.611031751865829,0.610603574689813,0.606088918555541,0.602780860202078,0.60227658301405,0.597868283523071,0.600139364604426,0.842240091973792,1.06338305940872,0.591298010196874,0.585858234639475,0.737517306769839,0.570570384033697,0.571163597380341,0.560511429433962,0.559973228144194,0.557921278422728,0.548604986590815,0.54732137193038,0.546101021135353,0.542918573645089,0.542988255583799,0.538797253717479,0.536604106383365,0.536198850897713,0.537607159553733,0.538624882605935,0.527479439882903,0.528298202662738,0.532209559906605,0.529537807677672,0.52647546984492,0.525015816602483,0.525488920291615,0.516250562206943,0.518812290322125,0.512602345968465,0.514159187178049,0.585885740667913
1.09958099283298,0.880670598039593,0.881310571634581,0.880345110036411,0.88135824875054,0.876397994955574,0.869263848046401,0.870053271062569,0.867916052652945,0.863072241045033,0.861374202222801,0.864231161709882,0.862604638561589,0.844468080277261,0.839877324130977,0.842152989550405,0.844574436920554,0.846071681735189,0.854664565019185,0.873624470421421,0.878153796437526,0.840181724179023,0.838953121575464,0.846431093840111,0.940550305081259,1.00679399023584,0.808422346877024,0.806606032132509,0.808824851759832,0.811936700443771,0.807814463648547,0.808130782975582,0.810305592957405,0.809250278333004,0.808780842114331,0.807514647938574,0.80933921449162,0.809583101277103,0.809193432540899,0.810668672532785,0.810522890582064,0.802051033823195,0.801280865026934,0.801616438573876,1.12805890094234,1.09020143713566,0.814294883948513,0.930767327633517,0.94304418499296,0.817766144737374,0.821030193445337,0.81949077272043,0.80973805190397,0.798299211544267,0.798137842844098,0.788723446177424,0.776343899645145,0.77197410859398,0.777570668513475,0.778587474698062,0.78472315277494,1.01336793103249,0.906514345492217,0.98128673319777,0.745139227249977,0.74428195603033,0.743273401654274,0.741205865183359,0.738286558698485,1.13709921562225,0.729536891052393,0.731861150455394,0.72722638466361,0.727737996792555,0.726892644851897,0.726718440005124,0.726415873692307,0.721873711529598,0.716878616765277,0.715731615379417,0.716050685309297,0.714804662221061,0.714867009218853,0.712663776340978,0.72906745483372,0.728514583662118,0.719394501499729,0.725786902508694,0.691697764598006,0.687327056679226,0.686531215589756,0.675256494533066,0.677808137104488,0.678648904707073,0.679407154224344,0.678488452874518,0.678187720296931,0.663140089006177,0.66298697211454,0.655549342024935,0.668098509065914,0.692357909280515,0.00378984477890511,0.659820111373724,0.659037106430859,0.759832947641496,0.848810365299988,0.62504148901686,0.617338884186637,0.61440124034947,0.611751492943287,0.615749035742927,0.608988053952894,0.603885685677666,0.601516499761549,0.602293086631112,0.599555319933928,0.600083435679935,0.597816938936654,0.859426775409398,0.591713351226287,0.586353343151357,0.583219489644667,0.572327102383264,0.572175819226855,0.570426435818206,0.563224440705552,0.558227512206003,0.549385240930837,0.547976932274817,0.548050281683984,0.543970220799031,0.543300907440376,0.539485821296041,0.537007528133787,0.536870914859212,0.537838210192612,0.538709234426478,0.52730523503613,0.528121247213121,0.531205589868622,0.5286915388694,0.527181457908159,0.526899979550478,0.528549424389137,0.51859590956508,0.518660090298102,0.514333392024822,0.515954413967428,0.516813518922305
0.888940743923251,0.882205434426427,0.881873528349943,0.882264113953761,0.883186482774045,0.87712323723872,0.873725325859027,0.871458829115745,0.870217390365581,0.866657193418104,0.864308178589509,1.0360512358176,0.871375394162816,0.845065877961977,1.22262462671179,1.01330375029947,0.845920398578781,0.846997718025932,0.861169740744746,0.00419121274587076,0.848983653279147,0.845907562432177,0.846368746842319,0.84658237699652,0.86105879976338,0.818539981004094,0.812454730646018,0.810401864056937,0.81191836309148,0.816609974675368,0.809822403724512,0.80962436031976,0.8110088304178,0.810011278453119,0.810373441160885,0.809567514527655,0.8102927568108,0.812640854771781,0.810753024353328,0.807508229865272,0.803606958165165,0.802360018209314,0.801728296422857,0.805485619907472,0.862787095216893,1.09087991917046,0.933792990761684,0.920947675481191,0.905499373042859,0.82071754158876,0.821710509215367,0.823365455259714,0.809781144681856,0.795720979812022,0.796931245063289,0.786972229033545,0.777257099789283,0.776092677918746,0.777671523951081,0.781291317293507,0.78193037402088,0.847016055378223,0.754191461208886,0.754700322734987,0.743562214952872,0.743254147434367,0.744130672873921,0.739949756551362,0.738780750342752,1.14701055453604,0.731195504567198,0.73180247092806,0.728640194525318,0.728330293271584,0.727673816059533,0.726439712250287,0.725419238595241,0.722124933255997,0.725985862781062,0.718479467620362,0.715892984079586,0.715603253913374,0.714278380210282,0.71322856679157,0.727797593187504,0.727605967856053,0.719992299184446,0.732352591496818,0.688353031539959,0.687597532625532,0.683187399399324,0.675244575254077,0.677536744290567,0.676333813980217,0.678242732353806,0.679367728916916,0.678471032389841,0.668352481395157,0.656207652972215,0.658386130424496,0.674577095630651,0.693459067285646,0.655668534814832,0.65790019058876,0.659269990804966,0.675421530703694,0.737961070695303,0.627506029164894,0.627506946032509,0.618059542131709,0.612774717201177,0.616830022660536,0.617827574625216,0.60383250735602,0.602373770981197,0.603576701291547,0.599792788646109,0.600695903246486,0.598228612495607,0.599319684956977,0.595834671153897,0.595107595135522,0.58328000290723,0.576574950041688,0.570861947935139,0.567924304097972,0.567150467831253,0.558413636331766,0.550805468865846,0.549818002444926,0.550294773604516,0.546376998287346,0.541955862649763,0.539129159793963,0.539213511614506,0.537936315027373,0.539219012820194,0.538253551222024,0.52565945766793,0.52733915913787,0.529865129416083,0.531212007941925,0.528543006315835,0.529014276269737,0.529564396838495,0.529753271567102,0.52206075228064,0.519277142202725,0.517287539479051,0.517704714243693
0.892742993920982,0.88069993780326,0.880588996821894,0.884698397470514,0.883136971922857,0.883517471982914,0.876027580439278,0.873699653565818,0.871111336289813,0.866123576466409,0.865237882350709,0.860885511784221,1.21709591499578,1.01040644863735,1.19941870738636,0.842815884835758,0.844920096011257,0.846166119099493,0.989419348939238,0.859777018838174,0.845315265953147,0.846828097517231,0.847348878322322,0.846717156535865,0.919370663184086,0.819721823359308,0.816999643411572,0.814686386419946,0.815207167225036,0.814807412945072,0.813771352540579,0.810660420724254,0.812948005422671,0.812369461957861,0.813259740411634,0.812660108991688,0.906139346637847,0.815921407096807,0.815204416622192,0.812835230706076,0.805182136727041,0.803989291960451,0.8080125070533,0.809176928923837,0.86145396970527,0.829210486302765,0.992041590316983,0.931638351867383,0.930345568530803,0.826334272595776,0.82308947810772,0.822887767232509,0.810404614659781,0.797195302936293,0.792873189001086,0.778514125288895,0.78497437450134,0.77938698325799,0.780487224395506,0.78918738119041,0.791040370639509,0.914519516635257,0.754502279330234,0.754244639530532,0.743550295673882,0.744490084978843,0.743886786088439,0.741660631520199,0.744874252509359,0.743576884834705,0.731294526269574,0.731599843185235,0.731023133455654,0.729442453688089,0.727856272714838,0.727396005172311,0.727566542548626,0.723889903414095,0.723489232266516,0.721449201824039,0.715099893592961,0.715848974434086,0.716387175723854,0.711863350913436,0.711880771398113,0.785508908320649,0.00381104275815458,0.742378538862428,0.696158325543017,0.685780301013402,0.683521139211037,0.680075550715384,0.676302640481321,0.675822201851272,0.675640662063582,0.679035822840432,0.677619262375881,0.67582770305696,0.664883054341525,0.659588143867231,0.660086919849572,0.663963436124085,0.656511136152646,0.656240660206341,0.659917299340871,0.655542007084018,0.702859710938101,0.627914952121004,0.628100159379153,0.619417423068926,0.616282652694622,0.613639323361741,0.618720603681833,0.619394501378561,0.60414974355067,0.602527804740449,0.600089853753238,0.602472792683573,0.598875921031512,0.599678180194284,0.600727076745382,0.594814197498851,0.583518388487025,0.578606728675633,0.5685541921492,0.56794172458265,0.566324370110502,0.570196302046942,0.551871785901621,0.551988228088675,0.551753509979339,0.550656936312282,0.546139529575166,0.546137695839937,0.539206176673589,0.540444864820909,0.538961373020492,0.539021886283055,0.525759396237921,0.528013056834598,0.528468740039053,0.53155216582694,0.52993847882525,0.530483098188321,0.53124501517605,0.531988594811488,0.526606581913808,0.521922305270835,0.518229162519242,0.517164679218695
0.898164432126089,0.89523412322984,0.885295278287616,0.884543446843647,0.883682508153542,0.883078292395523,0.87971247138234,0.876208203359353,0.872583825678854,0.86767766707315,0.865783418581394,1.04307444174541,1.17276536583005,0.885086232471488,1.01206597901977,0.845233664735448,0.845092467122801,0.842602254681557,0.928933592404324,0.929217821364849,0.844769729722463,0.846090019087481,0.847093989125464,0.0032398709089657,0.960070416596013,0.855569513354792,0.817947684525064,0.823587337222446,0.81391530075607,0.816195550513571,0.905550717629277,0.887250040041936,0.820846819922418,0.819636554671151,0.82223770809376,0.823166494987346,0.820805560879761,0.816703495172057,0.816001174579277,0.813144215092195,0.811282973834564,0.807525650349949,0.809136586748795,0.809701377199386,1.11768912822125,1.1170014775103,1.20373715385111,1.1590123516111,0.82790303308435,0.828382554846784,0.827088854642589,0.820243521032013,0.81333675729126,0.795662300284688,0.788764705220081,0.784464596107624,0.785016550411611,0.782994857321427,0.784475598519,0.78829985333948,0.791396115273972,0.928007556113582,0.928713544176821,0.754757168527092,0.74550689116343,0.745682012877818,0.747798143332306,0.748206149420802,0.746874857644408,0.743401763120317,0.783866798422908,0.735899952297691,0.734233086974355,0.73393693873484,0.730392328536811,0.729878882672637,0.729257246429941,0.978187720660434,0.726453465264506,0.723756957609978,0.725686963938703,0.714769821251706,0.718819625505377,0.712705035383635,0.715030211654251,0.79469317121606,0.709696792740145,0.695008573554313,0.695864011038732,0.695378071202995,0.682556594480482,0.680265342311606,0.673734494292837,0.676045000681619,0.676011076579879,0.677688027446976,0.676947198414382,0.676758323685775,0.666704870291727,0.659745845096942,0.659779769198682,0.661392539332757,0.662059102088568,0.662283734654144,0.66372505054429,0.650131571290286,0.649716230260874,0.627893864165869,0.629548810210215,0.61810355177721,0.614990786225656,0.6122108436182,0.620052812325842,0.619725490587431,0.602983487944903,0.601916254041513,0.600066015195258,0.599455381363937,0.598952021043524,0.600937956296739,0.598849331870689,0.594495127568971,0.595622874734925,0.580554155489036,0.569502233262693,0.567533718494154,0.566107989353457,0.566743378610372,0.551792018419152,0.552399901647629,0.552839081235021,0.55017191334416,0.547775221399606,0.548080538315266,0.54224650968359,0.541346145686057,0.540333006971928,0.540659411842724,0.54088587814353,0.527351995284474,0.528800646115536,0.53204085626552,0.530947950068921,0.532204058700918,0.532238899670272,0.533443663715852,0.526737693982695,0.521316255777587,0.518933316847252,0.519865771211296
0.902461790635702,0.894690420734384,0.890856080370143,0.88134632947155,0.881043763158734,0.885334703595044,0.882116498267811,0.876960034803322,0.873587795716837,0.867569476694627,0.866497658453164,1.04952918975217,1.1358522756664,0.853985166116769,0.848925890619427,0.848023692886665,0.845996498590793,0.839194257758103,0.836593104335493,0.819868522177643,0.82001338726075,0.8356010535765,0.836358386226157,0.832964142316922,0.00372233581644239,0.824265819257247,0.823952250533055,0.823505736004747,0.814242622494481,0.813676915176275,0.881319740310727,0.820038142686344,0.82071754158876,0.8216371598062,0.821565644132261,0.82202224420433,0.865859518593405,1.10911641602478,0.816585219249774,0.813670497102973,0.809048567457793,0.810979490654133,0.811904610077261,0.811624048587194,0.813650326015452,1.06334638470413,1.12874655165328,0.991803204737188,0.828995939280949,0.838254468453142,0.827032925718099,0.825949188197646,0.817845912219844,0.793808393967975,0.789736584891553,0.787967947262997,0.78800645570281,0.784573703353761,0.784768079288056,0.791083463417395,0.792202958774817,0.791606077957714,0.914722144378083,0.928548508006194,0.883199318920649,0.750212255761538,0.750288355773549,0.750544161838022,0.749559446019946,0.744385562070779,0.747678950542409,0.748023692765497,0.738781667210367,0.736940597040258,0.729945814008503,0.731145076848395,0.733809494136411,0.73275601324724,0.730528941811386,0.729193065696919,0.72837338604947,0.833904848489497,0.716377090180093,0.715904903358576,0.716035098559849,0.714299468165418,0.709610607184373,0.694795860267727,0.695741150778376,0.695980453225785,0.683936480240449,0.681293150907568,0.673600631621106,0.673344825556633,0.675107045111887,0.674641276363672,0.676905022504111,0.67671339717266,0.667921553616296,0.666510494357433,0.661251341720109,0.660380317486243,0.663464660141744,0.664031284327565,0.664312762685246,0.655045981704522,0.709854493969856,0.826469969002736,0.639805808214703,0.820263692119534,0.619090101330516,0.612694032851092,0.62049932685415,0.619769500232931,0.605117038884069,0.601084655115075,0.584089597010919,0.59427141187101,0.596809301428212,0.597027515920486,0.598901593324721,0.597464861772649,0.595509183150715,0.584036418689272,0.570781263585054,0.565185620533173,0.566052060428967,0.566372964094076,0.551053939989402,0.550747706206127,0.551235479777092,0.551968973868769,0.549907855471156,0.549930777161521,0.542298771137622,0.543184465253322,0.540484290128336,0.541092173356814,0.541507514386226,0.526916483167541,0.528345879778697,0.531174416369726,0.531702532115733,0.532087616513864,0.533053994979648,0.534427462666313,0.535667067681248,0.523136237992561,0.522721813830763,0.519944621826151
0.903707813723938,0.896577334285223,0.895385406386248,0.889962134445911,0.892681563790804,0.886539467640624,0.885110987897083,0.883103964688731,0.885437392767879,1.00668396612209,1.08979801538523,1.09851742640004,0.854782840941468,0.85603803270585,0.854143784214095,0.849432001542685,0.847131580697663,0.838665225144481,0.837052455010406,0.82096692957993,0.828455904255952,0.835551542725312,0.835568046342375,0.832383765116882,0.835365418599549,0.826595579865936,0.823853228830679,0.825354141115773,0.815153072035775,0.814946776822491,0.817201354286783,0.820017054731208,0.821019191033962,0.820592847593175,0.82763164027043,1.14007903536969,0.862843024141384,0.995122265502027,0.816756673493704,0.814739564741592,0.809025645767428,0.815487728715103,0.815528987757759,0.813378016333917,0.818387780980071,1.12505157516646,1.08709325592218,0.83061787809117,0.839356543325886,0.839969010892437,0.828262445189272,0.824722419329316,1.10456875265638,0.803869182302939,0.788780291969529,0.787518682131844,1.05425105796734,0.788452970231118,0.788033961731248,0.789922709017316,0.792120440689503,0.791806871965311,0.939119991602489,0.764258667617153,1.03627128404511,0.750804552240567,0.752837247742127,0.752772150141491,0.751709500576174,0.750419467842437,0.75096867154358,0.751924964465604,0.741841254440274,0.740105624045844,0.729591903109269,0.737229410338855,0.736931428364112,0.734293600236918,0.735338829317558,0.730790249081546,0.731741040797882,0.729705594693479,0.727986467916111,0.715209917706712,0.713821780138213,0.714184859713593,0.714765236913633,0.694805945811487,0.696117983367975,0.696351784609697,0.681336243685454,0.681046513519242,0.6777586262533,0.674608269129547,0.674951177617406,0.66932069359617,0.669789212947229,0.66975345511026,0.66765291140522,0.667299000505986,0.665247967652134,0.661952745445275,0.664079878311138,0.663711297530071,0.655098243158554,0.655565845641998,0.712040306363053,0.654791092507664,0.641482759081799,0.644835743948378,0.622451338005625,0.620454400341035,0.620207762952708,0.619085516992443,0.617951351753187,0.71598742144389,0.58552816229822,0.585620765927295,0.597697746146756,0.59784811243555,0.599098719861859,0.597816022069039,0.592012250068645,0.584858848939565,0.569542575437735,0.567410858233799,0.566211595393907,0.566883659355406,0.555424647908182,0.551059441195089,0.551286824363509,0.550437804952393,0.549503516853119,0.551207973748654,0.752533764561696,0.542604088053283,0.542077806042504,0.54128104808542,0.54170189032052,0.528916171434975,0.528794228042234,0.526622168663256,0.531425638096125,0.532877956397646,0.53317593837239,0.534910651899206,0.53553778934759,0.525030486484317,0.525164349156048,0.521786608863875
0.90395353424465,0.897471280209454,0.893626854301452,0.890272035699645,0.889151623474608,0.887696554570244,0.885890325369489,0.884621380590888,0.997946217754983,1.23178413418161,1.10366105371793,1.15647262831867,1.15541823056189,0.858424639106645,0.861245840756757,0.859736676663132,0.848031027827582,0.837819873203823,0.978572805058565,0.822264297254583,0.822813500955727,0.835482777654218,0.835307655939829,0.832745927824648,0.835232472795433,0.880343276301182,0.823876150521044,0.814557108086287,0.816437603563824,0.816534791530972,0.816663152997015,0.819360577519157,0.818120055636608,0.824060440911577,0.827949793332695,0.86540566912418,0.861882146881287,0.863960685763577,1.06994783152923,1.01965764286862,1.02237157100783,0.81609561194358,0.817861498969292,0.818303429159528,0.8204562343186,1.12481318958666,1.12463898473989,1.22237707245585,0.8413360605058,0.838648721527418,0.829827538207388,0.826027121944886,0.81035051947052,0.810165312212372,0.793050144450704,0.791943485239886,1.06367645704539,0.93675447315683,0.96228006754719,0.789274483613796,0.791242998382334,0.893963344716009,0.98839245721089,0.764607077310699,0.762951214398738,0.754807596245894,0.755858326532222,0.754505029933078,0.75310313935036,0.753141647790173,0.751654488519298,0.7533882851785,0.789288236628015,0.740638324129924,0.737780447775228,0.736625194580837,0.73767317426432,0.734458636407546,0.73437978579269,0.731306445548564,0.730999294897674,0.731990428789053,0.982111914050906,0.718916813472525,0.715252093616984,0.714739564620424,0.768512016481264,0.772095135119106,0.695778742350574,0.696122567706048,0.681081354488596,0.681835936535409,0.678533379387633,0.674594516115328,0.674196595570593,0.668959447756019,0.669744286434114,0.670930713127401,0.667740930696221,0.667343927019101,0.667615319833021,0.666267524439565,0.665037088100777,0.664339351846069,0.656830206082526,0.656022445714067,0.658583256961634,0.70999110724443,0.641709225382605,0.636965352344684,0.724608727623938,0.619639305031659,0.620098655706571,0.620111491853176,0.61842078797186,0.724205305873516,0.585649188823347,0.592041589832312,0.597234728001385,0.599095969259015,0.600025673020216,0.596843225529952,0.589239642402106,0.589414764116494,0.572703934972863,0.565743076042848,0.566686532818268,0.567617153447083,0.556676172202106,0.552672211329164,0.553889811521348,0.744138007814838,0.551452777401751,0.55192129675281,0.552142261847927,0.543296323102303,0.54287089652913,0.541540521620351,0.541778907200146,0.541402074610547,0.526160984253114,0.524822357535803,0.525277123872643,0.529626743836288,0.533753564969585,0.534871226591778,0.537162478760654,0.526294846924845,0.526686349396277,0.521859041405428
0.904321198158103,0.990721300951965,0.936039316417445,0.935663400695461,0.893224349418645,0.893021721675819,0.884908360154257,0.889706328381439,0.867642826103795,0.866694784990303,0.865237882350709,1.1812738972935,0.906455665964883,0.861440216691052,0.861177992553277,0.857689311279738,1.09640863088647,0.856279168888489,0.973007418637965,0.830381326246604,1.15267679639424,0.838196705793422,0.838811923962816,0.83906406255683,0.839839732558779,0.00393702953707625,0.874518416345652,0.815488645582717,0.811710234142966,0.813093787373392,0.843794182580532,0.822586117787307,0.81966039322913,0.829944897262056,0.832322334986704,0.833505094209533,1.12971843132475,0.865324984774096,1.03608791052219,1.07365197669219,0.816576050573628,0.817531426628038,0.819635637803536,0.821210816365412,1.07028707254663,1.02086790811989,0.859008683777142,0.860964362399076,0.843208304174805,0.841782575034108,0.834675934153373,1.07130479559883,1.10791531944966,0.80577443320607,0.79716871377547,0.795575197861301,1.06583109593969,0.934022207665334,0.795540356891947,0.787194110996277,0.79034446812003,0.921956229857247,0.763873583219022,0.763680124152342,0.762956715604426,0.761843638320306,0.756650500151233,0.756777027882047,0.756950315861206,0.75436383232043,0.753051794763943,0.75462513959059,0.790154676523809,0.743598889657455,0.740476038562141,0.739849817981372,0.738265470743349,0.734622755710558,0.737038701875019,0.733118175955006,0.731538413055057,0.73253046381405,0.718845297798586,0.720269193204054,0.715948913004077,0.716494449234761,0.82617748823368,0.772297762861932,0.69783252580727,0.699293095917321,0.688662015926078,0.689811767914782,0.682612523404972,0.671925514489238,0.673119276123443,0.669611340629997,0.671193854132791,0.670843610704015,0.668856758583185,0.667939890968589,0.667523633071562,0.66756122464376,0.656598238576033,0.656567065077137,0.655842739661606,0.655255944388264,0.658128490624794,0.659005016064348,0.642841556886631,0.642045715797162,0.763147424068262,0.620214181026011,0.617698296291558,0.620583678674693,0.62290702121008,0.721144801775994,0.733113591616933,0.592414754951453,0.593265608097798,0.599519562096959,0.60085635507904,0.592393666996317,0.593244520142662,0.590732302878669,0.578813940756532,0.568046247490714,0.567564891993051,0.568144352325476,0.633543602407011,0.557096097569591,0.554321656167823,0.748256577139604,0.550420384467716,0.552359559472587,0.552167934141136,0.548803029995568,0.543908790668853,0.544225109995889,0.541092173356814,0.541812831301886,0.524300659863098,0.524866367181304,0.526626753001329,0.529333346199617,0.533171354034317,0.536632529279417,0.537404531810907,0.527547288086383,0.528265195428612,0.521289666616764
0.902655249702382,1.06056827583191,0.975134551503829,0.897818773035386,0.895952947439683,0.897687660966499,0.888166907656532,1.0079034000495,0.867303585086394,0.866956092260462,0.866339040355839,0.976308142050512,0.86346466038408,0.863984524321556,0.861256843168132,0.860879093710919,0.856983323216499,0.994489626847955,0.987970698108176,1.13307416679418,0.856651417140015,0.840295415763233,0.845320767158835,0.840501710976517,0.841662465376596,0.837799702116302,0.89707335966472,0.853106806941986,0.81116836538274,0.816301907156864,0.883071874322221,0.822889600967738,0.827206213697257,0.829727599637397,0.830700396176484,0.834013955735634,0.8363171271835,0.836524339264399,0.837039618863802,0.833341891774135,0.8169574675013,0.818563819562073,0.819893277603237,0.823969671017732,0.82716678838983,0.988410794563182,0.859965893566781,0.860428911712152,0.844557016435876,0.840661245941457,0.839936003658311,1.05426022664348,0.809937929043952,0.804782382447077,0.804738372801576,1.21457452905564,1.11010663304854,0.801054398726129,0.942668269270976,0.784754326273837,0.78927723421664,0.921983735885685,0.765482685882638,0.765791670268757,0.767287081348164,0.762144370897894,0.757858014799656,0.759351592143833,0.758673110109032,0.758112903996514,0.754687486588382,0.756315843471905,0.790068490968037,0.743222973935471,0.741849506248806,0.741104092878139,0.740787773551103,0.842185079916916,0.738054591191992,0.734236754444813,0.732976061474743,0.732713837336969,0.725573272354493,0.721314422284694,0.719352325589458,0.7168611962806,0.72225329472204,0.772934068986462,0.698689797026917,0.699847800824152,0.700269559926866,0.688996672605406,0.684439840560862,0.683979573018335,0.672050208484823,0.667955477718037,0.671894340990342,0.671612862632661,0.668392823570199,0.66571190266512,0.664232995202776,0.665878772570976,0.658760212411251,0.656896220550777,0.6567971988484,0.655894084248023,0.659367178772114,0.659622984836586,0.645199740391373,0.64204938326762,0.642473892973178,0.624524375682228,0.61746724565268,0.618114554188585,0.628223936507123,0.629818369288906,0.00384603959500371,0.592901611654803,0.596126235055338,0.598036987164157,0.598557767969247,0.593610350320886,0.593461817767322,0.59219470672395,0.00350540493882892,0.567958228199713,0.569596670626996,0.569327111548305,0.722324810395979,0.554239138082509,0.55458846464367,0.599836798291609,0.681061183401075,0.55363492232449,0.554182292290404,0.554751667079068,0.543060688125352,0.543821688245467,0.540936305862332,0.542991006186642,0.523872482687082,0.523962335713312,0.526538733710328,0.528903335288371,0.532996232319929,0.534939991662873,0.538524027168329,0.585805973185443,0.528356882190072,0.522427499326478
0.902344431581034,0.903651884799448,0.903459342600383,0.904356955995072,0.89936552870121,0.896953250007208,0.891560234698152,0.86940321192382,0.867342093526208,0.867440198360969,0.866988182626973,0.868406576826754,0.865239716085938,0.863539843528477,0.862920957888624,0.861697856490753,0.859414856130408,0.991839879441772,0.99291261455085,1.0540035037114,1.1495961212092,0.878487536249239,0.848905719531906,0.845260253896272,0.840571392915227,0.837920728641429,0.836485830824586,0.829218738111296,1.25080913718448,0.821025609107264,0.826650591922812,0.928062568170458,0.832124291581951,0.83050418650696,0.830557364828606,0.835164624591953,0.835676236720897,0.835913705433078,0.836009059664996,0.829579983951447,0.819355993181084,0.820225183679722,0.823041800991761,0.827384086014489,0.831432973400546,0.837268835767451,0.86091118407743,0.85884456447413,0.855925257989255,0.842244676311865,0.840355929025796,1.21560142078398,1.22227621701824,0.81028267126704,0.80588812479028,1.03641798286344,1.13057111820633,0.801792477155879,0.801863992829817,0.786299248204431,0.789609140293124,0.824870951882881,0.766090569111116,0.770088111910755,0.767395271726686,0.762472609503919,0.762269981761093,0.759341506600073,0.759501958432627,0.75853099562877,0.756014194026703,0.756733018236547,0.79237716362159,0.793821230114579,0.743422851075453,0.742928659431186,0.743150541393918,0.741630374888917,0.740814362711927,0.741288383268673,0.73632262826802,0.730092512826838,0.725201024102967,0.722300971837999,0.722485262228533,0.723048218943895,0.724188802256453,0.730301558642966,0.780263508697544,0.701757636065356,0.700857272067823,0.693011635889723,0.686654075850112,0.685381463601053,0.68354956210709,0.667896798190702,0.673802342496317,0.673881193111172,0.668881514008779,0.662080190043704,0.663803901159145,0.664835377225566,0.661136733268284,0.656148056577266,0.656303924071748,0.657947867704719,0.657954285778021,0.657825007444363,0.91627348438198,0.643374256970711,0.643067106319822,0.629304923424732,0.620331540080679,0.619764915894858,0.629674421073415,0.630059505471545,0.630202536819422,0.00359887959213701,0.597195302693957,0.597923295579947,0.598069077530668,0.599636921151627,0.595134184296345,0.655660283006301,0.772737859316939,0.567665747430656,0.570332915321517,0.00397353003681332,0.553021537890325,0.553247087323516,0.555420063570109,0.580292848218876,0.605740508861994,0.554547205601013,0.5548039285331,0.555819817850073,0.548035611802151,0.546269724776439,0.54229235306432,0.636075073890911,0.529502049840703,0.526602914443349,0.525638369712794,0.531428388698969,0.534666765113723,0.537922562013154,0.537839127060226,0.587863424112597,0.528168924329079,0.520672614712141
0.902142720705822,0.902882632870802,0.902962400353271,0.903441005248091,0.903844426998513,0.895888766706661,0.893194092787363,0.870621728983618,0.869030963672294,0.867044111551464,0.869116232360451,0.869541658933624,0.871545014671517,0.863119001293377,0.861684103476534,1.08035427895489,0.862470775889858,0.861949078217152,1.08967882259534,0.997992061135713,0.854861691556324,0.853674347995421,0.851671909125143,1.07684267599099,0.845780117833748,0.845917647975937,0.929355351507039,0.838397499801019,0.831852898768031,0.947362631457709,0.830033833420672,0.837103799596824,0.834654846198237,0.831132240822958,0.831384379416972,0.834536570275954,0.838331485332768,0.836514253720638,0.837019447776281,0.829155474245889,0.82609772075121,0.822540274406577,0.829322344151745,0.826937571486181,0.833520680958981,0.845047540609685,1.05150045512355,0.856317677328302,0.851571970555152,0.848646245996976,0.845080547843811,1.17129837764669,0.990565433457483,0.812039389616606,0.808256393838782,0.956439620842212,0.809036648178803,0.802574565231129,0.950590005461088,0.788377787086721,0.789357918566724,0.826614834085843,0.76974795402574,0.769742452820053,0.771034319289019,0.763795649471781,0.764074377226619,0.763720466327384,0.761467722598322,0.759812776553975,0.759621151222525,0.758390714883737,0.759718339189672,0.794475873591401,0.743427435413526,0.744665206693231,0.744011480084024,0.742610506368921,0.743161543805293,0.742285018365739,0.735336995582329,0.73682140425036,0.725031403594267,0.724219975755349,0.722836422524924,0.724673825224574,0.724863616820796,0.776615292459066,0.781575546254032,0.779724390540162,0.70160085170326,0.694385103576388,0.693150082899527,0.688960914768436,0.686169052881991,0.974886997247888,0.674650445039818,0.677057222528133,0.668589033239723,0.662052684015266,0.665410253219917,0.664993995322891,0.663293205897815,0.662461606971376,0.657220791686344,0.658433807540455,0.65872812204474,0.657668223082267,0.65494787686976,0.645570154907669,0.64589747664608,0.759729341601047,0.619054343493546,0.620254523201053,0.630113600660806,0.631184502034654,0.629930227137887,0.629462624654443,0.596922076144808,0.598545848690258,0.599101470464703,0.598772314991063,0.599117974081766,0.593122576749921,0.00365871437266556,0.579271457696216,0.0039095510146668,0.935360834382644,0.553665178955772,0.55406585010335,0.5552247707682,0.598584357130071,0.614527768080285,0.618241998787014,0.560035575141986,0.556825621623285,0.550301191677818,0.550428636276247,0.544802736593085,0.544817406474918,0.00409536340544087,0.531527410401346,0.526028955316612,0.531841895993152,0.533034740759742,0.537925312615998,0.539320785125414,0.588687688098119,0.589231390593574,0.52297853676285
0.906103588800878,0.903562948640832,0.903978289670244,0.903799500485398,0.898615530992471,0.896884484936113,0.892632052939615,0.877522991518684,0.874382719938692,0.869858895128274,0.871182851963751,0.871557850818121,0.870971972412394,0.861392539575092,1.0047127007507,0.874102158448625,0.869295021545297,0.866994600700276,1.13925385451656,0.857743406468999,0.857840594436147,0.854403257749025,1.10202902936395,0.852722639411471,0.852765732189356,0.849257796695911,0.844141675406464,0.847264526501779,0.845053041815373,0.841617538863481,0.835998974121235,0.836754473035662,0.835986137974631,0.835374587275695,0.831836395150968,0.838411252815238,0.838668892614939,0.835151788445348,0.838722070936586,0.886922718303525,0.826381949711735,0.825125841079738,0.830067757522412,0.82764172581419,0.924917712252393,1.00351160417558,0.854044762511718,0.853446964827002,0.853967745632092,0.848186895322063,0.844889839379975,0.987319722101813,0.986641240067012,0.813415607906115,0.810054371231005,0.813208395825216,0.808829436097905,0.803611542503238,0.803959952196784,0.787294966433883,0.788383288292409,0.773875692026652,0.770866532515547,0.769573749178967,0.770678574654555,0.766051143803688,0.765326818388157,0.762857693902049,0.76357193377382,0.762623892660327,0.760662712832706,0.759368095760896,0.759827446435809,0.7953175580616,0.792557786541665,0.948774607584187,0.746819845587532,0.744090330698879,0.74428195603033,0.744514840404437,0.73512978350143,0.734769454528894,0.72670560385852,0.7262269989637,0.720322371525701,0.724358422765153,0.724851697541806,0.77621920564956,0.707423877923561,0.780193826758835,0.781096941359212,0.695260712148327,0.692567871964258,0.690318795705653,0.688768372569371,0.686744845743957,0.679419990370948,0.679084416824006,0.67830324561637,0.672324351901588,0.666259272631034,0.667596065613115,0.665502856848992,0.664160562661223,0.657840594193811,0.658431056937611,0.658406301512017,0.658173417137909,0.654053014077914,0.646897779213605,0.6472617756566,0.760119927204865,0.773582294389982,0.602355433628905,0.629487380080037,0.630318979006476,0.62990088737422,0.62899135470054,0.597271402705969,0.600261307997167,0.600044927240122,0.599963326022423,0.600540952619619,0.5931464153079,0.593576426219146,0.592116772976709,0.590779063127013,0.924202555513008,0.554683818875588,0.554877277942268,0.554957962292353,0.58750492887529,0.587312386676225,0.620190342468031,0.55848423513809,0.552225696800856,0.553263590940579,0.55205699315977,0.553696352454668,0.547220516492775,0.547164587568284,0.537709848726568,0.536121834018087,0.534899649487831,0.535452520659432,0.538655139237217,0.539855318944723,0.542469308513937,0.672249168757191,0.522744735521128
