0.511675359318923,0.510256308006133,0.502263264321823,0.503017345886412,0.501982139698124,0.501027038495543,0.499579139413996,0.497913905726613,0.500227238846808,0.602870903858387,0.602518210452881,0.491546892302126,0.490257472270725,0.48989063149441,0.490218883026911,0.489869632306364,0.488078945192263,0.486741378633944,0.485119880219503,0.485222934291887,0.478004596794832,0.479127278861066,0.478795459244112,0.47835306788487,0.477572465799174,0.476139621027471,0.473377712527013,0.477088514643847,0.479152820878675,0.47994526199331,0.481077182554348,0.608340436065288,0.464265857570876,0.464876991091697,0.46498798056267,0.465487281308778,0.466671558515122,0.466563418477256,0.466051941696132,0.465752329678716,0.456527002935791,0.456481103954649,0.464356461946356,0.464161954842022,0.464512047890019,0.470617003888269,0.471146631350455,0.468332273410031,0.467582585391147,0.466493785557403,0.468653287666887,0.468910417340309,0.463088776285651,0.461575485741309,0.462126403936846,0.460153704996065,0.451709214787108,0.444982773925457,0.444966177003797,0.444472909232793,0.445277888299527,0.446961509925504,0.44313967817332,0.442482612836031,0.4418660211328,0.445154743721886,0.446145934909173,0.448240582323825,0.448052261138057,0.448826014199871,0.447266346034326,0.446682256495239,0.446148615142719,0.4463371770672,0.448330304811724,0.447949493424113,0.446657334966791,0.445187376707035,0.441013647610084,0.440075940241991,0.440891026761766,0.436023464731741,0.433928530210093,0.434295735027736,0.434228839928437,0.437080208896016,0.437791364591357,0.438885168730088,0.443396160289894,0.447173292141351,0.447221933289635,0.446883024686432,0.447519671005682,0.448614423192156,0.448247465296533,0.45001129546564,0.448460811902115,0.448355886774876,0.448270007281348,0.448311507142583,0.440855173889975,0.44099820946063,0.440206906742774,0.440770377934709,0.441073968982009,0.443045449319888,0.44424373337988,0.443548350730241,0.443397222805058,0.442578486261988,0.445273055827297,0.448309644180603,0.441533054190059,0.441189200528207,0.441482689353938,0.440786487542243,0.447334529125497,0.446564922912532,0.504613882203009,0.93626177053744,0.539408366240507,0.426002837952115,0.440838387973697,0.441029836195021,0.49901383357712,0.474223198990374,0.451913078686864,0.451541253777978,0.451744958516614,0.450369391124923,0.501360166084592,0.476775661082704,0.477741320898493,0.477166390384171,0.474886692020992,0.486444753342831,0.498017490809086,0.502781489227627,0.502438607940938,0.501978561697712,0.541208030800328,0.554883003400823,0.554034201359305,0.553862789693772,0.553726736133526,0.497151710378298,0.49715828486986,0.566413414716006,0.565931578167682,0.566171331043105,0.555630071352884,0.554500224635738,0.813648836253638,0.74612650757517,0.746582803645973,0.966249991410903,0.615340472048695,0.615314484066563,0.593043172495033,0.549001470912856,0.640746755727268,0.528421962841734,0.589092405082014,0.610546831217654,0.641436998918778,0.612691559284553,0.636771673706739
0.510746337796007,0.511132715060775,0.509131764381192,0.506664315764053,0.503411216033337,0.503463909132415,0.501583700621484,0.500803060469516,0.500713418767606,0.500794112485876,0.50149881514168,0.497254531271472,0.496442909469836,0.492953450992944,0.491668429031705,0.489947800137554,0.488876672193381,0.486433270605537,0.485118203357021,0.484442525877532,0.482731552087844,0.48034326889436,0.479678928786891,0.479366887466687,0.47901135236412,0.480823836658145,0.624563404577806,0.488446360220068,0.489139322274539,0.487483106881431,0.484373324480981,0.578538094671154,0.579350370369779,0.576009377115805,0.563535353401408,0.468146450771285,0.468225945180325,0.468066816134321,0.46752267159288,0.466603385683767,0.466463827705649,0.466367974807906,0.466367715530874,0.466366521231225,0.466849977184994,0.468885268807498,0.472854546160448,0.472957728674061,0.472967295216616,0.473462411261537,0.474045487373087,0.474488927413473,0.582436961711674,0.466923094578746,0.462911694250781,0.463783808745291,0.45393434675197,0.444477431963664,0.444486539070459,0.444769253446412,0.451027782794358,0.449993754399004,0.450083403692794,0.450660548836763,0.44985935073258,0.448680581917357,0.450112862554096,0.44790356450013,0.448762999546388,0.44850931756598,0.447119337986526,0.446731335795728,0.447893119396975,0.446938086317751,0.449248381623627,0.448817086860356,0.449048032068063,0.449798834568034,0.450944665824312,0.450013763283964,0.434289489677477,0.433663436613573,0.434104115079819,0.433826974340977,0.433587792204916,0.434980142225293,0.437344383058091,0.437800035675346,0.446115648523326,0.447527551785249,0.446755647720999,0.447122198365028,0.450421445272954,0.450324681230271,0.45196024428577,0.450847509389045,0.452490791375052,0.450770329187548,0.450501289006624,0.450592040940319,0.440256318872536,0.44051392860574,0.440623705904698,0.440008090048264,0.440921221383276,0.447274395706943,0.446283435008501,0.445034975466311,0.444077267004705,0.443710186151994,0.445300806656713,0.449778852700597,0.457726331095877,0.447565280744094,0.440416988288514,0.696819165690453,0.682150433981435,0.531463482775233,0.510791639738823,0.658596461928732,0.465124625821901,0.439533466997443,0.44090688155865,0.442004262685227,0.447369082869877,0.455575928315017,0.505171631917568,0.502267236417838,0.504149588182401,0.505985920677183,0.506191031828795,0.507893691632897,0.489088561059598,0.487911441118394,0.502397860426449,0.539338782564222,0.539182347090438,0.501711108299257,0.51729587909304,0.538175795456868,0.566375471098475,0.593166726697664,0.592932961423204,0.592979013362038,0.592988182779739,0.573415440238728,0.567708029748347,0.565661809010952,0.565753692945901,0.573606211387672,0.573090730527229,0.59582910159046,0.742367435299514,0.745820110574389,0.745625671836342,0.815087457707604,0.640968288404318,0.631591284988513,0.613883895118415,0.569287066531717,0.640358129714425,0.641070599765081,0.640978360075561,0.622799652192188,0.606205713509539,0.653786837646922,0.710852321266786
0.515199456585686,0.513194498901172,0.512314809245919,0.51032619199471,0.504182838542122,0.502995937080351,0.502918209055838,0.502428704714438,0.501234706384782,0.501744283869426,0.502540022468299,0.502370857812909,0.502212195169791,0.502477063161808,0.500780895796668,0.488793598654897,0.487099609471327,0.4855680860064,0.484672645057148,0.484243917129381,0.483187068657242,0.480140241392236,0.478832657834944,0.48187175313847,0.483714637833919,0.486724906337578,0.488311625564378,0.489172874308225,0.489444373624021,0.489225482660487,0.488500536491665,0.577038881310426,0.588591816289813,0.580831800442536,0.59168851186867,0.470457177791929,0.470629603915839,0.470519906222225,0.468885148998568,0.467028152226559,0.467512266044637,0.465854907175445,0.466245130055303,0.466748377686117,0.467682983534825,0.470225076847713,0.473368715480576,0.474516447939197,0.473843821620845,0.473787660057105,0.474103863418929,0.47467289076342,0.473477018767482,0.476371818681854,0.563989240322601,0.464249635391216,0.464448089712758,0.4623951040283,0.46401441736536,0.569911705113488,0.454098596055901,0.45092396070664,0.450037684742664,0.451908004391436,0.452211390527218,0.451650384606741,0.448792812831083,0.448301076206412,0.45381057145721,0.45789475197216,0.458620911652935,0.45883505994189,0.458943481460086,0.458541109715665,0.455433564311174,0.454993215912548,0.45419678306393,0.450844739082395,0.450892255949575,0.45080185818772,0.720767027914124,0.846267407419747,0.433103700243974,0.433483087597289,0.433543918286241,0.435131148262178,0.436455840291697,0.442918516807228,0.447116465885091,0.447905427328098,0.47705367117198,0.476433419304157,0.451531634020569,0.451610450522445,0.452264577902687,0.453294690884829,0.451890734618292,0.452224537430974,0.45108083960289,0.451500381028355,0.849479701831478,0.447325252755985,0.444568934707309,0.448269260467317,0.452521277788494,0.451340493041865,0.447817786833637,0.451865625294359,0.452830560416502,0.453902647786285,0.752442608290144,0.458288839692947,0.457687338135736,0.457838016911432,0.457830080063917,0.682324856545162,0.682162790747566,0.69963697989619,0.500692365326641,0.496411150154285,0.471888938555353,0.505822847594022,0.445018743400351,0.444077661703551,0.444681623426805,0.520919469803419,0.521080353066751,0.523165705961339,0.516085948982001,0.5069595126843,0.507405920783726,0.50771280474936,0.485584384738761,0.486638654176135,0.486352030274369,0.53913653504089,0.526688694198428,0.568982038903171,0.566641154824185,0.564314821436315,0.564831130463588,0.577095510511881,0.592619013257492,0.593020158171752,0.593490039025203,0.596149740594841,0.576540506188222,0.566803772276295,0.567106317297327,0.569388533963864,0.570914228182958,0.611808278492654,0.611735264785234,0.757636340720654,0.795582196713128,0.817443819100848,0.822106391360802,0.821834877535554,0.68024928366641,0.689024128527612,0.695407190977751,0.678725793261539,0.698343803062418,0.703840520354873,0.709341895363007,0.743394166159147,0.707290736652504
0.516077999044169,0.515635639742114,0.514106410144429,0.513265082520869,0.502446813462385,0.503218037941404,0.503468100034014,0.505769093847237,0.508554388838857,0.603031008101676,0.603756814004587,0.502784922911044,0.502367466248661,0.502150991708146,0.500915152433564,0.486734012593901,0.485554721713531,0.484460896241178,0.484135292449242,0.48332420545459,0.482638179820113,0.47914480107337,0.479250838114271,0.484574614878512,0.4866458797102,0.487974237465276,0.488858758799486,0.488964308998578,0.489631860433281,0.489042297647849,0.489016895842788,0.626395554005624,0.517940573743622,0.554037887754012,0.588071857467917,0.656982425527641,0.471677935435014,0.471940645443104,0.471316357539221,0.471933487187533,0.470310683952827,0.467489227125537,0.473690654071645,0.474169335560854,0.474371342520544,0.474030592358931,0.47596900673039,0.474737042805839,0.474868802171608,0.47435761599714,0.47437435164383,0.482093013186325,0.481430543713479,0.479041595430884,0.46382802596908,0.807101732878788,0.515828646359516,0.515730882024691,0.465328352979601,0.456924315644968,0.45642767271339,0.457320175879076,0.456764568136451,0.455762577203581,0.454641209017062,0.457637543203044,0.457715861796443,0.458141181118474,0.459076354532234,0.459090554656063,0.458681354260928,0.459960061187318,0.459307793656364,0.459898207490183,0.458573335834191,0.458754308676439,0.457847235629575,0.454343201828197,0.457247636666688,0.721024122843299,0.563530771550173,0.564376461898069,0.889669115388947,0.561195833137757,0.916350371515515,0.447624009996242,0.446696192758759,0.445439570546037,0.447147536037843,0.448395502775435,0.48771484408801,0.475515867378514,0.474550520902325,0.457809071435866,0.453177309119658,0.452962829634621,0.45287384675132,0.45144901933376,0.4512405605975,0.451204108025625,0.447224703290067,0.447143639695635,0.569639759935032,0.456055008416159,0.450549005871563,0.452217160194084,0.452799769240075,0.540136028424073,0.459170633962352,0.457825786315723,0.458395220857869,0.458262921614263,0.457644712284613,0.505329543437861,0.683824916138906,0.689514083230633,0.603455632400039,0.469045426407242,0.489922253422314,0.497393034258277,0.508824806015464,0.510403186461966,0.465125912601972,0.467882722627146,0.470642037459995,0.512877084336706,0.518550996563117,0.530870740365665,0.52924391469346,0.527021142747745,0.536643435767449,0.544623587802707,0.609471839063285,0.580266050911376,0.580914034259764,0.581183145051854,0.521244501946425,0.621331186442542,0.599894002124333,0.581341755860985,0.561996132675092,0.619720917317499,0.606239784933866,0.611957682861472,0.615943942677575,0.597665920047104,0.62785133082549,0.626695204635869,0.625063725200661,0.625576920282926,0.59372779139215,0.636962816034251,0.70813317844977,0.76608958134234,0.805295955301415,0.672995949552878,0.673561497213326,0.662754229450261,0.6724853471355,0.657820537249583,0.679321291553274,0.679021847390541,0.723975609763821,0.741983352947069,0.7977599976639,0.770725540294461,0.80196060770737
0.518103947058621,0.516612610189414,0.515795353738326,0.514967749112809,0.514204502524558,0.513460909971323,0.512385088133819,0.511158187022763,0.510084683294366,0.510327295871932,0.513245497974353,0.502288129314854,0.502184390372565,0.502632129201417,0.502316792110618,0.490924358806977,0.484636774241972,0.484262595310669,0.483824845549549,0.483465500786093,0.483509100939248,0.484993822420269,0.485780344762606,0.486159362289242,0.486661446330705,0.488335760263806,0.488852268049995,0.489459287821017,0.490686436358985,0.492045358065462,0.493703721917869,0.507884113956538,0.512076055123543,0.537577797225487,0.563480817176028,0.594623240573022,0.471545080612184,0.47160568180359,0.471956399850089,0.472438224848187,0.472666289639936,0.47415932015922,0.474466006805503,0.474940952507441,0.475255728710817,0.475853181783928,0.47614047817094,0.476411717467147,0.476178669001158,0.476066507813773,0.47607379414342,0.489485989483363,0.506311908316531,0.526941584652596,0.544418177010149,0.555113263618724,0.494768371412238,0.485942802429714,0.466166396349808,0.460598605730161,0.45656292768005,0.457605277059974,0.457758194332799,0.457519647039711,0.457432755046962,0.457950460433877,0.458370637170491,0.458965287736783,0.459829965562456,0.45956851946198,0.459804561930962,0.459770769129556,0.460050842351387,0.460531040569875,0.461023145246854,0.460395377757798,0.461289054834135,0.462354706677254,0.463443258426665,0.5244256650943,0.562856081035023,0.615183759328303,0.645171507347834,0.531741256917099,0.494695578500866,0.448120947736751,0.447545282943484,0.447223574714385,0.447639297640071,0.459499989419001,0.476604986432387,0.475860347879449,0.474133018722756,0.466725445948433,0.462284443785779,0.459005353021365,0.460026304894811,0.459741289214017,0.459972127401675,0.460449028159001,0.461277070697942,0.462169713109596,0.463061116152392,0.464407078042137,0.464443597757953,0.463825576303108,0.462804292857956,0.461124815708277,0.460557685908495,0.461260917710882,0.459247406381565,0.457930526992481,0.515035626226428,0.544396397792563,0.685339592670756,0.687629982668988,0.529199832883165,0.477401525367648,0.484200906712132,0.489800820639976,0.507416880401831,0.509004780946174,0.496761868298719,0.501891578207571,0.513231402807071,0.521419896222357,0.523215297387722,0.530914606250088,0.529681669011872,0.528368113259498,0.545965637862812,0.553185343818809,0.599844211887112,0.579041074752655,0.578809249725941,0.580700222515274,0.560596062704987,0.6201377504271,0.618454636880057,0.616095895258094,0.614149189960254,0.611555203218236,0.607595678087638,0.613718986443358,0.616723634277761,0.621230872892145,0.626354882727552,0.625356785182365,0.622994322305095,0.624049227698018,0.628162657588793,0.637210797737017,0.694888448141683,0.773672861134947,0.778483017371285,0.73319979425023,0.676020054732944,0.675832821775602,0.675978653359526,0.676188969802197,0.687312798401758,0.695828330807356,0.741927183156045,0.76239963669502,0.781592967613679,0.770359193385906,0.761668691199308
0.519577381219748,0.518061478676324,0.516787760642218,0.516619315985658,0.517002663108159,0.872496659102942,0.511921543276041,0.511095570445022,0.510203717383978,0.508341898032497,0.516341260970897,0.501327941043627,0.502226604957309,0.503209070758119,0.503222912482306,0.589883433270565,0.484295682813819,0.484053305888362,0.483670018614764,0.483485477733505,0.483133233815993,0.817010406602664,0.817277092318056,0.487237710190403,0.486781910994701,0.488779593316498,0.489455466160146,0.488762419649128,0.49198286868231,0.494757351057244,0.494361268034823,0.503831016561858,0.503696496138514,0.515823388906655,0.521951838341109,0.656541558770758,0.471077970474237,0.471612139871941,0.472337030632591,0.472583454155592,0.473834595034366,0.474528315461406,0.4755672692978,0.476031304650796,0.477614127199305,0.476088808243573,0.477870605189407,0.477393153103631,0.477739294812181,0.477591100354402,0.477736912884996,0.678844157206295,0.677416058294174,0.539400636897718,0.56854919472916,0.569655538323412,0.47484068537171,0.467871030859882,0.466916998704961,0.46627170518087,0.456034745120009,0.458845261884989,0.459048939700455,0.459002804699903,0.459398173038341,0.459047445055148,0.457908011452829,0.460737074697904,0.461024066984444,0.461533940770981,0.459846911214576,0.460792342653361,0.45976403245916,0.461806048414915,0.462826943232825,0.462401730385949,0.46295319820039,0.462577746735066,0.463415442280946,0.464230043174793,0.562181777509775,0.842486162856538,0.798866341860802,0.502394123385511,0.45022974365901,0.448847214162164,0.448421926817136,0.447958581470438,0.448448280226958,0.64886954906045,0.477233199316166,0.476643836099745,0.472432191401849,0.473116088205361,0.47192789591034,0.458387991919581,0.460277051098433,0.46072488041211,0.459736062165582,0.4594178386142,0.810940522155564,0.462719711073838,0.462103918168801,0.464055597881769,0.464304900681466,0.463871688866678,0.81981818642838,0.459551755984498,0.46063296597109,0.46296977518663,0.763419726466893,0.456546699254977,0.692209999753957,0.574076160016515,0.778681914829513,0.779546323053184,0.468941952463896,0.469090078221275,0.474894716606674,0.468286000982431,0.504315690601507,0.519268743162583,0.488027527988361,0.505458871682386,0.527312343400482,0.525339084441739,0.53250771010517,0.564599955964362,0.542091176515475,0.499187395906377,0.563628812413325,0.564622541183965,0.609235162339656,0.577346763328709,0.575315420541542,0.581321462577499,0.539909562476581,0.620837081280581,0.619616872709492,0.621552118892214,0.617128110876052,0.60464561494988,0.605705452387746,0.65457943313307,0.698533421485958,0.630112167583396,0.628610483115489,0.613654291104397,0.618029721187087,0.591060315804199,0.637079927265862,0.637476868714658,0.681644048262187,0.779802264692838,0.868745114947279,0.820177379908272,0.676575706545409,0.712310738971833,0.688862312880586,0.676278756399858,0.699097265450559,0.715657614037983,0.803969054186894,0.812568742641569,0.817562778906061,0.770123361247821,0.737286663209628
0.521348442855244,0.51805923983838,0.517516859547239,0.516954762465381,0.517250669154335,0.518494981107475,0.513787188345113,0.511464254438715,0.514931941653174,0.517970450578075,0.517014805622508,0.516386883111739,0.505636510244357,0.505088414115153,0.504685076995651,0.504321305804609,0.716159738268931,0.496747794062475,0.494923923919716,0.493407316543057,0.489522732324561,0.488554799573075,0.490110956260063,0.489881072777086,0.490467876667392,0.491981980738263,0.48858105030303,0.490899222632703,0.49344459133186,0.4958082717491,0.496486257055741,0.503856357592311,0.503808870430501,0.510663434518834,0.522582593823233,0.589511249428036,0.641444424708836,0.475069900351704,0.473618057661488,0.473488462452546,0.474586987384546,0.476525555614273,0.476223877334198,0.477485749256235,0.477571237229961,0.479496989587486,0.477715089670807,0.479906213543499,0.478900061446223,0.478767000976568,0.493853326170951,0.493110943976629,0.49186001880404,0.492908882077898,0.492989469216491,0.63154116516359,0.474796416699632,0.6254135822411,0.520587476655519,0.463364865087509,0.462584204300707,0.461366108698041,0.460906528011625,0.459803490715372,0.460185412385956,0.461803752496308,0.460846810796953,0.463332462734541,0.463633290867182,0.463615501538577,0.460666664786031,0.461515028566501,0.462925353821768,0.463402896180291,0.464070196264934,0.46343747076691,0.463199723445286,0.462844791512859,0.463271222306622,0.464018563550223,0.465637231048481,0.464827787592,0.464155080633658,0.459606807216618,0.453234375826143,0.451372493682967,0.450312342689393,0.449641161816939,0.449236270564296,0.448385959410386,0.474185987329559,0.474890816431386,0.473351122011071,0.473959058231306,0.472684856169148,0.471340753411625,0.463904185240717,0.461512788831429,0.459227295514683,0.458783275653986,0.461119070940785,0.463184115478563,0.463698463676639,0.464502491135551,0.464853685477538,0.464955853580798,0.464442766436858,0.463349999179529,0.465421123244745,0.816539384093186,0.824136506169906,0.478881101079277,0.479553320866069,0.487966196801482,0.497183265145467,0.49741220494042,0.468464512937797,0.468581215078501,0.480180020342208,0.486917172800415,0.49344766183868,0.513881368543465,0.513476524253726,0.511835386733005,0.510850711072001,0.519660519227959,0.523246193813583,0.545842083152417,0.568034861917939,0.593713869283569,0.629319497830746,0.627346022323689,0.572806102291973,0.577255383232879,0.577158595596857,0.599218766641377,0.599108731739338,0.620964735224214,0.618192112423882,0.626356130714156,0.644587108606841,0.705833246440403,0.687032803245062,0.697809543994324,0.707284218718451,0.663062674197501,0.641178048506722,0.66758827230717,0.661950610908283,0.656292868663809,0.655200970841736,0.676271970388861,0.756642444238245,0.784053971001955,0.847220607597853,0.806215758937697,0.737420654104787,0.757200256237776,0.735786492841287,0.716189438767476,0.688626001585047,0.799071460920987,0.907547886626506,0.819490828117351,0.769255282787821,0.754491942976768,0.745269495886596
0.522537542788942,0.516853019644517,0.516175432916644,0.517815461758904,0.51779505564964,0.520463254607434,0.520422986213552,0.519281531733007,0.517867589989321,0.518048566023518,0.516891926332259,0.516109203007116,0.505070583856985,0.506331860615049,0.507987045463634,0.50475156292167,0.504583087378231,0.495592798738677,0.494504323708415,0.492720205314743,0.490465934324464,0.490357025040218,0.490163756813534,0.490029373007924,0.491322301267694,0.490168116795211,0.490042636453268,0.496456316014481,0.495469651305133,0.495721305526773,0.503750664224403,0.503992881526401,0.502397386882339,0.502247500495888,0.502317682353282,0.609532164019506,0.616141758943888,0.611908239775595,0.51346744807181,0.475211006221896,0.476569158429089,0.477086171573304,0.478529140080575,0.478332654914177,0.479764985017031,0.478746300248405,0.48103130906681,0.479920778869202,0.480399851559849,0.480224735085482,0.494992120832307,0.493941404876421,0.493033468643632,0.493919866347123,0.493840173548371,0.494147437417969,0.613217814912671,0.622933588555805,0.555872865229665,0.593660965272501,0.471179630386564,0.463639183400888,0.461213292900309,0.459446110938177,0.460716865628872,0.461507195581405,0.46431113033758,0.464584277345186,0.466048775286482,0.466912113765388,0.465223273253663,0.464789535898137,0.466748998685875,0.465713606286241,0.464788778147494,0.462383884726006,0.462714441400611,0.462557659493788,0.468515950849709,0.472894195097246,0.46974108686038,0.472895102243023,0.454246909132325,0.453979601011216,0.453672136635567,0.451695877663331,0.452054105198629,0.450593076655961,0.450901262003094,0.450486079548097,0.476384092710809,0.475866261567204,0.476185250088115,0.475128868386883,0.473826697948189,0.472588455218364,0.468256381591515,0.467842354477529,0.469542513271097,0.468986437095148,0.516276319542497,0.465391682282964,0.465540380604236,0.465547517449186,0.464377534325362,0.464555085975848,0.467934512661397,0.467964765569328,0.470145858096831,0.542534343581944,0.476793521482615,0.480006869569667,0.479548684458315,0.479892165290782,0.479361941853527,0.489230758312503,0.489390709188301,0.489540090844924,0.493062905102374,0.513398692727617,0.492665356716885,0.483488537899004,0.508160841413017,0.509034037326578,0.507051280094548,0.593057673520173,0.557045820549902,0.542607820893442,0.585571016850284,0.630220035143482,0.627577865634194,0.62667105501702,0.609507873276352,0.607564350370648,0.605286671521251,0.597461131361343,0.5988283032318,0.587320662034702,0.615250085418612,0.612474546600785,0.683673891412313,0.71304036987909,0.711417244391517,0.709155640607479,0.706939404454363,0.689294400974134,0.689293163405352,0.667318684827292,0.668591250887421,0.669815014400386,0.714077010672773,0.70026809615408,0.722122113104696,0.790472843504898,0.837464922779779,0.815882466975591,0.766733188359551,0.785800907307633,0.82101009660899,0.90024620499305,0.945450361635272,0.917176416597662,0.843690889279868,0.822221098736731,0.776123788257908,0.768799760346577,0.775706836729274
0.523875825395491,0.522224206538805,0.519638124603894,0.519023640908748,0.520351611273903,0.521388919231644,0.521346736293117,0.520459206590312,0.519197830785553,0.517525173289762,0.51661260556964,0.515655204848331,0.511750090932288,0.50914113193237,0.508959146712023,0.504600833522047,0.783125078288759,0.908472314605149,0.534075979064981,0.491031548237644,0.489641922545563,0.490966088225907,0.49003653503523,0.490373300148685,0.489828400583256,0.489758856915536,0.49152447746827,0.496285300686258,0.496543753465202,0.496188203451148,0.495910694199571,0.502196717304713,0.502548404956261,0.501753398831033,0.641151132323547,0.544116977940219,0.544113884120924,0.61528074193986,0.537810391634609,0.474932647639655,0.475770511533219,0.478586499000619,0.477872715875953,0.479327680971011,0.480101130182724,0.480775131305722,0.480766465707166,0.481213966634586,0.481536745141388,0.481998767164215,0.495768206911406,0.495708885260941,0.496280355718695,0.495811789101025,0.496219109175502,0.495057897067517,0.493776859718662,0.487399730925282,0.531867110794499,0.839828896488171,0.473067131810153,0.472137141277459,0.471053919487941,0.470386749355512,0.46570637162412,0.465785303988916,0.468113031919168,0.47262129839235,0.469321780692842,0.467064387258157,0.468332907296683,0.468507000340296,0.468823715411621,0.467298123424976,0.466100359277248,0.461260262052317,0.461259622413067,0.475820998872843,0.476031977639795,0.474613499530628,0.47312839527203,0.473757731040356,0.454840173326977,0.454745806886603,0.454729138849888,0.453989428969798,0.452132041549765,0.452247798715495,0.452517705856004,0.477237192492065,0.476067857135097,0.475891783692627,0.476772875944868,0.477676555890532,0.478992757090242,0.478374588799737,0.476822790473848,0.468104008413337,0.469899615429731,0.470854737410711,0.471796311310795,0.470267993854286,0.469217604672921,0.470337142941622,0.472017214248043,0.472142120983627,0.46766825164287,0.469322405999064,0.472479427968572,0.47814177268274,0.483240052739607,0.483583395644382,0.479565766654481,0.480573381870403,0.480259035285783,0.486699424568366,0.522406687383751,0.485720449384334,0.496330073212145,0.513840691436992,0.475060027722056,0.481962781176477,0.566786339085507,0.565276228656627,0.564727179448241,0.569750427506257,0.574370849487775,0.593930326955117,0.60149505260282,0.6312123304288,0.625263188411862,0.613349840656638,0.63959405162771,0.619280997017219,0.600093628220743,0.627448993008595,0.609622895350473,0.616703213547478,0.649311455504252,0.691584124227736,0.690469116977192,0.729897146055068,0.711736521567207,0.734556624971597,0.766990280156603,0.757175078559859,0.769702120426577,0.751080098202899,0.739395391787887,0.715135071531899,0.728109546108712,0.728640445341912,0.812996286642688,0.800040137111287,0.783226219075334,0.794761964481455,0.793517635085185,0.883970681039639,0.88210107231507,1.01932106753423,0.92093167348305,0.886909636624391,0.79483449942524,0.827457166620871,0.846975577975722,0.79420428297809,0.792270036334271
0.524048659645951,0.523263784331985,0.51999307590087,0.51975535048968,0.52021998529377,0.521626864006204,0.521519312942407,0.520678776107058,0.520434551548883,0.519313916059036,0.517790413382058,0.516298629178132,0.513734200969725,0.517455180874429,0.517909352905861,0.518928119176642,0.684136864682385,0.654248438810289,0.55945618422907,0.533354884940338,0.490904651491135,0.490919553390425,0.490540010111094,0.49084422730898,0.490899731300676,0.491373191479503,0.493824020511944,0.496332192259338,0.496473464824161,0.496499704178764,0.497122428633179,0.499772049260552,0.500886302270269,0.501271599630499,0.596028639982122,0.581482282064732,0.566939224301711,0.586746164169124,0.561525660151078,0.538876237472163,0.516063432712414,0.478490347159789,0.478899146757084,0.479817134159572,0.481067632032274,0.481351966344934,0.481931576355892,0.482567008171814,0.483252167918522,0.483468950538584,0.495779173249269,0.495960396378907,0.496870478840979,0.496913440917803,0.496872281582402,0.49643387976834,0.494230714969163,0.492648546206826,0.494530105413931,0.485160077745985,0.4742099665657,0.472786643326318,0.472080088178607,0.47228059697513,0.473202985642045,0.473305314347398,0.471864713467796,0.47223132030477,0.471050661435688,0.470194105168515,0.469485955665282,0.469893451596267,0.470854574600043,0.472591854487047,0.473873033083588,0.474915817412371,0.47568584350107,0.476262220035785,0.475877961692892,0.4738051362326,0.472969091356104,0.472810723788339,0.455156255021045,0.454988577729832,0.454492051454571,0.453501058670444,0.453107308604781,0.453217890834538,0.454534470036184,0.476814333067346,0.476793345621508,0.476969612645008,0.478354353260784,0.47920731442012,0.479609915190041,0.478871410791389,0.478143843378839,0.470112550110502,0.470582945419587,0.471939404052217,0.472353457636961,0.472466537163157,0.471677019617531,0.472077591801163,0.472885851080464,0.474145605449414,0.477393736312772,0.478292994472897,0.477091417819834,0.478882675468572,0.481872221242034,0.48167395284682,0.480779473483778,0.48248016320282,0.481399140660911,0.490597154496286,0.496143295169367,0.498111053474565,0.501770904812193,0.505558627895012,0.528751861938825,0.545723929814134,0.566232377551666,0.564575136941766,0.564446422975608,0.570449560069197,0.577024666752672,0.593505364950148,0.613415997714916,0.631984463724502,0.637532651025557,0.640459416790684,0.643106711390386,0.646482469352596,0.649865362617104,0.652296111842511,0.654467104788139,0.656846489959077,0.671001292551733,0.702004105301945,0.71862706199461,0.734904340758088,0.744733191497822,0.756071417681889,0.768173809090544,0.768396110974146,0.768710907655649,0.768359717628318,0.769474027563709,0.77058532683018,0.780731204679647,0.784004364385207,0.813247576521144,0.821672974471847,0.826508773334158,0.829970975769785,0.83216178006971,0.86532475904685,0.880891829905754,0.883041833331625,0.883564071950734,0.885328003847229,0.844021877880625,0.842894907879133,0.839887206496173,0.834270120791964,0.826807498114615
0.525649438896158,0.524444405548867,0.519160672589067,0.519296634688086,0.519760431539548,0.522640480888748,0.523035216127195,0.526099569301646,0.522631555628153,0.521198673368732,0.519291938735521,0.517538029623765,0.510161608811772,0.519664000994875,0.520528477738328,0.520205981020947,0.911723590919594,0.609521030834827,0.573369591297106,0.592145311148079,0.491980976279065,0.490645627145945,0.491020078412106,0.491590189167912,0.490750294057351,0.491017162436838,0.497223469558279,0.49780242561821,0.496878573334856,0.496690197084355,0.496447772126687,0.499564504664071,0.499742998663334,0.501425476211295,0.652136603764197,0.59881400131281,0.546866502753573,0.616971214787639,0.591900320239554,0.615349592372637,0.621767078187104,0.47833436620788,0.478924296491646,0.480236229139132,0.482897964592188,0.481617302481593,0.482999508150545,0.483986341668707,0.485207270002037,0.485428347789565,0.494896511236944,0.496457516159121,0.497686268882989,0.497868179237118,0.498872053002802,0.49819629831654,0.494564535944243,0.493273099331391,0.495049576578334,0.479746343599079,0.477167086161248,0.472651679265096,0.47280898495095,0.472677532794264,0.472650965517468,0.473219914494534,0.472644383377304,0.473333374025306,0.472687703557778,0.472730306927478,0.470295309966924,0.470004378233052,0.472927878710677,0.474199137520857,0.475891801636168,0.476453427914455,0.475826889148104,0.476717829329097,0.477619851073492,0.4800754049561,0.48180004157381,0.472696142058956,0.455219407732634,0.454932433615122,0.454173727819301,0.45279669158375,0.452959359800323,0.453251670778221,0.45744627002884,0.654362284780944,0.477556639446791,0.476962305171966,0.483000658957259,0.480918615873293,0.480932866344161,0.479484698892716,0.483136218511037,0.470569835296537,0.471065879430818,0.473613412090501,0.474155378000854,0.47396582898074,0.473861986051582,0.473332353412042,0.473622940717923,0.473500452545539,0.477515456835696,0.478577731271749,0.478509297635943,0.480036693755006,0.481092870607092,0.483644173840222,0.489750012254354,0.487540739365371,0.470493874614503,0.494055258699567,0.494974077729404,0.505778586954511,0.504935454724442,0.493830170829353,0.554468548955699,0.554986627574412,0.567503683554534,0.562767645159685,0.528984420464362,0.571096594983543,0.580534453524029,0.593084604947336,0.624423154109983,0.632834744213275,0.669095896988246,0.667790312728088,0.647634193650581,0.658908860504955,0.668827845268209,0.667184701476858,0.660681128794105,0.660369578002615,0.682601495191562,0.711905451258022,0.768960585860867,0.768952174322295,0.769245638550294,0.770311642310772,0.771347306042039,0.7952004930153,0.787464509599365,0.767015412719808,0.769338869054121,0.771423490230228,0.788371365862691,0.789003696427025,0.816538174524962,0.822396910800309,0.827856368901151,0.918898117300587,0.8361052120562,0.851346193013522,0.877296654721761,0.875169126427316,0.866332471142475,0.889558299805864,0.853635914801249,0.84571661592795,0.800519360376275,0.84896829619264,0.831077459273955
0.525318684909685,0.526789719231309,0.529761811180027,0.531400495807215,0.532173173213324,0.532589386139932,0.532219508363137,0.522774855465742,0.522301930363645,0.523465369636868,0.522232474970054,0.606372778119165,0.523946731329475,0.52295504882053,0.522373736779227,0.520643036534818,0.520369435323871,0.77026105039255,0.560731077162607,0.52493215822693,0.800421905407,0.492049565446472,0.494903442219651,0.493969762952377,0.494556285385723,0.493066874622614,0.498238608405712,0.497518962029,0.498024554358429,0.495871115461697,0.498459549268587,0.498993612603969,0.501169558173969,0.501302501644625,0.567473479460478,0.544176380076838,0.544600630250647,0.55494262685477,0.570720939945809,0.748494607827735,0.751168890071016,0.708468238015624,0.480347132513661,0.480602095386933,0.482341639692555,0.48290730608212,0.482852163228168,0.487202736583961,0.488834293320008,0.490010845853341,0.492483115795275,0.496743200459956,0.498619205516269,0.498686592300125,0.497796692432935,0.500004030049645,0.494443808401598,0.49690215157911,0.495697581834865,0.482753001286748,0.482854558059594,0.472707372366976,0.475320226907668,0.4740490839211,0.472965303730067,0.473350608074778,0.473001459992072,0.474672828300554,0.473606129342009,0.472803038415844,0.472621095083475,0.472029959937522,0.474393693732662,0.475537526052629,0.476879692966618,0.476372238798475,0.483505620742175,0.484280402587261,0.485334163992944,0.483651499422858,0.482720422633768,0.482974887102136,0.633822534612893,0.528952550722025,0.579726791332806,0.461361493262002,0.452754280522216,0.4607734058524,0.459899360548111,0.461106847476509,0.468989855226858,0.468807776174138,0.482116812107699,0.480783064792508,0.481208743374651,0.480124184070218,0.482796575095977,0.481678026517758,0.478568753310416,0.475153083556994,0.475129055486322,0.475831148963572,0.475154059466797,0.47425454515827,0.473554597849374,0.473850145681734,0.478558733001241,0.479964789269921,0.47886313218671,0.478826464138627,0.478605985151566,0.485075650479404,0.489046829627875,0.489681448826416,0.489836196661718,0.498155943956701,0.536217573680334,0.503495727557781,0.540519762843583,0.563906677246982,0.550880546536124,0.568087617080781,0.567439543027924,0.561178358478126,0.54491363200496,0.544848662133383,0.612519090563316,0.648669782681949,0.652904302914921,0.66264561551786,0.683321220653762,0.70748224276015,0.668183010472493,0.66856685343478,0.668868166425154,0.669513738239488,0.682195459060084,0.67029465049599,0.697426878007189,0.709764540358335,0.728746252144477,0.776566221000527,0.776671412221132,0.789395826440239,0.801537106117879,0.792993237918339,0.804644016447831,0.958639238976761,0.91373594646837,1.09038105423929,1.15064367265296,0.839734044654881,0.82373245716058,0.823754203297705,0.825135614246956,0.878977864500091,0.906758967168085,0.862666509813175,0.875797798879808,0.872684329218116,0.863812662448392,0.919941347268836,0.868485852983417,0.852570713410931,0.837783275087468,0.860516220282184,0.842927030035288
0.531803318435378,0.530834172801721,0.531508026028645,0.532073449656962,0.531970629276585,0.53257396001409,0.53173646213966,0.531522570252718,0.53171002746616,0.530483490230194,0.662621652764746,0.662346304403056,0.532433800447954,0.523375777114718,0.523797408990294,0.52257475235993,0.521666927388765,0.521133273734476,0.550528349679901,0.720277897849748,0.82490903729503,0.496106205671097,0.496064045760426,0.494778092792318,0.49369616531843,0.494033604548823,0.499820492589099,0.500888587692985,0.498872962186786,0.499780048124304,0.497888001750405,0.502640510173772,0.500845172075489,0.502036888411949,0.501653553151322,0.641674294210901,0.555873930273102,0.555654336084478,0.555271829974046,0.555092822666942,0.721510005799061,0.721066351449002,0.492899954347896,0.487541583351793,0.483940856771772,0.484120137411419,0.486253911061226,0.4929353091578,0.49212926837935,0.493419199233956,0.494774441849408,0.498371427533055,0.498751057602269,0.49887589335472,0.500057198046652,0.496964083685157,0.499033300334056,0.496232699728311,0.496902469766744,0.496513258245909,0.483667445462142,0.483498904932336,0.476299830763256,0.475100894747549,0.472663747086854,0.471694320869448,0.472648804516745,0.475045961018948,0.475092203444067,0.478202661202008,0.482504432878004,0.481259158323952,0.480297951864502,0.477289653791605,0.476264229948906,0.487770563833841,0.486828206210153,0.487034091047466,0.486835612669979,0.486619221674849,0.485834674020724,0.484937749679885,0.489785258716181,0.489869512509742,0.489646328683843,0.599162054257638,0.771515896403721,0.652302740921522,0.599321982994704,0.62820914062322,0.469505047933668,0.49942407157025,0.475876778873048,0.47805841526076,0.479455133411176,0.480482748160098,0.484256394008467,0.486283172560858,0.48727427873196,0.485478830451661,0.47671724855078,0.476078139346006,0.475400399776831,0.47449704029488,0.473898720297718,0.783289359163853,0.487613104743566,0.480233512831857,0.479003637116803,0.478069637988024,0.477855443724918,0.477551175226541,0.497393105975777,0.49051361759158,0.489462318349477,0.49163805660514,0.535490530394428,0.590717253863613,0.594522309435957,0.598233652026202,0.565528097746097,0.580218086224343,0.606724543246727,0.559174353879521,0.55494799594715,0.612600769344122,0.612196525961728,0.594436891311923,0.656421880257297,0.660857288319264,0.669713706156797,0.70673478040583,0.689014576117628,0.690613114056698,0.692137583509252,0.710820633608393,0.71132537726861,0.711382945615896,0.721758110500712,0.728545514362286,0.791215549241365,0.78968886521527,0.795224096663114,0.797707216825098,0.800939491960996,0.800341880403094,0.829985037969597,0.849954909824858,0.895698775260681,1.09023873935761,0.924414984675842,0.829058114402679,0.836993406007625,0.836696118877982,0.837083248138597,0.850412483076287,0.925112946362206,0.95312608416534,0.928929539705815,0.908382665642866,0.91613466224244,0.96568382568166,0.866609774474653,0.876540854537721,0.889582843017658,0.959531737057928,0.95576232171737
0.531692224182568,0.532655413006849,0.531779172474476,0.532695134235098,0.533048184344784,0.533457659491379,0.534644201051354,0.531867480074006,0.531964508099199,0.530014931739059,0.529696225969669,0.88834929953992,0.524237071942444,0.524458300386604,0.522774425543739,0.52237930848446,0.522263923708609,0.52118709095187,0.541616215254763,0.783087024526586,0.850651943335052,0.495941532499685,0.495841194436717,0.495105096202514,0.495196976518971,0.497122059135764,0.499956167441783,0.498899473577503,0.499974526255094,0.499050089054585,0.501071075778064,0.501502873235019,0.502799815557928,0.502999262459301,0.504314886924134,0.639063125484194,0.555583239521153,0.5556618306228,0.555102662980574,0.554570091177297,0.552721592438505,0.628148811488028,0.492764299013156,0.488971773369395,0.488321576519514,0.487871724397909,0.489388594274901,0.493282910085592,0.494304649654373,0.495004734085071,0.497999468612801,0.498308821939661,0.498877494575498,0.499772502086396,0.499186142859257,0.501784132172534,0.497072969664931,0.499421000951221,0.497499576305837,0.496672310938145,0.483369708112388,0.483461180503546,0.481513129548261,0.478302945922711,0.470376058320737,0.471141049498903,0.477988735327943,0.484068277278428,0.484556147377122,0.482242968770951,0.484869663038194,0.481778904664156,0.481864653958893,0.486535271397836,0.490792720592633,0.489298720248851,0.488542955622718,0.488378827160467,0.488439996170233,0.48870192831361,0.487813289291701,0.488013183280754,0.489852704820326,0.490143181850305,0.490144348055132,0.490437541727228,0.481561347236945,0.557521028894989,0.582334028807227,0.774938878718216,0.47012895157402,0.582684564052846,0.475567774384265,0.477309439093424,0.477751300315657,0.487514647307568,0.486800990830172,0.488192883144921,0.488211535822847,0.488493124605523,0.823366467715884,0.67881321918876,0.713534028679441,0.485781338460189,0.484922839827917,0.485581730801849,0.487241768580881,0.548138456123924,0.490193371356499,0.483948634011544,0.481201780022663,0.479874643714981,0.481638782000438,0.492154604770378,0.491664373419875,0.552982112742889,0.55261704347298,0.61041469348466,0.608981545711612,0.607487136097131,0.605971725288965,0.577356939727746,0.554725416348494,0.55645657441275,0.555337169085252,0.62124332337741,0.6209496528391,0.685840975448567,0.674605852017786,0.673466183378768,0.704299030299015,0.74913612740598,0.698258691130159,0.708322008501521,0.719244387598084,0.713817202772495,0.71034232309688,0.735031837749354,0.734114097245942,0.732889238784588,0.750316238507098,0.794833911650613,0.795050753310965,0.800269269241227,0.801453576329527,0.818424996972099,0.844199510348782,0.877997254756351,0.87674229211209,0.855068036047903,0.840351440036935,0.927416591184048,0.846493873711345,0.869496905558762,0.936614464025877,0.942303965373594,1.025161533109,1.02398359455521,1.0128762327428,1.00666075289313,0.952745546543863,1.03048659824045,0.930080354536919,0.908821859557752,0.876531687086278,0.870034784232698,0.947696528827168
0.533384021305449,0.533940944682951,0.534130645681777,0.534453231197427,0.534507713270105,0.535099710105775,0.534443878786891,0.533947344859501,0.533011792623883,0.532320394021023,0.532025460033564,0.531970168964655,0.530147922062305,0.527999210972444,0.522211655654162,0.522627685963257,0.52279672667529,0.522577214077907,0.533047902807098,0.58587206238142,0.640672500330865,0.612375517434068,0.586069189618435,0.561489170589187,0.536355712946013,0.499000548085694,0.499455511628506,0.500257218623692,0.500327343053583,0.50096517517837,0.501257461741349,0.503254787245561,0.503178224169014,0.503888377559268,0.504318868779037,0.588405185576164,0.55487786601807,0.554946770785166,0.554948230215158,0.554938217025507,0.588330376554425,0.605517972981374,0.500509904802457,0.497402263000421,0.493665889978686,0.490590679345898,0.489448846000281,0.49239492210864,0.494946976873046,0.496455756873503,0.49779143631061,0.498997264802111,0.499749893005645,0.500744227466796,0.501499563656458,0.501606202966372,0.500523288273171,0.499864711861952,0.498654444271807,0.498115703212853,0.491424824614092,0.488476650197973,0.488611784534235,0.488154035686455,0.487516800683662,0.487003945789002,0.486498788329846,0.485630772460802,0.485267735119159,0.486044759797297,0.48690657604377,0.488760189502595,0.489665943029645,0.489455029358976,0.490668457319476,0.489815354745731,0.488992129194088,0.489348841016667,0.489306953405504,0.48962530262006,0.489903419469732,0.490264011072773,0.490426929011896,0.490520216139694,0.490995873917697,0.492246104545905,0.49439591127386,0.533271912938022,0.559614330511324,0.60115170893498,0.588559053925407,0.582648263334869,0.539696489615985,0.519105625191241,0.487961068793122,0.48784261030463,0.487853898518332,0.488248446209096,0.488898528518957,0.489211260016763,0.489508506966565,0.489052098677288,0.488436854816916,0.486821369186223,0.485916977004468,0.486272447800547,0.487396245536434,0.520035231253108,0.499886497024538,0.481801511163828,0.480327641665825,0.478964109737802,0.484466785099936,0.492933996090721,0.492268101804537,0.561784546442854,0.57719449336104,0.60949475239691,0.609281930204114,0.604123590161469,0.601513850231858,0.590683873765842,0.591289080174567,0.602583491975503,0.608788978539562,0.617281578132607,0.654577654399347,0.6810705811726,0.676556056591474,0.67467591638548,0.720945032492548,0.748408600183297,0.747001537599616,0.74468533589381,0.741523826195855,0.737720788756675,0.736575116161589,0.737666324894728,0.747680594849974,0.755961417150488,0.766147316711833,0.798042788656445,0.800910464087559,0.806731226803122,0.813304991029826,0.819302906885778,0.857376125439833,0.876636246322839,0.875500027473125,0.873259639073625,0.871211195235321,0.879570058533568,0.882038429098118,0.88432377328896,0.910446853517458,0.973853347653201,1.02544393050379,1.02504142107461,1.01569583361019,1.01298703445634,1.00460928506683,0.993238833989413,0.94575480060895,0.941809249811163,0.921544314517485,0.918801448766245,0.935009912448813
0.535113500444434,0.53655715121074,0.535715753523123,0.536158940209984,0.537045369521943,0.535282072057939,0.536906990487748,0.534557117748617,0.534565507666772,0.534261183117621,0.533852351067584,0.533984917620328,0.693057392068271,0.566711120937524,0.522060618258847,0.523341717314601,0.523702510180074,0.523638698611889,0.523515941965654,0.522282205065104,0.736512932188909,0.801766780826199,0.798815293860362,0.781302795663049,0.868285685469303,0.499651336673523,0.500097438490427,0.50064794896392,0.501059411252577,0.500414165924268,0.503417532228322,0.503267045342384,0.50533084596937,0.503974922760008,0.504815248015879,0.627676953482865,0.554135502423279,0.554339990283808,0.554861253708262,0.555338869959642,0.699114120561944,0.700798386718242,0.50188110282957,0.501514136666745,0.500507955671515,0.489560063882308,0.489078409938439,0.490207328426392,0.4971167851449,0.497268792670496,0.499131455852881,0.499031918760044,0.501285268421353,0.501948379289223,0.503468626354191,0.504089192681256,0.501773773469258,0.502962928855259,0.505540768393966,0.657908709787366,0.501739633231811,0.487588093824337,0.813343478015713,0.493062123245004,0.48796341400079,0.486776408159201,0.486733027442848,0.486365672534603,0.485449569009201,0.486775947880101,0.488070680436586,0.491595428303786,0.491004259634289,0.490714418687853,0.491645346379021,0.490007453546601,0.488947023639514,0.490055038481914,0.489978240709844,0.490738856639279,0.492204522188498,0.492520761125821,0.491349248063623,0.49080388022722,0.490802831064664,0.493332805473858,0.496704858144942,0.497961573626881,0.536735210244429,0.623344756048802,0.59354253348138,0.583564437844076,0.582759657857479,0.545430500051578,0.488143071751768,0.488078491770558,0.487717869788611,0.488387912817822,0.489048016044076,0.489526032216597,0.489955861803762,0.489435963623862,0.48929424788829,0.487289864184707,0.485736763434772,0.813816829692153,0.48847838019553,0.547538877301257,0.507201096735803,0.482296133548644,0.493819206480943,0.478952937270661,0.498908034177116,0.495981408804354,0.491817100756617,0.569127426118122,0.605277572570152,0.624033435915901,0.613320724609068,0.573656752875048,0.594800609221629,0.591685176231972,0.592911104131446,0.624983758625504,0.665744312845996,0.613632626794042,0.705641585368796,0.706965113840794,0.690667980741869,0.659805829473776,0.849262505338061,0.861949856909478,0.750074095442207,0.748876608098946,0.74772329954573,0.7347579087358,0.734315212957181,0.739570605237611,0.754332020588949,0.768914058676178,0.778392489258891,0.80210524826461,0.818310882130017,0.817642168759979,0.81904023453933,0.820445736845195,0.897663188916649,0.876671953368484,0.878620465728726,0.892410419342231,0.86994387398736,0.863229939347658,0.889098852845361,0.889673887705996,0.888641469530371,1.01829856609263,1.02972380248555,1.02710239534789,1.02750955608908,1.02698683174156,1.01979425085001,0.970250277552679,0.962101203067061,0.944736406625236,0.923236956789038,0.914961191666411,0.930399258435404
0.536290860119287,0.536298243436604,0.537054463746714,0.537764513439417,0.536646061368829,0.539971407547204,0.536534757803443,0.538436998609188,0.535381336744813,0.533505123062238,0.534724097350451,0.534048300815018,0.669726723293528,0.584304511351132,0.625198252708252,0.523972908679004,0.525003219871216,0.52517286292944,0.524587554330026,0.523923941071976,0.524248749435355,0.788849849418254,0.740064926355082,0.768182190323734,0.748104479749174,0.499464104735228,0.500081484709628,0.500485080906021,0.501011160607709,0.503229618068234,0.502221781854195,0.507446029682065,0.504647615060355,0.504211447014781,0.504207789315767,0.62891200815407,0.638797465380016,0.52577792236795,0.529246539258025,0.534272081453948,0.643716512779149,0.712470393755355,0.501281018081128,0.500617910825888,0.50078334655713,0.500249862597218,0.496122352459386,0.497832110692565,0.501886117387508,0.504114768740177,0.50316512262079,0.503922146686407,0.501081246505953,0.503840281879573,0.504330171242867,0.506548016695246,0.505886677714619,0.507485680337418,0.507545650308151,0.507648853478367,0.50729206356746,0.643204179199366,0.500403824290439,0.496456998161664,0.49433902878518,0.494123493845068,0.493447638273789,0.492507244167334,0.493625537127507,0.492470976131605,0.492895612559247,0.499480513008528,0.498591576467913,0.496451210254501,0.492574148467813,0.779684925375513,0.781621026542385,1.25905976922458,0.546153620260089,0.493646259737883,0.493877314833659,0.492264813609178,0.502674982243753,0.503237103039987,0.502881824406372,0.502194095269247,0.498520092244445,0.49818016308858,0.499667884463489,0.499770901759407,0.499002199194643,0.49825923748855,0.851459425605019,0.572348354682146,0.487164071355586,0.487518020518339,0.488243725089206,0.496499296100499,0.49216434287896,0.490531143000488,0.491517300444031,0.492887555922443,0.577131286114458,0.551840343668801,0.795420156032825,0.89366568855766,0.500627850602792,0.517269166072831,0.516771687258789,0.516721260140931,0.522159807814957,0.528653134520934,0.49813351945614,0.542565119444828,0.570292242736465,0.604037733130897,0.618336402632589,0.644876426920986,0.631596830696408,0.627445838604923,0.608207093253751,0.60765887164176,0.632218707854851,0.647457061507296,0.666015013244038,0.666067758234735,0.641324695177749,0.663625127379596,0.694731834389555,0.737309276773183,0.861364753952106,0.861691854811763,0.791743791139198,0.777309264837697,0.768769528611207,0.755574154474208,0.733727214007026,0.768724239789437,0.768854346838855,0.768995421501109,0.794784597932167,0.79369957630587,0.814261180759266,0.815719200657991,0.815416267925893,0.871470135919536,0.877779718730597,0.883561434715328,0.881250073581797,0.882085388541925,0.903207842122535,0.90166239382754,0.89300589019429,0.898979672179012,0.903792568837385,1.01495107262439,1.04224663697339,1.04861268444426,1.03587899564833,0.996442403523887,1.03878463837275,0.987420888749548,0.978750856826944,0.976339624233749,0.973820504410505,0.981146752249213,1.01378938799771
0.545289686572811,0.544499885156454,0.541681454558103,0.540701451808835,0.541068620206795,0.538366399046243,0.540701930705308,0.53756650313788,0.537080808378565,0.534085352668487,0.536918727498528,0.544570234024477,0.544301331698671,0.543802998360137,0.543469796451732,0.525615298727108,0.526277026442713,0.526545300994212,0.525783990076209,0.525307484633916,0.525475117572164,0.525294964716737,0.798830144147026,0.786361626159438,0.799905859096112,0.727264011699771,0.507396426654576,0.50861335090698,0.508460093972698,0.506193911355316,0.507560307480672,0.505634206203908,0.509869978332887,0.51032823801996,0.516102325198791,0.519124492265121,0.519852975570194,0.524622775757088,0.524552206730906,0.524654195080833,0.621249014707214,0.511713805744981,0.500290097874872,0.499924731206635,0.499901145615741,0.502404143843053,0.50183429042766,0.503027304961133,0.50349777680856,0.503721686324071,0.50599947401323,0.503263829940885,0.505289967073919,0.505218274778641,0.508188591753122,0.506777975549051,0.507870858752176,0.507839773042433,0.508226337929678,0.509010013147349,0.509481754289147,0.508738558336914,0.503872273582367,0.498801556664438,0.494786174198656,0.49415287235256,0.497012644274116,0.500407124854859,0.50151432147288,0.50040875949519,0.501465460931495,0.502524247794473,0.503977664582447,0.505902814859717,1.07319653212656,0.927282938946694,0.967145073996285,0.967693519609963,0.966560729684833,1.25636816165624,0.501615853126939,0.50298611013682,0.503985655860269,0.504091728330777,0.504018530639737,0.504092703481985,0.506209811615294,0.500189463243606,0.500122164039618,0.500688833299344,0.500173628043456,0.502758029979049,0.505785597586945,0.60011466121085,0.750033155446839,0.499601338593379,0.499463520194264,0.499534241479376,0.500983595190169,0.500704968652859,0.492086116998516,0.578819759419864,0.577307791815251,0.532358453136544,0.504252920234317,0.503004168242245,0.502315920682661,0.512587963598274,0.522029683606286,0.566421948247033,0.520929014986563,0.519764234505718,0.615766546111485,0.609513141341162,0.602051620927333,0.603200083209436,0.620658093652294,0.644022986470019,0.635893968766399,0.630730222493183,0.64813312058952,0.65639392704843,0.664693923515785,0.662951167684225,0.663335952789589,0.652978836985915,0.689053602010372,0.687432073382144,0.702645124589749,0.766787692798912,0.750234817213421,0.857347971587096,0.82926944161409,0.811896795611213,0.789036405689746,0.80854257839731,0.803542870732591,0.817059140412889,0.82202739005435,0.827568501396293,0.817432189934447,0.834090203396167,0.931231248807526,0.971468623062584,1.01616537581439,1.03032882823055,0.904147487863178,0.9038500995016,0.898009223765352,0.8916610432395,0.903338771099538,1.05146257446236,0.945625589626952,0.952502619554689,0.960254227418885,1.06236822581736,1.08825406512179,1.07187288271151,1.07300802905671,1.07316442012369,1.02624326488798,0.999378547447139,0.997844638714464,0.992416734942416,0.986416363697793,0.995703001685572,1.00125940013954
0.546638599356959,0.544427034555901,0.544351833900259,0.542874297842262,0.54139288030557,0.541617962317077,0.539205126827651,0.540473329219923,0.539135970959663,0.540136577239247,0.538228108430461,0.545002916226747,0.544257743773911,0.543629314807927,0.543158328501945,0.542475225312725,0.526769154213922,0.526561389781871,0.526524911269868,0.527076649255105,0.526695487038793,0.525893918027326,0.522074224549493,0.521168211694183,0.519366222177975,0.518402475196439,0.510533550043927,0.510365224130575,0.508676013146724,0.507830780560743,0.506738623610724,0.508507226258207,0.509122822471532,0.511512023007011,0.517627813897877,0.518221871708721,0.523624847233544,0.525031266333614,0.524321025727421,0.524607197766918,0.589155771087202,0.511944616802148,0.511771421829437,0.505044577331938,0.501302982912272,0.501255925642476,0.502435854559926,0.502860028009463,0.50390496778023,0.505316468749085,0.504755961915881,0.506390356213339,0.50381557950078,0.506747404595257,0.508068262260216,0.509171861929463,0.507680019775745,0.508213856031293,0.508520515202519,0.509322884549661,0.50908025683231,0.508539945052704,0.505834000095941,0.501225472600854,0.493114772228657,0.501993579691752,0.501655672905973,0.5026842339613,0.502823405852324,0.502707544335378,0.504723423880857,0.505229939142451,0.505723709931508,0.507478722417538,1.07058536340509,0.785063963879761,0.846231209939913,0.962687801617909,0.964901415587866,0.975484989618619,0.733117794090638,0.508581867107806,0.504991223070129,0.504377314101558,0.504428266501047,0.504151110334495,0.507771550556742,0.50705412059719,0.501851604126848,0.500413935238275,0.509390778414112,0.50876763758983,0.86042340694813,0.628973660366271,0.861806336353931,0.499730435216151,0.49976373593405,0.500135949412956,0.500302873609144,0.499358549809567,0.579220954716015,0.749938485111048,0.505624885782287,0.5055450671416,0.505249560259988,0.503995811322819,0.502649780482594,0.501716000484444,0.529867903405215,0.553131844914134,0.559026298290508,0.628514498540489,0.584123393846205,0.610997352611205,0.617996113237085,0.625322101063,0.609602466699343,0.626537559915908,0.655456403342872,0.69511787297782,0.647092370349042,0.653341579450924,0.663086102076153,0.669434161809379,0.674144300284109,0.673748633641152,0.715341780925861,0.686423622785888,0.715109120105125,0.746645661828687,0.799502118054597,0.852212470582148,0.844142516544672,0.845167248984846,0.890614890219645,0.872245442147258,0.871908836646824,0.82217838427831,0.828153709949763,0.833610510325301,0.833368336379314,0.973025025122006,1.02916863835985,1.00501719751009,1.0777382331726,0.929103569079075,0.927012456784295,0.910666209624178,0.914770815398253,0.925331134491382,0.940825233372365,0.939832540342238,0.944992914920228,0.978497343111698,1.00390465326986,1.00846182309086,1.03325245744311,1.04284014894291,1.07391914092323,1.07445986873981,1.02556872073315,1.00694017134198,0.999238370498858,1.00615194973912,1.01250050779333,0.994601605340656,1.07271158972111
0.549431768914349,0.547525951436309,0.545699680791495,0.544232414785186,0.543287896215827,0.541775143857134,0.541664157346948,0.540841870057547,0.540666934294752,0.540451362121356,0.54262449884674,0.544177110277701,0.544068003320263,0.543222337793679,0.542746057979462,0.542470680627289,0.526986582953106,0.526860877448543,0.526756998908077,0.526642440488476,0.526485382012851,0.525291897473905,0.52348001972095,0.522234088777537,0.521309365783824,0.52063406168628,0.510238839970367,0.510052661871689,0.509272231300916,0.509031384250734,0.50786557367263,0.507617232844741,0.51142944454517,0.514221823278741,0.517228009446363,0.518877209811611,0.521029296429462,0.523483588123577,0.52436099690112,0.525152446749519,0.516236302024147,0.51158697267103,0.51083489958511,0.508475692389121,0.506335267718317,0.504732527470266,0.503841620139015,0.503767789075232,0.504484101655752,0.505261469404781,0.5059839609081,0.505880870843026,0.506754027352916,0.50734989571838,0.50845385104311,0.508723188141092,0.508858788633367,0.508434339293995,0.508683231502527,0.508702287737882,0.508790344960366,0.508168359974294,0.506888854621708,0.504681486899622,0.504634921745367,0.503910298442015,0.503915133066469,0.504139445048435,0.505398417472207,0.506361981453141,0.506382568618835,0.506048954124441,0.507411492602869,0.509829416859778,0.562091586323977,0.589644597290186,0.616991465534502,0.600070061614059,0.583373679315264,0.566094643269738,0.548202228020393,0.511657097314912,0.505013047819532,0.505013856621244,0.505176329739211,0.505994501251728,0.506999785569396,0.507758482533493,0.509576377873168,0.510045528249552,0.510125616086163,0.509679566821981,0.556578097974066,0.593723968028941,0.623139887928296,0.500216820759722,0.499932377285737,0.499941654876771,0.499911373707882,0.499671014040315,0.557299107285635,0.539390537760042,0.505607876418141,0.505585438905818,0.505237449783249,0.504184607060713,0.502933018808416,0.516425792725764,0.538361471793768,0.552748174690794,0.562727229302499,0.603862844769564,0.607572273019304,0.613120985764223,0.618561616992046,0.625615995465998,0.624099314474082,0.653013708696963,0.661000737453203,0.683823257323665,0.681224842877231,0.669685258554734,0.672161952222067,0.675546723800159,0.675063152811991,0.68686922036038,0.708034217559751,0.70177208513668,0.725834048628514,0.752027885601294,0.775533772453305,0.848927572322251,0.845712684357687,0.84564663266532,0.846052718775781,0.847937300441458,0.846981686145812,0.84557729700702,0.856010974356692,0.857088674718761,0.863949743927537,0.97966205274158,1.01115762282045,0.991709995370751,0.972634397797792,0.928510061082708,0.928404830705279,0.919255938930058,0.920823080173131,0.922631579291365,0.939289468138423,0.956894480787751,0.963610418972035,1.00507700364756,1.02336206374756,1.03254256288423,1.04222646390991,1.04912392395147,1.07419650138705,1.07436564710944,1.0333062696274,1.02593503139792,1.02330487776836,1.03962189365047,1.04785558453979,1.06151350200751,1.06986106878784
0.55577399171609,0.549307043875105,0.547235590610097,0.545297488321394,0.544591965575871,0.54238709822558,0.5427435731933,0.541780166543474,0.541266444067845,0.539321035228879,0.546129263918675,0.545772848436859,0.543871170229959,0.542765231776262,0.542274910497321,0.542319102714606,0.527149741200933,0.527124723197308,0.526647662153528,0.526847974571415,0.526436685978425,0.525991135051044,0.523858588343297,0.523394827423123,0.521962936591541,0.520270487706635,0.51245376725985,0.511624358299641,0.510171565750972,0.511210477770652,0.506797133673754,0.506883898797401,0.517268985933989,0.517090063279434,0.518280662441794,0.517824499353446,0.519053457815771,0.523565836689695,0.523843564910872,0.524528023575472,0.512462753405302,0.512599690218588,0.511966586960341,0.55739371405434,0.894799876298526,0.505789246086328,0.504849879967844,0.503409690276984,0.504732323164037,0.506395668025979,0.506163008600219,0.506780619581346,0.507807599545878,0.508599954157315,0.507788759795577,0.510727899672882,0.508512302979049,0.509286727398205,0.508685406368503,0.508201401265731,0.508977599767034,0.508668288599926,0.507353727405778,0.505636621589423,0.504813535017571,0.5034972977235,0.505814238594089,0.507643360423168,0.508087336648897,0.508402488451803,0.507463917584213,0.506296162854921,0.515294464570667,0.514849754806705,0.515965942448536,0.525635917228466,0.658143529344748,0.512619706412422,0.521129718891167,0.52180875787115,0.520156891754236,0.519301968652763,0.506614073049078,0.505640693874104,0.50560556989978,0.508007853837953,0.507419120032759,0.516503503126982,0.51643065014318,0.514938145333073,0.511527389062878,0.509718774618694,0.508210100514963,0.564558493608994,0.867115300247345,0.501036371020872,0.873562164444417,0.499962391146661,0.499833531185684,0.499848372706125,0.76667100278071,0.512833298689119,0.505414858884481,0.505637711599655,0.505618408058157,0.531254697450027,0.501643602847679,0.526976851455979,0.546146591124306,0.552773508745106,0.567281315800375,0.597562662000692,0.645588129133507,0.632821719014518,0.618499761788777,0.659506967799866,0.622529816304908,0.729711953914918,0.721882172501562,0.722883346816343,0.739974896271506,0.669806744174458,0.679233502533191,0.67791309392156,0.654580398387479,0.717769540204999,0.717844233522402,0.693189571600981,0.736441339139509,0.757437403552423,0.757400026892696,0.859034000657822,0.843650648939691,0.844574457735292,0.844229767433974,0.848909441080548,0.847861207837931,0.846256590745072,0.857104373761067,0.859473804563898,0.868596612006126,0.986585942593861,1.03535005467465,0.977655586565103,0.945329703976137,0.927611875920082,0.929427831200917,0.917861949491889,0.920099928182067,0.921444050902742,0.937716351631341,0.968019645944622,0.984061008340631,1.03473038516635,1.08691444917625,1.08638231531282,1.06505983362315,1.11952311995388,1.10739593335139,1.09644954681228,1.0446964294201,1.02864443818895,1.02075267396763,1.04241461974477,1.06058310292013,1.07454566167693,1.06756090847106
0.556699319959987,0.549860169388802,0.54641599383933,0.545481362317468,0.54552048457451,0.544236387929006,0.544175924973493,0.543398180449815,0.543954011803592,0.544031945279573,0.547016587480309,0.545691810202645,0.543261835351835,0.541699756096925,0.540726365420096,0.637424648052033,0.52726482007855,0.526734663781616,0.526402383431023,0.525858427010773,0.526709598524014,0.524858443719202,0.525078549369983,0.524508213549339,0.523248298657292,0.521742056907054,0.521180329642792,0.519552393062227,0.520569492688925,0.518300445805072,0.516341342450616,0.516230085781117,0.518221825733104,0.51754318195242,0.51750143556104,0.51743280863589,0.70656183694574,0.703692026375823,0.528810964707389,0.526191950067164,0.526185208436357,0.525352999281296,0.689711445418676,0.58437321446303,0.519483045001754,0.506468996746287,0.520404830262016,0.519800071326057,0.513840086652742,0.50760835485565,0.50851101583729,0.509069475960581,0.510276985045409,0.509881818050453,0.510772405594975,0.511231726754458,0.510362330114824,0.508825159171065,0.509452370917753,0.508802571178133,0.508778354910065,0.509177850703603,0.506616624213383,0.505608332158674,0.504972960422338,0.512140299224034,0.509749672464868,0.511276082084298,0.509811725637748,0.509386638061337,0.507553952828192,0.515345019347813,0.516255497773394,0.516494506607215,0.517284184068162,0.518282600093952,0.518397433560961,0.516991163448089,0.519722081735731,0.520355892418346,0.522131066158916,0.522318522597798,0.522445929406209,0.514166505436315,0.508092554037189,0.511728297123298,0.515254080039234,0.515724362262426,0.516266528478004,0.515815829048983,0.513359181212293,0.511130218834995,0.518256663970271,0.519194730946423,0.518274044870865,0.820410340094043,1.07364513338764,0.499777806631444,0.562187510937396,1.07352602201855,0.627818794178547,0.513764595103433,0.516044878955712,0.51698410145619,0.527324791349509,0.514965146864595,0.522683355736696,0.544735893084881,0.550314089024771,0.560207144092216,0.599493400541326,0.646195506785453,0.645965449757123,0.644873393660646,0.644106084919337,0.679857377297588,0.721432463947008,0.719084758810628,0.721963503710413,0.751054017608318,0.751204793084756,0.730190438904416,0.710494848701289,0.71801809753406,0.726505181341433,0.717151900149365,0.759745218066758,0.717451710068631,0.745996339285498,0.768625663948919,0.767675999516293,0.936679498329695,0.926714730303083,0.864452631380378,0.881386388516213,0.847730065045062,0.846359212156057,0.853248656271088,0.861898763146879,0.875475990069699,0.903052902049743,0.932122264168658,0.954709950922021,0.963077886994571,0.954445286841107,0.96220205515352,0.950360225528363,0.935903737490042,0.93973492262984,0.943575723523486,0.940810926690867,0.964777341560362,1.00277232169318,1.06297656073249,1.12294462014414,1.12196706701594,1.12808097816013,1.13795218900161,1.14131798050788,1.1446824253301,1.155646279473,1.15553500845103,1.03922968239207,1.04650348142863,1.05875157055308,1.09355374764008,1.05371739197618
0.558688555681883,0.559844070886954,0.713954476343975,0.549736701333315,0.546587570680636,0.54917909118128,0.54878022419024,0.547327386409691,0.54621758495615,0.546832952887371,0.546188233511103,0.547409514698207,0.545173150238168,0.548008396018229,0.685608136087669,0.654450458133155,0.636039862365192,0.525620919766079,0.525516933881113,0.525606914807192,0.525442434859446,0.527020123092869,0.52795322182085,0.528530115674359,0.528774631369945,0.52244383533565,0.520211864597797,0.520814931264535,0.520800410989828,0.519703037222784,0.516132853328792,0.517082337301129,0.521994549359732,0.518865201427385,0.518532745156104,0.52220008778014,0.522035567390815,0.67404536123025,0.529491754842384,0.52774071176924,0.534541384409725,0.534800197337533,0.657178263520938,0.611296965375608,0.545835739487021,0.660247623950827,0.522483508636395,0.540398690288699,0.521626010803172,0.519981847040278,0.510068633886435,0.511246888412147,0.511681964726589,0.511419614184615,0.511025268200807,0.513776552621475,0.511155587707886,0.512385391250512,0.510421194691164,0.508521896456094,0.508119778802419,0.507243517484397,0.504970923566136,0.504930432866166,0.504562956349997,0.513488738122279,0.512656203695825,0.511723675386437,0.514061310662513,0.515829770221874,0.516405641944615,0.516141645856008,0.517154896487556,0.519402602285506,0.521254010890036,0.521394061952079,0.519123879956243,0.519162615091437,0.520761509643275,0.521861690062886,0.523745492624191,0.523134385977343,0.522947080716188,0.522852703336688,0.522505840458477,0.607479121643178,0.515716334343431,0.515253722243376,0.516946983271994,0.515983965117672,0.519644250349335,0.519787129137306,0.518807948667616,0.520630690275149,0.520948405643775,0.520774141677057,0.880968725960054,0.755761638865955,0.808634549368207,1.07319807902746,0.619703259984776,0.528032598402547,0.521929533994058,0.518599990347483,0.517409676353692,0.515687764479381,0.60331752515539,0.605531413643566,0.617242157990039,0.626095763966649,0.606235413654532,0.663892460013596,0.64527825648904,0.64484542015796,0.620891107118937,0.612667073411264,0.734393064925567,0.709191574782007,0.714151185844948,0.750512770878927,0.727083025520165,0.784781808635377,0.76986916472468,0.747291466293053,0.724779053230047,0.736806300240253,0.716341654628262,0.734967577656819,0.753434954848257,0.769445408520601,0.798206142668324,0.823154870060804,0.927241294705327,0.856706274728743,0.846099991509365,0.846152943254294,0.853121876434915,0.85655596051967,0.865863198635825,0.895302038664959,0.902833860116099,0.949159872800706,0.949067174933006,1.00421116213753,1.07825799187558,1.01386360115554,0.957710920099833,0.959012153431593,0.957098932498559,0.95522278011922,0.953129106637702,0.984738550985263,1.02618930753772,1.09292495999029,1.21234645580665,1.26009381322888,1.3146553876189,1.21769014945766,1.21572302963552,1.21379195907986,1.15204520001731,1.19420130823382,1.08803777709817,1.08408377922494,1.1371924606159,1.04208835525061,1.06447566793256
0.564524449758274,0.56263016877356,0.611370814931834,0.559185384873735,0.557225213400464,0.551944927976003,0.549802078240481,0.548705393607876,0.547783796913175,0.546232554574796,0.548176761350706,0.546936999281615,0.548176091612817,0.548081407604903,0.560333293891997,0.559990589026845,0.559478838991124,0.525487407122646,0.525109035007692,0.524064601402422,0.525899694843095,0.526066134012132,0.529405186311715,0.52936508235098,0.530435179665451,0.531905620671086,0.532302826407176,0.52396248036824,0.523543807902754,0.523541001198875,0.525316575607258,0.525467680341627,0.526142175449727,0.528459284863,0.528451112127686,0.529148310470605,0.531650094278354,0.533686300006937,0.532720371342892,0.532649503890916,0.534828842748291,0.653782196943267,0.679939053326109,0.638410709931397,0.79417087886427,0.72857454614339,0.523576995498353,0.523361898945916,0.522765351981179,0.522555487663036,0.515198157459361,0.512277187052842,0.511477434976715,0.511965108772553,0.512252538094367,0.511748148877353,0.513134284540279,0.512410414008612,0.512362756424878,0.512635663238823,0.512696466954215,0.514955913975142,0.65404764513761,0.518331276900029,0.518501709454926,0.518833776319147,0.518501293902906,0.518357750933547,0.516775442850859,0.516821652362818,0.516352412428026,0.516857831695457,0.522594621558438,0.52201772801232,0.521429292158901,0.528864247908211,0.528973112399589,0.521240822849892,0.521617086450382,0.522598214636557,0.522777132042703,0.52387162351338,0.524002391034248,0.525607555703373,0.734860842025644,0.533312238498702,0.514166982913731,0.514555458179476,0.519318182169579,0.522266029830699,0.520458081917425,0.521264224873406,0.526176719061244,0.523237260450915,0.52186119547031,0.521519537812979,0.521038448792137,0.885945311762688,0.886984458379359,0.887755014308549,0.642493106312985,0.640877448097951,0.539211751031355,0.535755176025856,0.532317591767067,0.554244692786025,0.582401984811089,0.609419204612437,0.6218845346179,0.649114681104218,0.66841813249907,0.662576678022503,0.645408831340723,0.644850841799806,0.629198538887948,0.646379423187164,0.642004960287643,0.677495988379838,0.678293523626232,0.678049102315345,0.750267511658602,0.751056430134083,0.771608619803596,0.772326661713959,0.772312408396315,0.744239702227601,0.744013235865285,0.763510821223773,0.759093490523263,0.754569955787058,0.79550164017676,0.813607388233266,0.836379926618755,0.851709492238224,0.848411305207243,0.858870510700397,0.856872716409621,0.856743975282857,0.873100467754886,0.884498944677926,0.884194832378354,0.938340444725993,1.02645073630845,1.02804799333327,1.10375401253193,1.05175957899545,1.0261000901899,0.988293106222885,0.978573691931839,0.96912716108394,0.978831761094804,1.00135226666583,1.25676766808198,1.24626476618825,1.23982861366266,1.25917714148022,1.25096586281778,1.22470000655663,1.26617396452125,1.36743874017457,1.12766291248853,1.07354120093116,1.06618472126794,1.08070562393491,1.13094170419178,1.11307900876477,1.12451420107167
0.56569402137272,0.56488432961823,0.565493351861842,0.559821517776238,0.556424169611435,0.553099529654567,0.551561264293672,0.549954880356416,0.549481329004098,0.549013263660582,0.548388890316733,0.548555618450351,0.547938558626445,0.548631422615768,0.56115573723598,0.560385087643514,0.559727317880064,0.553234639604184,0.548981712868359,0.54562484061168,0.541994336484399,0.531486031584841,0.532416047594493,0.531661512956558,0.531385679840116,0.53235267782117,0.532658781437701,0.523330022527733,0.523243300591228,0.524434743976948,0.524812352735759,0.52565586605555,0.527206185309963,0.528330062718566,0.528843160491502,0.529851764575949,0.532262373869664,0.533496926433773,0.533810955333202,0.535183557654218,0.535948322339019,0.573225393363313,0.594380690636158,0.615288629820484,0.643460817378182,0.672596650837647,0.52391029213359,0.523794941435238,0.523630374455531,0.523361364597124,0.515059545705242,0.515607452187806,0.515263369717626,0.514029539429736,0.512453717190149,0.512945923680167,0.51300261740553,0.513019005219311,0.513433938751145,0.513913341103557,0.514614641933497,0.515794211544927,0.517109532923488,0.518265565820701,0.518658014882092,0.519118528012976,0.518821151824118,0.51820671196431,0.517595219711624,0.517692728584424,0.518002737111785,0.519857188392626,0.523392208351007,0.525104515311874,0.527755483306683,0.528823195570167,0.529679273379761,0.521187152321575,0.521605300034987,0.522821148367375,0.524041057576394,0.525107397998348,0.526034520835456,0.527409982199976,0.530522175394614,0.532054485117477,0.524375985561969,0.524571623378668,0.524481516287775,0.523708230865675,0.523308630314223,0.523725338299712,0.525023356550655,0.523594784323492,0.522343838890594,0.521762300478765,0.521325793690896,0.886722021714714,0.887217509625404,0.88769017897176,0.676843992327282,0.593757333329971,0.549793486456938,0.560102089854292,0.566444412493413,0.572004746335475,0.58169311233114,0.613495640791348,0.63041411005223,0.652007912843857,0.667627767794241,0.66534092551579,0.656355486363864,0.652629184685463,0.64540175964664,0.646933629132566,0.650030029076015,0.678748892596038,0.679152632782959,0.679324130186623,0.755213338499253,0.759150378574547,0.77231726446041,0.772883204800999,0.773703507989601,0.775426981581573,0.776199055450788,0.775497719087992,0.7790109577284,0.780240285798609,0.7972010879424,0.820215184512569,0.844068188700841,0.854542625263264,0.8568464344718,0.858888647915287,0.861294968677378,0.862396657307312,0.879951676978428,0.88851776451228,0.916861135340718,0.936761896103922,1.02804682229802,1.02927762968511,1.03187301740638,1.0335610794242,1.02764318717912,0.989555716488311,0.984034094774485,0.979027021536695,0.979687188544406,1.02217237056201,1.25890059823326,1.26132534245588,1.26149269210059,1.26100355030864,1.26252034484233,1.26620340663707,1.2709063837432,1.27551088066344,1.11715113616776,1.08826464633392,1.07362196214377,1.0783370427185,1.10265558038406,1.11655441875595,1.12033685964353
0.566870117946396,0.564998261948464,0.564267064003695,0.563386691133609,0.555704279668836,0.555157991758325,0.55165747412059,0.551145308468014,0.55115078215521,0.550087733358871,0.550194711774703,0.549336945876385,0.548796261610918,0.551523572235639,0.559672891596989,0.560677520626208,0.558904740668441,0.558187613729665,0.559007541968818,0.639382096453116,0.753334874005415,0.533833790302794,0.533810090713283,0.532631893538916,0.532550466250341,0.531965946411217,0.532431155008123,0.523098571358003,0.523131051040393,0.52370040636498,0.52529257931576,0.525217253728513,0.528007736087768,0.528811518716067,0.528658843594188,0.529490138214816,0.533930353006598,0.533636387172292,0.534964152897791,0.537027112525268,0.538708237314058,0.541427202881744,0.542283478306356,0.542093407610143,0.540892616889729,0.901249524916591,0.524099501647039,0.524260229374793,0.524193601716544,0.523425811325819,0.514280946330083,0.521661615820464,0.522360958138711,0.518085055864034,0.511739446447686,0.513824456342924,0.513408673238145,0.513520609837573,0.514344694978987,0.515176124494971,0.515591196494728,0.516448768281754,0.517612984558034,0.518780068729845,0.519279624887732,0.519350605752194,0.518784456655309,0.517987743155827,0.517674411446906,0.518022181448563,0.517782714355784,0.525547011032186,0.526159920039925,0.526869323446008,0.529530351893068,0.531079276001595,0.531148054674401,0.520331874150011,0.521131263687088,0.522577767445709,0.524715754551724,0.526611518534948,0.526860203875933,0.528928482967771,0.531160258849652,0.532283368127551,0.525108651723294,0.524127818187162,0.52511228741791,0.524591717522209,0.525413918570821,0.525475911572252,0.526309979189478,0.524036903265443,0.522322970905845,0.521797861745268,0.521190769204223,0.88696771679954,0.887427743941647,0.888063529867522,0.888626859441653,0.539766454026139,0.54001457218744,0.566639778635958,0.577866470287948,0.579790061939131,0.580968904996397,0.618791321233109,0.636940564952152,0.654056997334635,0.682361500476706,0.711519083911275,0.711933867250384,0.672567704446765,0.645835436243718,0.646408814774566,0.652780673033201,0.679229254472774,0.679779564702715,0.680588054862669,0.808170950782222,0.823345120192273,0.799792626469322,0.818815349790755,0.834307388355891,0.920531644651926,0.801040975149148,0.772782759974646,0.780043659990153,0.784485645610128,0.79889168502859,0.826246435945218,0.907419507809787,0.904869265094903,0.902244936875811,0.862282436642347,0.862239079977103,0.862430464473038,0.885099179999943,0.8927307176081,0.936403360774405,0.934990113597973,1.0865370055001,1.03332271859585,1.03207945777702,1.03346094604122,1.07469393219967,0.990487945838558,0.986886543055383,0.97817711017963,0.980653280359042,1.04793564040883,1.31773077518436,1.31797335795555,1.35264285036173,1.35234055482661,1.35275422446581,1.31989010000318,1.31123636947792,1.27961130888752,1.10808842913149,1.1022074948497,1.07199676880366,1.07657278202372,1.07559512490417,1.12563028483655,1.15415204330247
0.570491383419554,0.569404085962363,0.567477483783967,0.565291087643753,0.562005745131417,0.558762169843942,0.740982547652939,0.554358597672914,0.553650651689217,0.553458348947957,0.552348395045725,0.55249810298709,0.555925640948419,0.554650684362677,0.558252961494947,0.558538179431055,0.559347926244592,0.558283384223796,0.560285494944476,0.588202570170075,0.753896798223598,0.538626909239232,0.539871872220185,0.541635840932037,0.844985800023297,0.761722157417758,0.53534026487133,0.535322970333574,0.530177550150682,0.524597292136738,0.524306098279283,0.528129825938965,0.529628245819529,0.530185311104292,0.529862298075566,0.530341494000541,0.533482393420212,0.533424979449826,0.53575487047234,0.538495576265286,0.538937724377639,0.543146461836503,0.543764506915781,0.542863707085557,0.542652380656701,0.54095559521759,0.525025239886525,0.525581348199218,0.525719152388524,0.525429341071998,0.546111396160145,0.522351947656002,0.522076131954161,0.524199413115874,0.524424172840495,0.513209743582841,0.514086972692771,0.51738300773241,0.516130652167373,0.516242194477147,0.51559597759037,0.51744163180213,0.519553368203603,0.521310092130031,0.523097908921061,0.522116296550709,0.52087282601882,0.5197533954776,0.518071412315227,0.518252805345763,0.5171936065236,0.528134395150047,0.527808014471606,0.52863805422987,0.528976960732672,0.532280484340709,0.53802618617915,0.538234100374507,0.529112897052092,0.520342721339945,0.517469304625372,0.527248743255419,0.527681424971424,0.529707178517815,0.531527747178046,0.532522791517344,0.531331557206527,0.525771334301169,0.525567035737332,0.525448753928694,0.525337345476192,0.52773313893835,0.52582986729047,0.524847291621689,0.520886672463734,0.521766937255967,0.522140926347722,0.536304664272668,0.69045682250235,0.645579445537642,0.646571318390119,0.561443359080511,0.561324544735512,0.574855696158227,0.594124229762971,0.578865903575675,0.641388849553423,0.641804193457075,0.642887229876309,0.645099156530452,0.721184689904887,0.697862568666808,0.723798334773653,0.686449766058698,0.669938091806135,0.667219752901933,0.664397544089358,0.670575289026776,0.697906039898739,0.729647515310732,0.745438859450901,0.879824328236152,0.855917806821237,0.857225017273886,0.858474258550126,0.857960577736047,0.858228493407694,0.820497041314497,0.827698858302878,0.83468686458159,0.834956359281673,0.835442978732045,0.915279793378695,0.922087694404691,0.932939030954986,0.888984302365902,0.888765879949286,0.935555758091371,0.934388228006701,0.933601353129992,0.942777546851477,0.943257585541138,1.03767951392033,1.03464010958659,1.05433052729916,1.03386661379208,1.01847646032445,1.00729083294039,0.992483601315929,0.984867915162337,0.996857444785353,1.00696751698515,1.29241714121368,1.31791663740139,1.39147757988002,1.37543931193947,1.33091517053817,1.34607418679359,1.32658206758672,1.29963807422296,1.18934713320522,1.09327478483236,1.08915140585126,1.09586992267585,1.13202517319119,1.16666998586886,1.13200661114317
0.571921284666342,0.570735911273923,0.569000550005748,0.568124180287593,0.56710692797491,0.562775830234557,0.742692801289465,0.557787137484398,0.556260679483735,0.55542694930807,0.553883050323972,0.55279755562568,0.552552664034999,0.554820876723979,0.553273760180466,0.553094510959194,0.558442317107929,0.558497488350269,0.561912390441578,0.599416365347689,0.755794330159134,0.778847278331287,0.540557301454507,0.543883454482727,0.845695518156834,0.540072705340919,0.537075608739572,0.536255060400357,0.536551500411484,0.533608172588136,0.533911741351183,0.532829491889791,0.534748595994475,0.532646629892396,0.530888063924129,0.530518674341095,0.533046590567649,0.545846993802663,0.546980498875355,0.545770664013502,0.545426099376336,0.544957309634648,0.543121146878736,0.543764299360903,0.543872650556223,0.543560206518974,0.535026645157084,0.525873435833702,0.527001661516141,0.52762051552653,0.529053245358297,0.522832435171299,0.523469427590942,0.525168066964387,0.52817494119095,0.528991806408534,0.766316453094751,0.835876874065416,0.622169341716117,0.808369374675353,0.522664777616423,0.522605067172726,0.524234582367292,0.523503481836555,0.524513168061512,0.523385602594652,0.524656469658219,0.525913712444509,0.526017227098221,0.526451205782575,0.526470548708655,0.526418432627539,0.530379465981665,0.5304354796394,0.530641705382976,0.538503993545679,0.539490863353588,0.538804363438456,0.533076091531029,0.51674641868707,0.516698498618489,0.530343715591441,0.530959358315417,0.531248750193545,0.5318590225329,0.533557856241387,0.533596792680931,0.531472600403831,0.531926814648748,0.532124873143902,0.526978528267639,0.526033248603765,0.528353120568698,0.526900878338513,0.520797299948713,0.520754625508541,0.739692122920727,0.893970118655045,0.718246162868985,0.775535673086042,0.60846202247715,0.560953288628958,0.59369252503037,0.593244705951876,0.593547066912303,0.62891791052633,0.62797739245399,0.688616089401864,0.685825372055,0.683069968210799,0.705069283059714,0.70521083946808,0.734297660730459,0.702325040616436,0.670921346851574,0.7025327785872,0.683563443250812,0.698733125920633,0.709540010314172,0.728370796771116,0.728230801494368,0.813138358936527,0.889178128747399,0.87827189615747,0.876841125600643,0.856577891658475,0.94747370830925,0.862531214117954,0.900646931317687,0.949738371360462,0.901821259490783,0.929199277173186,0.929657739225608,0.925541924871658,0.907122400794516,0.910521517700284,0.908867303816473,0.935021076639747,0.939023572386428,0.943570065090405,0.943939561610672,1.01093998440008,1.0228296460148,1.03358432585952,1.03511564650427,1.03496259580667,1.03469143537554,1.00657926273684,1.00038959640011,0.989944183478197,0.990357873793572,1.02848181462613,1.31067291646275,1.31735629635274,1.31593996730348,1.3246745531596,1.36681688587198,1.32981787555288,1.33233570982427,1.37371296983248,1.12272520518758,1.10504721097797,1.10427400339478,1.10377462248469,1.10371507983543,1.16780761696829,1.16077509969091
0.571946779726941,0.575414594554533,0.574466521230558,0.572770874914419,0.57117859993905,0.566428288355929,0.559492804812974,0.558684855123575,0.557763967878357,0.556881167636486,0.556743958910025,0.557440585445869,0.556306902803879,0.55544390674431,0.554642677395604,0.552888576813881,0.566327680999731,0.565593054997796,0.564020294085254,0.683364820400698,0.756356254419805,0.547880209731436,0.754607032031305,0.548806749159733,0.548276997377612,0.548032076439929,0.542828020065408,0.541281748201219,0.538039897028555,0.534680127077552,0.53542569396468,0.535091408053955,0.536363634468479,0.534579564435147,0.533640538333443,0.535518995035651,0.545336908747442,0.546886419083648,0.547058369588757,0.546352693838544,0.546771095777463,0.546331672648267,0.545357041299039,0.544532670283024,0.544530641060312,0.544142359452052,0.534976118484707,0.533647488079949,0.532003771801879,0.531114568670694,0.529938898680279,0.549435078672776,0.532107880181097,0.532433550200167,0.530852852015078,0.529854702024772,0.528782368221536,0.536102044288717,0.592100593649612,0.816986627821185,0.523589426010246,0.523435190505225,0.523893281111538,0.524365329550106,0.526108863283077,0.856386923736162,0.532618214182634,0.532705901291894,0.533513423643971,0.532023842447407,0.526568903020894,0.526705955297004,0.532587343775762,0.533156786230694,0.532311400771224,0.540529216283324,0.540141990207204,0.540424849927392,0.535022895826272,0.532019077230846,0.531893827891686,0.531617293700067,0.531773146860973,0.531452860626215,0.532014529770795,0.53568028276199,0.533350755716858,0.53356875584731,0.532478094297345,0.532249063222086,0.528083339226239,0.528391927103184,0.52825978475511,0.531305108435301,0.621581289020202,0.550803366208565,0.74286017596793,0.557428884378664,0.557805497545336,0.557770692122386,0.557689010080598,0.609014151394389,0.558299739032577,0.602877731194563,0.60679499007262,0.608299932477353,0.641401217718242,0.688007425809143,0.685754077415076,0.712701255416856,0.700603694973456,0.716920026635597,0.73187768684738,0.715643975310273,0.702132509353455,0.707471620155766,0.718275099093444,0.69859638068372,0.719038866991081,0.728315447365225,0.755478504719585,0.791059751794164,0.935389318429347,0.879614760095958,0.855742795859978,0.896770341872391,0.946805447043398,0.908248633482323,0.921707132604333,0.958841080077354,0.972492579171285,0.971913080271978,0.998651377166749,0.966477463160895,0.946698863427013,0.95649975047093,0.945892419816256,0.948701721103202,0.95513336527353,0.961171726609338,0.960311775249973,0.999440963953908,1.01727895179741,1.03175589380869,1.03241778510358,1.04071524703402,1.04128633600552,1.02004932439214,1.00941111582596,0.994243091166896,1.01993364045206,1.43711270367234,1.43762627477159,1.32721894828747,1.34150726312771,1.33182275237478,1.33371501816571,1.33369556906948,1.33359263329041,1.35935463617068,1.32763079237991,1.16434890326875,1.10675572694406,1.11363347583553,1.12479496731125,1.14380344465345,1.16203650650899
0.572972763991727,0.575560808074253,0.575483828869835,0.573625909383044,0.57220535545208,0.570063725104612,0.558307393121584,0.559072814358193,0.559131760626701,0.559089331937189,0.558520636252621,0.559183536869816,0.558484377977718,0.559392818584945,0.561260788470212,0.560808898373838,0.567371565023315,0.566068812590265,0.56494574969299,0.573540947883421,0.581628281935677,0.549637670175475,0.549715081062179,0.549199558113772,0.548562602325577,0.547707138882894,0.54499468236579,0.543374939392849,0.540452613902521,0.53880341171819,0.537955766370201,0.538735982573641,0.539704942188808,0.541971997610219,0.544201432337387,0.545834071231459,0.546074910189235,0.546511320005595,0.546829553856586,0.546886423800536,0.54671918128042,0.546725457016261,0.545626769435917,0.545153836885178,0.544633573283308,0.543134324460511,0.534247316789281,0.533435433498503,0.53257929930131,0.531678171508406,0.531183727667933,0.531868015500782,0.532492071881749,0.532545381520477,0.531399655694251,0.530112668536809,0.528915323780092,0.539008519033413,0.539194878386447,0.538560124961628,0.536233527431436,0.535641446146559,0.53550014424733,0.536772399782454,0.536878102163093,0.536422036360815,0.534161495996906,0.533287446166831,0.533526976268122,0.534284916337123,0.536150807461918,0.537093340913276,0.536462767099898,0.537270405374686,0.540243070378949,0.541149211169806,0.541255735650585,0.540636400647563,0.537123468206192,0.535429786200415,0.533795440386796,0.532551870116202,0.531777487516413,0.531802853006645,0.531908828380827,0.535053986926858,0.534609442337828,0.533922400716112,0.533320951100477,0.532489802620125,0.530789475333232,0.529740705362812,0.529760922546746,0.533842123644124,0.547068423076703,0.54907211926388,0.552887039676434,0.558438597676089,0.558186038294476,0.557952873546281,0.557727667137621,0.608323224990853,0.607210534915534,0.606191208323987,0.60555380070533,0.619502157371341,0.640900259863061,0.665356016819466,0.683356373261623,0.714025901707542,0.715711909826127,0.719114902894236,0.726263305426498,0.724899995886661,0.72298257274816,0.72107645201891,0.719504304052078,0.707208997021516,0.733472385766535,0.74383727608351,0.758800966042331,0.828227328133285,0.866391442607626,0.880387439520968,0.881281922175321,0.884515657325421,0.901975465300421,0.923406558852286,0.928699653432332,0.951965090978941,0.971386317935542,0.970337689243049,0.985026180172004,0.983399608989872,0.981143768207406,0.978511455184688,0.973803612284094,0.976405235754161,0.978100941577766,0.979181406461668,0.979288632166952,0.996951825948096,1.0079217975625,1.03021313604335,1.03095158192451,1.03270283350808,1.03377423985558,1.0234767387957,1.02272210663393,1.02176313720154,1.02903840843811,1.20685036513139,1.2108429109137,1.21826222162262,1.22786869573338,1.23776363655481,1.24678286376851,1.25316886598868,1.25629952626756,1.26125062045785,1.27214990792672,1.1575400029003,1.14862886728753,1.14549625978134,1.13819989991833,1.14277128554224,1.15897906247096
0.572758038926851,0.579180897721079,0.577815236776998,0.575153429030057,0.571643762355724,0.570626987316518,0.558797709695676,0.5610830035276,0.561075655875168,0.560418430603449,0.561132185832562,0.559619923702676,0.561311850483903,0.560848560855144,0.561645056900582,0.560946693147621,0.566711292186486,0.566206077018976,0.564458412463471,0.561859545618497,0.600254475017438,0.551358403357261,0.55077129628544,0.549715808723948,0.549803258497408,0.547522326972359,0.54733298877738,0.545160926372318,0.541829649171357,0.539241747436656,0.538497024971551,0.541078889567662,0.541760134283595,0.542537159303151,0.543452575848836,0.545232946016458,0.545762070519036,0.546009526266668,0.546941587546127,0.546904251138902,0.54719988895925,0.547158273105541,0.546357573751003,0.545536883008601,0.545201593352502,0.538940391210708,0.535681632286386,0.534489964652421,0.53275405147161,0.531666031964743,0.530909654453195,0.532003484354979,0.532817243321826,0.533427437162082,0.532136371287609,0.531144490587123,0.529837723275283,0.539886240337515,0.539622708796235,0.538467640479777,0.53633777924585,0.534307554545915,0.53332663963817,0.5371536071888,0.74406057106612,0.538176333029785,0.7721590977985,0.532432357306615,0.532909148330106,0.534157036708264,0.535569296696006,0.536960988900479,0.538170112407264,0.538690763767035,0.541003640298824,0.541587018878766,0.543588657316886,0.543015278726415,0.542258855165294,0.542593673061655,0.78506953272112,0.532832017850537,0.531314642462529,0.531620705799134,0.53083633168774,0.536090676589213,0.536461545131454,0.534934485722796,0.534218344554865,0.533819963100557,0.53163385674764,0.531351134525539,0.531223194331213,0.536825624608566,0.544674716507015,0.544150794152519,0.544012724657496,0.558252438816468,0.55780869779088,0.558259393590736,0.557515236685751,0.615091258997858,0.610272950915846,0.605349014369085,0.603283659326461,0.628797581741367,0.640433556131069,0.639384015918484,0.680829186054027,0.715318532601377,0.746700178288907,0.746995670210643,0.751862587057732,0.750991235522032,0.749744929507981,0.727941554697666,0.749334079224051,0.700350689039286,0.751416299067755,0.780943482263792,0.762221889675536,0.864120191068253,0.859863887544634,0.8801365113907,0.895582297462736,0.874308200133963,0.883607979591126,0.931116817265112,0.938293305627444,0.945255894689219,0.971199900817735,0.967584216918158,0.986218457466332,0.98458912112259,0.983045477710339,0.980619004726812,0.967768028117635,1.04482628634523,1.01117209189675,0.979790709018709,0.97903045932669,0.994519432686886,0.994778033290694,1.02896380387204,1.02903148771353,1.02472176654218,1.03558143100774,1.02291047002919,1.02298210322601,1.02308796984627,1.03213343563751,1.20450366671151,1.20201624893432,1.21088739965679,1.19983513222035,1.19114010920189,1.19405195471743,1.1992310938997,1.19762365899378,1.19661360275311,1.34649060816857,1.15114291965557,1.15143802777565,1.14871217151598,1.12844170903262,1.14189518558226,1.15564702894358
0.572471285224198,0.579937761400426,0.579394651552404,0.576935629642478,0.577624626455223,0.575846160943906,0.751947909381894,0.563440682314994,0.562657164472109,0.563683123062028,0.561462797415823,0.562492167100755,0.56054127939967,0.562009743549277,0.56331227395256,0.560555495119855,0.567458788010062,0.56642584119742,0.565224498854272,0.563739318279594,0.562178615702537,0.601823961329642,0.55109999395797,0.550452269454345,0.549770169037587,0.548570272666028,0.546873572561468,0.545910087249899,0.544007932779953,0.540735636773435,0.54029890631729,0.542116254294643,0.54254943839395,0.542959364160395,0.543419416135004,0.544482466360889,0.54616262298474,0.548803688266923,0.547202119726701,0.546882983157192,0.546335594533078,0.547620898800055,0.547279610545845,0.546135768424924,0.545243790241712,0.535931876079987,0.534635255875522,0.533134086787698,0.532548436333995,0.531571754281574,0.531798394429821,0.531251788291279,0.533659836301116,0.535355042860136,0.537964225155264,0.535202574524346,0.534904005911934,0.540882464553948,0.540722470062746,0.540583150458832,0.538912061413193,0.535611703419263,0.53311503745751,0.538832153634402,0.540680983695996,0.539282501529607,0.547131186943817,0.5433108945854,0.536926118144857,0.532706173992083,0.541150095353005,0.538843305204194,0.536989225848237,0.539701608289113,0.539875039746087,0.542905582214253,0.545618267040939,0.543166407778606,0.542120785459662,0.542058136372311,0.702775951671128,0.534763007015923,0.528997903970701,0.534128371816726,0.536399752961435,0.537987060711826,0.536071598582007,0.53571360173918,0.534785723884795,0.534014509335625,0.53228028220749,0.532720452555307,0.532644847483587,0.540099856270736,0.543788924075601,0.54415143332124,0.543736494238992,0.557330887420896,0.557013175824031,0.557051409147032,0.59019064752461,0.568134710131494,0.603089036202274,0.603844755816759,0.602747206836667,0.64283568740102,0.650333357548826,0.678073282011921,0.678186968497823,0.677638027044273,0.724956190449823,0.740531014131522,0.798315731190859,0.798079959487631,0.797787802722793,0.757000706159794,0.745156706545327,0.746726375450804,0.761801978056819,0.778591577141745,0.78826512031329,0.871773017705872,0.858618138127347,0.879094968500868,0.877312476278433,0.875495727479499,0.889346496255401,0.937629191447324,0.946156800349449,0.968865370623462,0.969598361641259,0.969901152099008,1.0274706018887,1.02122864844411,1.04252235438494,1.04277522243401,1.04905855797803,1.04663032696877,1.06740918621098,1.08051337338635,1.02022136382397,0.997314793490317,1.02832501099603,1.0289386059265,1.02965646247396,1.03174871308611,1.0328131359665,1.03171754852011,1.03350644488928,1.03563389042622,1.07590979630816,1.22021794368786,1.22054998998301,1.22084034879841,1.22109067010816,1.22138334250362,1.38550963650408,1.19715771955674,1.19673888050126,1.19593533725062,1.20631972715122,1.20820076336957,1.24435804764888,1.23545783144357,1.26325496446941,1.20367762267305,1.14488006698074
