0.532646341666719,0.541260045901078,0.647561826639073,0.560161164609747,0.779567722796099,0.554741660208658,0.677011736219243,0,0.547262690057281,0.530572455149689,0.531366498618399,0.530737392669296,0.531272763634579,0.534649025647963,0.536530034409824,0.537725155453536,0.544063082436482,0,0.544539869036877,0.545157258113003,0.556505500240744,0.56223685372262,0.53605414910735,0.59362725772746,0.522286823358702,0.522212916929151,0.517700118236942,0,0.519450438800207,0.520349032827795,0.852512467464864,0.853060456601046,0.541636788432203,0.541150988852595,0.546622768533121,0.546442508948851,0.561369805122279,0,0.633092389809691,0.676882850616489,0.647837623803006,0.661516622355363,0.691911993455031,0.682789055895108,0.69221843474829,0.694186869408522,0.718685048208786,0,0.738893048903414,0.738020592515546,0.80565128464002,0.830959730271579,0.869249569864367,0.892736492396873,0.827813299228139,0.844336794020282,0.830798397943657,0,0.838340458949528,0.844774824810059,0.896442629449472,0.902253297148427,0.883954245451221,0.876690685503047,0.913231105830492,0.912266717054645,0.967912850718905,0,0.9914457394454,0.958503300419992,0.958764676817184,0.989580052748202,1.02866033061802,1.02858822678431,1.05487908715014,1.05452758096081,1.10563117310146,0,1.10448652474134,1.13988049411283,1.14323332238026,1.14918188866118,1.07263465620077,1.04334247375684,1.04304504544279,1.04893052086922,1.12081804307624,0,1.15681588205503,1.32865734373996,1.31067645020899,1.31420052508148,1.29793209760108,1.29731921501456,1.29800420143479,1.32856721394783,1.41781373412008,0,1.42475372811449,1.44241015439377,1.26036600023914,1.20161038874621,1.18391791055008,1.23604898232106,1.16548636805843,1.15534676644322,1.13524782279708,0,1.17078599983598,1.09334648243343,1.06486546811872,1.06068344576365,1.04037720359559,1.04189138410346,1.0769879251609,1.12957865887178,1.05217519338608,0,1.07077798248279,1.09854697143963,1.05325675089171,0.987849560739207,1.12435113092794,0.956024731136275,0.955637173030094,0.957493846748078,0.959584857925614,0,0.898962658437571,0.897666592026668,0.904173061720906,0.90582243691698,0.905191528372034,0.90630913779451,0.889908219519671,0.899629618899372,0.865345147269071,0,0.865178407153621,0.849480501257437,0.85841687014764,0.863951740682661,0.851679668185535,0.856351996609823,0.828428885708423,0.791286398369515,0.854406094397624,0,0.79382986110357,0.722249681487732,0.714904103428715,0.716127164707989,0.686245533423492,0.703326931628951,0.732725467227604,0.663707677602169,0.653445499469657,0,0.654151215742076,0.536205567158137,0.541826962293608,0.548675925197961,0.548159481489026,0.463090477182237,0.502962995924919,0.503363172201999,0.480190802644045,0,0.413675016048282,0.400973024442671,0.407028845176234,0.407554301864382,0.45526450733114,0.349045646001909,0.349565694902529,0.374308125439479,0.350191195659947,0,0.354685067095807,0.349535952071125,0.348709461877245,0.359982896277513,0.357177155848345,0.355685507788508
0.545116699706543,0.767173073781669,0.656266561963488,0.815416847617867,0.66100829032772,0.661849201288341,0.679214508339027,0,0.68112345733645,0.734205398414464,0.542266795679228,0.533744122534926,0.535081648650212,0.535537705398416,0.536688662843982,0.536204665860216,0.545039188085306,0,0.544967084251598,0.553847572670677,0.557040871206027,0.687861560596476,0.570125013130291,0.722383974878013,0.522391373917578,0.68391748089264,0.531820752770761,0,0.526951941399618,0.852671997196943,0.527105162046248,0.627332194794332,0.54104103050619,0.541337557522314,0.569465263051861,0.591203667616945,0.609866843674377,0,0.675779661960755,0.675308283147888,0.691908388263345,0.685694840393546,0.687936368323948,0.70922051873667,0.701791119970968,0.719003206375023,0.703183625259456,0,0.784076916296622,0.77927480097166,0.791571208512662,0.831709610142143,0.898367801809479,0.882150748310596,0.881627094218291,0.891241239145351,0.877464900417488,0,0.882056112028854,0.89466797384233,0.899473694358978,0.897220449555598,0.888172319723148,0.889477399113265,0.939657160884526,0.928517118576618,0.933194854788434,0,0.967345033028453,0.968579811180705,0.974636533212189,0.991400674549333,1.00813777694884,1.02329760798597,1.06044910830409,1.12449533859535,1.14071870117968,0,1.2478109201947,1.15342700187074,1.11494158062902,1.11261623199194,1.13011943762459,1.06783073827996,1.07135481315245,1.11497763254588,1.09754653074693,0,1.22391751229967,1.31425460295676,1.32359204942196,1.3115507091927,1.31266831861518,1.29835570762411,1.3022132627275,1.33263206757312,1.30088835478311,0,1.40389769421441,1.39631777869584,1.23691422832556,1.23839235691658,1.18222347045793,1.16984864999777,1.18378271586187,1.15816782893706,1.12954260695492,0,1.16523400464045,1.15148921133984,1.1031886557346,1.1146621782734,1.06760541379963,1.07040845033503,1.06204440562489,1.05263485532597,1.05202197273945,0,1.11643773517847,1.06802001084345,1.03694325851524,1.12951556801728,0.993284387204958,0.964812385869455,0.96198231039641,0.943415573216563,0.956745769473356,0,0.921955669709177,1.01523099158987,0.973753261249265,0.973618066561062,0.904867061120347,0.905326723060236,0.918233309293994,0.897925264530095,0.90402885405349,0,0.85408973882723,0.853382219958968,0.850425962776934,0.855825638623753,0.85603654233735,0.838071872168966,0.85913069810135,0.791985805556484,0.792886202179915,0,0.793746941694806,0.722547109801778,0.75556525785258,0.73346272892727,0.68641137224102,0.698042621916065,0.734653343481375,0.643654700150013,0.626283084013878,0,0.622613900176055,0.596155398396852,0.541433996399899,0.506678145956731,0.548439785142567,0.510650165896129,0.552346010333705,0.504915207222567,0.471096706617605,0,0.412024739554287,0.410366351379,0.45777191814834,0.45565837452277,0.448935593327407,0.347721639355443,0.429732539815086,0.357470978970706,0.349553978029552,0,0.349798229766238,0.348443578990446,0.34855263603893,0.343316095115876,0.355379066495248,0.355309666555304
0.546976077318291,0.60639504408133,0.553598814444384,0.560958813270143,0.56662437200376,0.566820854950615,0.776800738177549,0,0.683300993114435,0.547353721147338,0.544999530976767,0.544573217059967,0.544605663785136,0.536206468456059,0.537217724723815,0.536555270751622,0.616085799331704,0,0.54456150018699,0.554392857913095,0.553779074028655,0.702496836243386,0.572190787966029,0.570663087989338,0.610740201360167,0.685728188416636,0.533056432220934,0,0.529418793810358,0.527441346170912,0.528803207330075,0.547559217073406,0.547074318791719,0.569249852848658,0.569965483398212,0.592221232970151,0.590820616000371,0,0.60034823632698,0.694970998600098,0.704141704949853,0.686816055007707,0.788152585496975,0.735248200109468,0.710626543493979,0.712886097382808,0.746025920652992,0,0.7667269313106,0.777729075036542,0.800232681536853,0.852553025871325,0.921261670309736,0.921775410124907,0.884075019372682,0.883282778499814,0.933510309060907,0,0.886625692490108,0.896207390691999,0.897993763172118,0.898377716086614,0.91576375298949,0.929093949246283,0.927895223010885,0.930608129754154,0.992761634410574,0,0.987813508822353,0.972779859494205,0.978593231086924,1.01855678091966,1.01977353311349,1.05395075029115,1.12083606903466,1.10458566751269,1.15309352163984,0,1.12916406182795,1.12907393203582,1.19251629271977,1.11148960959025,1.17991614777927,1.08281030973283,1.08824513619858,1.11516690510936,1.11586991748802,0,1.35119880475297,1.38528589213849,1.35906713560637,1.32322251727421,1.34770176881812,1.31110907321124,1.33062217320851,1.33094664046019,1.3190855598152,0,1.28815301515441,1.28545813436957,1.25959989700599,1.26224069991555,1.1723993231152,1.17160618094441,1.17172334967419,1.17651825461578,1.18283635304445,0,1.18306167752479,1.18316983327535,1.14354877665273,1.11861887614814,1.08010641596878,1.08545111264239,1.08875887601375,1.08545111264239,1.10675779550315,0,1.05277005001418,1.05589755380127,1.02416285399047,1.00566822064433,0.978611257045351,0.96605617700092,0.956286107533467,0.959422624299771,0.961369427809891,0,0.952176189012103,1.01587091311403,1.01757436618539,1.01643873080449,0.921739358208053,0.908508304722608,0.918701984213097,0.887359348998088,0.896129879070763,0,0.896275889334022,0.877888510440524,0.866525847546042,0.858793612678765,0.860812520022593,0.871270279804037,0.801562997268768,0.8073177844966,0.797474709897517,0,0.800109203721628,0.774722345170912,0.752696426568917,0.759767108761922,0.700461705536974,0.734223424372891,0.711548571267522,0.644225221734229,0.644758790103669,0,0.616994307636427,0.608852883512856,0.527676584928385,0.549911604648134,0.507053085892013,0.502606081948064,0.552237854583143,0.473249006053793,0.46714631782832,0,0.44541692624245,0.44579727396526,0.469274282220632,0.408982859069725,0.473357161804355,0.435982139601739,0.433510780701393,0.401490369449527,0.353888319733332,0,0.349902780325115,0.349077191429157,0.347458460362409,0.388770351885489,0.357733256665819,0.354648113881032
0.547853941493688,0.550346931544147,0.553565466421294,0.56571766629488,0.567335496063707,0.569239037273602,0.567502236179157,0,0.880160682500252,0.553427567839327,0.545414128020589,0.544730944196204,0.544958972570306,0.543869303383392,0.536086595832519,0.536517416238925,0.547889993410542,0,0.553189625188091,0.553953925825397,0.696671747777689,0.565887110304095,0.5721979983494,0.578494465627963,0.822054906808623,0.535662084511562,0.535146542100549,0,0.533064543902226,0.531151088415197,0.529662144249123,0.529540469029741,0.53634707093179,0.547318570528405,0.573479643993562,0.590662888864134,0.642138717046299,0,0.656222398365342,0.683833660185954,0.727466393856516,0.727903523348372,0.728310008710901,0.753773477584932,0.768389825975494,0.767155949121164,0.745103892879449,0,0.775107199383329,0.809234845175315,0.8437888048841,0.902965322506295,0.841780713115328,0.911861132990037,0.946939648089049,0.91622341492938,0.997024773578568,0,0.902911244631014,0.93981939451037,0.897049202950542,0.922072838438953,0.968165214136883,1.00143212041398,0.977628842311077,1.03693424553603,1.02038641570001,0,1.00706523242243,0.988471456304939,0.99129251879877,1.00890388018198,1.01700654849494,1.05941261569454,1.08400903596823,1.08882196686825,1.12776705004986,0,1.14065561032519,1.13053403466841,1.12983102228975,1.13336411014145,1.1107956101908,1.10278307166999,1.10287320146212,1.12423396219816,1.17680666995061,0,1.33621022032089,1.44913383688705,1.36440281930077,1.37296514955361,1.34488070632429,1.33905832175236,1.33846346512427,1.30528668863931,1.28996462397633,0,1.28843241751003,1.2763460123847,1.27148801658862,1.22203379964404,1.16837052140676,1.17300319272251,1.17734744870342,1.1751302558169,1.18461190994952,0,1.14554965803813,1.18335910583884,1.18706344029559,1.16183611147696,1.11640168326161,1.09915084104694,1.09774481628963,1.09958346404919,1.10535177074584,0,1.12314339171332,1.05853835671083,1.02683069583767,1.02045851953371,1.04094502128604,0.975501779216687,0.992959919953271,0.960837662036293,0.958827767671679,0,0.984145226282451,0.986813068129652,0.949958996125577,0.940693653494081,0.939585057050818,0.910319913544525,0.911780016177115,0.906480384399567,0.895210555190984,0,0.895870305269413,0.896033440193178,0.911780016177115,0.864114875606426,0.86099097701102,0.860156375135849,0.808210069438738,0.808736427424807,0.80441740778569,0,0.803946028972823,0.79641658613785,0.78776232349703,0.749962789973457,0.700697845592368,0.713671127872306,0.709778422149987,0.706230913531547,0.703957840173897,0,0.618873513802445,0.610638354695054,0.591637191917115,0.557007523182937,0.539530455190004,0.550669596199991,0.550896723276172,0.493667009164097,0.495698534678824,0,0.444888765660538,0.424030929164614,0.466902066091634,0.408763843674836,0.466501889814554,0.449223107364318,0.398835145773225,0.403001846063634,0.368349644881422,0,0.424635700069841,0.343380087268292,0.34389202448762,0.388936190703018,0.389078595774592,0.354081197488502
0.54724196020509,0.546976978616213,0.556693871506306,0.567634726973596,0.56693712238247,0.567424724557921,0.878060658343502,0,0.88430665293847,0.553286965363597,0.544384845794405,0.545254598288509,0.544802146731991,0.543873809872998,0.648791197003797,0.547351918551495,0.615919960514175,0,0.725414138489598,0.68770473475816,0.695690234341337,0.882349033853294,0.575250694409018,0.581393039743031,0.582163649465787,0.604588843046941,0.535876593416844,0,0.532768918184023,0.530355242350643,0.529811759704068,0.529782016872663,0.582176267636686,0.5828396229068,0.581604844754549,0.64535274543384,0.626146086729833,0,0.626667938226296,0.713031206348146,0.72278144726133,0.765138844373178,0.765027083430931,0.790751928702154,0.79050947956131,0.84308218731376,0.815053624555562,0,0.814990533701067,0.847213736985237,0.852004135437222,0.852118600273233,0.848097910246083,0.899973013407407,0.906606566108556,0.912446976638916,0.914384767169822,0,0.917701543520396,0.968183240095311,0.967984954552613,0.986695899399876,0.989516961893707,1.03596985676018,0.994194698105523,0.993906282770691,1.03200414590623,0,1.02324353011069,1.02399160738541,1.02134179149664,1.10388265513404,1.04497382299448,1.07449132991875,1.07502309569235,1.11156171342395,1.13647358797012,0,1.15308450866063,1.18969523022594,1.22025824273898,1.27662541474032,1.29200155727858,1.4222300939347,1.47219805069445,1.40047276211327,1.379355351816,0,1.38757518885873,1.39492977989696,1.41635363148749,1.38823313634131,1.41526306100265,1.39767873855708,1.4111621554605,1.33026165403997,1.28045593090607,0,1.2572745483689,1.25644535428125,1.26234885566611,1.35471386664624,1.21417448176986,1.1849363772012,1.20811775973837,1.14905570695219,1.14545952824599,0,1.1439273217797,1.18796473821695,1.18859564676189,1.18511663678547,1.13422034316674,1.16536919932866,1.15767211508031,1.13156151429875,1.11398620483239,0,1.11735705905825,1.11447290570992,1.03056206923207,1.02939038193431,1.0401158271984,1.02591137195789,0.989111377829099,0.986488600877966,1.15836611447975,0,1.01343740872638,0.971491003466672,1.0315805358832,0.937674305457552,1.03713253107872,0.953933719958739,0.954907121713799,0.921667254374344,0.970229186376779,0,0.952050007303114,0.896533660539528,0.882868181455992,0.850884723418903,0.824220725713631,0.830889429033713,0.830997584784275,0.840472929831447,0.808662520995256,0,0.809560213724923,0.803232201019112,0.784258077178814,0.940918977974419,0.775592097665016,0.687775035996026,0.703262939476535,0.682862962324658,0.685353248481354,0,0.638636273323926,0.621571999778972,0.632161349056935,0.591259548088069,0.562447757436216,0.535678307874147,0.498192426027204,0.49716945288647,0.482020437424389,0,0.482051081553715,0.455700735525074,0.466493778133262,0.475922255688523,0.432152524733915,0.432773519001727,0.423351350531915,0.424302219838941,0.40406537761083,0,0.35936730979723,0.360475906240493,0.341889340506376,0.389303018957008,0.354562490578504,0.36666151387473
0.546557875082784,0.56401691711729,0.563065146512342,0.565659983227914,0.566135868530388,0.566994805449436,0.56367712780094,0,0.56115709881284,0.787548715889669,0.821536660503846,0.790102092900859,0.546453324523907,0.646822762343564,0.554179250305735,0.553987273848487,0.648981370865202,0,0.905200541351247,0.647084138740756,0.567700521721854,0.885314304014541,0.805428664053446,0.587530878587437,0.587100959478952,0.620393102097844,0.645052613226029,0,0.58477921603355,0.528616638660355,0.537041971629152,0.537205106552917,0.582964903317868,0.583374092574162,0.582868464440284,0.643158084995348,0.626207374988485,0,0.669757189250282,0.69951263882579,0.722242471104361,0.721541261321549,0.763125344816878,0.790752830000075,0.816070288610847,0.833189541329003,0.814667869045223,0,0.837657275125144,0.837885303499246,0.902676907171462,0.843231802768705,0.87474568458877,0.904903113037201,0.905299684122596,0.977033985682985,0.970553653628466,0,0.974005624667243,0.979882087114457,0.986146107667852,0.992797686327428,1.06728094654794,1.02124264872529,1.07244538363729,1.03015648516746,1.03186895121803,0,1.03787159537423,1.04797514507258,1.05336490664227,1.05517651546419,1.10926340372451,1.07973688382102,1.11280550455542,1.11417547739587,1.14298997194149,0,1.16501769313933,1.1715971679652,1.17727534486971,1.35117176581533,1.35214516757039,1.37552483565025,1.41478537310434,1.41076558437511,1.43294652621958,0,1.42340178123246,1.40534878386778,1.40356421398351,1.39006277112166,1.40000408719417,1.41223469998691,1.39856201052001,1.31016271039382,1.27819367312347,0,1.24918990601437,1.24273661289749,1.26043810407284,1.26006857192509,1.18835229632313,1.25920332592059,1.23608503423792,1.22249346158393,1.1647292778045,0,1.15018232935388,1.16151164422527,1.18016851119725,1.18267411941861,1.17576116436184,1.16383699286236,1.13723969120327,1.13068725531504,1.12771297217458,0,1.14665825448139,1.20529669724454,1.0331848461832,1.03397798835399,1.06407232594793,1.01533914734044,0.9963127482207,0.996474981846543,0.998565993024079,0,0.990156883417867,0.970733913212736,0.998250538751606,0.961405479726745,0.970391420002622,0.957052210766616,0.924902913911997,0.90646235844114,0.896151510220875,0,0.894348914378172,0.914420819086676,0.913465443290043,0.935024489568778,0.82950052893691,0.828630776442806,0.828035018516792,0.821853917372161,0.80409113793816,0,0.80389104979962,0.777656069904912,0.784305845968646,0.784167947386679,0.761554382539962,0.762303361112606,0.733990889509182,0.718819341599067,0.684638519229722,0,0.638757948543308,0.672937869614733,0.631237518687549,0.584403374800346,0.594543877713475,0.54108158891265,0.536889652280443,0.4959761344386,0.481963655655344,0,0.48082802027444,0.460461391145654,0.467177863255567,0.472690201342555,0.472564019633566,0.442839214187384,0.407484000626517,0.404700792645383,0.369442919260022,0,0.360714750189651,0.360424532258976,0.34145852009997,0.34140534352261,0.355782847964014,0.356390322763005
0.560352239769073,0.563197637306781,0.56301016733914,0.581470551364267,0.581933818495842,0.654484695972976,0.567302148040617,0,0.566462138377917,0.694127383745713,0.96879612268183,0.684375340236687,0.55270923339601,0.552685799650055,0.553967445294217,0.553588900167249,0.556188243372428,0,0.620266920388855,0.70631293164239,0.572681995333166,0.704461665711933,0.586642198836984,0.588145563769799,0.587347915109402,0.619774811723797,0.620677912240991,0,0.584799044587819,0.547576341733912,0.537521462123311,0.53719429097786,0.569859130243492,0.574850518131938,0.585321797382203,0.651431098615436,0.653673527843759,0,0.690361761030305,0.669347098696067,0.721749461141382,0.754510739284598,0.789806467182656,0.789780329542936,0.81537899310517,0.812197411442798,0.811077098126558,0,0.836711813605646,0.813747643867523,0.829067905934661,0.836445029420926,0.868898964972961,0.902803088880451,0.924443251972108,0.968841187577897,0.969454070164417,0,0.97204980817791,1.08448672386655,0.994825606650469,0.992716569514506,1.06577577901928,1.09363489776827,1.02192763514552,1.09559972723681,1.04297294160908,0,1.05235545297035,1.05553703463273,1.08628030673004,1.16447691438652,1.09112928954691,1.12290004127456,1.10871361199248,1.17400363341521,1.17389547766464,0,1.17889768112815,1.21016370601984,1.22258359137607,1.32433111371747,1.42535759772179,1.44144576561792,1.40225733199755,1.43501951143869,1.43373966839037,0,1.44270758270782,1.43500148548026,1.41631757957064,1.45756998543091,1.43404610968363,1.40572732899475,1.40275304585429,1.32387145177758,1.27904089316954,0,1.26657594291725,1.24310614504525,1.26023080555093,1.19911379350407,1.18378271586187,1.18339515775569,1.21116414671254,1.19832065133328,1.14624365743757,0,1.14662220256454,1.15481500066963,1.16864992376238,1.21351653428727,1.16117816399437,1.15797855637357,1.14884840843028,1.14860505799151,1.13331003226617,0,1.11396817887396,1.11457204848127,1.12186354866501,1.05257176447148,1.02417186696968,1.01793488535393,1.0043162737623,1.01117515094379,1.01094081348424,0,1.00917426955839,0.987462002633025,0.958503300419992,0.958746650858757,0.959611896863255,0.95234743561716,0.903443010404611,0.901397064123143,0.90100860471904,0,0.909121187309127,0.913104924121502,0.908904875808003,0.868165308464981,0.828309013084883,0.829437438082415,0.872130118021007,0.800681527901686,0.803218681550292,0,0.800956423767699,0.785119717991626,0.784472586084096,0.768215875476673,0.768054543148751,0.764114969934523,0.73452986566615,0.734300935994127,0.681343374029259,0,0.679439832819364,0.623370990429991,0.618595012744748,0.585003639215966,0.565928570008477,0.513466721900353,0.541051846081246,0.486955944841711,0.480258399988146,0,0.471521217938562,0.476737029009425,0.486636885377553,0.471988090261822,0.420382475178982,0.420230155830274,0.408355555716464,0.427433328817717,0.367303237994732,0,0.399789620271937,0.360303758337514,0.341324226709688,0.342263379143737,0.355763920707665,0.357499820504189
0.563552748687793,0.57251165002603,0.581526431835391,0.581913088643651,0.581304712546738,0.656358494351466,0.698605031818989,0,0.62832452380574,0.78894933285945,0.790815019556648,0.968958356307673,0.552748890504549,0.912437963659702,0.555950300721191,0.55571596326164,0.55723645285496,0,0.835548237989181,0.687578553049171,0.570949700728328,0.571046139605912,0.625870289565899,0.591757965838576,0.592201404415882,0.743681644759556,0.623012273857293,0,0.593571377256336,0.548260426856218,0.553645681936295,0.549829586537291,0.569771704345121,0.566442309823647,0.631050048719908,0.657735677575292,0.674844114718392,0,0.673858094792433,0.709432323748188,0.70690688697256,0.777777745124295,0.777888604768621,0.788734823954168,0.818357782735238,0.819034657474173,0.867944490474249,0,0.81980616849485,0.812814800518924,0.891215101505631,0.836658637028286,0.864961194354575,0.929157040100778,0.912771443890602,0.969345914413854,1.06577577901928,0,1.05943064165297,0.982117305959409,1.03393292345792,0.985352965497062,0.985659406790322,1.02099028530731,1.02099028530731,1.09606840215592,1.0957259089458,0,1.11871801891949,1.11192223259249,1.09280570368062,1.09344562520478,1.16448592736573,1.10989431226945,1.11049818187676,1.11641970922004,1.19890649498216,0,1.17443625641746,1.21838354306257,1.34306008452316,1.43851654737353,1.43633540640386,1.43164865721283,1.42708808973079,1.51332427484573,1.46132839776294,0,1.47879555147874,1.54708689497957,1.51013368020414,1.55986729950434,1.43907535208477,1.41303685513692,1.39558772737954,1.37570509523452,1.27676962240774,0,1.27625588259257,1.25793249585149,1.26371882850656,1.19858202773047,1.18107882209782,1.17955562861073,1.19502190094113,1.17142592136014,1.14002470178024,0,1.15851032214717,1.16736106773484,1.20873064232489,1.2274055352553,1.16790184648765,1.1517956526331,1.13923155960945,1.13404008358247,1.22628792583282,0,1.22645015945867,1.12081804307624,1.22376429165304,1.06108902982825,1.02301820563035,1.02328859500676,1.002910249005,1.00866954272243,1.00819185482412,0,1.01788080747865,1.02120659680844,0.969327888455427,0.965488359310469,0.955619147071667,0.922929071464237,0.913023807308581,0.901829687125392,0.913348274560267,0,0.917836738208599,0.888939324254218,0.888189444383653,0.880809617003625,0.884384164559706,0.878248128311143,0.86803822545807,0.83714804179958,0.793901964937278,0,0.784771816993985,0.795624345264981,0.795420651934756,0.795164683325092,0.769632715809038,0.771434410353821,0.734020632340586,0.734595660414409,0.689705616143561,0,0.741700591928425,0.622561624896617,0.610148048625838,0.597509147874722,0.591612856873239,0.523557653427808,0.540577763374615,0.499240635509736,0.481526526163488,0,0.473556348644974,0.480532394556237,0.479723930320785,0.51923863378869,0.419748862740272,0.419650621266845,0.428062434766821,0.426418467358275,0.365732275717816,0,0.365306863098938,0.369816957897383,0.368089169782151,0.33891145217423,0.354841892934123,0.355443959945586
0.569399468303603,0.577062303230936,0.581406559211851,0.581785104338819,0.582708934708205,0.655965528457757,0.656415276120511,0,0.781206282417117,0.791117855658223,0.79026973431423,0.564347693454426,0.713592714953148,0.559578024854632,0.557179671085915,0.557915130189738,0.558528012776257,0,0.843661721877189,0.720262319571151,1.01948511777865,0.722959904249757,0.899905416063305,0.593426268290999,0.593045920568188,0.591725519113408,0.553740318218036,0,0.594095932646563,0.538719287060787,0.559424804208002,0.552357727206683,0.594146405330159,0.647390580034016,0.688979170018952,0.69255822406464,0.691677655995479,0,0.727630430078202,0.703122337000804,0.757880692212532,0.772016648811014,0.789646036152655,0.788904267963383,0.837385083152896,0.826762385851843,0.828043130198084,0,0.830677624022195,0.845387707396578,0.85180314600076,0.895750432645874,0.861379436415123,0.925362575851887,0.933429192247985,0.94653406402444,0.98019754138693,0,0.982928474088626,0.983153798568964,0.983487278799864,0.983198863465031,0.986407484065044,1.0212516617045,1.0057132855404,1.00986826895783,1.04574893920685,0,1.11861887614814,1.10906511818181,1.089191499016,1.11776264312285,1.16260221471011,1.12134980884983,1.1557974154039,1.14986687508141,1.15639227203199,0,1.23387685433061,1.23311075109746,1.42434814404988,1.52230120214239,1.45973310044215,1.46085070986463,1.46319408446014,1.59394537391065,1.54014690098516,0,1.56581586578526,1.50440142542435,1.51058432916482,1.55383761641049,1.50158937590973,1.43271218876003,1.40971106580713,1.37894075477218,1.33904930877315,0,1.28240273441619,1.25865353418857,1.2236020580272,1.26716178656613,1.17921313540062,1.17912300560848,1.21648180444852,1.17611267055117,1.15829401064604,0,1.1611330990983,1.17823973364556,1.21713073895189,1.21732902449459,1.17963674542365,1.15020035531231,1.14297194598306,1.12973187951841,1.14920892759882,0,1.12208887314534,1.10430626515707,1.10425218728179,1.13030871018807,1.05229236211586,1.03651063551299,0.996276696303846,0.996583137597106,1.00428923482466,0,1.00448752036736,1.00940860701794,0.980819436952663,0.974321078939716,0.952572760097498,0.93351932204012,0.928589222410326,0.912311781950713,0.926335977606947,0,0.924262992387838,0.903271763799554,0.904939164954055,0.887528793007303,0.866472670968682,0.830465819010678,0.868427586160094,0.821570008526936,0.777691220523845,0,0.789089935335181,0.771648919259102,0.796758178050042,0.782313977562458,0.782054403761109,0.762628729662214,0.732600186816536,0.737325691818183,0.663176813126493,0,0.631273570604403,0.658132248660687,0.603058439176485,0.553788988305789,0.591715604836273,0.591329849325934,0.496573694960456,0.510834931970006,0.489626490582677,0,0.473122824344804,0.470145837310579,0.47819442774825,0.467470785080007,0.467792548437929,0.424476170337762,0.433904647893023,0.432542786733861,0.426862807233502,0,0.369343776488673,0.36813513597614,0.359442117524702,0.384297210301821,0.385829416768119,0.353617029059006
0.558148566351368,0.577947377789703,0.577030757803688,0.581180333433592,0.662227746415309,0.663312909112617,0.657330994808605,0,0.629096936124339,0.793233201879635,0.564932635805383,0.573941108529294,0.725401520318699,0.718904063603674,0.558922781265809,0.558397324577661,0.559445534060193,0,0.718951832393506,0.727466393856516,0.722124401076664,0.72238848136762,0.902009946709662,0.591752558051048,0.600131924825856,0.607570336570772,0.555713259367876,0,0.556464941834283,0.593414551418021,0.593909363976843,0.578736914768807,0.638849880931286,0.666957757906564,0.675427254473506,0.691010695533679,0.690715069815475,0,0.768981978709822,0.768912578769878,0.785486546245617,0.76842677919027,0.855541729778527,0.827781753800892,0.838968663600711,0.8379213554161,0.857425442434153,0,0.874710533969837,0.909544797332163,0.854753995395266,0.860980161435964,0.866653831850874,0.928300807075494,0.928787507953024,0.907057215069232,0.984100161386383,0,1.00365832627972,0.981188969100417,0.983198863465031,1.05166145357091,1.03903426969278,1.03128310756915,1.03840336114783,1.03706944022423,1.06090877024398,0,1.10882176774304,1.1419264403943,1.08698331910869,1.08744298104858,1.09129152317275,1.1132561535161,1.12519835097401,1.17471565877307,1.16374686307022,0,1.20175459641363,1.19522919946304,1.40025645061215,1.43865174206173,1.46460912219667,1.5844456938196,1.46379795406745,1.59022301349546,1.57856021839317,0,1.56081366232176,1.52533857613735,1.52226515022554,1.46140951457587,1.46149063138879,1.43768735328589,1.44323934848141,1.38486228211546,1.37200076077777,0,1.28626028951957,1.26105999963858,1.23204721955026,1.2405374459694,1.23543609973454,1.23532794398398,1.19115533285853,1.26738711104647,1.21165986056928,0,1.18973128214279,1.21057830306366,1.21256115849064,1.21990673654965,1.19914984542092,1.18292648283659,1.13367956441393,1.14034916903193,1.12625286954199,0,1.11216558303126,1.11062436358575,1.10561314714303,1.10555906926775,1.10468481028404,1.14528828164094,1.04214374752144,1.00219822364713,1.00340596286174,0,1.04035917763716,1.03831323135569,1.04313517523493,0.98053102161783,0.970625757462174,0.940369186242394,0.937881603979463,0.931410284904157,0.940756744348575,0,0.936205189845749,0.90646235844114,0.9299051173755,0.900393018238757,0.862564643181701,0.840477436321053,0.791265668517324,0.788107520600907,0.775155869471082,0,0.778319425175027,0.772315879720903,0.79106287648502,0.81239209179381,0.800763546012529,0.759348906526414,0.70674014685711,0.682030163045329,0.664758590978465,0,0.63555834092251,0.633640378945873,0.601280178377658,0.547767416893238,0.547199599202786,0.534991518858076,0.560384686494242,0.478277347157015,0.476712693965548,0,0.478992977706568,0.476594623937851,0.486205163673225,0.482760403017819,0.467963795042986,0.460781351907734,0.385486022260084,0.382381050921027,0.386858698994302,0,0.390356636227069,0.366191937657706,0.36069402033746,0.386296289091379,0.384772194306373,0.382549593632319
0.565706850719824,0.564883064419709,0.579228122135944,0.58160574605247,0.812339816514372,0.756693682850112,0.766470061403015,0,0.645347337646311,0.706213788871041,0.693864204752679,0.576507103711383,0.724425414669875,0.698016484276346,0.562028653902788,0.563592405796333,0.562941668697117,0,0.719323167137103,1.0253796061843,1.02485685338991,0.723741329547569,0.724674172896168,0.596992704165788,0.596719610895618,0.608305795674595,0.556934518051307,0,0.556808336342318,0.563493263024984,0.577326383521892,0.638277556751228,0.637930557051507,0.668705374576065,0.673052334450744,0.682880086985164,0.725759335593476,0,0.727239266780335,0.781425297812005,0.832387386179,0.796847406544256,0.900997789143984,0.834130496358894,0.859930149357589,0.893782899283563,0.905326723060236,0,0.905056333683831,0.904794957286639,0.876916009983385,0.874221129198543,0.873818249027699,0.866510525481379,0.906101839272599,0.90646235844114,0.94942723035198,0,0.983766681155483,0.983487278799864,1.00520855870444,0.988759871639772,0.989228546558875,0.99029207810607,1.04419870678212,1.04993997454113,1.06851572470019,0,1.1117239470498,1.14636082616735,1.14588313826903,1.08956103116376,1.09030009545926,1.10597366631157,1.14616254062465,1.19355278532933,1.19194847502932,0,1.21798697197717,1.43565943296285,1.49811036593331,1.56858285040381,1.47299119286524,1.76880618363211,1.71961334308473,1.60007419977584,1.6138460320141,0,1.47361308843097,1.47306329669894,1.5570462370105,1.48481622159337,1.48449175434169,1.51329723590809,1.44284277739602,1.44487069771906,1.36444788419684,0,1.27404770268526,1.26056428578183,1.25870761206385,1.27075796527232,1.23748204601601,1.2369412672632,1.19458927793888,1.24310614504525,1.23271418001206,0,1.22883859895025,1.2486761661992,1.19550860181866,1.20198893387318,1.19590517290405,1.17222807651014,1.14913682376511,1.13960109175721,1.12944346418357,0,1.13011042464537,1.13723067822405,1.10808270344754,1.10796553471776,1.11062436358575,1.11733002012061,1.16008759350953,1.07340977241313,1.00463172803478,0,1.01546532904943,1.03956603546637,1.05492415204621,1.00195487320836,0.983225902402672,0.9416400163115,0.933528335019334,0.950842268088502,0.95155429344637,0,0.939675186842953,0.939594070030032,0.94355978088398,0.887908239432192,0.868741237836724,0.826665946974259,0.799432328982693,0.790278747293444,0.76181936412884,0,0.762332202646089,0.789406290905576,0.788425678767145,0.809160037447843,0.802629232709728,0.772592578182758,0.699742469795735,0.677929257503179,0.669326368843876,0,0.616572500209234,0.603511792030925,0.591822859288914,0.575047902376714,0.534592243878918,0.534498508895097,0.56023687363514,0.559762790928509,0.491524624005043,0,0.482787441955459,0.489718422970655,0.517619001424021,0.512194089235404,0.467480699357142,0.464151304835668,0.46332571593971,0.3817762800158,0.439723427273271,0,0.382333282131195,0.360511056859425,0.359874740526951,0.373750222026162,0.383712267950863,0.385527481964466
0.565513972964655,0.564711817814652,0.887826221321349,0.807288041665195,0.59406078202763,0.777344220824124,0.660838846318506,0,0.806336271060248,0.697871375311009,0.580333113387521,0.575495847443626,0.575372369628401,0.792159756055305,0.564608168553696,0.562038568179922,0.565301266655216,0,0.568271944603991,1.02494698318205,0.714571524495736,0.584397967012818,0.592606087182568,0.596752057620787,0.596808839389832,0.607440549670098,0.556438804194564,0,0.558238696143503,0.63291843931087,0.61508265474524,0.638179315277801,0.644147710112992,0.644100842621082,0.688208560296196,0.720210044291713,0.74528415246372,0,0.744276501387649,0.797894714728867,0.831742056867312,0.825391511713467,0.835025485194796,0.839819488838467,0.979494529008275,0.875788486283774,0.908057655761932,0,0.891710815362375,0.880749230042894,0.876231023563158,0.876045356191359,0.876468064916473,0.867996765753688,0.90141509008157,0.91086970527655,0.977926270625123,0,0.986092029792571,0.982802292379637,0.982162370855477,0.988065872240331,0.988453430346512,1.01097686540109,1.00931847722581,1.0369162195776,1.0404493074293,0,1.15916826962976,1.05614090424003,1.09627570067783,1.09202157448905,1.09173315915421,1.10244959143909,1.1331297726819,1.18718060902537,1.21945608758898,0,1.36630455791482,1.40468182340598,1.47579422940064,1.51120622473055,1.58398603187971,1.76835553467143,1.60635624628766,1.59486469779043,1.60066004342472,0,1.5821113322033,1.58787062592074,1.58461694042466,1.54987190555654,1.52336473368959,1.49404551230801,1.43930067656511,1.45383861203651,1.3575529550985,0,1.28622423760272,1.29835570762411,1.30083427690783,1.24509801345144,1.25762605455823,1.25104657973236,1.23839235691658,1.22256556541764,1.23576056698623,0,1.2200689701755,1.20688298158612,1.20410698398836,1.20448552911532,1.21942003567212,1.16768553498653,1.16660397748091,1.14855098011623,1.12068284838803,0,1.11685233222229,1.12402666367625,1.12061074455433,1.13195808538414,1.1241258064476,1.13147138450662,1.12370219642456,1.08307168613002,1.04652405541921,0,1.03796172516637,1.05354516622654,1.01462712198257,1.01535717329886,0.974780740879606,0.986028938938076,0.972707755660496,0.932879400515961,0.927219249569871,0,0.939404797466548,0.933816750354167,0.933275971601355,0.916007103428255,0.858080686022975,0.858746745186854,0.797299858100774,0.79029587195395,0.79099618043884,0,0.793452217274524,0.778816040329692,0.779799356361887,0.779465876130987,0.780023779544303,0.747855555433336,0.68373722130837,0.692642946069247,0.657262496166582,0,0.632255084040755,0.612872672242085,0.592003118873184,0.597936363089443,0.532699518244079,0.53358729669661,0.560459494221714,0.482666668033998,0.484995621862771,0,0.4883484501302,0.478866795997579,0.49578956576888,0.509907496408935,0.461926000267851,0.463847567436173,0.463405030156789,0.379991710131523,0.377770912053312,0,0.412078817429568,0.36456148971798,0.361521411829261,0.367944060816814,0.339240425915523,0.370905725786376
0.564765895689933,0.569267878807085,0.603713682765308,0.594625895824318,0.594949461778083,0.59361373825864,0.732217135199961,0,0.732385677911254,0.806209188053337,0.583146965497982,0.577208313494194,0.57537867871385,0.574429612002667,0.756302519552245,0.569274187892535,0.571534643079285,0,0.571448118478835,0.725446585214767,1.16384600584157,0.658205253792316,0.593258626877627,0.594725939893588,0.604085918806826,0.609656841258702,0.60885558740662,0,0.575013653055703,0.655343632892024,0.661303014748002,0.641485276053319,0.642099961235681,0.67838351165554,0.710249800962854,0.754295329081395,0.763022596853844,0,0.837517573947334,0.857558834526513,0.858171717113032,0.855166789843245,0.848721608407658,0.884744683728247,0.97925117856951,0.95465475829582,0.916178350033312,0,0.948318633908717,0.942469210399144,0.892097472170635,0.882974534610712,0.881672159114359,0.886694191132131,0.889526970498939,0.899838720017125,0.953113538850308,0,0.965407242497547,0.971680276030155,0.979800970301535,0.981774812749296,0.984289433949867,1.00024240715779,1.00225230152241,1.03052601731521,1.03015648516746,0,1.03815099772985,1.0382501405012,1.09704180391098,1.13229156561504,1.13263405882516,1.12496401351445,1.13355338270494,1.22418790167607,1.22344883738057,0,1.3456197706198,1.49465839489453,1.48587975314057,1.49591119900521,1.73382681130445,1.73346629213591,1.75352017088598,1.68221849232784,1.59921796675056,0,1.63550422106418,1.66884323117498,1.5725756001954,1.52861930057107,1.48600593484956,1.50291428385412,1.44191444053703,1.37219904632047,1.36982863278731,0,1.32205082997645,1.30690902489774,1.25080322929359,1.24523320813964,1.24517011728514,1.25031652841606,1.32264568660454,1.31812117103936,1.24580102583009,0,1.22050159317775,1.24362889783963,1.20471986657488,1.20366534800689,1.20550399576645,1.20362929609004,1.15394074168592,1.15267892459602,1.1432603613179,0,1.12822671198975,1.32420493200848,1.1353920304645,1.1357976145291,1.13476112191955,1.16118717697358,1.1453964373915,1.18965016532987,1.04023299592817,0,1.03950294461188,1.01273439634773,1.02090916849439,1.03354536535174,1.02725430586071,1.02121560978765,0.96590295635429,0.964983632474512,0.926822678484477,0,0.937683318436766,0.94033313432554,0.940387212200821,0.867271220927,0.855908558032518,0.856500710766846,0.844067305941798,0.797048395980717,0.871180150011902,0,0.874813281932871,0.779164842625255,0.780593399830598,0.786571708942924,0.784105757830106,0.721596240494752,0.673567876861757,0.685790377973209,0.631662931306427,0,0.665338125541894,0.664365625084756,0.598003059135623,0.582847734588093,0.585764334661587,0.585155057266753,0.522501332263983,0.52922681735311,0.48586176916519,0,0.488530512310313,0.513221568865745,0.489063179381832,0.462447851764313,0.462175659792065,0.462745280078359,0.412159032944569,0.425140426905799,0.411802118967713,0,0.382208903018048,0.379601448131578,0.363482636106122,0.363713368373988,0.362605673228647,0.36898145472429
0.561911485173012,0.734136899772441,0.603325223361205,0.59527392902977,0.594944053990555,0.819625007612658,0.677636335678739,0,0.747504049244009,0.747892508648112,0.584046460823491,0.703423370506536,0.575908641891605,0.575625634344301,0.573211057212999,0.573547241337664,0.573735612603226,0,0.575312883965592,0.923199460840643,0.863400146354794,0.865154072109744,0.592594370309591,0.594077906688136,0.59494044879887,0.609463963503532,0.609153015720666,0,0.5928269051733,0.586876536296535,0.642324384418098,0.664641422248689,0.681805739862913,0.680197824371221,0.731374421643497,0.762211428724628,0.765387602599472,0,0.790916866221761,0.790567162628277,0.846345787086975,0.896444432045314,0.85905048258635,0.859164947422362,0.924344109200759,0.909571836269803,0.910085576084974,0,0.931374232987303,0.950499774878388,0.89940159052527,0.906110852251812,0.89448140517261,0.902803088880451,0.993590828498218,0.950121229751421,0.943703988551396,0,0.966119267855415,0.973879442958254,0.98329800623638,0.999647550529702,0.989886494041462,0.990661610253824,1.00647938877355,1.02183750535338,1.03039983560622,0,1.03801580304165,1.10058390474189,1.13897018321226,1.13896117023305,1.09762764755985,1.12498203947288,1.18565741553828,1.21796894601875,1.27594944129931,0,1.32390750369444,1.53161160966996,1.50748386431537,1.54487871507226,1.78426344298329,1.80297438783056,1.68540908696943,1.6418493584305,1.66248908082945,0,1.6079154916916,1.58578862772241,1.61390912286859,1.53648763142447,1.48688019383327,1.51911060750081,1.46599712099555,1.34564680955744,1.32683672193883,0,1.30793650452808,1.26728796827512,1.24715297271212,1.24615253201942,1.25172255317337,1.24085290024187,1.25235346171832,1.29832866868647,1.2467383756683,0,1.27743658286954,1.23150644079745,1.24789203700763,1.20147519405801,1.20208807664453,1.23328199770251,1.18251188579277,1.14855098011623,1.19221886440573,0,1.29210971302915,1.32483584055343,1.15942964602695,1.17351693253768,1.1430620757752,1.16727093794271,1.14182729762295,1.12096225074365,1.04675839287876,0,1.02236927112698,1.11742916289195,1.02344181565339,0.980873514827944,0.98183790360379,0.993284387204958,0.990364181939778,0.996483994825757,0.929625715019881,0,0.934609892524956,0.939837420468796,0.938611655295758,0.880543734116826,0.869407297000603,0.860196933542309,0.861182052170347,0.806520135836203,0.872279733475951,0,0.872227458196513,0.812524582588249,0.789825394439004,0.829332887523539,0.784430225081792,0.785186414037806,0.68732438703535,0.687986841007543,0.629963984724679,0,0.665120011444927,0.6647685052556,0.594649329570273,0.610061524025389,0.570823519019338,0.551381621557859,0.548574979830769,0.501227096128395,0.509447834469045,0,0.491805828956505,0.512362631946697,0.512754696542485,0.461107621755263,0.460321689967844,0.411161296145632,0.429917305888963,0.41240688987294,0.412109461558894,0,0.372363124525201,0.423724487871355,0.361563772831564,0.363223963602694,0.356328133206432,0.369372618022156
0.566772184862862,0.564993924064035,0.582604384149328,0.595875996041233,0.59556054176876,0.606189548155261,0.606226501370037,0,0.622618406665662,0.748001565696595,0.58853312187598,0.701010595971077,0.693693859445543,0.70055273662703,0.809415104759585,0.573968147466935,0.576337659702169,0,0.576354784362674,0.575583273341997,0.863848992719627,0.672245672811134,0.592578146947007,0.595759728609378,0.606797924252174,0.60017428582816,0.651454532361391,0,0.644073803683441,0.668611639592244,0.664186266798407,0.668357473578423,0.680617829202571,0.682021150066116,0.76181305504339,0.760374583560913,0.765557046608686,0,0.778260840810139,0.849622005031089,0.894691407588285,0.895238495426546,0.87093860216898,0.862327601828385,0.896546278710427,1.04537940705909,0.942685521900268,0,0.948129361345233,0.983460239862223,0.962685322775064,0.932041193449104,0.937818513124968,0.925452705644022,0.947408323008152,0.949544399081755,0.950076164855353,0,0.998989603047115,0.99679944909823,1.01977353311349,1.03062516008656,1.0056501946859,0.990724701108319,1.00892190614041,1.0271191111725,1.03960208738323,0,1.14737027983926,1.10138605989189,1.09889847762896,1.07399561606201,1.10296333125426,1.1387268327735,1.18035778376074,1.26206044033128,1.2614745966824,0,1.31818426189385,1.65099753233222,1.49869620958219,0.00363712467076067,1.83353740034359,0.00407205499568819,1.70325478581219,1.67350294142837,1.64693267870692,0,1.60373346933653,1.57826279007913,1.59445911372582,1.56055228592456,1.55633421165264,1.51628954500698,1.46664605549892,1.36296975560582,1.32945048591075,0,1.29727415011849,1.33525484452426,1.24731520633796,1.24811736148796,1.24797315382055,1.24501689663851,1.34169011168271,1.32331264706634,1.24830663405145,0,1.30194287335109,1.2554088616717,1.21770756962155,1.20322371202543,1.20299838754509,1.22343982440135,1.19095704731583,1.19249826676135,1.16756836625675,0,1.32639508595737,1.15058791341849,1.13710449651506,1.13657273074147,1.14343160792295,1.14465737309599,1.16603615979046,1.14288181619093,1.1244592866785,0,1.03989951569727,1.04068364488885,1.04627169200123,1.08048496109574,1.02034135080394,1.01842158623146,0.995627761800473,0.99649300780497,0.957800288041338,0,0.930184519731119,0.97402365062567,0.890484148891415,0.890270541284055,0.896232627033797,0.890166892023099,0.84927590662929,0.847985248005914,0.871908398732355,0,0.873881339882194,0.869483006025997,0.800385902183483,0.828100813265051,0.775627248283949,0.7362035759061,0.687081937894506,0.688813331201423,0.719056382952383,0,0.66362205429964,0.722758914813296,0.621753160661164,0.626146988027754,0.568981266068095,0.603920079989298,0.574526050880252,0.56597093101078,0.499285700405804,0,0.493058633067184,0.531644999676097,0.50991741068607,0.4757735415315,0.458596605746377,0.458552442148231,0.412092336898389,0.410984641753047,0.40937312106967,0,0.40872598916214,0.423511781561916,0.364472261223767,0.363937791556405,0.358181201732731,0.357057283224805
0.568773967546184,0.567615799717247,0.577919437554141,0.594330270106114,0.595076544784994,0.606650111393072,0.606692472395376,0,0.60715573952695,0.673831957152713,0.588589002347104,0.81669218417658,0.588672823053789,0.701954254894732,0.579661646436114,0.73723646332397,0.578502577309256,0,0.577039770782902,0.576133966371943,0.868584411998409,0.674785530353504,0.66950212193854,0.617520665622496,0.59937483457192,0.650528899396163,0.666510714137573,0,0.610696939059942,0.675546225799125,0.710550834468586,0.677253284062165,0.685985959622143,0.723039218466836,0.710638260366957,0.761403865787097,0.777178382006596,0,0.800965436746912,0.791716317478,0.820143253917436,0.890397624290965,0.860508782623097,0.860529512475288,0.887471109940336,0.916205388970952,0.916151311095671,0,0.98929163741337,0.987092470485271,0.976439129054893,0.977187206329615,1.04218881241751,1.01243696803368,0.980540034597044,0.97420391020994,0.998358694502169,0,1.0283809282624,1.0472541067355,1.05201295976024,1.02329760798597,1.01435673260616,1.01702457445336,1.04226992923043,1.04084587851469,1.14829861669825,0,1.06314398908894,1.14691061789937,1.07713213282832,1.09734824520424,1.11509480127565,1.16450395332416,1.18314279433771,1.21850071179234,1.246810479502,0,1.30804466027864,1.49463135595689,1.56320210181334,1.70614795213973,1.78407417041981,1.7900047107423,1.6905915500172,0.00412958484200808,1.68127212951042,0,1.61015071053655,1.60906915303093,1.56081366232176,1.51260323650865,1.48853858200856,1.469899740995,1.56663604689369,1.35017132512263,1.41629955361221,0,1.3052145848056,1.29055046762521,1.34914384549229,1.24579201285088,1.24793710190369,1.24479157215818,1.26183511585094,1.26758539658916,1.27563398702683,0,1.26693646208579,1.26115914240992,1.23298456938847,1.2139401443103,1.20527867128611,1.18718962200458,1.20107862297261,1.21671614190807,1.20125888255688,0,1.17611267055117,1.15248965203254,1.14994799189433,1.17500407410791,1.14185433656059,1.14147579143362,1.13586971836281,1.13331003226617,1.1053247318082,0,1.06581183093614,1.06160276964342,1.05766409772712,1.09009279693735,1.01887223519214,1.01934091011124,1.01054424239884,0.989967610854383,0.931860933864833,0,0.930283662502468,0.949165853954788,0.900332631278026,0.887143037496964,0.887644159141236,0.890145260872987,0.886587837977411,0.849193888518447,0.87217878810876,0,0.86505763323216,0.818875127742094,0.810607521909534,0.817494339326583,0.778492474375927,0.75353192974201,0.741325651993143,0.719358317756035,0.710636457771114,0,0.756279987104212,0.754727050785722,0.623514296799486,0.622057799358581,0.634868848012675,0.627232150725062,0.565613115736004,0.56607097508005,0.524101136074383,0,0.494493499357976,0.488264629423514,0.4942158995982,0.469486988530071,0.460491133977059,0.460817403824588,0.429540563357838,0.417201794814532,0.408143750704946,0,0.411452415374229,0.420813295585388,0.361418663866227,0.414996318800984,0.414925116265197,0.431179122978855
0.568584694982701,0.567299444146853,0.576304311679079,0.622018142250042,0.591488477760092,0.60860863177617,0.607710037748582,0,0.607153936931108,0.606344571397734,0.734522655282779,0.589547082037501,0.70213271188316,0.786879051534105,0.582909924144666,0.580493544417522,0.67178961606293,0,0.578566569461672,0.676021209803677,0.588172602707439,0.871928227286624,0.647663673304186,0.619237638162671,0.619277295271211,0.62198389292903,0.611485574741125,0,0.627124896272421,0.674836904335021,0.678842272297508,0.681667841280946,0.66287487832284,0.6639284955929,0.7408173199655,0.792977233269971,0.794020936262897,0,0.800551741001012,0.799622502844098,0.802766229993773,0.846970386546472,0.886803248180614,0.864468184391596,0.921640215436704,0.924614498577165,0.923641096822105,0,0.956980106932908,0.958449222544711,0.991202389006635,1.00922834743367,1.04174717643604,1.02314438733934,1.04384720059279,1.02836290230397,1.0803858183244,0,1.05915123929735,1.05386062049901,1.07928623486035,1.07674457472213,1.17935734306804,1.10260281208572,1.1234588459858,1.06217960031309,1.06932689282941,0,1.06902946451536,1.06963333412267,1.08271116696148,1.09086791314972,1.17463454196015,1.17419290597869,1.20762204588163,1.24831564703066,1.24941523049471,0,1.27636403834313,1.46197733226632,1.46165286501463,1.46280652635396,1.46927784542927,1.68059615606941,1.71144758391728,1.71068148068413,1.64439101856871,0,1.60790647871239,1.5552436411678,1.48874588053047,1.47948053789897,1.45688499901068,1.50319368620974,1.35812077278895,1.35736368253502,1.37538062798284,0,1.35683191676142,1.29841879847861,1.28742296383812,1.24665725885537,1.32980199210008,1.3287474735321,1.32810755200794,1.27669751857403,1.36165386064065,0,1.36351954733785,1.26149262264082,1.2450709745138,1.22057369701145,1.20535077511982,1.20494519105521,1.25348909709922,1.21096586116984,1.22753171696429,0,1.31549839408822,1.18391791055008,1.15016430339545,1.14966858953871,1.15148921133984,1.1418633495398,1.1363924711572,1.1353920304645,1.1490647199314,0,1.10648740612674,1.06901143855694,1.07585228978,1.04575795218606,1.07570808211258,1.08057509088788,1.02559591768542,0.965100801204287,0.934853242963721,0,0.9237041876766,0.921387852018725,0.931491401717079,0.886282297982073,0.886455347182973,0.884410302199425,0.887558535838707,0.852725173774303,0.854586353981895,0,0.846243039123941,0.82934730829028,0.859807572840285,0.879524366167777,0.776736746025133,0.77615450756794,0.763322729061654,0.715513380823549,0.722557024078913,0,0.688773674092884,0.687594776411755,0.620851862739812,0.620814008227116,0.653457216342635,0.687919243663442,0.597359532419778,0.598465424969277,0.54506172053334,0,0.500338416377943,0.501266753236935,0.497025245219054,0.470798377005638,0.461093200988522,0.460245079644529,0.426903365639963,0.437375546188149,0.414567300990421,0,0.422989930065453,0.387165140287562,0.416490670754585,0.371673631615367,0.376191838095104,0.431370198138182
0.568244905666351,0.571332752344902,0.637149131753695,0.587812083538898,0.592609692374254,0.607694715683919,0.608104806238134,0,0.607002518880321,0.606248132520149,0.604225619984636,0.820574074323842,0.821636704573116,0.590418637127448,0.715676515747313,0.583041513641183,0.765950913800316,0,0.759213711838212,0.861575919361978,0.586443011996365,0.587255982721424,0.590745808272898,0.61746298255553,0.618999695511435,0.621498994647343,0.625995569976967,0,0.663262436429021,0.65446757131247,0.653979969137019,0.676404261420252,0.676478167849802,0.663227285810088,0.846537763544223,0.79505652757453,0.771502007697922,0,0.800496761827809,0.799522458774828,0.81987286454103,0.82003960465648,0.835091279943055,0.850551243188002,0.930031299084489,0.884819491455719,0.924199901533343,0,0.953221694600871,0.955213563007058,0.996547085680251,1.01230177334548,1.0492549881209,1.05000306539563,1.07674457472213,1.07574413402943,1.16065541119999,0,1.07457244673168,1.08621721587554,1.13139026769369,1.18974930810122,1.18937076297425,1.10347707106943,1.12941642524593,1.10809171642675,1.09970063277896,0,1.10399982386381,1.08950695328848,1.11923175873466,1.12456744242906,1.13322891545325,1.17683370888825,1.17519334667139,1.21095684819063,1.25488610887732,0,1.30169050993311,1.46243699420621,1.46237390335171,1.46301382487587,1.49337855184621,1.49342361674228,1.46344644787812,1.4794985638574,1.67809956082726,0,1.61017774947419,1.44826859088256,1.51004355041201,1.4662314584551,1.49111629406362,1.49992197475523,1.33019856318547,1.35851734387435,1.31518293981575,0,1.35649843653052,1.28553023820328,1.3964259344464,1.25784236605935,1.26657594291725,1.23520176227499,1.32567404762029,1.32466459394837,1.35187477819398,0,1.25021738564471,1.24969463285033,1.22764888569407,1.22060073594909,1.24026705659299,1.21687837553391,1.22458447276147,1.22362008398562,1.21601312952941,0,1.23937477165085,1.19527426435911,1.18351232648547,1.14967760251792,1.14955142080893,1.14785698071679,1.17091218154497,1.15916826962976,1.26569267095432,0,1.12041245901163,1.19207465673831,1.05468981458666,1.0461184713546,1.04610044539617,1.0702552296884,1.02335168586125,1.01469021283706,0.940873913078351,0,0.933447218206412,0.93105877871483,0.948048244532312,0.949634528873891,0.884397684028526,0.883607245751501,0.872775447332695,0.871844406579939,0.873875030796744,0,0.83911467386397,0.835895237688901,0.818817444675127,0.816722828305906,0.782007536269199,0.777574953091991,0.751254349894754,0.740660494127185,0.728565977320565,0,0.688801614328446,0.771556986871125,0.692259894452672,0.749803260241378,0.653822242000782,0.653468031917691,0.653629364245613,0.598049025329612,0.591423584309755,0,0.489430007635822,0.497472288988044,0.479162421715782,0.48120746669933,0.482852335405797,0.434033533495777,0.43511599229932,0.472331484769857,0.472273801702891,0,0.395093858101694,0.414395153087442,0.385369754828229,0.417177459770655,0.367620494863048,0.373520391056217
0.573323719453168,0.572541392857435,0.701160211426021,0.582230345511967,0.591861615099532,0.60635538697279,0.606463542723352,0,0.606676249032791,0.606305815587116,0.605961519781159,0.593072058207907,0.592059900642229,0.592214923884702,0.591234311746271,0.591351480476047,0.591912087783128,0,0.677938270482392,0.674836003037099,0.587575943483504,0.589368625049073,0.589438926286938,0.606512212811105,0.625746811750674,0.631401554909235,0.627159145593432,0,0.666541358266899,0.698039918022301,0.653848379640502,0.676098721424913,0.699051174290058,0.69889885494135,0.843777088011122,0.85323620969571,0.784453658827747,0,0.7934765523184,0.81294548871752,0.826431609514707,0.821798938198959,0.853062259196889,0.852355641626549,0.857793171986064,0.877907437696872,0.931067791694044,0,0.928129560470437,0.977574764435796,0.978133569147034,0.992554335888663,1.02161218087304,1.0714539559238,1.07656431513786,1.0768527304727,1.15850130916796,0,1.15861847789773,1.11527506085992,1.1254597273712,1.12437816986558,1.18954200957931,1.11669911157566,1.19479657646079,1.15209308094714,1.13681608118023,0,1.13662680861675,1.12843401051166,1.1197274725914,1.12457645540827,1.17325555614048,1.17325555614048,1.1749319702742,1.21630154486425,1.25866254716778,0,1.52296816260419,1.52618579618342,1.46358164256632,1.46387005790116,1.49365795420183,1.49367598016026,1.46422156409048,1.46542029032588,1.46639369208094,0,1.47158516810793,1.44953942095166,1.44885443453144,1.44012085767354,1.50954783655527,1.44983684926571,1.35200997288219,1.34269055237541,1.35792248724625,0,1.30534076651459,1.29802222739321,1.34250127981192,1.27366014457907,1.33646258373887,1.23703139705534,1.23864472033456,1.28098769667966,1.28726073021227,0,1.34858504078105,1.27446229972908,1.23412020476937,1.23296654343004,1.21469723456424,1.21555346758952,1.21662601211593,1.2246746025536,1.21797795899796,0,1.19462532985574,1.22602654943563,1.23717560472275,1.15484203960727,1.15191282136287,1.16085369674268,1.17574313840342,1.17310233549385,1.14484664565948,0,1.17060574025171,1.15491414344098,1.1021251241874,1.07067883971144,1.07051660608559,1.04039522955402,1.04027806082424,1.02062075315956,1.01715075616235,0,0.962099479126186,0.912978742412513,0.954438446794696,0.899033860973358,0.955285666840766,0.88071317812604,0.871477578325949,0.919188685090627,0.920062944074338,0,0.864230241740359,0.849027148402997,0.831849311319953,0.871882261092635,0.792192202780474,0.76248632459064,0.750976750134978,0.750394511677784,0.72787558311281,0,0.726150498891343,0.772335708275173,0.771136080741853,0.678351064930372,0.653084079003195,0.653152577645218,0.660326909099178,0.601500996368389,0.591772386605318,0,0.519026828777172,0.515902028883845,0.476161099637681,0.467431127971467,0.435505353001344,0.443458405859352,0.463266230276901,0.435447669934378,0.414505111433847,0,0.39554450706237,0.395431844822201,0.384719017729013,0.383052517872434,0.386649597876549,0.430347224997448
0.578923483438527,0.578473735775772,0.578843267923527,0.579855425489205,0.591364098646946,0.592339302997848,0.605929073055991,0,0.606152594940486,0.606443714169083,0.607156640824872,0.594889976115274,0.593358670946897,0.592328487422792,0.591783202180374,0.593935501616562,0.594378038895946,0,0.592360032850039,0.590986454817899,0.693246815676553,0.589107248651881,0.605638855125315,0.631575505408056,0.62889774928372,0.626482270854497,0.626639997990734,0,0.697870474013087,0.695670405787068,0.689733556379123,0.667687809222858,0.678039215849584,0.720649877677332,0.762216836512156,0.784401383548309,0.864263589763449,0,0.785550538398032,0.805623344404458,0.801469262284948,0.81593869911433,0.824657855205487,0.860967543265065,0.86177059971299,0.86269082489069,0.866042751860197,0,0.892970829856425,0.955619147071667,0.99239210226282,0.980503982680189,1.01815119685505,1.02879552530622,1.06227874308444,1.10523460201606,1.10751488575708,0,1.15825795872919,1.11484243785767,1.11548235938183,1.13696930182686,1.15142612048534,1.1197905634459,1.15029949808365,1.13142631961055,1.13095764469144,0,1.13433751189651,1.14329641323475,1.20088033742992,1.15487809152412,1.17378732191408,1.1833320669012,1.21374185876761,1.25516551123294,1.27779710203808,0,1.49486569341644,1.55509042052117,1.6164507830068,1.79601636787772,1.77614274871191,1.74005477994099,1.76895039129953,1.46539325138824,1.46702460062589,0,1.47030532505961,1.46637566612251,1.44851194132132,1.47166628492085,1.46627652335117,1.4239605859437,1.37105439796035,1.34757558710913,1.32666547533377,0,1.3154172772753,1.35060394812488,1.34344764262934,1.24930707474415,1.24884741280426,1.23737389026545,1.32676461810512,1.29950035598423,1.28292548721057,0,1.27256056111502,1.26530511284814,1.24263747012615,1.220808034471,1.22436816126034,1.22550379664125,1.21990673654965,1.22017712592606,1.22435914828113,0,1.224269018489,1.26749526679703,1.17113750602531,1.15668970034604,1.15677081715896,1.15614892159323,1.17735646168263,1.1767345661169,1.15606780478031,0,1.26453900961499,1.14004272773867,1.09890749060817,1.07216598128167,1.08899321347331,1.07817763841708,1.03993556761413,1.023847399718,0.945966246333989,0,0.992166777782482,0.927940287906953,0.899276310114202,0.901361012206289,0.926750574650769,0.875531616376189,0.869601076053694,0.919125594236132,0.920108008970406,0,0.871914707817804,0.868699778132342,0.834692906261818,0.804379553272993,0.766315939458464,0.767564237079536,0.762257394918617,0.758770273260907,0.727451071791853,0,0.727426736747977,0.773704779817706,0.708252524769139,0.702934867033163,0.661943837570083,0.663096597611492,0.622048786379368,0.556459534046755,0.604430214612783,0,0.520075038259704,0.516377012888398,0.484167329073049,0.506938621056002,0.444124465023231,0.460629032559025,0.458846265270591,0.482672977119448,0.450963513650449,0,0.413555143424743,0.372701111245708,0.402724246303858,0.385029064213958,0.374665940714255,0.372961586344979
0.579246148094371,0.57927228573409,0.581714803100953,0.581544457793818,0.586712500074849,0.592696216974704,0.604799746760537,0,0.606196758538632,0.605237777550314,0.653654600587411,0.592661967653692,0.592058098046387,0.591860713801611,0.592038269492117,0.59510087982887,0.594417696004486,0,0.593300987879931,0.59279355715021,0.591291994813238,0.646670442994856,0.645630345193616,0.631771087056989,0.631523230128618,0.678347459738686,0.687373958421024,0,0.686079694605963,0.732014343167657,0.694428417251445,0.702074127518272,0.678197844283742,0.774950373545014,0.759329979270066,0.774031049665235,0.787143131825061,0,0.792800578877386,0.792015548387889,0.800235385430617,0.809887384870374,0.81073190102268,0.87147217053842,0.85640337059134,0.868362692709757,0.866063481712388,0,0.872421237249604,0.918972373589502,0.951265878111537,0.978503101294789,0.996700306326881,1.05597867061419,1.04560473153943,1.07219302021931,1.06739811527772,0,1.07959267615361,1.1243240919903,1.11371581545598,1.10626208164641,1.11374285439363,1.11158875236159,1.14895656418084,1.13158855323639,1.1374650156836,0,1.14482861970105,1.14342259494374,1.15662660949154,1.19175920246584,1.2084692659277,1.20737869544286,1.28822511898812,1.22970384495475,1.5599123644004,0,1.54128253636606,1.59709090365617,1.8456778833442,1.7750702041855,1.79929709231144,1.79498888824738,1.70945571551109,1.70614795213973,1.67522442045815,0,1.58820410615164,1.57946151631452,1.59379215326402,1.5616428564094,1.44159898626455,1.47848911018548,1.37913002733566,1.37536260202441,1.37771498959914,0,1.3387518804591,1.32324054323264,1.35081124664679,1.35038763662375,1.26144755774476,1.33742697251471,1.26059132471947,1.27229918471783,1.26651285206275,0,1.26672916356388,1.25159637146438,1.23610306019634,1.2245394078654,1.21894234777381,1.22681969160642,1.22355699313113,1.22375527867383,1.20102454509733,0,1.19290385082595,1.17760882510061,1.1770680463478,1.19557169267315,1.1549321693994,1.15165144496568,1.17723027997365,1.17747363041241,1.1576000112466,0,1.28657574379205,1.25584148467395,1.12451336455378,1.08297254335867,1.09308510603624,1.06113409472432,1.03422133879276,1.07241834469965,0.96894934332846,0,1.04857901467989,0.948048244532312,1.03876388031637,1.00941761999716,0.899326782797798,0.874511347129219,0.875363073664896,0.862278931740632,0.862693528784454,0,0.887902831644664,0.869839018704931,0.840813620445718,0.827717761648476,0.796677962535042,0.767140627056501,0.761000084318331,0.759302039034504,0.761740951209682,0,0.728001764821799,0.75856567863276,0.750273737756323,0.679220817424476,0.645974640999572,0.671828371873548,0.62595771546427,0.557633023940355,0.562735271473127,0,0.517528871631886,0.557785343289063,0.557920537977266,0.558452303750864,0.474268374002842,0.473847467873571,0.469562697555464,0.476961452191841,0.441805425471593,0,0.412985523138448,0.370640744197498,0.392291722864211,0.374853410681896,0.378577573692922,0.37888942277371
0.582438545331799,0.582422321969215,0.582553010167811,0.583959936223041,0.584635008366133,0.593549746106224,0.598015677306522,0,0.603718189254915,0.587625514869179,0.588291574033057,0.589012612370139,0.591901272208071,0.592663770249535,0.594417696004486,0.594251857186957,0.592286126420489,0,0.592164451201106,0.59354073312701,0.593088281570492,0.69233199828638,0.645809703479965,0.646201768075753,0.67023577844652,0.677108175096827,0.708270550727566,0,0.713341252833091,0.714041561317981,0.741502306385728,0.741511319364941,0.873584812866069,0.93525882702833,0.809417808653349,0.857319990577354,0.778670030066433,0,0.809369138565596,0.818417268398047,0.813721506227804,0.8159459094977,0.837952900843347,0.844194388948708,0.861945451509732,0.873783098408766,0.869572234520211,0,0.908526330681035,0.908481265784968,0.915547441488366,0.954600680420539,0.984686005035262,1.03343720960118,1.01297774678649,1.02108041509945,1.06235985989736,0,1.04382917463437,1.05233742701193,1.1585283481056,1.07931327379799,1.08055706492945,1.11394113993632,1.12731640108918,1.11665404667959,1.16508078399382,0,1.14571189166397,1.14516209993195,1.18304365156636,1.20096145424284,1.22809052167553,1.25185774786157,1.22547675770361,1.55895698860377,1.50044472754961,0,1.5006340001131,1.5188402181244,1.51861489364406,1.52203081276599,1.52213896851655,1.80688602080922,1.7103930653493,1.70469686248636,1.60786141381632,0,1.56427464633975,1.58950197515838,1.57565803908642,1.57282796361338,1.52807852181826,1.48699736256304,1.41367677666108,1.39164905546324,1.34881036526139,0,1.36894536082439,1.34424078480013,1.34291587685575,1.35167649265129,1.27375928735042,1.34539444613946,1.28017652855045,1.26513386624309,1.26586391755938,0,1.25583247169474,1.25069507354303,1.24541346772391,1.22391751229967,1.22293509756539,1.23316482897274,1.22831584615587,1.28604397801845,1.20443145124004,0,1.20318766010858,1.21897839969066,1.28390790194484,1.18722567392144,1.29260542688589,1.15565320773648,1.1473973187769,1.16554044593371,1.16797395032136,0,1.16194426722752,1.16150263124606,1.12395455984254,1.11688838413914,1.07699693814011,1.03759219301861,1.01715976914157,0.987615223279655,1.04214374752144,0,0.97335669016387,0.930301688460895,0.930743324442357,0.903821555531579,1.00247762600275,0.913276170726559,0.88355316787622,0.874720448246972,0.899809878483642,0,0.865474032871824,0.865494762724015,0.847018155336303,0.847063220232371,0.809808070653295,0.791475670932999,0.782414021631728,0.767899519906279,0.764106858253231,0,0.792873584009016,0.740893930288815,0.740658691531342,0.682241968056847,0.657095756051132,0.669503924534382,0.645649272449964,0.564299924664594,0.538669715675113,0,0.570967726686755,0.475515770325993,0.559730344203341,0.557661865473838,0.456912981229292,0.441406150492434,0.479717621235335,0.47799433960971,0.441366493383895,0,0.414484381581656,0.401533631749752,0.399301116798564,0.386499982421604,0.376534331305218,0.374512720067626
0.584723335562426,0.583676027377815,0.583754440296973,0.58722623989002,0.586878338892378,0.593086478974649,0.592524069071726,0,0.590429452702504,0.590028375127502,0.589394762688792,0.58774628879064,0.590605205797167,0.593749834244764,0.59388052244336,0.592272606951668,0.590938686028068,0,0.591381223307451,0.593136951658245,0.595751616928086,0.756469259667696,0.646707396209631,0.64658662228817,0.717469197312882,0.719163637405023,0.710660792814991,0,0.703473843190131,0.711821664537692,0.742991250551801,0.739175155152797,0.845392213886185,0.843459831142807,0.813287981927634,0.792649160826599,0.796576115869929,0,0.989030261016178,0.820375788781144,0.820793991016652,0.830546935823599,0.845199336131015,0.846186257354896,0.873883142478036,0.868616858723578,0.868950338954478,0,0.899895501786171,0.927048002964815,0.930806415296852,0.941081211600262,0.976934842911636,1.04753350909112,0.996114462678003,1.04793909315573,1.02727233181913,0,1.03213032761522,1.05559111250801,1.16588293914383,1.06064739384679,1.08701937102554,1.17082205175283,1.12421593623973,1.11676220243015,1.17144394731857,0,1.23539103483848,1.21771658260077,1.23243477765644,1.23076737650194,1.21993377548729,1.3481524177788,1.36676421985471,1.56294973839536,1.50147220717995,0,1.51991276265081,1.51971447710811,1.51934494496036,1.52319348708453,1.5230402664379,1.52311237027161,1.72024425162967,1.69174521135653,1.47220706367366,0,1.47265771263434,1.57889369862407,1.58376070739937,1.58280533160274,1.58312979885443,1.43771439222353,1.42588936349539,1.39593022058966,1.40050881403013,0,1.4124239725504,1.3800223122778,1.35511945071085,1.38684513754243,1.28936976734824,1.31407434337249,1.34117637186754,1.30800860836179,1.31639969200958,0,1.31119019002416,1.24682850546043,1.24005074509187,1.23856360352164,1.22955062430812,1.23130815525475,1.22974890985081,1.28813498919598,1.21048817327153,0,1.20310654329566,1.21745520620358,1.21670712892885,1.19339055170348,1.19821249558272,1.16794691138372,1.14910978482747,1.14909175886904,1.17051561045957,0,1.16482842057584,1.16220564362471,1.1309306057538,1.06474829938894,1.06499164982771,1.03017451112589,1.00570427256119,1.00486606549433,1.00480297463983,0,0.944244767304207,0.970499575753185,0.934609892524956,0.99649300780497,0.945497571414886,0.946281700606462,0.949084737141866,0.965686644853166,0.878962857562775,0,0.888255239131912,0.865654292456094,0.856374529057856,0.830353156770509,0.830892132927477,0.790778967639794,0.775130633129284,0.766178040876497,0.755679722688591,0,0.755713972009603,0.742749702708879,0.743577995498601,0.680598000648302,0.619899190836944,0.619977603756101,0.579989718879486,0.550922860915891,0.538969847882923,0,0.528284961025298,0.559462658720699,0.558255820804009,0.572608088903615,0.473482442215423,0.450243376611289,0.450447971239436,0.45107797848646,0.429841596863569,0,0.429469360822051,0.446414663041386,0.392962288517697,0.382531567673892,0.383174193091816,0.393242592171237
0.584508826657144,0.584270884005907,0.584952265234449,0.58569944121125,0.587250574933896,0.594207693588811,0.591821957990992,0,0.590761130337562,0.59071336154773,0.588010369081596,0.587934660056202,0.591031519713967,0.592837720748356,0.594804352812746,0.590581772051212,0.590851260129697,0,0.591297402600766,0.701116047827875,0.724034251372009,0.76263323615182,0.642521768662874,0.641405060538319,0.642417218103997,0.697087246119433,0.697226947297242,0,0.703914577873672,0.753240810513413,0.753130852167008,0.854451159293692,0.826469464027404,0.829004815080167,0.816502911613096,0.817560134074842,0.799992936289774,0,0.850195230509068,0.844262887590731,0.890729301926023,0.890134445297931,0.864591662206821,0.858236610563369,0.857230762083141,0.869526268326222,0.871056672196677,0,0.904344308325963,0.921171540517601,0.933690568645178,0.932951504349669,0.950716086379513,0.952473617326149,1.02117054489158,1.00373944309264,1.03752910216412,0,1.02453238613822,1.04606439347932,1.04582104304055,1.04467639468044,1.04350470738268,1.08778547425869,1.13588774432124,1.11810513633297,1.12613570081221,0,1.17841999322983,1.17544571008937,1.21156071779794,1.23472407437668,1.39374907961999,1.39314521001268,1.53249488163288,1.56214758324536,1.6125842149242,0,1.63355741755406,1.5202372299025,1.52062478800868,1.52368018796206,1.52335572071037,1.52360808412835,1.49819148274623,1.49764169101421,1.47299119286524,0,1.47257659582141,1.57458549456001,1.57655032402856,1.58839337871512,1.43888607952128,1.44697973485502,1.4309636707926,1.43596587425611,1.41651586511333,0,1.40175260516159,1.40667369181217,1.37593041971486,1.32708007237759,1.30819788092527,1.31118117704495,1.33261404161469,1.29238911538476,1.27942845127573,0,1.27115453635772,1.25083026823123,1.24627871372841,1.2399425893413,1.24209669137333,1.26162781732903,1.23457986670926,1.22422395359293,1.21046113433389,0,1.21044310837546,1.21214656144681,1.20588254089342,1.18699133646189,1.19975371502823,1.19164203373606,1.15531071452637,1.16153868316291,1.14510802205667,0,1.14513506099431,1.13627530242742,1.13273320159651,1.118528746356,1.04549657578887,1.02530750235059,0.978259750856024,0.961306336955396,1.00910216572468,0,0.948111335386806,0.938620668274972,0.990174909376294,0.99157192115439,0.952536708180643,0.953176629704803,0.95206803326154,0.955213563007058,0.875403632071357,0,0.875866899202932,0.834765911393447,0.829705123565057,0.829804266336405,0.830746122664218,0.831187758645681,0.774570025822203,0.812672395447351,0.782240972430829,0,0.783570386864823,0.743998901627872,0.685612822282703,0.673852687004905,0.643858393480238,0.644915615941984,0.587680494042381,0.588196036453394,0.526947434910012,0,0.525069130041915,0.512362631946697,0.580038388967239,0.572289029439456,0.491088395811109,0.503678626474472,0.468994879865013,0.466783996063937,0.434966376844376,0,0.421159393987188,0.419591135604035,0.40996617510192,0.407860743157642,0.391548152079096,0.393400319307474
0.583306495230061,0.584337580052087,0.585210036439956,0.585319093488439,0.590927870453012,0.591814747607622,0.59103332230981,0,0.590754821252112,0.592028355214982,0.594528555648812,0.590919758771719,0.589517339206096,0.594064387219316,0.597146826110339,0.595948099874941,0.731322146364059,0,0.744001605521636,0.605492844862056,0.60218147629901,0.646714606593002,0.646198162884068,0.664024033172563,0.64195935875995,0.707354832039472,0.70662027423357,0,0.702661773762993,0.759758095782708,0.831254454691861,0.830985867911298,0.827872784890949,0.826439721195999,0.8193861636635,0.986867146004933,0.877828123479793,0,0.876737552994958,0.939278615757559,0.88928722525186,0.889452162771467,0.888717604965566,0.88052660945632,0.886595048360782,0.888326441667699,0.890206549131639,0,0.933528335019334,0.923983590032219,0.925236394142897,0.940143861762056,0.940846874140711,0.953807538249749,0.98327096729874,0.986425510023471,1.02097225934889,0,1.04475751149336,1.03081443265005,1.06482040322265,1.06523500026647,1.07356299305976,1.08395495809295,1.09410357268737,1.12223308081276,1.13568945877854,0,1.18410718311356,1.18700936242031,1.19119138477538,1.23090257119014,1.41986869338076,1.56738412416841,1.54525726019922,1.63099773145742,1.6469867565822,0,1.62832988961022,1.72188461384653,1.68470607459077,1.52375229179577,1.523508941357,1.52312138325082,1.49775885974398,1.49785800251533,1.50094945438557,0,1.45811977716293,1.45921034764777,1.5771812325735,1.62283197228997,1.43126109910665,1.43026967139316,1.4306301905617,1.39351474216044,1.41706565684536,0,1.42380736529707,1.39233404188346,1.39299198936605,1.35045974045746,1.34910779357543,1.30787341367359,1.36046414738447,1.30684593404325,1.37893174179296,0,1.32636804701973,1.27098328975266,1.25725652241047,1.30532274055616,1.24625167479077,1.33311876845065,1.33522780558661,1.23116394758734,1.20606280047769,0,1.22096125511763,1.21237188592715,1.21859985456369,1.1797989790495,1.15562616879884,1.15492315642019,1.13953800090271,1.1418633495398,1.14129553184935,0,1.15154328921512,1.13558130302798,1.1069921329627,1.08960609605982,1.04891249491079,1.00157632808139,0.968273369887446,0.968372512658794,0.95906210513123,0,0.953645304623906,0.943118144902517,0.944208715387353,0.993275374225744,0.906056774376531,0.896530956645764,0.899363736012573,0.881411684015088,0.874810578039107,0,0.875400026879671,0.838195349984191,0.840792890593527,0.83225399408664,0.832150344825684,0.828562277800783,0.819308652042264,0.801472867476633,0.781664141761164,0,0.782907031594708,0.707982135392733,0.684795345068037,0.660382789570302,0.606725820418466,0.613407141909447,0.594340184383249,0.594549285501003,0.585100979391472,0,0.586072578550689,0.535876593416844,0.584485392911189,0.577291232902959,0.490696331215321,0.467309452752085,0.4698934738926,0.469739351948049,0.470591078483727,0,0.477955583799092,0.480401706357641,0.414943142223624,0.414294207720251,0.391485061224601,0.405100968922463
0.576690968487339,0.579067691105943,0.616562585932099,0.60710887203504,0.587410104665976,0.587327185257211,0.590838641958798,0,0.590435761787953,0.594402373939823,0.592118485007117,0.591125254697788,0.590585377242898,0.594312244147687,0.596893561394439,0.59644741892337,0.596253639870279,0,0.601039531832657,0.772088752644722,0.704121876395583,0.645271628620918,0.645963825424516,0.656733434286749,0.687796667146138,0.686813351113943,0.706064173416097,0,0.703262038178614,0.716881551068161,0.831749267250683,0.828815542516683,0.831135483366242,0.820432570550189,0.820765149483168,0.843692366006515,0.918404555899051,0,0.882437361049586,0.891374631237711,0.912465002597343,0.912726378994535,0.977070037599839,0.969841628270598,0.917692530541183,0.918756062088378,0.934519762732821,0,0.938593629337331,0.939431836404188,0.942406119544649,0.944109572616004,0.951157722360975,0.964307659033498,1.00419910503253,0.992959919953271,1.02196368706237,0,1.02705602031801,1.03701536234895,1.06460409172153,1.15002910870725,1.15217419776007,1.0898584594778,1.0965911549503,1.1433955560061,1.17791526639387,0,1.16804605415507,1.17763586403825,1.18588274001862,1.21798697197717,1.54127352338685,1.52258060449801,1.64013689237993,1.64090299561308,1.74396641291965,0,1.76205546220118,1.73051904793308,1.7041921356504,1.70823896331727,1.70959992317851,1.70943768955267,1.67542270600085,1.69969465902285,1.48806089411024,0,1.45784037480731,1.45973310044215,1.5926475049039,1.46350953873262,1.4282958289454,1.41054025989477,1.39017092687222,1.41483945097962,1.40342901929531,0,1.34317725325294,1.33792268637146,1.39126149735706,1.34231200724844,1.34341159071249,1.32606160572647,1.34904470272094,1.32232121935286,1.29336251713982,0,1.32271779043825,1.30176261376682,1.27960871086,1.32908996674221,1.32740453962928,1.32599851487197,1.334948403231,1.2260716143317,1.23302062130532,0,1.20225932324958,1.18252089877198,1.16503571909776,1.16789283350844,1.15776224487245,1.13882597554485,1.13747402866282,1.12627990847963,1.13053403466841,0,1.14824453882297,1.14857801905387,1.10290024039976,1.0434506295074,1.03667286913883,0.995429476257775,0.98393792776054,0.969661368686327,0.953447019081209,0,0.960783584161012,0.937611214603058,0.923722213635027,0.922469409524348,0.900172200248026,0.887868582323652,0.886513931547861,0.93379872439574,0.877781255987883,0,0.859094646184496,0.836618979919747,0.836438720335476,0.831908796982762,0.828926402161009,0.82146635926598,0.821187858208282,0.805945107762381,0.811868437701505,0,0.785613629252527,0.71364048374298,0.71628128665254,0.666822563218361,0.639487098561682,0.641346476173431,0.660873095639517,0.628105508410852,0.602515857827832,0,0.57253778766575,0.563413047509984,0.603449602474352,0.60350818683924,0.500593483689685,0.492036561224371,0.491250629436953,0.466971466031578,0.482325977419727,0,0.481658115660005,0.480762225526182,0.481445409350566,0.416743935470485,0.411577695785297,0.414074291027441
0.578877517244538,0.578259226870491,0.579274088329933,0.606680755522398,0.587569634398055,0.587598475931538,0.587652553806819,0,0.589874253182951,0.59024648922447,0.589192871954409,0.590143741261435,0.590744005677056,0.596221193145111,0.596736735556124,0.596415873496123,0.599143201006133,0,0.600047202821249,0.599035045255571,0.68289721164567,0.682082438324768,0.685509173021747,0.6567145070304,0.654964186467135,0.649639318347789,0.706166020081209,0,0.704038956986819,0.725540320198587,0.75899920293293,0.820137846129907,0.830492857948318,0.864571833652551,0.855837355496731,0.882550023289755,0.898353381042738,0,0.901018518996175,0.996186566511711,0.93415924356428,0.953428993122782,0.95432127806492,1.05454560691924,0.970220173397566,0.968228304991378,0.980900553765584,0,0.939440849383402,0.940387212200821,0.955249614923912,0.953383928226714,0.956745769473356,1.00400983246904,1.00336089796567,0.989426832101572,1.02124264872529,0,1.03752910216412,1.04723608077708,1.08256695929407,1.09520315615142,1.10925439074529,1.10947971522563,1.13920452067181,1.1250631562858,1.14874025267972,0,1.16530610847416,1.17853716195961,1.17915905752534,1.20258379050127,1.53774944851436,1.61271940961241,1.64144377436589,1.71888329176843,1.81838658228567,0,1.81591702598117,1.70730161347906,1.7179910068263,1.76917571577986,1.76020780146241,1.68494942502954,1.6721239556087,1.67594545879523,1.58813200231793,0,1.50782635752548,1.51292770376033,1.49787602847376,1.49138668344003,1.42900785430327,1.40268094202058,1.38433051634186,1.3858266708913,1.33814801085179,0,1.33685014184505,1.33824715362314,1.33804886808045,1.34021198309169,1.32684573491804,1.33935575006641,1.35964396627604,1.29424578910275,1.28917148180554,0,1.28196109843472,1.3476837428597,1.28167268309989,1.33539905219167,1.32682770895962,1.32406072434107,1.23884300587725,1.21310193724345,1.19548156288102,0,1.19658114634507,1.17403067235285,1.15607681775952,1.16171894274718,1.15949273688144,1.1361941856145,1.12342279406894,1.12322450852625,1.12719021938019,0,1.1205296277414,1.13001128187403,1.129461490142,1.12976793143526,1.14929004441174,0.998674148774642,0.98688517196336,0.968733031827335,0.948138374324447,0,0.948201465178941,0.939152434048569,0.931500414696292,0.921613176499063,0.992671504618439,0.886864536439266,0.887874891409102,0.868779993647343,0.85949752635534,0,0.859614695085116,0.828400945472861,0.827496042359824,0.827497844955666,0.825250909237736,0.820784978037438,0.834957887850695,0.799910918178931,0.805942403868617,0,0.785002549261851,0.786044449658933,0.694600565154423,0.665451689079985,0.640276635540786,0.643292378385629,0.595786767547019,0.628761653297596,0.628809422087427,0,0.573229083171426,0.574137591476149,0.597977822793825,0.603447799878509,0.603349558405082,0.491698574503864,0.491384922827234,0.535598092359146,0.452718340703321,0,0.483523802357204,0.479937537928145,0.417259477881498,0.463521297588643,0.464400063061961,0.411351470007037
0.578130341267737,0.578631462912009,0.578370987812738,0.60905567554516,0.585753519086531,0.587629120060864,0.680805299170212,0,0.587844530264067,0.588904456619577,0.587890496458056,0.586929712873895,0.587570535695976,0.594708815233082,0.596630382401404,0.596905278267417,0.598870107735963,0,0.599093629620459,0.598944014165514,0.716953654901869,0.685795785760737,0.710179499724989,0.653259832097859,0.653605930499658,0.652590167742295,0.643021989009224,0,0.726844498290783,0.734350507379801,0.819222127441814,0.820103596808896,0.81219831274072,0.856262768115609,0.856731443034712,0.856105040979372,0.896589541010652,0,0.995735917551035,0.996592150576319,0.909121187309127,0.949328087580631,0.964758307994174,1.00282913219207,1.01461810900335,0.98217138383469,0.965443294414401,0,0.978710399816699,0.969012434182954,0.987885612656061,0.980675229285246,0.960738519264945,1.00300939177634,0.976367025221185,0.992139738844841,1.05534776206924,0,1.06188217199904,1.09055245887724,1.08364851679969,1.08463994451318,1.10942563735035,1.1426655046898,1.17669851420005,1.15449954639715,1.15276905438816,0,1.16168289083033,1.1719306481961,1.19004673641527,1.20787440929961,1.55073715156104,0.00434020915324878,1.65063701316368,1.646851561894,1.71670215079876,0,1.74544454151067,1.74377714035617,1.71718885167629,1.75557513014666,1.68493139907111,1.6865897872464,1.72191165278418,1.6439223436496,0.00403346141869591,0,1.52048058034126,1.56325617968862,1.47008901355848,1.42387045615156,1.41333428345096,1.39736328428461,1.3728209418862,1.379355351816,1.3392205553782,0,1.33795873828831,1.33684112886583,1.33692224567876,1.34745841837936,1.32933331718097,1.37464156368733,1.36082466655301,1.4312971510235,1.29255134901061,0,1.38850352571772,1.34793610627768,1.34690862664733,1.33416427403942,1.24664824587616,1.32838695436355,1.27312837880548,1.20379152971588,1.20061896103272,0,1.18220544449951,1.16197130616516,1.16064639822077,1.16043909969886,1.15157032815276,1.14343160792295,1.12988510016504,1.15227334053141,1.13074133319032,0,1.13296753905606,1.0836575297789,1.04327036992313,1.0427836690456,1.01161678692525,1.00282011921286,0.992833738244282,0.999539394779139,0.965362177601479,0,0.951500215571089,0.93920651192385,0.93933269363284,0.933591425873829,0.943487677050271,0.889978520757537,0.868632180788241,0.851185756924634,0.837321091000479,0,0.839217421827004,0.827999867897859,0.827706044775499,0.827386084013419,0.817422235492875,0.817869279261865,0.799845123430672,0.800052421952583,0.799904609093481,0,0.784832203954715,0.786083205469551,0.709844216898246,0.68301077518376,0.674735958967829,0.594397867450216,0.59595440896039,0.62839121985192,0.582942370869835,0,0.583078466855959,0.581265055438199,0.603424366132554,0.603725399638286,0.576847794325654,0.489373225866777,0.535503456077404,0.457261783524855,0.4564785556312,0,0.482830704255684,0.492394376499148,0.459211290928739,0.470638847273558,0.411049535203385,0.404479974654651
0.577941068704254,0.613557658662312,0.611784805651013,0.612563527055061,0.582891898186239,0.583558858648039,0.678690854246721,0,0.588324922056148,0.588784583996037,0.588875615086093,0.588136550790585,0.585237976675518,0.60434188741649,0.59839422243349,0.620002840097899,0.734521753984858,0,0.71364048374298,0.736292804400314,0.743916883517029,0.727466393856516,0.71055353836235,0.664252962844587,0.651969173474483,0.652089947395944,0.6765962378775,0,0.727767427362248,0.762630532258056,0.749630211040478,0.754021334513304,0.818598429280239,0.847151547428663,0.857054107690556,0.856305129117912,0.874036363124666,0,0.874028251443374,1.00162139297746,0.915132844444544,0.933771685458099,0.974798766838033,0.988029820323477,0.988056859261118,0.984244369053799,0.991788232655514,0,1.0973933101003,1.01852072900281,1.0094446589348,1.0007110820769,1.05216618040687,1.02983201791577,1.01506875796403,1.05214815444844,1.06436975426197,0,1.08126007730811,1.08373864659182,1.11649181305375,1.13714054843192,1.13570748473697,1.13118296917178,1.18023160205175,1.15149822431905,1.15062396533534,0,1.15918629558818,1.17199373905059,1.182268535354,1.23208327146712,1.26651285206275,1.6322505355681,1.66595907782666,1.74795014973203,1.74435397102584,0,1.74715700756124,1.74981583642923,1.71578282691898,1.70451660290209,1.8482736213577,1.68969025209585,1.66259723658001,1.66141653630304,1.61296276005117,0,1.54353578116944,1.47381137397367,1.50064301309231,1.42725933633585,1.43480319993756,1.39326237874246,1.39501089670988,1.34543049805632,1.34388927861081,0,1.34460130396867,1.33811195893494,1.33797676424674,1.34466439482317,1.32845004521805,1.32980199210008,1.34611548447654,1.37924719606544,1.2951470870241,0,1.29452519145837,1.29468742508421,1.34242917597822,1.31220865667529,1.27064980952176,1.23177683017386,1.20653147539679,1.19174117650741,1.18476513059615,0,1.18479216953379,1.16351252561067,1.16202538404044,1.16047515161572,1.15254372990782,1.13770836612237,1.12727133619312,1.11787981185263,1.12441422178243,0,1.12395455984254,1.11060633762732,1.06641570054344,1.0433875386529,0.998025214271268,0.998502902169585,0.999142823693745,0.995456515195416,1.01556447182077,0,0.966074202959347,0.955222575986272,0.956051770073915,0.923073279131653,0.912077444491161,0.894449859745363,0.913871027354651,0.871736250829376,0.862661983357207,0,0.825763747754985,0.829802463740563,0.828721807532862,0.821013907709461,0.834989433277942,0.832286440811808,0.798448111652577,0.799755894936458,0.868253635661273,0,0.868473552354083,0.735214852086377,0.667384071823363,0.677922948417729,0.650473018925039,0.644535268219173,0.597194594900171,0.597374854484441,0.597691210054835,0,0.578575582440885,0.56143019208301,0.562289129002058,0.562343206877339,0.575399408566041,0.576017698940089,0.5078038670605,0.456054044310244,0.481850993415175,0,0.48212769187703,0.448073952514595,0.46360601959325,0.458008959501656,0.457453759982103,0.40486573016499
0.614023629687651,0.613354866630008,0.612373353193656,0.611676649900451,0.671352486571075,0.609011511947014,1.00695707667186,0,1.00899400997412,0.588282561053844,0.589888673949693,0.587805774453449,0.587508346139403,0.587632725252549,0.629096034826417,0.626618366840621,0.731186951675856,0,0.616805936370864,0.740826332944714,0.741819563254044,0.707220538649191,0.665311987902175,0.642811986593549,0.642044982062479,0.677146930907445,0.676831476634972,0,0.727912536327585,0.757129009746125,0.749884377054299,0.752429642384197,0.815321310038204,0.863173019278613,0.840634262159369,0.863961654959796,0.872955706916965,0,0.874801565059894,0.994050490438107,0.925020082641773,0.929283221809767,0.981044761433,1.0105172034612,0.988101924157185,0.983856810947618,0.98473106993133,0,1.14158394718418,1.1406646233044,1.09029108248005,1.04270255223268,1.04442403126246,1.0556542033625,1.0681191536148,1.17755474722533,1.07030029458447,0,1.09321128774523,1.09781692012334,1.12554985716333,1.13436455083415,1.17063277918935,1.17749165637084,1.17765388999668,1.29238911538476,1.2042061267597,0,1.16793789840451,1.17472467175229,1.17664443632477,1.21716679086874,1.25444447289585,1.65522461958336,1.77892775928889,1.75105962756069,1.73671997763199,0,1.73328603255164,1.91982766333382,1.72733746627071,1.71881118793473,1.84600235059589,1.7258593376797,1.67204283879578,1.69410661191047,1.65353017949121,0,1.48048999157088,1.45004414778762,1.43284738344823,1.43560535508756,1.4261597528718,1.43020658053867,1.41976955060941,1.42028329042458,1.34439400544676,0,1.34352875944227,1.35361428318219,1.34598930276756,1.33420933893549,1.33350632655683,1.3190134559815,1.30167248397469,1.30115874415952,1.30120380905558,0,1.29465137316736,1.29410158143533,1.28810795025834,1.27411980651896,1.22984805262216,1.21165986056928,1.20910017447265,1.18652266154278,1.18590977895626,0,1.17985305692478,1.17945648583938,1.16203439701965,1.15017331637466,1.14820848690612,1.14238610233419,1.14262945277295,1.14541446334993,1.15054284852242,0,1.08431547726149,1.05866453841982,1.12333266427681,1.12452237753299,0.99825955173082,0.998701187712282,0.999025654963969,1.004514559305,1.00008918651116,0,0.977331413997031,0.985704471686389,0.955042316402001,0.952167176032889,0.90336189359169,0.902397504815843,0.876094026279112,0.865272142137441,0.858116737939829,0,0.824702018803633,0.831230119647984,0.82779347067387,0.828403649366625,0.843567085595447,0.799480999070446,0.814788642966685,0.816779610074951,0.868176124040037,0,0.792975430674129,0.711838789198197,0.712952793428988,0.662038473851825,0.636427192118693,0.595792175334547,0.596654717445281,0.602913330211148,0.598138253823826,0,0.578782880962796,0.576680152912282,0.563759145911783,0.561884446235371,0.59200041497942,0.507451459573251,0.509141393175786,0.517096248629637,0.483479638759057,0,0.472887585587331,0.445114991438797,0.458414543566264,0.457610585820418,0.458279348878061,0.421603733862414
0.613981268685348,0.613646887156526,0.614128180246528,0.718660713164909,1.02459547699272,0.693993991653353,0.676504305489522,0,0.588959435792779,0.590124814005087,0.590057216660986,0.587983330143955,0.587480405903841,0.587650751210976,0.589245147233848,0.734485702068004,0.619572019691493,0,0.619207895331267,0.618886131973344,0.744273797493884,0.706994312870931,0.64363937808535,0.64284623591456,0.652821801308082,0.634388456220595,0.63704548249274,0,0.695370273579257,0.74999163150694,0.747205719632042,0.759442641510235,0.796529248378019,0.837716760787953,0.846070891220963,0.860255517907197,0.901388051143929,0,0.903470049342252,0.906723734838332,0.948246530075009,0.931716726197417,0.946939648089049,1.01770956087359,1.00861546484715,0.986614782586955,1.00825494567861,0,1.10535177074584,1.04617254922988,1.07185953998841,1.042251903272,1.05633017680352,1.09365292372669,1.06331523569399,1.17424698385397,1.1731293744315,0,1.17223708948936,1.10195387758234,1.16127730676572,1.15328279420333,1.16241294214662,1.16228676043763,1.17321049124442,1.18005134246748,1.16417948607247,0,1.16207044893651,1.17430106172925,1.22105138490977,1.19845584602148,1.25003712606044,1.6650577799053,1.67866737851772,1.73965820885559,1.73663886081906,0,1.72769798543925,1.8359438657936,1.72490396188306,1.72229921089036,1.83709752713293,1.7255979612825,1.65764009801258,1.67929828706266,1.65700017648842,0,1.51700157036484,1.4330276430325,1.43283837046901,1.43221647490328,1.45071110824942,1.44546555434715,1.47367617928546,1.46672717231184,1.35377651680803,0,1.34333948687878,1.3432854090035,1.34540345911868,1.32949555080682,1.32170833676634,1.30313258660728,1.30169952291233,1.30150123736963,1.29932910937917,0,1.31217260475844,1.29776986397523,1.2783468937701,1.25166847529809,1.22619779604069,1.21809512772774,1.21107401692041,1.18632437600009,1.18573853235121,0,1.18472006570008,1.19669831507484,1.18872182847088,1.15467980598142,1.14794711050893,1.14874025267972,1.12998424293638,1.14515308695274,1.09394133906153,0,1.07827678118843,1.08007937703114,1.04624465306359,1.02681266987924,1.00400983246904,1.00226131450162,1.0075789722376,1.00803863417749,1.05844822691869,0,1.027984357177,0.999034667943183,0.990247013210002,0.962153557001467,0.906318150773723,0.896731044784304,0.894108267833171,0.890512089126977,0.866606964358963,0,0.849950978772382,0.83030719057652,0.830231481551126,0.82547983890976,0.802452578317143,0.803781992751137,0.81311222883297,0.776486185202998,0.784918728555165,0,0.73870377633993,0.729588049163378,0.673227186247486,0.662700026526097,0.662596377265142,0.616319235493334,0.626232611330283,0.61387581682855,0.574405276958791,0,0.575857267910088,0.577672481923691,0.561806934614135,0.53020021910817,0.522893396859771,0.542630018741533,0.548045016653015,0.482302543673772,0.439654928631248,0,0.439875746621979,0.442055986293729,0.512889891230688,0.458595704448456,0.454867034947823,0.422449151312642
0.768232098839258,0.613136752533041,0.612518462158994,1.01786278152022,0.716015403765742,0.675019867813055,1.01186013736402,0,0.589756183155254,0.590586278540819,0.589965284273008,0.590480826684021,0.587860753626651,0.587630021358785,0.632644444742779,0.637264497887629,0.619978505054023,0,0.620741904393407,0.619674767654527,0.728298291837924,0.631744048119349,0.641841288732253,0.633301490927445,0.632641740849015,0.631172625237212,0.63767909493145,0,0.686572704568943,0.66880902383702,0.763819344216319,0.763801318257892,0.796657232682851,0.84120838893527,0.846184454759053,0.87754601723041,0.874771822228489,0,0.890496767062314,0.905407839873158,0.925687043103574,0.944109572616004,0.95350109695649,0.953537148873344,0.958890858526174,0.977259310163323,1.011184163923,0,1.0060467657713,1.04244117583549,1.04635280881415,1.05329280280856,1.09454520866883,1.06360365102882,1.06422554659456,1.07789823606146,1.09454520866883,0,1.11229176474025,1.12867736095042,1.18936174999504,1.15760902422582,1.15907813983762,1.16555847189214,1.17372423105959,1.16897439101406,1.16785678159159,0,1.16389107073764,1.16521597868203,1.23993357636209,1.21691442745077,1.25248865640652,1.32431308775904,1.80630919013956,1.62577921649279,1.72508422146733,0,1.73424140834827,1.83853059082788,1.83839539613968,1.76821132700402,1.76942807919784,1.72888769869544,1.70144317699028,1.70643636747456,1.46077860603092,0,1.48800681623496,1.43300060409486,1.43257699407182,1.51661401225866,1.51212554861033,1.47639809900795,1.37410078493452,1.37245140973844,1.50927744717886,0,1.34607041958048,1.34114031995068,1.32722428004501,1.31419151210226,1.33265009353155,1.34231200724844,1.31764348314104,1.30825195880056,1.30247463912469,0,1.30461071519829,1.26863991515714,1.29311015372185,1.23014548093621,1.23169571336093,1.21627450592661,1.20841518805242,1.20749586417264,1.1936699540591,0,1.19158795586078,1.20295332264903,1.26635963141612,1.26777466915265,1.16502670611854,1.13878091064878,1.12191762654029,1.14823552584376,1.07709608091146,0,1.0772583145373,1.07846605375192,1.0472541067355,1.03313076830792,1.02387443865564,1.00775923182187,1.00865151676401,1.01528506946516,1.01819626175112,0,1.00641629791905,0.997664695102728,0.962126518063827,0.963199062590235,0.947750816218265,0.90730957848721,0.908850797932722,0.886836596203704,0.84952917134519,0,0.847745502758834,0.848007780453948,0.842536902071342,0.820396518633336,0.841207487637348,0.801019514622193,0.791092619316425,0.790367074489736,0.758115029672084,0,0.749848325137445,0.723585405007175,0.67630962513851,0.663659007514416,0.626658023949161,0.630825625537491,0.620079450421214,0.625169079783088,0.574904596007219,0,0.575327304732333,0.569595951250457,0.529085313579458,0.529131279773447,0.550420837973698,0.568474736636296,0.596519522757078,0.440973527490185,0.442512944339854,0,0.441018592386253,0.441699072316874,0.442505733956483,0.454131575844,0.454020716199674,0.42170107403792
