0.170741, 0.179629, 0.176077, 0.173378, 0.183758, 0.185093, 0.177649, 0.176787, 0.179901, 0.18407, 0.182987, 0.18198, 0.186938, 0.180318, 0.192756, 0.193389, 0.190153, 0.198371, 0.200742, 0.207135, 0.208675, 0.220806, 0.00357872, 0.231733, 0.00336139, 0.251358, 0.00342343, 0.00310918, 0.279509, 0.281386, 0.280804, 0.283464, 0.297766, 0.300046, 0.299378, 0.299988, 0.303874, 0.307248, 0.307246, 0.321597, 0.322454, 0.322944, 0.332895, 0.334359, 0.335071, 0.351971, 0.353392, 0.353414, 0.363888, 0.366742, 0.369311, 0.370162, 0.381061, 0.384142, 0.38381, 0.3879, 0.394535, 0.400083, 0.00327498, 0.42614, 0.429004, 0.430063, 0.438819, 0.449603, 0.455263, 0.453754, 0.458667, 0.458868, 0.463613, 0.00362636, 0.476165, 0.886102, 0.00378611, 0.00342534, 0.00351784, 0.00357479, 0.00329293, 0.00365982, 0.00342188, 0.00375557, 0.00344425, 0.00334395, 0.00342247, 0.00327412, 0.0034471, 0.00337907, 0.003622, 0.00339788, 0.00344242, 0.65258, 0.653987, 0.655932, 0.00328583, 0.666844, 0.668944, 0.67223, 0.67379, 0.673983, 0.676333, 0.675994, 0.676177, 0.671266, 0.00352215, 0.681862, 0.682332, 0.683534, 0.68411, 0.677453, 0.68335, 0.678682, 0.677997, 0.666196, 0.665817, 0.667545, 0.66956, 0.676426, 0.677934, 0.678232, 0.678338, 0.633097, 0.658831, 0.636615, 0.637809, 0.683515, 0.586461, 0.562016, 0.563286, 0.563452, 0.5986, 0.700405, 0.685694, 0.711814, 0.692966, 0.694965, 0.69602, 0.69729, 0.755431, 0.712555, 0.746956, 0.777352, 0.763544, 0.795034, 0.800952, 0.802797, 0.832469, 0.811758, 0.818597, 0.866859, 0.862551, 0.87078, 0.89143, 0.863696, 0.854398, 0.863353, 0.871406, 0.914872, 0.91559, 0.896274, 0.845782, 0.850986, 0.836056, 0.840797, 0.852641, 0.862231, 0.881738, 0.881149, 0.898915, 0.91599, 0.872657, 0.874246, 0.901083, 0.934041, 0.924544, 0.947141, 0.933143, 0.956492, 0.975381, 0.954735, 0.976779, 0.956727, 0.968127, 0.977544, 0.981031, 0.968297, 0.972229, 0.990627, 0.988448, 0.988423, 0.992852, 0.988052, 1.0051, 0.984388, 0.985612, 0.993433, 0.994642, 1.00951, 1.03505, 1.09927, 1.09064, 1.10506, 1.08025, 1.08289, 1.08469, 1.09526, 1.09823, 1.13031, 1.13302, 1.14099, 1.14332, 1.15188, 1.15353, 1.15638, 1.27667, 0.00358132, 1.17831, 1.181, 1.18366, 1.18622, 1.18872, 1.19409, 1.19531, 1.1987, 1.20463, 1.34884, 1.22016, 0.00336766, 0.00332089, 1.23999, 1.24485, 1.24717, 1.2508, 1.25454, 1.25783, 1.25672, 1.25788, 1.24981, 1.25096, 1.25347, 1.40909, 1.31188, 1.2637, 1.27187, 1.27183, 1.27645, 1.28188, 1.28344, 1.28365, 1.27689, 0.00355038, 0.0035395, 1.30925, 1.31074, 1.31666, 1.31699, 1.32368, 1.32625, 1.32893, 1.32974, 1.33427, 1.33403, 1.64881, 1.35954, 1.35981, 1.35882, 1.36341, 1.36322, 1.39447, 1.38119, 1.37681, 1.37804, 1.38886, 1.3924, 1.39159, 1.39205, 1.39378, 1.40864, 1.40741, 1.40871, 1.41233, 1.41604, 1.41937, 1.4297, 1.44045, 1.44107, 1.4405, 1.44667, 1.45142, 1.45288, 1.45894, 1.45895, 1.46489, 1.46583, 1.47137, 0.00362912, 1.4865, 1.49465, 1.49314, 1.5241, 1.527, 1.51137
0.170012, 0.168991, 0.170352, 0.170389, 0.176816, 0.182858, 0.178786, 0.178587, 0.179132, 0.180551, 0.181445, 0.177237, 0.180709, 0.181029, 0.182127, 0.183082, 0.189812, 0.203316, 0.191267, 0.203797, 0.216424, 0.212241, 0.219707, 0.248809, 0.249083, 0.00370885, 0.24857, 0.256126, 0.26858, 0.00330743, 0.284172, 0.290087, 0.292031, 0.293157, 0.294631, 0.297733, 0.297331, 0.306949, 0.320485, 0.320868, 0.321168, 0.331416, 0.331762, 0.326459, 0.341636, 0.350287, 0.351495, 0.352029, 0.352764, 0.00362503, 0.366516, 0.382901, 0.383753, 0.384302, 0.384482, 0.386878, 0.387934, 0.00332922, 0.426827, 0.00325671, 0.431842, 0.43206, 0.439954, 0.0032827, 0.451996, 0.452407, 0.453594, 0.460762, 0.462101, 0.472361, 0.00357467, 0.00345166, 0.00360163, 0.00334291, 0.00346, 0.0033412, 0.00362868, 0.00344829, 0.00355683, 0.00340904, 0.00349298, 0.00328095, 0.833181, 0.00345586, 0.00340419, 0.00322481, 0.00334336, 0.00367953, 0.00369165, 0.648137, 0.655995, 0.656096, 0.658756, 0.661354, 0.663853, 0.662378, 0.00341551, 0.660563, 0.665345, 0.660682, 0.670022, 0.670209, 0.672245, 0.00334489, 0.670809, 0.673474, 0.679823, 0.67926, 0.680017, 0.679971, 0.680864, 0.680536, 0.664797, 0.665313, 0.677618, 0.676132, 0.677139, 0.683384, 0.685117, 0.686529, 0.686853, 0.736124, 0.639757, 0.00343207, 0.586123, 0.578272, 0.589904, 0.580416, 0.638375, 0.620857, 0.616573, 0.641455, 0.707284, 0.689063, 0.683552, 0.694758, 0.715441, 0.71391, 0.728921, 0.732877, 0.727736, 0.759731, 0.780634, 0.761517, 0.769839, 0.767908, 0.80783, 0.80847, 0.840231, 0.8168, 0.808353, 0.807038, 0.805736, 0.819472, 0.81869, 0.803065, 0.803171, 0.815581, 0.816844, 0.802091, 0.825255, 0.825599, 0.822335, 0.836043, 0.905559, 0.907997, 0.960817, 0.875481, 0.877497, 0.883972, 0.909466, 0.911714, 0.91518, 0.916249, 0.930169, 0.95719, 0.945934, 0.95555, 0.963436, 0.959828, 0.937069, 0.946682, 0.974488, 0.966613, 0.976942, 0.966495, 0.959402, 0.963282, 0.967527, 0.988434, 0.98125, 0.979734, 0.993779, 1.02332, 1.02578, 1.04274, 1.08336, 1.07558, 1.0769, 1.10639, 1.10899, 1.11172, 1.09489, 1.11379, 1.1173, 1.1194, 1.13441, 1.13857, 1.14413, 1.15329, 1.15674, 1.1585, 1.16026, 1.20253, 1.20174, 1.18035, 1.18212, 1.18283, 1.1859, 1.19035, 1.19477, 1.19742, 1.22935, 1.21811, 1.22604, 1.22971, 1.23471, 1.23686, 1.24108, 1.24363, 1.24972, 1.25123, 1.25074, 1.24949, 1.24972, 1.2472, 1.25161, 1.25785, 1.26234, 1.26522, 1.26642, 1.26917, 1.2737, 1.27506, 1.27785, 1.28119, 1.28146, 1.33825, 1.4233, 1.30474, 1.31357, 1.31996, 1.32005, 1.32079, 1.32739, 1.32764, 1.33069, 1.33935, 1.34061, 1.3424, 1.36083, 1.35763, 1.36269, 1.36181, 1.365, 1.36744, 1.36542, 1.37525, 1.37528, 1.37739, 1.38626, 1.38696, 1.3909, 1.38917, 1.39129, 1.40326, 1.4043, 1.4107, 1.41407, 1.41374, 1.42029, 1.42996, 1.43353, 1.43844, 1.43702, 0.00343965, 1.44514, 1.47574, 0.00374455, 1.46866, 1.46612, 1.46929, 1.47018, 1.47465, 1.593, 1.49115, 1.49671, 0.00328242, 1.50346, 1.51188
0.168811, 0.169253, 0.169527, 0.167541, 0.166541, 0.166905, 0.176649, 0.178633, 0.176953, 0.176322, 0.178606, 0.179031, 0.17848, 0.177181, 0.177835, 0.183395, 0.184473, 0.194008, 0.192663, 0.195702, 0.218195, 0.218612, 0.219197, 0.218857, 0.249098, 0.250604, 0.252111, 0.0035229, 0.271507, 0.272291, 0.285116, 0.283628, 0.290936, 0.287971, 0.297385, 0.297631, 0.30091, 0.301698, 0.312111, 0.315746, 0.318152, 0.00348868, 0.326876, 0.339395, 0.339358, 0.34979, 0.35132, 0.351466, 0.365347, 0.369155, 0.37244, 0.372648, 0.374981, 0.373665, 0.382696, 0.384208, 0.00328296, 0.42098, 0.422402, 0.422974, 0.431095, 0.431989, 0.43134, 0.439367, 0.441136, 0.452034, 0.45326, 0.456476, 0.00352411, 0.00344885, 0.00319482, 0.00359583, 0.00329999, 0.00337083, 0.00348632, 0.003476, 0.00356463, 0.00381081, 0.00333954, 0.00375087, 0.00376696, 0.00354349, 0.00354213, 0.00357839, 0.00355079, 0.00339518, 0.00333916, 0.00343627, 0.00328296, 0.647388, 0.65457, 0.655991, 0.658748, 0.659886, 0.659681, 0.651127, 0.650067, 0.655404, 0.652911, 0.659084, 0.656063, 0.658763, 0.658733, 0.658767, 0.660696, 0.66813, 0.669079, 0.671776, 0.677398, 0.677851, 0.676394, 0.683237, 0.684303, 0.677843, 0.679945, 0.681503, 0.684122, 0.684958, 0.685082, 0.682983, 0.681945, 0.683191, 0.683541, 0.684185, 0.00333806, 0.59794, 0.60081, 0.615687, 0.603961, 0.607946, 0.617384, 0.626752, 0.698118, 0.659908, 0.674965, 0.689298, 0.724694, 0.684254, 0.700846, 0.702728, 0.726656, 0.699072, 0.764903, 0.770738, 0.75773, 0.758032, 0.759972, 0.791708, 0.784383, 0.770937, 0.778201, 0.78779, 0.790486, 0.79404, 0.77956, 0.781609, 0.7849, 0.811221, 0.792492, 0.794836, 0.843189, 0.836561, 0.825283, 0.820052, 0.846055, 0.860411, 0.853469, 0.842423, 0.85965, 0.880198, 0.88168, 0.886594, 0.88381, 0.902417, 0.911753, 0.934884, 0.96105, 0.956544, 0.963311, 0.952962, 0.951502, 0.942453, 0.942872, 0.966908, 0.959876, 0.961893, 0.961342, 0.965311, 0.974556, 1.00645, 0.994223, 0.979396, 1.02269, 1.07035, 1.0718, 1.074, 1.05745, 1.05837, 1.08804, 1.09767, 1.10013, 1.10638, 0.00346337, 1.11755, 1.11924, 1.12336, 1.12448, 1.13038, 0.00340746, 0.0035485, 1.15658, 1.15777, 1.15904, 1.16317, 1.1965, 1.17624, 1.17682, 1.17965, 1.18488, 1.18548, 1.24738, 1.22961, 0.00356529, 1.22415, 1.2253, 1.22946, 1.23274, 1.23428, 1.23648, 1.23823, 1.23984, 1.24062, 1.24376, 1.2416, 1.24656, 1.24134, 1.25523, 1.25558, 1.26053, 1.2615, 1.26132, 1.26386, 1.268, 1.25114, 1.33305, 1.2978, 1.29673, 1.30005, 1.30662, 1.30798, 1.31434, 1.31933, 1.31955, 1.32416, 1.32474, 1.32617, 1.33418, 1.34465, 1.34992, 1.34937, 1.35841, 1.35862, 1.36412, 1.36336, 1.36708, 1.37071, 1.37177, 1.37421, 1.37727, 1.37851, 1.38158, 1.38247, 1.38822, 1.39122, 0.00353374, 1.40599, 1.40561, 1.40875, 1.41147, 1.41568, 0.00329116, 1.42196, 1.42533, 1.42502, 1.431, 1.43639, 1.43809, 1.47297, 1.45576, 1.45822, 1.46408, 1.46532, 1.47208, 1.47952, 1.47986, 1.48544, 1.50019, 1.49678, 1.49919, 1.5054
0.150874, 0.150183, 0.149356, 0.16546, 0.161302, 0.163069, 0.168559, 0.1726, 0.170497, 0.170015, 0.175921, 0.174946, 0.177017, 0.17857, 0.178818, 0.184186, 0.185707, 0.186685, 0.192137, 0.193713, 0.194693, 0.00344458, 0.00369872, 0.00328806, 0.248437, 0.248848, 0.246555, 0.00352466, 0.00357581, 0.280296, 0.286318, 0.289305, 0.289962, 0.288675, 0.286382, 0.287183, 0.297719, 0.307702, 0.310475, 0.315525, 0.31632, 0.324048, 0.325093, 0.00347337, 0.00365827, 0.00337386, 0.362599, 0.366588, 0.368904, 0.370733, 0.370049, 0.370515, 0.370273, 0.371127, 0.371114, 0.393196, 0.394291, 0.421852, 0.419664, 0.419895, 0.423684, 0.425184, 0.425232, 0.00329801, 0.444261, 0.448918, 0.449476, 0.457858, 0.00370242, 0.0036662, 0.00361296, 0.00330208, 0.00348786, 0.00337279, 0.00343106, 0.00324183, 0.851237, 0.00364303, 0.00352165, 0.00345297, 0.00347354, 0.00347935, 0.00359829, 0.00339308, 0.00356911, 0.00358189, 0.00357671, 0.00342203, 0.00395007, 0.648652, 0.653449, 0.654737, 0.655737, 0.646825, 0.649103, 0.649964, 0.65123, 0.651373, 0.651913, 0.652965, 0.654322, 0.653289, 0.657749, 0.657673, 0.65908, 0.660715, 0.664904, 0.660892, 0.66238, 0.662511, 0.663342, 0.00355299, 0.687251, 0.688567, 0.690536, 0.692497, 0.685274, 0.684898, 0.683826, 0.685787, 0.688459, 0.688701, 0.690929, 0.698027, 0.700548, 0.699542, 0.699349, 0.630945, 0.60756, 0.632062, 0.632473, 0.625431, 0.62895, 0.663725, 0.626275, 0.637912, 0.685127, 0.686227, 0.686894, 0.708712, 0.700568, 0.705912, 0.697371, 0.711925, 0.713179, 0.735681, 0.738433, 0.747461, 0.772958, 0.801695, 0.780226, 0.780678, 0.806887, 0.774245, 0.78019, 0.78019, 0.781804, 0.79715, 0.788622, 0.80134, 0.827558, 0.819599, 0.809589, 0.81003, 0.821175, 0.821704, 0.828852, 0.833193, 0.8305, 0.831567, 0.865232, 0.876488, 0.881052, 0.896189, 0.918769, 0.917668, 0.930775, 0.947687, 0.945823, 0.947274, 0.972864, 0.970455, 0.984312, 0.983953, 0.954969, 0.959373, 0.984059, 0.966976, 0.98895, 0.98913, 1.0044, 1.03388, 1.03626, 1.07706, 1.09043, 1.09176, 1.05397, 1.08152, 1.08488, 1.07963, 1.08729, 1.08717, 1.10589, 1.11031, 1.11902, 1.1254, 1.12751, 1.13057, 1.13645, 1.14268, 1.1504, 1.15176, 1.15278, 1.15773, 1.16498, 1.16798, 1.17141, 1.17472, 1.17816, 1.18068, 1.18164, 0.00347367, 1.2178, 1.22272, 1.22456, 1.2261, 1.22931, 1.22951, 1.23217, 1.23015, 1.23027, 1.64191, 1.23348, 0.00332231, 1.24448, 1.24738, 1.24757, 1.2571, 1.25765, 1.26442, 1.26891, 1.26813, 1.27043, 0.00357666, 1.30611, 1.36011, 1.40327, 1.30685, 1.31021, 1.31309, 1.3144, 1.31571, 1.31962, 1.32219, 1.32296, 1.32978, 1.3357, 1.33816, 1.33978, 0.00346013, 1.35866, 1.36139, 1.36342, 1.36146, 1.36627, 1.36828, 1.37127, 1.36913, 1.3739, 1.37876, 1.38231, 1.38371, 1.38518, 1.39201, 1.39512, 1.40484, 1.40558, 1.40726, 1.4089, 1.41494, 1.41782, 1.41869, 1.43484, 1.43052, 1.43424, 1.43315, 1.43541, 1.44477, 1.45048, 1.45794, 1.45926, 1.46143, 0.00356703, 0.00346458, 1.48403, 1.4809, 1.48313, 1.50084, 1.50353, 1.50486
0.152093, 0.150537, 0.152287, 0.151851, 0.152828, 0.153145, 0.163547, 0.168741, 0.170199, 0.171029, 0.173004, 0.174114, 0.172807, 0.171828, 0.175401, 0.174288, 0.186167, 0.18914, 0.188573, 0.189767, 0.201335, 0.0033662, 0.00315334, 0.00351955, 0.00323217, 0.00390295, 0.00350924, 0.276331, 0.277306, 0.279579, 0.283237, 0.286377, 0.289157, 0.287622, 0.289927, 0.289156, 0.302608, 0.302118, 0.310617, 0.323523, 0.00337555, 0.326307, 0.00343168, 0.338201, 0.00337713, 0.339475, 0.356844, 0.358607, 0.369198, 0.369653, 0.370227, 0.369913, 0.369295, 0.371778, 0.370863, 0.369929, 0.0033858, 0.0035411, 0.417531, 0.4214, 0.421047, 0.425944, 0.427101, 0.428065, 0.446794, 0.444743, 0.446318, 0.452474, 0.00335775, 0.00370079, 0.00347351, 0.00367377, 0.0033069, 0.00375093, 0.00320009, 0.00372534, 0.00323028, 0.00364053, 0.00361357, 0.00339381, 0.00334115, 0.0036687, 0.595539, 0.597034, 0.608679, 0.609681, 0.00341799, 0.00374289, 0.00362351, 0.647632, 0.649952, 0.65045, 0.651763, 0.647475, 0.648279, 0.64953, 0.650398, 0.650152, 0.649566, 0.649382, 0.652032, 0.653882, 0.655165, 0.655592, 0.656977, 0.658597, 0.659276, 0.659676, 0.658912, 0.659497, 0.669759, 0.672163, 0.00337176, 0.686947, 0.690752, 0.696728, 0.698248, 0.700038, 0.700838, 0.701877, 0.690889, 0.694684, 0.694717, 0.70362, 0.704839, 0.707412, 0.707782, 0.703079, 0.705463, 0.707552, 0.705548, 0.704643, 0.00344808, 0.712793, 0.705188, 0.70489, 0.677143, 0.670515, 0.666598, 0.69138, 0.694351, 0.697143, 0.722059, 0.71454, 0.714886, 0.72645, 0.745918, 0.724955, 0.767496, 0.762937, 0.73961, 0.752434, 0.753529, 0.755571, 0.755845, 0.802537, 0.787782, 0.78698, 0.781536, 0.802409, 0.814997, 0.812148, 0.771182, 0.775884, 0.822259, 0.809727, 0.8314, 0.832827, 0.856773, 0.839803, 0.870934, 0.888082, 0.880861, 0.908027, 0.909608, 0.906002, 0.935174, 0.935811, 0.950409, 0.951239, 0.962709, 0.931849, 0.952354, 0.964369, 0.963274, 0.963618, 0.984784, 0.991249, 1.04697, 1.05332, 1.06304, 1.03332, 1.03696, 1.07997, 1.08294, 1.05004, 1.04962, 1.10626, 0.0033549, 1.08951, 1.09191, 1.09689, 1.10623, 1.10814, 0.00340862, 1.12391, 0.00321386, 1.13572, 1.13717, 1.13909, 1.14169, 1.15102, 1.15301, 1.18688, 0.0034052, 1.16506, 1.16949, 1.17756, 1.17949, 1.18401, 1.26817, 1.20039, 1.262, 1.21468, 0.00319348, 1.25688, 1.25514, 1.20814, 1.30355, 1.21752, 1.21826, 1.28827, 1.23042, 1.28091, 1.76452, 1.24394, 1.24723, 1.24932, 1.25067, 1.25364, 1.25696, 1.31593, 1.27398, 1.27788, 1.31904, 1.31321, 1.40669, 1.30105, 1.30349, 1.31002, 1.31461, 1.3198, 1.32486, 1.32678, 1.32934, 1.33265, 1.33704, 1.33663, 1.33916, 1.34988, 1.35344, 1.35598, 1.35584, 1.36181, 1.36058, 1.36679, 1.36864, 1.37226, 1.37714, 1.37833, 1.37893, 1.38494, 1.38753, 1.39368, 1.39951, 1.39891, 1.39886, 1.39953, 1.40218, 1.40458, 1.4075, 1.44725, 1.42981, 1.42927, 1.42902, 1.43291, 1.43317, 1.47766, 1.44735, 1.45305, 1.45356, 1.46174, 0.00342833, 0.00351087, 1.4766, 1.48071, 1.49471, 1.49649, 1.49407, 1.50287
0.141703, 0.149989, 0.148076, 0.152215, 0.151693, 0.153122, 0.154678, 0.157408, 0.159024, 0.169175, 0.170733, 0.170297, 0.17067, 0.171411, 0.171879, 0.159465, 0.186153, 0.187884, 0.186635, 0.18753, 0.204012, 0.203238, 0.206593, 0.00317683, 0.240728, 0.240338, 0.240792, 0.00346654, 0.273248, 0.273122, 0.280099, 0.287587, 0.288059, 0.2881, 0.289101, 0.299481, 0.299261, 0.00349445, 0.317652, 0.320755, 0.320621, 0.325948, 0.327762, 0.329302, 0.335176, 0.344055, 0.358309, 0.360672, 0.364958, 0.370066, 0.37175, 0.371214, 0.375711, 0.373765, 0.373014, 0.00335, 0.00323571, 0.411909, 0.415614, 0.413857, 0.423942, 0.425216, 0.425463, 0.00340533, 0.441175, 0.00358748, 0.446127, 0.00313875, 0.461564, 0.462025, 0.0036656, 0.00332344, 0.00336482, 0.0035585, 0.00351584, 0.00333164, 0.0034795, 0.0033066, 0.00359621, 0.00341044, 0.00376925, 0.00358739, 0.00351419, 0.598286, 0.599742, 0.00319341, 0.633273, 0.635242, 0.636162, 0.636197, 0.638693, 0.63877, 0.638229, 0.638138, 0.63945, 0.644506, 0.645175, 0.644488, 0.643625, 0.644117, 0.645446, 0.649167, 0.652208, 0.654386, 0.656226, 0.657965, 0.660172, 0.656818, 0.658775, 0.658936, 0.666499, 0.66702, 0.00367871, 0.00343276, 0.690038, 0.695465, 0.697571, 0.703407, 0.70407, 0.704506, 0.716215, 0.720846, 0.708573, 0.708212, 0.707378, 0.706391, 0.708337, 0.705574, 0.705515, 0.707999, 0.707724, 0.708977, 0.710429, 0.717475, 0.718396, 0.714559, 0.714207, 0.74276, 0.715173, 0.717476, 0.716568, 0.687803, 0.704064, 0.732243, 0.704158, 0.705199, 0.729198, 0.739538, 0.72669, 0.745696, 0.752814, 0.771664, 0.754241, 0.7515, 0.789818, 0.780725, 0.771772, 0.76784, 0.784439, 0.76665, 0.767496, 0.778525, 0.776911, 0.780131, 0.804909, 0.802871, 0.814777, 0.832656, 0.846475, 0.835011, 0.881232, 0.878063, 0.905175, 0.978152, 0.977583, 0.926702, 0.920568, 0.92233, 0.950231, 0.949067, 0.956943, 0.959325, 0.960457, 0.973731, 1.01491, 1.00362, 1.02611, 1.02609, 1.0168, 1.05955, 1.06071, 1.03557, 1.03869, 1.04326, 1.08156, 0.00343584, 0.00366643, 1.08206, 1.09402, 1.08807, 1.09205, 1.09466, 1.39517, 1.1053, 1.10887, 1.30731, 0.00348621, 1.13563, 1.13544, 1.13905, 1.14012, 1.14684, 1.15027, 1.15494, 1.15544, 1.15814, 1.16331, 1.17528, 1.17828, 1.18134, 1.18787, 1.18921, 1.19286, 1.19276, 1.25496, 1.2136, 1.21334, 1.21588, 1.21997, 1.21872, 1.22693, 1.22694, 1.23015, 1.24582, 1.25409, 1.24658, 1.24567, 1.24952, 1.25317, 1.25445, 1.25485, 0.00353202, 0.00362521, 1.2822, 1.28564, 1.28777, 1.29302, 1.29741, 1.29775, 1.46487, 0.00338371, 1.32227, 1.32068, 1.32434, 1.32894, 1.33693, 1.33773, 1.33969, 1.33763, 1.34659, 1.34693, 1.3551, 1.35702, 1.35519, 1.36111, 1.36425, 1.36372, 1.36933, 1.37217, 1.37485, 1.3836, 1.39167, 1.39156, 1.39845, 1.39845, 1.40191, 1.40028, 1.40038, 1.40262, 1.40392, 1.40964, 1.41929, 1.42302, 1.4219, 1.4241, 1.50975, 0.00357256, 1.44559, 1.44645, 1.44527, 1.45107, 1.45441, 0.00341107, 0.00360816, 1.47633, 1.47761, 1.48988, 1.49246, 1.4957, 1.50116
0.139761, 0.140944, 0.141515, 0.149425, 0.150617, 0.153415, 0.154966, 0.154409, 0.161895, 0.161225, 0.160526, 0.166744, 0.163802, 0.164994, 0.164962, 0.163301, 0.18568, 0.185555, 0.186875, 0.187942, 0.187198, 0.207265, 0.207148, 0.00363719, 0.00335387, 0.239663, 0.00336063, 0.00346194, 0.00349323, 0.00335782, 0.00359447, 0.276263, 0.285644, 0.290092, 0.0033653, 0.299635, 0.00357163, 0.00332079, 0.00332407, 0.00348078, 0.325863, 0.330227, 0.331589, 0.333328, 0.339532, 0.00342277, 0.349041, 0.371892, 0.373054, 0.374243, 0.375343, 0.377947, 0.378547, 0.376228, 0.0033856, 0.390817, 0.00358708, 0.00383656, 0.00348398, 0.415403, 0.413493, 0.413176, 0.0035466, 0.431704, 0.003378, 0.439567, 0.00320303, 0.00344885, 0.00360039, 0.00352804, 0.00352804, 0.00339095, 0.00336222, 0.00333286, 0.0032823, 0.00328366, 0.00338808, 1.29843, 0.00350827, 0.00338939, 0.00319928, 0.00357747, 0.00340119, 0.00362734, 0.00334781, 0.631248, 0.63343, 0.637516, 0.636983, 0.6385, 0.638521, 0.638728, 0.635223, 0.635889, 0.633457, 0.638156, 0.637957, 0.6414, 0.644904, 0.643913, 0.644498, 0.645579, 0.647377, 0.653892, 0.655312, 0.655838, 0.656694, 0.655803, 0.657131, 0.665406, 0.667259, 0.667852, 0.679986, 0.682009, 0.693939, 0.693783, 0.695845, 0.699576, 0.701133, 0.721059, 0.720869, 0.72325, 0.728496, 0.729749, 0.730162, 0.715048, 0.711326, 0.711256, 0.710896, 0.713996, 0.724891, 0.727705, 0.729667, 0.730533, 0.742162, 0.737635, 0.741901, 0.734165, 0.727616, 0.762449, 0.738218, 0.731338, 0.771238, 0.769163, 0.728085, 0.705151, 0.712599, 0.714701, 0.715596, 0.714166, 0.713447, 0.749034, 0.735862, 0.745902, 0.742574, 0.763733, 0.774142, 0.802204, 0.791858, 0.78477, 0.774027, 0.7634, 0.785027, 0.781879, 0.814847, 0.804505, 0.843074, 0.832788, 0.876557, 0.85974, 0.888716, 0.905949, 0.899232, 0.89953, 0.915044, 0.912188, 0.919859, 0.928935, 0.938531, 0.951406, 0.947972, 0.938214, 1.00516, 0.944272, 0.938515, 0.994172, 0.972874, 0.973953, 1.00936, 1.01149, 1.07136, 1.03233, 1.03655, 1.0516, 1.05284, 1.07068, 1.07227, 1.07536, 1.07857, 1.08202, 1.08691, 1.08884, 1.37822, 1.3262, 1.11872, 1.12034, 0.00344421, 1.12979, 1.13146, 1.1362, 1.14, 1.14304, 1.15095, 1.15189, 1.15677, 1.15576, 1.16131, 1.16443, 0.00355037, 1.18258, 1.18373, 1.18369, 1.57293, 1.1949, 1.25328, 1.20516, 1.21086, 1.21833, 1.22355, 1.22317, 1.25338, 1.23921, 1.2362, 1.23401, 1.37148, 1.24084, 1.24057, 1.24655, 1.29641, 1.38955, 0.00341194, 0.00320417, 1.39572, 1.27864, 0.00327451, 1.31729, 0.00336273, 1.29781, 1.29837, 1.50669, 1.30666, 1.31498, 1.32398, 1.32417, 1.32735, 1.33292, 1.33602, 1.33453, 1.33697, 1.33748, 1.33945, 1.33999, 1.34625, 1.3482, 1.36051, 1.36076, 1.36342, 1.42046, 1.38543, 1.38472, 1.38983, 1.39053, 1.39288, 1.39394, 1.39795, 1.39808, 1.39712, 1.39702, 1.4009, 1.40259, 1.41259, 1.42049, 1.42245, 1.42717, 1.42862, 1.43128, 1.43978, 1.44402, 1.44325, 1.44308, 1.44705, 1.45161, 0.0033564, 1.46484, 1.499, 1.48365, 0.00329909, 1.49572, 1.49831, 1.50062
0.13165, 0.00341867, 0.00349529, 0.14457, 0.144807, 0.154755, 0.149911, 0.154267, 0.155262, 0.160964, 0.165236, 0.165964, 0.167512, 0.168363, 0.165176, 0.165059, 0.185286, 0.186557, 0.191311, 0.186602, 0.187648, 0.00332974, 0.00375924, 0.00347707, 0.00363306, 0.00329601, 0.241322, 0.00350902, 0.0037688, 0.258963, 0.259074, 0.271403, 0.274866, 0.273243, 0.279895, 0.00351828, 0.00330736, 0.00324794, 0.298447, 0.0033627, 0.00371213, 0.00331422, 0.331307, 0.00340234, 0.00378375, 0.00329714, 0.358272, 0.358831, 0.373729, 0.375276, 0.379064, 0.37911, 0.379446, 0.389385, 0.390504, 0.400651, 0.403285, 0.403597, 0.405113, 0.410325, 0.412349, 0.0035179, 0.0036913, 0.00342043, 0.43544, 0.00321811, 0.00353274, 0.00344742, 0.00350135, 0.00326568, 0.483264, 0.00363579, 0.00353364, 0.00320749, 0.00353787, 0.00346468, 0.00335883, 0.0032896, 0.00371656, 0.00336089, 0.0036862, 0.00358855, 0.00346275, 0.00355937, 0.00349129, 0.630308, 0.631239, 0.631932, 0.634051, 0.634246, 0.625633, 0.627106, 0.628214, 0.629683, 0.629807, 0.629878, 0.634867, 0.636152, 0.641798, 0.640459, 0.645675, 0.644564, 0.646207, 0.645697, 0.652655, 0.655739, 0.656339, 0.650639, 0.00360041, 0.663789, 0.669817, 0.678055, 0.679346, 0.691022, 0.692281, 0.697455, 0.698486, 0.00352439, 0.00343575, 0.00335417, 0.724156, 0.729458, 0.730896, 0.731126, 0.733041, 0.738088, 0.737581, 0.734913, 0.735137, 0.72852, 0.726742, 0.734128, 0.742583, 0.742633, 0.74486, 0.750475, 0.75189, 0.752136, 0.753489, 0.754631, 0.788525, 0.78937, 0.80454, 0.766225, 0.778123, 0.772455, 0.75306, 0.746299, 0.742231, 0.717282, 0.716722, 0.719522, 0.71826, 0.744435, 0.74028, 0.766082, 0.766286, 0.768673, 0.782119, 0.80132, 0.764305, 0.788073, 0.774833, 0.776446, 0.840049, 0.823041, 0.839005, 0.86096, 0.866659, 0.87545, 0.886379, 0.882089, 0.920268, 0.941069, 0.942468, 0.915577, 0.936162, 0.935188, 0.936512, 0.91615, 0.928407, 0.909282, 0.910262, 0.985407, 0.986513, 0.988837, 0.943809, 0.954505, 1.00517, 1.00793, 1.03976, 1.0435, 1.05062, 1.0524, 1.05363, 1.07122, 1.07164, 1.07335, 1.07528, 1.07476, 1.07627, 1.07727, 1.09812, 0.00335604, 1.10655, 1.11155, 1.1137, 1.168, 1.13201, 1.13561, 1.13809, 1.14316, 1.14494, 1.14741, 1.15316, 1.15483, 1.15874, 1.17101, 1.17295, 1.17804, 1.17914, 1.18391, 1.24774, 1.23918, 1.20226, 1.20557, 1.21031, 1.21326, 1.25313, 1.25648, 1.26514, 1.22683, 1.22783, 1.23212, 1.23455, 1.23983, 1.2345, 0.00351317, 1.25146, 1.25886, 1.27454, 1.27198, 1.27281, 1.27595, 1.27939, 0.00331899, 1.29271, 1.29623, 1.29803, 1.30617, 1.31058, 0.0033614, 1.32098, 1.3215, 1.32012, 1.32161, 1.52199, 1.32939, 1.37026, 1.33677, 1.3375, 1.33765, 1.34602, 1.35338, 1.35322, 1.361, 0.00365483, 1.37849, 1.38356, 1.38343, 1.38462, 1.38647, 1.38908, 1.38947, 1.39226, 1.39258, 1.39274, 1.39574, 1.40082, 1.40793, 1.40967, 1.42227, 1.42219, 1.42989, 1.43125, 1.43162, 1.43263, 1.43387, 1.43799, 1.44268, 1.45475, 0.00346381, 0.00374895, 1.46791, 1.47745, 1.47761, 1.48148, 1.48224, 1.49713, 1.4956
0.00331893, 0.131683, 0.00361291, 0.13394, 0.132527, 0.133927, 0.150141, 0.149776, 0.152013, 0.151928, 0.161808, 0.162498, 0.163126, 0.164623, 0.165693, 0.16553, 0.00329502, 0.00318185, 0.00345035, 0.176382, 0.00322289, 0.207464, 0.00346262, 0.00350428, 0.0034175, 0.00351748, 0.252254, 0.254872, 0.256406, 0.256156, 0.268724, 0.263986, 0.265649, 0.276594, 0.274351, 0.279622, 0.00323904, 0.292313, 0.299454, 0.318632, 0.320095, 0.322098, 0.00349037, 0.00332811, 0.0035017, 0.00344156, 0.356107, 0.357864, 0.358016, 0.00352824, 0.00340313, 0.383625, 0.00351919, 0.390105, 0.390823, 0.403993, 0.40498, 0.406095, 0.409868, 0.407347, 0.408502, 0.418797, 0.00357275, 0.00328377, 0.436204, 0.0034001, 0.0035725, 0.0036428, 0.00353111, 0.00365228, 0.00325602, 0.00360694, 0.00359519, 0.50371, 0.00339016, 0.00354246, 0.00307815, 0.00359193, 0.00348042, 0.00336462, 0.00329995, 0.00352329, 0.00317824, 0.00373703, 0.623528, 0.630679, 0.631511, 0.632196, 0.631994, 0.624401, 0.626141, 0.626524, 0.627843, 0.626788, 0.627279, 0.627596, 0.628024, 0.629336, 0.637091, 0.638607, 0.639945, 0.640665, 0.6517, 0.649757, 0.652858, 0.652521, 0.647259, 0.648167, 0.6561, 0.658409, 0.659904, 0.665702, 0.681255, 0.690207, 0.692645, 0.69799, 0.702514, 0.703717, 0.704302, 0.719086, 0.721896, 0.723004, 0.725912, 0.73226, 0.734746, 0.738367, 0.740034, 0.745735, 0.746874, 0.747409, 0.749717, 0.75849, 0.756269, 0.752156, 0.755556, 0.756412, 0.755544, 0.758756, 0.760959, 0.763249, 0.765641, 0.766208, 0.0034526, 0.77123, 0.770913, 0.820017, 0.784004, 0.778097, 0.826143, 0.829026, 0.790403, 0.728999, 0.730464, 0.728468, 0.751545, 0.755573, 0.788467, 0.777254, 0.778445, 0.77322, 0.75705, 0.773586, 0.836342, 0.793448, 0.817802, 0.833181, 0.840255, 0.839956, 0.831686, 0.859982, 0.895382, 0.867393, 0.90111, 0.897941, 0.901025, 0.902, 0.901389, 0.891075, 0.891114, 0.891707, 0.895855, 0.902112, 0.905203, 0.902121, 0.905057, 0.987092, 0.98903, 0.989471, 0.995081, 0.99938, 0.00348127, 0.00367353, 0.00342684, 0.00350837, 0.00327395, 0.00367777, 0.00365646, 0.00390474, 0.00329166, 0.993345, 0.996189, 0.998054, 0.00347147, 1.10735, 1.1087, 1.11202, 1.11545, 1.12033, 1.12228, 1.13114, 1.13758, 1.14033, 1.13983, 1.14152, 1.14413, 1.40612, 1.40582, 0.00370966, 0.00322303, 1.17524, 1.17797, 1.18081, 1.19355, 1.19487, 1.19578, 1.29532, 1.20804, 1.20571, 1.20845, 1.22227, 1.22481, 1.22701, 1.22963, 1.23411, 1.23507, 1.22631, 1.22925, 1.24895, 1.2544, 1.25691, 1.2639, 1.2694, 1.27153, 1.2748, 1.28258, 1.28531, 1.28756, 1.29257, 1.29565, 1.30805, 1.31008, 1.31243, 1.31122, 1.31646, 1.31622, 1.48978, 1.52692, 0.00355156, 1.34023, 1.33953, 1.34022, 1.34363, 1.34684, 1.35387, 1.35232, 0.00345563, 1.40304, 1.38374, 1.38165, 1.38162, 1.38404, 1.38168, 1.38471, 1.38944, 1.39127, 1.39211, 1.39249, 1.40439, 1.4054, 1.40573, 1.40851, 1.42065, 1.42478, 1.42557, 1.42738, 1.43224, 1.43161, 1.43553, 0.00332931, 1.44763, 1.44773, 1.4576, 1.46812, 0.00359542, 1.47539, 1.48156, 1.48017, 1.48855, 1.49151, 1.49455
0.115177, 0.118464, 0.122261, 0.134434, 0.127757, 0.147694, 0.149196, 0.149717, 0.150314, 0.150997, 0.151437, 0.157957, 0.163455, 0.161742, 0.160278, 0.15142, 0.00347055, 0.00345087, 0.00379237, 0.00349413, 0.00339354, 0.00345255, 0.00327396, 0.0033359, 0.00349798, 0.00343042, 0.00382506, 0.00369371, 0.248418, 0.00339312, 0.265782, 0.269874, 0.268657, 0.270152, 0.274107, 0.276381, 0.288949, 0.289746, 0.292336, 0.00339941, 0.320884, 0.322463, 0.322954, 0.00354381, 0.00349267, 0.00352745, 0.357458, 0.358518, 0.359088, 0.367251, 0.366568, 0.369136, 0.370211, 0.382495, 0.400226, 0.395788, 0.397402, 0.398203, 0.408737, 0.407589, 0.410619, 0.423928, 0.42441, 0.00341461, 0.431363, 0.00353704, 0.00354842, 0.00355115, 0.00369962, 0.00331316, 0.00355914, 0.0035448, 0.00325059, 0.0032745, 0.0033738, 0.00325664, 0.00343214, 0.00331356, 0.00340723, 0.00336614, 0.00374486, 0.00362253, 0.00346132, 0.620448, 0.623448, 0.627409, 0.628081, 0.628395, 0.621793, 0.621331, 0.619583, 0.619783, 0.618813, 0.621108, 0.624343, 0.625888, 0.626032, 0.629773, 0.632196, 0.636334, 0.638303, 0.641066, 0.642938, 0.646434, 0.65214, 0.646387, 0.648158, 0.648743, 0.659189, 0.659804, 0.661148, 0.0033896, 0.677458, 0.681086, 0.00371843, 0.00333778, 0.698866, 0.702097, 0.703799, 0.707558, 0.00341134, 0.714964, 0.721795, 0.725458, 0.725955, 0.00351003, 0.00361686, 0.739813, 0.745001, 0.749005, 0.757961, 0.759081, 0.761155, 0.77013, 0.770912, 0.780422, 0.782512, 0.783876, 0.787431, 0.770652, 0.773833, 0.780115, 0.7815, 0.781609, 0.781754, 0.777954, 0.791686, 0.784174, 0.824051, 0.00354227, 0.815176, 0.818949, 0.820399, 0.827833, 0.829681, 0.840925, 0.845526, 0.849351, 0.850752, 0.804176, 0.784894, 0.81853, 0.829781, 0.823853, 0.839295, 0.831697, 0.832662, 0.897675, 0.882438, 0.90197, 0.867722, 0.87039, 0.871002, 0.940303, 0.940269, 0.899032, 0.885606, 0.885255, 0.885318, 0.921977, 0.911975, 0.914944, 0.91585, 1.01078, 1.01162, 1.01286, 1.01751, 1.02189, 1.02341, 1.02591, 1.03246, 1.03362, 0.00367389, 0.00311436, 1.03935, 1.03759, 1.03692, 1.07404, 1.07096, 1.03703, 1.03912, 1.04014, 0.00347588, 0.00345207, 1.13802, 0.00361608, 1.1096, 0.00330623, 1.12142, 1.12337, 1.13515, 1.13717, 1.1395, 1.14288, 1.14556, 1.14458, 0.00346084, 0.00326199, 1.16885, 1.17032, 1.16998, 1.17826, 1.22798, 1.20078, 1.20044, 1.19983, 1.20856, 1.20864, 1.2119, 1.222, 1.22434, 1.21943, 1.22753, 1.2277, 1.23617, 1.23816, 1.24423, 1.2518, 1.2947, 1.26097, 1.26255, 1.26787, 1.27109, 1.28376, 1.28436, 1.28402, 1.28842, 1.28977, 1.29563, 1.29983, 1.30745, 1.30968, 1.30949, 1.31534, 1.31639, 1.32083, 0.00328291, 1.33462, 1.34166, 1.34289, 1.34276, 1.35069, 0.00346414, 1.35597, 1.35671, 0.0034723, 1.37572, 1.37567, 1.37642, 1.37876, 1.37979, 1.38463, 1.3864, 1.39094, 1.39243, 1.39495, 1.3952, 1.40004, 1.40373, 1.4031, 1.4134, 1.41229, 1.42224, 1.42275, 1.42524, 1.4297, 1.43043, 1.43667, 1.44119, 1.44316, 1.45105, 0.00343355, 1.46407, 1.47456, 1.47393, 1.48364, 0.00371892, 1.49457, 1.49318, 0.00319367
0.124465, 0.124504, 0.127503, 0.128166, 0.125448, 0.12981, 0.131017, 0.00370335, 0.151026, 0.151692, 0.1551, 0.157405, 0.15725, 0.159439, 0.154746, 0.160596, 0.152677, 0.00358608, 0.00323436, 0.00348204, 0.00331533, 0.00344316, 0.00302159, 0.00343901, 0.00336316, 0.240597, 0.244908, 0.243184, 0.250906, 0.252824, 0.258774, 0.269958, 0.272536, 0.270071, 0.280775, 0.284781, 0.28554, 0.288619, 0.303684, 0.305597, 0.306942, 0.00357354, 0.323764, 0.323501, 0.00346273, 0.00382706, 0.00359808, 0.358384, 0.35877, 0.367879, 0.369239, 0.371417, 0.372046, 0.37139, 0.387876, 0.388097, 0.390692, 0.398189, 0.397963, 0.408598, 0.00335952, 0.00322474, 0.0032506, 0.42774, 0.00337372, 0.00354846, 0.00354739, 0.00348491, 0.00337003, 0.00358698, 0.00338985, 0.497563, 0.496716, 0.496361, 0.00323869, 0.0035617, 0.00340719, 0.00332844, 0.00317449, 0.0037026, 0.00342344, 0.00354732, 0.00326288, 0.00342317, 0.625775, 0.625753, 0.628542, 0.628421, 0.628652, 0.621637, 0.620669, 0.620341, 0.620746, 0.618917, 0.619981, 0.622562, 0.628675, 0.63114, 0.632796, 0.636585, 0.639761, 0.642004, 0.641825, 0.642255, 0.642801, 0.642038, 0.642907, 0.648716, 0.0033563, 0.661565, 0.666182, 0.668, 0.670034, 0.00379017, 0.00329946, 0.694911, 0.695102, 0.699518, 0.700873, 0.707079, 0.706931, 0.710756, 0.712165, 0.718234, 0.720129, 0.734806, 0.73677, 0.73901, 0.740776, 0.746127, 0.746974, 0.0033024, 0.779528, 0.777853, 0.781377, 0.784167, 0.785993, 0.787602, 0.790545, 0.792773, 0.793605, 0.793941, 0.781366, 0.781638, 0.791481, 0.796413, 0.798296, 0.800737, 0.801379, 0.820847, 0.823614, 0.824398, 0.8243, 0.836051, 0.839896, 0.841315, 0.843374, 0.845995, 0.847967, 0.867285, 0.86933, 0.875289, 0.884192, 0.88476, 0.894467, 0.898058, 0.901908, 0.905465, 0.914802, 0.922245, 0.923419, 0.935349, 0.935733, 0.944924, 0.94693, 0.95282, 0.953988, 0.962419, 0.984743, 0.934435, 0.995885, 0.999274, 1.00376, 1.00609, 0.00324309, 1.32353, 1.01878, 1.02494, 1.02814, 1.02893, 0.0033537, 1.04634, 1.05065, 1.04996, 1.05256, 1.05193, 1.05757, 1.06155, 1.06973, 1.07137, 1.05488, 1.04454, 1.04872, 0.00353147, 1.14074, 1.08251, 1.08709, 1.16397, 1.11611, 1.11898, 1.12086, 1.13313, 1.13416, 1.13977, 0.00318878, 1.15139, 1.1546, 1.157, 0.00361486, 1.17717, 1.17932, 1.18304, 1.19294, 1.19428, 1.19699, 1.20004, 1.20203, 1.20837, 1.21166, 1.21174, 1.22109, 1.22333, 1.23121, 1.23255, 1.23712, 1.24161, 1.24641, 1.24841, 1.25304, 1.33784, 1.26367, 1.26419, 0.00343656, 1.27578, 1.28024, 1.28043, 1.28119, 1.28548, 1.28802, 1.3001, 1.30337, 1.3075, 0.00338333, 1.31735, 1.32384, 1.33019, 1.33293, 1.33835, 1.34144, 1.34267, 1.34176, 1.34353, 1.35477, 1.36003, 1.36123, 1.36749, 1.36951, 1.37064, 1.37354, 1.37461, 1.38025, 1.38148, 1.38347, 1.3924, 1.3928, 1.39372, 1.3959, 1.40105, 1.40324, 1.40737, 1.4081, 1.41427, 1.41407, 1.42194, 1.42352, 1.42719, 1.43448, 1.43786, 1.44333, 1.45511, 1.45512, 1.46001, 1.46306, 1.46981, 1.47397, 0.00340164, 1.48357, 1.48497, 0.00327024, 1.50243
0.12036, 0.11726, 0.114636, 0.124478, 0.118498, 0.12552, 0.00353641, 0.00340186, 0.124265, 0.00345772, 0.00358605, 0.00337102, 0.147444, 0.14197, 0.141287, 0.140636, 0.139081, 0.00336439, 0.00385897, 0.00346368, 0.0038265, 0.00344471, 0.214053, 0.00321064, 0.00363847, 0.00330199, 0.241787, 0.242498, 0.247514, 0.248117, 0.251971, 0.00330162, 0.261816, 0.00353503, 0.00359265, 0.282298, 0.285768, 0.00336183, 0.959253, 0.3057, 0.308136, 0.317267, 0.310541, 0.324046, 0.00352706, 0.00334749, 0.00350966, 0.359946, 0.362846, 0.364865, 0.368984, 0.370735, 0.370549, 0.372638, 0.38723, 0.390082, 0.389818, 0.392184, 0.400271, 0.401754, 0.00352437, 0.421795, 0.427161, 0.00336823, 0.00367817, 0.00341969, 0.453588, 0.453915, 0.00357919, 0.00330887, 0.00331539, 0.00326907, 0.496031, 0.00338682, 0.00346256, 0.00323402, 0.0035321, 0.00347041, 0.00349792, 0.00351907, 0.00348603, 0.00339955, 0.00344701, 0.615777, 0.621426, 0.622615, 0.625412, 0.622453, 0.621602, 0.614894, 0.620062, 0.618956, 0.617486, 0.617576, 0.618555, 0.615548, 0.617418, 0.619361, 0.621412, 0.625676, 0.63303, 0.6365, 0.63738, 0.634784, 0.636853, 0.638216, 0.645903, 0.649857, 0.650229, 0.658541, 0.659887, 0.667302, 0.667387, 0.674477, 0.00340482, 0.686797, 0.68988, 0.690938, 0.696169, 0.701552, 0.705095, 0.707395, 0.711994, 0.715665, 0.720766, 0.00330113, 0.736183, 0.00345617, 0.74313, 0.744239, 0.75244, 0.752039, 0.777531, 0.781115, 0.783188, 0.780925, 0.779773, 0.787142, 0.789754, 0.00366285, 0.802277, 0.803766, 0.806293, 0.813994, 0.815814, 0.824822, 0.828386, 0.832255, 0.834966, 0.836513, 0.846213, 0.847794, 0.849189, 0.85385, 0.83937, 0.845821, 0.848082, 0.860602, 0.856616, 0.875821, 0.878246, 0.881943, 0.887555, 0.888598, 0.888638, 0.908824, 0.911467, 0.912181, 0.928848, 0.929939, 0.938439, 0.942955, 0.945167, 0.948158, 0.956131, 0.962173, 0.969882, 0.984676, 0.989868, 0.993128, 0.99507, 1.0008, 1.00531, 1.00646, 1.01, 1.01403, 1.01677, 1.02171, 1.02446, 0.00337296, 1.04181, 1.04163, 1.04741, 1.04922, 1.05071, 1.05462, 1.05731, 1.06363, 1.06571, 1.06663, 1.06785, 0.00340836, 0.00323752, 0.00344142, 0.0035858, 0.00350141, 1.1061, 1.10834, 1.10883, 1.15064, 1.12396, 1.12798, 1.13569, 1.14148, 1.14305, 1.1479, 1.15004, 1.15349, 1.15664, 1.17569, 1.17811, 1.18292, 1.18496, 1.19447, 1.19882, 1.19883, 1.20458, 1.21029, 1.20553, 1.21592, 1.22253, 1.22152, 1.22301, 1.22664, 1.22911, 1.23789, 1.24176, 1.24828, 1.24958, 1.25236, 1.25533, 1.26039, 1.26527, 1.2665, 1.27428, 1.27835, 1.27991, 1.28561, 1.28851, 1.29484, 1.29563, 1.37076, 0.0033197, 1.31808, 1.32888, 1.32855, 1.33321, 1.33462, 1.33657, 1.33579, 1.34359, 1.34542, 1.35122, 1.35748, 1.35815, 1.36364, 1.37069, 1.36795, 1.37598, 1.37709, 1.37851, 1.38548, 1.38497, 1.38658, 1.39583, 1.39569, 1.40152, 1.40242, 1.4058, 1.40678, 1.40815, 0.0032286, 1.42081, 1.42198, 1.42521, 1.42739, 1.42885, 0.00355046, 1.45038, 1.44798, 1.47253, 1.46463, 1.46372, 1.46342, 1.46881, 1.46919, 1.53883, 0.00339508, 0.00367295, 0.00314362
0.104359, 0.107442, 0.114834, 0.116474, 0.116333, 0.118424, 0.117333, 0.116843, 0.118318, 0.127469, 0.128365, 0.129072, 0.144422, 0.144243, 0.147473, 0.142346, 0.141178, 0.140646, 0.00329891, 0.00385676, 0.00341291, 0.00337763, 0.00346909, 0.00356392, 0.239163, 0.238637, 0.238798, 0.237484, 0.241295, 0.249876, 0.249859, 0.254948, 0.255976, 0.00338501, 0.00351578, 0.00363452, 0.00337023, 0.302602, 0.303397, 0.304962, 0.304956, 0.313503, 0.00328144, 0.00335742, 0.00354766, 0.337893, 0.339002, 0.00354063, 0.359975, 0.357999, 0.358787, 0.367179, 0.376621, 0.376318, 0.380119, 0.383003, 0.382576, 0.383599, 0.40326, 0.403657, 0.404838, 0.00352975, 0.00328467, 0.00345327, 0.00326038, 0.00376537, 0.00328444, 0.00355791, 0.00369453, 0.00326462, 0.00354091, 0.00335024, 0.00343302, 0.00355038, 0.00338178, 0.00346207, 0.00349913, 0.00356741, 0.00324825, 0.794392, 0.00359646, 0.00358634, 0.617434, 0.618585, 0.619039, 0.62005, 0.618541, 0.612712, 0.613669, 0.615859, 0.617186, 0.617017, 0.617264, 0.615183, 0.616994, 0.616173, 0.617819, 0.618618, 0.619265, 0.62102, 0.619824, 0.630626, 0.630655, 0.631701, 0.63237, 0.639608, 0.643427, 0.645881, 0.646686, 0.00348024, 0.659512, 0.665783, 0.667386, 0.669918, 0.0034449, 0.684923, 0.690645, 0.6925, 0.700492, 0.70243, 0.709043, 0.711443, 0.713344, 0.716642, 0.721742, 0.00338223, 0.00346322, 0.737581, 0.00340724, 0.745672, 0.00355992, 0.00375703, 0.00327708, 0.770926, 0.775564, 0.77804, 0.780191, 0.781888, 0.789372, 0.794108, 0.794067, 0.00340206, 0.813304, 0.81534, 0.824148, 0.826843, 0.830692, 0.832871, 0.839949, 0.842891, 0.844101, 0.847159, 0.852861, 0.85594, 0.858633, 0.862478, 0.868287, 0.870112, 0.885945, 0.882667, 0.891355, 0.890921, 0.887159, 0.903605, 0.918115, 0.924398, 0.924066, 0.926795, 0.935274, 0.941253, 0.944639, 0.946137, 0.951423, 0.954554, 0.956626, 0.961718, 0.980329, 0.982338, 0.983381, 0.993044, 0.999581, 1.00287, 1.00467, 1.00604, 1.13793, 1.013, 1.01496, 1.01872, 1.023, 1.03436, 1.03764, 1.04233, 1.04269, 1.04649, 1.04909, 1.05123, 1.05621, 1.05723, 1.05694, 1.05849, 0.00346831, 0.00364977, 0.00347727, 0.00345187, 1.09924, 0.00347384, 1.11312, 1.11888, 1.12184, 1.12601, 1.12739, 1.13009, 1.1357, 1.1368, 1.13761, 1.14288, 0.00355483, 1.16011, 1.16181, 1.16351, 1.16719, 1.18487, 1.18764, 1.19335, 1.1944, 1.19424, 1.19513, 1.20705, 1.21154, 1.21219, 1.21989, 1.22193, 1.22615, 1.22789, 1.23186, 1.23645, 1.23817, 1.24097, 1.28506, 1.28965, 1.29143, 1.26085, 1.26389, 1.26727, 1.27037, 1.27339, 1.2773, 1.30596, 0.00319232, 1.29313, 1.29487, 1.29744, 1.3135, 1.31584, 0.00351232, 1.33181, 1.33108, 1.33385, 1.33421, 1.33632, 1.33943, 1.39642, 1.39844, 0.00346323, 1.35552, 1.36181, 1.36319, 1.37034, 1.3726, 1.37228, 1.37545, 1.37932, 1.37923, 1.38589, 1.4128, 1.39508, 1.4021, 1.40378, 1.4017, 1.40015, 1.41042, 0.00349365, 1.42241, 1.41775, 1.41751, 1.4223, 1.42724, 0.0036954, 0.00347004, 0.00334648, 1.45404, 1.45525, 1.45457, 1.45512, 1.4623, 0.00334885, 1.47495, 0.00339035, 0.00361066, 1.52005
0.106162, 0.104264, 0.109836, 0.110863, 0.10791, 0.110883, 0.107452, 0.118843, 0.120298, 0.119347, 0.130075, 0.132134, 0.131726, 0.141261, 0.146124, 0.145007, 0.00382668, 0.00347374, 0.00360359, 0.00320773, 0.00361616, 0.00355225, 0.231335, 0.234341, 0.233932, 0.234982, 0.235323, 0.234285, 0.23565, 0.00343442, 0.255106, 0.256061, 0.255548, 0.255892, 0.00343707, 0.00349135, 0.00363115, 0.300736, 0.301117, 0.300933, 0.300803, 0.0031896, 0.00368424, 0.00329745, 0.00347236, 0.00328949, 0.348868, 0.352861, 0.35294, 0.359421, 0.360663, 0.360737, 0.378863, 0.380053, 0.379975, 0.381296, 0.379156, 0.396905, 0.396837, 0.00332245, 0.412263, 0.00333358, 0.00362852, 0.00316766, 0.00349808, 0.00367382, 0.00340696, 0.0033591, 0.00375866, 0.488885, 0.490031, 0.490977, 0.49122, 0.00343667, 0.00350142, 0.00350093, 0.00338911, 0.00339329, 0.00340225, 0.00353345, 0.00343174, 0.00359256, 0.00342039, 0.615769, 0.617493, 0.617288, 0.618805, 0.617501, 0.615935, 0.616188, 0.615211, 0.620582, 0.617301, 0.616941, 0.616483, 0.616408, 0.615402, 0.616587, 0.617416, 0.618911, 0.62081, 0.620864, 0.63078, 0.624032, 0.624907, 0.632803, 0.635782, 0.643308, 0.644844, 0.00354874, 0.660549, 0.0031216, 0.671318, 0.674722, 0.675003, 1.23336, 1.23291, 0.70054, 0.701462, 0.708435, 0.709646, 0.710182, 0.708741, 0.71463, 0.715573, 0.00323984, 0.0037081, 0.736282, 0.00368727, 0.00332786, 0.755881, 0.758295, 0.764629, 0.771085, 0.772483, 0.771907, 0.778999, 0.783583, 0.786235, 0.786809, 0.00372298, 0.00344095, 0.817423, 0.819786, 0.824583, 0.00355824, 0.841546, 0.845511, 0.845168, 0.849526, 0.851567, 0.851963, 0.856162, 0.858173, 0.867534, 0.869566, 0.872109, 0.0033783, 0.895042, 0.895326, 0.899544, 0.900369, 0.901272, 0.904851, 0.920527, 0.923585, 0.928255, 0.935823, 0.938324, 0.942705, 0.942865, 0.947898, 0.950525, 0.955627, 0.958328, 0.00331655, 0.972322, 0.977069, 0.00338827, 0.991843, 0.991064, 0.992613, 0.99521, 0.998274, 1.13291, 1.01033, 1.01335, 1.0181, 1.0222, 1.02998, 1.03496, 1.03905, 0.0034577, 1.03812, 1.04203, 1.05197, 1.05612, 1.05933, 1.06022, 1.07047, 1.07365, 1.08039, 1.08198, 1.08865, 1.14048, 0.00341936, 0.00336069, 1.11766, 1.1256, 1.14754, 1.12604, 1.12971, 1.13208, 1.13424, 1.13828, 1.19906, 1.15118, 1.15527, 1.16171, 1.16352, 1.16845, 1.17102, 1.1942, 1.19361, 1.18383, 1.1843, 1.18532, 1.26708, 1.19323, 1.27102, 1.21766, 1.22199, 1.22312, 1.22671, 1.22922, 1.23427, 1.23581, 1.23997, 1.24303, 1.24357, 1.25735, 1.2594, 1.26177, 1.26529, 1.26738, 1.27482, 1.27582, 1.28161, 1.28988, 1.2901, 1.29322, 1.29662, 1.30693, 1.31463, 1.31985, 1.32302, 1.33294, 1.333, 1.3331, 1.33333, 1.34514, 1.38906, 1.38968, 1.34332, 1.36401, 1.40828, 1.36196, 1.36753, 1.36937, 1.37361, 1.3753, 1.37787, 1.37892, 1.38287, 1.39042, 1.39355, 1.39645, 1.40213, 1.4031, 1.40404, 1.40949, 1.41278, 1.41429, 1.41606, 1.42323, 1.42886, 1.4324, 1.43322, 1.4399, 0.00338408, 1.57056, 1.4489, 1.44891, 0.00356463, 0.00350304, 0.00304056, 1.47403, 0.00360718, 1.47885, 0.00357748
0.100182, 0.104605, 0.105356, 0.10868, 0.108396, 0.1063, 0.109449, 0.111068, 0.119742, 0.114968, 0.00351452, 0.13815, 0.00349718, 0.146631, 0.137162, 0.137351, 0.00325146, 0.00361611, 0.00320019, 0.00372929, 0.00341828, 0.00352839, 0.228415, 0.225098, 0.225922, 0.226783, 0.232102, 0.229795, 0.00329807, 0.2376, 0.00338595, 0.251648, 0.254556, 0.255612, 0.0033547, 0.00327207, 0.00338478, 0.00348178, 0.0034747, 0.299044, 0.00318609, 0.00343175, 0.00359263, 0.00363639, 0.00332919, 0.00354825, 0.339044, 0.341166, 0.00355382, 0.358067, 0.360281, 0.375808, 0.376904, 0.37814, 0.380372, 0.380755, 0.385406, 0.398929, 0.400407, 0.400149, 0.00325545, 0.0034503, 0.00346054, 0.0032905, 0.00348265, 0.00347143, 0.00340303, 0.00341767, 0.00348142, 0.00357241, 0.488674, 0.00369769, 1.08898, 0.00352351, 0.00330601, 0.00384174, 0.00355912, 0.00363951, 0.00339021, 0.0036768, 0.00353355, 0.00344568, 0.00318226, 0.6146, 0.618054, 0.618673, 0.618598, 0.619047, 0.618248, 0.616851, 0.617174, 0.615998, 0.616231, 0.611079, 0.61104, 0.617085, 0.615142, 0.616631, 0.615676, 0.615584, 0.613188, 0.620868, 0.622102, 0.630478, 0.631943, 0.633086, 0.633029, 0.642008, 0.643124, 0.650967, 0.659551, 0.659268, 0.00327498, 0.0032882, 0.6816, 0.683771, 0.0034552, 0.701066, 0.702328, 0.703753, 0.704567, 0.707212, 0.70976, 0.718329, 0.719566, 0.722661, 0.730339, 0.732879, 0.00335661, 0.00369547, 0.00325415, 0.762346, 0.766077, 0.768905, 0.77385, 0.775666, 0.776547, 0.784546, 0.789164, 0.797714, 0.799505, 0.808549, 0.811181, 0.816873, 0.00325729, 0.837442, 0.841125, 0.843061, 0.846568, 0.848747, 0.848756, 0.85557, 0.853526, 0.86274, 0.866333, 0.87056, 0.876296, 0.00358541, 0.00339121, 0.889124, 0.898508, 1.00206, 0.00316299, 0.916478, 0.918829, 0.941434, 0.943026, 0.933992, 0.937166, 0.939238, 0.942209, 0.942374, 0.951271, 0.952299, 0.960585, 0.966617, 0.967604, 0.97, 0.975201, 0.00335891, 0.986634, 0.991568, 0.0034682, 0.00342431, 1.00797, 1.01023, 1.01253, 1.01513, 1.01694, 1.03144, 1.03444, 1.03574, 1.03552, 1.03687, 1.0389, 1.05074, 1.055, 1.0593, 1.06069, 1.07188, 1.07526, 0.00323211, 1.08907, 1.09099, 1.08818, 1.10875, 1.11077, 1.11463, 1.11682, 1.11546, 1.11767, 1.12468, 1.12716, 1.13401, 1.13643, 1.14658, 1.14957, 1.1532, 0.0033858, 1.25493, 1.1741, 1.17622, 1.18384, 1.18639, 1.18962, 1.18995, 1.18679, 1.1912, 1.19472, 1.32765, 1.32871, 1.21429, 1.22027, 1.223, 1.23138, 1.23307, 1.23906, 1.24659, 1.24781, 1.24797, 1.25357, 1.26029, 1.26075, 1.26428, 1.27016, 0.00349126, 1.27785, 1.28524, 1.28493, 1.28916, 1.29661, 1.29905, 0.0034011, 1.31193, 0.00319783, 1.32127, 1.32709, 1.32866, 1.3306, 1.36869, 1.37915, 1.38089, 0.00347509, 1.45269, 1.45438, 1.40029, 1.39288, 1.4019, 1.36767, 1.37065, 1.376, 1.37679, 1.37703, 1.38704, 1.38311, 1.38834, 1.39866, 1.41956, 1.4058, 1.40791, 1.40855, 1.4077, 1.40967, 1.41405, 1.41953, 1.42476, 1.43443, 1.4323, 1.43673, 1.43759, 1.4435, 1.44094, 1.44294, 0.00364671, 0.00353607, 1.47752, 1.47906, 1.47665, 1.47915, 1.51103
0.101082, 0.100682, 0.103338, 0.10387, 0.101542, 0.108136, 0.108077, 0.110256, 0.112403, 0.00339717, 0.135652, 0.135354, 0.135422, 0.00357625, 0.00326475, 0.00358753, 0.00338363, 0.00349266, 0.00349194, 0.193019, 0.189522, 0.00335678, 0.224851, 0.226002, 0.226652, 0.227069, 0.227849, 0.229339, 0.230688, 0.242907, 0.242566, 0.244936, 0.245178, 0.00337772, 0.272277, 0.273169, 0.272636, 0.286544, 0.286335, 0.00345436, 0.00328998, 0.00330745, 0.324871, 0.325275, 0.334366, 0.334774, 0.345885, 0.346777, 0.347977, 0.352147, 0.352296, 0.00322301, 0.360164, 0.376093, 0.377077, 0.380812, 0.00352711, 0.399302, 0.400617, 0.0034449, 0.00348932, 0.00367521, 0.0036462, 0.00334904, 0.00362089, 0.00331018, 0.00337541, 0.00332058, 0.00335555, 0.0032607, 0.00351733, 0.00344675, 0.00344142, 0.00334996, 0.00378131, 0.00354597, 0.565739, 0.566429, 0.566618, 0.00340155, 0.00330361, 0.00331705, 0.618504, 0.617889, 0.619982, 0.620514, 0.620386, 0.618803, 0.620711, 0.617486, 0.613961, 0.612158, 0.61179, 0.611042, 0.610629, 0.609067, 0.611411, 0.611972, 0.614476, 0.613514, 0.614075, 0.614459, 0.614056, 0.00383781, 0.628183, 0.631804, 0.636595, 0.638916, 0.00353492, 0.656549, 0.658876, 0.660419, 0.658678, 0.00338349, 0.00361851, 0.686933, 0.00367696, 0.698656, 0.701561, 0.703198, 0.702992, 0.703908, 0.721371, 0.724929, 0.725375, 0.724607, 0.736097, 0.740213, 0.743413, 0.00327842, 0.755213, 0.00343635, 0.00327454, 0.0033809, 0.774672, 0.779283, 0.787555, 0.00316087, 0.798504, 0.800865, 0.801917, 0.807565, 0.809182, 0.823044, 0.826371, 0.834556, 0.839041, 0.840399, 0.84379, 0.846005, 0.847398, 0.856506, 0.858258, 0.860128, 0.861759, 0.864265, 0.865946, 0.0033731, 0.00354557, 0.00341725, 0.00352087, 0.902542, 0.910832, 0.91338, 0.924853, 0.925473, 0.927638, 0.00348902, 0.938968, 0.940795, 0.944354, 0.947261, 0.949752, 0.953876, 0.963402, 0.963597, 0.96751, 0.969772, 0.974865, 0.979236, 0.983822, 0.989663, 0.996509, 0.997092, 1.00143, 1.00736, 0.00340983, 0.00351754, 0.00353962, 1.02726, 1.0291, 1.03441, 1.03448, 1.0364, 1.03991, 1.04013, 0.00364243, 0.00342802, 1.06333, 1.06748, 1.07162, 1.07486, 1.08141, 1.08476, 0.00346809, 0.00340761, 1.11225, 1.11594, 1.11488, 1.11558, 1.11949, 1.12297, 1.12678, 1.12932, 1.13987, 1.14277, 1.14679, 1.15388, 1.16119, 1.16468, 0.00339619, 1.17605, 1.18315, 1.18616, 1.18725, 1.18622, 1.19225, 1.19456, 1.19563, 1.22215, 0.00363611, 1.22299, 1.22381, 1.22701, 1.22802, 1.23093, 1.23976, 1.2425, 1.25004, 1.24957, 1.253, 1.26103, 1.26157, 1.26838, 1.27222, 1.27485, 1.27767, 1.28935, 1.29333, 1.29497, 1.30007, 1.30332, 1.30721, 1.31319, 1.34336, 0.00348917, 1.32558, 0.00330253, 1.34386, 0.00339638, 1.38351, 1.34013, 1.33962, 1.34274, 1.38803, 1.39282, 1.35692, 1.35793, 1.36304, 1.3629, 1.36995, 1.399, 1.37913, 1.38471, 1.38302, 1.38703, 1.39474, 1.39416, 1.39985, 1.40572, 1.40687, 1.40845, 1.41265, 1.44398, 1.42336, 1.42645, 1.42718, 1.43265, 1.43357, 1.43477, 1.43823, 1.44197, 1.44543, 1.52403, 1.52468, 1.52341, 1.50359, 1.47339, 1.47772, 1.47833
0.0942883, 0.10094, 0.0972538, 0.100054, 0.100141, 0.10041, 0.102507, 0.106887, 0.10342, 0.111853, 0.111791, 0.111684, 0.003318, 0.00348716, 0.00338199, 0.0036383, 0.00359095, 0.170253, 0.177176, 0.178168, 0.00320474, 0.00355472, 0.00343027, 0.220914, 0.225215, 0.217429, 0.220881, 0.2225, 0.00334658, 0.243558, 0.245208, 0.24557, 0.245007, 0.244981, 0.269203, 0.2687, 0.268565, 0.268467, 0.00332071, 0.00376837, 0.00311798, 0.327123, 0.329016, 0.329105, 0.329993, 0.341907, 0.342294, 0.00373665, 0.345327, 0.350795, 0.353052, 0.357519, 0.376345, 0.377587, 0.377531, 0.377862, 0.382811, 0.382468, 0.00342662, 0.00341342, 0.00335291, 0.418195, 0.0034936, 0.00350977, 0.00340608, 0.452877, 0.00332624, 0.00350238, 0.00322925, 0.00312916, 0.00350718, 0.00363905, 0.00333052, 0.00342025, 0.00333158, 0.00354118, 0.0035523, 0.00342326, 0.00326626, 0.00361483, 0.00342071, 0.00350709, 0.615856, 0.617069, 0.618743, 0.619423, 0.616968, 0.608831, 0.608655, 0.611725, 0.61103, 0.605148, 0.607231, 0.605517, 0.607595, 0.609324, 0.608472, 0.60997, 0.610684, 0.611542, 0.612012, 0.610886, 0.610799, 0.0034595, 0.00328917, 0.634337, 0.636198, 0.637792, 0.644705, 0.6426, 0.653587, 1.06052, 0.00331103, 0.00367407, 0.682954, 0.6859, 0.686701, 0.688681, 0.702124, 0.705552, 0.712369, 0.716241, 0.723408, 0.725592, 0.728399, 0.728671, 0.735736, 0.743862, 0.745212, 0.74557, 0.746665, 0.75749, 0.759344, 0.763578, 0.00359539, 0.784954, 0.788624, 0.796509, 0.80017, 0.803266, 0.80532, 0.808818, 0.00337944, 0.820945, 0.82334, 0.825879, 0.83393, 0.836367, 0.840656, 0.844417, 0.849301, 0.856382, 0.858748, 0.859177, 0.860919, 0.864245, 0.867089, 0.870185, 0.869461, 0.00367975, 0.00311302, 0.00354224, 0.00332989, 0.914843, 0.916838, 0.922242, 0.92935, 0.933569, 0.938016, 0.940347, 0.939882, 0.939904, 0.949497, 0.95949, 0.959945, 0.96229, 0.966674, 0.971473, 0.975217, 0.976468, 0.983764, 0.986911, 0.990608, 0.993917, 1.00081, 1.00948, 0.00322363, 1.01811, 1.02604, 1.02679, 1.03011, 1.03389, 1.03562, 1.03774, 1.03961, 1.31613, 1.04963, 1.05165, 1.05757, 1.06717, 1.07094, 1.07435, 1.07898, 1.08584, 0.00340587, 1.10215, 1.10522, 1.10772, 1.10808, 1.1126, 1.11672, 1.11862, 1.12449, 1.12649, 1.13414, 1.14263, 1.14707, 1.15099, 1.72037, 1.72118, 1.16717, 1.17151, 1.17744, 1.18361, 0.00337992, 1.1949, 1.19769, 1.20036, 1.20344, 1.21226, 1.21321, 1.28485, 1.22355, 1.2239, 1.22582, 1.23292, 1.23592, 1.23781, 1.24462, 1.24896, 1.25438, 1.25662, 1.25932, 1.34207, 0.00303468, 1.28512, 1.28858, 1.29099, 1.29538, 1.29856, 1.30446, 1.30783, 1.31293, 1.31251, 1.313, 1.35426, 1.32413, 1.32718, 1.32687, 1.33023, 1.33703, 1.341, 1.34122, 1.34421, 1.34516, 1.34991, 1.34918, 1.39208, 1.36138, 1.36537, 1.3709, 1.37055, 1.37062, 1.37311, 1.38442, 1.38441, 1.39231, 1.39341, 1.39536, 1.39942, 1.40342, 1.40336, 1.41154, 1.41051, 1.42085, 1.4208, 1.43058, 1.43059, 1.43085, 1.43044, 1.43077, 1.44127, 1.44176, 1.4477, 1.45039, 1.50845, 1.51331, 1.4634, 1.46755, 1.46959
0.0922484, 0.092468, 0.0933694, 0.0964698, 0.0989989, 0.103518, 0.109412, 0.10812, 0.109896, 0.111142, 0.112107, 0.112739, 0.00361237, 0.00350268, 0.00359529, 0.00337178, 0.175834, 0.176596, 0.178692, 0.00345636, 0.00353303, 0.00345336, 0.00342612, 0.00356976, 0.216603, 0.215832, 0.21771, 0.216526, 0.24246, 0.244597, 0.245688, 0.245918, 0.246514, 0.00343252, 0.268125, 0.269104, 0.272041, 0.270547, 0.289095, 0.291014, 0.00361419, 0.00344936, 0.331216, 0.331551, 0.333713, 0.333893, 0.336501, 0.340849, 0.340991, 0.341309, 0.341373, 0.372887, 0.373796, 0.376809, 0.379314, 0.380726, 0.381892, 0.00345813, 0.00360314, 0.00345607, 0.00355838, 0.00338835, 0.00356575, 0.00345241, 0.00362568, 0.00328428, 0.00365062, 0.00336698, 0.00340739, 0.00343757, 0.00363529, 0.00344419, 0.00343967, 0.00329244, 0.00356236, 0.00313459, 0.00342816, 0.00349496, 0.00344321, 0.00335203, 0.00345622, 0.61658, 0.619412, 0.620189, 0.621427, 0.6204, 0.611234, 0.607041, 0.609326, 0.609724, 0.605531, 0.599346, 0.603265, 0.600933, 0.604312, 0.604833, 0.607092, 0.604802, 0.607604, 0.610183, 0.610456, 0.608885, 0.608049, 0.00321781, 0.62571, 0.628341, 0.632773, 0.638384, 0.639386, 0.646064, 0.646842, 0.00351996, 0.00356677, 0.00327552, 0.00356666, 0.00347646, 0.68777, 0.700453, 0.702269, 0.705582, 0.714703, 0.716487, 0.718338, 0.726483, 0.728881, 0.727111, 0.735969, 0.743858, 0.744482, 0.747545, 0.74854, 0.748544, 0.761087, 0.762577, 0.00354155, 0.00322765, 0.00378268, 0.794633, 0.799758, 0.80208, 0.803162, 0.0034516, 0.813942, 0.818437, 0.0034645, 0.00322133, 0.831959, 0.834861, 0.837492, 0.843031, 0.849805, 0.85143, 0.855859, 0.858899, 0.859456, 0.86789, 0.869906, 0.00333916, 0.00348103, 0.887078, 0.89527, 0.00323565, 0.907985, 0.909666, 0.918653, 0.92214, 0.92567, 0.931057, 0.934253, 0.938569, 0.942479, 0.943312, 0.945757, 0.955069, 0.955021, 0.957125, 0.00370319, 0.973785, 0.975432, 0.977832, 0.97957, 0.00346016, 0.992021, 0.996271, 1.00523, 1.00933, 1.01811, 1.017, 1.0194, 1.0226, 1.02737, 1.02946, 1.03299, 1.03518, 1.03526, 0.00332993, 1.04446, 1.0561, 1.05795, 1.0676, 1.07047, 1.07195, 0.00314687, 1.12329, 1.09299, 1.09612, 1.09841, 1.10185, 1.10769, 1.11153, 1.11305, 1.1218, 1.12276, 1.13149, 1.13537, 1.13714, 1.1465, 0.00338336, 0.00369658, 0.00342473, 1.17773, 1.17772, 1.18055, 1.21953, 1.19499, 1.1923, 1.19802, 0.00334038, 1.20765, 1.20807, 1.40586, 1.21606, 1.21805, 1.22285, 1.22409, 1.23255, 1.23232, 1.23965, 1.24435, 1.24697, 1.36452, 1.25706, 1.25998, 1.26682, 1.26867, 1.29913, 1.28623, 1.31692, 1.29945, 1.3008, 1.30454, 1.30517, 1.30955, 1.31166, 1.31833, 1.32003, 1.32361, 1.32531, 1.32875, 1.33591, 1.33804, 1.34001, 1.34193, 1.34536, 1.34675, 1.34481, 1.349, 1.35016, 1.36239, 1.36794, 1.36622, 1.37209, 1.36795, 1.37792, 1.38244, 1.38444, 1.38996, 1.39732, 1.39689, 1.39491, 1.40014, 1.41081, 1.41416, 1.41517, 1.42654, 1.42565, 1.43027, 1.4281, 1.4274, 1.42701, 1.43525, 1.43618, 1.43823, 1.4442, 0.00352694, 1.49131, 1.46233, 1.4625, 1.462, 1.46857
0.0939241, 0.0942523, 0.0942536, 0.0942163, 0.00335726, 0.1078, 0.107018, 0.111466, 0.112518, 0.113141, 0.112908, 0.00327507, 0.00357005, 0.155749, 0.156485, 0.00338409, 0.00357259, 0.174293, 0.174162, 0.175086, 0.00330272, 0.196411, 0.00343992, 0.210484, 0.215749, 0.21237, 0.214518, 0.215791, 0.215567, 0.00338662, 0.00337073, 0.00364123, 0.263256, 0.263807, 0.265805, 0.265895, 0.271496, 0.271154, 0.0035648, 0.00380505, 0.00331081, 0.00344405, 0.00351158, 0.326851, 0.330769, 0.331079, 0.334263, 0.336427, 0.33689, 0.344025, 0.343557, 0.370249, 0.371648, 0.373635, 0.00338795, 0.00355224, 0.00322281, 0.0034247, 0.0035652, 0.00347935, 0.00342208, 0.00353475, 0.003314, 0.0034713, 0.00340464, 0.00344135, 0.00325716, 0.00335745, 0.00330382, 0.00333658, 0.00356357, 0.00338014, 0.0036754, 0.00372344, 0.00324074, 0.00352373, 0.00340343, 0.00367032, 0.00321674, 0.00358867, 0.615848, 0.617615, 0.618881, 0.619541, 0.618462, 0.605475, 0.604881, 0.604464, 0.60221, 0.60353, 0.603515, 0.601496, 0.601572, 0.602139, 0.601895, 0.601234, 0.60248, 0.607688, 0.607689, 0.609554, 0.608415, 0.60321, 0.00340388, 0.00323212, 0.621909, 0.624624, 0.630285, 0.630002, 0.639564, 0.650329, 0.652072, 0.653065, 0.00350639, 0.0037998, 0.00352503, 0.00337267, 0.694955, 0.69779, 0.698696, 0.707536, 0.708647, 0.709597, 0.721109, 0.722986, 0.724565, 0.726849, 0.727981, 0.0034549, 0.742988, 0.743782, 0.749879, 0.00332577, 0.00343776, 0.00346357, 0.00341926, 0.00319671, 0.00343852, 0.791835, 0.792686, 0.793027, 0.802288, 0.805917, 0.807876, 0.812106, 0.00339289, 0.00344171, 0.00338351, 0.835175, 0.838474, 0.839592, 0.847888, 0.853737, 0.856033, 0.85839, 0.86145, 0.864857, 0.00342108, 0.882051, 0.885137, 0.890163, 0.00355714, 0.907945, 0.91223, 0.914748, 0.919233, 0.920697, 0.924858, 0.92564, 0.933435, 0.00347109, 0.9369, 0.942711, 0.949474, 0.953323, 0.956478, 0.959854, 0.96107, 0.966969, 0.970451, 0.973345, 0.0032486, 0.00344794, 0.988966, 0.996495, 0.99885, 1.01155, 1.01073, 1.0141, 1.01925, 1.02359, 1.02664, 1.0326, 1.03045, 1.03117, 1.03232, 1.04264, 1.05041, 1.05297, 1.06084, 1.06771, 1.07054, 1.07377, 0.00331032, 1.08577, 1.08999, 1.09248, 1.0983, 1.10119, 1.10218, 1.11092, 1.11398, 1.11679, 1.12251, 1.12786, 1.26905, 1.27084, 0.00343947, 1.15804, 1.15962, 1.16214, 1.16417, 1.1687, 0.00332058, 0.0032126, 1.62606, 1.1948, 1.19835, 1.19923, 1.20311, 1.24609, 1.2113, 1.21549, 1.21904, 1.22059, 1.22683, 1.22914, 1.23631, 1.23816, 1.24133, 1.24531, 1.24981, 1.2508, 0.0033438, 1.26373, 1.44613, 1.27757, 1.27869, 0.00359646, 1.29022, 1.29878, 1.30217, 1.30598, 1.30711, 1.31276, 1.31592, 1.31888, 1.3193, 1.3268, 1.32807, 1.33128, 1.3418, 1.34365, 1.34465, 1.33672, 1.33541, 1.33725, 1.35014, 1.35253, 1.35568, 1.35969, 1.36352, 1.36465, 1.3779, 1.37993, 1.38, 1.38682, 0.00346088, 1.39981, 1.39561, 1.39664, 1.40021, 1.40282, 1.44198, 1.43453, 1.41813, 1.41953, 1.41874, 1.42467, 1.42561, 1.42917, 1.43034, 1.43346, 0.0034295, 1.43597, 1.43772, 1.50722, 1.49702, 1.46313, 1.4639, 1.46769
0.0786383, 0.0856951, 0.00351428, 0.00323521, 0.100882, 0.106092, 0.105411, 0.00342076, 0.117503, 0.00348443, 0.00361013, 0.00318029, 0.149759, 0.150778, 0.151331, 0.00345207, 0.00354229, 0.00313921, 0.0036089, 0.00335228, 0.190239, 0.00337139, 0.198669, 0.195787, 0.196104, 0.202739, 0.214564, 0.21526, 0.00366431, 0.00324749, 0.00362999, 0.00346216, 0.00352881, 0.264197, 0.265087, 0.264631, 0.00387021, 0.0032202, 0.00336708, 0.00324798, 0.297719, 0.00349155, 0.00345429, 0.00335448, 0.322651, 0.334252, 0.3372, 0.337698, 0.338302, 0.338031, 0.00345464, 0.370683, 0.371983, 0.367093, 0.36954, 0.369962, 0.00352732, 0.00323715, 0.00353926, 0.00337545, 0.00343874, 0.0032648, 0.00355938, 0.00341851, 0.447177, 0.00342818, 0.00357351, 0.00329651, 0.0035342, 0.00345032, 0.00367716, 0.00343978, 0.00350263, 0.00323428, 0.00360055, 0.00334691, 0.0034335, 0.00335071, 0.00366291, 0.00354271, 0.614481, 0.616518, 0.621111, 0.621071, 0.619174, 0.607431, 0.608148, 0.601182, 0.60103, 0.60274, 0.594869, 0.596908, 0.596841, 0.596449, 0.600367, 0.600988, 0.60229, 0.606357, 0.607438, 0.601316, 0.602403, 0.604906, 0.609227, 0.611859, 0.621906, 0.631191, 0.633345, 0.633759, 0.633856, 0.643425, 0.645128, 0.00342739, 0.00348997, 0.00359247, 0.00348734, 0.00323258, 0.688894, 0.698972, 0.700302, 0.700006, 0.70078, 0.70553, 0.707151, 0.713976, 0.72296, 0.725592, 0.733366, 0.734817, 0.737629, 0.742447, 0.745444, 0.746953, 0.751918, 0.00331523, 0.00330059, 0.00345173, 0.778482, 0.783319, 0.785656, 0.00346515, 0.801015, 0.802131, 0.802938, 0.00322427, 0.00356393, 0.00330828, 0.832802, 0.835342, 0.836571, 0.840158, 0.84936, 0.850893, 0.851594, 0.853795, 0.867071, 0.86857, 0.868283, 0.00354629, 0.00332512, 0.00309734, 0.00353387, 0.907958, 0.911405, 0.915617, 0.918371, 0.919628, 0.922265, 0.924257, 0.925966, 0.00313185, 0.934019, 0.941074, 0.00353202, 0.956051, 0.960421, 0.962985, 0.966486, 0.970813, 0.972297, 0.976562, 0.980419, 0.986587, 0.00355625, 0.00344738, 1.00298, 1.00659, 1.00856, 1.01139, 1.01567, 0.00314464, 1.02642, 1.02729, 1.02957, 1.03407, 1.03725, 1.04517, 1.0468, 1.05425, 0.00375122, 1.15061, 1.07224, 0.003138, 1.08544, 1.08783, 1.08918, 1.09263, 1.09395, 1.10216, 1.103, 1.1102, 1.11527, 1.11628, 1.12393, 1.12779, 1.24347, 0.00338411, 0.00365698, 1.15193, 1.1563, 0.00343892, 1.16644, 1.1742, 0.00329119, 1.18444, 0.0032745, 1.22502, 1.19968, 1.20166, 1.20597, 1.20693, 1.21044, 1.2123, 1.22058, 1.22338, 1.22586, 1.23078, 1.23263, 0.0033406, 1.24497, 1.24798, 1.25168, 1.25275, 1.25852, 0.0032931, 1.27085, 1.27111, 1.27512, 1.27946, 0.00350786, 0.00335207, 0.00358035, 1.30786, 1.30969, 1.3123, 1.31359, 1.31624, 0.00351682, 1.3242, 1.32693, 1.33655, 1.33526, 1.3376, 1.3381, 1.33877, 1.34368, 1.3476, 1.35054, 1.35287, 1.35704, 1.36044, 1.3593, 1.36549, 0.0036395, 1.43949, 1.38026, 1.38306, 1.38459, 0.00336943, 1.39538, 1.39813, 1.39824, 1.40712, 1.4066, 1.41144, 1.48881, 1.41951, 1.41907, 1.42054, 1.42335, 1.42101, 1.45043, 1.42615, 1.43484, 1.4382, 1.43692, 1.4408, 1.50736, 1.46084, 1.46546, 1.46727
0.0766075, 0.0776083, 0.00322642, 0.0977692, 0.0999019, 0.101195, 0.00342266, 0.10799, 0.00327571, 0.00327703, 0.0032945, 0.151616, 0.151548, 0.152686, 0.153849, 0.153719, 0.00334217, 0.183807, 0.184133, 0.186376, 0.184095, 0.193082, 0.186361, 0.194233, 0.194694, 0.197596, 0.204431, 0.221514, 0.220153, 0.228383, 0.22762, 0.228628, 0.00313242, 0.00340351, 0.00356144, 0.00340362, 0.00343377, 0.275872, 0.00341419, 0.300028, 0.300817, 0.301295, 0.00342093, 0.00346, 0.325517, 0.00324155, 0.337801, 0.335649, 0.335705, 0.00347937, 0.356833, 0.365802, 0.360043, 0.3595, 0.369623, 0.373018, 0.37225, 0.404155, 0.405482, 0.00355376, 0.00340385, 0.00324494, 0.00330059, 0.00365199, 0.00351032, 0.00340039, 0.00341402, 0.00334382, 0.0033651, 0.00329863, 0.0034796, 0.00341505, 0.00332275, 0.00357964, 0.00321502, 0.00345285, 0.00365268, 0.00349219, 0.00332796, 0.00366973, 0.611007, 0.612292, 0.613988, 0.612153, 0.611239, 0.607651, 0.608094, 0.596971, 0.590289, 0.589064, 0.592045, 0.59238, 0.594849, 0.59669, 0.600032, 0.600659, 0.60052, 0.60041, 0.598473, 0.597565, 0.597541, 0.60791, 0.611394, 0.61973, 0.619564, 0.631576, 0.634757, 0.63651, 0.636364, 0.637993, 0.645411, 0.00359617, 0.00321223, 0.00322457, 0.671963, 0.677909, 0.690226, 0.691466, 0.691303, 0.693996, 0.699759, 0.00344209, 0.706142, 0.71134, 0.712738, 0.71491, 0.725377, 0.72668, 0.727032, 0.738318, 0.743198, 0.745915, 0.746888, 0.756962, 0.76057, 0.763047, 0.767291, 0.779692, 0.782048, 0.790793, 0.794477, 0.796205, 0.797184, 0.00361469, 0.00359556, 0.827052, 0.83128, 0.832374, 0.834997, 0.837338, 0.00313166, 0.00331321, 0.851047, 0.857163, 0.00339198, 0.871729, 0.874093, 0.891957, 0.893008, 0.895397, 1.18677, 0.90648, 0.90909, 0.913693, 0.916593, 0.915648, 0.917111, 0.918557, 0.00318952, 0.928639, 0.00332963, 0.00353406, 0.949637, 0.951822, 1.47409, 0.964498, 0.969663, 0.970209, 0.974918, 0.97816, 0.982928, 0.988135, 0.00318712, 0.99809, 1.00226, 1.00545, 0.00352508, 0.00370706, 1.01543, 1.02019, 1.02638, 1.03007, 1.03157, 1.03341, 1.0366, 1.04017, 0.0032734, 1.05314, 1.06083, 1.06329, 1.11269, 0.00348832, 1.08233, 1.08542, 1.08834, 1.09331, 1.09652, 1.09974, 1.10291, 1.11037, 1.11513, 1.11835, 1.73778, 1.12994, 1.13353, 1.14094, 1.14441, 1.14824, 0.00331995, 1.1795, 1.18176, 1.18244, 1.18407, 1.18715, 1.18793, 1.19154, 1.19653, 1.19937, 1.20183, 1.20518, 1.2075, 1.21304, 1.21577, 1.2194, 1.2268, 0.00345493, 1.23784, 1.24018, 1.24527, 1.24644, 1.24992, 1.25331, 1.25905, 1.26081, 1.26853, 1.27139, 1.4063, 1.28492, 1.28695, 1.28945, 0.00345611, 1.33535, 0.00344779, 1.30723, 1.31029, 1.31202, 1.31695, 1.31951, 1.32527, 1.32969, 1.32987, 1.33929, 1.3381, 1.34269, 1.34057, 1.34316, 1.34759, 1.35421, 1.35654, 1.3574, 1.35665, 1.36442, 1.36473, 1.36737, 1.37309, 1.37682, 1.38272, 1.38507, 1.39004, 1.3967, 1.39678, 1.40169, 1.40558, 1.40665, 1.40807, 1.41289, 0.00326715, 1.42195, 1.42244, 1.42235, 1.4244, 1.4277, 1.43442, 1.43977, 1.43989, 0.00353147, 1.46307, 1.46187, 1.46434, 1.46816
0.0772612, 0.00338426, 0.0034541, 0.00334088, 0.102564, 0.103075, 0.105386, 0.106182, 0.00344371, 0.00336972, 0.00336172, 0.148033, 0.15188, 0.153856, 0.153594, 0.154003, 0.160245, 0.18235, 0.184619, 0.184034, 0.183611, 0.187498, 0.18751, 0.190703, 0.19731, 0.00340956, 0.00345319, 0.214769, 0.215523, 0.228073, 0.228813, 0.230698, 0.231956, 0.00353059, 0.00342263, 0.00354867, 0.00335436, 0.276557, 0.00353558, 0.00330352, 0.00328102, 0.00341989, 0.00359584, 0.313644, 0.314793, 0.326539, 0.327669, 0.328201, 0.329488, 0.330876, 0.341144, 0.00337915, 0.0034114, 0.00308187, 0.00343575, 0.00325914, 0.00357063, 0.00321161, 0.401089, 0.00350398, 0.00354816, 0.00332391, 0.0035408, 0.00317351, 0.00343639, 0.00358702, 0.0035557, 0.00342588, 0.00350818, 0.00343078, 0.0033906, 0.00346243, 0.00347783, 0.00342964, 0.00369366, 0.00342375, 0.0035248, 0.00334832, 0.00345077, 0.00333513, 0.00331225, 0.00344962, 0.610359, 0.611392, 0.600233, 0.00346218, 0.590141, 0.587251, 0.589458, 0.588536, 0.58873, 0.589805, 0.588488, 0.59439, 0.593433, 0.597327, 0.600359, 0.60211, 0.596072, 0.596896, 0.597016, 0.617411, 0.618737, 0.620364, 0.620949, 0.621755, 0.632054, 0.63288, 0.636334, 0.638101, 0.637967, 0.651039, 0.653097, 0.653817, 0.677156, 0.679125, 0.680622, 0.682122, 0.681652, 0.688207, 0.689269, 0.692802, 0.692443, 0.712169, 0.712305, 0.713646, 0.714604, 0.725897, 0.732243, 0.735119, 0.736684, 0.00358441, 0.752207, 0.755639, 0.759063, 0.00325995, 0.773414, 0.779542, 0.781415, 0.791817, 0.794357, 0.797136, 0.804676, 0.805855, 0.817907, 0.824903, 0.827699, 0.829473, 0.832105, 0.834206, 0.839453, 0.844434, 0.00342833, 0.00317037, 0.00350917, 0.00337606, 0.00326689, 0.89092, 0.893162, 0.894936, 0.896837, 0.900107, 0.902961, 0.90526, 0.911085, 0.909992, 0.91513, 0.918827, 0.00351498, 0.00348549, 0.938408, 0.942583, 0.945481, 0.947158, 0.00345266, 0.00348604, 0.971302, 0.97524, 0.976581, 0.977565, 0.981191, 0.00333341, 0.00362125, 0.00325997, 0.999252, 1.00445, 1.00658, 0.00334808, 1.01968, 1.02456, 1.02766, 1.03187, 1.03528, 1.03995, 1.03962, 1.04511, 1.04987, 0.00354399, 1.06245, 1.0646, 1.06967, 1.07113, 1.08165, 1.08524, 1.08722, 1.08892, 1.093, 1.1001, 1.10493, 1.10854, 1.11388, 1.11865, 1.22177, 0.00326513, 1.13638, 1.13901, 1.14148, 0.00364763, 1.17785, 1.1806, 1.18029, 1.18243, 1.18307, 1.18477, 0.00331016, 1.18957, 1.19334, 1.1974, 1.20506, 1.20738, 1.20956, 1.21288, 1.21629, 1.22217, 0.00356477, 1.24622, 1.23523, 1.24341, 1.24476, 1.2459, 1.24936, 1.34876, 1.3542, 0.00338982, 1.26824, 0.00342033, 0.0032865, 1.28292, 1.28514, 1.28838, 0.00364715, 1.29624, 0.00361659, 1.30874, 1.30889, 1.313, 1.31355, 1.31746, 1.33028, 1.33334, 1.33365, 1.33796, 1.33711, 1.33937, 1.34296, 1.34459, 1.34351, 1.35035, 1.35409, 1.3568, 1.36116, 1.36156, 1.36745, 1.36859, 1.3686, 1.38136, 1.38098, 1.38641, 1.39178, 0.0035071, 1.39871, 1.40335, 1.40356, 1.40558, 1.40595, 1.40943, 1.41305, 1.41344, 1.417, 1.42237, 1.42328, 1.42768, 1.43001, 1.48555, 0.00348813, 0.00326505, 1.46099, 1.46159, 1.46679, 1.46704
0.00347632, 0.00336582, 0.0962658, 0.0951804, 0.0969833, 0.0980082, 0.106762, 0.105052, 0.106156, 0.00364049, 0.00334522, 0.1382, 0.140962, 0.0033146, 0.00347563, 0.00327899, 0.0032531, 0.179857, 0.18277, 0.185186, 0.184133, 0.18455, 0.186998, 0.188084, 0.19251, 0.193726, 0.194857, 0.209052, 0.212419, 0.215645, 0.229119, 0.234368, 0.00319989, 0.00353923, 0.00341611, 0.00368533, 0.0033959, 0.00342719, 0.283583, 0.289236, 0.29123, 0.292218, 0.312871, 0.31362, 0.313819, 0.321656, 0.325751, 0.329499, 0.331093, 0.332146, 0.00349104, 0.00346102, 0.00339027, 0.00362243, 0.00328081, 0.00339877, 0.00338268, 0.397093, 0.397909, 0.398098, 0.0033089, 0.00355439, 0.00331677, 0.00332339, 0.00340828, 0.00348879, 0.00324206, 0.0034594, 0.00342741, 0.00362047, 0.00347297, 0.00337137, 0.00336691, 0.00343059, 0.00342116, 0.00374019, 0.00310697, 0.00349123, 0.59586, 0.593404, 0.585171, 0.586916, 0.585937, 0.585198, 0.586993, 0.586203, 0.588223, 0.587974, 0.589336, 0.588269, 0.589842, 0.591706, 0.591067, 0.589546, 0.588489, 0.590621, 0.593772, 0.597617, 0.592117, 0.59729, 0.606828, 0.608718, 0.610271, 0.612074, 0.619789, 0.622088, 0.625521, 0.627826, 0.00334632, 0.638549, 0.00328511, 0.650111, 0.654689, 0.659427, 0.00346574, 0.670596, 0.670964, 0.673372, 0.674961, 0.686663, 0.693758, 0.692178, 0.696205, 0.698, 0.70857, 0.00336648, 0.726021, 0.725578, 0.727724, 0.73085, 0.739346, 0.746285, 0.749495, 0.753386, 0.756833, 0.760734, 0.0035074, 0.00332845, 0.786302, 0.788048, 0.791008, 0.798499, 0.804254, 0.812397, 0.814631, 0.822917, 0.823532, 0.825803, 0.8318, 0.834016, 0.834212, 0.00367526, 0.0031328, 0.00350857, 0.867505, 0.00339918, 0.0032652, 0.885094, 0.88663, 0.887202, 0.00332636, 1.59075, 0.898422, 0.900819, 0.902897, 0.904507, 0.908067, 0.00344734, 0.00349076, 0.936883, 0.937851, 0.942174, 0.945252, 0.949178, 0.952494, 0.96092, 0.965588, 0.971993, 0.974298, 0.977657, 0.980418, 0.984832, 0.9913, 0.994585, 0.00328353, 0.00342885, 1.00868, 0.00339464, 0.00334045, 1.02715, 1.0291, 1.03258, 1.03917, 1.04319, 1.04569, 1.04609, 1.05366, 1.05727, 1.05666, 1.06242, 1.06696, 1.06917, 1.07152, 1.08291, 1.08874, 1.09111, 1.09415, 1.0995, 0.00324315, 0.00351154, 1.11554, 1.11838, 1.12385, 1.2076, 1.13713, 1.24423, 0.00335937, 0.0036015, 0.00340823, 1.22319, 1.17872, 1.70221, 1.21052, 1.17885, 1.18722, 1.18751, 1.19261, 1.195, 1.19992, 1.20498, 1.20622, 1.20958, 1.2193, 1.21965, 1.22181, 1.226, 0.0034478, 1.34408, 1.24293, 1.24433, 1.24651, 1.25211, 1.25528, 1.2567, 1.29561, 0.0036042, 1.27533, 1.28066, 1.28003, 1.38168, 1.42768, 0.00342839, 1.30682, 1.30694, 1.31016, 1.31437, 0.00337988, 1.35274, 1.36466, 1.36457, 1.33668, 1.33622, 1.33961, 1.33979, 1.34408, 1.348, 1.34669, 1.35069, 1.3509, 1.3546, 1.3556, 1.36106, 1.36753, 1.36741, 1.37192, 1.37688, 1.38188, 1.38297, 1.38458, 1.39286, 1.39125, 1.39816, 1.43471, 1.3999, 1.40468, 1.40559, 1.40702, 1.41471, 0.00323252, 1.42486, 1.42549, 1.46998, 0.00318064, 1.45484, 1.45484, 1.46039, 1.4624, 1.46224, 1.46319, 1.46435
0.0702712, 0.00355436, 0.00339815, 0.0922192, 0.0872037, 0.00342218, 0.100062, 0.00333293, 0.0037245, 0.00331156, 0.134249, 0.136642, 0.138077, 0.00342713, 0.00360305, 0.173686, 0.176051, 0.0033426, 0.177068, 0.183203, 0.181952, 0.18661, 0.18665, 0.187378, 0.191435, 0.194327, 0.197879, 0.20245, 0.207305, 0.00342023, 0.00366026, 0.00340817, 0.234727, 0.00347525, 0.00304156, 0.0032902, 0.00338646, 0.00317257, 0.00350212, 0.0033316, 0.289733, 0.292295, 0.00361502, 0.320052, 0.321058, 0.321924, 0.32222, 0.324517, 0.325611, 0.324616, 0.00327672, 0.00339621, 0.365337, 0.365539, 0.0034411, 0.0034856, 0.00357579, 0.400504, 0.401405, 0.399966, 0.00358862, 0.437096, 0.00354144, 0.00325854, 0.774069, 0.0034297, 0.00339612, 0.00348471, 0.00323774, 0.00337569, 0.00361618, 0.00346129, 0.00355914, 0.00351286, 0.575193, 0.00323278, 0.584054, 0.583118, 0.591045, 0.577063, 0.583354, 0.587263, 0.586929, 0.581489, 0.582752, 0.586542, 0.587334, 0.587495, 0.58541, 0.586294, 0.587412, 0.590902, 0.588311, 0.590068, 0.591742, 0.592184, 0.591207, 0.592469, 0.59323, 0.593973, 0.604024, 0.605853, 0.609211, 0.61333, 0.61481, 0.622922, 0.627147, 0.00340018, 0.635862, 0.645899, 0.648719, 0.00341119, 0.653324, 0.66011, 0.662211, 0.664032, 1.29311, 1.29452, 0.677836, 0.68336, 0.68328, 0.691771, 0.69374, 0.699025, 0.71415, 0.716496, 0.719035, 0.725218, 0.728139, 0.732818, 0.733496, 0.745117, 0.746899, 0.747678, 0.759902, 0.761536, 0.769992, 0.00354589, 0.784364, 0.787346, 0.788438, 0.793161, 0.793725, 0.807773, 0.818358, 0.819431, 0.821288, 0.827237, 0.836069, 0.838395, 0.839394, 0.00336923, 0.00364947, 0.86276, 0.869541, 0.871249, 0.874996, 0.8778, 0.881079, 0.885246, 0.888805, 0.888796, 0.895374, 0.893926, 0.899634, 0.904895, 0.907778, 0.00350481, 0.00359172, 0.00332064, 0.937759, 0.940665, 0.944446, 0.00321671, 0.954801, 0.963371, 0.965581, 0.967705, 0.968387, 0.972405, 0.981183, 0.983961, 0.984573, 0.995779, 0.997878, 1.00031, 1.00188, 1.1212, 0.00376801, 1.02768, 1.02858, 1.03513, 1.03644, 1.04029, 1.04316, 1.04582, 1.05401, 1.05475, 1.05933, 1.06342, 1.06546, 1.07173, 0.00337582, 1.08437, 1.08618, 1.08821, 1.09235, 0.00346098, 1.10273, 1.10889, 1.11159, 1.11739, 1.12608, 1.22218, 1.14998, 1.15278, 1.15506, 1.15547, 1.16089, 0.0032735, 1.16585, 1.16879, 1.17406, 1.176, 1.18101, 1.18186, 0.003396, 1.1984, 1.20134, 1.20453, 1.20575, 1.20987, 1.21816, 1.21918, 1.22249, 1.41334, 1.23473, 1.23747, 1.23963, 1.24154, 1.24776, 1.25234, 1.25353, 1.25618, 1.26161, 1.26988, 1.27318, 0.00345999, 1.28114, 1.28513, 1.29111, 1.30047, 1.30272, 1.30555, 1.30878, 1.31152, 1.31229, 1.31599, 0.00352561, 1.40416, 1.36555, 1.33513, 1.33795, 1.33806, 1.34221, 1.34768, 1.34793, 1.34945, 1.35306, 1.35393, 1.35516, 1.36163, 1.36666, 1.3666, 1.36972, 1.37264, 1.37833, 1.38026, 1.38421, 1.38435, 1.38797, 1.39012, 1.39487, 0.00332166, 1.46217, 0.00331132, 1.46412, 1.46936, 0.00360617, 0.00335507, 0.00349061, 0.00381411, 0.00327439, 1.45116, 1.45954, 1.45921, 1.4578, 1.45663, 1.45815, 1.45757
0.00358583, 0.00324824, 0.00314569, 0.0827543, 0.0890404, 0.00356159, 0.00322488, 0.00330646, 0.00340188, 0.130732, 0.134394, 0.135044, 0.135504, 0.137124, 0.00367846, 0.173693, 0.172951, 0.174548, 0.17622, 0.176129, 0.180652, 0.18425, 0.186298, 0.187559, 0.18767, 0.187701, 0.195955, 0.21059, 0.00342203, 0.00331862, 0.00349194, 0.00349656, 0.234071, 0.00352274, 0.00329247, 0.00341999, 0.272824, 0.274207, 0.274506, 0.274164, 0.00318486, 0.290576, 0.00334626, 0.320072, 0.318208, 0.318895, 0.318554, 0.318504, 0.323898, 0.324122, 0.355543, 0.355884, 0.355486, 0.369196, 0.00337708, 0.00339033, 0.0031328, 0.00354262, 0.00353369, 0.0035769, 0.00352077, 0.0034531, 0.00335807, 0.00365632, 0.0035086, 0.0036076, 0.00358314, 0.00340186, 0.00342183, 0.00346495, 0.00341158, 0.00327946, 0.00340233, 0.576499, 0.57652, 0.577637, 0.578297, 0.582454, 0.579559, 0.576932, 0.578072, 0.578079, 0.57903, 0.581061, 0.581111, 0.580377, 0.58717, 0.584384, 0.584825, 0.585532, 0.586708, 0.585901, 0.586928, 0.587808, 0.588918, 0.590299, 0.591411, 0.59233, 0.595446, 0.596583, 0.59809, 0.606741, 0.611205, 0.619288, 0.620455, 0.621429, 0.631338, 0.629979, 0.642926, 0.645411, 0.649894, 0.650512, 0.661506, 0.663526, 0.663763, 0.66274, 0.671336, 0.673475, 0.679603, 0.680484, 0.684194, 0.685111, 0.00328499, 0.710832, 0.713618, 0.714665, 0.71552, 0.721991, 0.72592, 0.728842, 0.739614, 0.743337, 0.74517, 0.753816, 0.755475, 0.763477, 0.00335105, 0.0034385, 0.784709, 0.787533, 0.789592, 0.789095, 0.789983, 0.00331966, 0.811807, 0.813611, 0.0036444, 0.00346885, 0.00323007, 0.00336244, 0.84386, 0.854271, 0.8575, 0.860821, 0.866284, 0.868073, 0.872055, 0.877176, 0.876727, 0.876502, 0.886205, 0.893436, 0.891419, 0.893555, 0.89474, 0.906186, 0.909176, 0.911005, 0.00357318, 0.931855, 0.933746, 0.00361517, 0.00336105, 0.950811, 0.956069, 0.95927, 0.959059, 0.961817, 0.970041, 0.973984, 0.977078, 0.00347511, 0.991024, 0.996765, 0.00332522, 1.00555, 0.00329166, 0.0034106, 0.00320296, 1.02641, 1.02846, 0.00345547, 1.03951, 1.0431, 1.04605, 1.04807, 1.05057, 1.05293, 1.06272, 0.0036129, 1.06962, 0.0034309, 1.08227, 1.08298, 1.08728, 1.0901, 1.09149, 1.09615, 1.09951, 1.10574, 1.11037, 0.00341115, 0.00340628, 1.54579, 0.00361203, 0.00347505, 1.15872, 1.16492, 1.16432, 1.16381, 1.16429, 0.00326019, 0.00329867, 1.18375, 1.18431, 1.19025, 1.19114, 1.196, 1.19832, 1.20425, 1.20755, 1.20758, 1.21085, 1.21593, 0.00367258, 1.229, 1.23122, 1.23315, 1.23727, 1.2434, 1.24665, 1.25121, 1.25475, 1.25722, 1.25924, 1.26736, 1.409, 0.003569, 1.27924, 1.28594, 1.29814, 1.29723, 1.29828, 1.30131, 1.30663, 1.30753, 1.31044, 1.31552, 1.31746, 0.00340918, 0.00337368, 1.33299, 1.3327, 1.50937, 1.34933, 1.34535, 1.34464, 1.34819, 1.34947, 1.35169, 1.35526, 1.35723, 1.36151, 1.36254, 1.36514, 1.37441, 1.38108, 1.38149, 1.38498, 1.38536, 1.38692, 1.38966, 1.3919, 1.39271, 1.40997, 0.00350334, 0.00333309, 1.43445, 1.43718, 1.4415, 0.00325539, 1.45322, 1.45663, 1.45527, 1.46065, 1.45553, 1.45781, 1.45475, 1.45272, 1.44875
0.0683625, 0.00331327, 0.00373054, 0.00335211, 0.00362027, 0.00346309, 0.0927966, 0.00339954, 0.00363692, 0.00344745, 0.00336641, 0.135146, 0.133475, 0.00351976, 0.00353217, 0.0032329, 0.170491, 0.175372, 0.176849, 0.178819, 0.181893, 0.182031, 0.186265, 0.187441, 0.187456, 0.187368, 0.200372, 0.199208, 0.210289, 0.21053, 0.211469, 0.227004, 0.227234, 0.234992, 0.00351783, 0.00342466, 0.0036633, 0.00317646, 0.276967, 0.276791, 0.00345251, 0.00345919, 0.00366992, 0.317489, 0.320497, 0.319123, 0.318164, 0.00360824, 0.00338628, 0.00335648, 0.356167, 0.356633, 0.356681, 0.00348051, 0.00342823, 0.00332975, 0.00342778, 0.00332314, 0.00350762, 0.00326755, 0.00351397, 0.00337042, 0.00352988, 0.00328856, 0.00342659, 0.00325212, 0.00341891, 0.00312051, 0.00345562, 0.00327495, 0.00372762, 0.00346864, 0.00355414, 0.570075, 0.569956, 0.569248, 0.5696, 0.572533, 0.572815, 0.573118, 0.574142, 0.575456, 0.57531, 0.574914, 0.577055, 0.580259, 0.581737, 0.582895, 0.58332, 0.58676, 0.588978, 0.584656, 0.589691, 0.588744, 0.589023, 0.58538, 0.585935, 0.590299, 0.594877, 0.59633, 0.596523, 0.0033787, 0.00355136, 0.619376, 0.624844, 0.627193, 0.629959, 0.63491, 0.635318, 0.641865, 0.00345812, 0.00324054, 0.659946, 0.661279, 0.663398, 0.663803, 0.66998, 0.674316, 0.676585, 0.680482, 0.682979, 0.00329132, 0.00338557, 0.711168, 0.712694, 0.716292, 0.717732, 0.72141, 0.726359, 0.728458, 0.737077, 0.739847, 0.751705, 0.754399, 0.756749, 0.755872, 0.756351, 0.00330408, 0.0034793, 0.00321326, 0.790344, 0.790843, 0.791713, 0.00319092, 0.808596, 0.80884, 0.00347094, 0.00307221, 0.835841, 0.839002, 0.846957, 0.00332145, 0.857615, 0.85964, 0.862947, 0.866647, 0.868031, 0.870201, 0.872531, 0.880857, 0.883639, 0.885891, 0.888188, 0.892179, 0.897466, 0.00338867, 0.907963, 0.00325144, 0.00374593, 0.929793, 0.935586, 0.93662, 0.941127, 0.94619, 0.947652, 0.00344743, 0.957455, 0.966419, 0.9675, 0.970061, 0.971534, 0.00321193, 0.00356808, 0.0030981, 1.06426, 0.00341302, 1.01533, 1.01902, 1.02117, 1.02359, 1.02636, 0.00337283, 0.0034033, 1.03956, 1.0429, 1.0471, 1.05371, 1.05853, 1.06211, 1.06769, 1.07106, 0.00352136, 1.08222, 1.08476, 1.08577, 1.08563, 1.09251, 1.09633, 1.10109, 1.10429, 0.00342978, 0.00334715, 0.00347535, 0.00330951, 0.00354197, 1.15183, 1.15651, 1.158, 1.15908, 1.68976, 1.16302, 1.68983, 1.17169, 0.0033454, 1.26304, 0.00326383, 1.19366, 1.19829, 1.2001, 1.20148, 1.20362, 1.20687, 1.21281, 1.21409, 1.21859, 0.00312241, 1.23329, 1.23125, 1.23745, 1.24197, 1.2451, 1.25207, 1.25327, 1.25732, 1.25802, 1.26555, 1.26965, 1.27386, 0.00358129, 0.00329946, 1.29183, 1.29732, 1.30055, 1.30045, 1.30495, 1.31134, 1.31291, 1.31506, 1.32225, 1.32238, 1.32729, 1.33082, 1.3308, 1.33664, 1.33993, 1.34137, 1.34331, 1.34392, 1.34752, 1.35144, 1.3511, 1.35851, 1.36029, 1.36154, 1.36592, 1.373, 1.37703, 1.37942, 1.38176, 1.38443, 1.38884, 1.38851, 1.43393, 0.00326524, 1.44814, 0.00310008, 1.43378, 1.43322, 1.44109, 1.43952, 1.44397, 1.45386, 1.45361, 1.45255, 1.45162, 1.45239, 1.44564, 1.44523, 1.4511, 1.44808
0.00315941, 0.00352192, 0.00338836, 0.00355338, 0.00323536, 0.00323116, 0.00318266, 0.00357676, 0.00320728, 0.00372738, 0.00319516, 0.127839, 0.00338796, 0.00361461, 0.00340524, 0.00322846, 0.175221, 0.176034, 0.172066, 0.174377, 0.173281, 0.17931, 0.183247, 0.182623, 0.180858, 0.179885, 0.197824, 0.197589, 0.00332545, 0.213436, 0.214495, 0.0034874, 0.00338455, 0.232135, 0.00341254, 0.00332051, 0.00355622, 0.00356569, 0.00348657, 0.273751, 0.275918, 0.0034095, 0.00345958, 0.314579, 0.31449, 0.316077, 0.316821, 0.0034323, 0.00340616, 0.00354353, 0.00347053, 0.00349199, 0.00330267, 0.00336248, 0.0031963, 0.00321113, 0.00336252, 0.00343198, 0.00345317, 0.00328533, 0.00321002, 0.00336566, 0.00328936, 0.0034609, 0.462564, 0.00340019, 0.00333716, 0.00350138, 0.00332343, 0.00354579, 0.00301575, 0.0035089, 0.564562, 0.565908, 0.569213, 0.570073, 0.572144, 0.572577, 0.573539, 0.573075, 0.574832, 0.575101, 0.574147, 0.574613, 0.576412, 0.576287, 0.579946, 0.580672, 0.581288, 0.585988, 0.586279, 0.588895, 0.588844, 0.589151, 0.591649, 0.593878, 0.591667, 0.592318, 0.590902, 0.59128, 0.00334943, 0.60214, 0.602412, 0.613912, 0.00340333, 0.627928, 0.632972, 0.636869, 0.638542, 0.639525, 0.646851, 0.00354443, 0.659307, 0.658768, 0.663184, 0.664463, 0.667472, 0.675884, 0.676748, 0.680963, 0.685513, 0.68717, 0.68897, 0.689142, 0.696985, 0.709401, 0.712258, 0.71406, 0.726111, 0.727846, 0.735778, 0.739619, 0.743444, 0.754706, 0.756144, 0.761493, 0.763142, 0.00332797, 0.780083, 0.783685, 0.785194, 0.795531, 0.798744, 0.800853, 0.80112, 0.00348529, 0.00309308, 0.829396, 0.834664, 0.836484, 0.00321215, 0.853459, 0.858784, 0.859911, 0.861889, 0.866033, 0.869353, 0.868933, 0.868743, 0.86825, 0.882292, 0.884967, 0.889578, 0.891667, 0.896108, 0.90208, 0.904907, 0.00331703, 0.00330351, 0.93431, 0.938384, 0.93942, 0.941211, 0.941044, 0.946852, 0.947864, 0.00341853, 1.18801, 0.00331773, 0.97353, 1.20905, 0.00343774, 0.990705, 0.995218, 0.0034219, 0.00342457, 0.00338988, 1.01895, 1.02231, 1.02418, 1.02842, 1.03069, 1.03362, 1.03628, 0.00320845, 1.04983, 1.05219, 1.05311, 1.05377, 0.00354076, 1.07786, 1.07993, 1.08095, 1.08005, 1.08318, 1.08678, 1.09561, 1.09837, 1.1011, 1.10846, 0.00345873, 0.00339361, 1.12579, 0.00342394, 1.14643, 1.14868, 1.61492, 1.15065, 1.1545, 1.15653, 1.15838, 0.00354019, 1.17043, 1.17291, 1.17905, 1.2565, 0.00327295, 1.19581, 1.19827, 1.20044, 1.20202, 1.20559, 1.21213, 1.21872, 1.21982, 0.00359372, 1.22973, 1.23424, 1.23841, 1.23974, 1.24476, 1.24746, 0.00325314, 0.00354172, 1.26219, 1.27011, 1.27068, 1.27128, 1.2819, 1.28589, 1.28931, 1.32977, 0.00328051, 1.32745, 1.30707, 0.0032717, 0.00326809, 1.31764, 1.31808, 1.32423, 1.3238, 1.32862, 1.3294, 1.33612, 1.3365, 1.33938, 1.33776, 1.34056, 1.34589, 1.34717, 1.34949, 1.35335, 1.3578, 1.36205, 1.36293, 1.36874, 1.37129, 1.37116, 1.37802, 1.38014, 0.0033185, 1.42665, 0.00348925, 1.44545, 0.00342353, 1.42941, 1.43478, 1.43602, 1.4399, 1.44053, 0.00331776, 1.44898, 1.45084, 1.44919, 1.44923, 1.44968, 1.44633, 1.44746, 1.44408, 1.44058
0.0506012, 0.00330196, 0.0035571, 0.00323654, 0.00339292, 0.00327399, 0.00340704, 0.00368641, 0.00319872, 0.00340018, 0.128281, 0.130856, 0.129705, 0.131882, 0.00322042, 0.00349982, 0.00353359, 0.165229, 0.165691, 0.1657, 0.166331, 0.178529, 0.180515, 0.176809, 0.179071, 0.180372, 0.00343746, 0.00350066, 0.200308, 0.216924, 0.217617, 0.217395, 0.216822, 0.00327307, 0.248659, 0.248579, 0.250217, 0.254651, 0.263784, 0.00333419, 0.00366736, 0.00339375, 0.0033587, 0.00340766, 0.31512, 0.315411, 0.31495, 0.323009, 0.324323, 0.00338448, 0.355705, 0.356279, 0.00335332, 0.00324717, 0.00331703, 0.00338428, 0.00323912, 0.00341297, 0.00327615, 0.00334999, 0.00354074, 0.00357824, 0.00335675, 0.00318866, 0.00363662, 0.00329621, 0.00350738, 0.00337662, 0.00362524, 0.0033906, 0.00339186, 0.00332309, 0.564154, 0.56801, 0.570032, 0.568953, 0.567239, 0.568165, 0.568981, 0.568802, 0.570128, 0.568736, 0.568012, 0.573044, 0.571553, 0.570974, 0.572983, 0.575152, 0.578971, 0.577379, 0.583986, 0.584957, 0.587773, 0.58855, 0.589654, 0.593312, 0.587964, 0.588665, 0.588504, 0.603196, 0.605125, 0.60715, 0.607722, 0.61712, 0.617633, 0.632866, 0.63369, 0.640728, 0.641521, 0.643489, 0.649883, 0.652454, 0.651765, 0.650961, 0.651267, 0.658547, 0.660294, 0.670722, 0.671274, 0.679725, 0.686548, 0.687559, 0.690748, 0.693525, 0.703364, 0.706036, 0.711567, 0.713739, 0.71398, 0.00338606, 0.737253, 0.743543, 0.745934, 0.746424, 0.75478, 0.760126, 0.760303, 0.772748, 0.7748, 0.00335434, 0.791741, 0.797855, 0.79907, 0.800194, 0.801591, 0.00325946, 0.00345598, 0.00328861, 0.00366695, 0.00308727, 0.00351002, 0.855625, 0.857331, 0.858717, 0.862266, 0.862814, 0.862667, 0.866091, 0.867101, 0.881312, 0.883425, 0.885653, 0.887202, 0.89034, 0.897812, 0.00303623, 0.906182, 0.0032789, 0.00341279, 0.00338941, 0.93568, 0.934242, 0.934501, 0.939609, 0.946896, 0.952118, 0.953637, 0.0035993, 0.00350513, 0.00331255, 0.982385, 0.987335, 0.993344, 0.997541, 0.00320972, 0.00349995, 1.01498, 1.01837, 1.0184, 1.0228, 1.02488, 1.03001, 1.03088, 1.03609, 0.00351919, 1.05001, 1.05296, 1.05406, 1.0556, 0.00348084, 1.07415, 1.07549, 1.07836, 1.08123, 1.08247, 0.00328287, 1.09531, 1.09913, 0.0034191, 1.11153, 0.00332688, 0.00331291, 1.13089, 1.1379, 1.13935, 1.14602, 1.14891, 0.00324343, 1.15775, 1.15771, 1.1585, 1.16572, 1.1674, 1.17318, 1.18025, 1.18124, 1.19136, 1.19094, 1.19779, 1.20005, 1.20379, 1.20835, 1.21188, 1.21656, 1.22242, 1.22311, 1.22956, 1.23304, 1.23634, 1.24606, 1.24446, 1.24795, 1.24987, 1.25835, 1.26102, 1.26621, 1.267, 0.00316079, 0.00330544, 1.28541, 1.2893, 1.29463, 1.29376, 1.38551, 0.00337235, 1.47438, 1.31868, 1.31871, 1.31998, 1.32147, 1.3239, 1.32561, 1.32955, 1.32981, 1.32822, 1.33331, 1.33694, 1.34065, 1.34467, 1.3487, 1.34998, 1.3544, 1.35483, 1.35718, 1.36281, 1.3654, 1.36794, 1.36751, 1.41087, 1.37808, 0.00334886, 0.00334871, 1.44893, 1.43296, 1.41681, 0.00336591, 1.42462, 1.42598, 1.4308, 1.43677, 1.4399, 1.43986, 1.50288, 1.44707, 1.44528, 1.4472, 1.44048, 1.43011, 1.43504, 1.43395
0.0503871, 0.050678, 0.00326297, 0.00314548, 0.00330149, 0.00357563, 0.00309634, 0.00358611, 0.00323903, 0.127789, 0.128981, 0.12784, 0.13025, 0.130028, 0.00338669, 0.00355689, 0.00318403, 0.165668, 0.166278, 0.167037, 0.168519, 0.167886, 0.00344284, 0.177183, 0.176106, 0.003597, 0.00338616, 0.204267, 0.204049, 0.00334236, 0.210106, 0.00346141, 0.00345293, 0.231729, 0.00327641, 0.261484, 0.251756, 0.252623, 0.262199, 0.260711, 0.00329081, 0.00359207, 0.293521, 0.301685, 0.30188, 0.302401, 0.00335032, 0.324868, 0.325907, 0.326495, 0.3566, 0.357395, 0.357568, 0.00367407, 0.00319664, 0.382947, 0.00329847, 0.4039, 0.00336745, 0.00337816, 0.00341287, 0.00349437, 0.00325936, 0.003528, 0.00324929, 0.00349835, 0.00306449, 0.00376846, 0.00346882, 0.0035811, 0.00329081, 0.562188, 0.562772, 0.563754, 0.565796, 0.569312, 0.568404, 0.568367, 0.567636, 0.568998, 0.565246, 0.565455, 0.564018, 0.562524, 0.563874, 0.57117, 0.570961, 0.574527, 0.575788, 0.576066, 0.584369, 0.586664, 0.588602, 0.589226, 0.590274, 0.589934, 0.591539, 0.592458, 0.595503, 0.604364, 0.606837, 0.607466, 0.608448, 0.622222, 0.622899, 0.629532, 0.634501, 0.635687, 0.636792, 0.64388, 0.648084, 0.649199, 0.6471, 0.647922, 0.647077, 0.651476, 0.00326025, 0.668762, 0.673597, 0.673957, 0.677621, 0.683328, 0.685019, 0.00351554, 0.705288, 0.708533, 0.708911, 0.710003, 0.711447, 0.00343266, 0.00356518, 0.736518, 0.00331897, 0.756081, 0.759968, 0.762323, 0.770418, 0.771084, 0.775395, 0.782696, 0.787737, 0.794794, 0.797814, 0.80063, 0.801808, 0.811822, 0.816158, 0.819523, 0.820911, 0.00312991, 0.839479, 0.00343142, 0.859482, 0.858712, 0.860226, 0.863064, 0.865113, 0.864691, 0.00331961, 0.879924, 0.883459, 0.885582, 0.887267, 0.00356464, 0.898639, 0.902215, 0.00320793, 0.0033658, 0.0031045, 0.926157, 0.928098, 0.932196, 0.935351, 0.94004, 0.00366607, 0.950763, 0.00331357, 1.04357, 0.979186, 0.981984, 0.984454, 0.989666, 0.994778, 0.999672, 1.00403, 1.00651, 1.01008, 1.01033, 1.01552, 1.01805, 1.02136, 1.02979, 1.03511, 1.03848, 1.04159, 0.00333429, 1.05289, 1.05505, 1.06252, 1.06614, 0.00333608, 1.12409, 1.07943, 1.08098, 1.0874, 1.09186, 1.09614, 1.33705, 0.00320132, 0.00354547, 1.12464, 1.12518, 0.00326999, 1.13754, 1.13903, 1.64419, 1.1478, 1.15008, 1.15171, 1.15692, 1.15828, 1.16768, 1.16968, 1.17418, 1.17814, 1.18233, 1.18791, 1.19035, 1.19306, 1.20167, 1.20417, 1.20821, 1.39586, 1.2166, 1.21914, 1.22639, 1.22816, 1.2324, 1.23883, 1.23991, 1.24453, 1.24661, 1.25286, 1.25612, 1.25712, 0.00365398, 1.27533, 1.2745, 1.28125, 1.28487, 1.28925, 1.2917, 1.29467, 0.00349592, 0.00325849, 1.311, 1.31564, 1.31456, 1.31726, 1.31906, 1.32193, 1.32405, 1.32705, 1.32969, 1.32962, 1.334, 1.33593, 1.33796, 0.00324097, 1.34824, 1.3489, 1.3518, 1.35384, 1.36114, 1.36266, 1.364, 1.36485, 1.3714, 1.37403, 1.37921, 1.37866, 1.41917, 0.0034701, 1.42662, 0.00323787, 1.41342, 0.00339903, 0.00353127, 0.00329483, 0.00351726, 1.43686, 1.43999, 1.43895, 1.44314, 1.44304, 1.43427, 1.43277, 1.43065, 1.42931, 1.43371
0.00333833, 0.00341285, 0.00354214, 0.00339517, 0.00346742, 0.00330349, 0.00334329, 0.00318799, 0.00360277, 0.124069, 0.125072, 0.128766, 0.129186, 0.127774, 0.00341844, 0.0033952, 0.00337732, 0.00329705, 0.166216, 0.00325167, 0.167885, 0.169219, 0.169847, 0.176987, 0.177113, 0.178772, 0.178876, 0.193757, 0.193778, 0.00331413, 0.00357333, 0.00327788, 0.22349, 0.00329309, 0.247602, 0.252112, 0.252231, 0.262424, 0.263365, 0.264909, 0.263823, 0.00323048, 0.286632, 0.00324259, 0.00345393, 0.00334251, 0.00345797, 0.00321863, 0.00346323, 0.00338054, 0.00340681, 0.0033327, 0.00337556, 0.00330756, 0.385714, 0.386491, 0.0035391, 0.00334343, 0.00352541, 0.425251, 0.00322831, 0.00336375, 0.00347554, 0.00332809, 0.00336935, 0.00350697, 0.00335455, 0.00331672, 0.00356154, 0.00334352, 0.560127, 0.562665, 0.565458, 0.56512, 0.563944, 0.557045, 0.560246, 0.56218, 0.562549, 0.56066, 0.562653, 0.560643, 0.562532, 0.56355, 0.565075, 0.564696, 0.566454, 0.571433, 0.573736, 0.577704, 0.578591, 0.58312, 0.585334, 0.589223, 0.589819, 0.591144, 0.594543, 0.59633, 0.59693, 0.59781, 0.60458, 0.611733, 0.615868, 0.618055, 0.619501, 0.626919, 0.629643, 0.634736, 0.633289, 0.636272, 0.636767, 0.643772, 0.636655, 0.6488, 0.64969, 0.650897, 0.00350222, 0.668621, 0.671164, 0.673612, 0.676533, 0.68389, 0.685401, 0.690927, 0.700174, 0.70109, 0.706163, 0.707765, 0.711054, 0.722959, 0.724278, 0.00321059, 0.00357636, 0.00338344, 0.759728, 0.763496, 0.768476, 0.769344, 0.771383, 0.00318024, 0.79249, 0.79468, 0.801987, 0.803102, 0.804601, 0.816005, 0.00340841, 0.00352632, 0.837802, 0.839432, 0.840249, 0.841916, 0.853206, 0.856314, 0.857248, 0.8607, 0.862555, 0.862118, 0.879437, 0.879759, 0.883101, 0.890883, 0.888492, 0.892597, 0.898294, 0.901471, 0.911694, 0.91307, 0.916688, 0.00321576, 0.00343942, 0.934906, 0.935612, 0.00316326, 0.00354621, 1.23114, 1.02164, 0.970219, 0.975167, 0.98237, 0.991785, 0.991351, 0.99938, 1.00204, 1.00456, 1.00621, 1.00553, 1.00938, 1.01391, 1.01855, 1.02181, 1.03095, 0.00345898, 0.00333951, 1.04367, 1.04884, 1.0538, 1.05593, 1.06552, 1.06845, 1.06955, 1.06562, 0.00359979, 1.08389, 1.08893, 1.09174, 0.00359893, 0.00329547, 0.00343447, 1.11901, 1.12169, 1.12481, 1.12754, 1.12905, 0.00338116, 1.13181, 0.00323883, 1.1478, 1.1497, 1.15071, 1.15593, 0.00326177, 1.17134, 1.17381, 1.17716, 1.18238, 1.18546, 1.19083, 1.1963, 1.19798, 1.20222, 1.20706, 1.21098, 0.00328445, 1.22058, 1.22428, 1.22938, 1.23104, 1.24006, 1.24156, 1.24533, 1.24908, 1.25277, 0.00340831, 1.26197, 1.2671, 1.2746, 1.27436, 1.27874, 1.28174, 1.28265, 1.28618, 0.00343522, 0.00337985, 1.36754, 1.31238, 1.31191, 1.31979, 1.31661, 1.31673, 1.31623, 1.32358, 1.325, 1.32676, 1.33096, 1.33254, 1.33578, 1.3405, 1.34087, 1.34725, 1.34783, 1.35259, 1.35243, 1.35425, 1.36025, 1.35785, 1.36382, 1.3654, 1.37821, 1.37812, 1.37971, 1.38356, 1.38774, 0.00331902, 1.40412, 1.40554, 1.40646, 1.44708, 1.42545, 1.42826, 1.43454, 1.43816, 1.43871, 1.43711, 1.43544, 1.42364, 1.4267, 1.42702, 1.42841, 1.42768
0.00350774, 0.00364992, 0.00346599, 0.00337181, 0.00352783, 0.00340726, 0.00305729, 0.00340787, 0.00332935, 0.116784, 0.0033007, 0.00325562, 0.0033658, 0.0033133, 0.00347511, 0.134956, 0.141929, 0.00348802, 0.00355397, 0.165703, 0.00309012, 0.00346736, 0.168663, 0.172375, 0.172483, 0.181019, 0.179618, 0.193998, 0.195903, 0.00344177, 0.00341898, 0.0033027, 0.00334846, 0.0035885, 0.24872, 0.245353, 0.248062, 0.256679, 0.259175, 0.259882, 0.276155, 0.278617, 0.285397, 0.00342283, 0.00340804, 0.00343322, 0.00333445, 0.00347512, 0.00326785, 0.00340159, 0.0030691, 0.00333459, 0.00351751, 0.385041, 0.377305, 0.387062, 0.392824, 0.00336696, 0.00341138, 0.00353807, 0.00328894, 0.00323008, 0.00366406, 0.00358285, 0.0035907, 0.00370006, 0.00334808, 0.00334953, 0.00339284, 0.00353903, 0.55709, 0.558507, 0.560515, 0.563296, 0.556756, 0.559305, 0.559787, 0.560964, 0.560994, 0.559315, 0.560287, 0.561179, 0.56077, 0.562799, 0.564746, 0.564715, 0.568591, 0.571296, 0.570688, 0.576758, 0.577936, 0.584386, 0.586071, 0.590251, 0.591421, 0.594134, 0.59548, 0.599177, 0.600415, 0.604508, 0.608962, 0.613287, 0.614876, 0.621503, 0.622104, 0.623299, 0.626904, 0.627798, 0.628141, 0.635943, 0.632101, 0.633157, 0.637664, 0.638735, 0.645832, 0.65541, 0.656847, 0.657793, 0.671663, 0.676319, 0.678056, 0.682719, 0.686092, 0.694711, 0.699465, 0.701885, 0.701529, 0.705468, 0.705934, 0.00330272, 0.00325634, 0.00341346, 0.00335948, 0.00347461, 0.76243, 0.762522, 0.76359, 0.764386, 0.00329177, 0.778498, 0.794457, 0.795922, 0.797211, 0.805511, 0.811573, 0.00346087, 0.00331157, 0.829568, 0.834082, 0.835546, 0.838223, 0.839436, 0.00323868, 0.849674, 0.852437, 0.853568, 0.858803, 0.00342853, 0.875229, 0.877587, 0.878565, 0.882478, 0.886944, 0.887137, 0.896065, 0.00319285, 0.909251, 0.912951, 0.915641, 0.922771, 0.925091, 0.932041, 0.936808, 0.00334217, 0.00325314, 0.00353089, 0.972108, 0.974943, 0.975729, 0.981324, 0.984921, 0.989014, 0.995075, 1.17448, 0.00341791, 0.998197, 1.00253, 0.00347215, 0.00333498, 0.00359683, 0.00326012, 0.00356318, 1.03118, 0.00341235, 1.71223, 1.04746, 1.04964, 1.06005, 1.0632, 1.06437, 1.07171, 1.07918, 1.08302, 1.08434, 1.08884, 1.09308, 1.09642, 1.10228, 0.0034691, 1.11454, 0.00339358, 1.17102, 1.12011, 1.12422, 1.12573, 1.12855, 0.003437, 1.14576, 1.14916, 1.15074, 1.15635, 0.00332104, 1.25533, 1.17395, 1.18084, 1.184, 1.1853, 1.19128, 1.1967, 1.19942, 0.00340987, 1.20671, 1.21009, 0.00342323, 1.22176, 1.22427, 1.22848, 1.23079, 1.2375, 1.23826, 1.24382, 1.24766, 1.25334, 1.25833, 1.25801, 1.26174, 1.26962, 1.27491, 1.27971, 1.28173, 1.28794, 1.29113, 0.00325101, 0.00348331, 1.37109, 1.31403, 1.31531, 1.31778, 1.31782, 1.31572, 1.31626, 1.32112, 1.32422, 1.33109, 1.33404, 1.33512, 1.33828, 1.33711, 1.33796, 1.34363, 1.34377, 1.34829, 1.34765, 1.35409, 1.35389, 1.36053, 1.36454, 1.36829, 1.37373, 1.37371, 1.3778, 1.38229, 0.00320554, 0.00346041, 0.0033662, 0.00314268, 0.00321461, 0.00351472, 1.41959, 1.44386, 1.43012, 1.43347, 1.43358, 1.43347, 1.42561, 1.42333, 1.42409, 1.43053, 1.4249, 1.42378
0.0033875, 0.00330988, 0.00329341, 0.00330149, 0.00346887, 0.00308303, 0.00349211, 0.00353768, 0.0037756, 0.00329104, 0.111916, 0.114141, 0.124517, 0.126665, 0.128448, 0.125797, 0.142284, 0.00302541, 0.142816, 0.14309, 0.00352979, 0.167844, 0.168022, 0.177244, 0.177018, 0.17538, 0.182444, 0.181672, 0.197998, 0.00339136, 0.201417, 0.00349803, 0.00354142, 0.244834, 0.245801, 0.245345, 0.244511, 0.244822, 0.251244, 0.277884, 0.285902, 0.287724, 0.289737, 0.00331919, 0.00353991, 0.00320878, 0.00367058, 0.003386, 0.341391, 0.341456, 0.341939, 0.00322163, 0.0033842, 0.00344292, 0.00371544, 0.00323201, 0.392763, 0.00339334, 0.00363028, 0.00342137, 0.00363727, 0.00324287, 0.00365641, 0.00325222, 0.0037331, 0.003233, 0.00337185, 0.00349148, 0.00359169, 0.00331264, 0.00334093, 0.559099, 0.557033, 0.556891, 0.557939, 0.557923, 0.560261, 0.562261, 0.560955, 0.561411, 0.560944, 0.560612, 0.561303, 0.561974, 0.563301, 0.565589, 0.565242, 0.566959, 0.569781, 0.574424, 0.576144, 0.583128, 0.582647, 0.584972, 0.589056, 0.594874, 0.599662, 0.602483, 0.605426, 0.606543, 0.607781, 0.612885, 0.614926, 0.619369, 0.621779, 0.623204, 0.624335, 0.625324, 0.630547, 0.633187, 0.636791, 0.637264, 0.636898, 0.641678, 0.643964, 0.64531, 0.657216, 0.663704, 0.665152, 0.676358, 0.682177, 0.681602, 0.6869, 0.687568, 0.695083, 0.695385, 0.698781, 0.704386, 0.00361312, 0.00312065, 0.730967, 0.73515, 0.739135, 0.739869, 0.755608, 0.756508, 0.75893, 0.758809, 0.00342991, 0.00330041, 0.78116, 0.0033607, 0.003264, 0.810465, 0.813451, 0.818519, 0.819616, 0.827467, 0.83217, 0.833455, 0.836094, 0.839431, 0.843775, 0.847637, 0.850558, 0.852583, 0.853991, 0.00346526, 0.871701, 0.87573, 0.881265, 0.882319, 0.896016, 0.897454, 0.900545, 0.00332306, 0.907763, 0.910387, 0.914506, 0.923074, 0.926068, 0.928467, 1.09106, 0.00322451, 0.00346269, 0.964259, 0.97039, 0.973735, 0.977494, 0.979959, 0.984276, 0.987171, 0.989436, 0.988624, 0.990682, 0.992579, 0.996762, 0.0033232, 1.00897, 1.01111, 0.00351529, 1.02492, 1.02761, 1.03629, 1.04087, 0.00338022, 0.00357993, 1.05325, 1.05664, 0.00335114, 1.07019, 1.07665, 1.07735, 1.08067, 0.00358175, 1.09219, 1.09596, 1.10386, 1.10421, 1.10144, 1.10564, 1.10729, 0.00337591, 1.1275, 1.12997, 1.13613, 1.13889, 1.14623, 1.14734, 1.15344, 1.15438, 0.00326444, 1.16798, 1.17319, 1.17899, 1.1857, 1.18906, 1.19041, 1.19442, 1.1965, 1.20232, 1.2116, 1.21277, 1.2167, 1.21953, 1.22248, 1.22751, 1.22967, 1.23227, 0.00325901, 1.2416, 1.24337, 1.24729, 1.25232, 1.25761, 0.00312543, 1.26964, 1.2762, 1.27462, 1.28039, 1.282, 1.28949, 1.29031, 0.00335987, 0.00335702, 0.00326304, 1.30884, 1.31223, 1.31287, 1.31447, 1.31639, 1.31931, 1.32632, 1.33293, 1.33063, 1.33264, 1.33241, 1.33422, 1.33738, 1.33758, 1.34319, 1.34371, 1.34184, 1.34751, 1.34876, 1.36115, 1.36291, 0.00321735, 1.37467, 1.37414, 1.3744, 1.37714, 0.00349926, 0.00341291, 0.00341732, 0.00344202, 0.00361167, 0.00344091, 1.42255, 1.42474, 1.42636, 1.42895, 1.42852, 1.42946, 1.4253, 1.4221, 1.42342, 1.42055, 1.42633, 1.42547
