0.62167, 0.624047, 0.623315, 0.639169, 0.651332, 0.654937, 0.660832, 0.669123, 1.12568, 0.6889, 0.694458, 0.727574, 0.729911, 0.735831, 0.73568, 0.736455, 0.730738, 0.732042, 0.725857, 0.721841, 0.713299, 0.715174, 0.714411, 0.715459, 0.715494, 0.716268, 0.717549, 0.718305, 0.720865, 0.720951, 0.720725, 0.719135, 0.708448, 0.966087, 0.691057, 0.692998, 0.684346, 0.683377, 0.678781, 0.67909, 0.678576, 0.67587, 0.668599, 0.667824, 0.669192, 0.669281, 0.671008, 0.670923, 0.680006, 0.685426, 0.689134, 0.696383, 0.695622, 0.698233, 0.697385, 0.698251, 0.701226, 0.710382, 0.71269, 0.717564, 0.735062, 0.741795, 0.742285, 0.752146, 0.753478, 0.752829, 0.760801, 0.772523, 0.786637, 0.79017, 0.79451, 0.79569, 0.812607, 0.817667, 0.820678, 0.83507, 0.840423, 0.846353, 0.855938, 0.857331, 0.862771, 0.86525, 0.869001, 0.874517, 0.878388, 0.881096, 0.884805, 0.884752, 0.887456, 0.899207, 0.904579, 0.905312, 0.90923, 0.910778, 0.915467, 0.922793, 0.929199, 0.929225, 0.937077, 0.943096, 0.946544, 0.952397, 0.960129, 0.960693, 0.966021, 0.973976, 0.975005, 0.976684, 0.978891, 0.986925, 0.987491, 0.995986, 1.00528, 1.01512, 1.01947, 1.21623, 1.0399, 1.04765, 1.04926, 1.05344, 1.0555, 1.05883, 1.06273, 1.06546, 1.07141, 1.07977, 1.09392, 1.34859, 1.14832, 1.1507, 1.39075, 1.13409, 1.17831, 1.18108, 1.44688, 1.37078, 1.19978, 1.20157, 1.21907, 1.29974, 1.59385, 1.25792, 1.26362, 1.2634, 1.26953, 1.2677, 1.2672, 1.26779, 1.28811, 1.34683, 1.28152, 1.2781, 1.27815, 1.27776, 1.27458, 1.27524, 1.27736, 1.28178, 1.28332, 1.28283, 1.27887, 1.27795, 1.27961, 1.28072, 1.28192, 1.28354, 1.29152, 1.2876, 1.29291, 1.29358, 1.29376, 1.29512, 1.29332, 1.29597, 1.302, 1.30352, 1.31303, 1.31893, 1.32256, 1.32225, 1.32923, 1.32885, 1.33199, 1.32856, 1.3285, 1.32276, 1.31879, 1.32024, 1.31559, 1.31134, 1.31074, 1.31457, 1.31606, 1.31608, 1.31628, 1.32282, 1.32251, 1.32146, 1.32857, 1.32861, 1.33062, 1.33585, 1.33426, 1.3383, 1.34391, 1.34376, 1.35019, 1.34796, 1.35286, 1.35751, 1.36416, 1.36355, 1.36451, 1.36793, 1.37168, 1.37747, 1.37897, 1.37994, 1.38412, 1.38447, 1.38554, 1.38822, 1.39024, 1.39319, 1.39415, 1.39523, 1.39508, 1.39653, 1.39719, 1.39922, 1.4056, 1.4034, 1.41061, 1.41227, 1.41028, 1.41048, 1.40948, 1.40775, 1.4072, 1.40385, 1.40154, 1.39992, 1.40067, 1.39631, 1.40307, 1.4012, 1.4027, 1.40584, 1.40648, 1.40726, 1.40253, 1.40448, 1.40915, 1.41015, 1.41201, 1.42104, 1.42711, 1.42793, 1.43263, 1.4327, 1.44007, 1.44439, 1.44589, 1.46077, 1.47104, 1.47205, 1.47577, 1.48016, 1.49294, 1.49451, 1.49433, 1.49569, 1.49749, 1.50526, 1.51286, 1.51111, 1.51484, 1.51673, 1.52299, 1.52956, 1.53486, 1.53926, 1.53785, 1.53577, 1.5388, 1.54776, 1.54655, 1.54789, 1.54429, 1.54884, 1.54701, 1.54677, 1.55341, 1.55897, 1.5642, 1.56257, 1.56653, 1.56448, 1.56828, 1.56739
0.619012, 0.623762, 0.624676, 0.625284, 0.649563, 0.650883, 0.659508, 0.671238, 0.677697, 0.683136, 0.838783, 0.721845, 0.724329, 0.727268, 0.727891, 0.725208, 0.715959, 0.716496, 0.713694, 0.713558, 0.960702, 0.701345, 0.704423, 0.705726, 0.707438, 0.709354, 0.711799, 0.711903, 0.713103, 0.712677, 0.71373, 0.713302, 0.692445, 0.797855, 0.68012, 0.674333, 0.677368, 0.67353, 0.67413, 0.673774, 0.665615, 0.665774, 0.665683, 0.667183, 0.667266, 0.667613, 0.668075, 0.673086, 0.676475, 0.676935, 0.683416, 0.688086, 0.693212, 0.692025, 0.693683, 0.696227, 0.702636, 0.707738, 0.712525, 0.719817, 0.721124, 0.737355, 0.740795, 0.743776, 0.752704, 0.754472, 0.762408, 0.778383, 0.782911, 0.787148, 0.790574, 0.790456, 0.803005, 0.808656, 0.811678, 0.82712, 0.829859, 0.831978, 0.852167, 1.17084, 1.13338, 0.86332, 0.864976, 0.860045, 0.872405, 0.875895, 0.880108, 0.881639, 0.88429, 0.893887, 0.897816, 0.902813, 0.904106, 0.904415, 0.909277, 0.913685, 1.1395, 1.19835, 0.935767, 0.936519, 0.940635, 0.9426, 0.949712, 0.953143, 0.964998, 0.96691, 0.969625, 0.973674, 0.978049, 0.985876, 0.988514, 0.997842, 1.00492, 1.01559, 1.02175, 1.0319, 1.04055, 1.04057, 1.04785, 1.04855, 1.05385, 1.05586, 1.05723, 1.06562, 1.07431, 1.08423, 1.42079, 1.10509, 1.10833, 1.11931, 1.40587, 1.17722, 1.18056, 1.27068, 1.26884, 1.2192, 1.28878, 1.20937, 1.40247, 1.22782, 1.26377, 1.2924, 1.26046, 1.25844, 1.25789, 1.25768, 1.27105, 1.27552, 1.27564, 1.27688, 1.27148, 1.27158, 1.26272, 1.26547, 1.26765, 1.26851, 1.26834, 1.27329, 1.2759, 1.27059, 1.26931, 1.27166, 1.27702, 1.27489, 1.27735, 1.28181, 1.28265, 1.28454, 1.28538, 1.289, 1.29224, 1.29182, 1.29531, 1.29831, 1.29889, 1.30387, 1.30829, 1.35094, 1.32326, 1.32209, 1.32348, 1.32748, 1.33171, 1.32551, 1.32378, 1.32001, 1.31298, 1.31345, 1.31016, 1.3083, 1.30808, 1.3115, 1.30667, 1.31133, 1.31204, 1.31569, 1.3189, 1.3234, 1.32247, 1.32554, 1.32432, 1.33037, 1.33158, 1.33, 1.33235, 1.33457, 1.33699, 1.34405, 1.35142, 1.35188, 1.3569, 1.35887, 1.35857, 1.36295, 1.36719, 1.37786, 1.37754, 1.37653, 1.37735, 1.37795, 1.38045, 1.38286, 1.38322, 1.39162, 1.39121, 1.39151, 1.38948, 1.39163, 1.39215, 1.38959, 1.39591, 1.39814, 1.40057, 1.39018, 1.39647, 1.39919, 1.40295, 1.4056, 1.40325, 1.39729, 1.39888, 1.398, 1.3957, 1.39288, 1.39704, 1.3956, 1.40019, 1.40276, 1.40699, 1.40906, 1.41334, 1.41206, 1.41288, 1.41454, 1.41729, 1.42033, 1.4196, 1.42801, 1.43097, 1.43023, 1.43724, 1.44666, 1.45489, 1.46229, 1.46676, 1.47065, 1.47801, 1.48611, 1.4873, 1.48667, 1.4971, 1.49954, 1.49989, 1.50005, 1.50024, 1.50847, 1.50959, 1.52297, 1.52178, 1.52501, 1.53097, 1.53496, 1.53627, 1.54414, 1.54628, 1.55042, 1.55064, 1.54658, 1.54691, 1.54605, 1.54367, 1.54741, 1.5528, 1.56166, 1.56645, 1.56334, 1.5631, 1.56222, 1.56592, 1.56484
0.616488, 0.620095, 0.623789, 0.624402, 0.648315, 0.648509, 0.664029, 0.668551, 0.675752, 0.697499, 0.700119, 0.718288, 0.720381, 0.722248, 0.71906, 0.716389, 0.711695, 0.711451, 0.694984, 0.697216, 0.697222, 0.696917, 0.69575, 0.696798, 0.697176, 0.698838, 0.700366, 0.707704, 0.709717, 0.710168, 0.709014, 0.690244, 0.679885, 0.680691, 0.673118, 0.670157, 0.670523, 0.668305, 0.66745, 0.659806, 0.659168, 0.660143, 0.660643, 0.660765, 0.663536, 0.669102, 0.66938, 0.671102, 0.672855, 0.67531, 0.677672, 0.680293, 0.684174, 0.689855, 0.691936, 0.694247, 0.703413, 0.702416, 0.715457, 0.719156, 0.723174, 0.731721, 0.736685, 0.743272, 0.74717, 0.754568, 0.760055, 0.760837, 0.773394, 0.775118, 0.777957, 0.778838, 0.790906, 0.788778, 0.809802, 0.812211, 0.827836, 1.14394, 1.02552, 0.843438, 0.857374, 0.860375, 0.862334, 0.86438, 0.865676, 0.868447, 0.873407, 0.877025, 0.880279, 0.918409, 0.889414, 0.893084, 0.897805, 0.901116, 0.907494, 0.917354, 0.918613, 0.927817, 0.932375, 0.934781, 0.936287, 0.938844, 0.944198, 0.947474, 0.962508, 0.964384, 0.969619, 0.97239, 0.97799, 0.980702, 0.995106, 1.00075, 1.00337, 1.0054, 1.02524, 1.02703, 1.1551, 1.04304, 1.04993, 1.04953, 1.05271, 1.05877, 1.06672, 1.06875, 1.07836, 1.47492, 1.35868, 1.14685, 1.47126, 1.39956, 1.1382, 1.13931, 1.26333, 1.36049, 1.26258, 1.23047, 1.20521, 1.20845, 1.54463, 1.56473, 1.24637, 1.2472, 1.25382, 1.25299, 1.26775, 1.26685, 1.27452, 1.27412, 1.27735, 1.27785, 1.27445, 1.26475, 1.26355, 1.26344, 1.26755, 1.26825, 1.26837, 1.27026, 1.26694, 1.26396, 1.26244, 1.26461, 1.26648, 1.26817, 1.27585, 1.27735, 1.27964, 1.28458, 1.28427, 1.28579, 1.2915, 1.29556, 1.29477, 1.29465, 1.29843, 1.31167, 1.31604, 1.31983, 1.32229, 1.32073, 1.32116, 1.32765, 1.33069, 1.32539, 1.31774, 1.31611, 1.31532, 1.30932, 1.30963, 1.30738, 1.30695, 1.30476, 1.30468, 1.30883, 1.31207, 1.31255, 1.31231, 1.31699, 1.31955, 1.32024, 1.31899, 1.32132, 1.32268, 1.32575, 1.3244, 1.32574, 1.33363, 1.33328, 1.33893, 1.34815, 1.34942, 1.34928, 1.35315, 1.35593, 1.36223, 1.36147, 1.36789, 1.37058, 1.37499, 1.37508, 1.37883, 1.3765, 1.38153, 1.38574, 1.38946, 1.38695, 1.38781, 1.38504, 1.38611, 1.38679, 1.3913, 1.39474, 1.39404, 1.39184, 1.39416, 1.39514, 1.39481, 1.39785, 1.40176, 1.40172, 1.3937, 1.39045, 1.38946, 1.39137, 1.39349, 1.39177, 1.3939, 1.39631, 1.40906, 1.40719, 1.40766, 1.40504, 1.4074, 1.41207, 1.41199, 1.41521, 1.42045, 1.42619, 1.43056, 1.43004, 1.43507, 1.43992, 1.45185, 1.46605, 1.46669, 1.4691, 1.47763, 1.48207, 1.48449, 1.48643, 1.49529, 1.49872, 1.49957, 1.50059, 1.50255, 1.50953, 1.50954, 1.51671, 1.5231, 1.52962, 1.53017, 1.53416, 1.53916, 1.54025, 1.54766, 1.5473, 1.54402, 1.54499, 1.54465, 1.54431, 1.54695, 1.5504, 1.548, 1.549, 1.56095, 1.56178, 1.55963, 1.56505, 1.56126, 1.56261
0.613661, 0.61676, 0.619292, 0.630165, 0.631359, 0.655487, 0.656545, 0.657152, 0.682913, 0.708012, 0.707709, 0.711188, 0.716723, 0.715069, 0.708389, 0.709291, 0.706819, 0.7042, 0.696711, 0.695287, 0.692952, 0.686962, 0.686201, 0.6847, 0.684408, 0.683678, 0.687994, 0.697475, 0.69782, 0.700361, 0.685661, 0.68683, 0.684971, 0.675848, 0.665768, 0.667203, 0.660374, 0.662218, 0.657891, 0.659633, 0.660062, 0.657634, 0.65873, 0.66088, 0.662919, 0.664604, 0.665269, 0.66716, 0.668421, 0.671775, 0.675722, 0.676477, 0.680313, 0.684327, 0.685828, 0.691229, 0.693412, 0.699603, 0.708934, 0.711675, 0.721913, 0.722665, 0.729018, 0.729435, 0.745737, 0.748205, 0.751711, 0.754548, 0.759543, 0.766076, 0.76885, 0.779417, 0.78408, 0.793078, 0.795446, 0.847344, 0.811978, 1.20518, 1.15791, 0.842135, 0.846219, 0.851179, 1.08494, 0.853796, 0.858127, 0.862438, 0.866421, 0.870676, 0.871025, 0.879703, 0.886892, 0.888213, 0.891346, 0.900733, 0.905764, 0.912543, 0.918812, 1.02135, 0.928383, 0.928585, 0.932174, 0.935511, 0.939638, 0.946792, 0.957248, 0.960922, 0.961978, 0.968673, 0.980196, 0.98423, 0.995088, 1.00233, 1.00604, 1.01728, 1.02163, 1.01439, 1.04024, 1.04604, 1.05044, 1.05054, 1.0562, 1.06161, 1.06995, 1.07356, 1.37861, 1.46882, 1.10277, 1.34509, 1.53594, 1.16565, 1.175, 1.17669, 1.15805, 1.16544, 1.21507, 1.19292, 1.24159, 1.4555, 1.44162, 1.23403, 1.24607, 1.24504, 1.24542, 1.24753, 1.32326, 1.27215, 1.27339, 1.26459, 1.26968, 1.2681, 1.26836, 1.26168, 1.2572, 1.26075, 1.26395, 1.26578, 1.26427, 1.26385, 1.26328, 1.25655, 1.25561, 1.26016, 1.26174, 1.26551, 1.26921, 1.2749, 1.27836, 1.28492, 1.28293, 1.29414, 1.29022, 1.29117, 1.29317, 1.2968, 1.30203, 1.30575, 1.31485, 1.3202, 1.31899, 1.31851, 1.32022, 1.32329, 1.32434, 1.31598, 1.31408, 1.31058, 1.3128, 1.30254, 1.30029, 1.30202, 1.302, 1.29921, 1.30043, 1.30191, 1.30562, 1.30837, 1.30706, 1.31193, 1.30857, 1.31329, 1.31446, 1.31624, 1.31657, 1.31974, 1.32119, 1.3255, 1.32549, 1.32898, 1.3399, 1.34024, 1.34315, 1.34116, 1.3453, 1.35157, 1.35479, 1.35704, 1.36482, 1.36529, 1.3703, 1.37193, 1.37235, 1.37305, 1.37745, 1.38083, 1.38127, 1.38338, 1.38254, 1.37883, 1.38257, 1.38167, 1.38758, 1.38965, 1.39107, 1.38889, 1.38916, 1.39132, 1.39191, 1.39283, 1.39404, 1.39593, 1.39458, 1.39199, 1.38959, 1.38981, 1.38736, 1.39041, 1.3924, 1.3961, 1.39785, 1.40383, 1.4025, 1.40336, 1.40512, 1.41061, 1.41089, 1.41605, 1.41731, 1.42636, 1.42788, 1.43006, 1.4373, 1.43631, 1.45367, 1.45896, 1.46703, 1.46576, 1.46781, 1.47177, 1.48804, 1.48809, 1.4962, 1.49784, 1.49824, 1.5002, 1.49874, 1.50343, 1.51289, 1.51314, 1.52356, 1.53061, 1.53464, 1.54108, 1.54041, 1.54103, 1.54419, 1.54475, 1.54358, 1.54343, 1.54196, 1.54635, 1.54854, 1.54889, 1.55229, 1.55281, 1.55161, 1.5512, 1.55743, 1.55357, 1.56365, 1.56244
0.613499, 0.622436, 0.621561, 0.723065, 0.636757, 0.642556, 0.98522, 0.739199, 0.984732, 0.704057, 0.707311, 0.708946, 0.709911, 0.709325, 0.703948, 0.704856, 0.704257, 0.703647, 0.696685, 0.693957, 0.690217, 0.684213, 0.682067, 0.682994, 0.682954, 0.686886, 0.68802, 0.687523, 0.690189, 0.692766, 0.69302, 0.677462, 0.676691, 0.667971, 0.660091, 0.660884, 0.662352, 0.658767, 0.657272, 0.652315, 0.65421, 0.656014, 0.657744, 0.660025, 0.661073, 0.663291, 0.666555, 0.667038, 0.669014, 0.670836, 0.673038, 0.679513, 0.681285, 0.683727, 0.687031, 0.691185, 0.696653, 0.695373, 0.705246, 0.708261, 0.717606, 0.719114, 0.722477, 0.728119, 0.733484, 0.738861, 0.74322, 0.743761, 0.750502, 0.758637, 0.759686, 0.777218, 0.783575, 0.784671, 0.790379, 0.808056, 0.80862, 1.10482, 0.821644, 0.836596, 0.837522, 0.841258, 0.845381, 0.846417, 0.852419, 0.859147, 0.861775, 0.865098, 0.869807, 0.871439, 0.880308, 0.882835, 0.886636, 0.903656, 0.902131, 0.902786, 0.91713, 0.919482, 0.9187, 0.914754, 0.927295, 0.934274, 0.937252, 0.949851, 0.955386, 0.958714, 0.963822, 0.965561, 1.2573, 1.25673, 0.995247, 0.996475, 1.00096, 1.01871, 1.02031, 1.03217, 1.04132, 1.0439, 1.0489, 1.05337, 1.05966, 1.09871, 1.0689, 1.38969, 1.08764, 1.39283, 1.11209, 1.13364, 1.12313, 1.13635, 1.14615, 1.18566, 1.50638, 1.54299, 1.1816, 1.18605, 1.1947, 1.62677, 1.26146, 1.23171, 1.23287, 1.239, 1.24441, 1.24548, 1.25921, 1.26154, 1.26192, 1.26379, 1.32993, 1.29305, 1.25635, 1.25516, 1.25597, 1.25739, 1.25843, 1.25964, 1.25431, 1.24646, 1.25136, 1.25084, 1.25305, 1.25556, 1.25623, 1.26134, 1.27059, 1.27184, 1.27317, 1.27791, 1.27917, 1.28435, 1.28763, 1.28766, 1.29234, 1.29479, 1.29662, 1.32716, 1.31535, 1.31432, 1.31241, 1.31164, 1.31632, 1.31323, 1.3136, 1.31291, 1.30945, 1.30604, 1.29995, 1.2966, 1.29571, 1.29563, 1.29432, 1.29509, 1.30151, 1.29765, 1.29912, 1.29929, 1.30578, 1.30469, 1.30371, 1.30532, 1.31037, 1.30922, 1.31057, 1.31228, 1.31554, 1.31725, 1.31803, 1.32606, 1.33128, 1.33147, 1.33707, 1.33805, 1.34649, 1.34326, 1.35406, 1.35471, 1.3609, 1.36464, 1.36769, 1.36597, 1.363, 1.36569, 1.36863, 1.37471, 1.37291, 1.37765, 1.3773, 1.37841, 1.37723, 1.3815, 1.38294, 1.3856, 1.38475, 1.3878, 1.38464, 1.3876, 1.38809, 1.38897, 1.38483, 1.38894, 1.39454, 1.38801, 1.38636, 1.38504, 1.38554, 1.38864, 1.38763, 1.389, 1.40101, 1.39744, 1.39787, 1.39865, 1.40079, 1.40871, 1.40647, 1.41609, 1.42207, 1.42353, 1.42932, 1.43001, 1.44024, 1.44602, 1.45435, 1.46495, 1.46621, 1.46594, 1.47187, 1.47594, 1.47918, 1.48588, 1.4884, 1.49352, 1.49672, 1.49845, 1.50317, 1.50598, 1.51442, 1.51654, 1.52508, 1.53392, 1.54719, 1.54871, 1.54546, 1.54733, 1.53939, 1.53554, 1.53656, 1.53675, 1.53942, 1.54548, 1.54432, 1.55082, 1.54926, 1.54816, 1.54747, 1.5507, 1.54849, 1.55098, 1.55757, 1.55959
0.603392, 0.604806, 0.918829, 0.629408, 0.642968, 0.643805, 0.656369, 0.975792, 0.959853, 0.701215, 0.703512, 0.705578, 0.704165, 0.703268, 0.703595, 0.703989, 0.704677, 0.693817, 0.690785, 0.693138, 0.686777, 0.68373, 0.681066, 0.682305, 0.682867, 0.683574, 0.684075, 0.686174, 0.687372, 0.686827, 0.680248, 0.674636, 0.676582, 0.669561, 0.662612, 0.653534, 0.655613, 0.654795, 0.650444, 0.650787, 0.65088, 0.650962, 0.652364, 0.658662, 0.657088, 0.662044, 0.666693, 0.667065, 0.668954, 0.671917, 0.672024, 0.679559, 0.682409, 0.683766, 0.689458, 0.69022, 0.69408, 0.700864, 0.704431, 0.705467, 0.708927, 0.716356, 0.720901, 0.721371, 0.731366, 0.734918, 0.736547, 0.743602, 0.743878, 0.75658, 0.762201, 0.767423, 0.771979, 0.811255, 0.811382, 0.800818, 0.80158, 0.818909, 0.822221, 0.83164, 0.834975, 0.836169, 0.838621, 0.842693, 0.850333, 0.855874, 0.858414, 0.863634, 0.866395, 0.87091, 0.87617, 0.879725, 0.887261, 1.06809, 0.906628, 0.905903, 0.910363, 0.914161, 0.916658, 0.919611, 0.926966, 0.930985, 0.940585, 0.954477, 0.959392, 0.961095, 0.965205, 0.970116, 0.979546, 0.985325, 0.987798, 1.26375, 1.0433, 1.01493, 1.02695, 1.03259, 1.0397, 1.0503, 1.05225, 1.05557, 1.05792, 1.06475, 1.06871, 1.2617, 1.08918, 1.45318, 1.11275, 1.12435, 1.16142, 1.1393, 1.14599, 1.15414, 1.17018, 1.17155, 1.17854, 1.90579, 1.19188, 1.22459, 1.22296, 1.22406, 1.3502, 1.23995, 1.2392, 1.30119, 1.25436, 1.25515, 1.32302, 1.24258, 1.24673, 1.24756, 1.24772, 1.24804, 1.24872, 1.24931, 1.44167, 1.27888, 1.24616, 1.24799, 1.24802, 1.24499, 1.24661, 1.25722, 1.264, 1.26314, 1.26667, 1.27055, 1.27235, 1.2762, 1.27814, 1.27891, 1.28377, 1.28582, 1.28907, 1.29472, 1.30195, 1.30574, 1.31187, 1.31149, 1.31224, 1.3107, 1.31618, 1.30223, 1.29932, 1.29794, 1.29814, 1.2942, 1.29357, 1.29431, 1.29157, 1.28957, 1.29228, 1.2912, 1.29331, 1.29337, 1.29419, 1.29297, 1.29497, 1.29546, 1.30046, 1.30206, 1.3016, 1.30682, 1.30881, 1.30726, 1.31007, 1.31503, 1.31525, 1.32341, 1.32616, 1.32928, 1.33285, 1.33129, 1.33845, 1.33999, 1.34105, 1.3474, 1.35667, 1.35585, 1.35671, 1.35798, 1.35544, 1.35953, 1.36346, 1.37013, 1.37029, 1.37233, 1.37491, 1.37275, 1.37517, 1.3755, 1.37592, 1.38099, 1.3815, 1.38195, 1.38432, 1.38455, 1.38368, 1.38747, 1.38578, 1.389, 1.38812, 1.38478, 1.3831, 1.3848, 1.38231, 1.38337, 1.38319, 1.38949, 1.39509, 1.39416, 1.39534, 1.40001, 1.40367, 1.40639, 1.40838, 1.41808, 1.41714, 1.41897, 1.42903, 1.43428, 1.43886, 1.44802, 1.45878, 1.45721, 1.4641, 1.46421, 1.47498, 1.47509, 1.47686, 1.47859, 1.48566, 1.48644, 1.49331, 1.49801, 1.5005, 1.51016, 1.51861, 1.51974, 1.53061, 1.55586, 1.5562, 1.55457, 1.54626, 1.55048, 1.53241, 1.53451, 1.53492, 1.54122, 1.54024, 1.54398, 1.54572, 1.54606, 1.55015, 1.54696, 1.54519, 1.54791, 1.55047, 1.54924, 1.55546, 1.55416
0.597743, 0.605245, 0.614227, 0.628349, 0.641697, 0.644675, 0.98105, 0.673838, 0.675948, 0.676284, 0.699289, 0.700958, 0.702006, 0.700238, 0.699424, 0.701606, 0.702533, 0.697495, 0.689612, 0.682064, 0.683393, 0.681225, 0.680436, 0.679635, 0.679644, 0.681031, 0.683336, 0.683799, 0.686074, 0.685156, 0.670412, 0.670821, 0.663662, 0.66421, 0.656143, 0.64973, 0.650029, 0.651412, 0.649871, 0.646866, 0.64617, 0.647175, 0.64869, 0.651141, 0.653406, 0.654707, 0.65955, 0.662049, 0.66569, 0.668179, 0.669855, 0.670951, 0.677651, 0.684007, 0.686377, 0.689989, 0.697895, 0.700427, 0.700687, 0.704698, 0.706515, 0.709833, 0.710492, 0.722094, 0.727909, 0.732147, 0.734926, 0.740812, 0.744486, 0.752318, 0.755574, 0.764582, 0.77022, 0.778253, 0.782152, 0.801995, 0.800477, 0.871507, 0.816034, 0.821002, 0.826572, 0.832279, 0.835824, 0.842233, 0.845752, 0.855805, 0.855596, 0.860895, 0.866126, 0.866888, 0.86747, 0.887039, 0.887174, 0.887498, 0.900685, 0.90484, 0.908887, 0.912006, 0.916973, 0.918954, 0.928738, 0.93947, 0.952877, 0.956661, 0.960946, 0.963005, 0.966505, 0.97015, 0.975091, 0.980678, 0.986804, 0.99494, 1.03988, 1.04716, 1.04873, 1.0407, 1.04191, 1.0437, 1.05445, 1.05602, 1.06231, 1.06571, 1.08415, 1.08183, 1.08588, 1.13654, 1.29178, 1.417, 1.12695, 1.1373, 1.1478, 1.17142, 1.18468, 1.17527, 1.18121, 1.18008, 1.19104, 1.19992, 1.20577, 1.22588, 1.22271, 1.22433, 1.22462, 1.27802, 1.29233, 1.23052, 1.22712, 1.2286, 1.35772, 1.23983, 1.23723, 1.23488, 1.4502, 1.23458, 1.23695, 1.23864, 1.23468, 1.23599, 1.23945, 1.23984, 1.24275, 1.25081, 1.25512, 1.26518, 1.27008, 1.26339, 1.26577, 1.2677, 1.26876, 1.27011, 1.30571, 1.2864, 1.2876, 1.52758, 1.3025, 1.30667, 1.30754, 1.30555, 1.30295, 1.30325, 1.30487, 1.29448, 1.29331, 1.29005, 1.2912, 1.29083, 1.29066, 1.28975, 1.29129, 1.28586, 1.2871, 1.28656, 1.29003, 1.29026, 1.2898, 1.29417, 1.29103, 1.29232, 1.29334, 1.29447, 1.29617, 1.30523, 1.30465, 1.30413, 1.31009, 1.3129, 1.3173, 1.31778, 1.31794, 1.32014, 1.32185, 1.32497, 1.33072, 1.58436, 1.58371, 1.58488, 1.35053, 1.34651, 1.34576, 1.35161, 1.35334, 1.35738, 1.35881, 1.36365, 1.36898, 1.37009, 1.36741, 1.36828, 1.373, 1.37406, 1.37506, 1.37475, 1.37835, 1.37867, 1.37803, 1.3792, 1.38448, 1.38492, 1.3882, 1.38565, 1.38775, 1.38439, 1.38776, 1.38125, 1.38203, 1.38317, 1.38765, 1.38968, 1.39533, 1.39806, 1.39881, 1.40331, 1.40264, 1.41073, 1.41113, 1.41476, 1.4234, 1.42741, 1.43027, 1.44092, 1.44705, 1.45481, 1.46226, 1.46188, 1.46822, 1.46838, 1.46976, 1.46978, 1.47252, 1.47566, 1.47672, 1.48745, 1.56215, 1.49631, 1.50231, 1.51528, 1.52776, 1.53152, 1.5535, 1.55335, 1.55597, 1.55143, 1.54189, 1.53602, 1.53633, 1.53408, 1.53037, 1.53102, 1.53378, 1.54162, 1.54419, 1.5478, 1.54515, 1.54217, 1.54532, 1.54208, 1.54722, 1.54643, 1.55197, 1.55488
0.596602, 0.967412, 0.614126, 0.634581, 0.635652, 0.637276, 0.652366, 0.988073, 0.782224, 0.693768, 0.694459, 0.696736, 0.697092, 0.694742, 0.696441, 0.69718, 0.695219, 0.687512, 0.68658, 0.685131, 0.67802, 0.678731, 0.678224, 0.678678, 0.679281, 0.680244, 0.68227, 0.686009, 0.686037, 0.68414, 0.665908, 0.667107, 0.665982, 0.656523, 0.654779, 0.648397, 0.647905, 0.645648, 0.64277, 0.644737, 0.643142, 0.643384, 0.645368, 0.647218, 0.649778, 0.650853, 0.658996, 0.660046, 0.662076, 0.663791, 0.668906, 0.670368, 0.676903, 0.681572, 0.683888, 0.68525, 0.69701, 0.700604, 0.701167, 0.702484, 0.703015, 0.709604, 0.712418, 0.71717, 0.722248, 0.73524, 0.735801, 0.738138, 0.738474, 0.746397, 1.1539, 0.760549, 1.22259, 1.31342, 1.02877, 0.857066, 0.797996, 0.80554, 0.807177, 0.818404, 0.820006, 0.821261, 0.833564, 0.836773, 0.842466, 0.849327, 0.824636, 0.835588, 0.844736, 0.869065, 0.876318, 0.878105, 0.883402, 0.886812, 0.898748, 0.90132, 0.91057, 0.909967, 0.914843, 1.33963, 1.31991, 0.950637, 0.953006, 0.956554, 0.958756, 0.963741, 0.965577, 0.969963, 0.972728, 0.982953, 0.985179, 0.994281, 1.24038, 1.01585, 1.02558, 1.02962, 1.04549, 1.04872, 1.04997, 1.05672, 1.05989, 1.06962, 1.0831, 1.08436, 1.08462, 1.10379, 1.10461, 1.29231, 1.29376, 1.17201, 1.17083, 1.16037, 1.1674, 1.17247, 1.1743, 1.2473, 1.19813, 1.1981, 1.21555, 1.2182, 1.20985, 1.54742, 1.32199, 1.23647, 1.23812, 1.22344, 1.22397, 1.22449, 1.22566, 1.22607, 1.22822, 1.22764, 1.22673, 1.22617, 1.22812, 1.22972, 1.23185, 1.231, 1.2322, 1.23476, 1.23774, 1.24187, 1.24759, 1.25394, 1.25725, 1.2586, 1.25962, 1.25949, 1.26293, 1.26677, 1.27224, 1.27614, 1.49902, 1.53382, 1.30517, 1.30548, 1.30413, 1.30328, 1.30294, 1.29732, 1.29289, 1.28445, 1.28495, 1.28511, 1.28324, 1.28261, 1.28591, 1.28673, 1.28773, 1.28741, 1.2855, 1.28749, 1.28821, 1.2878, 1.28848, 1.28643, 1.28614, 1.28556, 1.28912, 1.29262, 1.29468, 1.29803, 1.29798, 1.30131, 1.3019, 1.30517, 1.3101, 1.30705, 1.31084, 1.31302, 1.31275, 1.31901, 1.3205, 1.32939, 1.32666, 1.33027, 1.33259, 1.33143, 1.33626, 1.34143, 1.34417, 1.35155, 1.35337, 1.35475, 1.35569, 1.35774, 1.36387, 1.36739, 1.36812, 1.37039, 1.37027, 1.36607, 1.37437, 1.37617, 1.37755, 1.3768, 1.38275, 1.38225, 1.38385, 1.38239, 1.38505, 1.38405, 1.37853, 1.3757, 1.37638, 1.38226, 1.38237, 1.38958, 1.39437, 1.39772, 1.39862, 1.39932, 1.39956, 1.41036, 1.41215, 1.42271, 1.42335, 1.43031, 1.44084, 1.44323, 1.4469, 1.46307, 1.46462, 1.46486, 1.4666, 1.46486, 1.46733, 1.46735, 1.46958, 1.46897, 1.47844, 1.47784, 1.79061, 1.50042, 1.51097, 1.51181, 1.52892, 1.53859, 1.54637, 1.55196, 1.55009, 1.54135, 1.53855, 1.53241, 1.52765, 1.53319, 1.53037, 1.52704, 1.53344, 1.54042, 1.54052, 1.54083, 1.54148, 1.5443, 1.54163, 1.54259, 1.54149, 1.54023, 1.54556, 1.55017
0.601208, 0.61488, 0.621984, 0.625973, 0.632815, 0.633379, 0.64978, 0.990974, 0.991221, 0.691523, 0.693178, 0.692469, 0.692874, 0.693557, 0.693817, 0.692005, 0.68775, 0.683154, 0.678285, 0.676334, 0.677932, 0.677528, 0.677144, 0.676656, 0.677586, 0.678202, 0.684129, 0.68569, 0.687253, 0.670596, 0.672459, 0.66895, 0.650925, 0.651836, 0.648868, 0.642519, 0.641453, 0.641406, 0.636933, 0.638238, 0.638415, 0.63719, 0.642197, 0.642838, 0.644488, 0.651753, 0.653926, 0.655388, 0.659349, 0.665424, 0.666983, 0.671986, 0.674447, 0.678396, 0.67829, 0.684203, 0.691149, 0.693925, 0.693754, 0.696955, 0.697526, 0.708004, 0.712718, 0.715841, 0.717428, 0.7263, 0.733103, 0.736705, 0.736369, 0.746464, 0.748601, 0.755275, 0.757882, 1.02687, 1.1013, 1.18172, 0.791642, 0.794271, 0.797768, 0.804908, 0.811361, 0.815491, 0.824424, 1.62332, 1.62245, 0.849929, 0.853495, 0.854894, 0.859692, 0.860797, 0.867313, 0.876378, 0.878536, 0.890399, 0.89416, 0.895902, 0.899071, 0.908008, 0.911832, 0.914573, 1.38468, 0.941799, 0.950255, 0.953586, 0.95599, 0.96064, 0.967858, 0.971141, 0.98077, 0.983368, 0.984594, 0.988946, 1.11899, 1.15989, 1.28546, 1.07325, 1.04617, 1.0483, 1.05286, 1.05678, 1.06267, 1.06838, 1.07098, 1.11188, 1.08714, 1.42187, 1.11608, 1.13686, 1.17098, 1.14031, 1.17654, 1.19361, 1.17123, 1.17422, 1.18607, 1.3246, 1.20088, 1.20284, 1.20164, 1.20211, 1.213, 1.21564, 1.22715, 1.22962, 1.2274, 1.22641, 1.22421, 1.22388, 1.22264, 1.22086, 1.22263, 1.22399, 1.22583, 1.22452, 1.22531, 1.22481, 1.22608, 1.22627, 1.23027, 1.23281, 1.235, 1.23748, 1.24095, 1.24769, 1.24969, 1.25196, 1.25377, 1.25602, 1.25988, 1.5176, 1.27217, 1.51795, 1.2831, 1.29287, 1.30591, 1.30633, 1.30271, 1.30426, 1.30382, 1.29462, 1.28717, 1.2822, 1.28126, 1.28271, 1.28493, 1.28436, 1.28073, 1.28162, 1.28271, 1.28286, 1.28318, 1.28571, 1.28603, 1.28811, 1.28552, 1.28373, 1.28395, 1.28248, 1.28515, 1.28875, 1.29546, 1.29348, 1.29765, 1.29567, 1.29907, 1.30298, 1.30328, 1.3046, 1.30323, 1.31117, 1.31076, 1.31468, 1.31443, 1.31411, 1.32227, 1.32217, 1.33046, 1.33052, 1.33804, 1.33768, 1.33828, 1.34868, 1.34972, 1.35035, 1.35074, 1.35691, 1.35771, 1.36407, 1.36453, 1.36697, 1.36701, 1.36619, 1.37518, 1.3742, 1.37807, 1.37583, 1.38319, 1.38217, 1.38058, 1.37934, 1.38107, 1.3741, 1.37489, 1.37507, 1.37582, 1.37502, 1.3791, 1.54103, 1.39493, 1.39615, 1.39726, 1.4021, 1.40747, 1.4139, 1.41477, 1.41557, 1.42592, 1.42656, 1.43716, 1.44153, 1.4485, 1.46646, 1.46747, 1.46685, 1.46692, 1.46632, 1.4663, 1.4666, 1.47094, 1.47251, 1.47943, 1.48223, 1.58712, 1.50669, 1.73014, 1.52497, 1.53496, 1.53434, 1.53333, 1.53798, 1.53062, 1.53141, 1.53243, 1.52998, 1.52924, 1.52988, 1.52601, 1.52388, 1.52961, 1.53738, 1.53878, 1.53553, 1.54119, 1.54068, 1.54021, 1.53551, 1.53359, 1.54179, 1.547, 1.54765
0.608861, 0.609296, 0.613523, 0.624993, 0.634572, 0.95325, 0.780636, 0.781165, 0.686466, 0.687247, 0.687757, 0.686975, 0.687797, 0.688455, 0.684062, 0.684645, 0.674787, 0.676463, 0.671762, 0.674016, 0.673908, 0.673073, 0.672696, 0.675623, 0.677132, 0.681975, 0.684331, 0.6865, 0.686243, 0.685388, 0.674727, 0.66389, 0.644908, 0.639603, 0.642368, 0.639447, 0.638718, 0.636563, 0.635653, 0.633701, 0.633112, 0.634657, 0.636746, 0.63697, 0.639345, 0.645262, 0.646398, 0.65239, 0.654305, 0.658483, 0.657872, 0.669016, 0.671191, 0.673373, 0.677172, 0.678686, 0.688461, 0.688811, 0.689713, 0.689783, 0.691048, 0.691237, 0.705253, 0.706598, 0.700887, 0.712632, 0.790315, 0.789996, 0.794347, 0.737104, 0.744491, 0.749071, 1.03633, 0.759909, 0.766352, 0.780444, 0.784938, 0.785994, 0.79183, 0.79474, 1.04237, 0.806228, 0.807545, 1.1738, 0.831255, 0.833432, 0.842975, 0.844164, 0.849632, 1.58347, 1.55699, 1.60041, 0.879099, 0.887136, 0.888602, 0.892844, 0.900758, 0.90454, 0.912306, 1.16438, 0.935632, 0.943019, 0.944979, 0.947125, 0.950055, 0.958849, 0.966745, 0.974411, 0.975284, 0.975766, 0.989753, 1.03561, 1.01366, 1.02645, 1.02946, 1.03108, 1.09937, 1.05004, 1.05299, 1.05403, 1.05836, 1.06537, 1.06704, 1.08152, 1.09226, 1.13599, 1.39532, 1.33707, 1.16161, 1.167, 1.15406, 1.21245, 1.28177, 1.2235, 1.1957, 1.1969, 1.1986, 1.19652, 1.19891, 1.20788, 1.20809, 1.2158, 1.2221, 1.22271, 1.21746, 1.21659, 1.21744, 1.21624, 1.21655, 1.21595, 1.21678, 1.21865, 1.21945, 1.221, 1.22327, 1.22264, 1.22185, 1.22494, 1.22528, 1.22872, 1.23144, 1.23294, 1.23834, 1.24327, 1.24698, 1.24841, 1.25335, 1.2595, 1.26203, 1.27077, 1.30785, 1.28723, 1.292, 1.29541, 1.30221, 1.30662, 1.3088, 1.30505, 1.30022, 1.28867, 1.28796, 1.28109, 1.27638, 1.27695, 1.27275, 1.27534, 1.2778, 1.27869, 1.27705, 1.28079, 1.28265, 1.28483, 1.28107, 1.28255, 1.28159, 1.28043, 1.2809, 1.28074, 1.28447, 1.28477, 1.2909, 1.29118, 1.29758, 1.2934, 1.2958, 1.29597, 1.29597, 1.29872, 1.29953, 1.30597, 1.31106, 1.31444, 1.31338, 1.3138, 1.32549, 1.32306, 1.32377, 1.32605, 1.3313, 1.333, 1.33205, 1.34264, 1.34637, 1.35202, 1.35337, 1.35495, 1.35188, 1.35939, 1.363, 1.36367, 1.36211, 1.36768, 1.36712, 1.37252, 1.37063, 1.37509, 1.3785, 1.37672, 1.37349, 1.37746, 1.37555, 1.37337, 1.37712, 1.37813, 1.37411, 1.37728, 1.38154, 1.39214, 1.39532, 1.40128, 1.40065, 1.40914, 1.4097, 1.41708, 1.42113, 1.42339, 1.42595, 1.42934, 1.43608, 1.44143, 1.44224, 1.45457, 1.46359, 1.46426, 1.46814, 1.46748, 1.47132, 1.46988, 1.47654, 1.47779, 1.48412, 1.48536, 1.60051, 1.51472, 1.51771, 1.52701, 1.52687, 1.53395, 1.53381, 1.53307, 1.52966, 1.52903, 1.53022, 1.53092, 1.52629, 1.52384, 1.52202, 1.52089, 1.52326, 1.52855, 1.5311, 1.53115, 1.53694, 1.53402, 1.53099, 1.53329, 1.53838, 1.53743, 1.5368, 1.54523
0.601553, 0.610353, 0.627937, 0.63005, 0.630496, 0.630529, 0.663762, 0.665187, 0.665655, 0.681102, 0.680528, 0.681281, 0.682808, 0.679195, 0.680558, 0.679235, 0.669158, 0.667466, 0.667835, 0.668997, 0.66837, 0.667038, 0.667867, 0.667351, 0.669765, 0.680279, 0.682332, 0.68136, 0.681575, 0.675556, 0.665152, 0.651777, 0.6489, 0.647453, 0.645073, 0.633149, 0.63249, 0.634272, 0.628361, 0.630673, 0.630312, 0.631687, 0.634699, 0.635377, 0.636514, 0.643165, 0.643481, 0.649474, 0.652835, 0.658767, 0.660515, 0.661679, 0.669206, 0.669583, 0.672766, 0.675198, 0.680719, 0.683779, 0.685298, 0.68729, 0.689477, 0.689237, 0.687363, 0.693688, 0.691193, 0.702126, 0.702114, 0.707046, 0.718101, 0.787329, 0.73306, 0.745963, 0.747306, 0.992791, 0.773393, 0.776875, 0.77667, 0.777309, 0.782009, 0.785963, 0.792073, 0.796406, 0.800484, 0.803722, 0.819519, 0.820054, 0.835833, 0.838662, 0.845031, 0.849058, 0.900215, 0.865288, 0.869116, 1.1436, 0.891055, 0.894079, 0.896508, 0.899554, 1.35492, 0.984706, 0.937039, 0.940839, 0.94576, 0.948127, 0.95259, 0.958206, 1.0077, 1.00857, 0.978508, 1.22253, 1.03056, 1.0284, 1.02637, 1.02803, 1.1773, 1.19433, 1.04834, 1.05018, 1.05222, 1.05297, 1.05441, 1.05538, 1.36204, 1.10622, 1.11296, 1.1498, 1.11475, 1.11521, 1.13203, 1.17435, 1.20366, 1.1976, 1.2059, 1.18923, 1.18831, 1.19239, 1.19473, 1.19662, 1.19973, 1.20111, 1.20314, 1.21592, 1.21605, 1.21626, 1.21243, 1.21201, 1.21168, 1.20882, 1.20831, 1.20933, 1.20944, 1.21243, 1.21601, 1.21627, 1.21924, 1.21869, 1.21841, 1.22289, 1.22418, 1.22426, 1.22939, 1.23229, 1.23582, 1.24212, 1.24472, 1.24713, 1.25975, 1.25731, 1.26869, 1.27299, 1.27964, 1.29016, 1.29506, 1.30407, 1.30408, 1.30744, 1.3005, 1.29256, 1.29233, 1.5664, 1.27417, 1.27266, 1.27058, 1.26919, 1.27076, 1.26985, 1.27097, 1.26856, 1.27133, 1.2742, 1.27346, 1.27489, 1.27622, 1.27333, 1.27018, 1.27359, 1.27532, 1.27933, 1.27843, 1.27894, 1.2859, 1.29103, 1.29078, 1.29054, 1.28963, 1.29028, 1.28844, 1.28976, 1.40887, 1.29718, 1.64907, 1.30592, 1.30916, 1.3114, 1.31503, 1.31622, 1.31986, 1.32178, 1.32611, 1.33296, 1.33253, 1.33466, 1.3436, 1.34686, 1.34951, 1.35055, 1.34904, 1.35626, 1.35614, 1.35387, 1.35825, 1.36122, 1.36361, 1.36236, 1.36402, 1.37023, 1.37101, 1.36937, 1.37064, 1.37411, 1.37474, 1.37513, 1.37234, 1.37459, 1.37539, 1.3758, 1.38554, 1.38719, 1.39171, 1.39775, 1.41349, 1.41161, 1.4115, 1.41241, 1.41971, 1.42195, 1.42634, 1.42988, 1.42943, 1.43542, 1.44804, 1.45903, 1.46173, 1.46197, 1.46859, 1.46832, 1.47445, 1.4841, 1.48315, 1.49263, 1.49603, 1.50916, 1.51353, 1.51375, 1.51905, 1.5202, 1.52217, 1.52945, 1.52907, 1.52495, 1.52373, 1.5227, 1.52268, 1.52416, 1.51758, 1.5164, 1.51697, 1.51974, 1.52794, 1.52852, 1.53, 1.52384, 1.52382, 1.52469, 1.52781, 1.52391, 1.53342, 1.53183, 1.54183, 1.54154
0.607437, 0.610388, 0.625036, 0.627263, 0.639467, 0.643599, 0.660566, 0.663661, 0.666477, 0.673434, 0.675888, 0.677024, 0.676883, 0.671578, 0.672932, 0.671929, 0.665518, 0.66538, 0.662537, 0.652761, 0.660564, 0.659769, 0.659233, 0.660009, 0.66756, 0.669356, 0.671432, 0.6728, 1.03549, 0.663171, 0.647807, 0.649286, 0.646503, 0.636622, 0.637787, 0.637201, 0.631021, 0.628786, 0.626394, 0.6279, 0.62781, 0.628837, 0.631775, 0.633792, 0.637946, 0.639894, 0.641844, 0.643685, 0.648242, 0.649443, 0.655441, 0.660071, 0.658796, 0.666981, 0.671302, 0.673118, 0.674847, 0.675603, 0.677608, 0.677708, 0.683475, 0.684499, 0.682945, 0.682908, 0.687432, 0.689683, 0.691452, 0.692509, 0.720244, 0.72236, 0.723374, 0.739072, 0.744005, 0.742831, 0.792157, 0.767839, 0.771855, 0.773492, 0.776976, 0.777028, 0.787864, 0.790521, 0.802139, 0.807664, 0.860897, 0.822417, 0.823954, 0.827869, 1.13238, 0.845658, 0.859489, 0.861577, 0.870819, 0.881674, 0.88404, 0.887742, 1.35422, 1.11157, 1.35055, 0.929843, 0.933142, 0.938213, 0.941473, 0.94193, 0.942536, 0.960435, 0.970676, 1.19041, 1.00876, 1.02602, 1.00858, 1.41665, 1.02279, 1.03022, 1.04222, 1.04314, 1.04941, 1.04886, 1.04895, 1.04885, 1.05061, 1.05762, 1.06184, 1.06885, 1.12207, 1.39298, 1.46499, 1.45788, 1.44422, 1.22892, 1.17471, 1.17673, 1.17836, 1.1802, 1.18301, 1.18392, 1.18755, 1.21894, 1.19675, 1.19832, 1.20177, 1.21615, 1.21842, 1.21378, 1.21073, 1.21123, 1.20525, 1.20442, 1.20335, 1.20561, 1.20819, 1.2095, 1.21609, 1.21779, 1.21864, 1.21955, 1.22101, 1.22225, 1.21946, 1.21888, 1.22778, 1.22959, 1.23579, 1.23642, 1.24026, 1.27752, 1.25398, 1.26034, 1.43282, 1.2925, 1.28177, 1.38759, 1.28962, 1.29241, 1.29834, 1.51329, 1.28736, 1.28537, 1.26703, 1.26583, 1.26594, 1.26161, 1.26466, 1.26212, 1.26245, 1.26426, 1.26679, 1.26554, 1.26767, 1.26433, 1.26774, 1.26893, 1.26995, 1.27031, 1.26761, 1.26713, 1.26938, 1.26969, 1.27376, 1.27528, 1.28214, 1.28419, 1.28626, 1.28505, 1.28336, 1.28337, 1.28481, 1.28923, 1.29028, 1.29367, 1.29546, 1.29981, 1.30128, 1.30893, 1.31109, 1.3124, 1.31923, 1.31839, 1.32201, 1.3242, 1.32709, 1.33293, 1.33497, 1.34118, 1.34401, 1.34674, 1.34776, 1.35082, 1.35216, 1.35199, 1.35337, 1.35837, 1.35731, 1.35713, 1.36346, 1.36714, 1.36849, 1.3682, 1.36907, 1.37819, 1.37822, 1.37544, 1.37272, 1.37423, 1.3779, 1.38196, 1.38122, 1.38788, 1.38826, 1.39678, 1.41329, 1.41129, 1.4114, 1.41468, 1.41624, 1.42004, 1.42449, 1.42955, 1.44461, 1.44411, 1.44973, 1.45994, 1.45855, 1.46563, 1.46973, 1.4707, 1.47541, 1.48503, 1.48583, 1.50256, 1.50766, 1.50918, 1.51218, 1.51048, 1.51751, 1.51772, 1.51866, 1.52454, 1.52627, 1.52178, 1.51951, 1.52008, 1.5253, 1.52436, 1.5256, 1.5227, 1.52099, 1.52061, 1.52615, 1.5242, 1.51602, 1.5182, 1.51918, 1.51933, 1.51726, 1.52367, 1.53166, 1.53033, 1.53336, 1.53826
0.600428, 0.616239, 0.622871, 0.623231, 0.635454, 0.637628, 0.651673, 0.670333, 0.669594, 0.672664, 0.67222, 0.671138, 0.670809, 0.670955, 0.669737, 0.658246, 0.659184, 0.652434, 0.650871, 0.651555, 0.653918, 0.655567, 0.657401, 0.661274, 0.661574, 0.664137, 0.663533, 0.647077, 0.650683, 0.650261, 0.649032, 0.643283, 0.641969, 0.635939, 0.627654, 0.624912, 0.626133, 0.626173, 0.624303, 0.623158, 0.624747, 0.623359, 0.628216, 0.633725, 0.633962, 0.637391, 0.641466, 0.642804, 0.643547, 0.647615, 0.647919, 0.654473, 0.658283, 0.65982, 0.665365, 0.666093, 0.669196, 0.671202, 0.676733, 0.680315, 0.683844, 0.680593, 0.682358, 0.683592, 0.684235, 0.686634, 0.68921, 0.708731, 0.718095, 0.721068, 0.718522, 0.737591, 0.788548, 0.789236, 0.75445, 0.758088, 0.765606, 0.77104, 0.771686, 0.779505, 0.781569, 0.789089, 0.798331, 0.802788, 0.810406, 0.815261, 0.817933, 0.825766, 1.35676, 0.847205, 0.854733, 0.859856, 0.871107, 0.873604, 0.875687, 0.881104, 0.887782, 1.24996, 0.91775, 0.922508, 0.929096, 0.935625, 0.93766, 0.942139, 0.94609, 1.40971, 1.27835, 1.27924, 1.21811, 1.2195, 1.01293, 1.0151, 1.02067, 1.02689, 1.03592, 1.03694, 1.04023, 1.04419, 1.04411, 1.04568, 1.05291, 1.05629, 1.05995, 1.34482, 1.38811, 1.38963, 1.09618, 1.12918, 1.14254, 1.19445, 1.2582, 1.17512, 1.17121, 1.17513, 1.1757, 1.19284, 1.18756, 1.18988, 1.19387, 1.19713, 1.19772, 1.20328, 1.20564, 1.20798, 1.20784, 1.20053, 1.20083, 1.20228, 1.20093, 1.20003, 1.20171, 1.20615, 1.20611, 1.20761, 1.21001, 1.21332, 1.2102, 1.212, 1.21364, 1.21981, 1.22442, 1.22368, 1.22639, 1.23217, 1.23826, 1.24663, 1.2649, 1.26603, 1.26409, 1.26262, 1.46019, 1.28141, 1.28291, 1.28801, 1.28722, 1.30263, 1.3135, 1.27491, 1.26231, 1.26002, 1.25924, 1.25858, 1.25665, 1.26155, 1.26099, 1.26415, 1.26215, 1.266, 1.26693, 1.26704, 1.25691, 1.26124, 1.26152, 1.25985, 1.26062, 1.26517, 1.26526, 1.26895, 1.27236, 1.2712, 1.27433, 1.27672, 1.27585, 1.27591, 1.27575, 1.27663, 1.28458, 1.28678, 1.29161, 1.29191, 1.2992, 1.29691, 1.29874, 1.30347, 1.30672, 1.31124, 1.3094, 1.31642, 1.32374, 1.32426, 1.32535, 1.32789, 1.32738, 1.32997, 1.33644, 1.34024, 1.34295, 1.34255, 1.34369, 1.34533, 1.34592, 1.35212, 1.35232, 1.35443, 1.36078, 1.36439, 1.36438, 1.36538, 1.36985, 1.37223, 1.37402, 1.3731, 1.3735, 1.37697, 1.37644, 1.38108, 1.38392, 1.38792, 1.39269, 1.39452, 1.40567, 1.40651, 1.40578, 1.41132, 1.41234, 1.4204, 1.42827, 1.43844, 1.4435, 1.44941, 1.45445, 1.45728, 1.46983, 1.46642, 1.46764, 1.47602, 1.47918, 1.48704, 1.49621, 1.50274, 1.50437, 1.50462, 1.50932, 1.51175, 1.51428, 1.51735, 1.51609, 1.52085, 1.52213, 1.52378, 1.52147, 1.52579, 1.5231, 1.52392, 1.52415, 1.53069, 1.52731, 1.52274, 1.52132, 1.5176, 1.51782, 1.51616, 1.51447, 1.51318, 1.51242, 1.51554, 1.52452, 1.52566, 1.53846, 1.53737
0.607578, 0.610103, 0.619699, 0.63272, 0.636645, 0.646687, 0.655387, 0.664235, 0.668867, 0.669931, 0.669442, 0.669154, 0.664988, 0.664469, 0.646467, 0.648262, 0.649929, 0.648554, 0.645959, 0.644626, 0.645579, 0.646435, 0.649004, 0.652924, 0.657968, 0.657801, 0.647586, 0.645134, 0.647458, 0.643054, 0.632661, 0.631855, 0.634759, 0.629904, 0.625289, 0.622369, 0.62206, 0.62029, 0.619405, 0.618978, 0.618895, 0.618619, 0.619524, 0.628141, 0.629069, 0.630155, 0.638465, 0.638988, 0.640747, 0.644347, 0.642868, 0.649834, 0.658923, 0.659781, 0.66245, 0.664561, 0.663712, 0.675726, 0.678769, 0.684442, 0.685748, 0.686695, 0.686994, 0.68764, 0.690609, 0.693158, 0.696136, 0.70841, 0.712828, 0.717736, 0.718344, 0.719975, 0.739608, 0.745834, 0.746455, 0.768272, 0.760526, 0.762136, 0.760557, 0.775274, 0.780368, 1.52285, 0.798667, 0.801713, 0.807999, 0.808914, 0.821073, 0.822791, 0.833867, 0.840707, 1.30029, 0.863212, 0.864853, 0.868717, 0.870766, 0.876932, 1.47913, 1.19163, 0.956135, 0.949243, 0.921749, 0.933656, 0.935918, 0.940931, 0.944602, 0.981187, 1.07044, 1.34347, 0.98725, 1.04571, 1.00954, 1.01111, 1.01287, 1.15705, 1.39185, 1.02688, 1.03205, 1.03341, 1.04281, 1.04569, 1.04792, 1.06004, 1.06581, 1.06767, 1.37985, 1.25633, 1.38776, 1.17399, 1.17468, 1.47479, 1.15947, 1.16075, 1.16384, 1.16475, 1.16817, 1.25411, 1.18055, 1.18347, 1.18705, 1.18829, 1.19535, 1.20574, 1.20537, 1.19901, 1.19598, 1.19646, 1.19317, 1.19116, 1.19075, 1.19172, 1.19425, 1.19445, 1.20273, 1.19724, 1.56061, 1.20271, 1.20337, 1.20507, 1.20539, 1.47714, 1.21616, 1.21833, 1.22374, 1.22957, 1.23051, 1.23964, 1.24018, 1.24947, 1.2508, 1.25536, 1.44713, 1.45079, 1.27762, 1.27745, 1.27571, 1.27212, 1.26422, 1.26367, 1.26025, 1.25832, 1.26129, 1.26148, 1.26072, 1.26066, 1.25714, 1.25615, 1.25062, 1.25074, 1.24957, 1.24853, 1.25289, 1.25364, 1.25352, 1.25502, 1.25485, 1.2602, 1.26146, 1.2659, 1.26721, 1.27068, 1.27078, 1.271, 1.26923, 1.27115, 1.27044, 1.2773, 1.27972, 1.28218, 1.28968, 1.29161, 1.29691, 1.29645, 1.30234, 1.30131, 1.30695, 1.30843, 1.30976, 1.31378, 1.31847, 1.32073, 1.32171, 1.32198, 1.32838, 1.33001, 1.32978, 1.33162, 1.3365, 1.33501, 1.33986, 1.34184, 1.3496, 1.34982, 1.35111, 1.35253, 1.35742, 1.36023, 1.36168, 1.36149, 1.3637, 1.36511, 1.36748, 1.37182, 1.37366, 1.37651, 1.37598, 1.3807, 1.38511, 1.38594, 1.38853, 1.3933, 1.40641, 1.40698, 1.4093, 1.41613, 1.41542, 1.4328, 1.43088, 1.44467, 1.44667, 1.4676, 1.46418, 1.46389, 1.471, 1.47371, 1.47382, 1.48285, 1.48906, 1.49052, 1.49543, 1.49985, 1.50348, 1.50552, 1.50897, 1.51355, 1.51338, 1.51443, 1.5134, 1.51673, 1.51404, 1.51391, 1.52007, 1.52126, 1.52057, 1.52468, 1.53059, 1.53076, 1.53237, 1.52012, 1.51918, 1.51887, 1.51908, 1.51647, 1.51238, 1.50537, 1.51616, 1.51473, 1.52349, 1.527, 1.52671, 1.53519
0.609646, 0.88797, 0.621156, 0.0037331, 0.642226, 0.652956, 0.658896, 0.660654, 0.665767, 0.666068, 0.663683, 0.664107, 0.664482, 0.653307, 0.642952, 0.64906, 0.641937, 0.639076, 0.638661, 0.64138, 0.641406, 0.642945, 0.648235, 0.648073, 0.648149, 0.645832, 0.642357, 0.639819, 0.639094, 0.63323, 0.630122, 0.623617, 0.624582, 0.617999, 0.619015, 0.613202, 0.613888, 0.614427, 0.615924, 0.614963, 0.616988, 0.614935, 0.616482, 0.622606, 0.622129, 0.630814, 0.632962, 0.634887, 0.636746, 0.640565, 0.641643, 0.648553, 0.652066, 0.656593, 0.658857, 0.66514, 0.666458, 0.667731, 0.68137, 0.683877, 0.690054, 0.691209, 0.691836, 0.689998, 0.692005, 0.69258, 0.70655, 0.7105, 0.717866, 0.726093, 0.72744, 0.728596, 0.73898, 0.742436, 0.747106, 0.752999, 0.753232, 0.755406, 0.75595, 0.773962, 0.783322, 0.791722, 0.798245, 0.800881, 0.806255, 0.809848, 0.822739, 0.823471, 0.835877, 0.841964, 0.853204, 0.857789, 0.864233, 0.868117, 0.871584, 0.874639, 0.889287, 0.891304, 0.947251, 0.909363, 0.911196, 1.19606, 1.19109, 0.936365, 0.938657, 1.16505, 0.985217, 1.07435, 0.982988, 0.987068, 0.987156, 0.999596, 1.0019, 1.00367, 1.43738, 1.39945, 1.46899, 1.02568, 1.02666, 1.03993, 1.09984, 1.39926, 1.32921, 1.09528, 1.36061, 1.31682, 1.10212, 1.22749, 1.25491, 1.37421, 1.16622, 1.156, 1.15847, 1.16428, 1.25071, 1.17537, 1.17747, 1.17626, 1.18094, 1.18365, 1.19321, 1.19361, 1.19174, 1.18856, 1.18651, 1.18778, 1.18743, 1.18668, 1.18402, 1.18429, 1.18715, 1.18697, 1.18677, 1.19118, 1.19275, 1.19519, 1.19985, 1.19907, 1.20126, 1.20561, 1.20893, 1.21196, 1.21511, 1.22208, 1.22895, 1.23153, 1.23578, 1.24225, 1.24606, 1.43665, 1.28483, 1.25985, 1.26807, 1.2654, 1.26669, 1.2625, 1.26397, 1.26238, 1.26456, 1.26284, 1.26507, 1.26389, 1.25964, 1.25968, 1.24877, 1.24736, 1.24362, 1.24195, 1.24299, 1.24668, 1.24632, 1.2473, 1.2504, 1.25032, 1.25115, 1.25151, 1.25461, 1.25885, 1.25976, 1.25967, 1.26046, 1.26727, 1.26379, 1.26525, 1.26881, 1.27001, 1.28201, 1.28415, 1.2913, 1.29208, 1.28944, 1.29182, 1.29928, 1.30235, 1.30226, 1.30836, 1.31011, 1.31083, 1.31539, 1.31679, 1.31952, 1.32044, 1.32108, 1.33363, 1.33308, 1.333, 1.33419, 1.33024, 1.32983, 1.34317, 1.34372, 1.34533, 1.35085, 1.3568, 1.35928, 1.35767, 1.35999, 1.36434, 1.36394, 1.36176, 1.36809, 1.37328, 1.37223, 1.37607, 1.37677, 1.38053, 1.38306, 1.38606, 1.38909, 1.39682, 1.40702, 1.40946, 1.4101, 1.41866, 1.4305, 1.43272, 1.43606, 1.45451, 1.45249, 1.46465, 1.46882, 1.46833, 1.47691, 1.47735, 1.4739, 1.47915, 1.49095, 1.48925, 1.49242, 1.49933, 1.49764, 1.50438, 1.50862, 1.50795, 1.51223, 1.5146, 1.51059, 1.51288, 1.51177, 1.51324, 1.51361, 1.51448, 1.52004, 1.51934, 1.51718, 1.51762, 1.52247, 1.52092, 1.51964, 1.51719, 1.51548, 1.50965, 1.51193, 1.50337, 1.50963, 1.51419, 1.5203, 1.52789, 1.52943, 1.54457
0.003822, 0.61856, 0.632341, 0.634926, 0.645831, 0.653333, 0.656714, 0.65868, 0.661162, 0.661226, 0.65977, 0.656183, 0.644015, 0.646585, 0.642078, 0.63461, 0.639746, 0.634165, 0.634308, 0.639576, 0.641931, 0.642179, 0.642446, 0.644928, 0.645789, 0.639747, 0.635112, 0.632913, 0.631937, 0.630598, 0.61895, 0.613592, 0.612645, 0.611701, 0.611252, 0.611436, 0.611087, 0.610326, 0.610916, 0.610303, 0.611196, 0.61058, 0.615614, 0.61681, 0.62063, 0.628737, 0.632389, 0.634466, 0.638333, 0.638815, 0.644395, 0.648561, 0.649943, 0.652331, 0.655174, 0.65515, 0.66579, 0.666226, 0.682184, 0.684357, 0.684133, 0.688788, 0.699085, 0.702561, 0.702887, 0.704541, 0.707236, 0.708878, 0.72132, 0.725124, 0.727129, 0.732237, 0.73832, 0.739606, 0.74379, 0.746517, 0.749722, 0.828953, 0.769891, 0.774178, 0.783326, 0.791585, 0.796958, 0.803698, 0.805731, 0.81596, 0.829164, 0.834817, 0.842061, 0.849196, 0.849863, 0.855804, 0.861824, 0.873151, 0.87468, 0.876999, 0.877987, 1.07684, 1.18078, 0.905389, 0.9079, 0.909365, 0.928688, 0.932036, 1.15563, 1.05775, 1.20286, 1.2518, 1.26202, 1.19898, 0.991817, 0.992435, 0.991529, 0.995951, 0.997842, 1.00827, 1.01171, 1.46401, 1.03162, 1.03363, 1.05747, 1.15877, 1.45383, 1.10586, 1.1812, 1.08742, 1.42132, 1.1072, 1.10885, 1.40297, 1.24057, 1.15096, 1.15467, 1.16337, 1.16732, 1.16841, 1.16743, 1.20952, 1.1941, 1.18439, 1.18531, 1.18737, 1.18724, 1.18294, 1.18201, 1.18081, 1.18246, 1.18108, 1.175, 1.17976, 1.18089, 1.18163, 1.18601, 1.1883, 1.19273, 1.19449, 1.19563, 1.20252, 1.20263, 1.20381, 1.20536, 1.21183, 1.21442, 1.21759, 1.21961, 1.22756, 1.23192, 1.23146, 1.23963, 1.24086, 1.25178, 1.25293, 1.25501, 1.25445, 1.25529, 1.25461, 1.25827, 1.26168, 1.2611, 1.25679, 1.55469, 1.24382, 1.24177, 1.24094, 1.25655, 1.23071, 1.23132, 1.23233, 1.23419, 1.23613, 1.23795, 1.23788, 1.2432, 1.24645, 1.2472, 1.2471, 1.24972, 1.25078, 1.25366, 1.25774, 1.2579, 1.26021, 1.26255, 1.26173, 1.26091, 1.26772, 1.27308, 1.2813, 1.28189, 1.28293, 1.28733, 1.28908, 1.29151, 1.29755, 1.29954, 1.30146, 1.3065, 1.30787, 1.31282, 1.3136, 1.31645, 1.31581, 1.31999, 1.32431, 1.32396, 1.33074, 1.33079, 1.32905, 1.32997, 1.33415, 1.34122, 1.34388, 1.34349, 1.35071, 1.35724, 1.35702, 1.36023, 1.36529, 1.36286, 1.3652, 1.37572, 1.37822, 1.37586, 1.38193, 1.37623, 1.38067, 1.38112, 1.38622, 1.39157, 1.39257, 1.40837, 1.40902, 1.41743, 1.4342, 1.44044, 1.43945, 1.44996, 1.6089, 1.4851, 1.46823, 1.47298, 1.47335, 1.47832, 1.47416, 1.47931, 1.47958, 1.48612, 1.48828, 1.49011, 1.49584, 1.50177, 1.50197, 1.50674, 1.50824, 1.50863, 1.5103, 1.51046, 1.51098, 1.51123, 1.51292, 1.51264, 1.51616, 1.51459, 1.51724, 1.51769, 1.51871, 1.51472, 1.515, 1.51271, 1.51495, 1.51295, 1.51166, 1.50694, 1.50652, 1.50959, 1.51381, 1.52193, 1.53019, 1.52816, 1.54089
0.99163, 0.629844, 0.642804, 0.62564, 0.634418, 0.983997, 0.656505, 0.657866, 0.659364, 0.657074, 0.655726, 0.651218, 0.645235, 0.64163, 0.633363, 0.634787, 0.631035, 0.631183, 0.632572, 0.635148, 0.637844, 0.640006, 0.641568, 0.642213, 0.641999, 0.628263, 0.616214, 0.624619, 0.614026, 0.612833, 0.610765, 0.609422, 0.604351, 0.603032, 0.602571, 0.602097, 0.602573, 0.606128, 0.605473, 0.605331, 0.603408, 0.605173, 0.611933, 0.613121, 0.614265, 0.614638, 0.626349, 0.629929, 0.634925, 0.636681, 0.636499, 0.646556, 0.648303, 0.651577, 0.651933, 0.654396, 0.660317, 0.666552, 0.677019, 0.683407, 0.68482, 0.690915, 0.699198, 0.699979, 0.702835, 0.703011, 0.707667, 0.719639, 0.722559, 0.728686, 0.730685, 0.732603, 0.732507, 0.736936, 0.745779, 0.745923, 0.750646, 0.762576, 0.773594, 1.50818, 0.779858, 1.10754, 0.797236, 0.807569, 1.54059, 1.54068, 0.823444, 0.835779, 0.837119, 0.84216, 0.848862, 0.853672, 0.858329, 0.864813, 0.869999, 0.868596, 0.871277, 0.880694, 1.16087, 0.923169, 1.32712, 1.34724, 0.924963, 0.935857, 0.936572, 0.954734, 0.949918, 1.2552, 1.09037, 0.981243, 0.983618, 0.9846, 0.987583, 0.990294, 0.992234, 1.0022, 1.00545, 1.4717, 1.01894, 1.1488, 1.22572, 1.04671, 1.40858, 1.06716, 1.08168, 1.08138, 1.13284, 1.38355, 1.61537, 1.17465, 1.17732, 1.52404, 1.15344, 1.15582, 1.15672, 1.15964, 1.16349, 1.16538, 1.21224, 1.18073, 1.18014, 1.18068, 1.17811, 1.179, 1.17871, 1.177, 1.17609, 1.17685, 1.17619, 1.17814, 1.18001, 1.18339, 1.18292, 1.18657, 1.18804, 1.19279, 1.19767, 1.2012, 1.20076, 1.19809, 1.20436, 1.20723, 1.2129, 1.2147, 1.21651, 1.21795, 1.22315, 1.22827, 1.22964, 1.40681, 1.24653, 1.24501, 1.24736, 1.24697, 1.24839, 1.24794, 1.24798, 1.51958, 1.51626, 1.23897, 1.23374, 1.23283, 1.23026, 1.22708, 1.22576, 1.22552, 1.22342, 1.22567, 1.23292, 1.23229, 1.23409, 1.23642, 1.23882, 1.23938, 1.24023, 1.24241, 1.24286, 1.24511, 1.24666, 1.24718, 1.24948, 1.25119, 1.25122, 1.25308, 1.26079, 1.26465, 1.26777, 1.27821, 1.27927, 1.28002, 1.28344, 1.28549, 1.28794, 1.29159, 1.29217, 1.29714, 1.3018, 1.30049, 1.30498, 1.31138, 1.31161, 1.31313, 1.31892, 1.3202, 1.32746, 1.3268, 1.32738, 1.32742, 1.33448, 1.33418, 1.33384, 1.33469, 1.34885, 1.35008, 1.35084, 1.35321, 1.36111, 1.36159, 1.3607, 1.3663, 1.36622, 1.37748, 1.37593, 1.38442, 1.38252, 1.38011, 1.38663, 1.3887, 1.39325, 1.40272, 1.41386, 1.41443, 1.43054, 1.43641, 1.43993, 1.43878, 1.44359, 1.45777, 1.46098, 1.47042, 1.47618, 1.47938, 1.47843, 1.47585, 1.47665, 1.47994, 1.48491, 1.48533, 1.49211, 1.49478, 1.49479, 1.50186, 1.50111, 1.50232, 1.50646, 1.5074, 1.50721, 1.50195, 1.50051, 1.50358, 1.50627, 1.51295, 1.51436, 1.51471, 1.51562, 1.51703, 1.51091, 1.51157, 1.51127, 1.51006, 1.50898, 1.50901, 1.50532, 1.50789, 1.50854, 1.51395, 1.53015, 1.53057, 1.53851, 1.53795
0.00428796, 0.628446, 0.648678, 0.62778, 0.628166, 0.649954, 0.64999, 0.654153, 0.655284, 0.650446, 0.93617, 0.636381, 0.636321, 0.636185, 0.624979, 0.62624, 0.62756, 0.627771, 0.629866, 0.631697, 0.635391, 0.635814, 0.635108, 0.634929, 0.625789, 0.617975, 0.615465, 0.612981, 0.611333, 0.604383, 0.604854, 0.597874, 0.598843, 0.59984, 0.599654, 0.600065, 0.600551, 0.598534, 0.598595, 0.599059, 0.598875, 0.602396, 0.602886, 0.609771, 0.608937, 0.613769, 0.614754, 0.621749, 0.624418, 0.634857, 0.636753, 0.639121, 0.642093, 0.642614, 0.644145, 0.65324, 0.655451, 0.659788, 0.667841, 0.677063, 0.687571, 0.691443, 0.697958, 0.701196, 0.703453, 0.707897, 0.712885, 0.723061, 0.728228, 0.731629, 0.735009, 0.738393, 0.739397, 0.742167, 0.743693, 0.749308, 0.753462, 0.760035, 0.768569, 1.50463, 0.779924, 0.789099, 0.79886, 0.80086, 0.809268, 1.10738, 0.822684, 0.826186, 0.832382, 0.837541, 0.837069, 0.845771, 0.85126, 0.859048, 0.860341, 0.866126, 0.864963, 0.870521, 0.878586, 1.2097, 1.12891, 1.12879, 1.12794, 1.49094, 1.15681, 1.16206, 0.973787, 1.07762, 0.977029, 0.980345, 0.982642, 0.983564, 0.986261, 0.987977, 0.989147, 0.991234, 0.995749, 1.39478, 0.00403529, 1.18485, 1.03585, 1.31555, 1.31311, 1.16495, 1.0715, 1.10462, 1.31687, 1.35457, 1.12612, 1.1549, 1.13762, 1.14773, 1.15095, 1.15318, 1.15542, 1.15804, 1.16253, 1.16812, 1.17204, 1.17375, 1.17749, 1.17724, 1.17664, 1.17367, 1.17211, 1.17238, 1.17254, 1.17417, 1.17368, 1.17351, 1.17583, 1.17579, 1.18039, 1.18461, 1.18427, 1.18866, 1.19191, 1.18798, 1.19092, 1.19153, 1.19463, 1.19655, 1.20252, 1.20404, 1.2113, 1.21364, 1.21548, 1.21659, 1.25044, 1.22921, 1.23339, 1.23761, 1.23904, 1.23961, 1.23996, 1.23986, 1.23556, 1.23129, 1.22941, 1.53854, 1.22389, 1.22546, 1.21928, 1.21589, 1.21974, 1.22085, 1.22046, 1.22075, 1.22013, 1.22343, 1.22699, 1.22694, 1.22995, 1.229, 1.23287, 1.23392, 1.23652, 1.23818, 1.23788, 1.23917, 1.23907, 1.23807, 1.24495, 1.24666, 1.25091, 1.25699, 1.26093, 1.27191, 1.27739, 1.28159, 1.28461, 1.28563, 1.28777, 1.28939, 1.29034, 1.29089, 1.29626, 1.30313, 1.30719, 1.30907, 1.31129, 1.31207, 1.31424, 1.31994, 1.32495, 1.32569, 1.32304, 1.326, 1.32846, 1.33015, 1.33305, 1.33419, 1.34782, 1.34595, 1.34752, 1.35152, 1.35516, 1.35641, 1.35963, 1.35894, 1.35986, 1.36797, 1.37365, 1.3755, 1.3753, 1.37246, 1.38243, 1.39014, 1.39879, 1.60162, 1.4158, 1.42535, 1.43859, 1.43777, 1.44317, 1.44757, 1.45503, 1.45725, 1.45796, 1.46812, 1.48022, 1.47969, 1.4811, 1.47773, 1.47749, 1.47893, 1.48224, 1.48484, 1.48995, 1.49151, 1.49896, 1.49722, 1.50252, 1.50201, 1.5027, 1.50495, 1.50133, 1.49844, 1.49656, 1.50849, 1.50662, 1.51146, 1.50938, 1.51197, 1.50395, 1.50691, 1.5065, 1.50645, 1.50556, 1.50577, 1.5054, 1.50604, 1.50562, 1.50537, 1.51217, 1.51117, 1.51961, 1.52895, 1.53118, 1.53122
0.596629, 0.00404935, 0.89123, 0.873526, 1.01075, 0.646229, 0.648703, 0.649511, 0.646606, 0.643596, 0.641611, 0.633433, 0.634674, 0.625708, 0.621978, 0.624577, 0.624191, 0.624141, 0.623015, 0.625769, 0.631515, 0.629505, 0.627926, 0.622587, 0.615014, 0.60852, 0.609019, 0.601983, 0.601985, 0.599721, 0.597, 0.596625, 0.592384, 0.596075, 0.596885, 0.597236, 0.596884, 0.596937, 0.596995, 0.597362, 0.594481, 0.603635, 0.604026, 0.602542, 0.611814, 0.613843, 0.61575, 0.617303, 0.626532, 0.628837, 0.631497, 0.633611, 0.638391, 0.636517, 0.641853, 0.648303, 0.649948, 0.657529, 0.667418, 0.672044, 0.686432, 0.684676, 0.691824, 0.693153, 0.7029, 0.710486, 0.712472, 0.725472, 0.726562, 0.728321, 0.735638, 0.737371, 0.7393, 0.743777, 0.746952, 0.745911, 0.754662, 0.762669, 0.76316, 0.769909, 1.27167, 0.796533, 0.797924, 0.800717, 0.804105, 0.813338, 0.815613, 0.819198, 0.823636, 0.824722, 1.0856, 0.845855, 0.849158, 0.854618, 0.856658, 0.858557, 0.86333, 0.864366, 0.880285, 0.8803, 1.20885, 0.908374, 0.91175, 0.914536, 1.24274, 0.940591, 0.943052, 0.987678, 0.974019, 0.976821, 0.977831, 0.980447, 0.980578, 0.979337, 0.984769, 0.987484, 0.994191, 1.00451, 1.3906, 1.388, 1.38336, 1.0438, 1.04818, 1.05384, 1.38082, 1.37895, 1.36936, 1.37533, 1.39827, 1.13294, 1.13922, 1.14088, 1.14595, 1.14844, 1.15168, 1.15731, 1.16413, 1.16809, 1.17246, 1.17113, 1.17223, 1.17162, 1.17179, 1.16693, 1.16586, 1.16833, 1.16958, 1.16707, 1.16705, 1.16659, 1.16805, 1.17256, 1.17665, 1.18148, 1.18564, 1.1912, 1.18171, 1.1828, 1.18316, 1.18537, 1.18848, 1.19547, 1.1957, 1.19894, 1.20438, 1.20881, 1.21195, 1.21247, 1.21657, 1.21892, 1.25538, 1.23254, 1.23063, 1.22912, 1.2245, 1.22603, 1.23055, 1.21632, 1.21664, 1.21746, 1.21244, 1.21189, 1.21129, 1.21251, 1.21201, 1.21336, 1.21299, 1.21352, 1.21417, 1.21855, 1.21961, 1.21953, 1.22068, 1.22665, 1.22727, 1.22931, 1.2337, 1.23357, 1.2324, 1.23554, 1.2329, 1.23937, 1.24036, 1.24427, 1.44102, 1.25331, 1.25663, 1.268, 1.27165, 1.27483, 1.27608, 1.28329, 1.28267, 1.28434, 1.28833, 1.28813, 1.29224, 1.30174, 1.30067, 1.30409, 1.30886, 1.31263, 1.31965, 1.32059, 1.32099, 1.31948, 1.3207, 1.32587, 1.32594, 1.32906, 1.33026, 1.3346, 1.33828, 1.34343, 1.34473, 1.34995, 1.35002, 1.35217, 1.3555, 1.35876, 1.36352, 1.36642, 1.37166, 1.37314, 1.37549, 1.38139, 1.38422, 1.52124, 1.68474, 1.41521, 1.42339, 1.43743, 1.43544, 1.43474, 1.43611, 1.45039, 1.45732, 1.45838, 1.46121, 1.47274, 1.4799, 1.47985, 1.47697, 1.47593, 1.48053, 1.4794, 1.48253, 1.48602, 1.49172, 1.49178, 1.49404, 1.50144, 1.50591, 1.50648, 1.50264, 1.49681, 1.49516, 1.49543, 1.49759, 1.51264, 1.51217, 1.50923, 1.50243, 1.49992, 1.50281, 1.50139, 1.4981, 1.50379, 1.50554, 1.50297, 1.50289, 1.5007, 1.50486, 1.50419, 1.50934, 1.50985, 1.51737, 1.51869, 1.51558, 1.52499
0.828092, 0.829222, 0.828848, 0.898544, 0.64368, 0.644367, 0.645341, 0.646792, 0.64387, 0.637933, 0.637319, 0.634344, 0.625993, 0.622131, 0.620127, 0.620055, 0.620252, 0.62166, 0.623223, 0.625138, 0.623351, 0.623258, 0.617569, 0.616007, 0.607232, 0.605899, 0.593871, 0.597069, 0.591993, 0.589795, 0.591095, 0.588842, 0.588984, 0.58873, 0.590601, 0.591327, 0.591761, 0.588046, 0.589162, 0.584214, 0.596757, 0.598709, 0.599478, 0.600532, 0.601718, 0.610903, 0.605217, 0.610316, 0.61567, 0.622953, 0.62812, 0.630415, 0.632171, 0.634798, 0.637043, 0.638695, 0.655582, 0.659274, 0.661228, 0.664083, 0.673338, 1.27036, 0.688173, 0.694451, 0.695391, 0.708737, 0.712081, 0.724462, 0.726245, 0.733386, 0.733671, 0.737979, 0.739808, 0.742174, 0.742744, 0.75162, 0.752891, 0.760325, 0.767837, 0.780039, 0.782365, 0.793273, 0.794308, 0.797072, 0.800194, 0.923483, 0.812814, 0.817633, 0.819684, 0.826418, 0.826885, 0.837098, 0.840857, 0.842852, 0.853175, 0.857201, 0.860582, 1.22393, 1.2323, 0.88506, 1.34801, 0.903298, 0.906081, 0.915953, 0.932182, 0.933724, 0.935205, 0.957854, 0.964826, 0.968088, 0.967351, 0.969533, 0.973452, 0.97703, 0.981908, 0.987616, 0.997091, 0.985098, 1.00908, 1.01925, 1.02057, 1.21923, 1.13386, 1.07767, 1.09288, 1.37909, 1.37843, 1.40917, 1.41369, 1.12635, 1.1325, 1.13648, 1.14171, 1.14522, 1.15286, 1.15495, 1.15989, 1.16363, 1.16449, 1.16731, 1.1669, 1.16502, 1.16551, 1.1616, 1.15687, 1.15935, 1.15963, 1.16122, 1.16214, 1.1632, 1.16323, 1.1686, 1.16987, 1.1716, 1.17683, 1.17778, 1.17798, 1.18011, 1.17826, 1.18069, 1.181, 1.18433, 1.18939, 1.19884, 1.20368, 1.20531, 1.21288, 1.21188, 1.2174, 1.21746, 1.22285, 1.22327, 1.22309, 1.2095, 1.22002, 1.21934, 1.20862, 1.20329, 1.20447, 1.20231, 1.20252, 1.2025, 1.20457, 1.20622, 1.20383, 1.20449, 1.20288, 1.20373, 1.20372, 1.20975, 1.21113, 1.21366, 1.21532, 1.21699, 1.22135, 1.21961, 1.22541, 1.22593, 1.23012, 1.23413, 1.23492, 1.23623, 1.2387, 1.23965, 1.24296, 1.25022, 1.25525, 1.26054, 1.26528, 1.26802, 1.2732, 1.27343, 1.27618, 1.28117, 1.28743, 1.2921, 1.29487, 1.2956, 1.29892, 1.30153, 1.30477, 1.30704, 1.31626, 1.32113, 1.31807, 1.318, 1.31937, 1.31996, 1.32212, 1.32509, 1.32925, 1.33144, 1.33404, 1.33742, 1.33805, 1.34194, 1.34652, 1.3472, 1.35019, 1.36005, 1.35961, 1.37112, 1.37048, 1.37287, 1.37444, 1.37809, 1.4021, 1.40475, 1.40502, 1.42362, 1.42869, 1.43, 1.43788, 1.43759, 1.43772, 1.44214, 1.45384, 1.458, 1.46729, 1.47578, 1.48709, 1.48643, 1.48352, 1.48223, 1.48326, 1.48611, 1.48834, 1.49822, 1.49735, 1.49808, 1.49326, 1.5565, 1.50551, 1.55015, 1.48613, 1.49547, 1.48792, 1.48722, 1.49962, 1.50497, 1.50303, 1.49904, 1.49615, 1.4969, 1.48924, 1.49165, 1.4933, 1.49139, 1.49343, 1.49369, 1.49261, 1.49269, 1.49704, 1.50216, 1.50628, 1.50572, 1.51451, 1.51446, 1.51713, 1.51362
0.59537, 0.880392, 0.747527, 0.640356, 0.642419, 0.643116, 0.643721, 0.64435, 0.635216, 0.633825, 0.632019, 0.623564, 0.619189, 0.617691, 0.615674, 0.615661, 0.613586, 0.618848, 0.619754, 0.621418, 0.621421, 0.621112, 0.610912, 0.609173, 0.607575, 0.591482, 0.585119, 0.584692, 0.58794, 0.585904, 0.584419, 0.583979, 0.583291, 0.580002, 0.582263, 0.583309, 0.580695, 0.581098, 0.581152, 0.584378, 0.59015, 0.591314, 0.592014, 0.592344, 0.596964, 0.600727, 0.602508, 0.610464, 0.612082, 0.61556, 0.622845, 0.62849, 0.624936, 0.632454, 0.632647, 0.638519, 0.640598, 0.645394, 0.659676, 0.664842, 0.664425, 1.14977, 0.685167, 0.683079, 0.682155, 0.700655, 0.700793, 0.707976, 0.726089, 0.729296, 0.735836, 0.737164, 0.738239, 0.740304, 0.742846, 0.75461, 0.757831, 0.781028, 0.770973, 0.785363, 0.787193, 0.78933, 0.793589, 0.794582, 0.795758, 0.799457, 0.800582, 0.809751, 0.812274, 0.817735, 0.821825, 0.821871, 0.830958, 0.847028, 0.852811, 0.85548, 0.858774, 1.15131, 0.874863, 0.876768, 0.885513, 0.898594, 0.902215, 0.912573, 1.19663, 0.00402646, 0.974409, 0.955752, 0.955909, 0.955788, 1.38983, 0.963886, 0.96449, 1.39499, 0.982379, 0.982865, 0.991128, 0.994394, 0.98689, 0.987573, 1.027, 1.3669, 1.34372, 1.06829, 1.07865, 1.08173, 1.09068, 1.09217, 1.15459, 1.12362, 1.13064, 1.17208, 1.14117, 1.14361, 1.14631, 1.14785, 1.15413, 1.15835, 1.16001, 1.16015, 1.15949, 1.15497, 1.39904, 1.14935, 1.16186, 1.16392, 1.1776, 1.14943, 1.15038, 1.3722, 1.41724, 1.31582, 1.16422, 1.1698, 1.16921, 1.17189, 1.17156, 1.17395, 1.17432, 1.17369, 1.17669, 1.1787, 1.18145, 1.19141, 1.19571, 1.19891, 1.20331, 1.5379, 1.21123, 1.21423, 1.21398, 1.2173, 1.21498, 1.21248, 1.20816, 1.20942, 1.19189, 1.19288, 1.19205, 1.19151, 1.19432, 1.19727, 1.19933, 1.1971, 1.19746, 1.19761, 1.19805, 1.20051, 1.20156, 1.2023, 1.20477, 1.20649, 1.20938, 1.20894, 1.21102, 1.21533, 1.21435, 1.21788, 1.22275, 1.23055, 1.23273, 1.23129, 1.23586, 1.23694, 1.24417, 1.24702, 1.24894, 1.25679, 1.25636, 1.2605, 1.2654, 1.26772, 1.2741, 1.27671, 1.28203, 1.28914, 1.28974, 1.29357, 1.29599, 1.29581, 1.29883, 1.30299, 1.31621, 1.32025, 1.31624, 1.31518, 1.31512, 1.31742, 1.31878, 1.32694, 1.32778, 1.3299, 1.51443, 1.33099, 1.33173, 1.33731, 1.34118, 1.34418, 1.34838, 1.35132, 1.35854, 1.37281, 1.36844, 1.37139, 1.37845, 1.41022, 1.39706, 1.39615, 1.41658, 1.41861, 1.42641, 1.43087, 1.43737, 1.44634, 1.44556, 1.45313, 1.45677, 1.46003, 1.46792, 1.47863, 1.47975, 1.48118, 1.48273, 1.48311, 1.484, 1.50601, 1.50306, 1.50629, 1.51015, 1.50487, 1.56104, 1.5609, 1.49101, 1.4898, 1.48583, 1.48719, 1.48858, 1.50043, 1.49628, 1.50184, 1.49998, 1.4866, 1.48668, 1.4886, 1.48637, 1.48678, 1.48897, 1.48815, 1.48379, 1.48593, 1.48874, 1.48849, 1.49202, 1.49781, 1.49846, 1.50306, 1.51021, 1.51055, 1.51063, 1.51092
0.0037467, 0.632723, 0.635643, 0.636986, 0.638851, 0.64129, 0.641441, 0.636757, 0.63598, 0.629832, 0.631004, 0.620914, 0.618227, 0.615252, 0.611726, 0.606841, 0.608537, 0.609095, 0.614276, 0.616123, 0.616369, 0.616572, 0.610547, 0.592898, 0.58735, 0.586028, 0.584938, 0.585032, 0.580508, 0.577032, 0.580273, 0.580273, 0.576469, 0.577734, 0.577336, 0.578126, 0.578601, 0.57915, 0.576477, 0.579096, 0.580684, 0.588169, 0.590006, 0.590452, 0.591306, 0.592525, 0.59443, 0.597834, 0.599336, 0.609964, 0.60955, 0.618695, 0.621615, 0.62311, 0.637806, 0.640677, 0.644437, 0.644242, 0.644808, 0.655424, 0.655545, 1.16419, 0.671923, 0.686699, 0.690323, 0.691343, 0.69868, 1.03773, 0.717435, 0.726154, 0.73153, 0.730894, 0.731276, 0.73924, 0.740137, 0.75071, 0.753693, 0.756171, 0.783774, 0.784272, 0.78463, 0.785188, 0.789929, 0.791628, 0.794811, 0.797445, 0.804067, 0.80492, 0.805754, 0.816731, 0.819472, 0.822922, 0.827225, 0.834247, 0.843406, 0.846716, 0.846578, 0.885289, 0.873415, 0.876423, 0.888623, 0.894943, 0.901346, 1.2332, 1.23458, 0.933994, 0.94068, 0.942587, 0.95053, 0.950689, 0.953821, 0.96093, 0.962896, 0.966884, 0.971428, 0.98182, 0.985351, 1.50057, 1.02468, 1.44634, 1.19984, 1.04582, 1.04979, 1.06506, 1.06848, 1.0763, 1.07765, 1.42653, 1.51832, 1.12011, 1.12804, 1.13019, 1.13516, 1.13737, 1.14234, 1.14463, 1.14901, 1.15054, 1.15267, 1.15301, 1.14756, 1.14676, 1.39942, 1.13958, 1.13667, 1.13701, 1.13551, 1.1374, 1.13929, 1.13986, 1.14369, 1.15017, 1.15351, 1.16407, 1.16733, 1.16798, 1.17029, 1.17097, 1.17207, 1.17097, 1.17411, 1.17649, 1.18052, 1.1838, 1.19095, 1.19228, 1.19215, 1.19573, 1.20219, 1.20477, 1.20104, 1.19919, 1.23267, 1.19782, 1.18568, 1.19017, 1.19167, 1.18404, 1.18609, 1.18554, 1.18863, 1.19038, 1.18986, 1.19072, 1.1918, 1.19194, 1.19206, 1.1954, 1.19938, 1.19985, 1.19798, 1.20072, 1.20284, 1.20477, 1.20511, 1.20648, 1.20978, 1.21189, 1.21344, 1.21618, 1.22272, 1.22406, 1.22667, 1.22347, 1.23156, 1.23229, 1.23744, 1.26938, 1.25295, 1.25619, 1.25765, 1.26764, 1.26844, 1.27149, 1.27399, 1.62915, 1.28579, 1.28948, 1.29262, 1.29353, 1.29479, 1.30648, 1.31092, 1.31444, 1.3119, 1.31133, 1.30751, 1.30944, 1.31981, 1.3238, 1.32726, 1.32428, 1.32208, 1.32963, 1.32903, 1.33709, 1.33967, 1.61945, 1.35168, 1.35758, 1.36367, 1.3708, 1.37307, 1.37419, 1.37912, 1.39793, 1.40012, 1.41203, 1.41642, 1.42697, 1.42884, 1.43229, 1.4364, 1.44863, 1.44822, 1.45726, 1.46609, 1.46685, 1.46894, 1.47791, 1.48307, 1.48191, 1.49049, 1.49556, 1.50199, 1.51671, 1.5156, 1.51535, 1.51637, 1.50515, 1.50151, 1.49027, 1.48893, 1.52867, 1.52877, 1.48863, 1.4892, 1.49854, 1.49585, 1.48457, 1.48105, 1.48071, 1.48185, 1.4821, 1.48469, 1.48697, 1.48912, 1.48464, 1.48154, 1.48638, 1.48601, 1.48552, 1.49608, 1.49572, 1.50265, 1.50482, 1.50872, 1.51246, 1.512, 1.51393
0.631028, 0.633761, 0.63529, 0.636133, 0.636069, 0.637519, 0.634305, 0.634186, 0.633259, 0.626091, 0.620619, 0.614477, 0.614024, 0.608531, 0.604377, 0.603978, 0.604225, 0.604932, 0.610226, 0.611993, 0.61366, 0.614672, 0.608407, 0.582999, 0.582013, 0.584623, 0.57962, 0.577868, 0.570421, 0.56652, 0.566805, 0.566115, 0.562883, 0.563506, 0.563604, 0.576477, 0.573446, 0.574872, 0.576607, 0.576536, 0.577544, 0.585056, 0.585549, 0.589531, 0.590568, 0.592935, 0.593351, 0.595373, 0.597263, 0.603219, 0.604243, 0.60866, 0.611516, 0.618802, 0.622451, 0.632962, 0.638549, 0.643329, 0.650717, 0.652412, 0.653899, 0.668676, 0.671429, 0.678475, 1.03373, 0.689782, 0.690696, 1.02589, 0.721962, 0.723414, 0.723781, 0.727214, 0.728672, 0.729965, 0.738331, 0.741443, 0.745609, 0.00424418, 0.881063, 0.773699, 0.77673, 0.778408, 0.786451, 0.787845, 0.791178, 0.793355, 0.804719, 0.808424, 0.81083, 0.813376, 0.817095, 0.817986, 0.829195, 0.831512, 0.835573, 0.845648, 1.19558, 1.3641, 1.18683, 0.0039639, 0.968385, 1.03184, 0.900369, 0.900853, 1.365, 0.927058, 0.928965, 0.932517, 0.935175, 0.937001, 1.24248, 0.960149, 0.966624, 0.968282, 0.97406, 1.3059, 0.990762, 0.995673, 1.36345, 1.04165, 1.11246, 0.00415815, 1.05292, 1.43347, 1.10203, 1.16188, 1.4394, 1.13342, 1.11394, 1.1189, 1.12292, 1.12693, 1.1286, 1.13268, 1.13324, 1.37853, 1.13967, 1.1415, 1.14612, 1.14396, 1.14217, 1.16971, 1.1334, 1.13183, 1.12985, 1.12702, 1.12753, 1.12863, 1.12945, 1.13066, 1.13385, 1.13579, 1.31529, 1.32465, 1.15775, 1.16229, 1.16476, 1.16748, 1.17073, 1.1723, 1.17433, 1.17668, 1.17724, 1.18105, 1.18665, 1.18608, 1.18865, 1.19335, 1.19542, 1.19581, 1.18904, 1.18977, 1.1898, 1.19187, 1.18658, 1.184, 1.18314, 1.17897, 1.1787, 1.17809, 1.18083, 1.18405, 1.18375, 1.18577, 1.1873, 1.18657, 1.19071, 1.19119, 1.19201, 1.19448, 1.19372, 1.19288, 1.19542, 1.19818, 1.19967, 1.19916, 1.20135, 1.20155, 1.20677, 1.20841, 1.21308, 1.21442, 1.21731, 1.22164, 1.22118, 1.2257, 1.23132, 1.24025, 1.24537, 1.25431, 1.25694, 1.26278, 1.2636, 1.26743, 1.27094, 1.27068, 1.27241, 1.28069, 1.28223, 1.28762, 1.28965, 1.29151, 1.30533, 1.30535, 1.30859, 1.30381, 1.30681, 1.3092, 1.31523, 1.32004, 1.3229, 1.32711, 1.32678, 1.33116, 1.33623, 1.33793, 1.34132, 1.34716, 1.36252, 1.36164, 1.36548, 1.36724, 1.37243, 1.38096, 1.38576, 1.42249, 1.43045, 1.44755, 1.42055, 1.42818, 1.42935, 1.43456, 1.44752, 1.44711, 1.46117, 1.45956, 1.46517, 1.46767, 1.46951, 1.49033, 1.48896, 1.49255, 1.50222, 1.5073, 1.50577, 1.50844, 1.518, 1.52006, 1.51915, 1.51308, 1.50941, 1.50362, 1.50657, 1.50567, 1.49261, 1.48956, 1.49289, 1.49216, 1.48909, 1.48006, 1.48125, 1.47826, 1.47927, 1.48283, 1.48121, 1.48126, 1.48237, 1.48193, 1.48504, 1.48743, 1.48769, 1.48624, 1.48843, 1.49884, 1.50694, 1.50745, 1.50769, 1.50587, 1.50641, 1.51109
0.663618, 0.663776, 0.631505, 0.632183, 0.631694, 0.630638, 0.63108, 0.627944, 0.625182, 0.619556, 0.612331, 0.603753, 0.603566, 0.599311, 0.59747, 0.600316, 0.60059, 0.600682, 0.601732, 0.607941, 0.608158, 0.602322, 0.593135, 0.59005, 0.581514, 0.58158, 0.571231, 0.56877, 0.564463, 0.563654, 0.561167, 0.559274, 0.560128, 0.561237, 0.557413, 0.566061, 0.568072, 0.568993, 0.569749, 0.573346, 0.57452, 0.576026, 0.586559, 0.589656, 0.590719, 0.591748, 0.592931, 0.594078, 0.597403, 0.599086, 0.600898, 0.605056, 0.608081, 0.613982, 0.6248, 0.628962, 0.630493, 0.634393, 0.64351, 0.643138, 0.655973, 0.657652, 0.663613, 0.925958, 0.680818, 0.684188, 0.999206, 1.00789, 0.00366548, 0.721548, 0.724483, 0.725548, 0.726854, 0.727273, 0.731935, 0.7319, 0.00409545, 0.746977, 0.747373, 0.75508, 1.54417, 1.0363, 0.773832, 0.782964, 0.789361, 0.789825, 0.790714, 0.803642, 0.807452, 0.809875, 0.811662, 0.817974, 0.824621, 0.825662, 0.833045, 0.83548, 0.838943, 1.36498, 0.859674, 0.861451, 0.00381902, 1.18556, 1.19675, 1.2324, 0.90608, 0.916862, 0.918233, 0.920063, 0.926639, 0.929365, 1.5717, 1.35549, 1.41263, 0.968046, 0.976904, 0.996897, 1.07743, 1.03611, 1.02235, 1.10912, 0.00372357, 1.0714, 1.18176, 1.43272, 0.00367221, 1.16011, 1.09743, 1.13339, 1.11231, 1.11578, 1.11702, 1.12092, 1.12062, 1.12143, 1.12393, 1.12758, 1.1275, 1.12967, 1.1265, 1.12709, 1.12684, 1.12696, 1.12304, 1.12254, 1.12047, 1.11991, 1.11799, 1.11905, 1.12361, 1.12514, 1.12737, 1.12958, 1.13377, 1.39038, 1.3826, 1.38458, 1.16368, 1.166, 1.17083, 1.17082, 1.17164, 1.17139, 1.17379, 1.17469, 1.17692, 1.18163, 1.18672, 1.18677, 1.18637, 1.18547, 1.18423, 1.1825, 1.184, 1.18644, 1.18355, 1.18058, 1.17283, 1.17244, 1.17179, 1.17544, 1.17808, 1.17782, 1.17962, 1.1849, 1.18409, 1.18509, 1.18822, 1.18515, 1.18875, 1.19109, 1.18989, 1.1912, 1.19196, 1.19263, 1.19026, 1.19207, 1.19278, 1.19388, 1.19341, 1.19959, 1.20162, 1.20516, 1.20667, 1.20873, 1.21633, 1.21908, 1.2253, 1.26779, 1.27153, 1.24263, 1.25566, 1.25679, 1.25717, 1.48187, 1.61408, 1.26712, 1.26819, 1.2702, 1.27402, 1.27895, 1.28038, 1.47435, 1.29272, 1.29781, 1.29731, 1.30191, 1.30403, 1.30768, 1.31727, 1.32311, 1.32264, 1.32726, 1.33513, 1.33801, 1.35026, 1.34913, 1.35381, 1.34982, 1.36085, 1.35921, 1.36384, 1.37834, 1.37785, 1.3794, 1.39227, 1.39852, 1.4065, 1.41847, 1.43065, 1.43595, 1.43399, 1.44099, 1.44833, 1.45529, 1.46613, 1.46528, 1.46714, 1.47153, 1.48128, 1.52766, 1.49577, 1.49912, 1.50034, 1.50705, 1.50647, 1.50836, 1.50651, 1.50937, 1.50913, 1.50682, 1.50303, 1.50031, 1.4992, 1.49542, 1.48772, 1.4864, 1.4854, 1.48493, 1.48797, 1.48001, 1.47781, 1.47453, 1.48529, 1.48506, 1.48604, 1.48602, 1.484, 1.48366, 1.48889, 1.48676, 1.4909, 1.48897, 1.49813, 1.50043, 1.50801, 1.51243, 1.50871, 1.50877, 1.5092, 1.50872
0.617632, 0.604499, 0.622804, 0.624892, 0.626301, 0.622733, 0.624437, 0.619486, 0.617932, 1.09916, 1.07168, 0.598204, 0.595439, 0.594221, 0.597062, 0.595158, 0.596801, 0.595802, 0.600651, 0.602378, 0.597853, 0.59745, 0.58984, 0.581417, 0.570303, 0.569289, 0.565465, 0.565066, 0.556048, 0.55417, 0.555876, 0.554353, 0.553017, 0.554307, 0.557185, 0.557581, 0.560547, 0.561538, 0.560764, 0.56683, 0.566529, 0.576296, 0.583708, 0.584563, 0.587446, 0.589622, 0.590786, 0.5926, 0.594649, 0.595193, 0.594549, 0.607504, 0.608572, 0.608543, 0.60976, 0.617702, 0.625638, 1.22292, 0.642806, 0.643895, 0.655709, 0.657309, 0.658519, 0.658596, 0.67706, 0.677662, 1.36435, 0.693179, 0.694771, 0.695853, 0.714906, 0.717751, 0.724306, 0.724391, 0.725654, 0.728668, 0.731812, 0.732471, 0.743975, 0.745281, 0.754078, 1.48966, 1.07755, 0.776661, 0.777206, 0.788323, 0.792016, 0.793592, 0.797364, 0.802015, 0.806091, 0.812117, 0.819303, 0.825979, 0.826647, 0.827309, 0.840064, 0.839952, 1.08805, 1.03436, 1.21538, 0.873937, 0.892039, 0.898465, 0.905415, 0.906788, 0.908004, 0.90887, 1.01822, 0.927899, 0.94767, 1.21568, 0.943233, 1.01324, 0.964207, 1.34313, 1.17587, 0.991328, 1.16504, 1.05347, 1.31868, 1.03302, 1.16944, 1.27844, 0.00348095, 1.51476, 1.48095, 1.10076, 1.10584, 1.10723, 1.10981, 1.11328, 1.11544, 1.11658, 1.11686, 1.11646, 1.11655, 1.14457, 1.11441, 1.11484, 1.11502, 1.11623, 1.11597, 1.11321, 1.11472, 1.11349, 1.11559, 1.30164, 1.40578, 1.12218, 1.12415, 1.12563, 1.13093, 1.4325, 1.1476, 1.15085, 1.23714, 1.16464, 1.16638, 1.16842, 1.1669, 1.1701, 1.16864, 1.16999, 1.17117, 1.17418, 1.17579, 1.17965, 1.1745, 1.17486, 1.17873, 1.17569, 1.17808, 1.1797, 1.17701, 1.16911, 1.16654, 1.17151, 1.16974, 1.17172, 1.174, 1.17359, 1.17521, 1.17694, 1.17944, 1.18293, 1.18264, 1.17863, 1.18074, 1.18401, 1.18172, 1.18519, 1.1871, 1.18718, 1.18884, 1.18488, 1.18822, 1.18829, 1.18823, 1.16377, 1.17256, 1.2019, 1.20514, 1.21066, 1.21546, 1.21741, 1.22164, 1.22414, 1.22657, 1.23305, 1.24565, 1.24687, 1.24765, 1.24763, 1.24819, 1.25408, 1.25812, 1.29898, 1.29849, 1.26883, 1.27122, 1.27513, 1.48594, 1.49863, 1.29767, 1.29952, 1.30234, 1.30755, 1.30893, 1.31767, 1.32252, 1.32573, 1.32899, 1.33118, 1.34377, 1.34734, 1.35364, 1.35502, 1.35783, 1.36108, 1.36145, 1.37212, 1.37698, 1.39598, 1.39572, 1.40021, 1.41286, 1.41405, 1.42744, 1.42791, 1.43384, 1.44032, 1.44992, 1.45801, 1.45787, 1.46316, 1.47222, 1.47437, 1.48861, 1.4876, 1.4992, 1.4961, 1.49925, 1.49893, 1.49699, 1.4959, 1.49546, 1.50227, 1.50167, 1.49646, 1.4953, 1.49334, 1.48936, 1.48714, 1.4856, 1.48866, 1.4916, 1.48822, 1.4841, 1.47928, 1.47571, 1.47543, 1.47847, 1.48639, 1.48613, 1.48561, 1.48513, 1.48576, 1.48841, 1.48931, 1.48543, 1.49244, 1.49825, 1.49692, 1.50118, 1.50574, 1.50399, 1.50239, 1.50879, 1.5113
0.610915, 0.613133, 0.613308, 0.617831, 0.619983, 0.616793, 0.616016, 0.607753, 0.607954, 0.59809, 0.593391, 0.59287, 0.590107, 0.587871, 0.58779, 0.587226, 0.589784, 0.591949, 0.590167, 0.593638, 0.593136, 0.58336, 0.583408, 0.579347, 0.569137, 0.56903, 0.562301, 0.555386, 0.554745, 0.554455, 0.552502, 0.552327, 0.550713, 0.551771, 0.555356, 0.557088, 0.556067, 0.558408, 0.561122, 0.56211, 0.562525, 0.563111, 0.57145, 0.579582, 0.580885, 0.582652, 0.582982, 0.588202, 0.588347, 0.589911, 0.59158, 0.602289, 0.603756, 0.60911, 0.613173, 0.612847, 0.616597, 0.618865, 0.634513, 0.636617, 0.637447, 0.649678, 0.00389958, 0.658321, 0.661024, 1.4974, 1.49628, 1.49739, 1.49845, 1.56233, 1.56421, 0.70784, 0.704921, 0.713491, 0.715282, 0.714768, 1.38911, 0.731975, 0.73425, 0.742957, 0.747096, 0.747865, 0.767092, 0.773648, 0.776163, 0.778152, 0.778687, 0.790847, 0.794265, 0.795666, 0.798076, 0.89633, 0.816565, 0.822957, 0.82641, 0.836107, 0.838092, 0.839805, 0.842272, 0.856396, 0.871357, 0.873641, 0.886864, 0.889232, 1.03264, 0.902807, 0.907156, 0.909182, 0.915418, 0.922024, 0.960466, 0.935859, 0.943587, 0.953228, 0.954413, 1.24281, 0.00386597, 1.07124, 1.00039, 1.00836, 1.00963, 1.05074, 1.28384, 1.06786, 1.07507, 1.07146, 1.08547, 1.08645, 1.08793, 1.09459, 1.10257, 1.1035, 1.10615, 1.10879, 1.10926, 1.11185, 1.11211, 1.10703, 1.10618, 1.1082, 1.10412, 1.10512, 1.10426, 1.10408, 1.10565, 1.10602, 1.11058, 1.11131, 1.11472, 1.11601, 1.11894, 1.12254, 1.1272, 1.1393, 1.14109, 1.14369, 1.14774, 1.23638, 1.15622, 1.16072, 1.16147, 1.15883, 1.16039, 1.16254, 1.16254, 1.16693, 1.53416, 1.34123, 1.16188, 1.16204, 1.16564, 1.16694, 1.16732, 1.16714, 1.16854, 1.17005, 1.16692, 1.16518, 1.16731, 1.16761, 1.17025, 1.17112, 1.17128, 1.17142, 1.17457, 1.17547, 1.17761, 1.17473, 1.17638, 1.17735, 1.17942, 1.18081, 1.18143, 1.18375, 1.18825, 1.1902, 1.18443, 1.18097, 1.18682, 1.19598, 1.19965, 1.2018, 1.20608, 1.21186, 1.21544, 1.62926, 1.62979, 1.22185, 1.22199, 1.40544, 1.23021, 1.23681, 1.23726, 1.23906, 1.24587, 1.24684, 1.24767, 1.25078, 1.25297, 1.38245, 1.31159, 1.27283, 1.28121, 1.28879, 1.29106, 1.29654, 1.29957, 1.30281, 1.30883, 1.31137, 1.81205, 1.3246, 1.32827, 1.32893, 1.3651, 1.34882, 1.35471, 1.35336, 1.35776, 1.35754, 1.50033, 1.42796, 1.38061, 1.38169, 1.40255, 1.40224, 1.40906, 1.41922, 1.42375, 1.43086, 1.43761, 1.54083, 1.4552, 1.45788, 1.46206, 1.47289, 1.47559, 1.48291, 1.48237, 1.49101, 1.49056, 1.49538, 1.49394, 1.4899, 1.48877, 1.4892, 1.49143, 1.49144, 1.49366, 1.49202, 1.48449, 1.48232, 1.48163, 1.48101, 1.47857, 1.48127, 1.48048, 1.48115, 1.47852, 1.47547, 1.47433, 1.47389, 1.48161, 1.48116, 1.48359, 1.48683, 1.48599, 1.48551, 1.48889, 1.48987, 1.48983, 1.49851, 1.49547, 1.50136, 1.50907, 1.50898, 1.50472, 1.50626, 1.5166, 1.51328
0.593391, 0.60757, 0.602072, 0.610111, 0.611121, 0.610371, 0.608184, 0.607962, 0.596536, 0.586408, 0.58715, 0.581475, 0.581398, 0.579696, 0.577055, 0.579249, 0.580441, 0.58726, 0.588931, 0.589516, 0.589083, 0.583632, 0.582858, 0.576539, 0.56848, 0.567311, 0.556881, 0.554097, 0.55339, 0.551536, 0.544554, 0.544866, 0.54446, 0.547088, 0.548529, 0.550686, 0.551102, 0.558969, 0.559578, 0.561357, 0.562398, 0.564012, 0.567044, 0.571381, 0.577242, 0.576197, 0.583549, 0.58296, 0.584458, 0.586017, 0.588488, 0.591607, 0.601849, 0.60785, 0.608669, 0.617363, 0.61654, 0.619386, 0.627699, 0.63718, 0.635535, 0.638969, 0.645788, 0.653407, 1.46372, 0.66302, 1.52037, 0.683818, 0.683915, 0.686882, 0.687379, 0.695041, 0.694043, 0.699159, 0.71022, 0.713652, 0.724406, 0.726329, 0.729558, 0.738897, 0.738669, 0.749504, 0.748742, 0.00403446, 0.774855, 0.77347, 0.7834, 0.78646, 0.788946, 0.793123, 0.798202, 0.807566, 0.812965, 0.908172, 1.21206, 0.00379962, 0.843891, 0.846403, 0.863976, 0.860508, 0.868806, 0.880352, 0.884767, 0.892277, 0.893111, 0.896264, 0.901746, 0.908678, 0.916282, 0.920595, 0.923898, 0.928354, 0.944471, 0.946316, 0.952281, 0.953211, 0.96487, 0.966338, 1.31204, 1.00662, 1.01396, 1.02327, 1.02644, 1.03774, 1.04502, 1.05368, 1.05795, 1.21581, 1.50428, 1.09001, 1.09205, 1.09661, 1.0994, 1.10195, 1.09979, 1.1023, 1.10296, 1.10207, 1.09908, 1.0988, 1.10187, 1.10099, 1.09698, 1.09993, 1.09972, 1.10217, 1.10357, 1.10585, 1.1087, 1.11225, 1.11595, 1.11956, 1.12315, 1.1282, 1.16054, 1.13788, 1.1405, 1.15008, 1.15035, 1.15359, 1.15672, 1.15332, 1.15223, 1.15688, 1.15706, 1.15444, 1.15343, 1.15419, 1.15774, 1.15683, 1.15578, 1.15763, 1.15755, 1.15724, 1.15651, 1.16121, 1.16082, 1.16164, 1.1624, 1.16518, 1.16244, 1.16525, 1.16478, 1.1647, 1.1636, 1.16399, 1.16836, 1.16813, 1.17103, 1.17475, 1.18073, 1.18092, 1.18361, 1.18527, 1.18634, 1.18654, 1.18554, 1.18619, 1.19264, 1.19275, 1.20025, 1.20009, 1.20499, 1.20961, 1.21138, 1.20866, 1.21048, 1.21404, 1.21935, 1.22362, 1.22546, 1.22807, 1.22987, 1.23438, 1.23397, 1.23623, 1.24247, 1.2488, 1.25118, 1.29631, 1.26669, 1.27421, 1.28163, 1.2831, 1.29177, 1.29247, 1.29514, 1.29612, 1.29996, 1.31713, 1.32215, 1.32242, 1.32643, 1.32977, 1.33112, 1.3362, 1.38944, 1.34957, 1.3544, 1.4528, 1.36484, 1.37019, 1.37152, 1.59333, 1.92794, 1.40488, 1.40472, 1.40599, 1.42166, 1.42102, 1.46151, 1.44427, 1.45025, 1.46159, 1.46495, 1.47611, 1.47864, 1.47952, 1.47706, 1.47382, 1.48937, 1.48108, 1.47824, 1.4847, 1.48277, 1.4886, 1.4877, 1.51659, 1.51174, 1.48822, 1.46863, 1.46927, 1.47254, 1.47497, 1.47128, 1.47334, 1.46982, 1.4682, 1.46902, 1.47276, 1.47544, 1.48155, 1.48029, 1.48093, 1.48735, 1.48735, 1.48498, 1.48579, 1.48646, 1.49059, 1.48919, 1.49981, 1.49907, 1.50114, 1.50541, 1.50709, 1.50505, 1.5072, 1.51606, 1.51706
0.591382, 0.596872, 0.602809, 0.602833, 0.605265, 0.606248, 0.604445, 0.601299, 0.591621, 0.5904, 0.570755, 0.576478, 0.573064, 0.56844, 0.572302, 0.573732, 0.575657, 0.585845, 0.587294, 0.58039, 0.580604, 0.581358, 0.579483, 0.568696, 0.569795, 0.556285, 0.555962, 0.552337, 0.543675, 0.543482, 0.544262, 0.543861, 0.542732, 0.545574, 0.546608, 0.54765, 0.547831, 0.552314, 0.552422, 0.556049, 0.557005, 0.562571, 0.564153, 0.569247, 0.569584, 0.571424, 0.578039, 0.580072, 0.578841, 0.580939, 0.583489, 0.587282, 0.593585, 0.600993, 0.602427, 0.616921, 0.617539, 0.617948, 0.618513, 0.629181, 0.629842, 0.639256, 0.642267, 0.648819, 0.649202, 1.46376, 0.658795, 0.659178, 0.680441, 0.681542, 0.680558, 0.687594, 0.688384, 0.691115, 0.988805, 0.713343, 0.714746, 0.722283, 0.73182, 0.726975, 0.730715, 0.733534, 0.756708, 0.757245, 0.758418, 0.760611, 0.776481, 0.787051, 0.790658, 0.793419, 0.792916, 1.15897, 0.808454, 0.814818, 0.821324, 0.829791, 0.838681, 0.843504, 0.848158, 0.866482, 0.86718, 0.876918, 0.888266, 0.890786, 0.891963, 0.892829, 0.904141, 0.905038, 0.909086, 0.911697, 0.922161, 1.31523, 0.939176, 0.940651, 1.3079, 1.31162, 1.31973, 1.29526, 1.29679, 1.0023, 1.00883, 1.2522, 1.02457, 1.02702, 1.04288, 1.04082, 1.04647, 1.26504, 1.19831, 1.39, 1.08534, 1.08819, 1.09149, 1.0938, 1.09307, 1.09436, 1.09201, 1.09059, 1.08806, 1.0906, 1.088, 1.08852, 1.08992, 1.09086, 1.09345, 1.35739, 1.50003, 1.10199, 1.10408, 1.11015, 1.11484, 1.11784, 1.11968, 1.12197, 1.12493, 1.13113, 1.13407, 1.13569, 1.13698, 1.29614, 1.29786, 1.1459, 1.14759, 1.14744, 1.15243, 1.15077, 1.15101, 1.15121, 1.15068, 1.14826, 1.14935, 1.14958, 1.14821, 1.14869, 1.1484, 1.15297, 1.15416, 1.15592, 1.15626, 1.15757, 1.15736, 1.15482, 1.15606, 1.15218, 1.15407, 1.15682, 1.15736, 1.16385, 1.16785, 1.17696, 1.17755, 1.18016, 1.18132, 1.1805, 1.18105, 1.17975, 1.18086, 1.1848, 1.19248, 1.19208, 1.19268, 1.19848, 1.20083, 1.20188, 1.2053, 1.20639, 1.20612, 1.21102, 1.21079, 1.21619, 1.21871, 1.22169, 1.22533, 1.22683, 1.23166, 1.23375, 1.24322, 1.24741, 1.24854, 1.2947, 1.27049, 1.27604, 1.27875, 1.27882, 1.28198, 1.28205, 1.28653, 1.28887, 1.46213, 1.30762, 1.31634, 1.32197, 1.3262, 1.3266, 1.33065, 1.33346, 1.33439, 1.33714, 1.34712, 1.35589, 1.35794, 1.36421, 1.3745, 1.94193, 1.66186, 1.39157, 0.00365292, 1.4001, 1.40498, 1.40662, 1.45211, 1.54135, 1.45065, 1.45731, 1.457, 1.47449, 1.4766, 1.47848, 1.47662, 1.48085, 1.52412, 1.47133, 1.47247, 1.47447, 1.7183, 1.47889, 1.47147, 1.51742, 1.45657, 1.45458, 1.45666, 1.459, 1.45909, 1.46415, 1.46731, 1.4671, 1.46464, 1.47147, 1.47132, 1.47226, 1.47332, 1.4743, 1.48205, 1.48344, 1.4855, 1.48512, 1.48376, 1.48345, 1.48477, 1.48879, 1.48919, 1.4981, 1.49623, 1.50007, 1.50465, 1.50607, 1.50687, 1.50862, 1.50822, 1.51661
0.591728, 0.597179, 0.601126, 0.60007, 0.602855, 0.601219, 0.596959, 1.36326, 1.34523, 0.00366035, 0.570132, 0.56527, 0.563138, 0.564043, 0.56597, 0.566786, 0.571136, 0.572482, 0.574802, 0.574318, 0.575069, 0.577411, 0.576167, 0.567476, 0.564746, 0.559556, 0.559298, 0.544667, 0.542906, 0.540084, 0.541951, 0.541281, 0.541248, 0.541818, 0.543361, 0.54554, 0.545351, 0.546629, 0.54838, 0.552227, 0.553908, 0.556101, 0.556418, 0.562443, 0.563401, 0.569943, 0.568824, 0.568771, 0.569969, 0.57014, 0.580573, 0.582586, 0.590976, 0.594178, 0.599849, 0.599273, 0.607181, 0.613753, 0.619213, 0.625344, 0.628982, 0.631785, 0.634897, 0.645931, 0.65571, 0.656794, 0.658928, 0.661597, 0.670607, 0.673545, 0.676591, 0.677547, 0.678321, 0.683575, 0.689897, 0.690385, 1.43674, 0.70955, 0.715818, 0.725287, 0.734333, 0.735405, 0.736054, 0.747223, 0.753946, 1.33273, 0.776218, 0.778367, 0.790334, 0.789286, 0.800937, 0.807478, 0.808447, 0.811337, 0.820132, 0.832344, 0.833821, 0.845888, 0.845337, 0.858852, 0.874986, 0.877773, 0.880568, 0.886428, 0.887347, 0.890319, 0.895393, 0.901997, 0.904042, 0.912556, 0.917989, 1.3079, 0.932598, 0.93572, 1.30624, 1.30531, 1.30386, 1.29903, 1.27385, 0.991806, 0.999175, 1.00693, 1.04356, 1.21708, 1.02928, 1.20206, 1.03606, 1.20052, 1.20435, 1.07175, 1.07379, 1.07732, 1.08308, 1.08492, 1.13224, 1.08344, 1.08419, 1.07737, 1.07755, 1.08108, 1.07576, 1.08105, 1.08253, 1.0828, 1.08343, 1.08614, 1.08938, 1.0929, 1.09704, 1.20129, 1.11141, 1.11337, 1.11676, 1.1222, 1.12221, 1.12145, 1.12631, 1.12727, 1.12909, 1.13591, 1.13436, 1.1342, 1.13771, 1.14163, 1.14172, 1.14113, 1.14321, 1.14567, 1.14524, 1.1422, 1.14615, 1.14523, 1.14264, 1.14368, 1.14397, 1.14594, 1.14838, 1.14934, 1.15118, 1.14838, 1.14615, 1.14004, 1.14422, 1.14573, 1.14836, 1.15022, 1.15217, 1.15509, 1.16384, 1.16635, 1.16946, 1.17369, 1.17395, 1.17462, 1.17748, 1.17971, 1.17922, 1.18895, 1.18883, 1.18842, 1.18953, 1.19249, 1.1949, 1.19617, 1.19937, 1.20277, 1.20382, 1.20576, 1.20875, 1.21001, 1.21352, 1.2184, 1.22159, 1.22942, 1.23256, 1.23262, 1.24034, 1.2433, 1.26304, 1.26829, 1.26732, 1.27697, 1.27636, 1.28202, 1.27719, 1.28748, 1.28603, 1.28707, 1.29495, 1.3139, 1.31329, 1.31678, 1.3264, 1.32601, 1.32727, 1.32957, 1.33013, 1.33793, 1.34034, 1.35041, 1.35465, 1.36164, 1.38612, 1.39448, 1.38121, 1.75487, 1.85515, 1.4335, 1.45958, 1.69068, 1.48026, 1.77228, 1.46593, 1.4749, 1.44873, 1.53761, 1.46473, 1.46548, 1.45878, 1.45829, 1.49216, 1.45456, 1.45895, 1.46023, 1.46076, 1.50954, 1.45816, 1.45157, 1.45078, 1.45094, 1.44822, 1.44779, 1.45107, 1.45554, 1.46553, 1.46438, 1.46862, 1.46747, 1.47466, 1.47554, 1.47652, 1.47676, 1.47854, 1.47672, 1.47834, 1.481, 1.4787, 1.48206, 1.48562, 1.48452, 1.48885, 1.5, 1.49826, 1.49755, 1.50547, 1.50076, 1.50057, 1.50604, 1.51226, 1.51236
0.590484, 0.595234, 0.596662, 0.598805, 0.597631, 0.597131, 0.00378079, 0.826538, 0.566408, 0.564595, 0.565572, 0.555691, 0.556558, 0.557723, 0.558713, 0.561712, 0.563231, 0.571489, 0.572081, 0.57367, 0.574255, 0.575643, 0.569139, 0.562217, 0.552431, 0.552354, 0.551458, 0.543135, 0.541405, 0.541735, 0.540358, 0.540129, 0.539689, 0.539077, 0.54224, 0.541642, 0.541867, 0.541782, 0.544826, 0.548675, 0.552034, 0.55434, 0.558691, 0.557903, 0.562288, 0.561007, 0.563892, 0.564588, 0.566404, 0.568806, 0.579091, 0.579593, 0.586257, 0.587611, 0.588994, 0.59417, 0.605185, 0.608249, 0.611362, 0.617263, 0.618387, 0.627103, 0.628261, 1.47896, 0.638948, 0.646458, 0.656257, 0.660896, 0.660675, 0.662225, 0.663115, 0.672064, 0.671871, 0.682386, 0.687476, 0.688754, 0.694082, 0.708293, 0.710888, 1.4332, 0.725872, 0.73649, 0.745689, 0.747082, 0.748259, 0.748716, 0.00424816, 0.78163, 0.783803, 0.785275, 0.78781, 0.801645, 0.805928, 0.815152, 0.816236, 0.819144, 0.82963, 0.867568, 0.845578, 1.17427, 0.0043134, 0.868519, 0.873003, 0.876497, 1.27886, 0.885768, 0.887538, 0.893988, 0.897193, 1.28063, 0.917142, 0.92317, 0.933078, 0.935396, 1.12527, 1.23007, 1.23059, 0.964108, 1.27169, 1.25642, 0.00366405, 1.00278, 1.09583, 1.01798, 1.0207, 1.02295, 1.03201, 1.03838, 0.00332094, 1.06085, 1.06768, 1.07259, 1.07323, 1.07273, 1.07674, 1.0715, 1.07055, 1.07036, 1.07093, 1.07083, 1.07176, 1.07285, 1.07478, 1.07505, 1.07949, 1.08129, 1.08198, 1.37193, 1.08696, 1.09262, 1.10091, 1.34982, 1.35403, 1.37567, 1.1149, 1.11508, 1.1166, 1.1191, 1.1225, 1.12705, 1.12908, 1.13133, 1.13155, 1.13421, 1.13284, 1.13022, 1.13636, 1.13748, 1.13702, 1.13795, 1.13767, 1.13994, 1.13919, 1.13779, 1.13934, 1.13986, 1.1401, 1.14314, 1.14106, 1.14262, 1.14064, 1.14203, 1.14, 1.14233, 1.14436, 1.14911, 1.1472, 1.1488, 1.15714, 1.15955, 1.16634, 1.1673, 1.1668, 1.17011, 1.17188, 1.17917, 1.17944, 1.18136, 1.1848, 1.18365, 1.18647, 1.19165, 1.19103, 1.19341, 1.19328, 1.19831, 1.20249, 1.20544, 1.20882, 1.21256, 1.21564, 1.21946, 1.22466, 1.22636, 1.22937, 1.23541, 1.23665, 1.25841, 1.26018, 1.26152, 1.26349, 1.26636, 1.26568, 1.26725, 1.27097, 1.27399, 1.27539, 1.28085, 1.31632, 1.30193, 1.76484, 1.31248, 1.31544, 1.31937, 1.32247, 1.32635, 1.32831, 1.33337, 1.42132, 1.49312, 1.35418, 1.3538, 1.36056, 1.6926, 1.68557, 1.9178, 1.9206, 1.41621, 0.00412163, 1.90785, 1.90794, 1.46269, 1.45809, 1.4372, 1.44432, 1.44568, 1.44807, 1.44532, 1.69366, 1.47461, 1.45421, 1.45334, 1.45554, 1.45718, 1.45255, 1.44691, 1.44528, 1.44406, 1.44502, 1.44685, 1.44249, 1.44161, 1.45093, 1.45105, 1.46075, 1.46371, 1.46805, 1.46758, 1.46987, 1.47523, 1.47583, 1.4796, 1.47718, 1.4757, 1.47697, 1.47801, 1.48255, 1.48184, 1.4851, 1.48425, 1.47948, 1.49684, 1.49726, 1.50037, 1.50283, 1.50793, 1.5066, 1.50795, 1.50858, 1.5123
0.590707, 0.589899, 0.593397, 0.594003, 0.587311, 0.587335, 0.942338, 0.56601, 0.564214, 0.562675, 0.557468, 0.555472, 0.556331, 0.55636, 0.558842, 0.561739, 0.562938, 0.564769, 0.568516, 0.57052, 0.571768, 0.571514, 0.566998, 0.560283, 0.553704, 0.552425, 0.552254, 0.545321, 0.538257, 0.538461, 0.539405, 0.537252, 0.535305, 0.538226, 0.539253, 0.538628, 0.539675, 0.539381, 0.537623, 0.545379, 0.545032, 0.545091, 0.547918, 0.556145, 0.55871, 0.558316, 0.559282, 0.560398, 0.5592, 0.560736, 0.564375, 0.571631, 0.575473, 0.581159, 0.58032, 0.580499, 0.584777, 0.591723, 0.602016, 0.60384, 0.612069, 0.621055, 0.622458, 0.630362, 0.646192, 0.647571, 0.649971, 0.651111, 0.651851, 0.659575, 0.660918, 0.666762, 0.667368, 0.670192, 0.682689, 0.682517, 0.692756, 0.700796, 0.701578, 0.72116, 0.72454, 0.725145, 0.99506, 1.0147, 0.75043, 0.758466, 0.00374847, 0.777342, 0.776377, 0.776762, 0.785399, 0.796962, 0.804441, 0.805976, 1.16522, 0.817743, 0.829419, 0.831429, 0.841743, 0.842419, 0.854442, 0.863521, 0.862937, 0.864531, 0.871859, 0.878352, 0.884922, 0.89147, 0.898633, 0.914615, 0.915399, 0.916144, 0.924205, 0.932126, 0.946817, 0.949728, 0.956708, 1.25866, 1.25964, 0.995208, 0.997465, 1.00248, 1.00369, 1.01476, 1.01801, 1.01921, 1.02635, 0.00416138, 1.42952, 1.05971, 1.06158, 1.06457, 1.0634, 1.06434, 1.06197, 1.06029, 1.06006, 1.05996, 1.06455, 1.06408, 1.06417, 1.06539, 1.06595, 1.0651, 1.06578, 1.07167, 1.0691, 1.10158, 1.1022, 1.06339, 1.07311, 1.09152, 1.09285, 1.09434, 1.09894, 1.10123, 1.10481, 1.10946, 1.11216, 1.11428, 1.11676, 1.12204, 1.12454, 1.10817, 1.11568, 1.11914, 1.12871, 1.12534, 1.12533, 1.1256, 1.13067, 1.13009, 1.13318, 1.13524, 1.13269, 1.13683, 1.13931, 1.1375, 1.135, 1.13758, 1.13673, 1.13666, 1.13988, 1.14101, 1.14334, 1.14569, 1.15256, 1.15299, 1.15468, 1.15826, 1.16138, 1.16267, 1.16689, 1.16626, 1.16795, 1.17335, 1.17709, 1.17784, 1.17932, 1.18263, 1.18796, 1.18755, 1.189, 1.19117, 1.19304, 1.19972, 1.20557, 1.20628, 1.20774, 1.21344, 1.21697, 1.2178, 1.21975, 1.22361, 1.22944, 1.23158, 1.24071, 1.24889, 1.25075, 1.25829, 1.26154, 1.25901, 1.26349, 1.26224, 1.27124, 1.2725, 1.27606, 1.28111, 1.2885, 1.88665, 1.30231, 1.30509, 1.31014, 1.58611, 1.57619, 1.46157, 1.33293, 1.33298, 1.34269, 1.92625, 1.35305, 1.35401, 1.3564, 1.35493, 1.38564, 1.36607, 1.62271, 1.91692, 1.40633, 0.00406408, 1.4202, 1.42118, 1.43061, 1.43388, 1.441, 1.44049, 1.43701, 1.43575, 1.43634, 1.43723, 1.4354, 1.43513, 1.43757, 1.44604, 1.44408, 1.4384, 1.44188, 1.44087, 1.44368, 1.43809, 1.4366, 1.43842, 1.44709, 1.45251, 1.4608, 1.45836, 1.46466, 1.46798, 1.46798, 1.47178, 1.47085, 1.47544, 1.47957, 1.47919, 1.48176, 1.48544, 1.48274, 1.4795, 1.47977, 1.48157, 1.48863, 1.50133, 1.50216, 1.50244, 1.50134, 1.50399, 1.50924, 1.5092, 1.51003, 1.50949
0.582712, 0.585173, 0.586609, 0.581176, 0.582786, 0.575383, 0.565333, 0.565332, 0.556142, 0.557656, 0.552148, 0.553374, 0.553567, 0.555047, 0.557817, 0.56231, 0.56412, 0.565695, 0.569173, 0.569478, 0.570285, 0.569103, 0.566827, 0.54992, 0.553028, 0.553302, 0.545537, 0.545368, 0.535797, 0.536083, 0.529328, 0.529879, 0.529322, 0.529352, 0.531528, 0.532751, 0.533489, 0.534581, 0.537821, 0.535723, 0.539167, 0.54264, 0.545415, 0.546965, 0.550991, 0.558529, 0.557633, 0.557765, 0.561522, 0.560697, 0.564227, 0.567671, 0.569183, 0.568823, 0.569251, 0.587464, 0.589339, 0.590691, 0.598262, 0.608457, 0.604756, 0.613007, 0.621747, 0.625287, 0.634153, 0.638366, 0.649488, 0.648827, 0.652312, 0.652149, 0.652839, 0.665323, 0.667289, 0.668407, 0.670329, 0.678378, 0.68763, 0.694763, 0.696821, 0.707581, 0.712522, 0.72411, 0.732064, 0.740287, 0.749688, 0.754926, 0.75886, 0.764323, 0.775548, 0.778559, 0.781595, 0.790488, 0.797752, 0.804998, 0.80836, 0.818092, 0.826743, 0.829002, 0.838528, 0.841499, 0.850367, 0.850242, 0.855987, 0.860961, 0.868689, 0.879771, 0.884827, 0.891393, 0.904436, 0.906585, 0.911998, 0.914229, 0.923962, 0.924854, 0.943805, 1.08471, 0.957495, 1.24743, 0.977093, 0.978634, 0.992732, 0.999923, 1.006, 1.01577, 1.01716, 1.02332, 1.02631, 1.02904, 1.04398, 1.04737, 1.04803, 1.08814, 1.09389, 1.09155, 1.03988, 1.04529, 1.03298, 1.08765, 1.07999, 1.07192, 1.08415, 1.08504, 1.09435, 1.05607, 1.04997, 1.05297, 1.03669, 1.08293, 1.08441, 1.08578, 1.08034, 1.08208, 1.06675, 1.06836, 1.07062, 1.06992, 1.06971, 1.0717, 1.07323, 1.08339, 1.08147, 1.08412, 1.12056, 1.12285, 1.11945, 1.12572, 1.12303, 1.11989, 1.12526, 1.12896, 1.12246, 1.12393, 1.12247, 1.12347, 1.1328, 1.12309, 1.12647, 1.12723, 1.12952, 1.12882, 1.13288, 1.13295, 1.1351, 1.13724, 1.14186, 1.14295, 1.14688, 1.14951, 1.1528, 1.15569, 1.15942, 1.15984, 1.16306, 1.16334, 1.16657, 1.17133, 1.17181, 1.17463, 1.17233, 1.17957, 1.18123, 1.18496, 1.18671, 1.18971, 1.1942, 1.20189, 1.20478, 1.20562, 1.20842, 1.21229, 1.21716, 1.21861, 1.21717, 1.21922, 1.22402, 1.22884, 1.23272, 1.31752, 1.24865, 1.25191, 1.24971, 1.25085, 1.25724, 1.25748, 1.2704, 1.27098, 1.27556, 1.28288, 1.28516, 1.29375, 1.30152, 1.30278, 1.58269, 1.57078, 1.56854, 1.35268, 1.338, 1.34349, 1.34847, 1.34703, 1.34659, 1.35167, 1.35343, 1.37727, 1.38523, 1.91848, 0.00364307, 1.40628, 1.40904, 1.39528, 0.00368239, 1.4123, 1.41819, 1.42782, 1.43102, 1.43169, 1.43476, 1.43529, 1.43466, 1.42942, 1.43548, 1.4372, 1.43597, 1.43488, 1.43686, 1.4396, 1.43699, 1.43976, 1.43141, 1.43236, 1.43438, 1.44016, 1.44032, 1.44577, 1.45639, 1.45601, 1.45649, 1.45987, 1.46505, 1.46174, 1.46937, 1.46888, 1.4712, 1.47242, 1.47782, 1.48145, 1.47918, 1.48085, 1.48134, 1.48289, 1.48958, 1.49603, 1.49557, 1.50308, 1.50109, 1.5018, 1.50886, 1.51164, 1.51188, 1.50858
0.574504, 0.572789, 0.575702, 0.575838, 0.569894, 0.563391, 0.564125, 0.562362, 0.555898, 0.548875, 0.549532, 0.550909, 0.550411, 0.558643, 0.558635, 0.560366, 0.561747, 0.564625, 0.56663, 0.569142, 0.56754, 0.56133, 0.562207, 0.549615, 0.550037, 0.536317, 0.538255, 0.538464, 0.539029, 0.527698, 0.527159, 0.527418, 0.521575, 0.521162, 0.521584, 0.522194, 0.523691, 0.521833, 0.525165, 0.531518, 0.538142, 0.538688, 0.544824, 0.546934, 0.54951, 0.553695, 0.55516, 0.555245, 0.556314, 0.557579, 0.557075, 0.56546, 0.564786, 0.568783, 0.568787, 0.570513, 0.571499, 0.588341, 0.589159, 0.605901, 0.607555, 0.609605, 0.610063, 0.629889, 0.629605, 0.634857, 0.638469, 0.637636, 0.63708, 0.639662, 0.639244, 0.6538, 0.656007, 0.666727, 0.667185, 0.678281, 0.679348, 0.690178, 0.767362, 0.700334, 1.30755, 0.71468, 0.720729, 0.986873, 0.986458, 0.987328, 0.791245, 0.753108, 0.764555, 0.776396, 0.777117, 0.782312, 0.791936, 0.793072, 0.804179, 0.810317, 0.814891, 0.822336, 0.833453, 1.31671, 0.846849, 0.850031, 0.850621, 0.860811, 0.871408, 0.876574, 0.883343, 0.88451, 1.25251, 0.905949, 0.911373, 0.9119, 1.2435, 0.932393, 0.944172, 0.946539, 0.959622, 0.00387327, 0.974718, 0.978791, 0.99492, 0.997495, 1.00336, 1.14645, 1.01229, 1.01312, 1.04556, 1.04889, 1.01145, 1.01605, 1.01895, 1.01534, 1.01509, 1.0878, 1.09419, 1.00839, 1.00623, 1.01276, 1.03361, 1.03353, 1.05422, 1.01296, 1.02258, 1.00909, 1.00394, 1.03867, 1.02165, 1.03619, 1.02024, 1.01987, 1.02202, 1.04001, 1.05003, 1.05723, 1.04747, 1.03231, 1.03076, 1.06284, 1.04815, 1.06769, 1.06402, 1.06415, 1.10317, 1.08011, 1.08145, 1.08116, 1.11267, 1.11346, 1.08688, 1.12213, 1.1208, 1.12006, 1.09369, 1.09351, 1.14466, 1.14393, 1.11671, 1.11788, 1.12104, 1.12591, 1.12504, 1.12644, 1.1295, 1.1334, 1.13902, 1.14067, 1.1425, 1.14581, 1.1477, 1.14966, 1.14953, 1.15331, 1.15845, 1.16405, 1.16617, 1.16443, 1.16595, 1.16759, 1.17091, 1.1739, 1.17684, 1.17881, 1.18252, 1.18617, 1.19228, 1.19981, 1.20134, 1.20293, 1.20543, 1.2127, 1.21154, 1.21443, 1.2176, 1.21857, 1.22156, 1.22947, 1.23042, 1.23879, 1.2466, 1.2465, 1.25001, 1.24813, 1.2517, 1.26137, 1.26732, 1.27297, 1.27707, 1.27935, 1.28693, 1.29267, 1.29495, 1.30325, 1.30367, 1.30717, 1.31043, 0.00369184, 1.41561, 1.34546, 1.34583, 1.34603, 1.33953, 1.34406, 1.35243, 1.35554, 1.35893, 1.36102, 1.37465, 1.37435, 1.42121, 1.39323, 1.39677, 0.00379423, 1.41546, 1.41624, 1.44787, 1.42711, 1.4269, 1.4241, 1.42651, 1.42152, 1.42391, 1.42063, 1.42197, 1.4311, 1.43113, 1.44064, 1.43455, 1.43633, 1.43454, 1.43028, 1.4364, 1.43454, 1.44211, 1.44643, 1.45094, 1.45137, 1.45544, 1.45492, 1.45542, 1.4676, 1.46797, 1.46813, 1.46621, 1.46785, 1.4732, 1.47393, 1.48094, 1.48013, 1.48008, 1.48544, 1.48855, 1.49241, 1.49784, 1.49445, 1.49294, 1.50246, 1.50378, 1.51262, 1.51073, 1.51097
