1.10272842939572,1.07258477969113,1.02813668998939,1.02744317595564,1.02740712522681,1.03013895033066,1.14744170553968,1.01120146125567,1.01074758029824,1.00628471082642,1.00455002037286,1.00427230798341,1.00437034444663,1.00464934547735,1.00533504885219,1.0036563247981,1.00308956605428,1.00275168922905,1.00219788609019,0.999455055541327,0.997587839338416,0.995638873259648,0.994943720592981,0.994736883973713,0.994117864723963,0.993887319661628,0.992640399422529,0.991939905452332,0.991621210753025,0.991633253105286,0.991718641108714,0.991945754094908,0.990081791451513,0.98968657371028,0.989036077129033,0.988671002654429,0.988786552472775,0.987539323628671,0.988955622869326,0.982335879102726,0.98052103199411,0.979069454805441,0.978408753301637,0.977911333183136,0.976288720155995,0.976376343227111,0.977396455348219,0.980956459137976,0.981389241456309,0.981804831628801,0.968333704297966,0.968242914742109,0.968082833350853,0.966776174527041,0.966483277083837,0.963368685586465,0.962068958196011,0.961631200839862,0.960807005663767,0.959957561482657,0.957635258687768,0.956160137208372,0.956085213402404,0.955859161969401,0.95650693770766,0.956534961079453,0.956415251115516,0.95674780292991,0.957179801333117,1.06756422999461,1.06762513931911,1.06562374557759,1.0433387958809,0.993346807463206,1.01627459405319,1.01607493177454,0.998098869972043,0.996357925266756,0.99554500558373,1.00521528389996,0.993970093178759,0.984321797995534,0.982556083310148,0.990887272021769,0.986815689964548,0.962551409459922,0.961966146140377,0.96075415539385,0.961030166171848,0.961746986777643,0.96201216606086,0.960924097349215,0.958108030594602,0.957604579359854,0.95755521003577,1.17180167669708,0.967810552548168,1.02226589963624,0.951551989638881,0.951934387131322,0.952096602056861,0.952835862088473,0.952955378276998,0.950083984150811,0.949422237934154,0.950351344427336,0.950729199186784,0.950857652825522,0.95031345489643,0.949961380523715,0.948972078362067,0.942728826838141,0.943660468220645,0.944240439723595,0.945043000904405,0.94747696178494,0.948558576760722,0.94884136112189,0.946457628757896,0.94584964623755,0.945989151623026,0.945176420779,0.945203547522046,0.944605794928872,0.947935097811752,0.949498042823523,0.953118499012744,0.955623476825382,0.956713215541885,0.958416152215611,0.959834114721292,1.0310064534155,1.0368015150291,0.9415938308547,0.94168015142192,0.942860726296651,0.943573853342847,0.940637545021464,0.939836669532546,0.940084722197241,0.943055103871645,0.943320658392933,0.943495016959898,1.13361966119007,1.13840998951637,1.13800206802783,0.942914126335628,0.94276637220107,0.9425587111217,0.942148644142169,0.937986624378437,0.937112159433876,0.93581433882059,0.932841442393044,0.930683750377091,0.929313618852563,0.928909820123603,0.929278929547946,0.929233968463891,0.928633960705748,0.928215255035032,0.928094678475011,1.05555433074722,0.929089839246482,0.929062905351493,0.929009557094527,0.923830599444981,0.922898165106846,0.920041447336143,0.917867662149545,0.917697045297729
1.03295935439235,1.03093366099389,1.02916104515323,1.02828713651156,1.02833862442965,1.02989016550616,1.03322205541217,1.02250923073181,1.01467324432143,1.008655182017,1.00550311357142,1.0047991705878,1.00430109033038,1.00411278388078,1.003979125623,1.00352473712588,1.00311169923233,1.00269407365982,1.00221280176198,1.00116627636543,0.994906313265237,0.994106590004707,0.994052686304616,0.993783772132213,0.993848927887167,0.993730322299018,0.993093620156833,0.992377968397259,0.991903949876528,0.991737393103589,0.991743284230569,0.991441316480567,0.990318536512845,0.989747450989697,0.989365359448341,0.988861763988833,0.987901352664082,0.986892028560105,0.986080050274061,0.983036712672487,0.980811382919913,0.979599979212649,0.979156366600612,0.979031289432092,0.978797721719796,0.97884955065406,0.979373282162924,0.98030232521243,0.981104596132243,0.981555968417393,0.973976908056509,0.969689181198779,0.969328057400481,0.96864973234138,0.966796266459991,0.965007507178717,0.963452409485635,0.962488498137306,0.961529979401297,0.96031720777034,0.958489846603455,0.956638900987043,0.955804136984544,0.955505648688788,0.955649426697769,0.955712188131246,0.955815900716369,0.956112975575269,0.956246796227291,0.985273766785448,0.993600720241385,1.00309751868378,1.00167837275008,1.00083008247651,1.01762423891043,1.01755042445645,1.00782989833562,0.993690801688427,0.992818852778753,0.991344405515835,0.990963281828281,0.991065152526505,0.991149915272528,0.990303195130687,0.988816960611129,0.962214549285964,0.961368598766238,0.960564038624705,0.960370900570847,0.960640439903302,0.96066749039586,0.960024902021338,0.958769539162683,0.957896564920928,0.95781215560812,0.960872942878968,0.970044103297937,0.972015080891746,0.963851405312637,0.95308640849542,0.953180761819525,0.953342882557141,0.953172434514007,0.952206255061941,0.951783348748185,0.951988446926057,0.952182048898078,0.951898175501016,0.951315051045584,0.950674555063767,0.949605089438014,0.947996593354275,0.946334644062872,0.946049741013277,0.946563458411456,0.947984597394892,0.949102119214175,0.949328730514912,0.948492172029356,0.947808148389965,0.946913908248549,0.945849152195175,0.945273001533519,0.945320135960436,0.946785468216875,0.948464329450523,0.951181782410492,0.954502373253905,0.957504359970651,0.95664904609728,0.957402980048134,0.957759000311877,0.958373735505522,0.946451873661093,0.94483714411164,0.943952014210275,0.943775812394186,0.942823855498785,0.942193148792513,0.941446602410909,0.942023956751424,0.942331264100677,0.942361592819565,1.02554172055239,1.00073414894629,0.978369315601425,0.942125051132797,0.942077511130661,0.94171843772604,0.940906175628141,0.938932711863217,0.937161577651616,0.933892242649146,0.931319019272855,0.929373234356207,0.92838748713739,0.9278992087495,0.927899799384284,0.927851751347601,0.927828690785899,0.927546018604519,0.927240177838127,0.92702849726937,0.927416308149203,0.927002563284101,0.925971881416634,0.923687824603779,0.922298730919168,0.920124835546889,0.918420837559045,0.915984610047112
1.02987630617405,1.0297534950581,1.02857243068257,1.02775200277899,1.02708963629823,1.02696419961377,1.034794844842,1.03554757953866,1.03619905045353,1.25564013322966,1.00733797246284,1.00521242546166,1.00391277641643,1.00337525390725,1.00274730957364,1.00303924830585,1.00279328843251,1.00230746704716,1.04090553553055,1.04084073364761,0.992335592137632,0.992386711086054,1.00988001907374,0.993128114194041,0.994098811616724,0.994129486349112,0.993569908722436,0.992536807932661,0.991850101018201,0.991678967420316,0.992055595445581,0.99178571376418,0.989985743943734,0.989641662076185,0.989811189328931,0.989507161230129,0.986994528676552,0.98597308232992,0.985389394431981,0.982880109889477,0.98005873896785,0.979378765043363,0.979469828682863,0.980225996158714,0.98087792665533,0.980940405817594,0.980836209386675,0.98023571216588,0.980917350299403,0.991498733117369,1.09246741614437,0.971476000600359,0.971003245168237,0.971508571445662,0.966641803405149,0.966061104764489,0.963920053383177,0.96330208957639,0.962384641637376,0.961314367029859,0.959653166873316,0.955792712285783,0.954917535295402,0.954714740569447,0.954728574486062,0.954722980822446,0.954741540889553,0.955346926697156,0.955075929347796,0.954880839759333,0.965395889883299,1.00406058092586,1.00097172543386,1.0000767624604,1.0345234436609,1.02647642576193,1.01717549195936,0.992570986558604,0.991650219954089,0.99152950930429,0.987771162638678,0.990735089794507,1.03119561655802,1.03302203491909,0.991946751071691,0.962167647087494,0.960219641668387,0.959298956759327,0.958960331110294,0.959485703534313,0.959735070953159,0.95960773375442,0.958965989125238,0.95735025459667,0.957941585788098,0.959208364765757,0.991763953768203,0.973464286853243,1.01653569978846,0.953817261998989,0.953801075265376,0.953941596163594,0.953967302295998,0.953753199474648,0.953348708779587,0.953649508704043,0.953995049848494,0.953310213492897,0.952317937504514,0.951727042665988,0.951100834082271,0.949549617278592,0.948210943046734,0.947229788533343,0.947198694984225,0.948794147479123,0.950503361855288,0.950818825893958,0.950400803585688,0.949973115716198,0.94814041119191,0.946160972712143,0.944939093060217,0.944388637998872,0.945596014454199,0.946342970488422,0.947071261732532,0.947047547065096,0.961759181866694,0.952293479011237,0.952449726136838,0.956639461665626,0.95718460044829,1.04499863921151,1.04630755086378,0.943539602166002,0.944212761228484,0.944203620265922,0.944553381306508,0.940639867902389,0.940745336834708,0.941124966769221,0.940731821427397,1.12924724130542,0.938864871349517,0.940294559023749,0.941181464043442,0.9416194908563,0.941382956064031,0.941103291480234,0.939544858011808,0.938264331829191,0.931962419188219,0.927365309340722,0.927046106931559,0.926407147307957,0.925983022542513,0.926611767679678,0.926559261155415,0.927482279411723,0.927053371957122,0.926258928384161,0.92621575634466,0.926226128105286,0.925343086007282,0.92402691778907,0.922721185207292,0.922674846110423,0.936567525466432,1.14346166648844,0.913055953004643
1.03180873174271,1.03039319086522,1.02958120533857,1.02868612896839,1.02819527432149,1.02881762467171,1.03166192724744,1.03610956207563,1.03679403355956,1.03662974817419,1.01236493476289,1.00657480773948,1.00513880048011,1.00465012119348,1.00446588751405,1.00479869784192,1.0058604709962,1.00937859495912,1.01153696941679,1.00159699352839,0.991579460999948,0.991485418071309,0.991607370315331,0.992679695729997,0.99443491588288,0.994713885590785,0.994054826757688,0.993037475326107,0.991554621145156,0.991487988479176,0.992368245436686,0.992128004307435,0.990889405937059,0.990087150322396,0.989574410912592,0.98878090008435,0.98748733738005,0.986624137655853,0.985771899015728,0.984166399278409,0.982275444027689,0.980761314629883,0.980327539791206,0.980605605957606,0.981134998876342,0.98139986845177,0.981572502643995,0.981742495549166,0.982428982074963,0.984172501740199,0.985189560195325,0.980730978021271,0.976994833094396,0.971144080342546,0.969975720463924,0.967720098560987,0.966849554983705,0.965436009019057,0.963444010496236,0.961929797112571,0.9601617329888,0.95820842249084,0.956842331281884,0.956024491518682,0.955694543844191,0.955439506339713,0.9554487042001,0.955652465380723,0.956009231781943,0.956338914735678,0.962331428289941,0.965143874167378,0.967931962740076,0.970876278163197,0.973310803702035,0.976817717357813,0.981032461558617,0.985845399660774,0.989054012235162,0.999235795364905,1.00750556472925,1.01401913393575,1.02028142164789,1.01131242771809,1.00294254822315,0.960168685985303,0.959455984034732,0.958760967278765,0.958422035748496,0.95866418420968,0.958973562565026,0.958938217932069,0.958515070424233,0.957825737745455,0.957984589095939,0.958322456925567,0.962858206693352,0.978689273621722,0.98114070107234,0.961977460656926,0.95961470104975,0.954586604729345,0.954861565447281,0.954436272981611,0.954106943304455,0.954068130699173,0.954130369480088,0.953798474398844,0.953363618553678,0.952583075393367,0.951721113857567,0.950584876066288,0.949722997077287,0.949262677660613,0.949330631276153,0.949736803927262,0.950415034338895,0.95067482961725,0.950499209882568,0.949855240182147,0.9486958002104,0.947146853900962,0.945086623249033,0.944412577499381,0.944935543837351,0.945567635344758,0.946008728834568,0.946360189630951,0.948382121614985,0.951264406051719,0.953297340168206,0.955676267543525,0.956852970633082,0.981850610928338,0.968951662019528,0.945141039129955,0.944032686122755,0.943619251916764,0.943737655853597,0.942187301711392,0.9405658841088,0.940071053545537,0.939514508314754,0.938918396120169,0.938996306657518,0.941242328382989,0.942054814034387,0.942309810302622,0.94195892992886,0.941571070056489,0.936183886001825,0.935041874136675,0.930581322067549,0.928508728324979,0.926311690917588,0.925846908681204,0.925496708416162,0.92555181517275,0.925885727565297,0.92665363737316,0.926771999090203,0.926448166730028,0.926259002608188,0.926141178091257,0.925604529020413,0.924649769422489,0.923307257100625,0.921138403704942,0.91918658704133,0.917183036339667,0.913200709860467
1.03207421031768,1.0300113739659,1.03032761982437,1.02906234007475,1.0279440258344,1.0277679450706,1.02823727069629,1.03732488800687,1.0825705913499,1.03431138870927,1.02503046833267,1.00988590898278,1.00580828868583,1.00566783323448,1.00548694745377,1.00546262702739,1.00562510046739,1.3259571178069,1.01643889840024,0.991126925029687,0.990870850364804,0.990950102331149,0.991740298404168,1.21433834405726,0.996610626797246,0.996202799421918,0.994846115477335,0.994077516842126,0.989569490884467,0.989938428627755,0.994056180521782,0.993528784437569,0.991335617212834,0.990291728578626,0.989591707375565,0.988583623220813,0.987516320473072,0.987256633484603,0.986884727181941,0.985757870461365,0.984284519321414,0.980877483401421,0.980392024123877,0.980756456334857,0.981578509680737,0.981988728216569,0.982119306254255,0.982599415850735,0.983011987747321,0.984346612097003,0.985582872287558,0.988260010742591,0.987347472532791,0.97237408030881,0.972568724571065,1.05588303932957,0.969369201833698,0.968226881655309,0.963738871099219,0.962642795989994,0.961073686906115,0.959729358052192,0.958145714458748,0.95689272667507,0.956495062782262,0.955864341338435,0.955765470201577,0.955691873589973,0.957103163801966,0.958187632794693,0.959739702053644,0.961143318387176,0.961357260324942,0.961440547333368,0.960657288264944,0.960670791139801,0.972597955900008,0.986785081572632,0.984436808128568,1.0095771306246,1.01690978081674,1.03191360843311,1.04969007221329,0.965967935426885,1.03175564929719,0.958199066326073,0.958043960830044,0.957322285754046,0.956964221868339,0.957528532960042,0.958428192835287,0.958580752073946,0.958269466756927,0.957482318102521,0.957997165412681,0.958035931881552,0.958185332230191,0.978669273365056,0.979464699994778,1.01837284362786,1.01925532087777,0.954901380020935,0.956238850516774,0.954783515497155,0.954373987817733,0.954419261393365,0.954560835132977,0.954419953552322,0.954663301539479,0.953540575161308,0.952535356432384,0.951412961888236,0.950777596426684,0.950773362883343,0.95108275722406,0.950402827094694,0.95072603077589,0.950964231164986,0.951126511613873,0.950429851030976,0.950077167396259,0.949418648375994,0.960565527603333,0.965377230368437,0.944504169371824,0.945213957423363,0.945133286220083,0.944504150797659,0.942863649442939,0.967224359537997,0.938810292596857,0.938944542544311,0.957008946947574,1.00648660628563,0.948230351425333,0.947277629500455,0.942560659629846,0.94186170257728,1.03304667670346,1.03285122835719,0.938359683657052,0.93843389946902,0.937699238404134,0.937555415818889,0.935891353143962,1.12134756676908,1.1188547185809,1.08918551901998,1.08910257439565,1.09101194017241,0.932951566408896,0.932491242347661,0.929985681975115,0.929005227017027,0.923339728894646,0.925085847367471,0.924441758696742,0.924099923106021,0.924668841861136,0.926346821248474,0.926821248908937,0.92629139846752,0.926049787316762,0.926243470053375,0.926218836508322,0.925584205025225,0.924741189750188,0.919668373727675,0.919596168636648,0.915148900819039,0.914892316727494
1.0329578654377,1.03162498499795,1.03085005239789,1.02970008052723,1.02894010859887,1.02819604967151,1.02718827389741,1.02577181685093,1.02545476180997,1.02633468956409,1.02617262488251,1.01602824051368,1.00875248498793,1.00655958739581,1.00536798605554,1.00499851873861,1.00499452650804,1.00491658414148,1.00471336043394,1.00398233567361,1.00327094671231,1.00222335845549,1.00024378577486,0.998924129547206,0.997524496805175,0.996555573472789,0.995650230371084,0.99448060963551,0.991652331595631,0.992063707750652,0.993093323866265,0.99304346984395,0.99230898315817,0.991551460086126,0.990496484507593,0.988384169366791,0.987524439794971,0.98728180872471,0.986989749085694,0.986341801041605,0.985181112135719,0.982800624674412,0.98193796105163,0.981743675014205,0.982079540731193,0.982401523808249,0.982679943275702,0.983086067911704,0.983832161134472,0.984845386176657,0.986095986564167,0.986959444488264,0.986694893014891,0.978628486694029,0.974705716843166,0.973471769910527,0.97047945999628,0.968842938658311,0.964788707581447,0.963286707034888,0.961692661877548,0.960489511919549,0.959262488793112,0.957727033704849,0.957048096646327,0.956662956421161,0.956593159934901,0.956650309123649,0.95702671820584,0.957647767704649,0.958496718089378,0.959281200348262,0.95993680323682,0.960765069372061,0.961279232968225,0.961508733142314,0.966422757360464,0.975630255561775,0.983771344834884,1.00943720273835,1.02201960823975,1.02562962514405,1.02773183359928,1.02911014030802,1.03037769305439,0.957587187952001,0.957649758121975,0.956622516473485,0.956245520622137,0.956422974756713,0.957135828658218,0.957741626739954,0.95822634188412,0.958001601977594,0.957507060614011,0.95780738306265,0.957957548661258,0.964462198285935,0.969891757532718,0.993894744256804,0.983358180936293,0.961426983103702,0.959334194574472,0.956446905052562,0.954895451812247,0.954442304779032,0.954288954636322,0.954258617128428,0.954302886889989,0.95374795034983,0.952995537840109,0.95242453416024,0.951955825454882,0.951319227745821,0.951011213155973,0.950699432809734,0.950725116259967,0.950896278221024,0.950976408711963,0.950765037736758,0.950459564865797,0.949900756056923,0.949350934757794,0.948522086113173,0.947552076795732,0.947219340648831,0.946765618091412,0.944832319801438,0.943192692645715,0.940853228490993,0.939512581960411,0.939362515946084,0.940575922075651,0.9421752362492,0.945049309025152,0.945671233378219,0.943257493431493,0.940279199823486,0.935359878103417,0.933985740244856,0.935839367098581,0.937085741752235,0.936593431112723,0.936138083138703,0.935164072931993,0.934280508706556,0.934432401093028,0.934707137323972,0.934924764274268,0.934707112273127,0.934046306503489,0.933206025487871,0.931652539423033,0.929852936666969,0.928470564752278,0.927232857429581,0.926357003451297,0.925677463306481,0.926576687149676,0.927433120125739,0.92784923872561,0.927848296943811,0.927504750240901,0.927021862925245,0.926374626744386,0.925637936293701,0.924506742828535,0.92214665963669,0.918785169077741,0.916271178741643,0.914480723896029
1.03324885703062,1.0325586830474,1.03158178440014,1.02991807495182,1.02990159343366,1.02907225559686,1.02688142858586,1.02529089438275,1.024564210884,1.02639013687475,1.02613195935418,1.02587322708035,1.011342137695,1.07819968133776,1.00423510451914,1.00367244638599,1.00371013660192,1.00462358372186,1.00535543870684,1.01200376615581,1.01397732366632,1.01385398967353,0.999059400133258,0.998615648830321,0.997841921645473,0.996750175588382,0.996553384045112,0.996500560670916,0.990131973817502,0.993124702520144,0.993452479088472,0.993294676093794,0.993307212121648,0.99301103720334,0.992352371649992,0.986644041247707,0.98691486878611,0.987355007379806,0.987431267612999,0.987590212835104,0.987580673850416,0.982931565481369,0.982623308599664,0.982243210357143,0.982496683546882,0.982946173512796,0.98294813613182,0.983237824365327,0.984054432915076,0.985046680589638,0.986342728928019,0.985866891799786,0.984910665337786,0.982379700786629,0.97509395974735,0.973264939549733,0.97225002113755,0.969773095061247,0.964615716969633,0.963676286911809,0.961780867144278,0.961270997004087,0.960617145376632,0.957733823601803,0.95724540948272,0.957193727086965,0.957202573473249,0.957281929955423,0.956570316923457,0.956943089109423,0.95717942110007,0.957511328687389,0.958211447095596,0.960352401739114,0.962489052900901,0.962799843014009,0.963312457113168,0.964078299322576,0.982151023968633,1.01067473222169,1.18301330456018,0.972162141014236,0.972299528163035,1.14454699690991,1.14473059990186,0.953506698344069,1.03691566572044,0.954509298633341,0.954483656550104,0.954474601533449,0.955800382298297,0.956930739344596,0.958820606606992,0.958831943898824,0.956442556075352,0.958245717916094,0.958379164683312,0.959199346939903,0.961261327117121,1.15066660325308,0.965304951191757,0.96236562144363,0.962249802709892,0.96259293247083,0.953636049676932,0.954116316656176,0.953893028330889,0.954035396364731,0.954440862358933,0.95414123953405,0.953217625993074,0.95334627155209,0.953282474632419,0.951550512093358,0.950936101768022,0.950664275593723,0.950569122049954,0.950904916838381,0.951081515577845,0.95118566641913,0.951317889448579,0.951203845506127,0.950568956986516,0.950046245339818,0.949387397951722,0.949857409393364,0.949974338828431,0.944982943374778,0.944229714620015,0.939405108350596,0.938924355131632,0.938536859631957,0.938121878282565,0.941110307981093,0.942172435597054,1.04628931084301,1.0595955468946,1.02251467447484,0.93349630775599,0.932197288643789,0.931412119749505,0.931989400235748,0.935175532641516,0.934789731744523,0.933502870523989,0.932236941296074,0.932817916746641,0.933121098646355,0.933898784283403,0.934214584626224,0.934584717839519,0.93448782877681,0.933263563011133,0.930579050187079,0.92967386198076,0.929278961691549,0.927853223482906,0.925441709505732,0.928304156444819,0.928654710806696,0.928944420089222,0.929189766166296,0.928565989498616,0.927384280443918,0.926225798611952,0.925721019228795,0.925381420715722,0.924898631303698,0.917795794536526,0.916317451217889,0.915362154986242
1.03416310741669,1.03323766302596,1.03219560888993,1.03109142656594,1.03028876207408,1.02912221958507,1.02745664803431,1.02593318367103,1.02480761499634,1.02463002795821,1.02530186632461,1.02717801263563,1.01280888204424,1.01310711309853,1.00984430104471,1.00961177973487,1.00808388249927,1.00738218077223,1.007428316729,1.00996377178149,1.0137931800699,1.01429451731891,1.00435381636005,0.999274183033916,0.998930110637509,0.998505358642312,0.997918114755239,0.997217782786433,0.996376818689033,0.995019032556466,0.994543060090105,0.994225422235413,0.994283382351045,0.993993771675965,0.993241349333415,0.990747946617529,0.988652196676526,0.987913193378622,0.987662814316718,0.987578771770675,0.987044545990968,0.985311905663764,0.984396298883741,0.983729646018714,0.983539572015355,0.983424999056415,0.983281113328597,0.983456332172596,0.984417106316384,0.985314534441141,0.986316951149326,0.986303744882432,0.98628429855146,0.979832486082349,0.975799556256038,0.974557402141998,0.973170171109859,0.970264174517291,0.966860317579996,0.963332375522536,0.961686283109073,0.960781916772564,0.960049087077416,0.958701490863447,0.958119667911106,0.957879532271923,0.957877178628626,0.957851854574376,0.957681746870199,0.957508235039259,0.957531514890506,0.957969095611005,0.958785639101234,0.960338886619557,0.96221952793663,0.962948224418192,0.963355597651192,0.963782710487259,0.964398249425256,0.965176883975087,0.965919948362947,0.966613052363898,0.966680489435038,0.965558152967648,0.964718793382255,0.953124130934243,0.952959103014402,0.953381747328599,0.953780721407864,0.954304830291316,0.955100183439606,0.956169598732695,0.957507933563111,0.958101927854387,0.957682858558631,0.958195157870408,0.958582891173084,0.959129662868997,0.959631836796591,0.959425346959478,0.960464895605118,0.961245288537304,0.961395936107856,0.961382708133654,0.958517543722192,0.955712250517726,0.954575160532181,0.954412291435346,0.954405571780429,0.954083143138661,0.953604948593303,0.95330999165408,0.952652095786676,0.95174120276495,0.951322187150809,0.950933088933076,0.950669086155857,0.950727809765817,0.950799636860803,0.950872456116062,0.950936733026641,0.950800684496238,0.950483271337163,0.950161783006103,0.949773998375721,0.949432757971315,0.948791420292054,0.946866840750848,0.944509052892891,0.941852776280969,0.940449289058926,0.939618982652694,0.939087527784291,0.939640111846334,0.941217255943682,1.00610715487497,0.991352359948883,0.977294182328718,0.96607806272726,0.93024842443411,0.930476550910607,0.93216830362221,0.933084644798062,0.932860586927324,0.933270138362633,0.933032844409906,0.932958775164348,0.932747748463477,0.932936121263862,0.933347687113703,0.933643193288806,0.933471608312478,0.932737838301845,0.931639494213733,0.930671821806888,0.929773774166294,0.92836339427356,0.927419617218207,0.92817434303562,0.928893114771964,0.929879785371062,0.930391226724027,0.93000222272376,0.928640211628887,0.926113737871221,0.925134535963676,0.924693614372208,0.922361634038156,0.918575176911089,0.917586074250951,0.917242998205841
1.03484072480186,1.03398111035792,1.03276208291491,1.03196936880396,1.03095067345906,1.02967062212112,1.02785064601446,1.02608205977381,1.02374386870742,1.02107484174734,1.02133056339253,1.22399526916597,1.01360354033477,1.01306513277917,1.01052765636781,1.01089582754871,1.0120525827496,1.0095420152404,1.00682305836916,1.00548052782775,1.01520659989016,1.0173712372841,1.02101447814434,1.00057090892849,1.00051641349902,1.0004343777883,0.999343979700648,0.998589569807297,0.997110535906717,0.996678083828779,0.995613423776561,0.994806447496728,0.995602565026384,0.995259052566866,0.995713184075738,0.995715501758268,0.988995520814563,0.98801775937233,0.987749142672592,0.98816954181603,0.987786407184611,0.986807755598349,0.985714250961182,0.984818525043169,0.984390547601835,0.984076061286877,0.983137682629381,0.983053110720349,0.984671666172468,0.985613051784898,0.987291330907362,0.98730835019139,0.987454290643212,0.978121877253596,0.976754922297823,0.975401690049513,0.975053603768516,0.970261536443783,0.969063706932188,0.961942599217182,0.96065200325996,0.960194482072784,0.960047095654213,0.958893648025227,0.958578255927836,0.958389221292237,0.958506113288856,0.958646476564632,0.958700937162095,0.957936963803242,0.957368588088947,0.958063687624997,0.958531478196277,0.959658165439274,0.963362987762932,0.96348299398635,0.963321804628782,0.962999259965322,0.963376020240674,0.963667174081349,0.965258083935622,0.966556321331299,0.966985147968015,0.963223445535869,0.95962196395636,0.95204708138018,0.951766013426493,0.951757399633509,0.952523532612167,0.95358718634658,0.953995204570464,0.955076405310727,0.956900093159222,0.958357660268936,0.957964431426982,0.958320638009433,0.958612668154949,0.959002942442851,0.958475691774358,0.957857267496858,0.955502587405699,0.960636762774917,0.961014956771298,0.963173565879094,0.97012144849557,1.04970864839066,0.954504515952202,0.954707771564429,0.954634230473271,0.954123406893117,0.953763897488636,0.953589804389231,0.952269130262622,0.951402606111486,0.951678779405959,0.951033384692996,0.950430611274428,0.95049628502689,0.950485456987624,0.950517293025559,0.950695848724326,0.950582000051959,0.950507155621312,0.950420790919007,0.95015286428895,0.949380589012802,0.948783036692686,0.948870086754366,0.95058718808126,0.951387171688302,0.941380815139769,0.940582667455302,0.938906171930091,0.936844370791074,0.936187040468973,1.03459692293354,0.942608985105764,0.942764248959937,1.11306056462826,0.92774536285454,0.926968536140482,0.925008502560425,0.924117664260638,0.929657032726664,1.11057304022123,0.933445196413625,0.933004113180423,0.932020790516404,0.931695700559679,0.93266027365261,0.933129227604483,0.932986087879646,0.932189764901364,0.932234202245782,1.12360589131091,1.05563428655282,0.92768516133053,0.927143644718964,0.927534191014596,0.928139509684147,0.930169993015917,1.01191408568506,1.00272883803915,1.00646837620736,0.923393530205977,0.923143873482783,0.990301229946017,0.919569252172816,0.918163555835701,0.917426996271933,0.918198757945305
1.03470185470094,1.03443376798113,1.03417511692903,1.03358338319968,1.03244415275072,1.03097269825587,1.02949047390846,1.02762563319912,1.02556329284065,1.02270432628035,1.02113152759477,1.0190247290086,1.01523465175783,1.01502983993671,1.01455250693963,1.01338595607545,1.01267583624793,1.01047395379589,1.00871568813823,1.00865349375484,1.01243229621025,1.01849094060755,1.01971725474427,1.00189981972094,1.00157628847457,1.00079677083277,0.999913858090518,0.999143620227079,0.998122149858115,0.997364907119605,0.996474739877197,0.995823514036351,0.995449290487919,0.99508282706533,0.994892718719662,0.993758349396042,0.990745252164043,0.989106376077729,0.988960142740983,0.989024336975457,0.988832689846162,0.988214604575025,0.987261139865491,0.986273415615353,0.985338160488421,0.984597851195097,0.984107691647764,0.984167159336239,0.985131700658923,0.986359136805417,0.988096214790196,0.988869546840119,0.989233704106274,0.978008593271221,0.97700742205612,0.976061268595285,0.974774451081517,0.972199071575052,0.970160413014672,0.965168736926281,0.96199240502446,0.959577576849467,0.959234933351728,0.95877745682193,0.95864200436103,0.958569865397464,0.958556512300877,0.958708022242084,0.958844839319196,0.958482275096697,0.958122559986376,0.958234840215271,0.958473599697598,0.959324215754243,0.961030971417324,0.961873632347796,0.96268065315206,0.962894081532079,0.963329872794486,0.964084464376786,0.965853050262954,0.966492914271244,0.96655704156604,0.965201296158944,0.95675833490072,0.953477437102095,0.952978827111655,0.952680717866118,0.952560269738344,0.952991439554736,0.953459716886404,0.954234129283907,0.955650729128684,0.956853739907315,0.95739590243125,0.957881675216245,0.958285580464002,0.958311817455467,0.957936524894182,0.957557305438657,0.956970870377843,0.958123172007614,0.959158169578757,0.965572109303158,0.967432921017369,0.966102483631338,0.960380736452956,0.957299601291326,0.955309059854863,0.954302240063412,0.953679385868155,0.953411190417216,0.952894196977504,0.952492215516328,0.95236873777731,0.951956117651324,0.951144954155626,0.950692399559932,0.9504022932088,0.950356853951334,0.950643195260481,0.950705292272535,0.950679905406245,0.950497096496159,0.949952834594083,0.949594744352578,0.949338585188304,0.949407930368734,0.94974680009243,0.949430484963027,0.9459500944304,0.942915615628885,0.940552756967252,0.938890850174889,0.938585634967673,0.939924500893687,0.941067422278424,0.990854240674802,1.01787980949936,0.931534190837843,0.926760449568235,0.925859361682727,0.925594368533051,0.9269605563544,0.927029895457595,0.928606665203725,0.930211123772559,0.930311179259323,0.930103272060785,0.930203293258894,0.930094600429533,0.929968837015743,0.929816001458559,0.929366094051871,0.928919210902397,0.929030043542815,0.927242974698953,0.926960842386596,0.926998444904272,0.927172747415107,0.969913288281924,1.00842125800488,1.00615937922282,1.00624437041707,0.921851174208951,0.921489500935504,0.920274615958547,0.919419081511391,0.918752676207683,0.918352154670193,0.918595651248596
1.03406474351479,1.03489916560129,1.03584116631561,1.03578518784006,1.03421246939511,1.03227407803196,1.03135063639762,1.02908084457964,1.0279832997606,1.02951366748209,1.02158400990623,1.01678178928207,1.01576693139178,1.01605533742762,1.01952270748454,1.01909082538916,1.01619723565877,1.18168958621502,1.00873373427655,1.00745777300668,1.00576139554165,1.01827032676164,1.01915325839251,1.00409486225006,1.00345829046994,1.00151313971922,1.00046336484029,1.00004298620667,0.998952611629323,0.998196136965204,0.997027844839836,0.996574993386019,0.995239739978653,0.994649080018757,0.995033927598823,0.993940845264699,0.991199163332457,0.988799812348796,0.989991743380953,0.990156621471002,0.990269722586209,0.990013960879727,0.98876154111784,0.987794724459117,0.985981153354798,0.985036996241088,0.98439310424769,0.984571776795504,0.985228062217526,0.986788521923377,0.989575145832036,0.990151084283089,0.990685660307716,0.979466610447064,0.977725160759592,0.97700778249483,0.975293172849581,0.973627610125975,1.02064786370579,1.02171409986721,0.973084997378666,0.958431477858767,0.95831755437113,0.958313729123857,0.958526076240159,0.958731149934936,0.958346694522678,0.958893723025032,0.959388459645294,0.959134439385327,0.958310862318477,0.958354786793695,0.957748503430052,0.957869630484319,0.959851933353909,0.960301334587116,0.962622884597095,0.962473523114286,0.962695463361559,0.962948197558339,0.967359536799452,0.967223836471846,0.967510897000202,0.976598303312396,0.955154313366467,0.954242868608321,0.9536748472446,0.953225004525355,0.95181617210036,0.952231549049386,0.952559227026964,0.952722578534151,0.954626563427078,0.95598900651897,0.95688363457848,0.957482344757587,0.958277424389502,0.957906130103535,0.957257964981386,0.957275254352317,0.956613544504862,0.956301517820788,0.954707508946986,1.17593274401589,0.982925267753056,0.964027484729386,0.962653382444253,0.962757867366932,0.954484931553604,0.953949927601688,0.953197955529184,0.95336084519669,0.953346913379648,0.953158867512373,0.95328688973909,0.95312828824975,0.951407136120271,0.950568881221791,0.949976995835015,0.949768930075203,0.950754433960311,0.950860562797219,0.950963603308829,0.950908616953286,0.949588453336863,0.949609426973177,0.949568157764528,0.949596370471147,0.949852398590215,0.949726874971929,0.949321894896883,0.944492640810778,0.940882912544754,0.939130507230947,0.938681685275934,0.938912089085213,0.939768666141419,1.06793568718132,1.06994939741558,0.937743910280854,0.926274652752199,0.925774380927221,0.924962253838119,0.924808433000058,0.925346205906361,0.925141579006438,0.929331162803628,0.929185031524574,0.928072862872122,0.927910058643571,0.927314844427305,0.927207597973421,0.927044855679756,0.926862763567831,0.926624880868694,0.920830743264819,0.924431692142039,0.925831651286033,0.925797793767994,0.925953750676391,1.0189699406149,1.09877506731933,1.00754540482206,1.00702759994906,0.919863332103337,0.91990424098237,0.919135173445899,0.918541247617537,0.918610095329639,0.918053965281826,0.918501075859989
1.03485074369121,1.0346411206338,1.03476122097435,1.03464773512694,1.03398912216709,1.0328754311446,1.031395177093,1.02994502424543,1.02890212046621,1.02797894110262,1.02394052740214,1.02101354490974,1.0204915434876,1.02019979701452,1.02086261896103,1.02184201189425,1.0241289520193,1.02696044435169,1.01569110609634,1.00821171741367,1.00598895550308,1.00468542645149,1.00418320875809,1.00413343160327,1.00387827148504,1.00300547973435,1.00207180213652,1.00090636740157,0.999770719326995,0.999074773409145,0.99829838147101,0.997022915029218,0.996433561661346,0.995142388718994,0.994353676769422,0.992942969332417,0.991396418924633,0.990269423295881,0.990019850605182,0.99022338710318,0.990651678656653,0.990952273125278,0.99051883774071,0.989646444699128,0.987953087752465,0.985821144663084,0.985183329209363,0.985454033963038,0.986317967728724,0.98781619536249,0.9895628843552,0.990609123306578,0.991425193245958,0.97825045434742,0.977762835339973,0.977452235448124,0.97701793886701,0.993769794062821,1.00126589417962,0.994957828576911,0.985839850508433,0.958491247993312,0.958282074736283,0.958202921841169,0.958376386308355,0.958530134046066,0.958726489770985,0.95908916936827,0.959326683516969,0.959101261563925,0.958504539159984,0.958163790559389,0.958020428565626,0.958153950942965,0.958806576647377,0.959277423042631,0.959947282953945,0.960294157390637,0.961120424263266,0.962554292351089,0.964285938634788,0.964479856205628,0.963825392118066,0.962460590611231,0.958717811439104,0.95604026615844,0.954541510604197,0.953426097380218,0.952441802150349,0.952005880927081,0.952193069943438,0.952873543280465,0.954102154903345,0.955336670754069,0.956529024086961,0.9576521703956,0.95840332640393,0.958527917923088,0.958254876225195,0.957901769314547,0.957332328821417,0.957075245655402,0.957274688327619,0.959260619584155,0.961116786140082,0.96245476945937,0.96236275234925,0.962141320322415,0.955662500602229,0.955096795723439,0.953658587921434,0.953277451833946,0.953293223354377,0.953496014700883,0.95374973352754,0.954015369170489,0.952422965816838,0.951273566220859,0.950896865154914,0.950643698575829,0.950714019247677,0.950610003522518,0.950622432946842,0.950483874369347,0.950009660269348,0.949655343958377,0.949206091430358,0.947970760480197,0.947663956877264,0.947474720300306,0.947372315213976,0.945530042262652,0.942725010299207,0.940980458002782,0.939315938378103,0.938472586745112,0.937527082397197,0.936333098707647,0.935685096349313,0.936158774903036,0.931507960712473,0.92855571492761,0.925595960847161,0.924664133280144,0.924274496986586,0.924059262128803,0.924297175483725,0.925747196706665,0.926547597456574,0.926721748720156,0.926483819873555,0.92609856005236,0.926190903285854,0.926167799660077,0.925652572926598,0.923657061600223,0.923928465358852,0.923984159852278,0.924116388111161,0.924535756259392,0.992486078610498,0.977458856606385,0.963396912327358,0.948620647083492,0.919478112971333,0.919230891186092,0.918860439647325,0.918964688544203,0.919411380300876,0.920631550337073,0.921654620306057
1.03507144306804,1.03410919604391,1.0338629051489,1.03410684917078,1.03419702031625,1.03387290563609,1.03135234129265,1.03027565916666,1.02941356386258,1.02885268425918,1.03012962966859,1.02249973133678,1.02191359954739,1.02184459424488,1.02194046931803,1.0220522424916,1.02413149238885,1.03383156941066,1.024385607432,1.01173389376705,1.00625909482108,1.00554561721846,1.00523236478105,1.00517068996033,1.00524540474485,1.00468984920337,1.00388065817063,1.00174152340143,1.00002469596093,0.999904194841047,0.999948206149467,1.0055390123613,0.999052438963586,0.995090373740168,0.994070315398203,0.991962888185385,0.991120645431315,0.990843785418001,0.989582142157646,0.990073028661064,0.991138273636734,0.992659681156743,0.992677143741492,0.992543838656251,0.990459483705146,0.985079883915943,0.985047873328664,0.9859638219852,0.986692591818896,0.988669350526099,0.989848370999571,0.990465477386829,0.991882622211461,0.978358378463278,0.978223643904124,0.97805281180538,0.977760546724351,1.04037088255004,1.10807663179847,0.975395761697146,1.00602862752146,0.958398057333033,0.957763531318433,0.95761105895812,0.958005384358568,0.958280853151348,0.958790440390088,0.95953607939774,0.959597567423948,0.95958222852164,0.958327338626148,0.957886598384846,0.957939909900178,0.95799268919689,0.957904279852069,0.958097389554447,0.957561683106912,0.957614589665091,0.958732515998713,0.96156602618001,0.962864089136127,0.963029734461438,0.962609831526948,0.962771965498211,1.07009746451259,0.958803393021289,0.954573089323019,0.953365836810345,0.952348481871948,0.951087030848711,0.951304039775903,0.952461809675741,0.953599512922647,0.954691589620702,0.956271987049276,0.958127289673488,0.959152369409567,0.959452228401091,0.959284681251392,0.958602363400678,0.957620074217409,0.95714738475142,0.957672911940991,0.958678721984908,0.960920054627256,0.961921887469172,0.962339061727259,0.962421513422758,0.956256841911278,0.956559733566523,0.952197922184054,0.952240401267077,0.952791026910395,0.953472096662998,0.953838191472757,0.956553085150976,1.23854728694708,0.950634947391547,0.95101959118605,0.950709078869098,0.950579811499788,0.950071613788153,0.950334664155406,0.950300097972049,0.949781015618719,0.941269911118117,1.19971525415023,0.945405363956956,0.945231854219584,0.944951100804328,0.947065391121079,0.947304175087249,1.10109379542731,0.942106138733034,0.938200935603748,0.937085842905369,0.934004432766699,0.933185923017363,0.933015762171539,0.935182363516742,1.06547778213723,1.09933475416574,0.92370486583934,0.922847263450405,0.922249319186901,0.92162820854377,0.922297933593211,0.92282236371817,0.925002150549949,0.925794328532571,0.925487621530402,0.92456413461394,0.925174020043114,0.925647851730128,0.925673447126135,0.924217057066099,0.923429693233163,0.921711994304474,0.922059221219276,0.921139590352898,1.0526847936634,0.939306319832584,0.91897114170345,0.919002992637478,0.918834837144359,0.918351302313683,0.918022232330197,0.931325785802448,0.975898323744063,0.95755808166213,0.926530376519875
1.0349196716434,1.03418799834048,1.03398047601397,1.03402240164726,1.03400908375262,1.03350811290891,1.03119519811999,1.02997541973332,1.02927047092846,1.0287754769337,1.0280544504879,1.02505228598502,1.02373369883325,1.02336598718268,1.02338518693891,1.02331049300532,1.02334137368177,1.02313417490621,1.02336421448937,1.0137862583821,1.00656415485283,1.00549974526408,1.00481310843251,1.00486110359734,1.00502879913956,1.00473743095323,1.00400584553868,1.00282365295211,1.00183930162888,1.00153218594575,1.00162358631897,1.00206728969992,0.999243590497608,0.997058626380377,0.995513759171516,0.993868754499169,0.993092820495256,0.992391863267501,0.991351796203834,0.991187719481006,0.992007593503366,0.99273777030807,0.992929827850782,0.99282949905508,0.992182153414593,0.991571713469597,0.990977867704489,0.990578195153159,0.990956801413096,0.990866839701715,0.991430562945019,0.992111347831393,0.993137334265411,0.978317443199774,0.978300078737744,0.978202458283599,0.978172528152845,1.03155709261169,1.02137242387852,1.01651441349507,1.00750504530518,0.958458859209341,0.958165637472596,0.958006950711286,0.95824993807615,0.958748569971926,0.959116896603351,0.959324642377397,0.959346548086237,0.959113767622475,0.958620463093802,0.958521126139705,0.958465719431372,0.958291097844002,0.958065429183417,0.957941107589778,0.957777230956215,0.957939937692834,0.958996458706248,0.960638533628269,0.962423136781579,0.962657991972455,0.962123708967846,0.961330133591211,0.959534135859653,0.958334414880523,0.956293446789675,0.954567344123723,0.953280479052211,0.951955610629872,0.951658501881751,0.952222487144484,0.953389005520938,0.954910547885969,0.956523121055465,0.958051339642113,0.958885679944446,0.958521904999323,0.958321357068876,0.958057977126609,0.957931314462391,0.958473942254362,0.959241569014366,0.960393715751436,0.961685945290434,0.962483533584339,0.962891696162153,0.962432093339255,0.959426506369802,0.956921266010294,0.955512385329314,0.953782027035638,0.953319306378567,0.953556389139589,0.953964368762298,0.954891480810273,1.0112063875614,0.957336098821114,0.954082823232073,0.9524430387536,0.950283929725618,0.94987781401212,0.949397593934641,0.948831492326934,0.947843855318702,0.94553516818419,0.94535316636518,0.945212616188349,0.945035564745693,0.944902795770664,0.945397099346613,0.945277508680828,0.944707533170669,0.943392613630095,0.941244839567292,0.940123451410991,0.934827240142635,0.934049669760446,0.933023457381458,0.93275673527268,0.931469014858656,0.930636664607566,0.928185469072138,0.925201899140267,0.921529617239202,0.921944955363554,0.923839583875968,0.925177225791996,0.926204548539197,0.92613350944138,0.926094085313793,0.926061418321002,0.926385337394246,0.92624220221846,0.925992461086152,0.925149470569141,0.923711070543935,0.922191839054264,0.921410856254944,0.920095336010386,0.918756950604243,0.918517092266055,0.918493709264439,0.918874455697336,0.920130617052611,0.920054976554016,0.919106422211206,0.922580094397352,0.959037523158758,0.957613808964904,0.926666587597756
1.03443391429221,1.03378038949701,1.03383564054268,1.03405390341611,1.03426123821973,1.03497893260959,1.02993305200891,1.02919763701249,1.0288438723686,1.02882473638731,1.02811199769217,1.02591364875322,1.02467207935801,1.02452294663115,1.02503108696607,1.02463050047173,1.02269338718501,1.02219718617152,1.02226974197482,1.01621914109942,1.00846328716842,1.00568964145259,1.00391275145534,1.00439460914498,1.0051673526243,1.00520991760525,1.00448327954025,1.00370990953812,1.00287197638046,1.00270572469694,1.00264833595618,1.00178305363448,1.01150921292699,1.00314282533812,0.996254852204807,0.994461379975239,0.994644591515613,0.99413607136657,0.992170800867913,0.991257572601227,0.992904238724704,0.993293396266385,0.993425434491953,0.993787488933089,0.994061569701624,1.01639977778518,1.00116243507916,0.994787487004333,0.993738186552982,0.992665937312323,0.992552374574977,0.992437213982181,0.994072146383939,0.979070191551608,0.978939634791635,0.97827094509057,0.978240282491945,1.05493230456831,1.00953756757798,1.02597927918485,1.01008651467632,0.95837334796497,0.95801433607755,0.957724684043653,0.957952733412979,0.959315533767581,0.959423148927287,0.959420544201399,0.959210335369692,0.959053511720002,0.958402481910122,0.959230289749469,0.959026316958636,0.958723089750077,0.95805777791758,0.957865788694009,0.95758350434112,0.957334071960494,0.958451134176969,0.959225541728173,0.963483552692757,0.962900826379015,0.961776342635407,0.96073496416005,0.95852425565821,0.95821432444027,0.957467639030661,0.955261530553386,0.954133557030993,0.951742356050335,0.951126864879292,0.951346880359945,0.952836373253925,0.954943005162693,0.956840714257631,0.958550846049665,0.959828678299244,0.957431061364008,0.957561551663345,0.957362120238482,0.95756393774796,0.959360531411109,0.96020711783083,0.961641761848154,0.962632269311262,0.963121370779266,0.96401004891367,0.965277174014504,0.96593985462853,1.06845392126475,1.19148865557556,0.953572934480696,0.952677611663164,0.953007397038909,0.95303630417581,0.953877653175301,1.21329003020001,0.959230914550571,1.20911898464234,1.20981193787002,0.947931940831146,0.949216872267545,0.948232750738978,0.947497025651641,0.947367069366989,0.94679178866085,0.945320826317755,0.944765750533481,0.944500383703687,0.943858441430057,0.943811491584551,0.942725633967804,0.943632069768555,1.11852423430798,1.03372744794609,1.05507344935465,0.935001953812971,0.933540054925084,0.931157990204748,0.930292806590909,0.929787311274411,0.930170665928936,0.930479829564818,1.04253924768902,0.918272369832298,0.919242501146615,1.03907448155066,0.911139821359344,0.910974233950231,0.925073301688856,0.925763892503722,0.926937262679285,0.927676901754702,0.926842465331722,0.926441278462176,0.926383393000371,0.923496350873123,0.921487567573778,0.920674364452328,0.918217498790055,0.916892706674209,0.91567788293852,0.917101205938178,0.917310385733368,0.9221626495226,0.922064760983336,0.918616142469261,0.918007819000338,0.961817228132512,1.06124898483616,0.926469290851803
1.03416534589134,1.03380929546241,1.03413845343606,1.03421021663133,1.03421547687782,1.03404370681351,1.03260622564131,1.03171856740283,1.03092190527279,1.03023823922752,1.02918303988093,1.02743349296891,1.02638281522247,1.02588103576054,1.02534577426899,1.02442483523376,1.02283010308258,1.02213729392737,1.02215868944971,1.01676975884421,1.01258375360682,1.00563738751511,1.00502211225935,1.00453212508237,1.00434446931793,1.00434435552126,1.00411892254886,1.00364707707031,1.00318903962549,1.00327807060856,1.00401660425353,1.00621066742664,1.00788002509948,1.00547076902897,1.0021353018145,1.00067459205813,0.99750930508191,0.995114822251892,0.993338849107317,0.992186273353229,0.992327031522794,0.992761586197944,0.993482629982277,0.994205248684785,0.994926590847331,0.997244502656079,0.998462475151548,0.996541197502779,0.994237428221022,0.992952589593341,0.991966028163061,0.990965792410883,0.986723428350599,0.980278544513382,0.979801119737706,0.979200718203857,0.978802869353512,0.997347330805543,1.00875421505595,1.01871942066527,1.01585392929307,0.958896853186852,0.958816222194811,0.95855831474818,0.958675219824702,0.959117477930739,0.959286256600475,0.959008514240666,0.959073948483826,0.958921040776602,0.958712980831423,0.958477717205465,0.958213515952802,0.957973564199029,0.957890963686465,0.957843135223716,0.957985373909717,0.958205311827449,0.958795976464075,0.95994848613954,0.961983945464257,0.962282901410281,0.961956488027858,0.960929568847832,0.959523430342827,0.958279007952668,0.957019500967063,0.955502283011563,0.954115654093355,0.9524025378378,0.951487111857339,0.951179517845602,0.951976611990238,0.954491246360539,0.956320677040706,0.957411300766159,0.957690428760197,0.956149940418992,0.956560754403983,0.956833738222156,0.957754311339953,0.95925471508091,0.960922436809848,0.962541246509328,0.964461585512468,0.965236425918939,0.965443561859861,0.966411450054765,0.968369064751101,0.971336409613704,0.972413581983763,0.962609591248087,0.953400120712215,0.953467490942735,0.953488037764074,0.95412180862992,0.955272504865047,0.957357775692282,0.948141821202748,0.947802297925111,0.947719518940885,0.947955248841666,0.947735002414447,0.947420874568734,0.947148414728013,0.94669107488036,0.945910013138599,0.945325887884579,0.944890929552124,0.944464474210422,0.943987676200489,0.942411987533132,0.942142088210046,0.941736407554669,0.941565184345997,0.940901672731132,0.938193724716533,0.936496166674481,0.931173047551389,0.930369456299605,0.929547259131568,0.92895866425475,0.929293281157959,0.929386799898207,0.927491155518295,0.922533465247357,0.918334569774977,0.91443220352908,0.914418378094693,0.927924145128314,0.927971425722158,0.92804425080987,0.928519283845399,0.928889527119552,0.928647422112899,0.926972465447301,0.924817013044796,0.922793224366089,0.920527787851912,0.919644183884114,0.918524289382733,0.917910664600583,0.918585389782836,0.919895994504869,0.921778467382197,0.921843633391391,0.920491052344803,0.920114815227596,0.921339898762096,0.923052820880361,0.92485717627157
1.03215982674085,1.03301315249249,1.0346621922045,1.03446970221032,1.03431409849795,1.03437169259603,1.03474871687893,1.03418634997954,1.03286566286961,1.03201751149029,1.03093900109964,1.02826603958239,1.02752520885231,1.02723886735758,1.02595798373991,1.02491851654209,1.02219445238801,1.02169425485159,1.0219342370254,1.01663242381663,1.01605727766234,1.00622940357658,1.00633235756457,1.00417421699262,1.0030984499404,1.00369398281512,1.00383544352489,1.00346982126306,1.00242024629589,1.0028652985429,1.00355023070815,1.00836254720344,1.11397857941997,1.11342184776697,1.00379686596961,1.00210122375987,1.0011728566769,0.994781992821471,0.99383391767599,0.991598918029702,0.991244922529254,0.99179831526404,0.993522704632751,0.994889153858149,1.05230276058723,0.999042630576819,0.999075814896775,0.998758332181862,0.993972993821622,0.993186201406297,0.991800813650548,0.991039445850449,0.982811115858928,0.982298357756941,0.981138397796797,0.97966457110397,0.978492693163049,0.977165709633528,1.00965134485447,1.11949567104732,1.1136971344017,0.959148231490469,0.959449687732429,0.958761101412221,0.958785676814764,0.959112879579828,0.959408479987904,0.95833567208132,0.959040297229208,0.958965871990458,0.958961917309978,0.95785213684899,0.957306066654708,0.957132600115862,0.957616362116614,0.957645826089742,0.958198459411928,0.958610755538497,0.958284019956157,0.959328138890307,1.09901493574429,0.961861944241058,0.962312372884094,0.960858159516572,0.959796617378306,0.957760475018141,0.956509042305418,0.955341295250726,0.954241056730815,0.952168784595813,0.951195834717787,0.950050090025969,0.949390014240356,0.954557311507075,0.956300957274189,0.957084805893083,1.00177934236079,0.953408496767664,0.973053197504101,0.9564416525149,0.95783521885413,0.95917007579685,0.961457368445097,1.1602346882044,0.967526765247159,0.967401324311593,1.03066890566546,1.03678367945439,0.99306270619326,0.973125749291548,0.973485805250527,0.977774533181792,0.953757781865854,0.953602699852322,0.952971256193911,0.953453323731763,0.954170703270589,1.20910565878676,0.941260119213467,0.941064161580735,0.940636556234924,0.947334682419004,0.947175244693328,0.947225462255731,0.946909864985172,0.946824190028156,0.946103553022363,0.945634349003729,0.945088816992034,0.945032943398777,0.944831276179672,0.940011330451645,0.939352711909923,0.939321925076999,0.939827019134193,0.940154251298258,0.940257596355524,0.939766003830669,0.930454651606931,0.92978783649857,0.928514766444203,0.926142518135015,0.927451310081178,0.928849868921648,0.928549612580772,1.06106242050564,0.915115773185817,0.914796033247868,0.915555508708216,1.01237759500836,1.01284039022999,0.927752598517344,0.928722355587294,0.930984321685115,0.93163342177399,0.932332587115149,0.987290572104288,1.00221367207931,0.918746500947323,0.920493619680409,0.918984536214577,0.91800496549334,0.97813011702037,0.921392805361458,0.92282015730886,0.922847388825545,0.920739293200308,0.92009743999797,0.920313755410911,0.920441977119856,0.940807176754425
1.03403560752459,1.03382082218078,1.03422613959152,1.03440260232376,1.03461625182362,1.03456045956685,1.03447079824314,1.03387431451188,1.03295718850102,1.0317856128622,1.0303899333368,1.02858635602921,1.02770244253978,1.02713854324986,1.02598095986651,1.0236432794764,1.02186782325672,1.02112191412864,1.02109502398616,1.01497422499012,1.01439798905712,1.01233877708277,1.00865299102915,1.00482362673151,1.00412879950478,1.00423710206981,1.00480415562833,1.00571462292934,1.00628116667558,1.00726980455816,1.0076755179865,1.00854352071458,1.0422972272253,1.06090535404643,1.00577810906946,1.00425392127098,1.00320692843765,0.998346300687653,0.992667191369415,0.992080768227296,0.992117082695635,0.992596277573429,0.993728884948751,0.99506117025868,0.996879994880403,0.998309858693064,0.998475095793712,0.997908123202221,0.995816579307,0.991390893094533,0.990676504901748,0.990093700575987,0.982199910936154,0.981709034041734,0.981125891450396,0.979809069359964,0.978517128493549,0.977582936732683,0.985972997375658,0.992271443389446,1.00159510246328,0.996448630901365,0.986400932741034,0.972854792628829,0.958569278437841,0.958339878794649,0.957875398287631,0.957127453275912,0.957249675566667,0.957682489795714,0.957876052554571,0.957600738686033,0.95725966767497,0.957101595928676,0.957212086284446,0.957299318553341,0.957532602077514,0.957670513285603,0.957635391462817,0.957911603281844,0.95864840592038,0.959963984597749,0.960842237750529,0.961627843997576,0.961400665137352,0.960666399156952,0.954129581261461,0.953266536564865,0.951715583010613,0.950555070695142,0.949716451356367,0.949220477922623,0.949657359594985,0.951995265322181,0.954107895804006,0.954610114719312,0.972039731681969,0.972095985292434,0.971532299710605,0.969457360432328,0.966121586295927,0.96242445751719,0.962880275307161,0.964323597269635,0.966019822548954,0.966654835247178,0.966646635259117,0.969761606706846,0.977824507445744,0.976455660189656,0.976653924891857,0.977853767123275,0.964065856854995,0.959238883877455,0.954296384019472,0.95433240358164,0.954861509663637,0.95559007844972,0.946610763709003,0.942146328466339,0.943283920588576,0.945611785013556,0.946354276430892,0.946544677530913,0.946172138823568,0.945393059891645,0.945145585504088,0.944996850416194,0.94477845952752,0.944435246613628,0.943628764314868,0.941540118966592,0.94025741091107,0.939628479519695,0.938680964642337,0.938401013451603,0.939389678268642,0.938559089053907,0.934628621267849,0.931021046171027,0.928457516084408,0.927298195324366,0.927467611127559,0.928133714430108,0.928922965421341,0.92933249539176,0.920555287487408,0.918245722350598,0.916530119167677,0.959370752649984,0.976692939469479,0.960843684924576,0.929851648787113,0.930551572545972,0.931069239146892,0.932079458311991,0.932636350336186,0.932387747163996,0.926671201130388,0.924120798682375,0.922007311436721,0.920993167408943,0.922376703547563,0.923557879819831,0.924645535221635,0.924693783684511,0.923059934331055,0.921748725661703,0.92133804378216,0.921758571013796,0.923231208855482
1.03400005102176,1.03372629346219,1.03389013444258,1.03426119773866,1.0351806537989,1.03477189910672,1.03473714848001,1.03387836324359,1.0333395499655,1.03177866426272,1.03024757712719,1.02797480197778,1.02749764377555,1.02732765885139,1.02699104734508,1.02185533634561,1.02106258138566,1.02026067314554,1.03170900683455,1.01442233842056,1.01462453546626,1.01472014305267,1.06983981205105,1.00470801943892,1.00382868784346,1.00430734656735,1.00511360760307,1.00839248013491,1.00999164590351,1.00996337443717,1.00948484513013,1.00948371788108,1.00769270920479,1.10454078308917,1.00925160648433,1.00572277416236,1.0054180024977,1.11136371762204,0.991397976316128,0.991610491501753,0.99207009658257,0.992381566102124,0.993462013280015,0.994429340255517,0.996773634783841,0.998631271537477,0.999095472025145,1.00764179826081,0.997666703360978,0.989751691365573,0.98913442247255,0.988349845820809,0.981758435500791,0.980978282049487,0.981552468658403,0.97965934224262,0.977941327762762,0.976934421968798,0.975880066797346,0.973272428436814,1.01588439219346,1.01512222026011,1.00364579725324,1.01772489904254,0.958077367533744,0.957595403181039,0.956386979631263,0.955049563946953,0.955042923505788,0.956715028083313,0.957184587644842,0.957502740969647,0.956960802438695,0.956875713374345,0.956748552953872,0.956836886864493,0.95683565518103,0.956814189776647,0.956401401352259,0.955622091815923,0.957276789570467,0.957617428638801,0.958281844919611,1.24975003079445,1.16627578165984,1.15217692250401,0.950194327630454,0.94883357004975,0.948819113356622,0.948415810315853,0.947785028295463,0.947559224016102,0.947988398907794,0.949514691113814,0.953578321009939,0.95296420997299,0.968408357588859,0.969731223908092,0.970059810468411,0.969633205291966,0.968563011478469,0.961410992450974,0.963234718900051,0.963781645238946,0.965323683350925,0.966430489794891,0.966040183309173,0.966152650792544,1.03282011002811,0.977697639685342,0.977833793127011,0.978152080750588,1.05579418443095,0.965891124943054,0.955516266742793,0.954520227013327,0.954379461230191,0.954524159013398,0.952616042660268,0.939118960460318,0.957076365552444,0.956748490466166,0.955118179649714,0.946216577267037,0.945559630442601,0.943453151538752,0.943951568368381,0.944481709412092,0.944454944193728,0.944394412148509,0.943459496604114,0.94189154609175,0.939738382752783,1.08568891213521,0.934294931449078,0.934681134000171,0.939893386140843,0.940476176366366,0.940825488999887,0.941390272919502,0.928330837577504,0.927013459050789,0.926633044679122,0.926695042331545,0.930609683952888,0.931261497245729,0.979496528532421,1.03111440329321,0.916082486726492,0.916940288745097,1.01239631333767,1.0058654835648,0.929701209530854,0.929742022938485,0.92930987809196,0.931256002239775,0.931674195565425,0.929563246165944,0.927876744902626,0.925627839922266,0.92319840377187,0.920875127114164,0.921977220945521,0.925501627791411,0.927122484176741,0.927677351488575,0.927763578051933,0.922077978900684,0.921715366206604,0.922430060373715,0.923893150103021
1.03373498939316,1.03295170679025,1.03278973229436,1.03305176850011,1.03344971153732,1.03352073656522,1.03362666924343,1.03327249392145,1.03270439043817,1.03166569639846,1.03033234860179,1.02857682054062,1.02782976151216,1.02745339412632,1.02635363150978,1.02319195203814,1.0218726654549,1.0200076722962,1.0162844568108,1.01428198702015,1.01518356715053,1.01661028241173,1.01805551489484,1.00827565216249,1.00627584630705,1.00580795991366,1.00625465963554,1.00783685341504,1.00908011139589,1.00964464675197,1.00949414379858,1.00849478612677,1.00733268703625,1.0064398584478,1.00492463294668,1.00286649906519,1.0001072380738,0.999134739469902,0.99498082634624,0.992531612453836,0.992399075921916,0.992658253640361,0.993398197312993,0.994301659816668,0.9953865956453,0.996199466096677,0.996392527227043,0.995878403490361,0.996275876774194,0.990120716270607,0.989068345308804,0.987527298938291,0.984792398276368,0.982488255510546,0.981853617261899,0.980800390218341,0.979430936643449,0.97768746683016,0.975319562287791,0.972773428570341,0.971258709722043,0.969902018104152,0.968384713871355,0.967630146761051,0.961142182833082,0.959899302981909,0.957212037312053,0.955580143881133,0.955265814836226,0.9559214164952,0.956332009493367,0.956717441221766,0.956879138499097,0.956892768028424,0.956854461246971,0.956866602781131,0.956950443264246,0.956995507234402,0.956805794086308,0.956707929136767,0.957294122886604,0.957658201218643,0.957827777523633,0.957029349165825,0.955508349122468,0.95332308890985,0.950983019726527,0.949462987981647,0.948345106260453,0.947871190932609,0.947299083495012,0.947297191060697,0.948101893609554,0.949973045741025,0.951241756213434,0.951360826171144,0.957263711044158,0.962444764329533,0.969394768596775,0.967291799041909,0.965106828965443,0.962920991421985,0.962835862905676,0.963015764293621,0.963680865520678,0.964506026956485,0.965387208887578,0.965955920503561,0.966738613486297,0.97894697780695,0.998796675917102,1.01325813520966,1.02899840633121,0.998951754746153,0.956152481271181,0.955626598823415,0.955190807388268,0.954348273274224,0.95341626270282,0.953764995187073,0.954482700751996,0.954096781146172,0.953262856529516,0.947846155341186,0.946744812643452,0.945587756119578,0.945118786251574,0.944659520666355,0.944119243720142,0.943312495919532,0.94222746634581,0.941004094812065,0.939586516771167,0.938111430244836,0.936755117696825,0.936533049244942,0.938098544661892,0.939515487795132,0.940308878608088,0.940825572357956,0.934483422079208,0.930826927514797,0.927873252823708,0.927129413919361,0.928781391493254,0.955406987190457,0.961163487948989,0.956558905284299,0.924926207935568,0.925146820008996,0.92560451261286,0.926842593778554,0.928401734355161,0.928961578158707,0.928746702990034,0.929046069361645,0.929160272808785,0.928529718121425,0.929473569397408,0.930353805876491,0.930417910162083,0.92977307448365,0.928763184375727,0.927556024530364,0.927565849309248,0.927672815187133,0.92698769934637,0.924667385282662,0.923342920615653,0.923062401415106,0.923362373472912
1.0320990256001,1.03116734685345,1.0309961549765,1.03153579453499,1.03195039786067,1.03221117914358,1.03303487942688,1.03292806172079,1.03258850471369,1.03182855532209,1.03079905785206,1.0281025293728,1.02768011307647,1.02816530632157,1.1550020029339,1.02393706558547,1.02348821869503,1.02231009172268,1.01234715738746,1.01196962267039,1.04226072341031,1.01788156672849,1.01800985081793,1.01202447333901,1.00741182826421,1.00655449423528,1.0059940635256,1.00790373240258,1.00889321005897,1.01024793843991,1.01012890442721,1.00722581010374,1.00646653365354,0.997508200194842,0.997435525257067,0.997456453300995,0.997742807097403,0.997987228764629,1.11726270407299,0.991406021947722,0.991536625203577,0.992111972773,0.992933998138942,0.993744019460703,0.994070985563351,0.994539513929654,0.995024735398247,0.995993051823327,0.996368373118402,0.991221595232597,0.989173724962651,0.987987705129935,0.986913691263799,1.00348746968518,0.98248393269235,0.98224814147119,0.98149029023743,0.979668192904606,0.990048951110823,0.971976722310643,0.970222827774824,0.968686106872376,0.96640459360294,0.965908386569942,0.964145207124536,0.963637605237259,0.956105335742608,0.95456671182241,0.954313436966784,0.955323951230916,0.955373448260074,0.956211448987721,0.95684257773781,0.95706849247914,0.956802817683727,0.956909664573111,0.956965206828695,0.957380517327657,0.956850557040534,0.956822216039428,0.956982261472453,0.957124328818668,0.957027464039437,0.95539958528502,0.953416194354883,0.950577099463963,0.949603247364501,0.948268587355175,0.946586199209983,0.947112871285419,0.946077577050881,0.945963310013096,0.946665667867347,0.950852431527056,0.950583416312901,0.950057907133239,0.949750217606418,0.950427229983094,1.00436459462001,0.964052122266031,0.961706652595293,0.96198437197669,0.962123949866701,0.961618377273345,0.961529422347288,0.96209059684473,0.964524190742438,0.96527580649074,0.9657886083492,0.977338267727989,1.10676521727645,1.10269838213267,1.03631925557112,1.21299685768061,0.957040102755268,0.956307229858135,0.955880940473549,0.953634094806494,0.952421800789634,0.952025020982439,0.951934817291947,0.951924303337434,0.952809542506766,0.948087445033264,0.947364681729028,0.947182693126781,0.946155749829435,0.945041617463361,0.943867189755595,0.9425606751743,0.94090831810636,0.940204261030992,0.939177848924145,0.937673198224744,0.937373909923683,0.936291289948972,0.936253980761879,0.938994488264106,0.940476242887248,0.940726932112628,0.940677830002453,1.06778762042035,0.92711857401341,0.924609658430625,0.923330907263758,1.04628830199499,1.10508271849429,0.924758092202731,0.92440783243518,0.92413835787391,0.924035691242283,0.92544827304068,0.927403737884829,0.975866886855718,0.972678166851419,0.970305478037105,0.969163552659496,0.964606125816608,1.02442473959182,0.960251034754191,0.959728682206294,0.956019347885702,0.948092188077088,0.928448643591473,0.927966818481129,0.928457310372057,0.927908959874913,0.926537346130697,0.923947266829474,0.923405065295982,0.922924511379429
1.03181883667862,1.03138876974682,1.03090796135141,1.02970983018543,1.03006462623208,1.03162334436334,1.03266252662105,1.03318657464676,1.03307585059462,1.03185675938731,1.0306274001365,1.02822169043067,1.02738008485722,1.02647369820425,1.02507660613711,1.02425233733622,1.02374157431639,1.02314906600609,1.02269190239442,1.02150301751304,1.0197722758615,1.01840341238792,1.01718910841083,1.01546000148797,1.00827851856271,1.00731430245435,1.00689841297503,1.00755234986488,1.00860733300421,1.00933872703916,1.00947419092339,1.00907488126151,1.00175888549819,0.998468984423704,0.998280106627203,0.997775346791427,0.99720692789351,0.996419018987306,0.99478899752356,0.993064720393045,0.992579532133938,0.992745651070443,0.992894070925782,0.993228076901785,0.993561666097597,0.993919707456694,0.994356966538797,0.994645833079211,0.994222148836148,0.992203172516405,0.990587133697088,0.988765273179562,0.987547759992584,0.986633778515341,0.984838706341661,0.984123809982867,0.9828382068271,0.981886277102412,0.982350619918771,0.974932111020345,0.972497733263595,0.969321897950288,0.968238791510276,0.967495432963618,0.966363276632654,0.965956176452778,0.959338377269324,0.953879468522001,0.954169065705793,0.955168709397578,0.955952158176366,0.957039276898937,0.957882989239353,0.957918917922715,0.957819225811528,0.957504759065945,0.957341062938494,0.957279406177008,0.957019983055302,0.957020083152299,0.956947504660609,0.956516992430198,0.955309281361528,0.953364318273934,0.951146239767238,0.949073004432587,0.948003676195085,0.94745933853729,0.947940837512324,0.947710061829924,0.947447867524837,0.947462931102164,0.947829817541803,0.949071871892414,0.949568670127522,0.949865237886865,0.95105416314576,0.951862212529668,0.954750769054682,0.956880907378493,0.959242104369512,0.960098954788767,0.960307062316478,0.960346090431924,0.96060009732087,0.961487662305811,0.96395842399666,0.965994703136402,0.966607097856408,0.994024346236804,1.01014612427557,1.0190438136171,1.02674762737103,1.00080513462313,0.956465497808421,0.955844305281652,0.95518287663551,0.954216691211688,0.953428020587535,0.952415441442478,0.951755437082155,0.951369977047012,0.951038837823624,0.949389176451362,0.948330003796988,0.947291325575308,0.94619388799355,0.944821409410164,0.943420312063428,0.942128771633231,0.94114393772029,0.940074009018499,0.938725152782508,0.937645831036571,0.93723070268682,0.936925262621797,0.937534611550241,0.938869786019361,0.940082552767145,0.940806484959842,0.941577430043263,0.94276996842245,0.9322057051278,0.925236698447126,0.922570081477979,0.92230275861788,0.923574806841406,0.92465585740419,0.924549477644869,0.923729237558509,0.935193222438088,0.941308242547844,0.947408493770637,0.955658311905339,0.953259634288449,0.950772277632618,0.949095870601886,0.948073669497065,0.946990385136018,0.945384783140959,0.943184125868421,0.940801777773189,0.939293211743917,0.929208034012423,0.927878212862346,0.927071361334727,0.926688000856545,0.925694924634101,0.924366826098968,0.923376059121024,0.922627628493426
1.03151419129173,1.03119937156038,1.03143180987505,1.02523479309482,1.0252890576787,1.03179450661638,1.03280271633767,1.03419027713399,1.03470842238831,1.05438067875095,1.05554905950998,1.02743621480934,1.0268145702867,1.02511602369914,1.02422870978278,1.02398285266642,1.02355466487396,1.02307911454095,1.02259122318054,1.02981196062476,1.0195246143665,1.0189750984871,1.01712227651997,1.0183875578719,1.01001857933983,1.00690254857875,1.00640491981179,1.00693614110001,1.008376658659,1.00909439256809,1.00925469312498,1.00998968431338,0.998228517869938,0.997816155570668,0.998862919193127,0.997932900162008,0.996412592242671,0.995215954332209,0.994319469446981,0.99309657688188,0.992705989138854,0.993213694004605,0.992560380858457,0.992607632213557,0.992947346414561,0.993121969850736,0.993942290094048,0.994343542291591,0.993898685489203,0.992684653991045,0.992114953956997,0.989313507807626,0.988624346960312,0.988592791135012,0.999773482943352,1.21767873397527,1.07725798086248,0.981764448901319,0.981418914245093,1.39965891238084,0.976023578977055,0.969230745882568,0.969088197354762,0.968994343432975,1.01519379722367,1.17494661826882,1.09789554942508,0.952519574823298,0.952993120221138,0.955093463548486,0.956089320215522,0.95825522771733,0.959620738620828,0.958999507341544,0.958923907857515,0.958025502482327,0.957444163854285,0.957330640535742,0.956681218929786,0.957173927794881,0.957171964852963,0.95696429693595,1.12990464372577,1.10755206651902,1.09222906359671,1.09177336879036,1.15855560922966,1.06817851644078,1.16502317268793,0.948206523341996,0.948295964471145,0.948238737616376,0.947766886953651,0.948031302777358,0.94902139766024,0.949209947301178,0.953524967351295,0.969937607053475,0.955785690967801,0.956679123805126,0.957714474485353,0.958543208653208,0.958535419922846,0.958693166793445,0.958872476237975,0.958884128492538,0.957040538806788,1.26660300865206,0.956396256404381,1.22515907522783,0.95248964744562,0.954747529849973,1.19104445478859,0.960210559154257,0.956255952710014,0.955045349677885,0.95451854228303,0.954441453701758,0.954388579119787,0.952256484438251,0.951045899944909,0.950859723735133,0.950701013658716,0.95004586249518,0.949066399735193,0.947619358586747,0.946335289692796,0.944795509290624,0.942663195642147,0.941521580985863,0.941246289508376,0.940276237303265,0.937793853107844,0.936769228662013,0.936417112381548,0.936353498190112,0.937761240150889,0.938786855274194,0.939944788753677,0.940423071943773,0.940898135629988,0.941818380485497,0.941646144587096,1.30161491468098,0.920448382230638,0.918208171265411,0.917252743206718,1.02131533408762,0.910023125642414,0.922355044045357,0.948756737983989,0.957368035082832,1.20271805147014,0.957342978689954,0.942657661288211,0.940634865579788,0.940977850023308,0.940485514645888,0.940061723780909,0.940188176434549,0.940350802112749,0.940499779532713,0.938750367226272,0.931720007429053,0.927603199744688,0.925820730234671,0.925963121224326,0.925487135589019,0.924139332700898,0.923413519703477,0.92203867746229
1.06980890708286,1.03361996434507,1.03373270525746,1.03424979142816,1.03368426601136,1.03305256862415,1.033513253241,1.03431040546283,1.0346517846886,1.05460772706274,1.05488789952186,1.03788200292892,1.02629520995245,1.02504670233762,1.0239285489114,1.02326264689876,1.0229034911277,1.02277871821634,1.02279594465063,1.02214799793039,1.02101744031898,1.02004107534136,1.01817978579231,1.01799377468966,1.0081370908886,1.00719466244828,1.00687975123442,1.00706460826069,1.00788656602812,1.00869314350806,1.01009231277855,1.0108772361179,0.997762890753725,0.997617353494218,0.997657167351631,0.996701608757499,0.995646963532416,0.994679940228191,0.993878990103797,0.99326338814238,0.993166163739064,0.99338290210774,0.993468747897938,0.993569668565695,0.993828352815364,0.993984571131524,0.99455691023285,0.995064701307111,0.993956090887037,0.993102742173224,0.99307611660384,0.990981742456938,0.990342961857508,0.990832774185793,0.99261359591984,0.993438041091883,0.993442781146193,0.983738824278635,0.983551671584773,0.983720709862081,0.978374777140197,0.97802541481548,0.977136846222823,0.976244013683958,0.993062248316349,1.02211011982736,1.03316605172346,0.979364117476884,0.973014830097128,0.963133487274101,0.962640591628378,0.9613570858165,0.961350080456985,0.961225359639958,0.961055472907523,0.960315656468594,0.959225800023977,0.958445231644418,0.958047036497512,0.957987914260346,0.957878044974302,0.957786691133861,1.05455592503727,1.05445558407873,1.05440043080386,1.05455070600725,1.05494021930178,1.05542819964981,1.05576872737867,0.949978595128688,0.95030119598334,0.950446980827538,0.950159814782704,0.950134177657764,0.950497472136589,0.951550208370512,0.953142659368263,0.953721120226989,0.95477986378959,0.955944682995499,0.956832992215949,0.957324057559161,0.957693301060048,0.957844517824471,0.957696708497128,0.957426909314949,0.956532090766223,0.955344020890773,0.954709426496763,0.953201777801817,0.952258962863546,0.952355439306576,0.951466309160263,0.951747578267914,0.952567704283095,0.952769807125174,0.952280805567624,0.952181292829679,0.952212363941399,0.952099934707237,0.951618504004174,0.950846669236112,0.950304299286204,0.949442349382397,0.948536726686923,0.947323521880719,0.946149148409321,0.944426862641026,0.943288358416133,0.942468868973758,0.941967126249459,0.941311730814807,0.940583718148942,0.940010326741126,0.940167403460355,0.940400499544223,0.940521976670742,0.941158237590597,0.941314184827208,0.941263953778008,0.941400993849686,0.941260457521502,0.940985266642301,1.00830244060625,0.982788068331663,0.959581948797051,0.9160494862896,0.913602787796979,0.911183068086885,0.9331939007064,0.945719719672264,0.943664711574909,0.943082032557243,0.942782285952787,0.942642954551757,0.941838999213493,0.940957441800878,0.939403167676747,0.939326714230532,0.939581703252429,0.939691152915252,0.93935286066546,0.938469060550007,0.929758805180539,0.927385952772851,0.926200531051678,0.925410104266066,0.924479758276158,0.923292869974876,0.922622852485094,0.922320231882561
1.30772451704044,1.03502326043406,1.03501180481044,1.035318682537,1.03339014915547,1.03362337966229,1.03432167911163,1.03549855337013,1.03570237925085,1.0525821750882,1.05231648776021,1.05756401472039,1.02724258806951,1.077622193053,1.02317952393653,1.0221720313144,1.02179035013215,1.02166121284645,1.02242423399426,1.02139620118595,1.02140299990573,1.02176488678848,1.01694291765464,1.01740421035135,1.00775173437463,1.00734636540281,1.00671420179952,1.00648692264365,1.00702049386235,1.00750563464015,1.01546145979978,1.03177680433503,0.997084033690892,0.997139919007092,0.997339055130016,0.99549778514015,0.994591964037498,0.993831518121855,0.993075422223148,0.992801753439346,0.993221737960779,0.993620350775358,0.994323879539936,0.994331089215169,0.994818486328579,0.994563578383337,0.995583108040057,0.997801734288796,1.00842796903799,1.00064473286288,0.99580200621798,0.990918964667592,0.990841303988238,0.991691529733355,0.992253688671584,0.992644905090934,0.9910186728167,0.985133573777914,0.984443535550176,0.98277661338544,0.980644351444414,0.978441951569865,0.976787833048583,0.975091131755111,0.974513472598095,1.01269863699441,1.05545584538388,0.989256057887746,0.989544194693968,0.963097683047401,0.963275434392656,0.962973680419648,0.963253914244306,0.963617658138611,0.963665462615856,0.962949650427149,0.960504605993191,0.959041113805547,0.95878602737665,0.958484544411499,0.958278867692342,0.958277647789046,1.0614088716552,0.9444395945063,0.944321242581871,0.960928830516211,0.961003855604036,0.942604593227787,1.05942774784195,0.950805929937198,0.95191332874749,0.954053592254646,0.951959782676698,0.951604015993295,0.951560688284128,0.953546919283246,0.954332140370426,0.953954312613962,0.954353662831298,0.955607948245123,0.956478145422729,0.956080372117097,0.957025347079536,0.957101140558269,0.956405033650252,0.9561633536737,0.955706259631863,0.953838606173718,0.953031683822178,0.951643828239954,0.950436206268834,0.950019592678453,0.950408411000149,0.950929753088242,0.95119235235037,0.94916974347564,0.949813429842946,0.949731117162804,0.950037702150461,0.952379859328375,0.952368743321163,0.950747813160079,0.950105520776929,0.94904592607868,0.948149590092178,0.947169673570139,0.946321182650096,0.943664051739995,0.943391353499545,0.943274075930254,0.942646701854616,0.942555912477187,0.943199586788422,0.942165731636166,0.942564080749424,0.944332153300847,0.944542311675832,0.943674653273342,0.942733553548272,0.941726521426164,0.941653303941172,0.940108542889493,0.939260199123111,1.23222186774064,1.05947204772502,1.0459952631028,0.908831828940802,0.908330675433711,0.909634564768728,0.949139642671943,0.945397365184488,0.94201304405598,0.943792711847791,0.943397298724933,0.943522715261062,0.943271746705253,0.941658925069279,0.936748765422223,0.938154430252185,0.939203950091028,0.939528959909703,0.938315238514848,0.937187069421699,0.929722475131779,0.927190741103127,0.926287209779069,0.924696302944795,0.923945130664767,0.921621579212767,0.921757435289874,0.922266998759542
1.039870216522,1.04053024881509,1.03792641516955,1.03643168825927,1.03469611812743,1.03465777924291,1.03530992939728,1.03597563996796,1.03674292156461,1.05198628553079,1.05290371057586,1.05448984908833,1.04053794581932,1.03085547118523,1.02304818850809,1.02238709767542,1.02175879103696,1.02138807939493,1.02109222765178,1.02075101563312,1.02141020687705,1.02203570467709,1.01661353187038,1.01810981249597,1.00681105358219,1.00631502772489,1.00536834970048,1.00521942166769,1.00597141543258,1.00603824157017,1.01986979498176,1.0209461475418,1.00967472070041,0.996438987027212,0.996202924468182,0.995222228897641,0.993995858727475,0.993145076868978,0.992737332783948,0.992701537886002,0.993213957476312,0.993766025227974,0.99457742170893,0.995432418754132,0.996101321584971,0.99686151570702,0.99800899445444,0.99917784355543,0.99966728013748,0.99982303872071,0.998880003965772,0.991780335891135,0.991867226768809,0.992198071200358,0.992435792975915,0.992291580540832,0.99031733524432,0.987783739978288,0.985834877589249,0.984276172912996,0.98285738318937,0.980873054424977,0.979347110041947,0.978649393841837,0.97750251313554,0.985450012785908,0.993411599907557,0.989634644221119,0.99028662937075,0.979303750354148,0.973833069585886,0.967372232104531,0.965901416015768,0.965262373429408,0.964791021130767,0.964020225840477,0.962679911560026,0.961062950487462,0.960486716311484,0.960348472036185,0.990052048517488,1.00671725305642,1.02324070465751,0.98521869481884,0.965890614423577,0.961795819798525,0.961843683872473,0.96433035872326,0.997999035993419,0.95447092394694,0.953948070101659,0.954272782000253,0.953662209950081,0.953341476858941,0.952889590598873,0.953269927655543,0.953439907336716,0.953481817752751,0.95369644499106,0.954389705016527,0.955031808408458,0.955604047426473,0.956252176165462,0.956689781453473,0.956649215244005,0.956341654522092,0.955470186052381,0.95423634573158,0.953124107156018,0.951722424793319,0.950793289500586,0.95012688531946,0.949934129311207,0.949804609608357,0.94960955425877,0.9490726308275,0.949001484329356,0.948988966966548,0.949209440558374,0.949971397175502,0.950210248450399,0.949642831322519,0.948984448926527,0.948090098126452,0.947149367451787,0.946226770407944,0.945543599850212,0.944363337568304,0.94392919501163,0.943728571831678,0.943623284302723,0.943699729795313,0.944050021106024,0.944061993692761,0.944504163793859,0.944423659581867,0.944982275012972,0.944574410324125,0.943537047427116,0.942195519739409,0.940261755477521,0.939014263634363,0.937809685437593,0.935111921259112,0.93253582936704,0.931369730986569,0.920845363791064,0.920986489422287,0.930700150249154,0.943317244931111,0.9437090854682,0.943046624384876,0.943346750273201,0.943235582726024,0.942379979844106,0.94023811500257,0.938489730568445,0.937231774381415,0.937777579925753,0.938542504529441,0.938169938205208,0.936962604714993,0.936448710250778,0.92926835455161,0.927846666036912,0.925988671323019,0.924564954959367,0.923765495802144,0.922836923353407,0.922291532100434,0.922519289405494
1.04151380160493,1.04163567611455,1.29303244072721,1.27483012164021,1.03357938159723,1.03462519385004,1.03654345130353,1.03718438658411,1.03961290787823,1.04867312712771,1.05047159610725,1.05383522064989,1.05525173830452,1.02454448831694,1.02337234630671,1.02237409001987,1.02124822042567,1.02084297966408,1.01959717614739,1.0189317227593,1.11665859099961,1.02243365565799,1.0137886019536,1.04052025279005,1.00672190344258,1.00602127153909,1.00319752892481,1.00309390590459,1.00539483282068,1.0044232348534,1.08261730086122,1.07813373836802,1.07794354874151,0.995675551016111,0.995516011562937,0.99502111400584,0.992845575737711,0.991947052005639,0.991950969024202,0.992035515368433,0.993128734944579,0.993638294789404,0.994759060991147,0.99669607264752,0.997248137394536,0.998739449850631,1.00016704568676,1.00059781583232,0.999923727695655,1.00018150295271,1.00143309481151,0.992351605468027,0.99201986356244,0.992494629974199,0.993211746279768,0.993993315143548,0.999557373914124,1.02054759381356,1.02107087701043,1.06195080399876,0.98517096915959,0.982247905635558,0.981113410053067,0.980676260075594,0.978865747876961,0.979315458096796,1.00957860390139,0.988231183013857,1.00758676032345,0.996973277465296,1.16171831883288,0.968740290691889,0.967636114026055,0.966812367060303,0.966167044033656,0.965597876007376,0.964939375088806,0.961855765172808,0.961607592478253,0.961347562585961,1.02312638321848,1.05936557256618,1.10614880038302,1.00689632410861,0.968491667030337,0.959146600378814,0.958883485367556,0.965825119606222,1.04707897313967,0.956055841544484,0.955332539978987,0.955383851337486,0.955059672784069,0.954924312323528,0.953470884294422,0.953073575249142,0.952905969959884,0.952841527900347,0.95278842179563,0.953117663122837,0.953748831622419,0.954851984979235,0.955611696947299,0.956514923583624,0.956950337370023,0.956753930899887,0.95519178887633,0.954198741065777,0.953150918711901,0.950932450910533,0.95047508987726,0.949341892933098,0.949176261267717,0.948627013537436,0.948245595473156,0.948096403601132,0.947999945509305,0.948011470598307,0.94774346292056,0.948173232351361,0.948751075519403,0.948760571473383,0.947964777445175,0.947332976360541,0.945973139738885,0.945204503107706,0.945086246452084,0.944469778562315,0.944050510279506,0.944220835214375,0.944248328915132,0.944664856597998,0.945071294747236,0.945551300570826,0.946940745533554,0.944048179641092,0.946569465682545,0.94585818033746,0.944475716914156,0.943099066800503,0.938042073387408,0.937466814988979,0.937227816521718,0.932593155171253,0.926793488356106,0.927634625285417,0.920241685192624,0.92061796558949,0.978742527267409,0.941965907808497,0.942624364303562,0.942873223256117,0.9432967634413,0.943827781382508,0.942575079035928,0.937312625671797,0.935080070691224,0.93241551088778,0.926836610501984,0.931937220991102,1.00310309857063,0.93550669709424,0.935232175073434,0.929879686538265,0.927963933223223,0.924830248397926,0.923527302493068,0.923847200242728,0.923443396263182,0.922246377545513,0.922515396224087
1.04159664122109,1.04147193515773,1.07744462093762,1.09708991506927,1.07308697334484,1.03686547419089,1.03741965184453,1.03844785444664,1.04010337960044,1.04464632803879,1.04985383765319,1.05286314463984,1.05413995178046,1.03828153679213,1.02966601508136,1.02191550873356,1.02120464744001,1.02032456370994,1.01932699909094,1.01803346893067,1.02965227127901,1.02687469394614,1.01144865963293,1.0083179063678,1.00640154843518,1.00514220813754,1.0036736339892,1.00308890111447,1.00347491126144,1.00337482868977,1.00279472976894,1.00173493310429,0.998445415753771,0.995985270669291,0.995242628479031,0.9945530738626,0.993442530073276,0.992423350144274,0.991944351710737,0.99190036225996,0.992610639368397,0.993677357280167,0.995880174254072,0.997500073596275,0.998475919728478,0.999117463792055,0.999838603038987,1.00033920340587,1.00027103268057,1.00034388172278,1.00057666772941,0.992990521453232,0.992771499071038,0.992733873003096,0.993352519028547,0.994181307015499,0.99607200004706,1.00555066939606,1.01779723599091,1.01834325159566,0.999520651380634,0.982552344125692,0.981919032237398,0.981179355247748,0.98068198284302,0.981270093002534,0.983648703298812,0.985894067480264,0.989002946809132,0.996826019556691,0.996044235531502,0.970685377269169,0.96889899305157,0.967579682140623,0.967098747110916,0.966862536549816,0.967038022149642,0.969953039827825,0.991610183871923,1.00260921068879,1.00747828028559,1.00088169427297,0.995301174621953,0.985210252464815,0.967103856123953,0.966137882761485,0.96514559906057,0.964623055395639,0.959553589642418,0.956909993054866,0.956045991851034,0.955521233714108,0.954834983108844,0.954270941441805,0.953335219793988,0.953070949374158,0.952663570322225,0.952423407851708,0.952165754475749,0.952286287500952,0.95281255917927,0.954054700365045,0.956466409472281,0.957512152608737,0.95867867361556,0.95845366091206,0.956104266938859,0.95454906619177,0.952847331812186,0.951481627289456,0.950600979554331,0.948863863058493,0.949114167655791,0.949055446642907,0.948869155533546,0.948575357978179,0.948115263345967,0.94783353718849,0.947618333136933,0.947468250681854,0.947371321593738,0.947157715939241,0.946621361136157,0.945948030133311,0.945038996354606,0.944498386360238,0.943951843396099,0.943321804206236,0.943349910265579,0.943655093046029,0.944158011003198,0.944577310615025,0.945108057196931,0.946003550263505,0.948166538512925,0.948223359992979,0.947459984149823,0.946554959421226,0.944740768928356,0.942331300543386,0.938742277617607,0.937250037793844,0.937482243799468,0.938467589394606,0.939177483511483,0.939016081444201,0.939233692616827,0.940583547481252,0.942953816531837,0.943017833358225,0.943196809035067,0.942954622673151,0.941743336502517,0.94061917584985,0.93907373429789,0.936925274337489,0.936739746317689,0.929770310948108,0.928624956946899,0.93016167663661,0.93222471896073,0.934799711292605,0.933342201289892,0.931745005277789,0.926857748914805,0.925790399045311,0.924485410325924,0.923882430153617,0.923586596376763,0.923289295769338,0.923762025012416
1.04097347842965,1.04066597103647,1.04056295376349,1.12252202758638,1.58443755574433,1.03769290718731,1.03768951038526,1.038671487938,1.03892331703411,1.03888093244832,1.048304214,1.03463676953455,1.0534741490626,1.05356392843529,1.05400457675958,1.02206118727369,1.02118780819262,1.01984763635688,1.16065223694415,1.01584957043647,1.03720082386037,1.03786598257432,1.00665522408669,1.00666440316818,1.00520387087789,1.00442135525102,1.00298199304388,1.00191712122215,1.0014924767299,1.00193074469336,1.0015012853756,1.00125535359745,0.995412323645592,0.99419612030644,0.994222728569221,0.994185648384376,0.993720729240343,0.992272008225048,0.991393673286896,0.990928348845846,0.991585080318681,0.992543409010115,0.997441076267604,0.99887218893863,0.999840600096996,1.0373241342709,0.999487132861809,1.0238259118419,1.00034982845084,1.00066903260616,1.00021307841105,0.993734394836365,0.992954691570117,0.99229770976118,0.993568027468274,0.9934544764887,0.99427319893991,0.994333837023382,1.01642916697539,1.01807865601786,1.01729355936848,0.982919420788225,0.982522989526032,0.981167755342518,0.981094351400098,0.981312487050168,0.980048878733841,0.979585769133256,0.97863777412652,1.08930470654114,0.994621228131572,0.974147291573501,0.969498572946539,0.96744923418496,0.967620538851137,0.96734572846383,0.965514511959377,0.971285630511762,1.14595807491121,1.09281389769703,1.09256513470657,0.959296010450089,0.966581768610323,0.966402591737811,0.967280715689446,0.966992098616982,0.96670311191339,0.966234643516141,0.956103171664292,0.956292545442797,0.95624220395797,0.955529325839012,0.954531320092643,0.953752158005812,0.952638339643621,0.953040382048672,0.952372931887899,0.951879061035399,0.951248807553875,0.95093854459623,0.951139632647566,0.951749033359873,0.958397980265344,1.08753678740901,0.961144615442028,0.961530358759515,0.963101875493349,0.964142953948649,0.95229151970502,0.951736717697021,0.951180035329329,0.945996815752896,0.948948659363516,0.949451243973655,0.949518167673057,0.949156955046967,0.948010650420149,0.947588212841755,0.947395201337208,0.946752987140779,0.946059690998749,0.945946678984949,0.945344289362474,0.944882451869664,0.943637237451755,0.943878233329856,0.942764966769905,0.941561697290642,0.942219188082749,0.942946694890788,0.9439486487799,0.944305313692449,0.94469951248698,0.945063922377267,0.951221296576268,0.952572801035686,0.985263680129747,0.997967750511527,1.04601289605746,0.975605446292637,0.953327585989518,0.936120117114779,0.950006954623931,0.939082050003481,0.939865337002491,1.00636351466367,0.978155581644642,0.965707636048693,0.945554635567136,0.94377408985793,0.943949319092362,0.943853088778059,0.939613062456905,0.93826074959688,0.936941891866698,0.934934982919478,0.938250916669619,0.927065419580151,0.926827605184702,0.927123301940359,0.927298697564668,0.938331291161706,0.931290661479675,1.11480183171318,0.926473155470592,0.92617059356591,0.924375018175876,0.923604311366445,0.923595628298543,0.923634559317713,0.9251529269889
1.04110593421628,1.04116605111678,1.0413855646986,1.04207023995542,1.0416943489217,1.03961531709081,1.03911260457291,1.03925731398643,1.039059239892,1.03907530993123,1.03875685549731,1.03720693641204,1.0478657108769,1.05176290156435,1.05008920258242,1.04773243936674,1.04635195135004,1.04613594021912,1.04662338989612,1.04289449414218,1.04032636665877,1.03959043125968,1.00660955918144,1.00612063750759,1.00489488914581,1.00271014596471,1.00132018995908,1.00054655720213,1.00039542173718,1.00067942728188,1.00091104109637,1.00029611257292,0.99833037922038,0.99720281233785,0.996594897136305,0.995771921018563,0.995059275227611,0.993968089259844,0.993037424993442,0.991352689745828,0.991815124607378,0.993739776105727,0.996628413546133,0.998707460343099,1.00053796129228,1.00187882973112,1.00212811100372,1.00291424854389,1.00215710301927,1.00045839207366,0.998743431583228,0.995651862556769,0.99403155694308,0.992756685165481,0.992316722343276,0.99193410132246,0.99214757944822,0.991968119147004,0.990206997775588,0.989109144615182,0.988524278968584,0.985171868665809,0.984243987562319,0.982859356306987,0.982540631804631,0.98229910968775,0.981845958220772,0.981142793838474,0.980424091773184,0.980006222525615,0.977783283905055,0.973710297150282,0.971848848482291,0.969919193924684,0.968901852646056,0.968182855530085,0.967435024011766,0.968531851890041,0.967794880732615,0.966640676294115,0.965148476057817,0.962996829949523,0.963950959024647,0.963718537894667,0.962751591070369,0.962190446942217,0.960022301841911,0.958588840364828,0.957304285797879,0.95668420654086,0.956070827164933,0.955416121455175,0.954375828409644,0.953525042316653,0.952462042268618,0.952012376617543,0.95150045558103,0.95087589356594,0.949855493435428,0.950173408253629,0.950491763913166,0.951553683277457,0.954892561145831,0.958028928754614,0.960428626385735,0.961634737209084,0.962362207687585,0.962373595943953,0.959806460113816,0.955312577877269,0.951846454005676,0.950546486454448,0.949932813318743,0.94992436210055,0.949765807059813,0.949252563015515,0.948252482180736,0.94751998344418,0.946881467357277,0.945896350110574,0.945308473528374,0.944934082123103,0.944412380849604,0.943562978090289,0.942333337144954,0.941603661289597,0.940875309359011,0.940294911338597,0.940477898108893,0.941903043837853,0.943159181039656,0.943855574477856,0.944343631464688,0.944656988413031,0.953615435823646,0.954342674138528,0.955493495514059,0.955854848349727,0.955259699134817,0.953310165074014,0.952440699006118,0.949835962465818,0.948815223398285,0.947531918003783,0.947053656206547,0.947690748659444,0.947792314307165,0.947694346306825,0.947125443855832,0.9456170566528,0.945281495170957,0.940818637855762,0.939235691821606,0.937625950347769,0.934669220900098,0.932383897839594,0.929130961410292,0.927447054053178,0.926485182501432,0.926058688709362,0.925817581357874,0.925843286530339,0.926166708876388,0.926484046724908,0.926559536772669,0.926038065001808,0.925252710330631,0.924750023157903,0.924689752764009,0.924696509329547,0.924904016062077
1.04084139413789,1.04099378359834,1.041018482804,1.04192599897046,1.04218342256714,1.03901600383234,1.03917974362144,1.03958959233382,1.03817401287488,1.03834972046254,1.04029718927771,1.03777893608751,1.03447425629187,1.06113470726939,1.0472565208038,1.08122022633564,1.13969040163904,1.13928173691503,1.04720976848312,1.04925118539672,1.04020802714402,1.24831082024467,1.00681540991317,1.00590718110909,1.00519657162108,1.00003746104804,0.998911545970282,0.998479799448114,0.99853868406289,0.999261203000881,1.00051232790447,1.00026905912436,0.999728056642189,0.999486710561739,0.998886359202507,0.997090631374461,0.996544641629709,0.995314388214663,0.995154329861622,0.989398302595888,0.989749956010949,0.993992315961736,0.996376974326263,0.998492606090325,1.00184347723679,1.00299376570382,1.00438843579367,1.00496104578163,1.00514896727331,1.00037880822426,0.998558927811317,0.996095290351094,0.994744107287432,0.992426583752013,0.990873075276811,0.989781410068581,0.99030891413447,0.990927269182974,0.989086252581382,0.988379391301983,0.98830125425202,0.987512814189202,0.985927815472445,0.983349206781124,0.983779915275011,0.983279991729826,0.983671921603027,0.982476355106123,0.981616046630457,0.981546122296683,0.975886035960639,0.975123080712048,0.974172092842774,0.971184184452846,0.969590986472896,0.968660745419568,0.966794362354669,0.966406760078509,0.966071068961249,0.964606111653612,0.963980921325374,0.962528791251938,0.96180577799815,0.961135927256153,0.96036420903371,0.958647429089509,0.958072682082906,0.957744570186488,0.957629183069842,0.956672621757241,0.955896388586621,0.955490462300826,0.954132689733053,0.953352153041171,0.951779039541524,0.950939868056036,0.950870466328276,0.950548062468554,0.946279794545982,0.949482869385762,0.949397937307429,0.949142216707293,0.947602273894402,0.946595854054349,0.946115944259776,0.961793845033735,0.961814592423649,0.962578992968756,0.961599006219066,0.961160088921392,0.960854291664586,0.950796090479744,0.950846648988272,0.950461219282195,0.950248720683703,0.94971331758658,0.948193839117123,0.947291416680226,0.946710126684893,0.944608648053175,0.944346199322903,0.944054099951661,0.943802569811052,0.94261776805729,0.940490259418776,0.939306100240839,0.93874116022688,0.938418009868388,0.937003922854953,0.936731371125714,1.04054034414766,0.943482853263254,0.94415558468296,0.944601051050431,0.994023594614398,0.9546117769448,0.955588451998423,0.956114799775548,0.955908532917625,0.951357399703373,0.950199953874674,0.948887394357825,0.94701504694897,0.946156329542226,0.947012339483688,0.947730040275472,0.948200773699886,0.948500104511008,0.949553984369475,1.02871572123875,1.06807190654775,0.938937837089134,0.930560925300305,0.930450164540253,0.931890821421876,0.931735853672158,0.927754695587308,0.927203268796868,0.925835903864185,0.924787058219031,0.92406948061566,0.922934053069529,0.922002054141852,0.926735617442645,0.926755806735085,0.925919650863829,0.925722440843389,0.92537963044145,0.925662107136826,0.925542388037766,0.924983616533925
