1.19805, 1.19126, 1.19044, 1.19657, 1.16982, 1.16763, 1.1633, 1.1822, 1.18188, 1.18305, 1.15951, 1.13956, 1.139, 1.13308, 1.13156, 1.14327, 1.13379, 1.13303, 1.12206, 1.11883, 1.1192, 1.12908, 1.11992, 1.11991, 1.12212, 1.29547, 1.11104, 1.10862, 1.10769, 1.10437, 1.09932, 1.09913, 1.09881, 1.1013, 1.09253, 1.09266, 1.09294, 1.09806, 1.09903, 1.0979, 1.1007, 1.10908, 1.14069, 1.18395, 1.14792, 1.10896, 1.12581, 1.08542, 1.07389, 1.07771, 1.16534, 1.16028, 1.22856, 1.24652, 1.25786, 1.28568, 1.28176, 1.27399, 1.24993, 1.24658, 1.26824, 1.33242, 1.27507, 1.27491, 1.32611, 1.31711, 1.31527, 1.30337, 1.31131, 1.31192, 1.33127, 1.34865, 1.42149, 1.36111, 1.39603, 1.32846, 1.3866, 1.40322, 1.40284, 1.29905, 1.32376, 1.31771, 1.27902, 1.31158, 1.29205, 1.30288, 1.33535, 1.2964, 1.41296, 1.42076, 1.36052, 1.31385, 1.31525, 1.3805, 1.35781, 1.45761, 1.47307, 1.61349, 1.3236, 1.30736, 1.24922, 1.2551, 1.23137, 1.22644, 1.23047, 1.41445, 1.25388, 1.21494, 1.24299, 1.21377, 1.17618, 1.13679, 1.13636, 1.11819, 1.07541, 1.06411, 1.06674, 1.14265, 1.1058, 1.09004, 1.20052, 1.09701, 1.09141, 1.09049, 1.08508, 1.16923, 1.06757, 1.06662, 1.33279, 1.05475, 1.04881, 1.07359, 1.05798, 1.05711, 1.05256, 1.05421, 1.05109, 1.05005, 1.24533, 1.03684, 1.03783, 1.24334, 1.04038, 1.0357, 1.03672, 1.05336, 1.05468, 1.06041, 1.06056, 1.05814
1.19213, 1.18956, 1.18599, 1.18829, 1.17006, 1.17002, 1.16193, 1.16391, 1.18305, 1.14252, 1.14245, 1.1428, 1.13978, 1.13904, 1.13268, 1.13549, 1.13592, 1.13412, 1.12587, 1.12287, 1.17888, 1.12312, 1.1229, 1.12162, 1.1253, 1.13299, 1.1121, 1.10951, 1.10803, 1.10811, 1.10218, 1.09905, 1.09841, 1.09768, 1.09169, 1.09164, 1.09427, 1.09466, 1.09473, 1.09399, 1.27183, 1.21916, 1.25607, 1.15913, 1.15561, 1.10639, 1.11189, 1.06723, 1.07926, 1.08011, 1.12488, 1.22011, 1.23292, 1.23706, 1.29938, 1.26228, 1.27985, 1.42897, 1.29888, 1.30183, 1.26947, 1.26712, 1.31007, 1.3681, 1.31889, 1.39464, 1.33303, 1.30513, 1.30842, 1.30193, 1.3411, 1.33435, 1.47425, 1.34835, 1.32327, 1.29608, 1.31197, 1.30957, 1.3079, 1.29964, 1.2887, 1.2808, 1.30989, 1.32808, 1.29795, 1.29228, 1.29692, 1.36774, 1.34031, 1.34046, 1.3108, 1.31272, 1.37041, 1.32766, 1.34175, 1.35718, 1.47115, 1.47843, 1.32182, 1.29248, 1.2669, 1.26714, 1.24466, 1.21525, 1.27725, 1.23204, 1.18783, 1.21395, 1.19411, 1.20823, 1.18447, 1.1179, 1.11838, 1.08518, 1.07893, 1.07675, 1.05851, 1.11927, 1.12505, 1.08686, 1.09075, 1.09362, 1.09178, 1.08775, 1.08401, 1.0784, 1.06885, 1.06463, 1.06217, 1.05662, 1.05153, 1.0494, 1.33058, 1.05638, 1.05675, 1.05387, 1.0503, 1.05056, 1.05621, 1.03422, 1.03284, 1.03667, 1.03742, 1.03471, 1.03541, 1.04231, 1.04437, 1.0603, 1.05854, 1.05928
1.26297, 1.19166, 1.18766, 1.18796, 1.17065, 1.16963, 1.17464, 1.16535, 1.1952, 1.14138, 1.1424, 1.14244, 1.14253, 1.14158, 1.13387, 1.13375, 1.13627, 1.13628, 1.13559, 1.17189, 1.12872, 1.12709, 1.12443, 1.12233, 1.12521, 1.126, 1.12885, 1.10956, 1.10969, 1.108, 1.10444, 1.09935, 1.09683, 1.09442, 1.0906, 1.09075, 1.08949, 1.09037, 1.09267, 1.17706, 1.09445, 1.22286, 1.15685, 1.15642, 1.21921, 1.11825, 1.11228, 1.06507, 1.08009, 1.10956, 1.11026, 1.1996, 1.24654, 1.22496, 1.25469, 1.25398, 1.28369, 1.26179, 1.30251, 1.35557, 1.27847, 1.30958, 1.292, 1.35737, 1.34353, 1.35679, 1.32351, 1.30051, 1.36758, 1.30605, 1.30383, 1.32609, 1.34027, 1.31957, 1.29758, 1.30155, 1.31394, 1.31446, 1.34099, 1.39985, 1.33757, 1.31053, 1.30793, 1.30411, 1.37491, 1.35142, 1.37553, 1.37124, 1.30408, 1.303, 1.30731, 1.30816, 1.37237, 1.38102, 1.33982, 1.37536, 1.37343, 1.32281, 1.29845, 1.28759, 1.30172, 1.24363, 1.25114, 1.28187, 1.19991, 1.2071, 1.19838, 1.21279, 1.21234, 1.19555, 1.19166, 1.15362, 1.15092, 1.09481, 1.09879, 1.05514, 1.04882, 1.14444, 1.1299, 1.06833, 1.09492, 1.089, 1.08961, 1.08503, 1.08429, 1.07512, 1.07558, 1.06684, 1.06285, 1.05583, 1.05679, 1.04923, 1.0497, 1.05567, 1.05603, 1.05595, 1.0531, 1.04664, 1.04315, 1.03219, 1.03184, 1.03293, 1.0369, 1.03431, 1.03667, 1.04419, 1.04293, 1.15416, 1.05906, 1.05825
1.20084, 1.19693, 1.18775, 1.18798, 1.23909, 1.16924, 1.16694, 1.24027, 1.14007, 1.14032, 1.14218, 1.14259, 1.14327, 1.14294, 1.13565, 1.13257, 1.13358, 1.13568, 1.13372, 1.14004, 1.13974, 1.1289, 1.12447, 1.12526, 1.12692, 1.13382, 1.12224, 1.1291, 1.11025, 1.10894, 1.10397, 1.09886, 1.09598, 1.09436, 1.09234, 1.09184, 1.08704, 1.08753, 1.08772, 1.0864, 1.09471, 1.22618, 1.12481, 1.23758, 1.10147, 1.05599, 1.05025, 1.10934, 1.12758, 1.14381, 1.1441, 1.20057, 1.26509, 1.24049, 1.24288, 1.27065, 1.27364, 1.27283, 1.48123, 1.35193, 1.29369, 1.28845, 1.29029, 1.29094, 1.37634, 1.36789, 1.3161, 1.31424, 1.31499, 1.33589, 1.29755, 1.33461, 1.3214, 1.33646, 1.30088, 1.31891, 1.31511, 1.33943, 1.33128, 1.33011, 1.29898, 1.35052, 1.30343, 1.34095, 1.34071, 1.32211, 1.33354, 1.39132, 1.30557, 1.29622, 1.29546, 1.32274, 1.37513, 1.54105, 1.53654, 1.53214, 1.36021, 1.32797, 1.30369, 1.29897, 1.27097, 1.29405, 1.24891, 1.24592, 1.22596, 1.16737, 1.20813, 1.20218, 1.18758, 1.18707, 1.18498, 1.1643, 1.15125, 1.11047, 1.10831, 1.05199, 1.05219, 1.04935, 1.08161, 1.06067, 1.06071, 1.08701, 1.08656, 1.08473, 1.08385, 1.07525, 1.07462, 1.06798, 1.12284, 1.05409, 1.05605, 1.05619, 1.04889, 1.05485, 1.05505, 1.05612, 1.05151, 1.04922, 1.03955, 1.03154, 1.03189, 1.03039, 1.03531, 1.03435, 1.03673, 1.0429, 1.0426, 1.13631, 1.30901, 1.05782
1.20454, 1.20477, 1.27479, 1.19056, 1.24799, 1.16774, 1.17764, 1.15734, 1.14902, 1.13745, 1.14133, 1.14201, 1.14315, 1.14341, 1.13534, 1.13455, 1.13551, 1.13744, 1.13519, 1.13574, 1.13931, 1.1329, 1.12583, 1.1273, 1.13263, 1.12898, 1.12135, 1.11952, 1.11152, 1.10659, 1.1049, 1.09915, 1.09791, 1.09432, 1.09342, 1.09274, 1.08724, 1.08816, 1.08886, 1.09438, 1.16731, 1.16728, 1.12332, 1.09506, 1.13936, 1.09563, 1.04976, 1.09174, 1.16882, 1.21256, 1.26029, 1.24327, 1.24682, 1.25448, 1.25773, 1.274, 1.28354, 1.27257, 1.44739, 1.39552, 1.32213, 1.36815, 1.32865, 1.35507, 1.35553, 1.36, 1.31896, 1.31868, 1.32095, 1.33645, 1.34627, 1.30024, 1.31064, 1.29842, 1.31317, 1.38427, 1.30898, 1.30691, 1.3192, 1.31342, 1.29883, 1.32592, 1.31074, 1.30915, 1.34058, 1.32408, 1.35495, 1.35135, 1.30538, 1.3459, 1.32982, 1.33252, 1.36775, 1.50556, 1.50893, 1.53697, 1.56071, 1.32608, 1.30389, 1.28548, 1.29234, 1.29979, 1.2679, 1.2499, 1.22929, 1.22253, 1.20288, 1.18709, 1.20903, 1.21201, 1.2083, 1.206, 1.14031, 1.0997, 1.08827, 1.05114, 1.0735, 1.05624, 1.04693, 1.04941, 1.06703, 1.09841, 1.08392, 1.08339, 1.08311, 1.07665, 1.07676, 1.07311, 1.06532, 1.05493, 1.0561, 1.05628, 1.18436, 1.05537, 1.05617, 1.05665, 1.05272, 1.04343, 1.03903, 1.04011, 1.03592, 1.03109, 1.03562, 1.03644, 1.03672, 1.03234, 1.04139, 1.06484, 1.12853, 1.07485
1.20938, 1.20823, 1.19864, 1.19418, 1.42619, 1.17315, 1.1814, 1.27739, 1.14807, 1.13794, 1.13933, 1.13672, 1.1426, 1.13985, 1.13571, 1.13449, 1.13915, 1.13968, 1.13633, 1.134, 1.1369, 1.13452, 1.13421, 1.13616, 1.19401, 1.12971, 1.12543, 1.1182, 1.10583, 1.10648, 1.1061, 1.10279, 1.09714, 1.09649, 1.09407, 1.09152, 1.08807, 1.08919, 1.09206, 1.17777, 1.22669, 1.12873, 1.19057, 1.11217, 1.14277, 1.05492, 1.07743, 1.11668, 1.17157, 1.21252, 1.2386, 1.2532, 1.25971, 1.26721, 1.27519, 1.26509, 1.26554, 1.2749, 1.30183, 1.40141, 1.30985, 1.33676, 1.32568, 1.32441, 1.36115, 1.36102, 1.3713, 1.39258, 1.33634, 1.33315, 1.29905, 1.30058, 1.31446, 1.30133, 1.4127, 1.35726, 1.32348, 1.40804, 1.30554, 1.37725, 1.30011, 1.29913, 1.347, 1.3756, 1.33636, 1.46, 1.34748, 1.31502, 1.31349, 1.37942, 1.31905, 1.32589, 1.32778, 1.50308, 1.50179, 1.51373, 1.46094, 1.31452, 1.3762, 1.30331, 1.28154, 1.28169, 1.26384, 1.22927, 1.1986, 1.17807, 1.18369, 1.20999, 1.22662, 1.19328, 1.1884, 1.20846, 1.13966, 1.1292, 1.092, 1.08385, 1.04747, 1.07676, 1.07712, 1.04051, 1.10447, 1.09516, 1.08127, 1.08125, 1.08067, 1.0775, 1.07727, 1.37582, 1.06159, 1.06067, 1.05739, 1.05716, 1.05843, 1.0567, 1.05748, 1.05681, 1.05617, 1.1922, 1.03691, 1.03944, 1.03722, 1.03582, 1.03676, 1.03943, 1.03946, 1.03944, 1.04235, 1.05489, 1.13088, 1.07577
1.23375, 1.27501, 1.19885, 1.19839, 1.24927, 1.17558, 1.28889, 1.15619, 1.14288, 1.14094, 1.13902, 1.13561, 1.1393, 1.1375, 1.13887, 1.13955, 1.14103, 1.14019, 1.13589, 1.13467, 1.13613, 1.15304, 1.13692, 1.13993, 1.14693, 1.18165, 1.1251, 1.11521, 1.11187, 1.10682, 1.10553, 1.10575, 1.09771, 1.09699, 1.09588, 1.09503, 1.08949, 1.17079, 1.09457, 1.10143, 1.23648, 1.12859, 1.12947, 1.13145, 1.05434, 1.05903, 1.12627, 1.16269, 1.25135, 1.22585, 1.24358, 1.2778, 1.26124, 1.26686, 1.25771, 1.26656, 1.26437, 1.28571, 1.29463, 1.2949, 1.35345, 1.34066, 1.30394, 1.4495, 1.36884, 1.36132, 1.3931, 1.30892, 1.30921, 1.30155, 1.30169, 1.30159, 1.2955, 1.32609, 1.33414, 1.33482, 1.3652, 1.36825, 1.38769, 1.36763, 1.3064, 1.30749, 1.38151, 1.33704, 1.3358, 1.38006, 1.34149, 1.31451, 1.30373, 1.30335, 1.31265, 1.3248, 1.34441, 1.51068, 1.51233, 1.50225, 1.53678, 1.32428, 1.29159, 1.27256, 1.2834, 1.28219, 1.29285, 1.23046, 1.25697, 1.17812, 1.17816, 1.19097, 1.23238, 1.17843, 1.17881, 1.14231, 1.11497, 1.11563, 1.10536, 1.07934, 1.06402, 1.07302, 1.0541, 1.03705, 1.16355, 1.09118, 1.08753, 1.07942, 1.07996, 1.08029, 1.26012, 1.08222, 1.05698, 1.05946, 1.05687, 1.05804, 1.05844, 1.0597, 1.05842, 1.05974, 1.05844, 1.04544, 1.04564, 1.04571, 1.29974, 1.03931, 1.0404, 1.04294, 1.04193, 1.03953, 1.04085, 1.05485, 1.05508, 1.07703
1.22989, 1.2229, 1.20719, 1.21367, 1.25313, 1.17655, 1.29628, 1.21867, 1.15399, 1.14297, 1.14168, 1.13591, 1.13747, 1.13702, 1.13907, 1.14147, 1.14177, 1.14124, 1.13864, 1.13556, 1.13575, 1.14711, 1.13932, 1.14132, 1.15321, 1.17952, 1.12577, 1.26477, 1.11269, 1.10647, 1.10489, 1.10552, 1.09284, 1.0934, 1.09945, 1.09969, 1.10022, 1.10413, 1.10003, 1.15635, 1.12875, 1.12851, 1.18888, 1.11029, 1.06361, 1.10887, 1.1109, 1.14651, 1.27097, 1.27172, 1.26562, 1.34133, 1.26685, 1.27111, 1.27195, 1.27256, 1.25911, 1.2741, 1.29462, 1.29625, 1.41424, 1.29984, 1.33806, 1.36456, 1.37177, 1.38074, 1.37586, 1.3469, 1.33614, 1.29979, 1.29673, 1.30088, 1.29676, 1.30826, 1.3503, 1.4133, 1.36131, 1.4599, 1.36682, 1.37215, 1.37426, 1.32284, 1.31559, 1.32044, 1.33045, 1.38435, 1.36723, 1.36032, 1.32299, 1.30316, 1.3927, 1.32249, 1.34498, 1.51116, 1.53122, 1.47191, 1.48984, 1.31658, 1.33637, 1.30755, 1.26583, 1.2781, 1.25485, 1.2323, 1.22508, 1.18297, 1.18452, 1.1843, 1.18838, 1.17362, 1.17436, 1.14247, 1.13702, 1.10898, 1.09457, 1.08384, 1.06257, 1.04519, 1.04687, 1.12279, 1.13306, 1.08807, 1.08396, 1.07959, 1.07943, 1.08102, 1.32871, 1.05951, 1.05695, 1.06017, 1.05653, 1.05709, 1.0599, 1.06149, 1.06275, 1.06069, 1.06125, 1.04795, 1.04818, 1.04963, 1.04871, 1.04681, 1.04402, 1.04306, 1.04052, 1.04085, 1.03936, 1.04239, 1.16368, 1.15856
1.22703, 1.21871, 1.21594, 1.24124, 1.29165, 1.17988, 1.22274, 1.18747, 1.20457, 1.15212, 1.15772, 1.13642, 1.13646, 1.13563, 1.13811, 1.14109, 1.14245, 1.14241, 1.14178, 1.13593, 1.13545, 1.14622, 1.13986, 1.14035, 1.20337, 1.26675, 1.12512, 1.12479, 1.11418, 1.10792, 1.10457, 1.10378, 1.10458, 1.09564, 1.1007, 1.10002, 1.10246, 1.10428, 1.10117, 1.10218, 1.12712, 1.12742, 1.11235, 1.07527, 1.05717, 1.08626, 1.16133, 1.16139, 1.23294, 1.29608, 1.29838, 1.31056, 1.3127, 1.2595, 1.28201, 1.28072, 1.26483, 1.30099, 1.28916, 1.29599, 1.32699, 1.31014, 1.34, 1.38453, 1.37384, 1.37575, 1.35657, 1.36708, 1.34522, 1.32708, 1.29574, 1.30904, 1.36515, 1.29935, 1.40502, 1.36905, 1.36579, 1.36249, 1.36063, 1.38377, 1.42242, 1.33152, 1.37886, 1.31892, 1.38722, 1.38793, 1.37434, 1.37445, 1.37658, 1.37414, 1.2982, 1.31437, 1.32042, 1.3071, 1.30726, 1.33944, 1.30662, 1.37194, 1.27233, 1.26791, 1.28986, 1.31968, 1.26581, 1.26725, 1.24506, 1.22235, 1.18603, 1.17565, 1.17198, 1.15995, 1.16005, 1.16094, 1.11124, 1.10955, 1.12284, 1.10043, 1.07384, 1.03696, 1.04234, 1.05941, 1.06074, 1.08876, 1.0836, 1.0821, 1.07754, 1.07846, 1.08773, 1.08787, 1.05787, 1.05846, 1.05705, 1.05531, 1.05673, 1.06055, 1.06289, 1.0621, 1.47826, 1.04709, 1.04537, 1.0517, 1.05086, 1.04948, 1.04597, 1.0477, 1.04505, 1.04133, 1.03636, 1.03908, 1.06022, 1.04716
1.37272, 1.21719, 1.21344, 1.19975, 1.28404, 1.1825, 1.17752, 1.18742, 1.18206, 1.20455, 1.15434, 1.14952, 1.1384, 1.14583, 1.1395, 1.14087, 1.1428, 1.14259, 1.14175, 1.13625, 1.13568, 1.13819, 1.14531, 1.15937, 1.16199, 1.26855, 1.12711, 1.12594, 1.11559, 1.16991, 1.10501, 1.10493, 1.10487, 1.0958, 1.09476, 1.09849, 1.10283, 1.10375, 1.10223, 1.10389, 1.12846, 1.12886, 1.10324, 1.09461, 1.09239, 1.14918, 1.19673, 1.19774, 1.27271, 1.28961, 1.31862, 1.3711, 1.27925, 1.25178, 1.25048, 1.26245, 1.26148, 1.30061, 1.29978, 1.30967, 1.27896, 1.30667, 1.31288, 1.38849, 1.4043, 1.37048, 1.34633, 1.36891, 1.28327, 1.29028, 1.29544, 1.31242, 1.31788, 1.29703, 1.32622, 1.40101, 1.40034, 1.46545, 1.44918, 1.44286, 1.35043, 1.37381, 1.36469, 1.32972, 1.38465, 1.38096, 1.38322, 1.40523, 1.33109, 1.31424, 1.30514, 1.31224, 1.31402, 1.31166, 1.30665, 1.30027, 1.2912, 1.28605, 1.30212, 1.26834, 1.2716, 1.30502, 1.26061, 1.22919, 1.22708, 1.22653, 1.21296, 1.20521, 1.17325, 1.18879, 1.17949, 1.12898, 1.17205, 1.14417, 1.16585, 1.1015, 1.05166, 1.05753, 1.03418, 1.06222, 1.06119, 1.08399, 1.08192, 1.0805, 1.0795, 1.07727, 1.08595, 1.08795, 1.08358, 1.0617, 1.06265, 1.05617, 1.05712, 1.05951, 1.06166, 1.06221, 1.08397, 1.04993, 1.08229, 1.05246, 1.05531, 1.04997, 1.04938, 1.04767, 1.04344, 1.04223, 1.03705, 1.03771, 1.0641, 1.04512
1.30634, 1.20954, 1.20055, 1.19765, 1.21256, 1.18641, 1.18083, 1.17533, 1.17941, 1.17735, 1.1576, 1.15847, 1.14865, 1.14294, 1.14248, 1.14261, 1.14295, 1.14281, 1.1431, 1.13602, 1.13552, 1.13708, 1.33927, 1.15864, 1.1616, 1.16214, 1.12852, 1.12558, 1.11991, 1.108, 1.10029, 1.10551, 1.10325, 1.09784, 1.09326, 1.09733, 1.10317, 1.10449, 1.10479, 1.11888, 1.17126, 1.12308, 1.10264, 1.07747, 1.0966, 1.19057, 1.21896, 1.25406, 1.2998, 1.3154, 1.31445, 1.36612, 1.27497, 1.29922, 1.25474, 1.26373, 1.26408, 1.27059, 1.2784, 1.26295, 1.26105, 1.28412, 1.29009, 1.30673, 1.30887, 1.33842, 1.50756, 1.50756, 1.3218, 1.2868, 1.29712, 1.31082, 1.29495, 1.29758, 1.31597, 1.40437, 1.35505, 1.38571, 1.38452, 1.3867, 1.3752, 1.35951, 1.3388, 1.36773, 1.36799, 1.38484, 1.34824, 1.42166, 1.33982, 1.32562, 1.31939, 1.32518, 1.32344, 1.30658, 1.31077, 1.30566, 1.33839, 1.33746, 1.30608, 1.29847, 1.27502, 1.25674, 1.25046, 1.29819, 1.23108, 1.24782, 1.19894, 1.20549, 1.22709, 1.21836, 1.21773, 1.1503, 1.14106, 1.14134, 1.14891, 1.10996, 1.09425, 1.04705, 1.04761, 1.07277, 1.06446, 1.07761, 1.07903, 1.07893, 1.07884, 1.07619, 1.31298, 1.25453, 1.06486, 1.06401, 1.0629, 1.0592, 1.05677, 1.05737, 1.06151, 1.06282, 1.08783, 1.05109, 1.0484, 1.0879, 1.05542, 1.05412, 1.04986, 1.04578, 1.1952, 1.03864, 1.03619, 1.0354, 1.03619, 1.03775
1.20611, 1.20179, 1.20153, 1.19801, 1.19738, 1.18298, 1.18205, 1.1773, 1.17162, 1.1691, 1.15951, 1.15711, 1.2655, 1.14192, 1.14135, 1.14332, 1.14291, 1.14296, 1.14267, 1.13697, 1.13468, 1.13325, 1.13777, 1.16147, 1.27242, 1.18814, 1.18774, 1.12654, 1.12032, 1.1188, 1.10093, 1.09898, 1.09917, 1.09974, 1.09973, 1.09791, 1.10213, 1.10528, 1.10767, 1.11171, 1.16665, 1.13729, 1.08253, 1.06996, 1.05051, 1.213, 1.22668, 1.22853, 1.29318, 1.31979, 1.30895, 1.35011, 1.35071, 1.3357, 1.29964, 1.28172, 1.28171, 1.28954, 1.32587, 1.327, 1.27435, 1.27852, 1.27262, 1.27579, 1.35681, 1.33385, 1.37292, 1.50917, 1.3018, 1.28931, 1.34302, 1.31462, 1.30269, 1.29515, 1.38067, 1.38891, 1.33547, 1.33731, 1.38517, 1.38487, 1.35493, 1.35505, 1.34031, 1.34156, 1.3967, 1.39709, 1.40503, 1.33017, 1.32978, 1.33323, 1.33109, 1.33092, 1.32067, 1.3469, 1.30932, 1.306, 1.30495, 1.33363, 1.433, 1.37413, 1.37387, 1.26305, 1.27616, 1.22854, 1.22896, 1.19805, 1.19841, 1.19025, 1.22965, 1.18211, 1.18483, 1.16972, 1.14149, 1.12631, 1.12593, 1.12996, 1.09379, 1.0438, 1.06051, 1.09437, 1.0695, 1.09691, 1.07864, 1.07776, 1.07969, 1.0753, 1.07583, 1.07374, 1.06801, 1.06264, 1.05973, 1.05845, 1.05846, 1.05781, 1.06466, 1.0643, 1.11532, 1.05152, 1.05159, 1.085, 1.05357, 1.05379, 1.05533, 1.04417, 1.19256, 1.03608, 1.03555, 1.03664, 1.03405, 1.03891
1.1991, 1.20201, 1.20204, 1.19279, 1.18147, 1.18198, 1.1817, 1.1812, 1.17284, 1.17404, 1.16049, 1.15139, 1.15083, 1.14182, 1.14085, 1.14033, 1.13953, 1.14087, 1.14286, 1.13972, 1.13377, 1.13157, 1.13292, 1.15452, 1.15127, 1.15991, 1.26253, 1.30262, 1.11964, 1.11838, 1.1057, 1.10149, 1.09906, 1.09878, 1.09904, 1.10218, 1.22115, 1.10997, 1.10943, 1.12918, 1.16335, 1.13714, 1.13573, 1.12392, 1.12791, 1.21406, 1.25681, 1.22868, 1.26993, 1.31273, 1.31185, 1.30305, 1.28154, 1.34469, 1.25668, 1.33443, 1.32977, 1.35446, 1.32853, 1.35428, 1.26688, 1.27089, 1.27134, 1.27503, 1.30658, 1.31821, 1.34962, 1.33081, 1.28523, 1.28588, 1.3086, 1.31106, 1.3017, 1.43022, 1.39107, 1.39038, 1.33134, 1.34138, 1.41903, 1.35159, 1.34076, 1.33843, 1.33993, 1.36028, 1.36776, 1.38181, 1.33383, 1.32985, 1.32604, 1.4204, 1.38361, 1.37421, 1.34015, 1.30079, 1.30968, 1.30172, 1.32935, 1.4398, 1.43685, 1.32928, 1.28913, 1.27483, 1.2664, 1.23312, 1.24934, 1.24966, 1.22292, 1.18694, 1.4094, 1.17703, 1.19822, 1.2098, 1.2124, 1.15253, 1.11952, 1.12698, 1.07252, 1.07789, 1.09967, 1.07994, 1.04112, 1.0607, 1.07722, 1.07828, 1.07746, 1.07363, 1.07414, 1.07304, 1.06698, 1.06629, 1.05764, 1.05977, 1.0594, 1.05977, 1.06539, 1.26655, 1.05551, 1.05276, 1.0951, 1.10076, 1.05452, 1.05596, 1.05473, 1.04475, 1.03556, 1.03378, 1.03547, 1.03542, 1.03602, 1.03957
1.19745, 1.20284, 1.20255, 1.18817, 1.18049, 1.18119, 1.18075, 1.17824, 1.17307, 1.17376, 1.15997, 1.15218, 1.15197, 1.16373, 1.14088, 1.14035, 1.13632, 1.13558, 1.14043, 1.13884, 1.13333, 1.12962, 1.13048, 1.15774, 1.14722, 1.20227, 1.17751, 1.25744, 1.11827, 1.12074, 1.24315, 1.44303, 1.1016, 1.09988, 1.10108, 1.10495, 1.22298, 1.11567, 1.13117, 1.13674, 1.16553, 1.13309, 1.08993, 1.09555, 1.147, 1.21543, 1.26415, 1.2362, 1.27369, 1.29264, 1.29551, 1.28628, 1.28614, 1.28757, 1.27094, 1.29432, 1.34695, 1.39999, 1.30607, 1.31081, 1.29235, 1.27397, 1.32813, 1.29579, 1.30991, 1.31454, 1.32141, 1.3412, 1.28274, 1.28316, 1.31069, 1.3786, 1.33482, 1.34421, 1.34347, 1.35782, 1.34736, 1.33127, 1.32781, 1.42379, 1.33729, 1.42118, 1.33091, 1.31734, 1.35467, 1.34294, 1.33575, 1.30701, 1.32368, 1.32207, 1.32796, 1.32986, 1.3399, 1.31438, 1.31344, 1.33734, 1.33657, 1.40203, 1.40218, 1.30635, 1.29813, 1.29188, 1.40553, 1.24067, 1.23625, 1.19241, 1.19159, 1.22413, 1.40385, 1.18323, 1.1883, 1.16699, 1.1506, 1.16504, 1.11506, 1.11461, 1.12217, 1.07237, 1.04048, 1.04079, 1.07351, 1.04163, 1.07067, 1.07317, 1.07385, 1.07376, 1.07216, 1.07025, 1.06753, 1.06641, 1.06208, 1.06204, 1.06135, 1.06081, 1.06418, 1.06031, 1.05553, 1.05375, 1.09241, 1.0951, 1.05921, 1.05883, 1.13702, 1.04587, 1.04342, 1.03514, 1.03507, 1.03515, 1.03795, 1.03948
1.20034, 1.20451, 1.19313, 1.18009, 1.17838, 1.18019, 1.1804, 1.17818, 1.17396, 1.17147, 1.1681, 1.16162, 1.36622, 1.36526, 1.17494, 1.14291, 1.16504, 1.13297, 1.13307, 1.13421, 1.1364, 1.1291, 1.12878, 1.13384, 1.14428, 1.14672, 1.14776, 1.20232, 1.12176, 1.12308, 1.14382, 1.15347, 1.11122, 1.10147, 1.10241, 1.11624, 1.11222, 1.11974, 1.13223, 1.13595, 1.16039, 1.16417, 1.10464, 1.13563, 1.13485, 1.22779, 1.25491, 1.2449, 1.2809, 1.27783, 1.2771, 1.28027, 1.27387, 1.29216, 1.27133, 1.362, 1.38132, 1.33403, 1.34877, 1.3675, 1.36841, 1.29294, 1.28637, 1.30222, 1.32398, 1.32582, 1.33436, 1.30517, 1.3057, 1.28199, 1.28287, 1.41004, 1.40673, 1.4074, 1.33957, 1.38162, 1.31866, 1.33977, 1.32424, 1.34436, 1.37185, 1.31156, 1.31221, 1.33406, 1.35393, 1.32944, 1.31848, 1.30855, 1.31911, 1.40538, 1.33079, 1.32397, 1.32314, 1.30833, 1.31615, 1.31592, 1.3243, 1.38828, 1.37404, 1.38331, 1.31282, 1.26778, 1.2698, 1.25279, 1.23746, 1.23344, 1.19102, 1.21879, 1.21055, 1.17427, 1.23879, 1.15651, 1.13924, 1.15414, 1.09873, 1.12582, 1.06737, 1.03759, 1.06788, 1.04095, 1.03759, 1.07081, 1.07262, 1.07143, 1.07328, 1.07223, 1.07, 1.06736, 1.06812, 1.06735, 1.06304, 1.06214, 1.06154, 1.06308, 1.06144, 1.06072, 1.05627, 1.05466, 1.09389, 1.12587, 1.06378, 1.0639, 1.05332, 1.04648, 1.04234, 1.04309, 1.03966, 1.0364, 1.0391, 1.03887
1.20487, 1.20571, 1.19475, 1.26917, 1.17805, 1.17972, 1.1804, 1.18085, 1.17047, 1.17118, 1.16945, 1.17004, 1.35764, 1.16788, 1.14722, 1.14362, 1.14232, 1.13334, 1.13241, 1.1353, 1.13623, 1.12959, 1.12257, 1.12458, 1.14087, 1.14064, 1.14306, 1.13942, 1.12334, 1.12572, 1.13971, 1.12816, 1.12295, 1.21881, 1.10468, 1.1012, 1.11928, 1.12418, 1.24054, 1.21549, 1.18675, 1.17439, 1.10214, 1.1363, 1.13637, 1.25672, 1.23759, 1.23788, 1.33977, 1.29564, 1.29614, 1.35286, 1.27988, 1.28059, 1.27221, 1.34764, 1.34371, 1.35542, 1.36153, 1.32646, 1.36439, 1.3223, 1.31191, 1.32015, 1.30486, 1.42142, 1.32191, 1.35844, 1.3101, 1.29924, 1.34132, 1.41718, 1.33872, 1.41589, 1.34438, 1.38839, 1.30374, 1.31657, 1.34301, 1.34444, 1.41183, 1.37127, 1.31492, 1.34361, 1.30234, 1.29366, 1.32351, 1.37549, 1.32402, 1.32618, 1.36454, 1.31314, 1.32287, 1.3183, 1.38284, 1.31059, 1.29021, 1.28969, 1.30015, 1.29533, 1.26933, 1.2673, 1.26679, 1.30503, 1.24046, 1.24743, 1.17483, 1.38312, 1.20364, 1.22299, 1.16244, 1.15268, 1.14194, 1.13073, 1.10222, 1.10631, 1.08922, 1.03816, 1.04138, 1.04948, 1.03938, 1.06218, 1.0634, 1.07132, 1.07349, 1.07347, 1.06934, 1.06848, 1.06978, 1.06987, 1.06712, 1.06254, 1.06225, 1.06258, 1.05971, 1.06012, 1.05659, 1.05469, 1.06224, 1.06451, 1.06455, 1.05941, 1.05357, 1.05149, 1.04405, 1.04253, 1.03913, 1.03684, 1.03763, 1.03861
1.20222, 1.20262, 1.1967, 1.42299, 1.17588, 1.177, 1.18054, 1.18061, 1.17093, 1.17138, 1.17205, 1.17067, 1.22035, 1.15297, 1.15193, 1.15035, 1.17788, 1.35716, 1.136, 1.13561, 1.13605, 1.13102, 1.12626, 1.12532, 1.1437, 1.14074, 1.14301, 1.14362, 1.12563, 1.12653, 1.13001, 1.12608, 1.12301, 1.12348, 1.10599, 1.10171, 1.09935, 1.1891, 1.20541, 1.15021, 1.17783, 1.14472, 1.17463, 1.13295, 1.15749, 1.22986, 1.23006, 1.33612, 1.33354, 1.29505, 1.28912, 1.29073, 1.27523, 1.28546, 1.30818, 1.33662, 1.34624, 1.36061, 1.37465, 1.3121, 1.30899, 1.30977, 1.31523, 1.30766, 1.30371, 1.37506, 1.36829, 1.32303, 1.31204, 1.33011, 1.31148, 1.35609, 1.34027, 1.35833, 1.34981, 1.4261, 1.35368, 1.32637, 1.44111, 1.34965, 1.38117, 1.38134, 1.34888, 1.35889, 1.32915, 1.31504, 1.31673, 1.3847, 1.32541, 1.38948, 1.35821, 1.31709, 1.36318, 1.32966, 1.35191, 1.29537, 1.2938, 1.2858, 1.29146, 1.3405, 1.26951, 1.26986, 1.27044, 1.24481, 1.24678, 1.19096, 1.23267, 1.18016, 1.23673, 1.18867, 1.15414, 1.15393, 1.13863, 1.13699, 1.126, 1.12751, 1.08198, 1.03505, 1.03616, 1.02676, 1.0087, 1.02173, 1.08884, 1.07631, 1.0767, 1.07175, 1.0654, 1.06674, 1.07123, 1.07215, 1.06915, 1.06336, 1.06346, 1.06196, 1.05927, 1.06151, 1.05845, 1.05692, 1.06133, 1.06301, 1.06161, 1.06219, 1.0528, 1.0484, 1.04612, 1.04143, 1.03587, 1.03886, 1.04273, 1.03695
1.20227, 1.20115, 1.20192, 1.43986, 1.22809, 1.17801, 1.18089, 1.18329, 1.17125, 1.17167, 1.17535, 1.1708, 1.21734, 1.15293, 1.1528, 1.15033, 1.14689, 1.14629, 1.13985, 1.13604, 1.13592, 1.13076, 1.12635, 1.12307, 1.12619, 1.42641, 1.13097, 1.12611, 1.12534, 1.12542, 1.13052, 1.12627, 1.12201, 1.11978, 1.11753, 1.09975, 1.09986, 1.20281, 1.15018, 1.15084, 1.19383, 1.11699, 1.10278, 1.12247, 1.18298, 1.30229, 1.23599, 1.27579, 1.36193, 1.36428, 1.288, 1.29509, 1.30242, 1.28291, 1.35254, 1.3268, 1.33316, 1.36876, 1.32323, 1.3187, 1.32768, 1.31933, 1.42672, 1.31924, 1.39534, 1.3617, 1.33488, 1.32192, 1.31961, 1.3215, 1.36224, 1.33384, 1.34806, 1.35443, 1.35982, 1.30814, 1.30841, 1.34201, 1.4504, 1.48365, 1.34201, 1.34204, 1.34701, 1.33658, 1.35105, 1.40365, 1.36745, 1.33196, 1.34436, 1.32201, 1.3655, 1.31664, 1.32361, 1.32905, 1.32613, 1.30993, 1.28265, 1.28355, 1.28882, 1.31223, 1.27308, 1.26821, 1.27121, 1.29554, 1.23714, 1.28285, 1.17251, 1.17528, 1.18223, 1.16366, 1.16041, 1.13649, 1.13941, 1.16126, 1.12914, 1.10824, 1.09095, 1.09162, 1.06349, 1.01617, 1.01255, 1.0151, 1.05242, 1.07329, 1.07572, 1.07046, 1.06927, 1.06628, 1.07159, 1.07258, 1.06672, 1.06441, 1.06318, 1.0568, 1.05657, 1.06165, 1.06296, 1.05932, 1.06063, 1.06285, 1.06024, 1.06011, 1.05267, 1.04974, 1.04384, 1.04001, 1.03593, 1.03554, 1.02416, 1.03758
1.19926, 1.20193, 1.20259, 1.37816, 1.4197, 1.18326, 1.18406, 1.18534, 1.17194, 1.17218, 1.17643, 1.16992, 1.16808, 1.1996, 1.19597, 1.15107, 1.14755, 1.14739, 1.25673, 1.24773, 1.13782, 1.13618, 1.13555, 1.12436, 1.12438, 1.13011, 1.12906, 1.12616, 1.12726, 1.1248, 1.1262, 1.12531, 1.12157, 1.11858, 1.11799, 1.20996, 1.35546, 1.20552, 1.15031, 1.15064, 1.1358, 1.16585, 1.10031, 1.15298, 1.23596, 1.22503, 1.22864, 1.4196, 1.38356, 1.3857, 1.37404, 1.29267, 1.32627, 1.28969, 1.28155, 1.33223, 1.34399, 1.35444, 1.32748, 1.31997, 1.31965, 1.32232, 1.40026, 1.3552, 1.40277, 1.33716, 1.33619, 1.32401, 1.31714, 1.32242, 1.33001, 1.32699, 1.34435, 1.34551, 1.34155, 1.35025, 1.37891, 1.34375, 1.33089, 1.35382, 1.35686, 1.34289, 1.34259, 1.32707, 1.36704, 1.37865, 1.34627, 1.32476, 1.38732, 1.32453, 1.38638, 1.4183, 1.32326, 1.3185, 1.33268, 1.30771, 1.3135, 1.27791, 1.28682, 1.31173, 1.28935, 1.27117, 1.24837, 1.29557, 1.24328, 1.26703, 1.17397, 1.17629, 1.15797, 1.17744, 1.17888, 1.17592, 1.15363, 1.1684, 1.16537, 1.1146, 1.11722, 1.10371, 1.04896, 1.02771, 1.00048, 1.03044, 1.03157, 1.13202, 1.07561, 1.07443, 1.06875, 1.06499, 1.06754, 1.06389, 1.0632, 1.06345, 1.06349, 1.05537, 1.05486, 1.05862, 1.06056, 1.05909, 1.06068, 1.06224, 1.05959, 1.05946, 1.05206, 1.04707, 1.0412, 1.03566, 1.03282, 1.03253, 1.03013, 1.03758
1.19782, 1.20129, 1.20156, 1.2358, 1.18982, 1.19003, 1.1842, 1.18488, 1.17161, 1.17312, 1.17616, 1.17643, 1.16942, 1.20292, 1.25117, 1.1472, 1.14709, 1.14779, 1.14958, 1.14657, 1.14648, 1.13683, 1.13288, 1.1274, 1.12396, 1.12704, 1.12994, 1.12712, 1.11627, 1.12485, 1.12441, 1.12403, 1.11219, 1.11477, 1.11906, 1.20117, 1.23003, 1.17378, 1.14994, 1.31452, 1.28839, 1.1324, 1.09812, 1.19328, 1.24773, 1.271, 1.27439, 1.42003, 1.38592, 1.37226, 1.37374, 1.2981, 1.30201, 1.29529, 1.29213, 1.28984, 1.31219, 1.32457, 1.31803, 1.31894, 1.31285, 1.34464, 1.38775, 1.32329, 1.32742, 1.41031, 1.34763, 1.31607, 1.31185, 1.31128, 1.33708, 1.33565, 1.3233, 1.31935, 1.34283, 1.3467, 1.34037, 1.44711, 1.34035, 1.35038, 1.33274, 1.33565, 1.33902, 1.36782, 1.41191, 1.36387, 1.31915, 1.34827, 1.38939, 1.32675, 1.31331, 1.31198, 1.32983, 1.31568, 1.32049, 1.31936, 1.31318, 1.30854, 1.30685, 1.27192, 1.28134, 1.27471, 1.2606, 1.26432, 1.26433, 1.24874, 1.17532, 1.17616, 1.20724, 1.19163, 1.21589, 1.16787, 1.14661, 1.16764, 1.13866, 1.11071, 1.13269, 1.10546, 1.08752, 1.02996, 1.05391, 1.0368, 1.03007, 1.06662, 1.06393, 1.07717, 1.06728, 1.06484, 1.0645, 1.05986, 1.05792, 1.05839, 1.17909, 1.05461, 1.05416, 1.05638, 1.0582, 1.05952, 1.05742, 1.05979, 1.05806, 1.05209, 1.0508, 1.04237, 1.03727, 1.03372, 1.03064, 1.03318, 1.03178, 1.03977
1.20147, 1.20422, 1.20149, 1.33661, 1.42256, 1.19256, 1.18609, 1.18551, 1.35319, 1.17356, 1.17496, 1.17714, 1.17199, 1.16205, 1.19947, 1.14833, 1.14967, 1.15014, 1.15317, 1.15124, 1.14466, 1.13945, 1.1353, 1.13341, 1.1253, 1.12417, 1.13142, 1.13009, 1.13245, 1.12578, 1.12552, 1.12524, 1.11375, 1.11344, 1.11362, 1.30265, 1.34995, 1.15995, 1.15063, 1.31252, 1.13283, 1.09606, 1.1416, 1.16843, 1.25022, 1.25437, 1.28393, 1.39499, 1.38846, 1.36756, 1.37053, 1.40125, 1.31115, 1.2947, 1.29039, 1.29548, 1.31071, 1.30033, 1.31699, 1.3201, 1.30457, 1.30164, 1.29991, 1.30333, 1.38082, 1.33978, 1.38651, 1.34196, 1.30275, 1.31305, 1.35421, 1.39157, 1.31329, 1.39145, 1.34928, 1.34896, 1.35735, 1.40531, 1.34705, 1.35768, 1.34044, 1.33429, 1.33978, 1.36183, 1.31891, 1.32036, 1.31995, 1.34371, 1.37704, 1.35313, 1.30707, 1.38248, 1.31723, 1.35155, 1.40361, 1.32233, 1.28509, 1.26878, 1.27057, 1.29586, 1.28436, 1.27941, 1.26033, 1.27067, 1.258, 1.29196, 1.18864, 1.18022, 1.17783, 1.18282, 1.18258, 1.18402, 1.16427, 1.14314, 1.14081, 1.12181, 1.12236, 1.08847, 1.0624, 1.0279, 1.02701, 1.04293, 1.03913, 1.0611, 1.06264, 1.07735, 1.06619, 1.06494, 1.06333, 1.05952, 1.05419, 1.05191, 1.05025, 1.05334, 1.05252, 1.05355, 1.36811, 1.05802, 1.05686, 1.05808, 1.05671, 1.11258, 1.04127, 1.03739, 1.0354, 1.02995, 1.03169, 1.03049, 1.03187, 1.03916
1.20571, 1.20466, 1.20574, 1.31547, 1.40834, 1.3966, 1.19272, 1.18498, 1.17938, 1.39626, 1.17495, 1.17702, 1.16937, 1.15765, 1.27094, 1.14854, 1.15109, 1.15282, 1.15312, 1.15481, 1.15156, 1.20302, 1.13545, 1.13543, 1.12632, 1.12687, 1.13346, 1.13048, 1.13081, 1.1284, 1.12846, 1.12547, 1.12312, 1.11658, 1.11442, 1.31182, 1.14081, 1.14203, 1.15106, 1.13588, 1.13395, 1.0888, 1.13126, 1.17037, 1.25679, 1.25369, 1.39833, 1.44543, 1.41003, 1.37152, 1.37065, 1.31969, 1.31892, 1.31435, 1.28422, 1.28698, 1.28316, 1.29191, 1.33305, 1.32, 1.32319, 1.3415, 1.30011, 1.30194, 1.34439, 1.37494, 1.29789, 1.30021, 1.29948, 1.32081, 1.39061, 1.33934, 1.3894, 1.34654, 1.34314, 1.42625, 1.39541, 1.41282, 1.42655, 1.34605, 1.32383, 1.32197, 1.35476, 1.36382, 1.31967, 1.34462, 1.31879, 1.3259, 1.3273, 1.32242, 1.30956, 1.38361, 1.31336, 1.44138, 1.36514, 1.33182, 1.33232, 1.26937, 1.2642, 1.28801, 1.28008, 1.28583, 1.37158, 1.36486, 1.23369, 1.25686, 1.19104, 1.20468, 1.21131, 1.19019, 1.18277, 1.2433, 1.17369, 1.14333, 1.11967, 1.13372, 1.11038, 1.06787, 1.08475, 1.00153, 1.04061, 1.00947, 1.08899, 1.05974, 1.08258, 1.07366, 1.14365, 1.0571, 1.05976, 1.38457, 1.05464, 1.05315, 1.05249, 1.05264, 1.05088, 1.05109, 1.04934, 1.05486, 1.0583, 1.05936, 1.05417, 1.04802, 1.04248, 1.03981, 1.03567, 1.03351, 1.03352, 1.35827, 1.13185, 1.5457
1.20881, 1.20876, 1.2083, 1.4042, 1.25471, 1.39429, 1.37789, 1.18935, 1.1845, 1.18436, 1.40211, 1.17708, 1.17212, 1.15314, 1.15308, 1.15375, 1.15056, 1.15085, 1.15143, 1.15346, 1.15158, 1.15193, 1.13941, 1.13782, 1.12998, 1.13083, 1.13591, 1.1335, 1.13275, 1.12855, 1.12964, 1.12859, 1.12557, 1.33009, 1.24055, 1.14128, 1.14105, 1.14126, 1.15159, 1.37949, 1.12689, 1.11684, 1.14375, 1.17079, 1.23611, 1.2707, 1.32434, 1.36081, 1.33965, 1.38324, 1.3616, 1.32043, 1.31591, 1.2886, 1.30384, 1.30178, 1.29484, 1.32549, 1.31921, 1.3274, 1.32271, 1.32693, 1.32641, 1.29662, 1.29778, 1.31668, 1.312, 1.3015, 1.30238, 1.37399, 1.35465, 1.33577, 1.3272, 1.44051, 1.34303, 1.58811, 1.57865, 1.37573, 1.37491, 1.35249, 1.32357, 1.34662, 1.40456, 1.40526, 1.36916, 1.35759, 1.34734, 1.31086, 1.30937, 1.31831, 1.33352, 1.30212, 1.35087, 1.38714, 1.39476, 1.31216, 1.32691, 1.35717, 1.26429, 1.29539, 1.28407, 1.34123, 1.37087, 1.2478, 1.24678, 1.21646, 1.18978, 1.19377, 1.21974, 1.19972, 1.1915, 1.24356, 1.21741, 1.17641, 1.13265, 1.12987, 1.07446, 1.06032, 1.01995, 1.01378, 1.05127, 1.07731, 1.04592, 1.04452, 1.04131, 1.07024, 1.06893, 1.05841, 1.05751, 1.06003, 1.0551, 1.05404, 1.053, 1.05262, 1.05194, 1.0513, 1.05136, 1.05259, 1.05484, 1.05514, 1.05216, 1.0608, 1.03719, 1.03942, 1.03519, 1.03405, 1.03555, 1.02594, 1.02772, 1.32015
1.21048, 1.21015, 1.20984, 1.20493, 1.20433, 1.2046, 1.20186, 1.19109, 1.19088, 1.18457, 1.18552, 1.29917, 1.29885, 1.15903, 1.15099, 1.1522, 1.15442, 1.15096, 1.15115, 1.15277, 1.15273, 1.15112, 1.15056, 1.36883, 1.13158, 1.14347, 1.13808, 1.13582, 1.13558, 1.12335, 1.13233, 1.13074, 1.12878, 1.13041, 1.28296, 1.14083, 1.1415, 1.15657, 1.15585, 1.15254, 1.15424, 1.10445, 1.09838, 1.17508, 1.25736, 1.31344, 1.31472, 1.30369, 1.30538, 1.39542, 1.36917, 1.31558, 1.3162, 1.29095, 1.29283, 1.29538, 1.29784, 1.31297, 1.31448, 1.31907, 1.34517, 1.32071, 1.29893, 1.29396, 1.29481, 1.29178, 1.29114, 1.30376, 1.30437, 1.30413, 1.31668, 1.343, 1.31952, 1.31607, 1.36915, 1.58802, 1.58005, 1.41394, 1.41396, 1.38612, 1.32638, 1.36471, 1.3877, 1.37164, 1.38584, 1.31583, 1.31366, 1.28157, 1.303, 1.31884, 1.32712, 1.30928, 1.38194, 1.38836, 1.38787, 1.35493, 1.3175, 1.30771, 1.34258, 1.28252, 1.35387, 1.35362, 1.35339, 1.33297, 1.24584, 1.24099, 1.20297, 1.24792, 1.26716, 1.17, 1.17116, 1.25579, 1.16803, 1.15934, 1.11566, 1.09346, 1.06819, 1.07108, 1.0432, 1.02896, 1.04962, 1.04185, 1.03443, 1.0394, 1.04054, 1.07055, 1.06846, 1.05765, 1.05801, 1.06029, 1.05641, 1.05641, 1.32077, 1.05761, 1.05362, 1.05025, 1.05014, 1.0506, 1.05236, 1.05309, 1.06405, 1.05805, 1.03789, 1.03895, 1.03613, 1.03346, 1.03412, 1.02599, 1.04863, 1.20552
1.21325, 1.21265, 1.21205, 1.20679, 1.20468, 1.20616, 1.20608, 1.19103, 1.19122, 1.18494, 1.18386, 1.29848, 1.1564, 1.155, 1.15065, 1.15151, 1.17501, 1.17641, 1.15143, 1.15209, 1.15519, 1.15253, 1.14946, 1.14522, 1.13329, 1.15096, 1.13579, 1.13955, 1.13928, 1.13457, 1.14041, 1.13281, 1.30242, 1.2062, 1.13601, 1.14089, 1.14249, 1.15985, 1.15565, 1.15308, 1.0905, 1.10808, 1.14355, 1.23302, 1.23097, 1.31673, 1.32837, 1.30821, 1.34408, 1.31775, 1.31268, 1.37649, 1.30515, 1.29202, 1.29547, 1.29332, 1.29432, 1.29189, 1.32574, 1.35803, 1.3409, 1.32098, 1.30182, 1.29746, 1.29754, 1.29163, 1.29102, 1.30001, 1.3057, 1.30761, 1.39235, 1.33099, 1.31182, 1.32269, 1.37995, 1.70989, 1.56543, 1.40955, 1.409, 1.40999, 1.35787, 1.37102, 1.36075, 1.36174, 1.35926, 1.35043, 1.30347, 1.27884, 1.30159, 1.30448, 1.31206, 1.30924, 1.33406, 1.33015, 1.33068, 1.31666, 1.31976, 1.37763, 1.36341, 1.26681, 1.3609, 1.35435, 1.35122, 1.27893, 1.24797, 1.23896, 1.23757, 1.25337, 1.25163, 1.26456, 1.17113, 1.17767, 1.21066, 1.12629, 1.11351, 1.09023, 1.08159, 1.06736, 1.02926, 1.03687, 1.05881, 1.01922, 1.00732, 1.16741, 1.1573, 1.0666, 1.06676, 1.06702, 1.05786, 1.05987, 1.06, 1.05945, 1.06093, 1.05825, 1.05295, 1.05128, 1.05147, 1.04998, 1.0511, 1.05063, 1.05149, 1.05141, 1.06252, 1.0402, 1.0384, 1.03315, 1.03239, 1.03183, 1.18949, 1.03878
1.21504, 1.21386, 1.21208, 1.21143, 1.20672, 1.20592, 1.20494, 1.19471, 1.18993, 1.18805, 1.18393, 1.1814, 1.15574, 1.15492, 1.1633, 1.15995, 1.16106, 1.16057, 1.17557, 1.80085, 1.15768, 1.1543, 1.15147, 1.15005, 1.13634, 1.14626, 1.14247, 1.144, 1.14443, 1.14148, 1.13901, 1.13658, 1.13952, 1.14258, 1.14258, 1.1435, 1.15446, 1.16334, 1.15791, 1.16126, 1.09163, 1.08564, 1.15229, 1.17844, 1.25984, 1.25459, 1.30518, 1.29714, 1.29169, 1.29374, 1.31226, 1.30701, 1.32629, 1.40935, 1.29481, 1.29449, 1.29288, 1.29328, 1.33285, 1.32195, 1.34143, 1.31308, 1.29649, 1.29785, 1.29318, 1.29737, 1.2811, 1.34669, 1.29155, 1.29668, 1.38246, 1.40152, 1.39301, 1.38821, 1.38902, 1.37231, 1.40173, 1.39933, 1.40108, 1.37169, 1.3318, 1.48336, 1.37585, 1.38914, 1.40912, 1.33378, 1.31199, 1.30067, 1.30256, 1.30867, 1.31191, 1.30571, 1.34157, 1.30909, 1.31873, 1.31537, 1.36029, 1.3034, 1.38184, 1.27333, 1.35908, 1.27234, 1.33909, 1.27906, 1.24729, 1.24263, 1.2134, 1.28594, 1.28476, 1.17534, 1.18235, 1.15384, 1.15392, 1.12565, 1.09532, 1.08621, 1.07433, 1.06404, 1.02076, 1.01128, 1.00784, 1.01819, 1.01399, 1.05083, 1.0583, 1.06702, 1.06793, 1.06656, 1.05669, 1.05997, 1.05999, 1.06183, 1.06184, 1.05759, 1.05072, 1.05064, 1.05118, 1.05141, 1.04834, 1.04926, 1.05008, 1.05075, 1.04916, 1.04043, 1.03779, 1.03345, 1.03202, 1.03274, 1.03954, 1.03875
1.21821, 1.21411, 1.21507, 1.2139, 1.20868, 1.20824, 1.20367, 1.19777, 1.19098, 1.18818, 1.1838, 1.1808, 1.18916, 1.16105, 1.16601, 1.94468, 1.16189, 1.16241, 1.17573, 1.15628, 1.15878, 1.15651, 1.1552, 1.4166, 1.16884, 1.1404, 1.17058, 1.1491, 1.14607, 1.14104, 1.1372, 1.13594, 1.13978, 1.14125, 1.14253, 1.14269, 1.16001, 1.16153, 1.16198, 1.14612, 1.14616, 1.11607, 1.17802, 1.21084, 1.22991, 1.32097, 1.26831, 1.29912, 1.30501, 1.30545, 1.30499, 1.29544, 1.38209, 1.35777, 1.32023, 1.3033, 1.3918, 1.29447, 1.41978, 1.32315, 1.32178, 1.38307, 1.29907, 1.29982, 1.29713, 1.29227, 1.33601, 1.31053, 1.29827, 1.29865, 1.3206, 1.39998, 1.42701, 1.36872, 1.40862, 1.37213, 1.45349, 1.4046, 1.40392, 1.34095, 1.34036, 1.41556, 1.47247, 1.35828, 1.41538, 1.33788, 1.2937, 1.29536, 1.32303, 1.3152, 1.3162, 1.31101, 1.30221, 1.31196, 1.34071, 1.32741, 1.3403, 1.30545, 1.25716, 1.28039, 1.27066, 1.2641, 1.27727, 1.26796, 1.23709, 1.26219, 1.22232, 1.19356, 1.18831, 1.1921, 1.19249, 1.16088, 1.15638, 1.11165, 1.10893, 1.09655, 1.06079, 1.05721, 1.03058, 1.02474, 1.04642, 1.0633, 1.01242, 1.17159, 1.05894, 1.05955, 1.05999, 1.06654, 1.05491, 1.0562, 1.05799, 1.06286, 1.05726, 1.05332, 1.05116, 1.05049, 1.05155, 1.05145, 1.04941, 1.04896, 1.05123, 1.05197, 1.0513, 1.04444, 1.03904, 1.17127, 1.05011, 1.03994, 1.04087, 1.03875
1.22456, 1.21493, 1.21511, 1.21504, 1.21237, 1.21069, 1.20515, 1.19805, 1.19078, 1.18935, 1.18346, 1.18095, 1.17977, 1.18751, 1.16837, 1.16935, 1.18046, 1.1647, 1.1672, 1.15634, 1.15724, 1.15781, 1.15616, 1.57498, 1.18187, 1.16466, 1.16786, 1.15098, 1.14799, 1.14542, 1.13695, 1.13632, 1.13971, 1.14401, 1.14473, 1.14306, 1.23826, 1.17277, 1.17277, 1.17086, 1.10898, 1.11027, 1.15377, 1.15277, 1.24771, 1.27039, 1.32403, 1.27542, 1.29844, 1.30585, 1.30877, 1.34264, 1.29892, 1.31508, 1.37786, 1.3109, 1.29823, 1.59965, 1.33312, 1.38346, 1.39224, 1.3956, 1.30467, 1.30582, 1.29155, 1.3021, 1.35348, 1.34208, 1.31728, 1.33792, 1.38819, 1.43182, 1.38627, 1.36627, 1.41916, 1.41781, 1.45349, 1.49658, 1.45076, 1.35138, 1.40631, 1.35207, 1.3779, 1.37942, 1.33671, 1.33383, 1.31863, 1.35938, 1.30172, 1.36028, 1.31088, 1.31842, 1.3403, 1.30348, 1.30461, 1.32618, 1.32598, 1.33309, 1.25378, 1.25358, 1.26655, 1.26484, 1.24635, 1.28499, 1.23014, 1.23246, 1.22528, 1.19638, 1.23826, 1.18997, 1.17806, 1.16611, 1.15596, 1.16405, 1.12251, 1.09096, 1.11919, 1.08438, 1.08454, 1.0623, 1.05715, 1.06724, 1.01131, 1.04295, 1.15793, 1.15781, 1.05964, 1.06631, 1.05489, 1.05435, 1.0594, 1.0583, 1.05562, 1.05526, 1.05078, 1.04986, 1.05097, 1.0513, 1.0493, 1.04847, 1.05068, 1.05289, 1.05019, 1.05009, 1.04398, 1.12206, 1.04044, 1.04228, 1.04267, 1.03932
1.22298, 1.21594, 1.21381, 1.21398, 1.21465, 1.21188, 1.42262, 1.33062, 1.19129, 1.18408, 1.18386, 1.18092, 1.18135, 1.18755, 1.16752, 1.16877, 1.16652, 1.16798, 1.16636, 1.15719, 1.158, 1.15836, 1.15591, 1.157, 1.14776, 1.15271, 1.15393, 1.15438, 1.15026, 1.13924, 1.13879, 1.1367, 1.14047, 1.14151, 1.13502, 1.17453, 1.20881, 1.17232, 1.18012, 1.18133, 1.25444, 1.10895, 1.11756, 1.18422, 1.17865, 1.25052, 1.31288, 1.28428, 1.36266, 1.36175, 1.291, 1.28491, 1.39543, 1.30898, 1.31579, 1.30919, 1.29778, 1.38826, 1.33229, 1.40637, 1.38783, 1.33679, 1.3024, 1.29858, 1.29448, 1.34202, 1.34878, 1.326, 1.31388, 1.40527, 1.38462, 1.42387, 1.3801, 1.43291, 1.42258, 1.42108, 1.37357, 1.42551, 1.42722, 1.32998, 1.3452, 1.33569, 1.33709, 1.37927, 1.33138, 1.38681, 1.34755, 1.36026, 1.30571, 1.32146, 1.31572, 1.31805, 1.35289, 1.3505, 1.31, 1.31537, 1.36142, 1.32308, 1.27353, 1.25302, 1.26333, 1.26974, 1.27414, 1.25276, 1.24535, 1.23921, 1.2234, 1.20229, 1.18588, 1.1857, 1.157, 1.15415, 1.15112, 1.14788, 1.15891, 1.10536, 1.10476, 1.1092, 1.10164, 1.10991, 1.06944, 1.02821, 1.04501, 1.04289, 1.04946, 1.05152, 1.05698, 1.0578, 1.15912, 1.05298, 1.05346, 1.05612, 1.05634, 1.05758, 1.39176, 1.08588, 1.04663, 1.04966, 1.04845, 1.04827, 1.04854, 1.04835, 1.05007, 1.04849, 1.0447, 1.04567, 1.04629, 1.04337, 1.03646, 1.03741
1.2188, 1.21571, 1.21521, 1.21578, 1.21701, 1.4567, 1.45205, 1.46235, 1.18798, 1.1847, 1.18376, 1.1814, 1.18095, 1.18116, 1.17223, 1.16965, 1.1657, 1.16682, 1.16692, 1.15941, 1.15812, 1.15768, 1.15691, 1.1573, 1.14967, 1.15199, 1.15554, 1.15528, 1.15663, 1.14154, 1.1423, 1.13925, 1.14273, 1.14289, 1.14513, 1.15429, 1.16753, 1.16799, 1.17823, 1.23686, 1.22275, 1.15082, 1.12811, 1.15327, 1.20799, 1.30363, 1.2924, 1.30828, 1.36343, 1.40519, 1.34622, 1.35826, 1.30918, 1.30952, 1.30012, 1.3379, 1.37024, 1.40969, 1.40887, 1.36142, 1.35838, 1.32956, 1.30374, 1.34148, 1.30106, 1.29612, 1.2945, 1.33421, 1.31581, 1.31763, 1.40113, 1.38479, 1.40267, 1.40109, 1.34308, 1.36557, 1.36235, 1.3957, 1.32191, 1.32772, 1.34126, 1.33322, 1.31641, 1.30857, 1.41159, 1.33604, 1.38859, 1.31947, 1.30843, 1.30732, 1.31366, 1.57176, 1.55815, 1.33751, 1.31076, 1.31001, 1.36786, 1.31878, 1.28501, 1.25345, 1.26896, 1.27476, 1.25692, 1.29165, 1.29127, 1.22008, 1.22053, 1.19187, 1.19021, 1.18742, 1.15724, 1.15784, 1.1676, 1.17036, 1.1188, 1.11855, 1.10994, 1.12587, 1.10218, 1.05189, 1.07763, 1.02042, 1.0732, 1.17241, 1.04966, 1.05038, 1.0537, 1.05452, 1.05638, 1.04939, 1.0506, 1.05471, 1.05507, 1.05892, 1.43867, 1.08045, 1.08138, 1.04921, 1.04937, 1.0483, 1.04702, 1.0491, 1.04908, 1.04855, 1.04904, 1.04703, 1.0473, 1.04459, 1.04027, 1.03893
1.21792, 1.21828, 1.21605, 1.21709, 1.21807, 1.28422, 1.22394, 1.3174, 1.19111, 1.1844, 1.18344, 1.18235, 1.18076, 1.18431, 1.1856, 1.16924, 1.16863, 1.16341, 1.16431, 1.16298, 1.15964, 1.15993, 1.1553, 1.15687, 1.14984, 1.15071, 1.15625, 1.15627, 1.15667, 1.1474, 1.14643, 1.24126, 1.14454, 1.1437, 1.14523, 1.2583, 1.17117, 1.16825, 1.28201, 1.17671, 1.10949, 1.11219, 1.13286, 1.17004, 1.2161, 1.22082, 1.28451, 1.25151, 1.30236, 1.35071, 1.35123, 1.36337, 1.38778, 1.31386, 1.30011, 1.31044, 1.40169, 1.42227, 1.35027, 1.34823, 1.33812, 1.31042, 1.35773, 1.30865, 1.3127, 1.29451, 1.3265, 1.30969, 1.31586, 1.31543, 1.3578, 1.38165, 1.37873, 1.33395, 1.3241, 1.32914, 1.3411, 1.33633, 1.31795, 1.32036, 1.295, 1.34761, 1.2918, 1.28943, 1.28349, 1.33135, 1.33399, 1.31708, 1.3715, 1.30562, 1.30589, 1.30586, 1.3697, 1.34815, 1.33214, 1.30889, 1.30981, 1.33985, 1.2819, 1.26476, 1.26371, 1.26392, 1.31414, 1.31433, 1.28662, 1.22329, 1.22249, 1.18938, 1.18437, 1.18473, 1.19005, 1.16899, 1.13927, 1.14456, 1.12287, 1.13319, 1.0714, 1.07798, 1.03619, 1.04265, 1.04333, 1.02698, 1.06497, 1.05057, 1.0511, 1.04976, 1.05378, 1.05321, 1.05284, 1.04938, 1.05056, 1.05275, 1.05311, 1.05486, 1.07407, 1.04226, 1.04375, 1.04789, 1.04874, 1.04936, 1.04818, 1.04879, 1.0487, 1.04921, 1.04927, 1.04633, 1.046, 1.04397, 1.04253, 1.03926
1.21746, 1.21717, 1.21672, 1.21696, 1.21663, 1.22482, 1.22289, 1.22219, 1.19349, 1.18562, 1.18445, 1.18313, 1.18397, 1.18309, 1.18073, 1.17051, 1.1682, 1.16503, 1.16219, 1.16414, 1.16114, 1.1618, 1.15971, 1.15986, 1.15042, 1.15084, 1.15458, 1.15511, 1.15639, 1.15164, 1.15121, 1.14944, 1.14659, 1.14345, 1.14371, 1.16751, 1.17586, 1.16943, 1.16692, 1.13572, 1.14039, 1.09649, 1.11673, 1.16966, 1.20777, 1.2335, 1.23424, 1.24136, 1.34539, 1.3454, 1.34549, 1.33741, 1.3165, 1.33361, 1.28498, 1.31068, 1.3134, 1.38641, 1.36151, 1.33765, 1.31017, 1.28848, 1.29458, 1.30911, 1.3036, 1.29152, 1.32387, 1.32248, 1.3215, 1.38172, 1.35307, 1.44094, 1.34062, 1.33011, 1.33468, 1.32904, 1.36949, 1.30989, 1.29207, 1.28758, 1.35685, 1.27139, 1.26813, 1.27204, 1.31629, 1.28877, 1.34347, 1.30844, 1.28544, 1.40482, 1.30876, 1.30635, 1.32089, 1.31926, 1.33259, 1.38573, 1.30795, 1.35089, 1.25817, 1.24837, 1.25749, 1.2948, 1.35612, 1.34064, 1.28766, 1.25632, 1.23363, 1.19974, 1.18567, 1.21968, 1.23077, 1.16701, 1.14621, 1.10699, 1.10899, 1.10154, 1.07158, 1.09463, 1.07451, 1.05312, 1.00755, 1.03601, 1.03526, 1.04552, 1.05163, 1.05331, 1.05352, 1.05041, 1.05046, 1.05264, 1.04989, 1.05084, 1.04991, 1.0543, 1.07396, 1.04241, 1.0412, 1.04372, 1.04747, 1.04935, 1.04954, 1.04555, 1.04821, 1.04936, 1.04972, 1.11899, 1.04345, 1.04496, 1.03981, 1.03956
1.21699, 1.21743, 1.21783, 1.21863, 1.21533, 1.2162, 1.22557, 1.22351, 1.1931, 1.1939, 1.18662, 1.18712, 1.1851, 1.18521, 1.17837, 1.17168, 1.17044, 1.16819, 1.16311, 1.16543, 1.16501, 1.16344, 1.16332, 1.16093, 1.15094, 1.15093, 1.15315, 1.15301, 1.15695, 1.15303, 1.1515, 1.15062, 1.14964, 1.14968, 1.1465, 1.20136, 1.17706, 1.16941, 1.1611, 1.13645, 1.10287, 1.13038, 1.12564, 1.17098, 1.19968, 1.21242, 1.25768, 1.2615, 1.35107, 1.33221, 1.3402, 1.37126, 1.3135, 1.35719, 1.2843, 1.2922, 1.32953, 1.38733, 1.36146, 1.33005, 1.31596, 1.28473, 1.29477, 1.3062, 1.30227, 1.30538, 1.33623, 1.32568, 1.3221, 1.44899, 1.35342, 1.34993, 1.35335, 1.32742, 1.37404, 1.32768, 1.31907, 1.31936, 1.3156, 1.31895, 1.28547, 1.26273, 1.27471, 1.27498, 1.2716, 1.29142, 1.3436, 1.30793, 1.28866, 1.28781, 1.29858, 1.30202, 1.31865, 1.31766, 1.38268, 1.30942, 1.3294, 1.28469, 1.25205, 1.3361, 1.25446, 1.32644, 1.35688, 1.26078, 1.33113, 1.2613, 1.24834, 1.21685, 1.19553, 1.26677, 1.20789, 1.16988, 1.14119, 1.1367, 1.0996, 1.10818, 1.07945, 1.0479, 1.05871, 1.08821, 1.01357, 1.0241, 1.02524, 1.04648, 1.05129, 1.05365, 1.05379, 1.05064, 1.05024, 1.05247, 1.04857, 1.05058, 1.05244, 1.05096, 1.35076, 1.04302, 1.03994, 1.04419, 1.04545, 1.04636, 1.04407, 1.06376, 1.04807, 1.04989, 1.04909, 1.04212, 1.03926, 1.0424, 1.04044, 1.03893
1.22089, 1.2191, 1.21874, 1.2198, 1.21581, 1.21379, 1.22531, 1.25141, 1.19336, 1.19481, 1.1948, 1.19091, 1.19014, 1.18479, 1.18399, 1.17869, 1.16954, 1.16891, 1.1675, 1.16764, 1.16777, 1.16722, 1.15853, 1.15791, 1.15064, 1.15126, 1.15276, 1.15283, 1.15954, 1.15112, 1.15068, 1.15026, 1.14943, 1.15087, 1.15025, 1.16175, 1.17401, 1.15889, 1.15802, 1.13233, 1.10637, 1.09774, 1.13908, 1.18116, 1.23633, 1.26568, 1.2435, 1.25024, 1.25454, 1.33629, 1.34402, 1.31857, 1.33999, 1.28834, 1.29493, 1.27415, 1.33102, 1.39896, 1.42284, 1.36051, 1.29916, 1.28378, 1.28728, 1.30507, 1.30132, 1.31187, 1.29196, 1.32298, 1.32234, 1.40714, 1.39313, 1.3527, 1.35518, 1.36015, 1.32562, 1.32364, 1.32143, 1.30441, 1.31566, 1.30541, 1.2796, 1.35024, 1.25771, 1.28172, 1.33263, 1.28172, 1.286, 1.28535, 1.29222, 1.28805, 1.31895, 1.30128, 1.33325, 1.33895, 1.3508, 1.30776, 1.30854, 1.31609, 1.31976, 1.25331, 1.28199, 1.34247, 1.28868, 1.26648, 1.26465, 1.2498, 1.2276, 1.19934, 1.19079, 1.22679, 1.22143, 1.17861, 1.10949, 1.09635, 1.09575, 1.06973, 1.08106, 1.02778, 1.02337, 1.02202, 1.02153, 1.02236, 1.02951, 1.11847, 1.04813, 1.05214, 1.05293, 1.05238, 1.05136, 1.05295, 1.04939, 1.05019, 1.05056, 1.04936, 1.04679, 1.04594, 1.04573, 1.04487, 1.04575, 1.04241, 1.04383, 1.04064, 1.22363, 1.04586, 1.04675, 1.04265, 1.03868, 1.03786, 1.0912, 1.03668
1.22218, 1.22197, 1.22084, 1.21981, 1.21524, 1.21354, 1.39152, 1.26004, 1.19423, 1.1949, 1.19529, 1.19384, 1.1915, 1.18542, 1.18515, 1.18421, 1.28928, 1.17074, 1.16963, 1.16872, 1.16974, 1.1697, 1.16091, 1.15721, 1.16006, 1.1536, 1.15369, 1.15288, 1.15818, 1.14977, 1.14988, 1.14986, 1.14984, 1.15334, 1.20772, 1.17097, 1.17586, 1.1652, 1.15639, 1.1365, 1.10645, 1.15989, 1.15842, 1.21512, 1.20788, 1.22601, 1.2436, 1.24406, 1.27646, 1.29621, 1.26087, 1.28374, 1.29385, 1.29187, 1.28591, 1.2919, 1.34673, 1.35325, 1.37189, 1.49862, 1.2923, 1.28516, 1.30519, 1.31465, 1.31234, 1.30385, 1.33829, 1.41983, 1.41683, 1.37393, 1.36223, 1.38642, 1.342, 1.36577, 1.34604, 1.34448, 1.33392, 1.31194, 1.31296, 1.3834, 1.27446, 1.27095, 1.26417, 1.28429, 1.28571, 1.2737, 1.32682, 1.29386, 1.29239, 1.29388, 1.2872, 1.41332, 1.32682, 1.32279, 1.31588, 1.31646, 1.3254, 1.29144, 1.31986, 1.26701, 1.26772, 1.3471, 1.34779, 1.2653, 1.28513, 1.24945, 1.23263, 1.21563, 1.18805, 1.20182, 1.19768, 1.17781, 1.11132, 1.11054, 1.10138, 1.06033, 1.0716, 1.02623, 1.02335, 1.01015, 1.02894, 1.04683, 1.02927, 1.04012, 1.04729, 1.0551, 1.05367, 1.05315, 1.05294, 1.05128, 1.04805, 1.04975, 1.04918, 1.04582, 1.0465, 1.04855, 1.04393, 1.04264, 1.04207, 1.04183, 1.0399, 1.03942, 1.04158, 1.06037, 1.22735, 1.04025, 1.03784, 1.03661, 1.03588, 1.07776
1.22232, 1.22123, 1.2193, 1.21873, 1.21551, 1.21252, 1.2108, 1.25104, 1.19531, 1.19526, 1.19745, 1.19571, 1.19232, 1.18833, 1.1856, 1.18558, 1.19291, 1.17187, 1.17262, 1.1709, 1.17175, 1.16773, 1.16022, 1.15564, 1.15618, 1.15493, 1.15281, 1.15292, 1.15479, 1.14934, 1.14996, 1.15016, 1.14595, 1.14678, 1.14752, 1.17005, 1.17, 1.16197, 1.20669, 1.12295, 1.10628, 1.0999, 1.12092, 1.21071, 1.21223, 1.2259, 1.29478, 1.26445, 1.28542, 1.26365, 1.32033, 1.38348, 1.29934, 1.2939, 1.28877, 1.29277, 1.35, 1.35044, 1.39892, 1.32134, 1.47527, 1.28376, 1.27937, 1.31265, 1.31729, 1.32961, 1.34116, 1.42685, 1.36957, 1.36854, 1.36801, 1.36776, 1.42031, 1.36149, 1.38922, 1.36421, 1.35338, 1.31619, 1.31618, 1.29852, 1.30569, 1.33635, 1.28742, 1.30559, 1.28582, 1.28491, 1.36838, 1.32643, 1.33697, 1.32669, 1.26138, 1.27079, 1.32802, 1.27523, 1.32267, 1.30082, 1.28547, 1.29054, 1.24131, 1.25444, 1.2496, 1.34738, 1.26761, 1.26788, 1.24794, 1.30815, 1.2308, 1.21562, 1.18036, 1.16355, 1.16301, 1.17018, 1.10783, 1.09947, 1.08204, 1.05983, 1.09076, 1.03823, 1.06303, 1.01962, 1.02657, 1.03692, 1.04954, 1.04271, 1.05088, 1.05535, 1.05595, 1.05595, 1.04707, 1.04905, 1.04716, 1.04994, 1.04707, 1.04608, 1.04765, 1.04686, 1.04326, 1.04224, 1.04228, 1.03937, 1.03794, 1.04244, 1.04263, 1.04165, 1.03733, 1.0388, 1.03883, 1.03601, 1.03207, 1.03209
1.36902, 1.21761, 1.21907, 1.22008, 1.2123, 1.21112, 1.20998, 1.26029, 1.19583, 1.19605, 1.19891, 1.19855, 1.1897, 1.18898, 1.18632, 1.19079, 1.19182, 1.19134, 1.17322, 1.17267, 1.17379, 1.17112, 1.15692, 1.15391, 1.1548, 1.15517, 1.15051, 1.14822, 1.15302, 1.14897, 1.14975, 1.1491, 1.14422, 1.14593, 1.14735, 1.16995, 1.16887, 1.15921, 1.15397, 1.13973, 1.10829, 1.10551, 1.1222, 1.22249, 1.20506, 1.24467, 1.22578, 1.28757, 1.26827, 1.26713, 1.32082, 1.31453, 1.33069, 1.2986, 1.29882, 1.35634, 1.34656, 1.38561, 1.3241, 1.32252, 1.28785, 1.28772, 1.27628, 1.34517, 1.34015, 1.33059, 1.40552, 1.4121, 1.3974, 1.36845, 1.38226, 1.38128, 1.32683, 1.35149, 1.3818, 1.35052, 1.38896, 1.36034, 1.34021, 1.30874, 1.29105, 1.29818, 1.29131, 1.35354, 1.3164, 1.29325, 1.29497, 1.35018, 1.3404, 1.35408, 1.27483, 1.26088, 1.26263, 1.27119, 1.2705, 1.29405, 1.26587, 1.24671, 1.23997, 1.23072, 1.23931, 1.24509, 1.2461, 1.24969, 1.25026, 1.2789, 1.2788, 1.21583, 1.16335, 1.16312, 1.1714, 1.16311, 1.14074, 1.09092, 1.0805, 1.05672, 1.06551, 1.02501, 1.01105, 1.0165, 1.0355, 1.05391, 1.04947, 1.04231, 1.05021, 1.05177, 1.05474, 1.05469, 1.26885, 1.04553, 1.04724, 1.04788, 1.04671, 1.04822, 1.04732, 1.04627, 1.04327, 1.04353, 1.04154, 1.03972, 1.039, 1.04225, 1.04314, 1.04164, 1.04006, 1.03879, 1.03891, 1.0313, 1.03191, 1.03091
1.29478, 1.37192, 1.21749, 1.22065, 1.21483, 1.21026, 1.2094, 1.20359, 1.19683, 1.19892, 1.20072, 1.19437, 1.18977, 1.1873, 1.18496, 1.18697, 1.18497, 1.19091, 1.19173, 1.17616, 1.17397, 1.1711, 1.15308, 1.15488, 1.15568, 1.15609, 1.15575, 1.14721, 1.14923, 1.14931, 1.14935, 1.14623, 1.14376, 1.14286, 1.25079, 1.16448, 1.16671, 1.26713, 1.13988, 1.14602, 1.13381, 1.13914, 1.15662, 1.17118, 1.22313, 1.21615, 1.22278, 1.26571, 1.26645, 1.28091, 1.29429, 1.3093, 1.29134, 1.29992, 1.29835, 1.3476, 1.37416, 1.37848, 1.33103, 1.32421, 1.3092, 1.29231, 1.27425, 1.30344, 1.36762, 1.32709, 1.34384, 1.38518, 1.42271, 1.35696, 1.32357, 1.34629, 1.31201, 1.5005, 1.3511, 1.35073, 1.35683, 1.33023, 1.33474, 1.33227, 1.32379, 1.29231, 1.33025, 1.30621, 1.30671, 1.33903, 1.29839, 1.31783, 1.31554, 1.34683, 1.27998, 1.26092, 1.27099, 1.3118, 1.27451, 1.27238, 1.27088, 1.24141, 1.23954, 1.23023, 1.24107, 1.25219, 1.27828, 1.27475, 1.29542, 1.26356, 1.2263, 1.24777, 1.28568, 1.16176, 1.16188, 1.1563, 1.13604, 1.1057, 1.06625, 1.0772, 1.05112, 1.04972, 1.06833, 1.02346, 1.01265, 1.04228, 1.05443, 1.10191, 1.05163, 1.05082, 1.05024, 1.26586, 1.26122, 1.05928, 1.27827, 1.04613, 1.04626, 1.04934, 1.04364, 1.03794, 1.03987, 1.04589, 1.04312, 1.0423, 1.03821, 1.0393, 1.04216, 1.04263, 1.04252, 1.04026, 1.03958, 1.03561, 1.03235, 1.03049
1.23483, 1.23203, 1.21767, 1.21793, 1.21872, 1.20947, 1.20829, 1.20501, 1.19807, 1.20032, 1.2013, 1.19623, 1.18864, 1.18753, 1.18467, 1.18126, 1.18318, 1.1914, 1.1911, 1.18147, 1.17188, 1.17056, 1.35933, 1.16483, 1.15882, 1.15822, 1.15205, 1.1429, 1.14093, 1.14935, 1.14943, 1.14866, 1.14543, 1.14917, 1.14953, 1.16341, 1.1615, 1.31292, 1.25622, 1.13104, 1.11111, 1.10439, 1.16599, 1.16096, 1.21933, 1.22511, 1.23054, 1.26675, 1.31222, 1.27902, 1.29154, 1.29295, 1.32549, 1.32577, 1.32689, 1.358, 1.35583, 1.35332, 1.38548, 1.33386, 1.30663, 1.29169, 1.28714, 1.27918, 1.29561, 1.34647, 1.32897, 1.41684, 1.42529, 1.33067, 1.33054, 1.34736, 1.31138, 1.34649, 1.38108, 1.3478, 1.33667, 1.33036, 1.31985, 1.35785, 1.33398, 1.30418, 1.29738, 1.31777, 1.34029, 1.36748, 1.30276, 1.31193, 1.3193, 1.54838, 1.50169, 1.31751, 1.28378, 1.28791, 1.27421, 1.25894, 1.25993, 1.24208, 1.242, 1.22577, 1.22054, 1.25298, 1.24358, 1.24585, 1.27401, 1.275, 1.22412, 1.2467, 1.24503, 1.16046, 1.1935, 1.152, 1.15807, 1.10236, 1.08562, 1.07074, 1.07897, 1.02564, 1.02888, 1.03138, 0.999103, 1.04944, 1.08932, 1.04616, 1.0473, 1.05108, 1.04887, 1.04962, 1.0667, 1.06295, 1.059, 1.04466, 1.04332, 1.04697, 1.04456, 1.04436, 1.04243, 1.04748, 1.04469, 1.0415, 1.04136, 1.03938, 1.04019, 1.04232, 1.0429, 1.04331, 1.04196, 1.03553, 1.03519, 1.0517
1.23264, 1.23234, 1.23193, 1.22128, 1.21667, 1.21134, 1.21141, 1.20558, 1.20515, 1.20115, 1.20118, 1.19595, 1.19301, 1.18831, 1.18654, 1.18143, 1.18211, 1.18464, 1.18955, 1.18817, 1.17464, 1.173, 1.18114, 1.16491, 1.43445, 1.15986, 1.16048, 1.14851, 1.14253, 1.14592, 1.14726, 1.14754, 1.1518, 1.15079, 1.1518, 1.2306, 1.15442, 1.15627, 1.14373, 1.10551, 1.16542, 1.10299, 1.18085, 1.16349, 1.16169, 1.22298, 1.23575, 1.23608, 1.29847, 1.27801, 1.31943, 1.3233, 1.3504, 1.32186, 1.35258, 1.30365, 1.36434, 1.34581, 1.38464, 1.32673, 1.31216, 1.29532, 1.26398, 1.27604, 1.27911, 1.31529, 1.31521, 1.3883, 1.33699, 1.33469, 1.3587, 1.30937, 1.31211, 1.33593, 1.33592, 1.33854, 1.33918, 1.3479, 1.58842, 1.32606, 1.31558, 1.30297, 1.30346, 1.29917, 1.37195, 1.386, 1.35083, 1.34967, 1.31933, 1.30553, 1.46712, 1.33818, 1.28064, 1.3153, 1.27702, 1.27738, 1.31568, 1.31917, 1.28326, 1.22526, 1.2212, 1.24167, 1.24825, 1.24951, 1.27712, 1.21599, 1.20185, 1.21363, 1.21119, 1.22779, 1.19122, 1.19327, 1.15723, 1.10168, 1.10514, 1.09276, 1.10565, 1.01969, 1.01136, 0.985527, 1.00649, 1.05954, 1.0431, 1.04568, 1.04773, 1.05189, 1.04804, 1.04938, 1.06584, 1.03447, 1.14602, 1.04163, 1.04243, 1.04637, 1.04634, 1.04324, 1.04353, 1.04918, 1.04682, 1.04234, 1.0417, 1.03757, 1.03635, 1.04001, 1.0416, 1.04245, 1.04111, 1.03583, 1.03588, 1.03629
1.23821, 1.23608, 1.24002, 1.23172, 1.2235, 1.21557, 1.21228, 1.21003, 1.20477, 1.20126, 1.20184, 1.19493, 1.19441, 1.19097, 1.1865, 1.18079, 1.18105, 1.18385, 1.18729, 1.18719, 1.17763, 1.1781, 1.17779, 1.43374, 1.16996, 1.15989, 1.15715, 1.14836, 1.14471, 1.14588, 1.14579, 1.14675, 1.15556, 1.15017, 1.1494, 1.15769, 1.15712, 1.14335, 1.13732, 1.20789, 1.19433, 1.09909, 1.09975, 1.16653, 1.23297, 1.25045, 1.22761, 1.26124, 1.27458, 1.31587, 1.28788, 1.30146, 1.30142, 1.30606, 1.34288, 1.32585, 1.36257, 1.33613, 1.33897, 1.32818, 1.36748, 1.30233, 1.28164, 1.29973, 1.39873, 1.29616, 1.34704, 1.3467, 1.33514, 1.33511, 1.32915, 1.31209, 1.31286, 1.31162, 1.33485, 1.33661, 1.34049, 1.35187, 1.33664, 1.33059, 1.33557, 1.32378, 1.32892, 1.35563, 1.56298, 1.62062, 1.43367, 1.29133, 1.29212, 1.30873, 1.35143, 1.37631, 1.32988, 1.26803, 1.27049, 1.28872, 1.33045, 1.26863, 1.26848, 1.21934, 1.22028, 1.24757, 1.26902, 1.25694, 1.19445, 1.19617, 1.17777, 1.24016, 1.21376, 1.18937, 1.20603, 1.18617, 1.14008, 1.10933, 1.0841, 1.10206, 1.09021, 1.02874, 0.996218, 0.982358, 1.01155, 1.0148, 1.04384, 1.04495, 1.04612, 1.04837, 1.04737, 1.04754, 1.06703, 1.03433, 1.03712, 1.04256, 1.04227, 1.0432, 1.04791, 1.04707, 1.04607, 1.04823, 1.04723, 1.04358, 1.04071, 1.03566, 1.03597, 1.04001, 1.04106, 1.04192, 1.04282, 1.03655, 1.03576, 1.0377
1.24318, 1.2382, 1.23552, 1.23545, 1.22512, 1.21867, 1.21321, 1.21018, 1.20566, 1.20437, 1.19572, 1.19546, 1.19677, 1.18623, 1.18644, 1.18049, 1.18095, 1.18496, 1.18953, 1.19299, 1.24739, 1.18056, 1.18391, 1.5021, 1.17906, 1.29499, 1.16213, 1.16013, 1.14581, 1.14631, 1.14607, 1.14535, 1.15382, 1.15458, 1.15006, 1.16021, 1.15399, 1.14162, 1.1459, 1.15894, 1.15803, 1.0997, 1.09474, 1.1645, 1.21933, 1.24746, 1.22969, 1.22344, 1.25111, 1.32323, 1.29478, 1.29284, 1.30629, 1.27815, 1.28509, 1.3585, 1.35112, 1.39237, 1.35424, 1.34337, 1.32519, 1.35808, 1.31508, 1.32443, 1.31794, 1.35403, 1.37466, 1.34098, 1.33706, 1.3372, 1.33449, 1.31526, 1.3132, 1.31203, 1.32568, 1.35534, 1.33814, 1.40286, 1.34109, 1.3382, 1.33449, 1.33009, 1.36732, 1.30644, 1.61343, 1.57239, 1.56261, 1.32339, 1.32425, 1.31068, 1.31017, 1.30817, 1.39526, 1.27085, 1.2727, 1.29876, 1.31428, 1.27144, 1.30032, 1.22045, 1.27027, 1.29453, 1.24697, 1.24811, 1.24816, 1.1897, 1.17876, 1.19429, 1.21446, 1.19288, 1.19993, 1.14818, 1.15979, 1.08477, 1.11991, 1.11952, 1.09434, 1.05957, 1.0053, 1.03143, 1.01132, 1.01496, 1.31657, 1.04473, 1.04722, 1.04939, 1.04872, 1.04642, 1.04689, 1.0355, 1.1429, 1.04289, 1.04243, 1.04614, 1.04672, 1.04816, 1.04682, 1.04761, 1.04978, 1.04293, 1.04095, 1.03553, 1.03516, 1.03604, 1.18475, 1.04421, 1.04159, 1.03822, 1.03793, 1.03878
1.32765, 1.29435, 1.2427, 1.23749, 1.22391, 1.2163, 1.21567, 1.21327, 1.20475, 1.20389, 1.20371, 1.19459, 1.74853, 1.18815, 1.183, 1.18076, 1.18202, 1.18867, 1.19494, 1.19455, 1.30896, 1.27887, 1.20208, 1.23164, 1.3395, 1.32955, 1.36433, 1.15985, 1.28098, 1.14099, 1.14593, 1.14598, 1.14717, 1.15297, 1.15645, 1.15777, 1.212, 1.14288, 1.13427, 1.15621, 1.14348, 1.16102, 1.12244, 1.1562, 1.22841, 1.22871, 1.22962, 1.22558, 1.22247, 1.27918, 1.28211, 1.33948, 1.31405, 1.3014, 1.28266, 1.33302, 1.39187, 1.30593, 1.31856, 1.31363, 1.32574, 1.31241, 1.30816, 1.30789, 1.36209, 1.32861, 1.3383, 1.30954, 1.41654, 1.35627, 1.32761, 1.35638, 1.31298, 1.31322, 1.42776, 1.34198, 1.46379, 1.35635, 1.35465, 1.34821, 1.40222, 1.33763, 1.37023, 1.30753, 1.57532, 1.57579, 1.56442, 1.37116, 1.35258, 1.3115, 1.31223, 1.33708, 1.38321, 1.27295, 1.2772, 1.27793, 1.28443, 1.28479, 1.319, 1.23568, 1.23293, 1.25877, 1.23347, 1.23435, 1.27048, 1.19023, 1.18189, 1.19006, 1.1854, 1.18186, 1.14978, 1.10697, 1.09883, 1.08302, 1.1192, 1.09931, 1.09257, 1.06425, 1.01333, 1.03587, 0.999814, 1.27817, 1.07339, 1.04603, 1.04642, 1.04896, 1.04732, 1.04606, 1.04622, 1.04329, 1.1392, 1.0439, 1.04049, 1.04504, 1.04712, 1.047, 1.0487, 1.0431, 1.04545, 1.03963, 1.04051, 1.03522, 1.03599, 1.03618, 1.03723, 1.21256, 1.03918, 1.03738, 1.0378, 1.03867
1.25642, 1.25569, 1.2378, 1.2378, 1.22212, 1.21988, 1.21904, 1.21391, 1.2043, 1.20311, 1.20149, 1.19282, 1.19258, 1.19533, 1.18975, 1.18251, 1.18512, 1.19784, 1.19543, 1.19652, 1.20585, 1.46154, 1.19473, 1.23623, 1.22945, 1.31332, 1.30956, 1.16475, 1.32096, 1.14131, 1.14613, 1.14685, 1.14924, 1.15271, 1.15683, 1.15742, 1.38244, 1.14114, 1.20536, 1.11355, 1.09415, 1.11257, 1.11462, 1.13954, 1.22739, 1.23659, 1.29592, 1.25134, 1.25979, 1.2676, 1.28472, 1.28488, 1.34015, 1.29292, 1.2886, 1.33063, 1.29489, 1.29524, 1.3021, 1.31921, 1.31412, 1.32957, 1.31293, 1.31206, 1.34921, 1.35465, 1.28257, 1.29176, 1.36415, 1.36539, 1.32542, 1.36139, 1.34274, 1.32432, 1.34678, 1.39696, 1.36494, 1.41871, 1.40699, 1.35873, 1.35019, 1.34622, 1.39534, 1.31206, 1.64179, 1.57653, 1.56653, 1.34899, 1.38451, 1.38293, 1.31575, 1.33194, 1.2948, 1.26794, 1.2687, 1.27466, 1.29223, 1.29668, 1.21892, 1.22021, 1.24152, 1.24326, 1.25307, 1.25366, 1.26263, 1.19345, 1.18166, 1.1786, 1.16197, 1.15418, 1.16025, 1.12211, 1.08541, 1.09622, 1.10351, 1.10977, 1.05989, 1.05563, 1.0594, 0.999605, 0.990278, 1.25571, 1.06429, 1.04754, 1.04662, 1.05064, 1.04728, 1.04737, 1.04575, 1.04605, 1.04547, 1.04425, 1.03961, 1.04284, 1.04633, 1.04678, 1.04877, 1.04939, 1.04408, 1.0372, 1.0401, 1.03541, 1.03602, 1.03748, 1.03622, 1.03389, 1.03542, 1.03566, 1.03774, 1.03905
1.25511, 1.25398, 1.36483, 1.31959, 1.34171, 1.22093, 1.21976, 1.2144, 1.20872, 1.2048, 1.2017, 1.19296, 1.19493, 1.19596, 1.19206, 1.19199, 1.18673, 1.19754, 1.19711, 1.20507, 1.20463, 1.20601, 1.19549, 1.48634, 1.33266, 1.20223, 1.35348, 1.16668, 1.16518, 1.26494, 1.31445, 1.14728, 1.14759, 1.15305, 1.15604, 1.20115, 1.37904, 1.26778, 1.12526, 1.13366, 1.14359, 1.08343, 1.0875, 1.17754, 1.17624, 1.2203, 1.29433, 1.30561, 1.31857, 1.30883, 1.3192, 1.27003, 1.29128, 1.28414, 1.26466, 1.2634, 1.28514, 1.30834, 1.35403, 1.32168, 1.31578, 1.32688, 1.36498, 1.39032, 1.3507, 1.29598, 1.28279, 1.27692, 1.30191, 1.36414, 1.40967, 1.39525, 1.38854, 1.32453, 1.32356, 1.37748, 1.37727, 1.40737, 1.37137, 1.35997, 1.35939, 1.34048, 1.3055, 1.30687, 1.39543, 1.57821, 1.35359, 1.35329, 1.35292, 1.36687, 1.31046, 1.3016, 1.33818, 1.2708, 1.2652, 1.26712, 1.27096, 1.36432, 1.22286, 1.22114, 1.24136, 1.25081, 1.24589, 1.30923, 1.21243, 1.18884, 1.18972, 1.1685, 1.14298, 1.13581, 1.22562, 1.10329, 1.13016, 1.12065, 1.06084, 1.05676, 1.06084, 1.02824, 1.04747, 1.01608, 0.992991, 1.23996, 1.36721, 1.05315, 1.05246, 1.05129, 1.05277, 1.04662, 1.0453, 1.04472, 1.04838, 1.04438, 1.04137, 1.04119, 1.04657, 1.04611, 1.04832, 1.04917, 1.0449, 1.04488, 1.03793, 1.03685, 1.03551, 1.03913, 1.04014, 1.0321, 1.03356, 1.0335, 1.03488, 1.07647
1.25317, 1.25295, 1.25354, 1.25368, 1.23424, 1.22237, 1.21934, 1.21291, 1.20837, 1.20499, 1.23292, 1.19161, 1.19553, 1.19646, 1.19349, 1.19128, 1.18875, 1.20276, 1.2014, 1.20482, 1.20438, 1.2053, 1.20349, 1.21008, 1.20989, 1.20219, 1.34765, 1.16554, 1.16341, 1.1921, 1.17733, 1.14784, 1.1466, 1.15596, 1.15635, 1.27501, 1.37738, 1.26846, 1.12452, 1.13633, 1.12624, 1.11201, 1.11612, 1.15369, 1.1671, 1.21977, 1.312, 1.24713, 1.28527, 1.29168, 1.29466, 1.27064, 1.28928, 1.2707, 1.28325, 1.29441, 1.26611, 1.30328, 1.35331, 1.31878, 1.30978, 1.31602, 1.31566, 1.33159, 1.29404, 1.29389, 1.29547, 1.28221, 1.31746, 1.38122, 1.32266, 1.35101, 1.4431, 1.4232, 1.32004, 1.38602, 1.40632, 1.40067, 1.36198, 1.35599, 1.35442, 1.33975, 1.31374, 1.32324, 1.36048, 1.40858, 1.34801, 1.35426, 1.35121, 1.35201, 1.35114, 1.3024, 1.29626, 1.31092, 1.26651, 1.25973, 1.25939, 1.24292, 1.2545, 1.21301, 1.27433, 1.25402, 1.25747, 1.2371, 1.22371, 1.19475, 1.17004, 1.17765, 1.13903, 1.13627, 1.13935, 1.10202, 1.09714, 1.11788, 1.05711, 1.05663, 1.05643, 1.02186, 1.02949, 0.998178, 0.99847, 1.04039, 1.05192, 1.05273, 1.05323, 1.05626, 1.0499, 1.05023, 1.04484, 1.04495, 1.04834, 1.04917, 1.04116, 1.04163, 1.04741, 1.04609, 1.0461, 1.04716, 1.04583, 1.04494, 1.04031, 1.03697, 1.0359, 1.04025, 1.04213, 1.03051, 1.03236, 1.03299, 1.03089, 1.02963
1.25287, 1.2529, 1.25348, 1.24757, 1.34726, 1.22258, 1.22046, 1.21691, 1.20921, 1.20494, 1.20506, 1.22629, 1.19775, 1.19835, 1.19363, 1.19342, 1.18992, 1.19889, 1.19966, 1.19802, 1.20043, 1.20083, 1.2039, 1.2039, 1.36078, 1.19657, 1.19578, 1.2696, 1.16393, 1.16356, 1.15978, 1.22032, 1.14784, 1.15656, 1.15712, 1.38171, 1.24822, 1.14704, 1.12992, 1.11449, 1.17148, 1.08787, 1.11923, 1.15216, 1.18194, 1.22791, 1.25029, 1.31554, 1.30546, 1.29838, 1.29459, 1.29782, 1.3198, 1.29882, 1.29665, 1.29145, 1.28633, 1.36127, 1.32949, 1.32576, 1.58882, 1.50399, 1.37465, 1.31524, 1.2789, 1.28186, 1.2882, 1.35453, 1.32958, 1.32254, 1.33159, 1.31196, 1.35389, 1.37189, 1.32124, 1.32271, 1.39133, 1.4087, 1.35628, 1.36137, 1.32226, 1.32335, 1.31349, 1.30319, 1.30854, 1.32988, 1.40869, 1.39921, 1.34837, 1.35378, 1.36864, 1.37839, 1.3569, 1.30764, 1.2685, 1.29231, 1.24378, 1.22604, 1.21283, 1.2119, 1.24946, 1.26256, 1.28288, 1.2255, 1.19555, 1.19515, 1.1794, 1.16703, 1.17572, 1.1463, 1.07306, 1.13252, 1.0975, 1.07462, 1.05734, 1.08413, 1.03116, 1.05004, 1.03584, 1.05385, 1.04278, 1.03707, 1.04722, 1.05299, 1.05452, 1.05531, 1.05245, 1.05013, 1.04641, 1.04616, 1.04831, 1.04903, 1.04318, 1.04143, 1.0468, 1.04761, 1.04541, 1.04268, 1.04547, 1.04344, 1.04263, 1.03665, 1.03798, 1.04102, 1.04225, 1.02949, 1.03105, 1.03194, 1.03137, 1.03313
1.25308, 1.25298, 1.24865, 1.24887, 1.3205, 1.22659, 1.22225, 1.25425, 1.21248, 1.2117, 1.206, 1.21053, 1.19738, 1.19776, 1.1924, 1.1935, 1.19266, 1.19242, 1.19909, 1.19818, 1.1994, 1.20006, 1.19416, 1.19994, 1.39501, 1.19778, 1.19629, 1.19834, 1.41961, 1.21578, 1.16168, 1.16038, 1.15012, 1.15216, 1.15094, 1.15024, 1.14912, 1.14378, 1.25981, 1.11485, 1.11495, 1.09849, 1.1035, 1.16272, 1.23875, 1.19547, 1.22377, 1.28659, 1.33096, 1.29122, 1.29134, 1.29857, 1.33039, 1.30249, 1.27559, 1.2739, 1.28173, 1.35331, 1.4749, 1.31624, 1.31671, 1.5044, 1.31628, 1.31575, 1.34364, 1.28018, 1.31107, 1.30129, 1.34378, 1.40254, 1.32932, 1.34618, 1.35661, 1.36203, 1.32353, 1.32634, 1.33613, 1.37809, 1.41964, 1.41076, 1.34572, 1.31911, 1.36712, 1.31595, 1.31496, 1.37164, 1.3947, 1.3607, 1.35009, 1.35052, 1.38488, 1.37711, 1.30545, 1.36538, 1.29232, 1.25488, 1.25752, 1.23063, 1.2432, 1.22204, 1.27538, 1.26567, 1.28273, 1.2267, 1.20614, 1.1719, 1.17187, 1.1772, 1.12647, 1.10371, 1.06726, 1.0698, 1.13223, 1.04804, 1.09188, 1.08511, 1.04283, 1.03781, 1.02052, 0.99569, 1.04973, 1.04821, 1.05229, 1.0514, 1.05467, 1.05599, 1.05609, 1.05022, 1.04681, 1.04359, 1.04847, 1.04884, 1.04334, 1.04249, 1.04475, 1.04758, 1.04455, 1.04438, 1.04706, 1.04357, 1.04219, 1.03847, 1.03936, 1.04026, 1.04381, 1.02943, 1.02924, 1.03213, 1.03208, 1.03339
1.25365, 1.25309, 1.25266, 1.25098, 1.33708, 1.22683, 1.22441, 1.32624, 1.20938, 1.20975, 1.21116, 1.20467, 1.20229, 1.19551, 1.19088, 1.19274, 1.19246, 1.1917, 1.19767, 1.19661, 1.19649, 1.1964, 1.1926, 1.19219, 1.36776, 1.19941, 1.19589, 1.1977, 1.22004, 1.21913, 1.16724, 1.16434, 1.15096, 1.15239, 1.15186, 1.15108, 1.14448, 1.19598, 1.18561, 1.11568, 1.11862, 1.08996, 1.09855, 1.11831, 1.17804, 1.19265, 1.23769, 1.29857, 1.28211, 1.30664, 1.31151, 1.28959, 1.28687, 1.27693, 1.31902, 1.27886, 1.27765, 1.30554, 1.36006, 1.3645, 1.31698, 1.31568, 1.31507, 1.34642, 1.27452, 1.2755, 1.37615, 1.3196, 1.32929, 1.40209, 1.32889, 1.3379, 1.35165, 1.42948, 1.31815, 1.38209, 1.31944, 1.32745, 1.32796, 1.37399, 1.36742, 1.3326, 1.34998, 1.34017, 1.3123, 1.3379, 1.41753, 1.41941, 1.40675, 1.38749, 1.4002, 1.34143, 1.34425, 1.30786, 1.30919, 1.25276, 1.24295, 1.23975, 1.21001, 1.2114, 1.22424, 1.21394, 1.21698, 1.21646, 1.19742, 1.24311, 1.2042, 1.17117, 1.13296, 1.06924, 1.06926, 1.06303, 1.08722, 1.07358, 1.07885, 1.07349, 1.03247, 1.0601, 1.02352, 1.00792, 1.02535, 1.04835, 1.04929, 1.04871, 1.05052, 1.05502, 1.05534, 1.04868, 1.04823, 1.0449, 1.04726, 1.04714, 1.04452, 1.04237, 1.04438, 1.04651, 1.05036, 1.04833, 1.04943, 1.04613, 1.04454, 1.03944, 1.04031, 1.04068, 1.25698, 1.03114, 1.02976, 1.03326, 1.03183, 1.03263
1.25521, 1.25687, 1.25295, 1.25256, 1.24274, 1.33437, 1.33295, 1.21781, 1.20848, 1.20911, 1.20827, 1.20567, 1.20269, 1.19599, 1.19052, 1.19198, 1.19274, 1.19166, 1.19303, 1.19627, 1.19382, 1.19441, 1.19115, 1.1896, 1.18631, 1.19431, 1.19634, 1.19464, 1.26826, 1.37576, 1.27746, 1.16393, 1.15353, 1.15326, 1.15034, 1.15078, 1.14052, 1.13357, 1.13273, 1.11556, 1.11535, 1.08732, 1.10459, 1.08798, 1.15606, 1.19237, 1.19253, 1.24429, 1.28219, 1.27658, 1.30246, 1.2764, 1.24543, 1.24289, 1.30196, 1.33508, 1.3603, 1.30358, 1.29941, 1.29872, 1.3171, 1.31422, 1.38046, 1.32553, 1.32752, 1.27609, 1.30946, 1.33712, 1.35478, 1.36758, 1.38322, 1.32803, 1.3195, 1.35708, 1.31802, 1.31311, 1.38542, 1.38467, 1.39631, 1.39408, 1.33612, 1.40664, 1.33704, 1.38525, 1.31042, 1.37338, 1.39205, 1.32394, 1.34414, 1.35365, 1.30522, 1.30075, 1.33543, 1.33574, 1.3326, 1.25055, 1.30869, 1.27249, 1.23378, 1.23373, 1.22894, 1.22007, 1.23574, 1.22523, 1.1956, 1.18307, 1.1712, 1.15108, 1.11599, 1.07718, 1.07002, 1.06456, 1.06838, 1.08273, 1.06284, 1.09539, 1.01746, 1.02833, 1.02542, 1.00838, 1.07163, 1.05583, 1.05238, 1.04805, 1.04913, 1.05046, 1.05339, 1.04716, 1.0428, 1.04441, 1.04634, 1.04589, 1.04443, 1.04148, 1.04092, 1.04789, 1.04762, 1.05099, 1.05084, 1.04811, 1.04954, 1.03891, 1.03981, 1.04172, 1.20277, 1.03037, 1.02914, 1.03232, 1.03209, 1.03361
1.25976, 1.26475, 1.25555, 1.24846, 1.24534, 1.25702, 1.22213, 1.21809, 1.22381, 1.20609, 1.20642, 1.20824, 1.20294, 1.19656, 1.19001, 1.19141, 1.18843, 1.1872, 1.19078, 1.19167, 1.18161, 1.19148, 1.18915, 1.18672, 1.18404, 1.18415, 1.19044, 1.18844, 1.1898, 1.42011, 1.37729, 1.16414, 1.15408, 1.1487, 1.16778, 1.15037, 1.17186, 1.13235, 1.12803, 1.1148, 1.11516, 1.11492, 1.09721, 1.09076, 1.15363, 1.23069, 1.23011, 1.22603, 1.28069, 1.27736, 1.28201, 1.28294, 1.24132, 1.24143, 1.33572, 1.28628, 1.27102, 1.34023, 1.30175, 1.30335, 1.38538, 1.34897, 1.33871, 1.32463, 1.31854, 1.27981, 1.32846, 1.40595, 1.3566, 1.35563, 1.33954, 1.38465, 1.32598, 1.31348, 1.31101, 1.31411, 1.38172, 1.45018, 1.46861, 1.43752, 1.33957, 1.3396, 1.34719, 1.32898, 1.3169, 1.34308, 1.32581, 1.32416, 1.32477, 1.33285, 1.3323, 1.29571, 1.28815, 1.28791, 1.24973, 1.24965, 1.24953, 1.27549, 1.2361, 1.20916, 1.2639, 1.27124, 1.27805, 1.19242, 1.23759, 1.17982, 1.22873, 1.15729, 1.113, 1.08457, 1.08355, 1.08193, 1.07904, 1.07074, 1.0481, 1.04071, 1.01621, 1.01526, 1.06339, 1.04606, 1.07145, 1.052, 1.04913, 1.04738, 1.04617, 1.04922, 1.05234, 1.05268, 1.0464, 1.04592, 1.04563, 1.04437, 1.04278, 1.03913, 1.03923, 1.04639, 1.04775, 1.04983, 1.05154, 1.04975, 1.04774, 1.03848, 1.03924, 1.03973, 1.04139, 1.05469, 1.05895, 1.03298, 1.03398, 1.03578
1.38485, 1.3694, 1.3259, 1.25032, 1.34744, 1.22966, 1.22409, 1.21704, 1.21714, 1.21507, 1.20685, 1.21077, 1.20812, 1.19957, 1.19545, 1.18903, 1.18916, 1.19045, 1.18784, 1.19092, 1.18769, 1.18953, 1.18926, 1.18453, 1.18168, 1.18001, 1.23097, 1.18726, 1.18697, 1.42135, 1.20819, 1.1596, 1.15437, 1.15493, 1.14681, 1.16729, 1.16867, 1.13172, 1.12704, 1.27589, 1.11067, 1.10466, 1.1205, 1.08984, 1.1484, 1.22124, 1.21192, 1.24997, 1.27441, 1.2594, 1.28809, 1.27194, 1.24477, 1.2491, 1.23909, 1.24993, 1.25017, 1.33483, 1.29714, 1.36902, 1.3448, 1.33722, 1.34142, 1.32574, 1.31006, 1.29868, 1.29819, 1.38937, 1.36358, 1.33194, 1.3881, 1.33013, 1.33074, 1.34772, 1.32549, 1.30986, 1.31597, 1.34016, 1.44882, 1.43718, 1.31354, 1.34776, 1.37653, 1.37564, 1.30893, 1.29915, 1.31923, 1.36254, 1.30972, 1.29631, 1.33002, 1.34197, 1.40346, 1.33021, 1.32632, 1.24691, 1.24393, 1.23992, 1.22911, 1.20476, 1.22117, 1.27706, 1.27152, 1.2536, 1.16562, 1.16725, 1.14928, 1.13747, 1.11571, 1.08032, 1.07758, 1.09138, 1.07794, 1.06343, 1.02885, 1.04348, 1.01446, 1.03365, 1.05662, 1.02133, 1.0567, 1.05357, 1.06221, 1.04926, 1.04668, 1.04831, 1.04987, 1.05193, 1.05248, 1.04595, 1.04514, 1.04323, 1.03965, 1.03841, 1.0381, 1.04729, 1.05009, 1.05274, 1.05279, 1.0471, 1.04756, 1.04953, 1.03993, 1.04215, 1.0422, 1.19877, 1.21913, 1.04692, 1.033, 1.03476
1.40966, 1.31879, 1.28418, 1.26805, 1.34678, 1.23067, 1.22319, 1.21865, 1.21628, 1.21497, 1.38492, 1.21395, 1.21221, 1.19763, 1.19649, 1.18862, 1.1878, 1.18982, 1.19105, 1.19137, 1.18437, 1.18765, 1.39939, 1.18382, 1.18029, 1.17793, 1.17787, 1.18575, 1.18558, 1.25335, 1.16357, 1.15904, 1.1594, 1.14439, 1.14742, 1.14782, 1.13775, 1.13001, 1.12644, 1.27588, 1.1441, 1.09087, 1.11783, 1.09817, 1.1378, 1.17783, 1.20231, 1.21736, 1.26119, 1.25095, 1.27227, 1.27337, 1.26451, 1.27375, 1.24159, 1.24003, 1.27669, 1.24634, 1.26352, 1.34442, 1.34681, 1.33702, 1.33624, 1.33597, 1.32732, 1.29999, 1.30668, 1.38794, 1.34015, 1.34653, 1.32988, 1.36488, 1.38187, 1.40336, 1.3342, 1.39101, 1.33651, 1.31255, 1.3725, 1.33702, 1.31556, 1.3244, 1.31694, 1.31289, 1.30781, 1.29117, 1.30124, 1.31729, 1.30886, 1.31872, 1.28891, 1.27808, 1.3895, 1.31975, 1.3188, 1.25688, 1.23735, 1.23739, 1.28859, 1.20489, 1.22186, 1.2328, 1.24607, 1.24913, 1.1609, 1.15743, 1.152, 1.13342, 1.13615, 1.08876, 1.07766, 1.10232, 1.07655, 1.06395, 1.02711, 1.04566, 1.01148, 1.01613, 1.01829, 1.02573, 1.03193, 1.06351, 1.05553, 1.05621, 1.04724, 1.0471, 1.04773, 1.05029, 1.05092, 1.04707, 1.04548, 1.04314, 1.03863, 1.03805, 1.03574, 1.04288, 1.04977, 1.0511, 1.05259, 1.04903, 1.04685, 1.04817, 1.04025, 1.04223, 1.04111, 1.1976, 1.04997, 1.03887, 1.04008, 1.03751
1.2896, 1.38185, 1.30842, 1.30582, 1.34724, 1.34225, 1.23116, 1.21961, 1.21664, 1.21621, 1.2155, 1.21381, 1.33355, 1.19964, 1.19988, 1.19527, 1.18701, 1.18668, 1.19153, 1.18531, 1.1868, 1.18688, 1.18586, 1.1832, 1.18047, 1.17634, 1.17827, 1.18203, 1.18, 1.1737, 1.16224, 1.15717, 1.14599, 1.14337, 1.14917, 1.14327, 1.1395, 1.16429, 1.12375, 1.13365, 1.09278, 1.07037, 1.09053, 1.11464, 1.17374, 1.17484, 1.23048, 1.21876, 1.22558, 1.22496, 1.24097, 1.23562, 1.23505, 1.25932, 1.25046, 1.23502, 1.29423, 1.32481, 1.33009, 1.36003, 1.35865, 1.32374, 1.42986, 1.40348, 1.39583, 1.32275, 1.28046, 1.35073, 1.35234, 1.34629, 1.29699, 1.30716, 1.3183, 1.31868, 1.33791, 1.38683, 1.33327, 1.29815, 1.29983, 1.42835, 1.43163, 1.32543, 1.31253, 1.37757, 1.33287, 1.29098, 1.29013, 1.30504, 1.31862, 1.29873, 1.27157, 1.26346, 1.26737, 1.26006, 1.27119, 1.25754, 1.24139, 1.2993, 1.21477, 1.21965, 1.22043, 1.47559, 1.24728, 1.20612, 1.15675, 1.13213, 1.13356, 1.11597, 1.0825, 1.0872, 1.09246, 1.08096, 1.071, 1.0938, 1.05442, 1.01965, 1.03783, 1.00645, 1.02845, 1.02687, 1.0655, 1.06202, 1.05785, 1.06048, 1.05033, 1.04669, 1.04784, 1.04601, 1.04986, 1.05017, 1.04307, 1.04285, 1.03714, 1.03697, 1.03622, 1.04317, 1.04731, 1.04857, 1.0617, 1.0466, 1.04423, 1.04627, 1.04015, 1.04264, 1.04192, 1.04284, 1.04291, 1.04336, 1.04249, 1.03633
1.28998, 1.31224, 1.45111, 1.25416, 1.25151, 1.33707, 1.22943, 1.2282, 1.21859, 1.21792, 1.2162, 1.21527, 1.23017, 1.19978, 1.19985, 1.19616, 1.19543, 1.1894, 1.56358, 1.19848, 1.43991, 1.18739, 1.1864, 1.18391, 1.17913, 1.17817, 1.17878, 1.17956, 1.17794, 1.17374, 1.16763, 1.41893, 1.14459, 1.14609, 1.14723, 1.28801, 1.1355, 1.12839, 1.12581, 1.23069, 1.09925, 1.15693, 1.12974, 1.11631, 1.12061, 1.25788, 1.21252, 1.24024, 1.2268, 1.22173, 1.22227, 1.25027, 1.23445, 1.27717, 1.29948, 1.30563, 1.2498, 1.32771, 1.26795, 1.30984, 1.50408, 1.5052, 1.32232, 1.32662, 1.3942, 1.3278, 1.30325, 1.30957, 1.31255, 1.31158, 1.31218, 1.30588, 1.35054, 1.38158, 1.34407, 1.33254, 1.33235, 1.27766, 1.27646, 1.42133, 1.28212, 1.28832, 1.30974, 1.34422, 1.35405, 1.29127, 1.2853, 1.32718, 1.29148, 1.29371, 1.30157, 1.28625, 1.25158, 1.23612, 1.30215, 1.2296, 1.35344, 1.22091, 1.24087, 1.19369, 1.23104, 1.25465, 1.22994, 1.21587, 1.21642, 1.12357, 1.1147, 1.09234, 1.09804, 1.07678, 1.08147, 1.09146, 1.07351, 1.06377, 1.0572, 1.00811, 1.05474, 1.0023, 1.02643, 1.02245, 1.08726, 1.0678, 1.0693, 1.06143, 1.05373, 1.04879, 1.04863, 1.04599, 1.04658, 1.04786, 1.04396, 1.04191, 1.03752, 1.03726, 1.03444, 1.03645, 1.04555, 1.04689, 1.28082, 1.04612, 1.04571, 1.04656, 1.04213, 1.0431, 1.04297, 1.04222, 1.04337, 1.04605, 1.04256, 1.0412
1.28533, 1.46426, 1.31214, 1.25472, 1.25077, 1.33407, 1.2298, 1.23022, 1.22545, 1.2193, 1.21763, 1.21531, 1.23128, 1.19888, 1.19942, 1.19949, 1.19598, 1.55876, 1.20897, 1.24585, 1.1987, 1.18844, 1.18637, 1.18389, 1.18101, 1.17984, 1.17988, 1.17844, 1.17762, 1.16987, 1.16679, 1.20584, 1.14523, 1.14629, 1.14597, 1.14224, 1.13214, 1.12738, 1.12647, 1.16617, 1.13597, 1.1367, 1.08248, 1.09908, 1.09946, 1.18174, 1.19015, 1.22831, 1.2323, 1.2253, 1.28444, 1.24956, 1.22793, 1.28082, 1.30847, 1.23064, 1.25506, 1.26078, 1.2817, 1.31233, 1.30912, 1.40956, 1.36901, 1.32627, 1.32581, 1.44443, 1.30107, 1.31562, 1.3256, 1.31008, 1.30949, 1.29576, 1.34987, 1.31884, 1.33837, 1.28094, 1.32432, 1.2995, 1.27627, 1.31914, 1.33696, 1.28289, 1.28155, 1.28068, 1.34643, 1.29105, 1.27558, 1.31993, 1.28816, 1.29118, 1.28283, 1.26424, 1.249, 1.26324, 1.23275, 1.21901, 1.21866, 1.25771, 1.27617, 1.20541, 1.24756, 1.25471, 1.21946, 1.1724, 1.15961, 1.11242, 1.11314, 1.20366, 1.09417, 1.08124, 1.07226, 1.08552, 1.09207, 1.0794, 1.01124, 1.00575, 1.01889, 1.04327, 1.0256, 1.02711, 1.05695, 1.07023, 1.06838, 1.06981, 1.05057, 1.04963, 1.04989, 1.04708, 1.04618, 1.16403, 1.06713, 1.04001, 1.04114, 1.18577, 1.19134, 1.16042, 1.09067, 1.11924, 1.06991, 1.30027, 1.04526, 1.046, 1.04704, 1.04228, 1.04202, 1.04011, 1.04113, 1.04578, 1.04396, 1.04252
1.2854, 1.28603, 1.35777, 1.34901, 1.25164, 1.24306, 1.22928, 1.31745, 1.22614, 1.21784, 1.21597, 1.21504, 1.6726, 1.67133, 1.19846, 1.20172, 1.19673, 1.20702, 1.20915, 1.51294, 1.32307, 1.18737, 1.18652, 1.18259, 1.18236, 1.18262, 1.18146, 1.17982, 1.17784, 1.17045, 1.4212, 1.1489, 1.1457, 1.14602, 1.14625, 1.31661, 1.15356, 1.12491, 1.12231, 1.28753, 1.1069, 1.10422, 1.1768, 1.09297, 1.09863, 1.15087, 1.1841, 1.18528, 1.21295, 1.2368, 1.24463, 1.25119, 1.27742, 1.28875, 1.23446, 1.22936, 1.25862, 1.32277, 1.2451, 1.29841, 1.2964, 1.32079, 1.34693, 1.35392, 1.32372, 1.33995, 1.32118, 1.3462, 1.32374, 1.30933, 1.36685, 1.31921, 1.34411, 1.32147, 1.32017, 1.28783, 1.38034, 1.30489, 1.27135, 1.32637, 1.26675, 1.23355, 1.26519, 1.26431, 1.27402, 1.2911, 1.31899, 1.26901, 1.28768, 1.27022, 1.26957, 1.25824, 1.25334, 1.22389, 1.22241, 1.21664, 1.22731, 1.23491, 1.23394, 1.20749, 1.21621, 1.22351, 1.23096, 1.18306, 1.15818, 1.11897, 1.09095, 1.20123, 1.07855, 1.07397, 1.05354, 1.05968, 1.06994, 1.02744, 1.04625, 1.02205, 1.02906, 1.02891, 1.02231, 1.01658, 1.05795, 1.06839, 1.06496, 1.06896, 1.0507, 1.04926, 1.04975, 1.04222, 1.04319, 1.04439, 1.0442, 1.21254, 1.11955, 1.05718, 1.04966, 1.15201, 1.11947, 1.11959, 1.09148, 1.38187, 1.04353, 1.04558, 1.04597, 1.04203, 1.03945, 1.04041, 1.04111, 1.04897, 1.0478, 1.04392
1.28494, 1.2859, 1.36407, 1.26266, 1.25953, 1.24265, 1.2702, 1.31516, 1.31374, 1.22322, 1.2152, 1.21329, 1.21229, 1.21173, 1.20146, 1.20126, 1.20881, 1.20697, 1.22023, 1.17048, 1.20887, 1.18749, 1.18788, 1.18715, 1.18509, 1.18442, 1.18399, 1.18136, 1.25644, 1.15987, 1.15333, 1.21656, 1.1452, 1.1459, 1.14613, 1.15387, 1.40923, 1.12246, 1.1204, 1.11896, 1.10617, 1.10444, 1.09972, 1.08587, 1.09171, 1.14241, 1.15498, 1.19895, 1.21095, 1.24024, 1.25286, 1.23989, 1.24036, 1.27416, 1.23375, 1.25666, 1.25929, 1.34423, 1.24653, 1.34626, 1.31741, 1.36335, 1.34446, 1.34896, 1.33698, 1.32443, 1.32305, 1.40001, 1.32727, 1.29457, 1.32935, 1.31248, 1.36281, 1.30717, 1.29463, 1.29965, 1.29995, 1.30335, 1.26698, 1.27882, 1.26111, 1.22215, 1.25703, 1.29758, 1.31508, 1.29431, 1.29108, 1.26083, 1.29409, 1.29028, 1.32666, 1.32309, 1.22272, 1.22414, 1.22146, 1.21238, 1.22984, 1.23195, 1.2321, 1.20898, 1.20912, 1.20931, 1.20431, 1.21184, 1.14652, 1.15509, 1.09401, 1.08863, 1.07734, 1.07816, 1.09863, 1.06599, 1.05418, 1.03276, 1.03671, 1.01291, 1.01648, 1.03193, 1.03292, 1.06412, 1.05791, 1.07118, 1.06484, 1.06625, 1.06397, 1.04958, 1.04924, 1.05238, 1.0464, 1.04206, 1.04191, 1.15722, 1.15014, 1.0269, 1.02301, 1.02321, 1.0332, 1.02977, 1.36951, 1.37638, 1.04241, 1.04455, 1.0457, 1.03936, 1.04084, 1.04213, 1.0436, 1.04889, 1.04978, 1.04428
1.28497, 1.28406, 1.2844, 1.26464, 1.25848, 1.24272, 1.2542, 1.32958, 1.22755, 1.22505, 1.2206, 1.21375, 1.21249, 1.21158, 1.21074, 1.20161, 1.53672, 1.42645, 1.17088, 1.17101, 1.17405, 1.43493, 1.19016, 1.19053, 1.18614, 1.18546, 1.18323, 1.18079, 1.17423, 1.13602, 1.16358, 1.14743, 1.14609, 1.14601, 1.14514, 1.31934, 1.30275, 1.11986, 1.15377, 1.11779, 1.11071, 1.10911, 1.09113, 1.11876, 1.1493, 1.15104, 1.16395, 1.18923, 1.26203, 1.23739, 1.24998, 1.24752, 1.24607, 1.28726, 1.24307, 1.24211, 1.34659, 1.29351, 1.29598, 1.36255, 1.2954, 1.36488, 1.34431, 1.33858, 1.32747, 1.32907, 1.33036, 1.33743, 1.38082, 1.29461, 1.29203, 1.28575, 1.28528, 1.29138, 1.31961, 1.36699, 1.32018, 1.31572, 1.32947, 1.25076, 1.22924, 1.26816, 1.26907, 1.33344, 1.31011, 1.2862, 1.25643, 1.2756, 1.27443, 1.29284, 1.28911, 1.29288, 1.21934, 1.22369, 1.21455, 1.2118, 1.20644, 1.21315, 1.22733, 1.21257, 1.25781, 1.2545, 1.1945, 1.19363, 1.16451, 1.11396, 1.13634, 1.09296, 1.05599, 1.05195, 1.04919, 1.04225, 1.0271, 1.02549, 1.02903, 1.04019, 1.01123, 1.01147, 1.04207, 1.04961, 1.0515, 1.07022, 1.06474, 1.06552, 1.0664, 1.04983, 1.04959, 1.04928, 1.04885, 1.0457, 1.03951, 1.04141, 1.02261, 1.02283, 1.02429, 1.02242, 1.03023, 1.02877, 1.02891, 1.36762, 1.04219, 1.04383, 1.04481, 1.0412, 1.03907, 1.04245, 1.04474, 1.04964, 1.04982, 1.04473
1.28546, 1.28093, 1.36905, 1.26824, 1.254, 1.24116, 1.23253, 1.23055, 1.24061, 1.22691, 1.21984, 1.21727, 1.21442, 1.21233, 1.20861, 1.20703, 1.1923, 1.42205, 1.17165, 1.17143, 1.17208, 1.43693, 1.18921, 1.18986, 1.18747, 1.18616, 1.19929, 1.18134, 1.1679, 1.14694, 1.14847, 1.14925, 1.14762, 1.1477, 1.14479, 1.21911, 1.23784, 1.12177, 1.11887, 1.11741, 1.11298, 1.11187, 1.1655, 1.05857, 1.14639, 1.11956, 1.14446, 1.19556, 1.22582, 1.23622, 1.2516, 1.24315, 1.243, 1.2615, 1.23915, 1.24314, 1.22797, 1.2261, 1.24508, 1.41667, 1.26718, 1.2939, 1.33381, 1.36972, 1.32702, 1.33138, 1.33289, 1.33473, 1.34384, 1.33278, 1.29722, 1.28125, 1.2803, 1.28686, 1.30648, 1.30897, 1.3161, 1.36685, 1.3227, 1.34695, 1.2474, 1.23886, 1.25402, 1.28636, 1.58775, 1.30522, 1.28708, 1.26612, 1.25456, 1.27742, 1.26676, 1.24284, 1.22621, 1.22054, 1.21197, 1.24591, 1.20575, 1.20316, 1.20519, 1.22556, 1.25316, 1.25817, 1.19901, 1.20549, 1.14572, 1.11151, 1.11204, 1.09637, 1.08536, 1.04978, 1.02592, 1.0397, 1.06002, 1.04007, 1.02111, 1.02476, 1.00832, 1.04075, 1.04009, 1.07311, 1.07163, 1.07775, 1.06475, 1.06386, 1.11464, 1.05188, 1.04939, 1.05003, 1.04951, 1.04521, 1.04087, 1.04159, 1.15156, 1.02193, 1.0241, 1.02295, 1.02871, 1.02965, 1.0289, 1.3684, 1.04127, 1.04231, 1.04422, 1.04515, 1.03983, 1.04049, 1.04609, 1.04816, 1.04768, 1.0444
1.28304, 1.27834, 1.26726, 1.26532, 1.52337, 1.32605, 1.231, 1.22933, 1.22598, 1.22404, 1.21638, 1.21559, 1.21291, 1.21282, 1.21013, 1.5629, 1.20707, 1.21166, 1.21248, 1.1711, 1.17162, 1.20357, 1.18822, 1.18747, 1.18563, 1.18513, 1.25351, 1.2632, 1.18125, 1.16791, 1.15982, 1.15663, 1.20286, 1.14939, 1.20535, 1.20473, 1.19339, 1.12213, 1.15799, 1.11617, 1.11837, 1.11234, 1.0595, 1.05668, 1.14467, 1.12643, 1.19605, 1.19648, 1.20128, 1.2682, 1.23427, 1.27163, 1.29044, 1.25981, 1.29158, 1.24264, 1.25412, 1.28577, 1.249, 1.31208, 1.31255, 1.2924, 1.30592, 1.30793, 1.31309, 1.33312, 1.41328, 1.33679, 1.33673, 1.32414, 1.29764, 1.31167, 1.28796, 1.28063, 1.31229, 1.29884, 1.356, 1.32152, 1.31867, 1.31708, 1.27784, 1.26882, 1.28523, 1.2881, 1.60924, 1.29163, 1.26358, 1.26021, 1.25802, 1.32927, 1.23425, 1.23291, 1.21353, 1.20358, 1.1965, 1.19702, 1.26007, 1.20807, 1.1925, 1.19593, 1.20198, 1.21324, 1.22965, 1.21476, 1.18343, 1.14428, 1.10927, 1.10304, 1.08391, 1.04479, 1.04031, 1.04312, 1.02228, 1.01542, 1.0001, 1.00415, 1.01909, 1.04339, 1.04753, 1.04904, 1.06855, 1.06841, 1.07024, 1.06337, 1.05958, 1.11606, 1.0493, 1.04972, 1.05038, 1.04752, 1.0416, 1.04023, 1.05047, 1.02382, 1.02433, 1.02506, 1.02833, 1.02969, 1.03237, 1.03325, 1.0417, 1.04201, 1.04302, 1.04461, 1.04267, 1.04232, 1.04742, 1.0508, 1.04964, 1.04662
1.28915, 1.36933, 1.26674, 1.26163, 1.35242, 1.52253, 1.23264, 1.22737, 1.22615, 1.2266, 1.21895, 1.21403, 1.21321, 1.21244, 1.2083, 1.21033, 1.21038, 1.21356, 1.47038, 1.17065, 1.47628, 1.1769, 1.18613, 1.1862, 1.18452, 1.18369, 1.18384, 1.19846, 1.23441, 1.18633, 1.18593, 1.15804, 1.40497, 1.16085, 1.2547, 1.18406, 1.18453, 1.23365, 1.11947, 1.11711, 1.11834, 1.11126, 1.10198, 1.17358, 1.15349, 1.11841, 1.16412, 1.18789, 1.21288, 1.23372, 1.23043, 1.27343, 1.29446, 1.25994, 1.32268, 1.23766, 1.23506, 1.23587, 1.30328, 1.26845, 1.26388, 1.26364, 1.28515, 1.27815, 1.2994, 1.33377, 1.32295, 1.32273, 1.34041, 1.32481, 1.30211, 1.32221, 1.36028, 1.32312, 1.29909, 1.33344, 1.37186, 1.3531, 1.53459, 1.32662, 1.27837, 1.29241, 1.28682, 1.29469, 1.34378, 1.32828, 1.26799, 1.27075, 1.26404, 1.27729, 1.2359, 1.32866, 1.2027, 1.21012, 1.19539, 1.20992, 1.208, 1.18329, 1.19308, 1.18611, 1.19592, 1.21579, 1.20978, 1.19782, 1.16456, 1.1062, 1.11297, 1.06649, 1.09019, 1.06727, 1.04421, 1.08746, 1.05656, 1.00574, 1.00343, 0.999636, 1.01861, 1.01615, 1.00867, 1.06417, 1.06919, 1.06974, 1.06958, 1.06333, 1.05843, 1.05815, 1.05262, 1.05196, 1.05196, 1.04925, 1.04505, 1.04417, 1.04962, 1.02411, 1.02452, 1.02496, 1.02928, 1.02993, 1.02816, 1.03424, 1.04209, 1.04304, 1.04278, 1.04482, 1.04415, 1.04638, 1.04704, 1.04989, 1.04863, 1.04888
1.36928, 1.47571, 1.26757, 1.26032, 1.25357, 1.24131, 1.23073, 1.229, 1.22541, 1.22723, 1.22426, 1.21287, 1.21312, 1.21278, 1.21105, 1.21284, 1.21215, 1.49989, 1.21833, 1.49906, 1.48617, 1.4686, 1.18592, 1.18569, 1.18388, 1.18266, 1.18396, 1.18028, 1.17891, 1.17602, 1.17205, 1.16009, 1.15973, 1.15194, 1.14619, 1.14307, 1.12974, 1.12532, 1.11709, 1.11269, 1.11804, 1.11827, 1.09726, 1.08698, 1.13971, 1.12339, 1.13106, 1.18154, 1.20124, 1.24027, 1.30191, 1.24267, 1.32734, 1.30537, 1.27373, 1.23368, 1.23506, 1.24332, 1.23588, 1.2365, 1.36634, 1.36401, 1.27147, 1.28072, 1.28288, 1.28454, 1.32394, 1.3224, 1.32783, 1.38072, 1.30349, 1.32179, 1.4032, 1.30819, 1.30895, 1.32951, 1.35765, 1.35215, 1.33362, 1.36455, 1.28111, 1.35766, 1.28354, 1.28128, 1.28399, 1.27879, 1.26243, 1.26428, 1.26366, 1.2677, 1.28912, 1.27416, 1.21555, 1.21103, 1.19225, 1.18379, 1.23227, 1.20574, 1.16771, 1.16675, 1.19252, 1.17458, 1.1732, 1.19453, 1.14829, 1.11867, 1.10996, 1.06066, 1.09512, 1.05804, 1.085, 1.06134, 1.01925, 0.988763, 1.02552, 1.0095, 1.01912, 1.01522, 1.02649, 1.06173, 1.26853, 1.1414, 1.07021, 1.05773, 1.05705, 1.05531, 1.0529, 1.04985, 1.05267, 1.05154, 1.04766, 1.04667, 1.05267, 1.22133, 1.02893, 1.02177, 1.02536, 1.02908, 1.02912, 1.03234, 1.03555, 1.043, 1.04427, 1.04458, 1.04018, 1.04583, 1.04644, 1.04966, 1.04939, 1.04921
1.28201, 1.28429, 1.46712, 1.26081, 1.24853, 1.2489, 1.23774, 1.22603, 1.22456, 1.22602, 1.2273, 1.20905, 1.20921, 1.21125, 1.2116, 1.57405, 1.22951, 1.4958, 1.21644, 1.21338, 1.46799, 1.20958, 1.18519, 1.18502, 1.18382, 1.18204, 1.18393, 1.18131, 1.17888, 1.17705, 1.16533, 1.1623, 1.15374, 1.15075, 1.14347, 1.13993, 1.20932, 1.12579, 1.12174, 1.11372, 1.11168, 1.11508, 1.09618, 1.14587, 1.14077, 1.10783, 1.14327, 1.20712, 1.19192, 1.257, 1.22302, 1.26332, 1.3174, 1.27475, 1.23748, 1.23162, 1.24427, 1.23605, 1.2349, 1.21361, 1.24574, 1.23998, 1.25293, 1.25369, 1.25664, 1.33696, 1.3145, 1.32605, 1.41225, 1.34146, 1.30152, 1.31924, 1.31641, 1.30289, 1.30627, 1.31174, 1.30574, 1.29546, 1.31189, 1.30217, 1.26233, 1.28809, 1.2847, 1.31357, 1.30195, 1.27378, 1.27549, 1.28118, 1.27907, 1.27314, 1.24343, 1.21772, 1.19796, 1.19811, 1.18489, 1.18257, 1.18964, 1.35137, 1.16687, 1.16504, 1.18472, 1.17805, 1.2173, 1.17642, 1.12698, 1.10845, 1.07042, 1.07206, 1.06355, 1.05935, 1.04066, 1.01863, 0.998932, 0.977252, 0.972204, 0.975976, 1.01818, 1.02171, 1.06303, 1.0643, 1.13364, 1.27708, 1.18556, 1.05967, 1.05733, 1.05293, 1.05251, 1.05086, 1.05198, 1.05268, 1.04547, 1.0458, 1.05357, 1.05651, 1.03203, 1.99799, 2.00039, 1.0278, 1.02791, 1.02774, 1.03745, 1.04564, 1.04556, 1.04551, 1.03892, 1.04091, 1.19343, 1.04771, 1.04932, 1.04955
1.27786, 1.274, 1.27384, 1.50674, 1.84868, 1.24308, 1.23895, 1.22984, 1.22374, 1.22398, 1.27229, 1.27494, 1.20819, 1.20889, 1.20856, 1.20922, 1.57313, 1.22008, 1.21649, 1.21187, 1.43692, 1.20632, 1.18445, 1.18516, 1.18458, 1.1821, 1.18494, 1.18431, 1.17738, 1.17422, 1.17049, 1.17305, 1.15002, 1.19892, 1.14014, 1.20598, 1.12988, 1.12412, 1.12003, 1.11395, 1.11132, 1.1118, 1.11442, 1.13558, 1.14068, 1.09704, 1.1045, 1.10772, 1.17518, 1.20275, 1.27712, 1.28281, 1.28413, 1.28114, 1.2293, 1.2293, 1.22999, 1.23435, 1.22819, 1.21525, 1.22878, 1.23855, 1.25001, 1.25939, 1.25996, 1.29854, 1.32705, 1.32376, 1.40506, 1.34715, 1.30654, 1.30548, 1.31162, 1.3013, 1.30664, 1.3112, 1.29516, 1.29493, 1.29051, 1.29271, 1.25798, 1.27804, 1.2879, 1.28578, 1.29481, 1.27132, 1.30227, 1.29677, 1.28147, 1.27717, 1.25593, 1.21792, 1.19463, 1.19783, 1.19971, 1.18814, 1.16354, 1.17819, 1.17059, 1.17769, 1.14453, 1.17344, 1.19525, 1.13298, 1.14686, 1.07822, 1.07149, 1.04684, 1.05628, 1.05348, 1.01201, 1.02875, 1.01699, 1.00919, 0.977039, 0.984421, 1.00778, 1.03505, 1.06271, 1.0627, 1.26015, 1.07825, 1.18511, 1.06004, 1.05629, 1.05317, 1.05144, 1.05076, 1.04964, 1.05061, 1.04398, 1.04658, 1.04739, 1.05329, 1.03027, 1.03199, 1.03245, 1.0308, 1.02843, 1.02905, 1.03979, 1.0477, 1.04811, 1.04701, 1.03965, 1.03957, 1.04242, 1.04513, 1.04903, 1.04678
1.27532, 1.27055, 1.27374, 1.2748, 1.3464, 1.23882, 1.23892, 1.22906, 1.22189, 1.22196, 1.26331, 1.25555, 1.20824, 1.2092, 1.21077, 1.2087, 1.56887, 1.47168, 1.5213, 1.45227, 1.19745, 1.19642, 1.19457, 1.192, 1.18496, 1.18264, 1.18503, 1.18443, 1.17951, 1.17348, 1.17153, 1.17844, 1.15095, 1.13954, 1.1391, 1.23041, 1.12894, 1.12745, 1.11833, 1.11638, 1.11394, 1.11118, 1.11276, 1.10888, 1.10852, 1.11344, 1.1114, 1.1288, 1.16376, 1.1979, 1.18267, 1.26417, 1.33012, 1.27531, 1.24778, 1.23947, 1.32067, 1.2794, 1.22191, 1.2188, 1.23062, 1.23612, 1.25657, 1.25764, 1.30035, 1.29489, 1.34309, 1.31604, 1.38194, 1.3618, 1.30443, 1.30168, 1.31162, 1.31651, 1.35081, 1.29006, 1.30619, 1.31341, 1.25717, 1.27082, 1.28149, 1.27821, 1.28066, 1.28088, 1.28814, 1.296, 1.26938, 1.28159, 1.26191, 1.25008, 1.23703, 1.21922, 1.18883, 1.17664, 1.17569, 1.19398, 1.2254, 1.16807, 1.20969, 1.18126, 1.14879, 1.13517, 1.12786, 1.24149, 1.10801, 1.07848, 1.07307, 1.06743, 1.03361, 1.03, 1.04628, 1.01326, 0.998508, 0.967615, 0.991881, 0.976427, 0.969219, 1.0263, 1.06765, 1.06279, 1.0637, 1.08024, 1.0808, 1.22214, 1.05846, 1.0543, 1.05344, 1.05353, 1.04964, 1.0498, 1.04687, 1.04686, 1.04767, 1.03982, 1.03977, 1.03414, 1.03258, 1.03186, 1.032, 1.03091, 1.13866, 1.04564, 1.04739, 1.04828, 1.04338, 1.04244, 1.04092, 1.04278, 1.04715, 1.04532
1.26818, 1.26784, 1.27204, 1.27147, 1.27222, 1.41371, 1.23702, 1.22999, 1.21783, 1.28498, 1.21641, 1.21646, 1.2519, 1.20998, 1.20999, 1.212, 1.21545, 1.21177, 1.48026, 1.21116, 1.20035, 1.19968, 1.19956, 1.19519, 1.18913, 1.18866, 1.18974, 1.18402, 1.18046, 1.17407, 1.17049, 1.55202, 1.15788, 1.14055, 1.28485, 1.13084, 1.12811, 1.12543, 1.12434, 1.12194, 1.289, 1.11366, 1.11542, 1.11231, 1.12487, 1.10897, 1.09582, 1.12312, 1.16656, 1.16706, 1.15752, 1.24119, 1.27464, 1.32927, 1.23593, 1.2368, 1.22601, 1.2095, 1.22569, 1.23011, 1.2295, 1.30825, 1.25609, 1.31602, 1.32196, 1.32419, 1.29376, 1.34176, 1.31215, 1.30808, 1.30532, 1.30814, 1.30519, 1.29978, 1.2952, 1.28491, 1.28668, 1.29225, 1.27147, 1.27172, 1.27439, 1.30098, 1.28179, 1.27947, 1.27564, 1.27531, 1.30165, 1.24704, 1.24643, 1.23336, 1.23318, 1.21004, 1.19565, 1.17884, 1.21005, 1.17135, 1.17142, 1.19386, 1.16354, 1.1597, 1.1713, 1.14423, 1.18152, 1.10849, 1.12208, 1.08045, 1.07484, 1.0716, 1.03285, 1.0438, 1.02982, 1.00101, 1.01116, 0.993859, 0.971921, 0.982584, 0.98534, 1.03206, 1.06985, 1.06641, 1.06637, 1.08055, 1.08103, 1.36936, 1.06114, 1.05379, 1.05567, 1.05544, 1.05371, 1.04925, 1.04645, 1.04625, 1.04074, 1.04063, 1.04084, 1.03472, 1.03393, 1.03353, 1.03424, 1.03419, 1.03468, 1.04485, 1.04712, 1.04979, 1.04873, 1.04272, 1.04301, 1.04393, 1.04388, 1.04437
1.26954, 1.26773, 1.26744, 1.26902, 1.27101, 1.33313, 1.40931, 1.33387, 1.33173, 1.21157, 1.21667, 1.21711, 1.21733, 1.24328, 1.39989, 1.21384, 1.21482, 1.21269, 1.21314, 1.20572, 1.20251, 1.20043, 1.19886, 1.19851, 1.19471, 1.19108, 1.21864, 1.18487, 1.18073, 1.1737, 1.17543, 1.5476, 1.15041, 1.13834, 1.13016, 1.13055, 1.12474, 1.12369, 1.12232, 1.12306, 1.12306, 1.11568, 1.11723, 1.1167, 1.12271, 1.11036, 1.16715, 1.11244, 1.12479, 1.14068, 1.15426, 1.23591, 1.23239, 1.32244, 1.23707, 1.23631, 1.26332, 1.19955, 1.2178, 1.24273, 1.25705, 1.253, 1.26526, 1.28883, 1.2874, 1.31637, 1.29063, 1.30922, 1.31544, 1.30914, 1.31284, 1.30636, 1.30218, 1.28058, 1.30038, 1.35632, 1.29914, 1.26131, 1.25741, 1.26596, 1.26977, 1.27731, 1.28845, 1.31779, 1.25881, 1.26493, 1.26153, 1.2581, 1.22948, 1.22215, 1.2361, 1.19489, 1.19887, 1.19934, 1.27874, 1.20952, 1.16022, 1.20823, 1.16991, 1.16088, 1.12511, 1.10235, 1.09564, 1.10679, 1.11768, 1.09278, 1.09539, 1.07075, 1.05019, 1.0408, 1.01879, 1.01865, 1.01166, 1.01252, 0.979559, 0.984657, 0.986028, 1.06855, 1.06908, 1.06825, 1.06644, 1.26067, 1.07874, 1.15382, 1.06778, 1.05615, 1.05575, 1.05299, 1.05328, 1.04918, 1.04671, 1.04643, 1.0448, 1.04209, 1.0412, 1.04204, 1.03514, 1.0325, 1.03315, 1.03681, 1.04048, 1.04587, 1.04755, 1.04893, 1.04609, 1.04229, 1.04296, 1.04728, 1.04898, 1.04144
1.34019, 1.26836, 1.26798, 1.26965, 1.27107, 1.43106, 1.72156, 1.23215, 1.4634, 1.21135, 1.2132, 1.21728, 1.21664, 1.29733, 1.63797, 1.21377, 1.21502, 1.21523, 1.21273, 1.20815, 1.20651, 1.20457, 1.19832, 1.19861, 1.19293, 1.19191, 1.19098, 1.18426, 1.18457, 1.17759, 1.17581, 1.16893, 1.26753, 1.3512, 1.13178, 1.12753, 1.1241, 1.12173, 1.12336, 1.12347, 1.12223, 1.11581, 1.11818, 1.11552, 1.11494, 1.10666, 1.12161, 1.09808, 1.12665, 1.11312, 1.15957, 1.22548, 1.21406, 1.2219, 1.23084, 1.25412, 1.19091, 1.20474, 1.20852, 1.28556, 1.40021, 1.25623, 1.28832, 1.35815, 1.3363, 1.29852, 1.2982, 1.28875, 1.29103, 1.34629, 1.33199, 1.29172, 1.28161, 1.3308, 1.2858, 1.35475, 1.52045, 1.51999, 1.28497, 1.26879, 1.27172, 1.27852, 1.278, 1.27071, 1.31222, 1.26095, 1.28211, 1.23838, 1.23564, 1.21866, 1.20226, 1.20034, 1.18425, 1.20028, 1.25655, 1.20233, 1.1765, 1.16779, 1.16656, 1.1503, 1.11902, 1.09804, 1.09144, 1.13306, 1.09087, 1.10275, 1.10836, 1.06998, 1.04335, 1.01634, 0.997193, 0.992231, 1.01181, 1.05316, 0.98235, 1.08041, 0.99661, 1.10167, 1.06767, 1.06956, 1.06661, 1.06755, 1.07825, 1.07937, 1.29834, 1.05868, 1.05285, 1.05145, 1.05231, 1.05033, 1.04835, 1.04787, 1.046, 1.04264, 1.042, 1.04058, 1.0367, 1.03231, 1.03222, 1.03778, 1.04171, 1.04397, 1.04508, 1.0467, 1.04299, 1.04225, 1.04602, 1.04636, 1.04787, 1.03946
1.33395, 1.27182, 1.27005, 1.2704, 1.28117, 1.7277, 1.26434, 1.32819, 1.33025, 1.2117, 1.21378, 1.21634, 1.21721, 1.26388, 1.63263, 1.21577, 1.21589, 1.21641, 1.21516, 1.21028, 1.21439, 1.23661, 1.28915, 1.28949, 1.2025, 1.19374, 1.19117, 1.18745, 1.17986, 1.17725, 1.1708, 1.16187, 1.18908, 1.22802, 1.13113, 1.12638, 1.12585, 1.11525, 1.12353, 1.12325, 1.16291, 1.13651, 1.11512, 1.1095, 1.11219, 1.12044, 1.17725, 1.18522, 1.09791, 1.1119, 1.15672, 1.27625, 1.21297, 1.21212, 1.21389, 1.23294, 1.19061, 1.18481, 1.25742, 1.24407, 1.25317, 1.31433, 1.31717, 1.32176, 1.32823, 1.31172, 1.31063, 1.33288, 1.33995, 1.34345, 1.29316, 1.29229, 1.25214, 1.27929, 1.29089, 1.35265, 1.32899, 1.33072, 1.24975, 1.25131, 1.26247, 1.27708, 1.26686, 1.28825, 1.37748, 1.24646, 1.23526, 1.23641, 1.20378, 1.21227, 1.20422, 1.19886, 1.19583, 1.19953, 1.2357, 1.25933, 1.21306, 1.18146, 1.17447, 1.10688, 1.10815, 1.09385, 1.09521, 1.07436, 1.09225, 1.1129, 1.04924, 1.04368, 1.04412, 1.00724, 0.999601, 1.01108, 1.00216, 0.995239, 1.04571, 1.00058, 1.01727, 1.12056, 1.06896, 1.07077, 1.06864, 1.06658, 1.07749, 1.07851, 1.06008, 1.05572, 1.05615, 1.05069, 1.05061, 1.04984, 1.04752, 1.04921, 1.04863, 1.0466, 1.04242, 1.04276, 1.038, 1.03717, 1.03218, 1.03549, 1.31524, 1.0423, 1.04391, 1.04604, 1.0464, 1.04049, 1.04391, 1.04608, 1.0485, 1.04922
1.33412, 1.27445, 1.27058, 1.26992, 1.26975, 1.27569, 1.27155, 1.32361, 1.22544, 1.219, 1.20915, 1.21598, 1.21786, 1.21786, 1.21803, 1.21759, 1.21721, 1.21664, 1.21698, 1.21567, 1.23683, 1.35122, 1.21389, 1.34018, 1.35293, 1.19234, 1.18907, 1.18471, 1.18079, 1.18093, 1.17053, 1.16333, 1.15782, 1.39197, 1.12988, 1.12804, 1.12713, 1.11516, 1.1193, 1.2227, 1.21077, 1.3248, 1.21076, 1.11258, 1.11148, 1.11167, 1.13825, 1.13104, 1.11618, 1.1132, 1.11644, 1.16475, 1.18385, 1.23967, 1.21516, 1.24329, 1.20051, 1.19304, 1.20871, 1.23749, 1.24071, 1.3241, 1.29434, 1.3331, 1.33552, 1.33672, 1.32945, 1.34998, 1.35055, 1.3372, 1.30476, 1.29824, 1.3049, 1.31321, 1.31273, 1.31194, 1.37996, 1.36852, 1.2504, 1.24929, 1.46279, 1.46351, 1.27506, 1.28422, 1.36999, 1.26382, 1.24365, 1.23966, 1.1951, 1.18791, 1.18947, 1.19624, 1.18706, 1.19473, 1.2017, 1.20073, 1.19866, 1.21143, 1.11694, 1.11733, 1.11528, 1.09357, 1.08443, 1.08153, 1.10188, 1.06839, 1.05162, 1.02905, 1.04638, 1.00741, 1.02557, 1.01442, 0.992231, 1.00093, 1.0026, 1.00399, 1.08823, 1.0708, 1.0716, 1.07038, 1.07114, 1.07021, 1.07811, 1.07433, 1.07532, 1.05504, 1.05537, 1.34674, 1.04951, 1.04767, 1.0493, 1.04939, 1.04931, 1.04611, 1.04719, 1.04322, 1.04255, 1.04135, 1.03615, 1.03561, 1.03886, 1.13152, 1.07406, 1.04768, 1.04846, 1.04451, 1.0434, 1.04647, 1.04812, 1.06054
