1.04464, 1.04583, 1.04714, 1.04902, 1.04724, 1.046, 1.0474, 1.04439, 1.04385, 1.04341, 1.04479, 1.0424, 1.04229, 1.03891, 1.03854, 1.03172, 1.02903, 1.02884, 1.02883, 1.02519, 1.02184, 1.02029, 1.01859, 1.01835, 1.02062, 1.02057, 1.01691, 1.01536, 1.01574, 1.0147, 1.01515, 1.00967, 1.00634, 1.00602, 1.00781, 1.00831, 1.02563, 1.0031, 1.00187, 1.00125, 1.00324, 1.00423, 1.00409, 1.00328, 1.00174, 1.24671, 1.12396, 1.04011, 1.14779, 1.14801, 1.00856, 1.00763, 0.978221, 0.977277, 0.977507, 0.977887, 0.981173, 1.13269, 0.985727, 0.985456, 0.99018, 0.990712, 1.10934, 1.11282, 0.98382, 0.983765, 0.983968, 1.11503, 0.98043, 0.982313, 0.983203, 0.983459, 0.983669, 0.983066, 0.987902, 0.989005, 1.02808, 1.01575, 1.06531, 1.02251, 1.12208, 1.1165, 0.994344, 0.994089, 0.99443, 0.993471, 0.989305, 0.989767, 0.994175, 0.988409, 0.987299, 0.98578, 0.988266, 0.987735, 0.990859, 1.16354, 0.996809, 0.997573, 1.00118, 0.996457, 0.996913, 0.997674, 0.998777, 1.03495, 1.14616, 1.02128, 1.0043, 1.00488, 1.00545, 1.00586, 1.00823, 1.10807, 1.01678, 1.01679, 1.0197, 1.02, 1.02214, 1.02222, 1.02333, 1.12262, 1.02482, 1.02444, 1.31616, 1.12071, 1.03286, 1.03788, 1.04003, 1.04264, 1.04364, 1.05223, 1.05505, 1.05565, 1.05661, 1.05961, 1.06112, 1.27124, 1.12701, 1.1182, 1.1258, 1.10306, 1.10596, 1.11129, 1.29016, 1.28505, 1.28469, 1.28418, 1.15179, 1.15328, 1.37879, 1.37905, 1.44068, 1.18944, 1.22398, 1.22473, 1.226, 1.35055, 1.34341, 1.30171, 1.26115, 1.32256, 1.26419, 1.3708, 1.32394, 1.28658, 1.28611, 1.28777, 1.28826, 1.28823, 1.2891, 1.29997, 1.37478, 1.29802, 1.29672, 1.30225, 1.30192, 1.38151, 1.31237, 1.31714, 1.36522, 1.32642, 1.37235, 1.37432, 1.34357, 1.35796, 1.3574, 1.357, 1.3482, 1.3462, 1.34585, 1.34933, 1.35391, 1.35409, 1.35793, 1.36012, 1.36048, 1.36367, 1.362, 1.36487, 1.36362, 1.36554, 1.65209, 1.44424, 1.36117, 1.3571, 1.35655, 1.35577, 1.35476, 1.35784, 1.35733, 1.35665, 1.35712, 1.35698, 1.35463, 1.35304, 1.35525, 1.35417, 1.35087, 1.34972, 1.35756, 1.38289, 1.38293, 1.38557, 1.3917, 1.3161, 1.31563, 1.31619, 1.31431, 1.31407, 1.30195, 1.30003, 1.30487, 1.30481, 1.30314, 1.30096, 1.29972, 1.30064, 1.49001, 1.30898, 1.33836, 1.29919, 1.29713, 1.29757, 1.29815, 1.29482, 1.28924, 1.34604, 1.35826, 1.26653, 1.26834, 1.46756, 1.3367, 1.33514, 1.31872, 1.42317, 1.42211, 1.29912, 1.29781, 1.29439, 1.29495, 1.29367, 1.29107, 1.28743, 1.29282, 1.2923, 1.29379, 1.30555, 1.27773, 1.41881, 1.41875, 1.29479
1.0459, 1.07295, 1.04683, 1.04666, 1.04724, 1.04634, 1.04597, 1.04584, 1.04508, 1.04399, 1.04278, 1.04384, 1.04274, 1.03721, 1.09556, 1.0814, 1.02835, 1.02771, 1.02537, 1.02314, 1.02378, 1.0227, 1.02144, 1.02306, 1.02241, 1.0225, 1.01632, 1.01636, 1.01813, 1.01597, 1.02557, 1.00624, 1.0076, 1.00961, 1.01027, 1.00814, 1.00805, 1.00806, 1.0085, 1.00561, 1.00512, 1.00456, 1.00414, 1.0014, 1.00062, 0.999402, 1.14986, 1.13438, 0.987898, 0.9855, 1.01142, 0.979661, 0.979315, 0.979231, 0.979257, 0.979265, 1.00143, 0.987019, 0.989762, 0.990395, 0.990018, 0.990731, 0.991533, 0.99119, 0.988077, 0.986081, 0.985966, 0.985817, 0.98622, 0.985346, 0.985366, 0.983643, 0.984968, 0.987964, 0.992031, 0.991587, 0.994012, 1.06573, 0.988288, 0.988984, 0.990791, 0.994635, 0.993531, 0.992365, 0.992522, 0.991742, 0.991647, 0.990758, 0.990623, 0.991012, 0.990016, 0.988151, 0.987957, 0.988426, 0.99149, 0.996662, 0.996907, 0.997586, 0.99827, 0.998003, 0.997527, 1.0006, 0.998226, 1.00004, 1.02894, 1.00427, 1.00511, 1.00531, 1.00471, 1.00588, 1.00762, 1.01014, 1.01223, 1.11616, 1.01885, 1.01832, 1.01927, 1.02057, 1.02827, 1.0285, 1.13411, 1.10507, 1.17614, 1.26831, 1.18142, 1.04023, 1.04253, 1.04258, 1.04286, 1.04312, 1.0711, 1.24407, 1.06443, 1.06582, 1.06778, 1.26913, 1.08705, 1.35492, 1.12975, 1.23158, 1.11838, 1.11494, 1.43351, 1.26366, 1.28419, 1.14404, 1.27917, 1.1963, 1.19663, 1.37697, 1.19729, 1.19548, 1.22102, 1.34648, 1.2988, 1.33988, 1.30974, 1.30666, 1.30283, 1.31196, 1.33085, 1.31988, 1.33338, 1.2913, 1.28803, 1.2891, 1.28885, 1.28779, 1.2876, 1.29966, 1.29227, 1.29505, 1.29562, 1.2994, 1.30121, 1.30176, 1.45699, 1.63457, 1.38892, 1.3802, 1.38136, 1.34091, 1.34239, 1.34708, 1.3583, 1.35698, 1.35213, 1.34983, 1.34829, 1.35081, 1.35696, 1.35581, 1.35361, 1.38338, 1.37922, 1.36724, 1.36683, 1.36684, 1.36576, 1.36502, 1.36699, 1.37268, 1.44423, 1.3603, 1.36007, 1.35879, 1.35694, 1.35744, 1.35777, 1.35735, 1.3573, 1.35691, 1.3567, 1.35411, 1.35363, 1.3497, 1.34928, 1.43569, 1.34017, 1.34062, 1.41904, 1.39672, 1.32124, 1.31653, 1.31537, 1.31428, 1.31415, 1.32013, 1.30422, 1.30214, 1.30161, 1.30611, 1.30658, 1.30355, 1.30044, 1.30055, 1.40948, 1.43336, 1.34064, 1.29599, 1.29391, 1.29534, 1.35377, 1.31333, 1.58822, 1.3289, 1.32892, 1.26843, 1.26713, 1.26417, 1.26466, 1.42623, 1.34104, 1.38474, 1.40558, 1.3894, 1.29726, 1.29649, 1.29448, 1.2929, 1.29133, 1.29026, 1.29015, 1.29506, 1.2918, 1.2995, 1.4232, 1.39158, 1.3776, 1.3849
1.04684, 1.04724, 1.04642, 1.04906, 1.04774, 1.04782, 1.04752, 1.0461, 1.0437, 1.04305, 1.04341, 1.04378, 1.04387, 1.09772, 1.0882, 1.05825, 1.23247, 1.02242, 1.02295, 1.02365, 1.02428, 1.02393, 1.02443, 1.0238, 1.022, 1.02031, 1.01952, 1.01724, 1.01738, 1.01704, 1.0264, 1.00513, 1.00348, 1.00917, 1.0094, 1.00983, 1.00882, 1.00708, 1.00755, 1.008, 1.00778, 1.00611, 1.00396, 1.0015, 1.00453, 1.00122, 0.999229, 1.23979, 1.01663, 1.01833, 1.01257, 0.980735, 0.980394, 0.980839, 0.982122, 0.980999, 0.98257, 1.00062, 0.990572, 0.991911, 0.99263, 0.992726, 0.991505, 0.991209, 0.990809, 0.987291, 0.990988, 0.988678, 0.994425, 0.992391, 0.991135, 0.992432, 0.991371, 0.991743, 0.991341, 0.997429, 0.994422, 0.994, 0.994586, 0.988962, 0.989186, 0.991431, 0.992392, 0.991245, 0.992082, 0.991604, 0.995472, 0.995006, 0.993399, 0.992706, 0.992759, 0.988027, 0.988861, 0.990254, 0.990757, 0.99518, 0.996006, 0.998924, 0.99946, 0.999576, 0.997225, 0.998972, 0.997705, 1.00123, 1.00451, 1.00463, 1.0065, 1.00588, 1.00558, 1.00492, 1.00655, 1.00905, 1.01218, 1.0132, 1.10675, 1.02064, 1.02077, 1.02082, 1.02647, 1.02797, 1.02851, 1.18818, 1.18452, 1.12691, 1.26095, 1.04284, 1.04444, 1.04473, 1.0442, 1.04641, 1.04864, 1.07652, 1.10542, 1.09198, 1.26108, 1.26839, 1.11733, 1.13311, 1.13014, 1.12986, 1.23658, 1.17768, 1.123, 1.4455, 1.18357, 1.14495, 1.25677, 1.36801, 1.20758, 1.20711, 1.19883, 1.20511, 1.29859, 1.22974, 1.33558, 1.32269, 1.30456, 1.42994, 1.43456, 1.27231, 1.27492, 1.275, 1.27999, 1.34001, 1.28906, 1.28878, 1.28968, 1.28945, 1.2904, 1.29249, 1.29426, 1.29346, 1.29758, 1.29892, 1.30185, 1.3041, 1.30852, 1.30914, 1.32904, 1.38514, 1.51489, 1.34215, 1.34144, 1.38654, 1.39821, 1.35785, 1.35721, 1.35366, 1.35074, 1.35155, 1.35824, 1.35681, 1.35502, 1.35431, 1.37379, 1.3689, 1.36748, 1.36659, 1.36603, 1.36704, 1.36697, 1.36721, 1.36548, 1.36189, 1.36063, 1.35833, 1.35832, 1.3588, 1.3586, 1.35813, 1.35687, 1.36455, 1.35549, 1.35453, 1.44761, 1.35137, 1.34976, 1.34691, 1.34354, 1.34209, 1.343, 1.33156, 1.32463, 1.31388, 1.31221, 1.31247, 1.31001, 1.30962, 1.30829, 1.30497, 1.30494, 1.30663, 1.30681, 1.30438, 1.30354, 1.30008, 1.37912, 1.36562, 1.3823, 1.45338, 1.29515, 1.2941, 1.29349, 1.29525, 1.28625, 1.6176, 1.27321, 1.32678, 1.26333, 1.26347, 1.2618, 1.50521, 1.36944, 1.40578, 1.36181, 1.42643, 1.39926, 1.29672, 1.29533, 1.2948, 1.29138, 1.29119, 1.2849, 1.29924, 1.41997, 1.42082, 1.41658, 1.4925, 1.37529, 1.32437
1.04937, 1.05124, 1.05009, 1.05053, 1.04838, 1.04897, 1.04791, 1.04571, 1.04562, 1.0436, 1.04265, 1.04169, 1.0427, 1.04084, 1.08548, 1.09575, 1.02838, 1.02426, 1.02484, 1.02525, 1.02406, 1.02831, 1.02512, 1.02394, 1.02247, 1.02019, 1.02087, 1.01889, 1.01763, 1.01608, 1.02889, 1.13553, 1.02883, 1.02728, 1.25359, 1.02779, 1.30517, 1.25669, 1.00769, 1.00793, 1.00677, 1.00662, 1.00533, 1.00225, 1.00168, 1.0013, 1.00014, 1.00954, 0.989079, 0.988043, 1.14305, 0.982751, 1.01159, 0.980826, 0.982297, 1.00929, 1.00814, 1.00746, 0.991133, 0.992398, 0.994784, 0.994303, 0.994802, 0.994815, 0.995039, 1.08166, 1.20868, 0.994511, 0.994656, 0.995047, 0.998393, 0.995154, 0.994453, 0.994519, 0.993755, 0.994144, 0.995389, 0.995157, 0.996894, 0.998164, 0.998882, 0.997864, 0.997435, 0.995365, 1.01209, 1.0111, 0.999969, 0.998593, 0.997673, 0.996544, 0.995807, 0.993044, 0.992272, 0.99083, 0.990149, 0.990527, 0.990728, 0.997588, 0.997935, 0.99728, 0.997901, 0.998207, 0.998584, 1.00022, 1.00492, 1.0031, 1.00608, 1.00509, 1.00434, 1.00538, 1.0069, 1.00825, 1.01126, 1.01374, 1.01573, 1.02125, 1.02148, 1.02395, 1.02729, 1.02775, 1.12665, 1.04078, 1.03899, 1.26432, 1.1893, 1.04481, 1.04607, 1.04562, 1.04566, 1.04709, 1.04963, 1.07469, 1.29186, 1.27551, 1.27425, 1.07867, 1.0794, 1.11253, 1.12532, 1.35686, 1.23725, 1.24817, 1.16184, 1.16458, 1.17062, 1.168, 1.28112, 1.3717, 1.19865, 1.36242, 1.32652, 1.32027, 1.31453, 1.30326, 1.23944, 1.32093, 1.32324, 1.32251, 1.26734, 1.27249, 1.2716, 1.27641, 1.27592, 1.29183, 1.28803, 1.28744, 1.28911, 1.29251, 1.29143, 1.29543, 1.29709, 1.29846, 1.29909, 1.29801, 1.30432, 1.30461, 1.30657, 1.31072, 1.43843, 1.32982, 1.33966, 1.34593, 1.346, 1.35231, 1.35896, 1.36003, 1.36018, 1.35882, 1.35433, 1.35313, 1.35389, 1.35788, 1.35659, 1.35569, 1.38169, 1.36786, 1.36638, 1.36551, 1.36393, 1.3672, 1.36718, 1.3679, 1.3692, 1.36112, 1.36029, 1.35983, 1.35992, 1.35908, 1.36005, 1.36523, 1.36517, 1.36506, 1.3641, 1.36461, 1.64495, 1.45696, 1.34878, 1.34653, 1.34422, 1.34414, 1.35338, 1.43393, 1.37867, 1.33131, 1.31621, 1.31907, 1.31286, 1.30952, 1.30805, 1.30677, 1.30526, 1.30239, 1.29773, 1.29657, 1.29833, 1.29815, 1.29792, 1.35724, 1.39557, 1.30533, 1.29675, 1.29503, 1.29348, 1.2926, 1.2919, 1.28411, 1.34039, 1.27406, 1.26571, 1.26493, 1.2635, 1.26493, 1.28455, 1.3181, 1.42031, 1.42051, 1.33684, 1.60642, 1.34093, 1.29229, 1.2925, 1.28905, 1.28789, 1.29098, 1.30872, 1.30964, 1.41621, 1.33779, 1.25736, 1.26083
1.05161, 1.04933, 1.05198, 1.05089, 1.05127, 1.0475, 1.04685, 1.04435, 1.04337, 1.04135, 1.04254, 1.04269, 1.04148, 1.04112, 1.09399, 1.0921, 1.22658, 1.02649, 1.02592, 1.09449, 1.02731, 1.02781, 1.02584, 1.02299, 1.02225, 1.02085, 1.01967, 1.0185, 1.01905, 1.01704, 1.01659, 1.13924, 1.08158, 1.02762, 1.02675, 1.12544, 1.1252, 1.2545, 1.0069, 1.00884, 1.00789, 1.00518, 1.00478, 1.00196, 1.00203, 1.00075, 0.999002, 1.00933, 1.13631, 1.13569, 1.03547, 1.02049, 1.01258, 1.01216, 0.983474, 1.06804, 1.01438, 1.0086, 1.00165, 1.15074, 0.995695, 0.995989, 0.995753, 0.995693, 0.994801, 0.996586, 0.998368, 0.998472, 0.999712, 1.00292, 1.00565, 0.998933, 0.997967, 0.99596, 0.993187, 0.994635, 0.994437, 0.99496, 0.996739, 0.997021, 0.997583, 0.99852, 0.998376, 0.998424, 0.99835, 1.00089, 1.00164, 1.00059, 0.997241, 0.997123, 0.996482, 0.994757, 0.995008, 0.994639, 0.993914, 0.989574, 0.988732, 0.991452, 0.994076, 0.994673, 0.998138, 0.997253, 0.998017, 1.0004, 1.00099, 1.00253, 1.00611, 1.00694, 1.00581, 1.00634, 1.00684, 1.00793, 1.00907, 1.01445, 1.01488, 1.01638, 1.11146, 1.02723, 1.02964, 1.10329, 1.03915, 1.03905, 1.03923, 1.04491, 1.18746, 1.04543, 1.04765, 1.04714, 1.04495, 1.04497, 1.05402, 1.22575, 1.22609, 1.22813, 1.27382, 1.56134, 1.12914, 1.16378, 1.27491, 1.26686, 1.40719, 1.15067, 1.15027, 1.27127, 1.3058, 1.40056, 1.18928, 1.1652, 1.36799, 1.20441, 1.2958, 1.42381, 1.24663, 1.22609, 1.28944, 1.3251, 1.31976, 1.65823, 1.27052, 1.27252, 1.27117, 1.27414, 1.27457, 1.28185, 1.2884, 1.28975, 1.29003, 1.2932, 1.29394, 1.29709, 1.29767, 1.30077, 1.30172, 1.30343, 1.30361, 1.30592, 1.37907, 1.37962, 1.3892, 1.4405, 1.33947, 1.37506, 1.35656, 1.4004, 1.36031, 1.35932, 1.35842, 1.35891, 1.35527, 1.35286, 1.35377, 1.35743, 1.35689, 1.3566, 1.37565, 1.36605, 1.36693, 1.36616, 1.36782, 1.36616, 1.36515, 1.365, 1.36552, 1.36211, 1.35908, 1.3585, 1.35877, 1.3612, 1.47325, 1.39003, 1.4651, 1.37427, 1.38658, 1.46821, 1.67784, 1.63776, 1.60406, 1.35449, 1.35311, 1.35094, 1.35081, 1.41865, 1.3297, 1.32286, 1.31959, 1.31882, 1.31241, 1.3076, 1.30687, 1.30611, 1.30503, 1.29361, 1.29845, 1.29708, 1.29781, 1.29765, 1.30148, 1.30144, 1.36007, 1.34938, 1.37107, 1.49589, 1.36551, 1.29886, 1.30612, 1.28292, 1.28, 1.27976, 1.26833, 1.26656, 1.26405, 1.26535, 1.32263, 1.28049, 1.4244, 1.39455, 1.40597, 1.40897, 1.31267, 1.28962, 1.28943, 1.29108, 1.28908, 1.2879, 1.37889, 1.27785, 1.34373, 1.42459, 1.26001, 1.25974
1.05459, 1.05479, 1.05068, 1.05264, 1.05244, 1.04186, 1.04135, 1.04264, 1.04272, 1.04266, 1.04287, 1.04224, 1.04536, 1.0581, 1.08856, 1.09403, 1.05354, 1.09125, 1.08927, 1.08078, 1.03059, 1.02889, 1.02814, 1.02413, 1.02148, 1.0197, 1.01983, 1.01896, 1.01568, 1.0157, 1.01687, 1.01194, 1.01152, 1.01125, 1.0271, 1.02694, 1.02974, 1.03063, 1.25004, 1.00701, 1.00714, 1.00749, 1.00383, 1.00404, 1.0014, 1.00057, 1.00017, 0.998432, 0.99765, 1.12912, 1.13384, 1.13884, 1.01475, 1.01504, 1.01663, 1.01648, 1.04416, 1.01424, 1.01042, 1.0221, 0.995263, 0.996534, 0.997171, 0.996349, 0.995379, 0.999066, 1.00006, 1.00053, 1.00298, 1.0057, 1.01159, 1.00585, 0.997723, 0.99706, 0.996955, 0.995676, 0.99494, 0.99606, 0.995475, 0.996094, 0.997068, 0.996766, 0.996971, 0.998352, 0.998085, 0.999698, 1.00166, 0.997315, 0.997227, 0.995662, 0.995471, 0.994504, 0.994916, 0.994121, 0.994401, 1.27828, 0.988379, 0.989284, 0.991556, 0.993669, 0.995878, 0.996523, 0.99721, 0.998124, 1.00137, 1.00079, 1.00301, 1.0083, 1.0081, 1.00535, 1.00578, 1.00694, 1.01006, 1.01302, 1.01484, 1.01596, 1.11233, 1.02793, 1.03168, 1.03319, 1.03797, 1.03925, 1.04044, 1.04617, 1.05018, 1.05146, 1.04967, 1.04595, 1.04705, 1.04881, 1.04966, 1.16172, 1.15821, 1.10763, 1.07156, 1.07247, 1.27053, 1.1979, 1.17459, 1.15725, 1.14844, 1.14834, 1.15079, 1.39716, 1.29573, 1.17489, 1.28375, 1.1677, 1.17047, 1.21544, 1.36985, 1.2524, 1.25121, 1.24595, 1.29172, 1.29951, 1.25553, 1.2576, 1.26071, 1.27712, 1.2704, 1.28029, 1.2785, 1.3412, 1.28279, 1.29188, 1.29134, 1.29466, 1.29723, 1.29872, 1.30025, 1.30335, 1.30551, 1.30802, 1.30711, 1.30812, 1.38862, 1.43343, 1.38921, 1.44018, 1.38911, 1.357, 1.3645, 1.39854, 1.35513, 1.36017, 1.35926, 1.35928, 1.3553, 1.35368, 1.35081, 1.34777, 1.3572, 1.35682, 1.37098, 1.3636, 1.36343, 1.36559, 1.36353, 1.365, 1.3664, 1.36517, 1.36461, 1.37537, 1.35837, 1.35765, 1.4448, 1.44447, 1.39942, 1.46902, 1.34233, 1.39967, 1.67595, 1.59141, 1.32075, 1.3192, 1.32044, 1.45497, 1.45431, 1.3466, 1.43934, 1.60598, 1.32783, 1.32519, 1.32152, 1.32123, 1.39704, 1.30682, 1.30519, 1.30384, 1.2986, 1.29758, 1.29447, 1.29616, 1.2978, 1.29856, 1.30286, 1.30171, 1.30037, 1.33332, 1.34471, 1.29924, 1.2929, 1.29116, 1.29561, 1.28376, 1.28465, 1.27513, 1.26808, 1.26335, 1.26479, 1.26439, 1.27061, 1.4478, 1.28062, 1.41824, 1.36754, 1.41987, 1.33964, 1.3093, 1.29126, 1.29099, 1.28823, 1.28494, 1.28481, 1.27663, 1.27406, 1.27503, 1.2608, 1.2586
1.0568, 1.05854, 1.05635, 1.05401, 1.05161, 1.0477, 1.04467, 1.04568, 1.0444, 1.04251, 1.04305, 1.04456, 1.04744, 1.04815, 1.04085, 1.04189, 1.39254, 1.14717, 1.06581, 1.08138, 1.03027, 1.03016, 1.02792, 1.02615, 1.02259, 1.02156, 1.01925, 1.01785, 1.01703, 1.01692, 1.01635, 1.01227, 1.01202, 1.01143, 1.02871, 1.02958, 0.992314, 1.12542, 1.03057, 1.12299, 1.00777, 1.00681, 1.00585, 1.00361, 1.00274, 1.00076, 1.00004, 0.998696, 0.99771, 0.998074, 1.12726, 1.01291, 1.13239, 1.01837, 1.01905, 1.01835, 1.01512, 1.01505, 1.31483, 1.00909, 0.994557, 0.996405, 0.994828, 0.998316, 0.997751, 0.999039, 1.00085, 1.00241, 1.00516, 1.00984, 1.01071, 1.01015, 1.00262, 1.00249, 1.00066, 1.00106, 1.00028, 0.997718, 0.998572, 0.996453, 0.994753, 0.996162, 0.997304, 0.997676, 0.999529, 1.0001, 1.00044, 1.0002, 0.997806, 0.99795, 0.996044, 0.994959, 0.995422, 0.995405, 0.995968, 1.00748, 0.981067, 0.98222, 1.11646, 0.995169, 0.997201, 0.997627, 0.997786, 1.00065, 1.00015, 1.00011, 1.00156, 1.00543, 1.00604, 1.00627, 1.00667, 1.03342, 1.18254, 1.01433, 1.0158, 1.0648, 1.10578, 1.11211, 1.03244, 1.03498, 1.0372, 1.03961, 1.04417, 1.04599, 1.0512, 1.05059, 1.05031, 1.04307, 1.04748, 1.04679, 1.04801, 1.05354, 1.29693, 1.19299, 1.07117, 1.07457, 1.07496, 1.16201, 1.1651, 1.15018, 1.29441, 1.25616, 1.25295, 1.15195, 1.19125, 1.1649, 1.28847, 1.20505, 1.48533, 1.21037, 1.20886, 1.21343, 1.24879, 1.23716, 1.26434, 1.25687, 1.25628, 1.25852, 1.25838, 1.32937, 1.27449, 1.27387, 1.37817, 1.37753, 1.2854, 1.29069, 1.29206, 1.54446, 1.54468, 1.35726, 1.30569, 1.34329, 1.30896, 1.30896, 1.36783, 1.38429, 1.49677, 1.53514, 1.321, 1.3233, 1.69976, 1.38467, 1.42059, 1.40994, 1.43507, 1.35483, 1.38052, 1.36188, 1.35444, 1.35323, 1.35045, 1.34894, 1.60039, 1.50061, 1.36424, 1.36586, 1.36397, 1.36642, 1.36392, 1.36454, 1.36448, 1.36456, 1.36344, 1.47563, 1.51982, 1.3915, 1.33734, 1.33638, 1.33554, 1.33923, 1.33807, 1.333, 1.32915, 1.32731, 1.32391, 1.32125, 1.31966, 1.31954, 1.45627, 1.32676, 1.32665, 1.32797, 1.32927, 1.32002, 1.31932, 1.43022, 1.33423, 1.30734, 1.30377, 1.29865, 1.29742, 1.29844, 1.2972, 1.29409, 1.29408, 1.29621, 1.299, 1.30205, 1.29614, 1.29374, 1.34979, 1.29823, 1.30171, 1.29382, 1.29457, 1.28529, 1.27637, 1.2741, 1.2648, 1.26146, 1.26035, 1.2616, 1.26558, 1.26877, 1.27339, 1.28172, 1.27635, 1.27576, 1.28124, 1.43918, 1.34481, 1.29328, 1.28592, 1.28463, 1.284, 1.40771, 1.42602, 1.41108, 1.26149, 1.26011
1.05882, 1.05873, 1.06151, 1.05586, 1.0546, 1.06756, 1.21798, 1.04499, 1.04496, 1.04375, 1.04453, 1.04498, 1.04777, 1.04811, 1.04767, 1.03961, 1.04013, 1.08525, 1.0331, 1.03372, 1.03332, 1.02819, 1.0265, 1.02623, 1.02667, 1.02046, 1.01919, 1.01793, 1.01771, 1.01706, 1.01713, 1.01666, 1.01682, 1.0178, 1.06396, 1.02972, 0.995442, 0.992198, 1.12189, 1.1096, 1.12343, 1.00603, 1.00537, 1.00337, 1.00098, 1.00056, 1.0009, 0.99997, 0.998707, 1.00006, 0.999562, 1.32015, 1.01638, 1.01644, 1.11782, 1.10219, 1.01371, 1.01481, 1.0082, 1.0084, 0.996287, 0.995591, 0.995741, 0.998434, 0.997509, 0.998176, 1.00042, 1.00267, 1.00682, 1.01084, 1.01093, 1.01148, 1.0162, 1.00571, 1.00185, 1.00059, 1.0021, 1.00111, 0.999157, 0.998284, 0.994881, 0.994138, 0.994459, 0.998284, 0.99918, 1.00006, 0.999743, 0.999803, 0.999886, 0.999885, 0.997648, 0.996287, 0.995983, 0.996163, 0.996184, 0.995525, 0.981147, 0.981295, 1.20777, 0.989176, 0.999529, 0.999104, 0.999226, 0.999396, 1.00023, 1.0021, 1.003, 1.00441, 1.00526, 1.00771, 1.35341, 1.04668, 1.03254, 1.0148, 1.01648, 1.02379, 1.02283, 1.04096, 1.03369, 1.03385, 1.03572, 1.11946, 1.11582, 1.04792, 1.04918, 1.04922, 1.04674, 1.04408, 1.04559, 1.04907, 1.04972, 1.05201, 1.0561, 1.16045, 1.0658, 1.07331, 1.18323, 1.28062, 1.17623, 1.17243, 1.28867, 1.33414, 1.21737, 1.20704, 1.41877, 1.16437, 1.16902, 1.17779, 1.20838, 1.20861, 1.2095, 1.21194, 1.22629, 1.22935, 1.4311, 1.43263, 1.41784, 1.32461, 1.32209, 1.30262, 1.26776, 1.26711, 1.27488, 1.32982, 1.28594, 1.29805, 1.29728, 1.53737, 1.30791, 1.35844, 1.31207, 1.3123, 1.33686, 1.31628, 1.31701, 1.38407, 1.36439, 1.31873, 1.50156, 1.50283, 1.33611, 1.33493, 1.34151, 1.34162, 2.05618, 2.05548, 2.05608, 1.36506, 1.36512, 1.35051, 1.34972, 1.34543, 1.34466, 1.35158, 1.36387, 1.36138, 1.36153, 1.36205, 1.3646, 1.36231, 1.36131, 1.35972, 1.35891, 1.44365, 1.65465, 1.3415, 1.3392, 1.33629, 1.33721, 1.34081, 1.33926, 1.33955, 1.33257, 1.32835, 1.32613, 1.32557, 1.32316, 1.32435, 1.32378, 1.32497, 1.32629, 1.32679, 1.32715, 1.32165, 1.32043, 1.45139, 1.33715, 1.53381, 1.33731, 1.29976, 1.29685, 1.29546, 1.29496, 1.29463, 1.29331, 1.29377, 1.29322, 1.29384, 1.43751, 1.29161, 1.29102, 1.30522, 1.29078, 1.29133, 1.29142, 1.27935, 1.27662, 1.27714, 1.26489, 1.26173, 1.2601, 1.26284, 1.26779, 1.26678, 1.41624, 1.27779, 1.27856, 1.27684, 1.2745, 1.27526, 1.28072, 1.30551, 1.28587, 1.28476, 1.28479, 1.39259, 1.5329, 1.42331, 1.28597, 1.25534
1.06218, 1.06373, 1.06445, 1.05989, 1.18076, 1.05151, 1.05113, 1.04939, 1.04589, 1.04627, 1.04863, 1.04743, 1.04803, 1.0479, 1.04475, 1.04134, 1.04113, 1.07706, 1.03413, 1.03428, 1.0349, 1.03264, 1.02839, 1.02746, 1.02644, 1.02005, 1.02021, 1.01789, 1.01933, 1.01919, 1.01872, 1.01959, 1.01806, 1.01813, 1.28577, 1.12915, 1.03353, 0.994124, 0.994334, 0.994382, 1.1085, 1.11148, 1.11314, 1.00107, 1.00188, 1.00153, 1.0009, 0.999546, 1.00045, 1.00122, 1.0012, 1.00093, 1.11655, 1.01613, 1.01515, 1.01179, 1.01275, 1.01306, 1.00991, 1.01022, 1.00576, 0.997119, 0.998115, 0.998347, 0.998197, 0.998855, 1.00012, 1.00167, 1.00456, 1.00893, 1.01022, 1.01094, 1.01209, 1.04309, 1.01791, 1.02281, 1.00651, 1.00588, 1.00366, 0.996972, 0.99669, 0.993619, 0.993297, 0.992808, 0.994818, 0.994464, 0.999264, 0.999931, 1.00036, 1.00309, 1.00812, 1.00689, 0.997909, 0.996445, 0.994765, 0.99436, 0.993479, 0.993433, 1.27454, 0.989068, 1.00043, 1.00099, 1.00139, 1.00222, 1.00272, 1.00289, 1.00433, 1.00447, 1.0053, 1.00687, 1.00984, 1.36171, 1.12451, 1.05297, 1.02336, 1.02399, 1.02426, 1.11741, 1.12822, 1.03459, 1.03526, 1.2094, 1.04054, 1.04853, 1.05016, 1.04972, 1.04987, 1.04469, 1.04443, 1.04898, 1.04715, 1.05123, 1.05193, 1.05977, 1.06176, 1.07128, 1.19169, 1.19151, 1.28399, 1.16378, 1.16787, 1.29575, 1.27947, 1.25168, 1.20514, 1.18077, 1.18588, 1.44781, 1.20432, 1.20321, 1.35551, 1.35865, 1.24935, 1.35584, 1.27228, 1.29134, 1.24397, 1.24668, 1.24934, 1.32077, 1.40312, 1.36081, 1.32566, 1.28051, 1.30086, 1.33774, 1.43468, 1.40959, 1.31239, 1.31338, 1.31457, 1.31829, 1.31775, 1.3197, 1.3222, 1.32153, 1.32067, 1.35751, 1.33299, 1.33681, 1.33725, 1.33657, 1.34079, 1.34122, 1.34312, 1.42378, 1.37991, 1.3677, 1.36656, 1.35101, 1.35124, 1.34782, 1.34757, 1.34937, 1.35396, 1.3543, 1.35292, 1.36865, 1.45087, 1.35529, 1.35608, 1.361, 1.35797, 1.36057, 1.46525, 1.34995, 1.34268, 1.34307, 1.34035, 1.34033, 1.34014, 1.33959, 1.33746, 1.33589, 1.33268, 1.32894, 1.32864, 1.32627, 1.3256, 1.32659, 1.32822, 1.32975, 1.32778, 1.32397, 1.33018, 1.38803, 1.43299, 1.46125, 1.45308, 1.34929, 1.2992, 1.29652, 1.29522, 1.29315, 1.28925, 1.2889, 1.28412, 1.28151, 1.28282, 1.29923, 1.28907, 1.35212, 1.28904, 1.28944, 1.28144, 1.27818, 1.27762, 1.28755, 1.26532, 1.26329, 1.26277, 1.26252, 1.26515, 1.26757, 1.32876, 1.41365, 1.27365, 1.27739, 1.27529, 1.27549, 1.27713, 1.27742, 1.29842, 1.28857, 1.39137, 1.4056, 1.40595, 1.26628, 1.26199, 1.25646
1.06489, 1.06674, 1.06534, 1.06394, 1.06081, 1.05383, 1.05361, 1.05357, 1.04743, 1.04737, 1.04727, 1.04779, 1.0484, 1.04775, 1.04717, 1.04548, 1.04372, 1.1223, 1.03366, 1.03331, 1.03313, 1.033, 1.02755, 1.02881, 1.02861, 1.02882, 1.02169, 1.02088, 1.01947, 1.02163, 1.02042, 1.0195, 1.01898, 1.05864, 1.02983, 1.03412, 1.03283, 0.996464, 0.99577, 0.996144, 0.996603, 1.10243, 1.10818, 1.03955, 1.00191, 1.00453, 1.00242, 1.00105, 1.00032, 1.00059, 0.99947, 1.00092, 1.0028, 1.00232, 1.03367, 1.00947, 1.005, 1.00566, 1.28857, 1.01017, 1.00415, 1.00246, 1.00223, 1.00137, 1.00303, 1.00434, 1.00228, 1.00344, 1.00408, 1.00493, 1.00781, 1.12269, 1.18113, 1.01562, 1.0477, 1.0169, 1.30479, 1.03546, 1.00566, 0.996586, 0.997281, 1.04025, 0.993398, 0.994194, 0.994265, 0.99755, 0.997712, 1.00057, 1.00097, 1.00481, 1.00565, 1.00503, 1.00492, 0.999272, 0.996751, 0.994226, 0.993994, 0.994224, 1.00426, 0.999821, 1.00202, 1.00347, 1.0045, 1.00413, 1.00683, 1.0065, 1.0077, 1.00688, 1.00826, 1.00857, 1.01031, 1.01396, 1.15073, 1.02938, 1.0236, 1.02542, 1.02541, 1.02678, 1.12166, 1.17499, 1.03572, 1.03885, 1.0428, 1.04338, 1.04443, 1.05077, 1.05194, 1.04503, 1.04374, 1.19698, 1.04556, 1.05289, 1.05209, 1.05402, 1.18504, 1.06748, 1.06907, 1.07023, 1.28441, 1.29419, 1.122, 1.17319, 1.30191, 1.22383, 1.23843, 1.18129, 1.45814, 1.32897, 1.28763, 1.33382, 1.22542, 1.28231, 1.25244, 1.26308, 1.23592, 1.24698, 1.24036, 1.24613, 1.42819, 1.30965, 1.26452, 1.35367, 1.27054, 1.28602, 1.31044, 1.44996, 1.31955, 1.31902, 1.31489, 1.31667, 1.31623, 1.31618, 1.31918, 1.33219, 1.32453, 1.32603, 1.32801, 1.52896, 1.33555, 1.33511, 1.33757, 1.33716, 1.3361, 1.33946, 1.34358, 1.34279, 1.3923, 1.46452, 1.43162, 1.3523, 1.35028, 1.34832, 1.34666, 1.34886, 1.35226, 1.35368, 1.35377, 1.35353, 1.35539, 1.35737, 1.35796, 1.35813, 1.35888, 1.35771, 1.43766, 1.34744, 1.34423, 1.3434, 1.33457, 1.33756, 1.34034, 1.33989, 1.33841, 1.33668, 1.33414, 1.3292, 1.3295, 1.32685, 1.32765, 1.32728, 1.33256, 1.32992, 1.32584, 1.32242, 1.33003, 1.32972, 1.33013, 1.32656, 1.32089, 1.31365, 1.30991, 1.30917, 1.30843, 1.29336, 1.28447, 1.28537, 1.28424, 1.28341, 1.28433, 1.28205, 1.43333, 1.28738, 1.28898, 1.28837, 1.32055, 1.27914, 1.27367, 1.31056, 1.31111, 1.26127, 1.2641, 1.26467, 1.26462, 1.26576, 1.26856, 1.2701, 1.2721, 1.27165, 1.27456, 1.27715, 1.37635, 1.29544, 1.40928, 1.27337, 1.27508, 1.32654, 1.26838, 1.26725, 1.25935, 1.25809
1.06665, 1.06575, 1.06599, 1.06444, 1.06437, 1.19961, 1.05366, 1.05071, 1.04943, 1.04744, 1.04828, 1.04997, 1.04917, 1.0477, 1.04789, 1.04825, 1.04945, 1.07094, 1.30682, 1.06321, 1.06448, 1.02843, 1.02783, 1.02863, 1.02856, 1.0282, 1.02868, 1.02189, 1.02178, 1.02036, 1.02044, 1.01852, 1.01828, 1.01598, 1.04334, 1.28105, 1.0328, 1.03232, 0.996442, 0.996123, 0.996717, 1.02517, 1.10839, 1.10842, 1.00066, 1.00365, 1.00199, 1.00073, 1.00007, 0.998441, 0.999235, 1.00154, 1.00127, 1.00411, 1.00598, 1.00776, 1.00638, 1.0068, 1.00527, 1.00472, 1.00513, 1.00445, 1.00387, 1.004, 1.00357, 1.00318, 1.00394, 1.00506, 1.00682, 1.00583, 1.00777, 1.00674, 1.11784, 1.11628, 1.01861, 1.03368, 1.03222, 1.03291, 1.03272, 1.05075, 1.21263, 1.00804, 1.00322, 1.00121, 1.04617, 1.00035, 0.998962, 1.00013, 1.00123, 1.00138, 1.00145, 1.00346, 1.00318, 1.00317, 1.00386, 0.998629, 0.99746, 0.999353, 1.00047, 1.00075, 1.00826, 1.0078, 1.00806, 1.00802, 1.00797, 1.0078, 1.00631, 1.00549, 1.00896, 1.00927, 1.01066, 1.01273, 1.016, 1.13352, 1.02585, 1.02481, 1.02493, 1.02592, 1.13527, 1.25221, 1.03635, 1.03924, 1.04333, 1.04403, 1.04443, 1.05089, 1.05265, 1.0529, 1.0412, 1.0424, 1.04574, 1.04444, 1.04604, 1.07756, 1.06009, 1.24708, 1.06758, 1.1718, 1.16418, 1.18472, 1.1751, 1.16422, 1.18496, 1.20248, 1.25843, 1.18103, 1.18052, 1.44884, 1.19206, 1.48273, 1.50988, 1.19905, 1.34803, 1.30973, 1.24336, 1.40561, 1.24134, 1.28488, 1.42838, 1.3309, 1.37386, 1.29189, 1.27758, 1.28261, 1.28794, 1.30572, 1.3088, 1.31976, 1.31585, 1.31706, 1.31763, 1.31794, 1.32016, 1.32077, 1.32574, 1.3704, 1.32937, 1.3291, 1.33682, 1.33632, 1.33598, 1.33526, 1.33702, 1.34015, 1.37099, 1.42438, 1.34306, 1.40952, 1.59687, 1.37916, 1.34842, 1.3524, 1.35116, 1.34995, 1.353, 1.35169, 1.35547, 1.35441, 1.35482, 1.36021, 1.35804, 1.35838, 1.35938, 1.35656, 1.35437, 1.34822, 1.34616, 1.34415, 1.33656, 1.3356, 1.33893, 1.33945, 1.33648, 1.33531, 1.33637, 1.33004, 1.35349, 1.32512, 1.32448, 1.32562, 1.32773, 1.32787, 1.32297, 1.32109, 1.31876, 1.49172, 1.3183, 1.32802, 1.31711, 1.52298, 1.31177, 1.30876, 1.30858, 1.60193, 1.2886, 1.28611, 1.28602, 1.28524, 1.28248, 1.28107, 1.2805, 1.28189, 1.28757, 1.28914, 1.29052, 1.43771, 1.33605, 1.28556, 1.28414, 1.25595, 1.256, 1.39338, 1.32153, 1.42365, 1.26655, 1.2666, 1.26908, 1.26998, 1.27158, 1.26892, 1.26705, 1.3095, 1.28909, 1.27434, 1.27451, 1.39659, 1.39926, 1.39866, 1.39963, 1.25907
1.06666, 1.06702, 1.06723, 1.06423, 1.06455, 1.16099, 1.04964, 1.05045, 1.05094, 1.05043, 1.0502, 1.05265, 1.05176, 1.05195, 1.04935, 1.04945, 1.04913, 1.04847, 1.06183, 1.06238, 1.33987, 1.33923, 1.02919, 1.02844, 1.02944, 1.02921, 1.0288, 1.0236, 1.02144, 1.0214, 1.01852, 1.01809, 1.01733, 1.01783, 1.28335, 1.02939, 1.02961, 1.03247, 1.02763, 1.02602, 1.10477, 1.09956, 1.08861, 1.13668, 1.02092, 1.00404, 1.00177, 1.00137, 1.00212, 1.00102, 1.00084, 1.00213, 1.00197, 1.00357, 1.00674, 1.00756, 1.00775, 1.00751, 1.00733, 1.00692, 1.00589, 1.00452, 1.00216, 1.0057, 1.00517, 1.0047, 1.00421, 1.00457, 1.00682, 1.00876, 1.00691, 1.00857, 1.12141, 1.13275, 1.22946, 1.03647, 1.0358, 1.03137, 1.02752, 1.02255, 1.01305, 1.01405, 1.0145, 1.02174, 1.01193, 1.00314, 1.00291, 1.0016, 1.00114, 1.00254, 1.00316, 1.00403, 1.00327, 1.00216, 1.00367, 1.00579, 1.00514, 1.00523, 1.00383, 1.00844, 1.01165, 1.00808, 1.00943, 1.00519, 1.00636, 1.00804, 1.00932, 1.01188, 1.01108, 1.01118, 1.01322, 1.01522, 1.01702, 1.01916, 1.02582, 1.02581, 1.0287, 1.02844, 1.02971, 1.10965, 1.03776, 1.03774, 1.03913, 1.04477, 1.11985, 1.05357, 1.05276, 1.05258, 1.20249, 1.03902, 1.04334, 1.04407, 1.04468, 1.04443, 1.24222, 1.06115, 1.06486, 1.19562, 1.1987, 1.16391, 1.11523, 1.40854, 1.13896, 1.13888, 1.18177, 1.26421, 1.21566, 1.18459, 1.19525, 1.20532, 1.19283, 1.46612, 1.36437, 1.26342, 1.2675, 1.27901, 1.24354, 1.32758, 1.32949, 1.25537, 1.3231, 1.43065, 1.28758, 1.28367, 1.28521, 1.29831, 1.30337, 1.47282, 1.31826, 1.31746, 1.31857, 1.31878, 1.31938, 1.31913, 1.34158, 1.34092, 1.33192, 1.32923, 1.33119, 1.33444, 1.33423, 1.33354, 1.3319, 1.33195, 1.33022, 1.3989, 1.35543, 1.37208, 1.35528, 1.59644, 1.34696, 1.35375, 1.35222, 1.34972, 1.34872, 1.35053, 1.35625, 1.35514, 1.35395, 1.35758, 1.3576, 1.35771, 1.35739, 1.35305, 1.35284, 1.4422, 1.3441, 1.34287, 1.33966, 1.33832, 1.33855, 1.3348, 1.33453, 1.33617, 1.39311, 1.35345, 1.3256, 1.31977, 1.32393, 1.32139, 1.32148, 1.32252, 1.31982, 1.31594, 1.31615, 1.44445, 1.44629, 1.44809, 1.46101, 1.52638, 1.29142, 1.28992, 1.46497, 1.30336, 1.30299, 1.28658, 1.28575, 1.28539, 1.28193, 1.28174, 1.28045, 1.28212, 1.28694, 1.29409, 1.2938, 1.29038, 1.31362, 1.31302, 1.35312, 1.25786, 1.25633, 1.30739, 1.48194, 1.42378, 1.41997, 1.26354, 1.26702, 1.26896, 1.27034, 1.26981, 1.26976, 1.26827, 1.37048, 1.29842, 1.27934, 1.26157, 1.39858, 1.39972, 1.26108, 1.26398
1.06993, 1.06869, 1.06818, 1.0673, 1.06776, 1.1713, 1.07742, 1.05201, 1.0527, 1.05424, 1.05617, 1.05298, 1.05312, 1.05255, 1.05315, 1.04916, 1.04909, 1.04753, 1.04789, 1.20021, 1.31823, 1.16874, 1.02921, 1.02869, 1.02834, 1.02963, 1.02945, 1.02262, 1.01954, 1.01832, 1.01723, 1.01585, 1.0157, 1.0158, 1.01644, 1.03273, 1.34072, 1.10789, 1.31195, 1.11415, 1.10523, 1.02242, 1.08957, 1.01597, 1.01007, 1.00906, 1.00758, 1.00444, 1.00176, 1.00252, 1.00221, 1.00255, 1.0028, 1.00351, 1.00636, 1.00665, 1.00779, 1.00637, 1.00676, 1.00756, 1.00593, 1.00813, 1.0083, 1.0049, 1.00627, 1.0066, 1.00423, 1.00579, 1.00805, 1.00961, 1.01754, 1.01561, 1.11896, 1.11643, 1.12902, 1.02564, 1.02673, 1.02676, 1.02558, 1.02483, 1.01532, 1.01373, 1.01389, 1.01233, 1.00843, 1.00658, 1.00258, 1.00198, 1.00137, 1.00078, 1.00336, 1.00403, 1.00847, 1.00985, 1.00941, 1.00721, 1.008, 1.00906, 1.00927, 1.01143, 1.00984, 1.00972, 1.00918, 1.00898, 1.00555, 1.00745, 1.01023, 1.01146, 1.01194, 1.01196, 1.01454, 1.01858, 1.01802, 1.01891, 1.02245, 1.02505, 1.02842, 1.02836, 1.03152, 1.0325, 1.03733, 1.03644, 1.03952, 1.04306, 1.04613, 1.05068, 1.05218, 1.05029, 1.07149, 1.04037, 1.04004, 1.04464, 1.04504, 1.04577, 1.04636, 1.0595, 1.08045, 1.07493, 1.07416, 1.07541, 1.07696, 1.17701, 1.18256, 1.16655, 1.21216, 1.24781, 1.25968, 1.28824, 1.28827, 1.3021, 1.1889, 1.24627, 1.23995, 1.40944, 1.26806, 1.30032, 1.4476, 1.25015, 1.25076, 1.25326, 1.26754, 1.29612, 1.2899, 1.30591, 1.28828, 1.34074, 1.32289, 1.31959, 1.31609, 1.3202, 1.32029, 1.321, 1.32237, 1.3226, 1.34148, 1.34118, 1.33009, 1.32927, 1.32654, 1.32699, 1.3327, 1.33329, 1.33257, 1.33231, 1.33248, 1.4022, 1.392, 1.39106, 1.42001, 1.34523, 1.34519, 1.35777, 1.37174, 1.34856, 1.34499, 1.48859, 1.42168, 1.35214, 1.35727, 1.35518, 1.35822, 1.35613, 1.35391, 1.35167, 1.34974, 1.3493, 1.38473, 1.34174, 1.341, 1.33367, 1.33498, 1.33421, 1.33465, 1.38123, 1.73814, 1.38288, 1.31957, 1.31979, 1.31904, 1.31922, 1.31652, 1.31319, 1.31355, 1.31542, 1.40571, 1.30329, 1.30285, 1.43718, 1.31915, 1.46558, 1.28797, 1.2882, 1.28814, 1.49203, 1.40965, 1.31078, 1.2858, 1.28469, 1.28436, 1.27744, 1.2786, 1.28664, 1.28639, 1.29534, 1.2946, 1.28844, 1.33094, 1.3102, 1.42582, 1.25707, 1.30817, 1.25006, 1.24821, 1.31733, 1.31547, 1.32338, 1.32574, 1.33457, 1.27125, 1.27032, 1.26918, 1.26767, 1.26887, 1.2746, 1.2765, 1.2674, 1.26251, 1.29624, 1.26253, 1.26162
1.0699, 1.07027, 1.07009, 1.06868, 1.06677, 1.06669, 1.08089, 1.0528, 1.05284, 1.05479, 1.05522, 1.0532, 1.0527, 1.054, 1.05465, 1.05048, 1.0494, 1.04817, 1.04718, 1.0467, 1.04633, 1.21986, 1.06539, 1.06203, 1.02929, 1.02785, 1.02513, 1.01945, 1.01842, 1.01672, 1.0171, 1.01666, 1.01682, 1.01716, 1.01916, 1.01893, 1.01947, 1.33025, 1.01402, 1.01493, 1.01518, 1.01298, 1.01157, 1.01184, 1.01091, 1.01027, 1.00745, 1.0076, 1.00596, 1.00447, 1.0031, 1.00208, 1.00199, 1.00178, 1.00622, 1.00582, 1.00702, 1.00728, 1.00766, 1.00804, 1.00696, 1.00788, 1.00981, 1.00954, 1.00809, 1.00757, 1.0076, 1.00775, 1.0072, 1.00891, 1.01487, 1.01634, 1.01842, 1.0181, 1.09345, 1.02723, 1.02812, 1.02733, 1.02569, 1.0223, 1.01873, 1.0147, 1.01475, 1.01382, 1.01398, 1.01214, 1.1294, 1.00147, 0.999891, 0.99984, 1.00204, 1.00324, 1.00597, 1.2989, 1.0725, 1.01465, 1.01455, 1.0132, 1.01399, 1.01296, 1.01116, 1.01109, 1.01031, 1.0098, 1.01127, 1.01117, 1.01195, 1.014, 1.01455, 1.01473, 1.0156, 1.01547, 1.01803, 1.01956, 1.02119, 1.02508, 1.02689, 1.02724, 1.03015, 1.03091, 1.03594, 1.0381, 1.04065, 1.04115, 1.04568, 1.04651, 1.04743, 1.04699, 1.04697, 1.04359, 1.04065, 1.04216, 1.04503, 1.0457, 1.04579, 1.30061, 1.24414, 1.11576, 1.07665, 1.0765, 1.07697, 1.12518, 1.31237, 1.13701, 1.1702, 1.23053, 1.25402, 1.25699, 1.19442, 1.19618, 1.19172, 1.19472, 1.21073, 1.21867, 1.25742, 1.25082, 1.42741, 1.34334, 1.32665, 1.25828, 1.49472, 1.26809, 1.33887, 1.28919, 1.28429, 1.30158, 1.32008, 1.41663, 1.31975, 1.3143, 1.32201, 1.32337, 1.32292, 1.47075, 1.33844, 1.3367, 1.32959, 1.32888, 1.32862, 1.32674, 1.3263, 1.33368, 1.333, 1.33276, 1.33314, 1.42144, 1.41751, 1.42717, 1.44022, 1.34054, 1.34056, 1.37191, 1.3396, 1.3706, 1.48198, 1.46999, 1.52486, 1.34765, 1.35168, 1.34983, 1.35631, 1.35251, 1.34941, 1.34881, 1.349, 1.34566, 1.34676, 1.33536, 1.33349, 1.33446, 1.33272, 1.33362, 1.34388, 1.34971, 1.35073, 1.44079, 1.32166, 1.32211, 1.32191, 1.31545, 1.31438, 1.31346, 1.31516, 1.37921, 1.60995, 1.30468, 1.37158, 1.4438, 1.49976, 1.50257, 1.3231, 1.28089, 1.28116, 1.41634, 1.82523, 1.27802, 1.28499, 1.44786, 1.28068, 1.27891, 1.27807, 1.29618, 1.41398, 1.30959, 1.35723, 1.37758, 1.3384, 1.32866, 1.30411, 1.25131, 1.24976, 1.24699, 1.24613, 1.24719, 1.25004, 1.25227, 1.37473, 1.26012, 1.26713, 1.27083, 1.27029, 1.26876, 1.26942, 1.26867, 1.26662, 1.26488, 1.26461, 1.26353, 1.26357, 1.26227
1.07267, 1.07124, 1.07198, 1.06955, 1.06859, 1.07056, 1.36633, 1.08035, 1.05393, 1.05644, 1.05657, 1.05516, 1.05645, 1.05659, 1.05712, 1.05101, 1.05029, 1.04744, 1.04714, 1.04636, 1.04455, 1.03954, 1.03674, 1.06636, 1.10604, 1.06759, 1.03671, 1.02064, 1.0193, 1.01863, 1.0181, 1.01397, 1.01668, 1.01807, 1.01798, 1.01692, 1.0157, 1.01496, 1.01513, 1.01344, 1.01341, 1.01345, 1.01438, 1.0147, 1.01188, 1.0117, 1.00949, 1.00779, 1.00605, 1.00542, 1.00511, 1.00384, 1.00333, 1.00268, 1.00497, 1.00497, 1.00586, 1.0071, 1.00851, 1.00786, 1.00814, 1.00806, 1.00887, 1.01137, 1.01487, 1.01481, 1.00908, 1.00854, 1.00816, 1.00827, 1.01678, 1.01798, 1.01714, 1.01799, 1.02291, 1.02576, 1.0266, 1.02674, 1.02527, 1.02225, 1.02197, 1.01741, 1.0145, 1.01457, 1.01363, 1.014, 1.11988, 1.11555, 1.00066, 1.0012, 1.00429, 1.00306, 1.00502, 1.29815, 1.01321, 1.09844, 1.01786, 1.01176, 1.01226, 1.01281, 1.01249, 1.01229, 1.00843, 1.00874, 1.00985, 1.01105, 1.02185, 1.0153, 1.01464, 1.01457, 1.01483, 1.01459, 1.01467, 1.01982, 1.02069, 1.02277, 1.02495, 1.02759, 1.02913, 1.03186, 1.0333, 1.03545, 1.0402, 1.04361, 1.0437, 1.0447, 1.04566, 1.04599, 1.04611, 1.04618, 1.04285, 1.04209, 1.04434, 1.12182, 1.04905, 1.04936, 1.05934, 1.07111, 1.07744, 1.07684, 1.07732, 1.22405, 1.13346, 1.30861, 1.47849, 1.3498, 1.21205, 1.20989, 1.26018, 1.20141, 1.20114, 1.20277, 1.20643, 1.22167, 1.25397, 1.2298, 1.25108, 1.32264, 1.32155, 1.25742, 1.25805, 1.49177, 1.29157, 1.27937, 1.28122, 1.28626, 1.28866, 1.31052, 1.31577, 1.31577, 1.32217, 1.32084, 1.32302, 1.32794, 1.32679, 1.33378, 1.32934, 1.32721, 1.33721, 1.32705, 1.32734, 1.32286, 1.33051, 1.36778, 1.32897, 1.32146, 1.32335, 1.38413, 1.41404, 1.33939, 1.41262, 1.33781, 1.33698, 1.36452, 1.337, 1.33503, 1.55404, 1.46391, 1.3408, 1.34754, 1.38561, 1.35245, 1.34788, 1.34416, 1.34669, 1.3441, 1.34276, 1.33705, 1.33442, 1.33374, 1.33441, 1.33688, 1.35354, 1.37195, 1.30292, 1.36186, 1.42257, 1.31611, 1.31303, 1.3125, 1.31136, 1.30978, 1.30873, 1.39161, 1.36069, 1.30111, 1.29753, 1.29605, 1.49931, 1.46847, 1.30593, 1.45375, 1.2735, 1.27187, 1.27335, 1.27507, 1.27495, 1.44988, 1.39155, 1.36552, 1.49967, 1.41571, 1.38224, 1.36891, 1.36397, 1.40598, 1.33033, 1.33686, 1.32324, 1.25154, 1.24696, 1.24457, 1.24491, 1.24601, 1.24742, 1.25063, 1.25344, 1.26158, 1.35393, 1.27288, 1.27135, 1.26853, 1.26731, 1.26718, 1.27005, 1.26109, 1.26329, 1.26392, 1.26379, 1.26316
1.07416, 1.0734, 1.07177, 1.07033, 1.06991, 1.06985, 1.07773, 1.07813, 1.05466, 1.05599, 1.05832, 1.06014, 1.05921, 1.05619, 1.05634, 1.05109, 1.04954, 1.04973, 1.04819, 1.04475, 1.04331, 1.03898, 1.03697, 1.03476, 1.03268, 1.03099, 1.14966, 1.17884, 1.02168, 1.02111, 1.02159, 1.01857, 1.01667, 1.01734, 1.01819, 1.01609, 1.01332, 1.0149, 1.01542, 1.01434, 1.01425, 1.01392, 1.01458, 1.01531, 1.01569, 1.01562, 1.01502, 1.00684, 1.00634, 1.00731, 1.00545, 1.00582, 1.00403, 1.00428, 1.00458, 1.00456, 1.00739, 1.00776, 1.00802, 1.00817, 1.00832, 1.01032, 1.01119, 1.01596, 1.01472, 1.01411, 1.00832, 1.00817, 1.01006, 1.01061, 1.01076, 1.01773, 1.01802, 1.01856, 1.01894, 1.02491, 1.02537, 1.02638, 1.02237, 1.01979, 1.02114, 1.01539, 1.01624, 1.01354, 1.01218, 1.01309, 1.18151, 1.02572, 1.00692, 1.00549, 1.00432, 1.00194, 1.00235, 1.00488, 1.00806, 1.07179, 1.10155, 1.01418, 1.01145, 1.01286, 0.997729, 1.00102, 1.00471, 1.00615, 1.00988, 1.01107, 1.01329, 1.015, 1.01531, 1.01294, 1.01441, 1.01618, 1.01685, 1.0187, 1.02067, 1.02138, 1.02328, 1.02143, 1.02753, 1.03089, 1.03197, 1.03285, 1.03665, 1.04696, 1.04289, 1.04634, 1.04593, 1.04514, 1.04521, 1.04758, 1.04523, 1.04217, 1.28957, 1.26191, 1.05239, 1.05546, 1.06343, 1.06596, 1.07127, 1.29735, 1.16044, 1.11444, 1.34684, 1.18392, 1.18339, 1.18508, 1.20562, 1.20433, 1.21204, 1.20401, 1.20298, 1.2033, 1.20652, 1.20812, 1.21994, 1.22586, 1.25587, 1.24321, 1.32417, 1.25667, 1.25634, 1.49254, 1.28604, 1.31196, 1.28405, 1.29008, 1.28889, 1.29516, 1.30689, 1.31508, 1.3126, 1.32102, 1.32076, 1.32355, 1.32442, 1.33119, 1.33035, 1.32897, 1.32968, 1.32635, 1.32482, 1.32422, 1.32481, 1.32393, 1.32377, 1.32235, 1.32212, 1.32759, 1.51578, 1.4306, 1.41158, 1.42617, 1.4208, 1.42034, 1.44857, 1.33685, 1.93394, 1.44808, 1.43095, 1.33538, 1.33595, 1.34991, 1.3513, 1.34362, 1.34445, 1.3429, 1.33958, 1.33797, 1.33535, 1.33462, 1.33414, 1.36081, 1.31938, 1.31868, 1.30355, 1.31345, 1.30111, 1.31241, 1.30245, 1.31194, 1.3018, 1.30004, 1.30169, 1.36497, 1.371, 1.37779, 1.29728, 1.29571, 1.32877, 1.52717, 1.44423, 1.31226, 1.27424, 1.27343, 1.26939, 1.26959, 1.26932, 1.27026, 1.2683, 1.26678, 1.27575, 1.39987, 1.43828, 1.35083, 1.40716, 1.40532, 1.33981, 1.32673, 1.32513, 1.36479, 1.354, 1.24635, 1.24508, 1.24674, 1.24775, 1.25344, 1.25328, 1.2759, 1.29101, 1.40934, 1.46657, 1.36042, 1.26554, 1.26335, 1.26217, 1.25998, 1.26089, 1.26176, 1.26694, 1.3093
1.07585, 1.07515, 1.07331, 1.07397, 1.07087, 1.07068, 1.07101, 1.08235, 1.08089, 1.05616, 1.0583, 1.05966, 1.05962, 1.06041, 1.07045, 1.05039, 1.05026, 1.05129, 1.05294, 1.0433, 1.06314, 1.03914, 1.03904, 1.03977, 1.03685, 1.32259, 1.14458, 1.04438, 1.04344, 1.02245, 1.02173, 1.02176, 1.02156, 1.01808, 1.01723, 1.0147, 1.0129, 1.01332, 1.01375, 1.01324, 1.01226, 1.01351, 1.01513, 1.01474, 1.01571, 1.01712, 1.01623, 1.01054, 1.00799, 1.00666, 1.00903, 1.01048, 1.00651, 1.0067, 1.00613, 1.01136, 1.01121, 1.00919, 1.01062, 1.01064, 1.01019, 1.01493, 1.01485, 1.01499, 1.01619, 1.01584, 1.00789, 1.0081, 1.00808, 1.00854, 1.01087, 1.01418, 1.01737, 1.01997, 1.02021, 1.10594, 1.10739, 1.02215, 1.02352, 1.02083, 1.01948, 1.0223, 1.01909, 1.01223, 1.01245, 1.01133, 1.01128, 1.01082, 1.00718, 1.00647, 1.04027, 1.00281, 1.00207, 1.00528, 1.00568, 1.07135, 1.07796, 1.12659, 1.09772, 1.00876, 0.999735, 1.00077, 1.00209, 1.00705, 1.00817, 1.00994, 1.01162, 1.01361, 1.01467, 1.01609, 1.01598, 1.01685, 1.0165, 1.01731, 1.02123, 1.02301, 1.02188, 1.02067, 1.02798, 1.02937, 1.03038, 1.03219, 1.03885, 1.04849, 1.04433, 1.04561, 1.0461, 1.04581, 1.04601, 1.04934, 1.05039, 1.29422, 1.08727, 1.08807, 1.05434, 1.0563, 1.06005, 1.06756, 1.07264, 1.07449, 1.07863, 1.08191, 1.08764, 1.08926, 1.30907, 1.17374, 1.17156, 1.20278, 1.24953, 1.40537, 1.20109, 1.20592, 1.20694, 1.20748, 1.35457, 1.40635, 1.25081, 1.24003, 1.25403, 1.33031, 1.25737, 1.32579, 1.3192, 1.27587, 1.27749, 1.27912, 1.28497, 1.29227, 1.36603, 1.31119, 1.3205, 1.32105, 1.32045, 1.31988, 1.32341, 1.39206, 1.326, 1.32905, 1.47869, 1.47532, 1.32317, 1.32444, 1.43752, 1.33102, 1.31994, 1.3167, 1.31678, 1.61052, 1.31703, 1.46516, 1.43834, 1.32406, 1.32253, 1.31866, 1.32071, 1.32469, 1.32609, 1.32957, 1.32953, 1.34689, 1.33184, 1.34995, 1.42335, 1.34689, 1.34454, 1.34038, 1.33927, 1.33874, 1.33477, 1.33227, 1.31942, 1.31871, 1.30674, 1.30843, 1.30536, 1.30597, 1.30551, 1.30414, 1.30267, 1.30367, 1.30432, 1.30098, 1.29928, 1.2969, 1.35716, 1.30633, 1.36787, 1.29409, 1.33668, 1.34017, 1.30979, 1.29581, 1.27435, 1.2728, 1.27108, 1.2708, 1.26962, 1.26957, 1.26972, 1.26747, 1.34169, 1.33347, 1.32233, 1.32118, 1.40585, 1.39233, 1.39793, 1.32403, 1.27136, 1.33715, 1.2504, 1.24854, 1.24793, 1.4117, 1.40755, 1.40505, 1.26475, 1.25282, 1.29064, 1.25012, 1.36359, 1.35655, 1.36359, 1.26471, 1.26388, 1.26159, 1.26161, 1.26433, 1.27889, 1.29261
1.08253, 1.07809, 1.07726, 1.07489, 1.07081, 1.07063, 1.06809, 1.06713, 1.18525, 1.05653, 1.05679, 1.06124, 1.06118, 1.06131, 1.07045, 1.11834, 1.05043, 1.05153, 1.05602, 1.04297, 1.04089, 1.04009, 1.0403, 1.03998, 1.0393, 1.03743, 1.2931, 1.0476, 1.23325, 1.04623, 1.02337, 1.02519, 1.02241, 1.01944, 1.01705, 1.01684, 1.01495, 1.01558, 1.01447, 1.01404, 1.01267, 1.01335, 1.01399, 1.01368, 1.01502, 1.01601, 1.01558, 1.01569, 1.01205, 1.01167, 1.01147, 1.01119, 1.01016, 1.00583, 1.00677, 1.0114, 1.01148, 1.01534, 1.01674, 1.01492, 1.01484, 1.01602, 1.01632, 1.01638, 1.01694, 1.01888, 1.00962, 1.00706, 1.00698, 1.01161, 1.01249, 1.01519, 1.01504, 1.01728, 1.0194, 1.01979, 1.24805, 1.02185, 1.02321, 1.02472, 1.02128, 1.0211, 1.0201, 1.01826, 1.01244, 1.01154, 1.01119, 1.01135, 1.27838, 1.16542, 1.16388, 1.0053, 1.00452, 1.00516, 1.00514, 1.0052, 1.05302, 1.10143, 1.14222, 1.03279, 1.00412, 1.00445, 1.00673, 1.00761, 1.00859, 1.01087, 1.01146, 1.01169, 1.01347, 1.01533, 1.01582, 1.01684, 1.01697, 1.0175, 1.01905, 1.02288, 1.0225, 1.02057, 1.02228, 1.02893, 1.02974, 1.03171, 1.03328, 1.03638, 1.10837, 1.0445, 1.04493, 1.04373, 1.04639, 1.04923, 1.05125, 1.37121, 1.08417, 1.20341, 1.05537, 1.059, 1.05993, 1.07119, 1.07054, 1.16435, 1.30262, 1.18923, 1.08835, 1.31257, 1.13499, 1.30938, 1.17504, 1.28769, 1.14167, 1.20526, 1.20007, 1.19881, 1.20692, 1.20443, 1.21039, 1.21295, 1.42743, 1.25889, 1.38447, 1.41712, 1.42013, 1.40829, 1.3228, 1.30176, 1.26917, 1.27796, 1.27504, 1.40655, 1.60882, 1.39622, 1.57802, 1.31418, 1.32411, 1.53637, 1.40589, 1.31968, 1.32634, 1.47374, 1.34307, 1.47677, 1.37013, 1.32636, 1.3258, 1.42406, 1.31346, 1.31323, 1.31237, 1.31524, 1.31395, 1.52638, 1.44047, 1.3243, 1.32208, 1.3199, 1.32062, 1.32311, 1.32609, 1.33414, 1.3337, 1.32968, 1.33217, 1.33253, 1.33126, 1.34777, 1.34128, 1.34524, 1.35855, 1.33441, 1.33146, 1.3282, 1.34523, 1.31642, 1.30882, 1.30841, 1.30681, 1.30614, 1.30565, 1.3054, 1.30492, 1.30519, 1.30512, 1.30232, 1.30151, 1.30156, 1.30175, 1.35774, 1.36057, 1.2938, 1.37427, 1.30182, 1.29724, 1.44453, 1.27838, 1.43925, 1.35843, 1.42191, 1.41886, 1.26696, 1.2667, 1.26728, 1.45529, 1.33699, 1.32312, 1.32208, 1.39693, 1.29395, 1.29503, 1.33302, 1.31366, 1.31336, 1.25351, 1.34897, 1.35263, 1.23625, 1.23945, 1.25738, 1.29503, 1.24986, 1.39937, 1.24894, 1.25178, 1.34413, 1.27424, 1.27849, 1.26382, 1.26345, 1.26622, 1.26569, 1.27039, 1.27034
1.082, 1.08188, 1.07955, 1.07648, 1.07563, 1.07054, 1.06949, 1.07019, 1.33315, 1.33227, 1.32324, 1.06366, 1.06352, 1.05995, 1.05813, 1.06861, 1.05034, 1.0485, 1.04276, 1.05324, 1.05372, 1.05253, 1.2162, 1.19014, 1.04218, 1.03899, 1.15329, 1.05165, 1.05481, 1.04984, 1.02496, 1.02421, 1.02487, 1.02378, 1.02136, 1.01614, 1.01621, 1.01538, 1.01563, 1.0135, 1.01303, 1.01311, 1.01493, 1.01446, 1.01489, 1.01495, 1.01588, 1.01668, 1.01498, 1.01507, 1.01269, 1.01211, 1.01259, 1.0229, 1.01492, 1.01353, 1.01208, 1.01439, 1.01528, 1.01809, 1.01891, 1.01682, 1.01645, 1.01536, 1.01491, 1.01231, 1.01108, 1.01098, 1.00971, 1.0077, 1.01272, 1.01492, 1.01401, 1.00848, 1.01596, 1.0158, 1.01694, 1.02225, 1.024, 1.02504, 1.02466, 1.02042, 1.01942, 1.01732, 1.01611, 1.01251, 1.01264, 1.0112, 1.09011, 1.00762, 1.00742, 1.00702, 1.00684, 1.00608, 1.0049, 1.00551, 1.07688, 1.28768, 1.13743, 1.03346, 1.04051, 1.00689, 1.0089, 1.00682, 1.00894, 1.01047, 1.01164, 1.01216, 1.01145, 1.01354, 1.015, 1.01569, 1.01729, 1.01804, 1.01873, 1.02133, 1.02184, 1.02113, 1.12087, 1.06724, 1.02973, 1.03025, 1.03381, 1.0339, 1.12255, 1.09863, 1.04107, 1.04295, 1.04429, 1.0489, 1.04967, 1.05086, 1.04735, 1.09855, 1.05778, 1.05717, 1.0592, 1.31523, 1.07057, 1.07341, 1.16552, 1.18837, 1.09769, 1.30745, 1.22542, 1.32682, 1.17485, 1.29137, 1.24878, 1.23022, 1.2023, 1.19477, 1.20509, 1.20465, 1.19957, 1.21928, 1.42018, 1.26114, 1.41902, 1.41771, 1.2547, 1.42964, 1.39907, 1.30261, 1.26698, 1.27283, 1.27339, 1.2788, 1.4132, 1.38009, 1.30333, 1.57753, 1.57551, 1.31433, 1.313, 1.31374, 1.32294, 1.47814, 1.34367, 1.50774, 1.37043, 1.30958, 1.30824, 1.30827, 1.31193, 1.31176, 1.31004, 1.31264, 1.31395, 1.31318, 1.54494, 1.32586, 1.32354, 1.32211, 1.32216, 1.3214, 1.32112, 1.31836, 1.31818, 1.31682, 1.32482, 1.32371, 1.41714, 1.40363, 1.38856, 1.40378, 1.3929, 1.32936, 1.32989, 1.39934, 1.4155, 1.31895, 1.3096, 1.30867, 1.30672, 1.30568, 1.30604, 1.30703, 1.30572, 1.3048, 1.3048, 1.30601, 1.30268, 1.30193, 1.30128, 1.29801, 1.35723, 1.29267, 1.32734, 1.32055, 1.49299, 1.29121, 1.27351, 1.272, 1.42016, 1.25802, 1.26156, 1.2677, 1.26398, 1.26347, 1.27087, 1.44112, 1.31937, 1.31625, 1.33755, 1.33784, 1.5788, 1.6481, 1.36486, 1.27794, 1.54481, 1.40916, 1.26027, 1.23771, 1.23637, 1.25807, 1.25658, 1.25074, 1.25058, 1.25272, 1.25347, 1.34694, 1.36735, 1.28524, 1.32867, 1.39239, 1.27155, 1.26962, 1.26989, 1.27068
1.0856, 1.08365, 1.08033, 1.07905, 1.07723, 1.07682, 1.07002, 1.07002, 1.49541, 1.08645, 1.49428, 1.06419, 1.06363, 1.05904, 1.05774, 1.07749, 1.04924, 1.04699, 1.04599, 1.04439, 1.04462, 1.04791, 1.05278, 1.04753, 1.04604, 1.04637, 1.25832, 1.05274, 1.05484, 1.05718, 1.25159, 1.02574, 1.02608, 1.02619, 1.02292, 1.0216, 1.01691, 1.01791, 1.01582, 1.01589, 1.00871, 1.00866, 1.01509, 1.01675, 1.01464, 1.0136, 1.01541, 1.01679, 1.01821, 1.01781, 1.01484, 1.01454, 1.01141, 1.01184, 1.01462, 1.01426, 1.01519, 1.01555, 1.01473, 1.01705, 1.01938, 1.02197, 1.02003, 1.01883, 1.01633, 1.01346, 1.01147, 1.00945, 1.00898, 1.00849, 1.01156, 1.01254, 1.01214, 1.01179, 1.01116, 1.01526, 1.01523, 1.01892, 1.02408, 1.02512, 1.02525, 1.02191, 1.01912, 1.01948, 1.01461, 1.01429, 1.01365, 1.01201, 1.12404, 1.00821, 1.00713, 1.00712, 1.00766, 1.00706, 1.00429, 1.00415, 1.00559, 1.057, 1.04705, 1.1696, 1.07048, 1.01453, 1.0089, 1.00664, 1.00637, 1.01036, 1.01136, 1.01118, 1.00966, 1.01119, 1.01349, 1.01459, 1.01728, 1.01832, 1.01837, 1.02051, 1.02252, 1.02408, 1.025, 1.14803, 1.031, 1.03208, 1.03354, 1.03366, 1.13934, 1.38533, 1.03984, 1.04042, 1.04354, 1.04737, 1.04933, 1.05091, 1.05114, 1.07841, 1.05659, 1.05729, 1.05848, 1.05963, 1.07036, 1.07487, 1.0751, 1.18858, 1.30286, 1.33074, 1.17574, 1.30575, 1.17005, 1.24368, 1.25207, 1.26125, 1.26409, 1.19247, 1.25076, 1.20537, 1.20553, 1.21595, 1.35145, 1.35528, 1.3999, 1.39657, 1.40742, 1.41721, 1.38992, 1.32881, 1.40242, 1.38201, 1.27178, 1.27726, 1.40105, 1.40117, 1.3926, 1.30681, 1.31259, 1.3073, 1.33026, 1.32019, 1.32815, 1.40968, 1.46821, 1.43099, 1.43103, 1.30295, 1.3087, 1.30857, 1.30527, 1.30334, 1.3058, 1.30931, 1.31029, 1.30855, 1.40911, 1.51533, 1.32376, 1.32282, 1.32203, 1.32222, 1.32202, 1.31908, 1.31859, 1.31885, 1.31916, 1.31813, 1.31996, 1.34744, 1.35398, 1.35394, 1.33073, 1.33991, 1.40205, 1.32755, 1.32715, 1.32074, 1.32975, 1.30535, 1.30505, 1.30801, 1.30613, 1.30423, 1.30277, 1.30543, 1.30549, 1.30502, 1.30491, 1.29874, 1.29704, 1.29232, 1.29864, 1.29602, 1.28768, 1.29507, 1.28744, 1.29141, 1.2744, 1.36091, 1.26533, 1.25908, 1.26001, 1.26108, 1.25971, 1.25582, 1.27154, 1.44401, 1.44145, 1.31831, 1.31756, 1.39608, 1.34958, 1.53824, 1.28158, 1.26219, 1.28484, 1.31371, 1.55027, 1.39848, 1.31887, 1.26228, 1.2737, 1.25699, 1.25508, 1.25397, 1.25652, 1.24677, 1.34097, 1.28754, 1.27445, 1.27386, 1.27504, 1.26897, 1.27029, 1.27293
1.08741, 1.08519, 1.08227, 1.0841, 1.07888, 1.07723, 1.07232, 1.07159, 1.32031, 1.32715, 1.48486, 1.06549, 1.06483, 1.18178, 1.05931, 1.07218, 1.58426, 1.0462, 1.04316, 1.04421, 1.04705, 1.04795, 1.04868, 1.04949, 1.04651, 1.04755, 1.16696, 1.05317, 1.14983, 1.06021, 1.05307, 1.05129, 1.02729, 1.0262, 1.02691, 1.0218, 1.01807, 1.01766, 1.01726, 1.24085, 1.00906, 1.00942, 1.30426, 1.01815, 1.01796, 1.01827, 1.01745, 1.01797, 1.01904, 1.02187, 1.02183, 1.01665, 1.0163, 1.01472, 1.01541, 1.01622, 1.01951, 1.0217, 1.01961, 1.02211, 1.02155, 1.0216, 1.02155, 1.02166, 1.0136, 1.0139, 1.01489, 1.01444, 1.00808, 1.00732, 1.00626, 1.00586, 1.00669, 1.01147, 1.0113, 1.01127, 1.0155, 1.03385, 1.07748, 1.02608, 1.02645, 1.02615, 1.0216, 1.01906, 1.0165, 1.01306, 1.01286, 1.01166, 1.00948, 1.00668, 1.00605, 1.00665, 1.00744, 1.00767, 1.00565, 1.00572, 1.03426, 1.03555, 1.04537, 1.19783, 0.00442808, 1.22683, 1.05811, 1.01589, 1.01, 1.01094, 1.01127, 1.0119, 1.01516, 1.0088, 1.01502, 1.01473, 1.01568, 1.01828, 1.01844, 1.02004, 1.0353, 1.02491, 1.0248, 1.02609, 1.02975, 1.03286, 1.03402, 1.03456, 1.1034, 1.1129, 1.10287, 1.19591, 1.35502, 1.04668, 1.04913, 1.05034, 1.0527, 1.07544, 1.05975, 1.05995, 1.06123, 1.06202, 1.29884, 1.29829, 1.07584, 1.07738, 1.30075, 1.20186, 1.17812, 1.18541, 1.17024, 1.12948, 1.1287, 1.25214, 1.26428, 1.19919, 1.19256, 1.25725, 1.34989, 1.34933, 1.36367, 1.3824, 1.22159, 1.40558, 1.24722, 1.2451, 1.3752, 1.33819, 1.42897, 1.42, 1.39307, 1.39508, 1.37872, 1.35211, 1.28529, 1.30013, 1.30284, 1.34578, 1.29877, 1.32875, 1.32775, 1.41108, 1.43474, 1.4296, 1.47557, 1.3051, 1.30492, 1.30637, 1.30441, 1.30069, 1.42627, 1.41436, 1.31578, 1.33328, 1.30626, 1.54184, 1.32469, 1.32325, 1.32087, 1.31901, 1.31977, 1.32017, 1.3205, 1.32072, 1.31917, 1.31947, 1.3185, 1.31742, 1.38582, 1.46765, 1.3572, 1.33589, 1.38664, 1.33071, 1.32717, 1.29588, 1.316, 1.31559, 1.30928, 1.30504, 1.30505, 1.3041, 1.30499, 1.31612, 1.30604, 1.30442, 1.3029, 1.29843, 1.29485, 1.29352, 1.29064, 1.28656, 1.28504, 1.28545, 1.27721, 1.27473, 1.45493, 1.26423, 1.26509, 1.26045, 1.26033, 1.25776, 1.25602, 1.25444, 1.2604, 1.34333, 1.46228, 1.38252, 1.31694, 1.56141, 1.39001, 1.34016, 1.26201, 1.25919, 1.25338, 1.25285, 1.24823, 1.24677, 1.24719, 1.24699, 1.24739, 1.25165, 1.25422, 1.25386, 1.25061, 1.24869, 1.24579, 1.29539, 1.25426, 1.2745, 1.27174, 1.26785, 1.26922, 1.27345
1.08888, 1.08574, 1.08462, 1.08185, 1.07947, 1.07661, 1.07501, 1.0724, 1.07167, 1.32094, 1.0674, 1.06537, 1.06353, 1.06357, 1.06808, 1.06845, 1.25603, 1.04766, 1.04659, 1.04497, 1.04914, 1.04961, 1.0493, 1.04914, 1.0494, 1.04944, 1.04741, 1.04659, 1.14507, 1.05669, 1.05619, 1.02872, 1.028, 1.02722, 1.02665, 1.0242, 1.02103, 1.02139, 1.01834, 1.01884, 1.30934, 1.30503, 1.30232, 1.01921, 1.02135, 1.02151, 1.02013, 1.02035, 1.02149, 1.02142, 1.02162, 1.02168, 1.01836, 1.01687, 1.01823, 1.01835, 1.02032, 1.02003, 1.02162, 1.02151, 1.02172, 1.02016, 1.02168, 1.0221, 1.08852, 1.01485, 1.01282, 1.01272, 1.01301, 1.00751, 1.00408, 1.00528, 1.0101, 1.01283, 1.01239, 1.01166, 1.01258, 1.08045, 1.14321, 1.02667, 1.02734, 1.02736, 1.02234, 1.01823, 1.01653, 1.01476, 1.01407, 1.32012, 1.00751, 1.00691, 1.00789, 1.00575, 1.00559, 1.007, 1.00773, 1.00823, 1.27143, 1.03929, 1.04117, 1.04318, 1.07821, 1.16828, 1.21346, 1.05187, 1.04793, 1.011, 1.01204, 1.01284, 1.0122, 1.01684, 1.0151, 1.0148, 1.01725, 1.01798, 1.01867, 1.01918, 1.13917, 1.02549, 1.02822, 1.02823, 1.02892, 1.03341, 1.0353, 1.03449, 1.1041, 1.07139, 1.12647, 1.10765, 1.39577, 1.04903, 1.0483, 1.04927, 1.05267, 1.53958, 1.05799, 1.06035, 1.06337, 1.06378, 1.06481, 1.06738, 1.07497, 1.07476, 1.30938, 1.31042, 1.18945, 1.1168, 1.12966, 1.12955, 1.38515, 1.20804, 1.25062, 1.26147, 1.18836, 1.19067, 1.34703, 1.34853, 1.20281, 1.3582, 1.36094, 1.36529, 1.39779, 1.41893, 1.35005, 1.51317, 1.33359, 1.25704, 1.47533, 1.38642, 1.35491, 1.32402, 1.38041, 1.33375, 1.33042, 1.33615, 1.2982, 1.29812, 1.30023, 1.32369, 1.31069, 1.47625, 1.34043, 1.30461, 1.30517, 1.3018, 1.42079, 1.30296, 1.42075, 1.43082, 1.53053, 1.3022, 1.30475, 1.33235, 1.50063, 1.32182, 1.32055, 1.32089, 1.31996, 1.32108, 1.32235, 1.32344, 1.31875, 1.31302, 1.31073, 1.31233, 1.38409, 1.42627, 1.34349, 1.36131, 1.34075, 1.33536, 1.29642, 1.29664, 1.30134, 1.31898, 1.31722, 1.30064, 1.30005, 1.29819, 1.3164, 1.3154, 1.31873, 1.30023, 1.29969, 1.29563, 1.29331, 1.29131, 1.28806, 1.28703, 1.29045, 1.47512, 1.3029, 1.29529, 1.26487, 1.26431, 1.26486, 1.26404, 1.26403, 1.25489, 1.2533, 1.25397, 1.25835, 1.35112, 1.30242, 1.39101, 1.3617, 1.50312, 1.33519, 1.34333, 1.33942, 1.25256, 1.2502, 1.24968, 1.24767, 1.24748, 1.24679, 1.25141, 1.2506, 1.2528, 1.25334, 1.25266, 1.25286, 1.25074, 1.24834, 1.25099, 1.26795, 1.32168, 1.35958, 1.26541, 1.26565, 1.283
1.08883, 1.37999, 1.08501, 1.09124, 1.07989, 1.08014, 1.07687, 1.07217, 1.06974, 1.0711, 1.06813, 1.06415, 1.06479, 1.06387, 1.0694, 1.06992, 1.25489, 1.15402, 1.04687, 1.0486, 1.04921, 1.04864, 1.04966, 1.05004, 1.05024, 1.0493, 1.04939, 1.04597, 1.04534, 1.04904, 1.08019, 1.04537, 1.10791, 1.19838, 1.02654, 1.02883, 1.02799, 1.02157, 1.06161, 1.023, 1.02445, 1.01872, 1.02192, 1.02295, 1.0228, 1.02253, 1.02188, 1.02188, 1.0219, 1.02259, 1.02199, 1.078, 1.03206, 1.01943, 1.0182, 1.02068, 1.02061, 1.02021, 1.02199, 1.02061, 1.01901, 1.02152, 1.02127, 1.02171, 1.03926, 1.10476, 1.26107, 1.013, 1.04724, 1.00712, 1.00735, 1.0067, 1.01066, 1.01154, 1.01203, 1.01146, 1.01235, 1.01557, 1.07221, 1.02588, 1.02644, 1.02686, 1.02629, 1.01952, 1.01855, 1.01468, 1.01457, 1.00278, 1.00423, 1.00496, 1.00487, 1.00549, 1.00489, 1.00567, 1.00659, 1.13745, 1.08091, 1.05439, 1.04405, 1.05285, 1.10272, 1.12032, 1.18823, 1.20615, 1.02393, 1.02366, 1.0132, 1.01313, 1.01546, 1.01573, 1.0165, 1.01611, 1.01814, 1.01857, 1.02056, 1.01983, 1.03919, 1.13912, 1.03182, 1.02904, 1.02855, 1.03089, 1.03197, 1.03137, 1.06087, 1.06021, 1.10894, 1.10565, 1.1032, 1.37386, 1.04725, 1.05016, 1.05229, 1.05854, 1.0595, 1.05963, 1.06094, 1.06269, 1.06394, 1.06808, 1.07096, 1.07426, 1.30209, 1.11613, 1.19412, 1.18123, 1.31479, 1.13365, 1.3915, 1.39217, 1.24765, 1.20104, 1.18962, 1.18563, 1.33304, 1.35231, 1.34954, 1.37068, 1.20417, 1.50296, 1.38239, 1.39341, 1.24346, 1.38787, 1.3328, 1.24554, 1.25235, 1.25379, 1.26427, 1.26487, 1.38457, 1.36801, 1.28867, 1.73913, 1.2987, 1.29766, 1.29891, 1.40208, 1.31022, 1.31319, 1.30391, 1.30207, 1.30155, 1.54142, 1.28559, 1.28888, 1.29077, 1.29195, 1.29263, 1.37025, 1.31062, 1.44014, 1.44095, 1.40916, 1.32013, 1.31625, 1.31525, 1.31576, 1.31256, 1.31736, 1.31615, 1.31376, 1.31184, 1.30994, 1.30846, 1.30628, 1.35818, 1.34066, 1.33349, 1.33013, 1.29572, 1.29786, 1.30017, 1.30004, 1.2997, 1.30147, 1.29775, 1.29583, 1.31357, 1.29529, 1.29785, 1.29247, 1.29299, 1.29333, 1.29025, 1.29035, 1.28546, 1.28283, 1.28068, 1.28039, 1.53856, 1.39697, 1.43357, 1.25988, 1.25805, 1.26063, 1.25699, 1.25595, 1.25669, 1.25686, 1.25749, 1.26238, 1.32319, 1.33595, 1.39635, 1.31263, 1.5441, 1.27577, 1.27489, 1.25076, 1.25001, 1.24862, 1.24629, 1.24659, 1.24943, 1.24986, 1.25159, 1.25035, 1.25061, 1.25246, 1.25175, 1.25262, 1.24936, 1.24734, 1.24867, 1.31703, 1.45699, 1.54977, 1.26198, 1.27508
1.08547, 1.08154, 1.07957, 1.08053, 1.08034, 1.07714, 1.07552, 1.07238, 1.0714, 1.07115, 1.07126, 1.06484, 1.0646, 1.06351, 1.07168, 1.07042, 1.0738, 1.07578, 1.04928, 1.04906, 1.04913, 1.0496, 1.0498, 1.04995, 1.04929, 1.04939, 1.04921, 1.04937, 1.04601, 1.0461, 1.03911, 1.0385, 1.09901, 1.2492, 1.03104, 1.02749, 1.02839, 1.02821, 1.0292, 1.02724, 1.02602, 1.0258, 1.0232, 1.02443, 1.02344, 1.02422, 1.0237, 1.0242, 1.02597, 1.02577, 1.0251, 1.02639, 1.02579, 1.02307, 1.02068, 1.02188, 1.02216, 1.02298, 1.0218, 1.01956, 1.01983, 1.02137, 1.02381, 1.02338, 1.03996, 1.00841, 1.00797, 1.00109, 1.00289, 1.25124, 1.00874, 1.00955, 1.00928, 1.01165, 1.0115, 1.00974, 1.01253, 1.01383, 1.05641, 1.22402, 1.02582, 1.02545, 1.02567, 1.02335, 1.02291, 1.02959, 1.00781, 1.00712, 1.0044, 1.00209, 1.00428, 1.00382, 1.00448, 1.00619, 1.00749, 1.03661, 1.03631, 1.04449, 1.04517, 1.04611, 1.11231, 1.09128, 1.2412, 1.14038, 1.02264, 1.02348, 1.04586, 1.01511, 1.01642, 1.01669, 1.02008, 1.01849, 1.01822, 1.01999, 1.02019, 1.02115, 1.02176, 1.43389, 1.02943, 1.02959, 1.02954, 1.03126, 1.03001, 1.02994, 1.10223, 1.02543, 1.16489, 1.16573, 1.11895, 1.05955, 1.04396, 1.04672, 1.05056, 1.05606, 1.058, 1.0611, 1.06377, 1.06554, 1.06737, 1.06856, 1.0702, 1.0727, 1.07648, 1.07894, 1.32569, 1.309, 1.12491, 1.12988, 1.12942, 1.35367, 1.28127, 1.24571, 1.18483, 1.18158, 1.1816, 1.27427, 1.23266, 1.3714, 1.3753, 1.35682, 1.35318, 1.40312, 1.2429, 1.43791, 1.40585, 1.24452, 1.24949, 1.2568, 1.25863, 1.38626, 1.37448, 1.27715, 1.28081, 1.74146, 1.33654, 1.2955, 1.29473, 1.3878, 1.32718, 1.31358, 1.33346, 1.47775, 1.33038, 1.28868, 1.2881, 1.2884, 1.28924, 1.29169, 1.2912, 1.4164, 1.4101, 1.30149, 1.3763, 1.35797, 1.41943, 1.31909, 1.31823, 1.31231, 1.31205, 1.31258, 1.31288, 1.41566, 1.30858, 1.30348, 1.30374, 1.30351, 1.33678, 1.32902, 1.4324, 1.29986, 1.29694, 1.29871, 1.29906, 1.2987, 1.29822, 1.29654, 1.29458, 1.29377, 1.2909, 1.28959, 1.31083, 1.29275, 1.29233, 1.2922, 1.33101, 1.28867, 1.28316, 1.28076, 1.27845, 1.279, 1.27492, 1.26676, 1.26144, 1.25549, 1.2544, 1.2598, 1.2592, 1.25684, 1.25839, 1.25723, 1.25563, 1.25558, 1.30571, 1.30246, 1.47622, 1.3103, 1.58971, 1.24719, 1.24833, 1.25113, 1.25083, 1.24813, 1.24663, 1.25001, 1.25002, 1.24968, 1.2489, 1.24877, 1.25452, 1.25329, 1.25273, 1.25205, 1.25112, 1.24821, 1.24701, 1.39935, 1.47072, 1.254, 1.253, 1.26854
1.08684, 1.08168, 1.08146, 1.08162, 1.08169, 1.08822, 1.07693, 1.0747, 1.07333, 1.07271, 1.06796, 1.06792, 1.06639, 1.06329, 1.06085, 1.07249, 1.05765, 1.05423, 1.05228, 1.05059, 1.05064, 1.05217, 1.05198, 1.05111, 1.04935, 1.05046, 1.05013, 1.04842, 1.04599, 1.04604, 1.04226, 1.03946, 1.03763, 1.03659, 1.03166, 1.02897, 1.02875, 1.02988, 1.02953, 1.02821, 1.02704, 1.0267, 1.0286, 1.02651, 1.02325, 1.02351, 1.02564, 1.02608, 1.02639, 1.02663, 1.02686, 1.02664, 1.02534, 1.02509, 1.0204, 1.02038, 1.02184, 1.02173, 1.01144, 1.0397, 1.02113, 1.02063, 1.02095, 1.02153, 1.01477, 1.00919, 1.00653, 1.00301, 1.00257, 1.06997, 1.00762, 1.01095, 1.01168, 1.01437, 1.01328, 1.01161, 1.01009, 1.0125, 1.01666, 1.02008, 1.21459, 1.02552, 1.02458, 1.02529, 1.02194, 1.01983, 1.15143, 1.00348, 1.00401, 1.00349, 1.00303, 1.00306, 1.00413, 1.00505, 1.00817, 1.27531, 1.03287, 1.04425, 1.04687, 1.04585, 1.18781, 1.12104, 1.16085, 1.14617, 1.13598, 1.09708, 1.30199, 1.24904, 1.22495, 1.02255, 1.02259, 1.01925, 1.01964, 1.0192, 1.01948, 1.02059, 1.02155, 1.02266, 1.02936, 1.03008, 1.03046, 1.03204, 1.03297, 1.03026, 1.08714, 1.06176, 1.05991, 1.06179, 1.34463, 1.17181, 1.10126, 1.04585, 1.04769, 1.14414, 1.05862, 1.16296, 1.06427, 1.06662, 1.06787, 1.06853, 1.06901, 1.07021, 1.07562, 1.07792, 1.19372, 1.19252, 1.11686, 1.16828, 1.36795, 1.39091, 1.284, 1.24746, 1.18198, 1.18182, 1.17357, 1.2311, 1.26895, 1.19219, 1.24017, 1.24306, 1.35683, 1.24486, 1.22883, 1.42003, 1.2459, 1.64945, 1.24994, 1.25376, 1.26904, 1.36782, 1.36308, 1.33746, 1.28423, 1.30802, 1.32613, 1.42287, 1.33466, 1.34453, 1.305, 1.34658, 1.31173, 1.31951, 1.28676, 1.28739, 1.28774, 1.28864, 1.29168, 1.30196, 1.3298, 1.48329, 1.34384, 1.38746, 1.39111, 1.63178, 1.30314, 1.38646, 1.31921, 1.31363, 1.31245, 1.3124, 1.31247, 1.40678, 1.30361, 1.30175, 1.30159, 1.31958, 1.33645, 1.74376, 1.31575, 1.32226, 1.29963, 1.29993, 1.30044, 1.30703, 1.2957, 1.29422, 1.29079, 1.31235, 1.28572, 1.28528, 1.61384, 1.31666, 1.51981, 1.27742, 1.27878, 1.33085, 1.33018, 1.27822, 1.27545, 1.2925, 1.2661, 1.26229, 1.26103, 1.25776, 1.25732, 1.25672, 1.41271, 1.25982, 1.25855, 1.25518, 1.25445, 1.253, 1.26721, 1.47229, 1.47301, 1.28392, 1.2501, 1.2481, 1.24669, 1.25271, 1.25306, 1.24876, 1.24448, 1.24659, 1.25, 1.25022, 1.27805, 1.28419, 1.26042, 1.24403, 1.24631, 1.45765, 1.35754, 1.32943, 1.32772, 1.46185, 1.29165, 1.30817, 1.30016, 1.32861
1.08504, 1.08305, 1.08101, 1.08353, 1.08254, 1.08078, 1.08294, 1.07535, 1.07261, 1.07224, 1.06989, 1.06842, 1.06635, 1.06149, 1.06073, 1.07516, 1.0568, 1.05435, 1.05259, 1.05187, 1.05113, 1.05231, 1.05286, 1.05267, 1.05256, 1.05059, 1.05017, 1.04909, 1.0497, 1.04607, 1.04468, 1.04156, 1.04098, 1.03532, 1.03435, 1.0305, 1.0287, 1.02903, 1.02877, 1.02859, 1.07581, 1.19418, 1.02831, 1.02724, 1.02627, 1.02641, 1.02777, 1.02759, 1.02844, 1.02877, 1.02695, 1.02661, 1.02744, 1.02504, 1.02653, 1.10305, 1.01916, 1.02099, 1.01299, 1.01357, 1.03567, 1.02138, 1.01976, 1.0194, 1.01945, 1.0529, 1.00435, 1.00429, 1.00437, 1.0702, 1.35757, 1.20302, 1.0135, 1.01485, 1.01312, 1.01179, 1.01033, 1.01218, 1.01452, 1.19197, 1.01992, 1.02236, 1.13678, 1.02308, 1.02177, 1.24908, 1.00486, 1.00242, 1.00219, 1.00289, 1.0026, 1.00349, 1.0028, 1.00464, 1.00636, 1.01302, 1.1534, 1.11902, 1.04551, 1.04558, 1.04464, 1.25591, 1.1735, 1.07338, 1.07495, 1.19177, 1.18178, 1.12875, 1.03582, 1.02452, 1.0239, 1.02151, 1.02128, 1.0204, 1.01966, 1.02131, 1.0218, 1.0245, 1.0286, 1.02899, 1.02965, 1.03098, 1.0337, 1.03459, 1.03407, 1.0854, 1.51996, 1.02217, 1.02397, 1.38613, 1.38265, 1.04227, 1.0448, 1.05305, 1.12322, 1.15507, 1.15338, 1.06699, 1.06688, 1.06796, 1.06754, 1.06909, 1.07403, 1.08011, 1.08046, 1.34387, 1.18526, 1.15591, 1.11764, 1.37818, 1.3197, 1.28894, 1.24685, 1.18076, 1.17715, 1.17848, 1.21916, 1.23303, 1.19562, 1.35461, 1.35693, 1.358, 1.38343, 1.38283, 1.42518, 1.32385, 1.40081, 1.24807, 1.34334, 1.3011, 1.35416, 1.33887, 1.29957, 1.29516, 1.35011, 1.29138, 1.28654, 1.29589, 1.30953, 1.3415, 1.32351, 1.42644, 1.28842, 1.28751, 1.28885, 1.28786, 1.44165, 1.29632, 1.29551, 1.35794, 1.37222, 1.37302, 1.29237, 1.29301, 1.42999, 1.47132, 1.32225, 1.32067, 1.31417, 1.31317, 1.63328, 1.37554, 1.45934, 1.43014, 1.41045, 1.32793, 1.32671, 1.33316, 1.322, 1.31584, 1.29634, 1.29739, 1.3373, 1.29643, 1.2963, 1.3824, 1.31492, 1.30926, 1.29559, 1.29017, 1.35043, 1.27904, 1.27492, 1.27891, 1.27693, 1.27697, 1.30932, 1.26885, 1.25962, 1.25799, 1.25835, 1.26414, 1.26028, 1.25805, 1.25776, 1.26087, 1.28129, 1.28093, 1.28168, 1.25686, 1.25509, 1.25466, 1.25772, 1.3158, 1.2678, 1.25646, 1.25139, 1.24937, 1.24922, 1.25283, 1.25317, 1.24975, 1.2472, 1.24832, 1.24857, 1.24578, 1.25063, 1.2393, 1.23618, 1.24087, 1.24066, 1.24104, 1.23468, 1.23063, 1.23196, 1.23058, 1.22776, 1.23023, 1.34015, 1.4258
1.36746, 1.36433, 1.08327, 1.08377, 1.08371, 1.08615, 1.08261, 1.08163, 1.07479, 1.07318, 1.07203, 1.07109, 1.06632, 1.06345, 1.06174, 1.06082, 1.05844, 1.05957, 1.14268, 1.05568, 1.05404, 1.05363, 1.05423, 1.05513, 1.05268, 1.05259, 1.05252, 1.04904, 1.04842, 1.0476, 1.04636, 1.04288, 1.04216, 1.03944, 1.03904, 1.03244, 1.03187, 1.03062, 1.03241, 1.03532, 1.03462, 1.03624, 1.04234, 1.24822, 1.35745, 1.02985, 1.02963, 1.02869, 1.02841, 1.02833, 1.02893, 1.0296, 1.02861, 1.02592, 1.02608, 1.31379, 1.05407, 1.01541, 1.0149, 1.0148, 1.01679, 1.02164, 1.02159, 1.02136, 1.03259, 1.04917, 1.00562, 1.0053, 1.0062, 1.44706, 1.12909, 1.01903, 1.01815, 1.0178, 1.01545, 1.01349, 1.0134, 1.01172, 1.01258, 1.26169, 1.02116, 1.02134, 1.01973, 1.02112, 1.02285, 1.01053, 1.00469, 1.00433, 1.00347, 1.00307, 1.3274, 1.32639, 1.0047, 1.00474, 1.00656, 1.13033, 1.13685, 1.10474, 1.04591, 1.04436, 1.04347, 1.0436, 1.18988, 1.07409, 1.0738, 1.07461, 1.17049, 1.19164, 1.08835, 1.03486, 1.02572, 1.02511, 1.02292, 1.02336, 1.02316, 1.02033, 1.02117, 1.02194, 1.02374, 1.02581, 1.02835, 1.02985, 1.03323, 1.03303, 1.03399, 1.05744, 1.06865, 1.77865, 1.11302, 1.11194, 1.3876, 1.04361, 1.04409, 1.04644, 1.12963, 1.14649, 1.15486, 1.06439, 1.06642, 1.06741, 1.06635, 1.06709, 1.07563, 1.07815, 1.08319, 1.10766, 1.18446, 1.16382, 1.30724, 1.60602, 1.35091, 1.35353, 1.20177, 1.17947, 1.17781, 1.17524, 1.1767, 1.3587, 1.35827, 1.62399, 1.63079, 1.35727, 1.29195, 1.37468, 1.43349, 1.42826, 1.40869, 1.45244, 1.57414, 1.42769, 1.2964, 1.29605, 1.39588, 1.32662, 1.56498, 1.35804, 1.55047, 1.29078, 1.30623, 1.30524, 1.3135, 1.42684, 1.42762, 1.42935, 1.28288, 1.35554, 1.36597, 1.28961, 1.3626, 1.35879, 1.57219, 1.29142, 1.37763, 1.30835, 1.48805, 1.38476, 1.31914, 1.31845, 1.54818, 1.30857, 1.3844, 1.74359, 1.74231, 1.40519, 1.40625, 1.29535, 1.29155, 1.28991, 1.33632, 1.33647, 1.29535, 1.29577, 1.29862, 1.29079, 1.3706, 1.30605, 1.28162, 1.28064, 1.47573, 1.48237, 1.47785, 1.43012, 1.27601, 1.27448, 1.27708, 1.27516, 1.27793, 1.33645, 1.25929, 1.2599, 1.25846, 1.2601, 1.25979, 1.25891, 1.25885, 1.27522, 1.28294, 1.28259, 1.27891, 1.27836, 1.25489, 1.25346, 1.27621, 1.30577, 1.25499, 1.25543, 1.25181, 1.25004, 1.25118, 1.2522, 1.25228, 1.25181, 1.2515, 1.25032, 1.24717, 1.24071, 1.23086, 1.2332, 1.23696, 1.23732, 1.23951, 1.23559, 1.23521, 1.23395, 1.23286, 1.23212, 1.22958, 1.22902, 1.22906, 1.22986
1.33585, 1.34158, 1.08897, 1.08842, 1.0946, 1.09178, 1.09562, 1.32322, 1.23909, 1.23972, 1.07336, 1.07122, 1.06798, 1.06336, 1.06267, 1.05937, 1.05944, 1.05998, 1.13917, 1.05621, 1.05671, 1.05627, 1.05621, 1.05657, 1.05603, 1.05175, 1.04924, 1.04932, 1.04911, 1.04735, 1.04576, 1.04517, 1.0412, 1.04172, 1.03579, 1.03425, 1.03165, 1.03195, 1.03262, 1.03649, 1.03706, 1.03895, 1.04029, 1.03415, 1.03552, 1.03435, 1.02977, 1.02899, 1.02755, 1.02632, 1.02782, 1.0292, 1.02923, 1.03073, 1.03982, 1.03369, 1.00998, 1.21742, 1.01542, 1.01583, 1.01645, 1.02052, 1.01969, 1.0191, 1.03227, 1.00551, 1.00637, 1.00629, 1.04985, 1.11546, 1.01915, 1.01837, 1.018, 1.01676, 1.00989, 1.01071, 1.01307, 1.01196, 1.01219, 1.01603, 1.02069, 1.0201, 1.0182, 1.17367, 1.12349, 1.01191, 1.01105, 1.00413, 1.00398, 1.32694, 0.992136, 1.3262, 1.32676, 1.00563, 1.00706, 1.00956, 1.01585, 1.0216, 1.11058, 1.04424, 1.04343, 1.04035, 1.19222, 1.1081, 1.07272, 1.18544, 1.18463, 1.18496, 1.04732, 1.03509, 1.03383, 1.02913, 1.02824, 1.02432, 1.02409, 1.02443, 1.02166, 1.01903, 1.02225, 1.02547, 1.02876, 1.02827, 1.02889, 1.03184, 1.03309, 1.05646, 1.01354, 1.01883, 1.01887, 1.53932, 1.06128, 1.38383, 1.04619, 1.046, 1.0491, 1.18546, 1.15376, 1.06305, 1.06467, 1.0655, 1.06606, 1.06702, 1.07209, 1.07708, 1.30217, 1.19468, 1.33294, 1.1052, 1.11184, 1.11832, 1.36331, 1.16453, 1.25127, 1.26818, 1.19933, 1.17883, 1.38149, 1.44112, 1.36098, 1.36049, 1.25084, 1.32149, 1.37209, 1.34652, 1.36733, 1.4302, 1.43653, 1.39196, 1.31503, 1.52162, 1.51461, 1.52038, 1.26692, 1.44378, 1.31366, 1.32401, 1.28225, 1.29091, 1.29521, 1.28109, 1.32696, 1.28092, 1.34729, 1.4312, 1.33472, 1.27832, 1.27822, 1.28117, 1.61675, 1.36204, 1.37126, 1.37816, 1.58241, 1.59899, 1.44779, 1.36566, 1.31664, 1.31813, 1.54023, 1.30877, 1.58566, 1.28164, 1.40234, 1.44953, 1.28488, 1.28508, 1.34177, 1.28878, 1.2876, 1.28783, 1.33078, 1.28916, 1.29161, 1.28579, 1.29204, 1.37109, 1.28346, 1.26952, 1.26905, 1.41337, 1.39951, 1.4197, 1.33722, 1.27557, 1.27478, 1.27566, 1.34332, 1.26383, 1.2611, 1.26019, 1.25937, 1.25903, 1.25986, 1.25995, 1.26005, 1.43009, 1.28185, 1.28026, 1.27794, 1.27748, 1.25016, 1.25093, 1.25323, 1.25031, 1.25299, 1.24979, 1.27094, 1.25298, 1.24988, 1.25332, 1.25365, 1.25338, 1.25573, 1.25807, 1.49311, 1.36083, 1.22966, 1.23185, 1.23406, 1.23788, 1.23703, 1.23608, 1.23367, 1.23341, 1.23243, 1.23104, 1.228, 1.22688, 1.22834, 1.22882
1.09772, 1.09338, 1.09111, 1.08911, 1.09068, 1.08916, 1.08834, 1.08809, 1.29908, 1.07372, 1.07311, 1.07135, 1.06708, 1.06621, 1.06344, 1.05958, 1.05891, 1.06088, 1.06027, 1.06209, 1.05994, 1.05964, 1.05729, 1.05768, 1.05503, 1.05287, 1.05301, 1.04914, 1.04924, 1.04648, 1.04688, 1.04584, 1.04563, 1.04447, 1.03608, 1.03503, 1.02868, 1.03202, 1.03635, 1.038, 1.04002, 1.03935, 1.03959, 1.03544, 1.03536, 1.03131, 1.03077, 1.03083, 1.02699, 1.02769, 1.02764, 1.02779, 1.02723, 1.02779, 1.24172, 1.03874, 1.00466, 1.04706, 1.01508, 1.0158, 1.01785, 1.01925, 1.02032, 1.0262, 1.27552, 1.00685, 1.00694, 1.00765, 1.04424, 1.03959, 1.21627, 1.01915, 1.01969, 1.01972, 1.2561, 1.01058, 1.0146, 1.01278, 1.01425, 1.01833, 1.01886, 1.01868, 1.01806, 1.22005, 1.17068, 1.0121, 1.00872, 1.41203, 1.00531, 1.25387, 0.993813, 0.993951, 1.18593, 1.00577, 1.008, 1.0077, 1.00786, 1.04787, 1.38463, 1.14401, 1.03963, 1.04024, 1.0417, 1.05435, 1.17458, 1.13208, 1.13438, 1.04096, 1.03913, 1.03733, 1.03373, 1.03057, 1.02658, 1.02516, 1.02115, 1.02205, 1.02523, 1.02385, 1.02286, 1.01922, 1.02662, 1.02791, 1.02861, 1.02871, 1.03295, 1.28184, 1.01544, 1.01535, 1.05576, 1.12295, 1.11429, 1.11616, 1.1103, 1.05006, 1.0507, 1.12559, 1.05326, 1.07407, 1.06518, 1.06366, 1.06633, 1.06773, 1.07014, 1.07764, 1.22742, 1.22953, 1.09751, 1.17466, 1.29828, 1.16894, 1.16591, 1.21671, 1.24049, 1.3548, 1.23731, 1.27311, 1.17027, 1.16667, 1.16721, 1.16815, 1.35792, 1.53993, 1.36104, 1.36096, 1.42514, 1.37516, 1.40856, 1.31244, 1.31569, 1.4052, 1.34214, 1.29838, 1.26693, 1.54349, 1.32346, 1.27547, 1.29287, 1.29305, 1.28093, 1.28875, 1.31512, 1.31985, 1.27596, 1.32597, 1.351, 1.36525, 1.27395, 1.27176, 1.27048, 1.27007, 1.26874, 1.35793, 1.26445, 1.53638, 1.38527, 1.39489, 1.32031, 1.3187, 1.31871, 1.40655, 1.38931, 1.28329, 1.28225, 1.65033, 1.28241, 1.70809, 1.48843, 1.28763, 1.28623, 1.28501, 1.2839, 1.2854, 1.28514, 1.30176, 1.29506, 1.2754, 1.27141, 1.27053, 1.27035, 1.2609, 1.25923, 1.33802, 1.36461, 1.30261, 1.31196, 1.3149, 1.33828, 1.26105, 1.26091, 1.26064, 1.26081, 1.25948, 1.25962, 1.26013, 1.2636, 1.36055, 1.35411, 1.24452, 1.23992, 1.24003, 1.23831, 1.24719, 1.39444, 1.28283, 1.24527, 1.24285, 1.24311, 1.24677, 1.25213, 1.25282, 1.25503, 1.25782, 1.25791, 1.35251, 1.39521, 1.24297, 1.23113, 1.23152, 1.23349, 1.23821, 1.23728, 1.23589, 1.234, 1.233, 1.2312, 1.22903, 1.45717, 1.22559, 1.21999, 1.32524
1.09809, 1.09616, 1.09442, 1.09105, 1.09163, 1.09111, 1.0883, 1.08818, 1.28544, 1.07497, 1.29419, 1.07067, 1.06996, 1.06767, 1.06646, 1.06556, 1.06072, 1.06343, 1.0645, 1.063, 1.06336, 1.06341, 1.06349, 1.0577, 1.05423, 1.05272, 1.05322, 1.0531, 1.05053, 1.04904, 1.04797, 1.04801, 1.047, 1.0449, 1.04653, 1.03665, 1.03619, 1.03668, 1.03748, 1.04149, 1.04217, 1.04408, 1.0419, 1.0405, 1.04623, 1.03162, 1.03165, 1.03208, 1.03183, 1.0286, 1.0272, 1.02652, 1.02658, 1.02699, 1.14363, 1.23828, 1.00525, 1.0056, 1.00632, 1.01596, 1.01391, 1.01512, 1.03211, 1.00548, 1.00668, 1.00761, 1.00797, 1.00759, 1.21212, 1.06392, 1.02562, 1.0233, 1.01837, 1.01818, 1.01837, 1.01714, 1.0149, 1.01436, 1.01467, 1.01586, 1.01791, 1.01842, 1.01787, 1.01817, 1.0181, 1.01348, 1.01473, 1.00828, 1.00817, 1.20591, 1.25617, 1.02181, 1.13687, 1.0099, 1.01039, 1.01006, 1.01168, 1.36512, 1.10874, 1.04233, 1.03977, 1.04072, 1.04208, 1.04343, 1.03977, 1.04139, 1.04254, 1.0415, 1.04188, 1.05883, 1.03411, 1.02976, 1.0274, 1.02922, 1.02265, 1.02314, 1.02538, 1.02573, 1.02167, 1.02245, 1.02363, 1.02886, 1.02914, 1.17523, 1.14034, 1.01909, 1.01769, 1.01677, 1.01841, 1.0597, 1.24844, 1.06743, 1.06058, 1.20662, 1.20133, 1.21248, 1.13581, 1.07396, 1.06432, 1.065, 1.06641, 1.06742, 1.06793, 1.31088, 1.21934, 1.22753, 1.30239, 1.09822, 1.12295, 1.1703, 1.17074, 1.30846, 1.31166, 1.35832, 0.00410147, 1.22451, 1.17381, 1.16711, 1.16601, 1.16722, 1.26576, 1.3818, 1.56806, 1.39018, 1.44408, 1.36142, 1.34422, 1.36986, 1.36921, 1.31542, 1.37285, 1.38189, 1.3606, 1.4015, 1.34266, 1.29916, 1.29435, 1.59895, 1.28078, 1.28109, 1.55086, 1.61415, 1.51039, 1.34954, 1.36309, 1.27068, 1.40636, 1.37523, 1.26742, 1.26024, 1.25991, 1.25831, 1.38319, 1.53767, 1.38448, 1.31351, 1.31287, 1.32021, 1.31588, 1.33229, 1.28493, 1.28242, 1.27877, 1.27733, 1.4619, 1.27164, 1.27857, 1.28094, 1.32341, 1.28381, 1.28342, 1.28256, 1.28389, 1.28072, 1.28006, 1.28846, 1.26779, 1.26766, 1.26455, 1.25704, 1.25555, 1.25648, 1.25768, 1.315, 1.31511, 1.26666, 1.2948, 1.33351, 1.25678, 1.26033, 1.26008, 1.25989, 1.26048, 1.261, 1.26123, 1.37456, 1.35013, 1.29625, 1.24299, 1.24126, 1.24075, 1.24367, 1.23521, 1.23699, 1.23853, 1.24597, 1.24404, 1.24779, 1.2483, 1.25377, 1.25399, 1.25678, 1.25867, 1.26336, 1.36069, 1.24058, 1.23625, 1.23543, 1.23508, 1.23599, 1.23663, 1.23463, 1.23543, 1.23295, 1.22746, 1.22721, 1.22712, 1.22269, 1.22327, 1.22161
1.0984, 1.09772, 1.09517, 1.09402, 1.09107, 1.09153, 1.09189, 1.08854, 1.07866, 1.0772, 1.0743, 1.07256, 1.06808, 1.06694, 1.06643, 1.06637, 1.06537, 1.06427, 1.065, 1.06684, 1.06637, 1.06659, 1.0639, 1.06287, 1.0589, 1.0856, 1.05251, 1.05456, 1.0547, 1.05232, 1.04808, 1.04917, 1.04894, 1.04772, 1.04535, 1.04502, 1.04506, 1.08471, 1.04572, 1.04581, 1.04508, 1.04434, 1.04264, 1.04218, 1.04131, 1.03206, 1.03215, 1.03329, 1.03336, 1.03288, 1.03281, 1.02702, 1.0255, 1.02304, 1.02215, 1.02235, 1.04145, 1.0062, 1.00621, 1.00649, 1.24029, 1.00481, 1.00917, 1.00576, 1.00744, 1.00807, 1.00895, 1.04639, 1.1993, 1.02886, 1.02915, 1.02559, 1.1243, 1.01667, 1.01513, 1.01569, 1.01539, 1.01505, 1.01549, 1.01565, 1.01487, 1.01636, 1.01852, 1.01762, 1.01744, 1.01747, 1.01155, 1.00948, 1.00923, 1.00956, 1.25514, 1.32606, 1.01157, 1.01061, 1.01102, 1.01039, 1.01129, 1.01259, 1.01536, 1.27765, 1.0371, 1.03705, 1.04062, 1.04163, 1.04123, 1.04208, 1.04321, 1.04517, 1.1821, 1.13569, 1.03341, 1.03149, 1.03085, 1.02565, 1.02643, 1.02523, 1.02554, 1.02602, 1.01956, 1.02161, 1.02448, 1.02626, 1.03156, 1.03197, 1.16484, 1.04625, 1.34429, 1.01743, 1.01765, 1.36616, 1.062, 1.11833, 1.24146, 1.20005, 1.2131, 1.0564, 1.17476, 1.10217, 1.0673, 1.06512, 1.06624, 1.06701, 1.06725, 1.08964, 1.09231, 1.24321, 1.23234, 1.28834, 1.29482, 1.51412, 1.51368, 1.33376, 1.21331, 1.25718, 1.22543, 1.22555, 1.22213, 1.17018, 1.16849, 1.16781, 1.16947, 1.36377, 1.18804, 1.18772, 1.43105, 1.43943, 1.20268, 1.41343, 1.21578, 1.45041, 1.36911, 1.40645, 1.38804, 1.29461, 1.32646, 1.49797, 1.48508, 1.29851, 1.35912, 1.59035, 1.25757, 1.25712, 1.25497, 1.25655, 1.25789, 1.25793, 1.25788, 1.26093, 1.25745, 1.2577, 1.25717, 1.25065, 1.25094, 1.38797, 1.55865, 1.31546, 1.31298, 1.33308, 1.35774, 1.31872, 1.2855, 1.28362, 1.27939, 1.27895, 1.27184, 1.27446, 1.27397, 1.27605, 1.27624, 1.2841, 1.28453, 1.28388, 1.28335, 1.2804, 1.27984, 1.27434, 1.26918, 1.26908, 1.26505, 1.25883, 1.25733, 1.25602, 1.258, 1.25972, 1.25983, 1.29506, 1.26376, 1.26466, 1.25842, 1.25866, 1.26122, 1.26168, 1.26034, 1.26184, 1.26154, 1.26498, 1.26386, 1.33951, 1.24438, 1.24265, 1.24169, 1.23319, 1.233, 1.23465, 1.38295, 1.25133, 1.38903, 1.24905, 1.25469, 1.25339, 1.25651, 1.25639, 1.30226, 1.29613, 1.33085, 1.47484, 1.23689, 1.2351, 1.23679, 1.23697, 1.23659, 1.23678, 1.23583, 1.21712, 1.21603, 1.22432, 1.22647, 1.22233, 1.21843, 1.2236
1.1009, 1.10088, 1.09645, 1.09661, 1.09087, 1.0923, 1.0916, 1.08986, 1.07852, 1.07766, 1.07348, 1.07241, 1.07366, 1.06755, 1.06709, 1.06684, 1.06718, 1.06591, 1.06645, 1.06836, 1.06675, 1.06358, 1.06495, 1.06473, 1.09028, 1.08116, 1.07096, 1.05023, 1.05433, 1.05396, 1.05327, 1.05322, 1.05012, 1.04983, 1.04961, 1.04741, 1.04665, 1.04951, 1.04956, 1.04488, 1.04288, 1.04245, 1.04234, 1.04221, 1.04263, 1.10306, 1.15722, 1.03606, 1.03519, 1.03222, 1.03194, 1.03234, 1.02388, 1.0242, 1.02534, 1.02298, 1.03994, 1.18457, 1.00667, 1.00586, 0.999666, 0.99869, 0.999148, 1.00635, 1.00751, 1.00849, 1.24093, 1.23952, 1.05012, 1.02855, 1.02911, 1.0286, 1.21193, 1.01937, 1.01651, 1.01806, 1.01529, 1.01545, 1.01545, 1.01605, 1.015, 1.01509, 1.01436, 1.01649, 1.01656, 1.01734, 1.01679, 1.01446, 1.0117, 1.00989, 1.01017, 1.01098, 1.01181, 1.01146, 1.0111, 1.01154, 1.01055, 1.01194, 1.01357, 1.0153, 1.03652, 1.03116, 1.03172, 1.03765, 1.03901, 1.04004, 1.0392, 1.11653, 1.05285, 1.05274, 1.26873, 1.03304, 1.03361, 1.02448, 1.02617, 1.02592, 1.02532, 1.02669, 1.01965, 1.02448, 1.02628, 1.02979, 1.02979, 1.03082, 1.03121, 1.31701, 1.14788, 1.11479, 1.01938, 1.01991, 1.02219, 1.06686, 1.12164, 1.19243, 1.05851, 1.05799, 1.26734, 1.26674, 1.06455, 1.06656, 1.06482, 1.06611, 1.06658, 1.0647, 1.2014, 1.36082, 1.0844, 1.23276, 1.2411, 1.29498, 1.30293, 1.23338, 1.16209, 1.27021, 1.28786, 1.24041, 1.21675, 1.17213, 1.17073, 1.17018, 1.36246, 1.17853, 1.18825, 1.18812, 1.19292, 1.19596, 1.19905, 1.41334, 1.55765, 1.41424, 1.31029, 1.31166, 1.2318, 1.23016, 1.23166, 1.23557, 1.23985, 1.24154, 1.49249, 1.56688, 1.25909, 1.25844, 1.25727, 1.25737, 1.25649, 1.25669, 1.25767, 1.26029, 1.25694, 1.25587, 1.25675, 1.25478, 1.25134, 1.38964, 1.26075, 1.32617, 1.37602, 1.33423, 1.33403, 1.37444, 1.28775, 1.28691, 1.28202, 1.28065, 1.27384, 1.27372, 1.27474, 1.27719, 1.27909, 1.28168, 1.28358, 1.28295, 1.28314, 1.27994, 1.27769, 1.27029, 1.2719, 1.26746, 1.2668, 1.25991, 1.25805, 1.2574, 1.26188, 1.26094, 1.25927, 1.25896, 1.2659, 1.26453, 1.26468, 1.26163, 1.26125, 1.26146, 1.26211, 1.26321, 1.26102, 1.25716, 1.34493, 1.32373, 1.24502, 1.24369, 1.24352, 1.23217, 1.23285, 1.39823, 1.25063, 1.25222, 1.24246, 1.24549, 1.38214, 1.2576, 1.25636, 1.25673, 1.32255, 1.28839, 1.27846, 1.32592, 1.23602, 1.23361, 1.23399, 1.23974, 1.23809, 1.23795, 1.23492, 1.23622, 1.22405, 1.22674, 1.22567, 1.22232, 1.21662, 1.21577
1.09866, 1.09856, 1.09776, 1.09525, 1.08999, 1.09049, 1.09485, 1.09446, 1.26695, 1.07638, 1.07477, 1.07064, 1.07025, 1.068, 1.06528, 1.06464, 1.06614, 1.06491, 1.06538, 1.06711, 1.06722, 1.0647, 1.06458, 1.06412, 1.06014, 1.09031, 1.08546, 1.07043, 1.05646, 1.05615, 1.05727, 1.05705, 1.0564, 1.05127, 1.04955, 1.04991, 1.04958, 1.04929, 1.04912, 1.0446, 1.04406, 1.04348, 1.0427, 1.04075, 1.0407, 1.06201, 1.15408, 1.03559, 1.03545, 1.03225, 1.03221, 1.03332, 1.03984, 1.024, 1.02388, 1.02087, 1.01926, 1.03149, 1.00161, 1.00158, 0.998323, 0.997908, 0.998478, 0.999862, 1.00436, 1.1834, 1.01495, 1.04608, 1.02778, 1.0284, 1.02862, 1.02768, 1.19165, 1.02106, 1.01878, 1.01823, 1.01779, 1.0163, 1.01563, 1.01563, 1.01495, 1.01262, 1.01281, 1.01173, 1.01481, 1.01624, 1.01686, 1.01743, 1.01271, 1.01445, 1.01419, 1.01291, 1.01167, 1.01111, 1.01112, 1.01038, 1.01009, 1.17323, 1.17484, 1.01255, 1.01366, 1.13761, 1.03101, 1.03415, 1.03807, 1.03881, 1.0388, 1.04706, 1.05208, 1.05259, 1.05135, 1.25693, 1.03216, 1.02672, 1.02533, 1.02565, 1.02512, 1.02703, 1.02755, 1.02533, 1.02701, 1.03075, 1.02973, 1.02999, 1.03081, 1.03183, 1.228, 1.03242, 1.04215, 1.02252, 1.06732, 1.06919, 1.24094, 1.0643, 1.06414, 1.25785, 1.05982, 1.14301, 1.06671, 1.06651, 1.06499, 1.06518, 1.06674, 1.06439, 1.06652, 1.07881, 1.08035, 1.18232, 1.24304, 1.23988, 1.28081, 1.19489, 1.30514, 1.23854, 1.35024, 1.23977, 1.23591, 1.25182, 1.16994, 1.16884, 1.17177, 1.17628, 1.18115, 1.35257, 1.19425, 1.19477, 1.19852, 1.20462, 1.41395, 1.28493, 1.21897, 1.25074, 1.22644, 1.22798, 1.23255, 1.41744, 1.24146, 1.24115, 1.41941, 1.51593, 1.52287, 1.26016, 1.25971, 1.2566, 1.25823, 1.2572, 1.25724, 1.25684, 1.2575, 1.25453, 1.25529, 1.25487, 1.25811, 1.25845, 1.26121, 1.37834, 1.3815, 1.31616, 1.29372, 1.29257, 1.29203, 1.28782, 1.28504, 1.28093, 1.27876, 1.27738, 1.27676, 1.27867, 1.28187, 1.28299, 1.28151, 1.28194, 1.28156, 1.35753, 1.27033, 1.26897, 1.26878, 1.2678, 1.26667, 1.2631, 1.25751, 1.25726, 1.25895, 1.26014, 1.25892, 1.25866, 1.26226, 1.26378, 1.2643, 1.26312, 1.26013, 1.25925, 1.26433, 1.26474, 1.2577, 1.2546, 1.25618, 1.2588, 1.2929, 1.46637, 1.232, 1.2325, 1.22274, 1.40331, 1.25015, 1.236, 1.35481, 1.24476, 1.24536, 1.25843, 1.25694, 1.25861, 1.28154, 1.28779, 1.27575, 1.3173, 1.23449, 1.23372, 1.23349, 1.2397, 1.23864, 1.23654, 1.23582, 1.23266, 1.22693, 1.22595, 1.22225, 1.22355, 1.21267, 1.21258
1.09819, 1.09767, 1.09817, 1.09479, 1.09415, 1.09404, 1.09433, 1.09422, 1.08711, 1.07655, 1.07466, 1.07004, 1.06912, 1.06927, 1.06655, 1.06656, 1.06685, 1.06454, 1.06486, 1.06531, 1.06469, 1.06329, 1.06115, 1.05968, 1.05957, 1.05976, 1.06018, 1.06016, 1.07153, 1.06033, 1.05997, 1.06018, 1.0572, 1.05439, 1.05399, 1.05179, 1.05076, 1.0504, 1.05077, 1.07528, 1.04466, 1.04441, 1.04232, 1.04132, 1.04293, 1.03921, 1.03878, 1.03845, 1.03584, 1.0304, 1.03001, 1.03079, 1.03072, 1.02569, 1.02382, 1.19546, 1.02571, 1.00652, 1.00452, 1.00199, 1.00003, 0.998907, 0.998549, 1.00228, 1.00323, 1.0038, 1.01581, 1.02172, 1.02252, 1.02565, 1.02634, 1.02588, 1.02494, 1.02318, 1.0232, 1.01865, 1.01818, 1.01648, 1.01403, 1.01356, 1.01454, 1.01464, 1.01137, 1.01289, 1.01471, 1.01602, 1.01682, 1.01716, 1.01828, 1.01469, 1.01545, 1.01504, 1.01515, 1.01861, 1.01177, 1.01118, 1.01146, 1.00154, 1.00219, 1.00186, 1.01283, 1.01484, 1.15343, 1.03692, 1.0382, 1.03887, 1.04263, 1.04968, 1.19197, 1.05655, 1.16993, 1.25382, 1.05342, 1.02609, 1.02622, 1.0239, 1.02482, 1.02622, 1.0271, 1.02893, 1.0294, 1.02991, 1.03113, 1.03053, 1.03018, 1.03228, 1.03241, 1.03705, 1.03743, 1.14996, 1.24749, 1.24681, 1.23538, 1.23962, 1.06566, 1.44847, 1.061, 1.06429, 1.0668, 1.06592, 1.06538, 1.06458, 1.06677, 1.06636, 1.06676, 1.07689, 1.07812, 1.08457, 1.18096, 1.29494, 1.181, 1.12024, 1.30891, 1.30799, 1.26149, 1.23622, 1.235, 1.26016, 1.27026, 1.16742, 1.17121, 1.35378, 1.35159, 1.26857, 1.23442, 1.19622, 1.19555, 1.20478, 1.52729, 1.21354, 1.21761, 1.22254, 1.30226, 1.22875, 1.23291, 1.2374, 1.23904, 1.24167, 1.24414, 1.24941, 1.52449, 1.25681, 1.25462, 1.25673, 1.25671, 1.25685, 1.25933, 1.25876, 1.25861, 1.25945, 1.25702, 1.25722, 1.26208, 1.26006, 1.26075, 1.26358, 1.56421, 1.28406, 1.29655, 1.29468, 1.29299, 1.29287, 1.50418, 1.28342, 1.27921, 1.27706, 1.27704, 1.28069, 1.28274, 1.28339, 1.28194, 1.28249, 1.28426, 1.40202, 1.27129, 1.27053, 1.26991, 1.26876, 1.28935, 1.29124, 1.26034, 1.25884, 1.4615, 1.26237, 1.25782, 1.25895, 1.26019, 1.30505, 1.2658, 1.26737, 1.26194, 1.26087, 1.25974, 1.25988, 1.30555, 1.25368, 1.25338, 1.27851, 1.2747, 1.24999, 1.22894, 1.22452, 1.22331, 1.28564, 1.28243, 1.24135, 1.24411, 1.24517, 1.24944, 1.25467, 1.25473, 1.45423, 1.3206, 1.32592, 1.29257, 1.36741, 1.23408, 1.23329, 1.23326, 1.23323, 1.23009, 1.32004, 1.42393, 1.23656, 1.32169, 1.27516, 1.39645, 1.39603, 1.30838, 1.39896
1.09834, 1.09783, 1.09628, 1.09522, 1.09407, 1.09439, 1.08956, 1.08823, 1.08819, 1.25253, 1.07366, 1.07298, 1.07055, 1.06926, 1.06574, 1.06839, 1.06713, 1.06464, 1.06407, 1.06369, 1.06278, 1.06311, 1.06345, 1.05947, 1.06111, 1.06007, 1.06099, 1.06079, 1.06107, 1.06367, 1.06338, 1.06258, 1.05959, 1.05911, 1.05678, 1.05389, 1.05298, 1.05434, 1.06309, 1.06079, 1.09715, 1.06781, 1.33297, 1.16211, 1.04618, 1.03954, 1.03781, 1.03813, 1.0374, 1.03244, 1.03241, 1.03128, 1.03075, 1.02936, 1.29117, 1.22261, 1.01266, 1.0068, 1.00573, 1.00539, 1.00429, 0.997565, 0.999149, 1.00474, 1.0067, 1.01902, 1.01864, 1.0202, 1.02182, 1.02512, 1.023, 1.02291, 1.02497, 1.0237, 1.02422, 1.20626, 1.01773, 1.01541, 1.01603, 1.01454, 1.01404, 1.01518, 1.01532, 1.01513, 1.0172, 1.01838, 1.01811, 1.01875, 1.02014, 1.01955, 1.01856, 1.0166, 1.01793, 1.01785, 1.01817, 1.01287, 1.0112, 1.01138, 1.00214, 1.003, 1.01266, 1.01261, 1.01354, 1.05512, 1.03918, 1.04069, 1.04011, 1.04102, 1.06363, 1.17198, 0.00453624, 1.24665, 1.24618, 1.06424, 1.0234, 1.02465, 1.02498, 1.02499, 1.02829, 1.02857, 1.02887, 1.02969, 1.02979, 1.03054, 1.03013, 1.03085, 1.0333, 1.03394, 1.03256, 1.0336, 1.24651, 1.24787, 1.23692, 1.23619, 1.11621, 1.06106, 1.06213, 1.06516, 1.06629, 1.06616, 1.0654, 1.06433, 1.067, 1.06783, 1.25728, 1.07577, 1.07732, 1.07851, 1.30069, 1.30192, 1.25742, 1.29792, 1.19496, 1.31236, 1.25524, 1.22676, 1.23031, 1.22972, 1.26852, 1.16995, 1.17007, 1.1705, 1.17746, 1.4805, 1.23184, 1.44733, 1.39227, 1.4004, 1.21662, 1.47199, 1.26781, 1.31295, 1.22934, 1.22965, 1.23533, 1.23724, 1.24232, 1.24656, 1.24711, 1.25074, 1.25575, 1.25826, 1.26026, 1.26071, 1.25781, 1.25697, 1.26085, 1.26031, 1.2596, 1.25864, 1.26011, 1.2612, 1.26098, 1.26266, 1.26365, 1.26689, 1.26948, 1.27104, 1.29203, 1.29573, 1.29315, 1.29244, 1.29255, 1.2838, 1.28046, 1.27938, 1.27803, 1.27848, 1.28413, 1.28403, 1.28432, 1.28067, 1.28035, 1.45494, 1.2716, 1.27135, 1.26449, 1.26493, 1.29507, 1.40713, 1.25923, 1.25802, 1.34171, 1.25466, 1.25335, 1.25651, 1.25754, 1.31703, 1.26721, 1.26706, 1.26903, 1.26113, 1.25822, 1.2588, 1.37712, 1.28786, 1.24993, 1.24643, 1.27899, 1.22912, 1.22916, 1.22624, 1.22621, 1.36248, 1.27867, 1.24363, 1.2466, 1.24759, 1.25142, 1.25404, 1.25469, 1.33895, 1.43477, 1.31377, 1.31025, 1.36819, 1.44792, 1.23415, 1.26803, 1.25433, 1.23797, 1.23702, 1.31985, 1.31956, 1.25073, 1.24857, 1.31811, 1.20469, 1.20712, 1.20719
1.09931, 1.09856, 1.09772, 1.09727, 1.0958, 1.09154, 1.0898, 1.08919, 1.08508, 1.0852, 1.08706, 1.07424, 1.07278, 1.0711, 1.0699, 1.06979, 1.06704, 1.06473, 1.06347, 1.06324, 1.06251, 1.06488, 1.06326, 1.061, 1.0613, 1.06119, 1.06153, 1.06068, 1.0597, 1.0629, 1.06301, 1.06064, 1.05956, 1.05892, 1.05729, 1.05696, 1.05873, 1.05921, 1.05621, 1.05493, 1.05563, 1.05386, 1.07477, 1.14658, 1.1593, 1.15672, 1.03847, 1.03789, 1.03924, 1.0364, 1.03588, 1.03197, 1.03207, 1.02989, 1.02753, 1.11541, 1.01331, 1.23311, 1.1807, 1.00631, 1.00599, 1.00577, 1.10609, 1.0094, 1.01209, 1.01352, 1.01829, 1.02162, 1.02184, 1.02297, 1.02572, 1.02513, 1.0237, 1.02348, 1.08321, 1.17972, 1.08468, 1.01499, 1.01503, 1.01456, 1.01393, 1.01492, 1.01672, 1.01728, 1.0181, 1.01888, 1.021, 1.02143, 1.02287, 1.01826, 1.0186, 1.0199, 1.01927, 1.01985, 1.019, 1.03697, 1.01193, 1.01317, 1.01162, 1.17413, 1.0114, 1.01167, 1.01208, 1.01197, 1.15398, 1.03975, 1.03967, 1.03883, 1.05776, 1.12167, 1.11441, 1.08653, 1.24901, 1.24953, 1.06081, 1.02473, 1.0246, 1.0247, 1.02577, 1.02802, 1.02886, 1.0284, 1.02841, 1.02865, 1.02887, 1.03145, 1.03257, 1.03199, 1.03279, 1.03212, 1.24646, 1.24648, 1.04343, 1.04742, 1.11185, 1.19133, 1.06133, 1.06375, 1.0654, 1.06559, 1.0656, 1.06289, 1.06346, 1.06973, 1.07151, 1.07406, 1.07598, 1.2441, 1.08481, 1.18541, 1.23075, 1.25132, 1.19659, 1.31516, 1.25703, 1.27801, 1.23621, 1.2357, 1.23737, 1.2647, 1.16836, 1.16871, 1.4577, 1.36456, 1.37098, 1.3834, 1.21158, 1.26395, 1.31667, 1.47534, 1.25378, 1.24106, 1.2347, 1.29121, 1.23538, 1.23787, 1.28678, 1.2481, 1.24697, 1.28492, 1.25635, 1.25759, 1.25882, 1.26154, 1.26046, 1.26244, 1.26339, 1.26162, 1.26079, 1.25958, 1.30582, 1.34479, 1.41135, 1.30644, 1.26615, 1.26719, 1.26902, 1.26981, 1.38255, 1.29831, 1.29764, 1.29301, 1.29227, 1.43414, 1.43418, 1.27914, 1.27846, 1.27953, 1.28412, 1.28417, 1.28452, 1.28177, 1.27726, 1.30499, 1.28104, 1.26738, 1.28988, 1.26781, 1.25311, 1.29299, 1.25757, 1.25512, 1.41938, 1.25432, 1.25375, 1.25456, 1.2579, 1.25762, 1.30922, 1.26777, 1.26705, 1.2677, 1.26096, 1.2595, 1.2564, 1.437, 1.3741, 1.4244, 1.23424, 1.23354, 1.22897, 1.22947, 1.35443, 1.23949, 1.24098, 1.24419, 1.35363, 1.26008, 1.25356, 1.25329, 1.25345, 1.30627, 1.41963, 1.31064, 1.30959, 1.29196, 1.23799, 1.29921, 1.2245, 1.22295, 1.25304, 1.45461, 1.31714, 1.31398, 1.35077, 1.31376, 1.34251, 1.38832, 1.20476, 1.2047
1.10146, 1.10083, 1.0998, 1.09808, 1.09431, 1.09423, 1.09414, 1.08838, 1.08856, 1.08715, 1.08651, 1.21267, 1.07527, 1.07435, 1.07354, 1.07295, 1.0718, 1.06549, 1.06482, 1.06405, 1.06464, 1.06326, 1.0632, 1.06398, 1.06362, 1.06386, 1.06246, 1.06211, 1.06152, 1.06056, 1.06229, 1.06059, 1.06019, 1.05956, 1.05939, 1.05943, 1.06012, 1.05967, 1.06036, 1.06023, 1.05523, 1.05532, 1.08054, 1.13026, 1.13041, 1.28468, 1.0412, 1.04022, 1.03965, 1.0395, 1.03924, 1.03833, 1.02948, 1.02955, 1.02604, 1.01952, 1.01567, 1.01556, 1.01485, 1.01428, 1.00576, 1.00619, 1.00961, 1.01295, 1.01326, 1.03919, 1.01948, 1.02308, 1.02324, 1.02396, 1.02491, 1.02517, 1.02519, 1.02639, 1.09245, 1.00741, 1.00521, 1.00633, 1.01343, 1.01614, 1.0165, 1.01653, 1.0219, 1.02033, 1.01981, 1.02105, 1.02145, 1.02327, 1.02431, 1.0241, 1.01951, 1.02156, 1.02162, 1.02042, 1.02139, 1.02087, 1.04118, 1.16934, 1.01172, 1.0119, 1.01203, 1.01176, 1.01105, 1.01134, 1.05459, 1.05283, 1.03654, 1.03683, 1.03678, 1.19943, 1.08849, 1.0886, 1.08903, 1.08884, 1.09461, 1.02975, 1.02448, 1.02363, 1.02517, 1.02531, 1.02655, 1.02885, 1.02748, 1.02741, 1.02768, 1.02742, 1.03203, 1.03162, 1.03161, 1.03182, 1.03413, 1.03843, 1.0412, 1.04557, 1.04956, 1.37773, 1.19491, 1.19662, 1.06321, 1.0616, 1.06335, 1.06408, 1.06505, 1.07078, 1.0702, 1.07325, 1.07636, 1.07726, 1.0842, 1.19839, 1.24581, 1.26844, 1.17805, 1.20751, 1.26238, 1.25351, 1.26403, 1.37866, 1.25455, 1.26028, 1.26143, 1.16632, 1.1683, 1.1791, 1.42012, 1.37067, 1.27746, 1.29897, 1.3189, 1.46003, 1.3203, 1.23255, 1.23245, 1.22974, 1.23589, 1.23633, 1.23755, 1.24367, 1.24821, 1.25448, 1.25395, 1.25919, 1.25791, 1.45932, 1.2707, 1.26352, 1.26503, 1.26512, 1.34435, 1.37159, 1.25739, 1.27065, 1.36231, 1.27176, 1.26916, 1.26736, 1.26772, 1.26853, 1.26948, 1.29908, 1.31843, 1.29292, 1.4819, 1.27748, 1.27647, 1.27842, 1.27795, 1.28301, 1.28576, 1.28676, 1.32358, 1.31924, 1.27158, 1.27105, 1.30638, 1.26151, 1.25988, 1.26037, 1.25514, 1.25411, 1.25511, 1.25168, 1.24825, 1.25511, 1.25452, 1.25322, 1.25621, 1.25598, 1.30744, 1.26883, 1.26783, 1.26687, 1.3184, 1.25656, 1.25646, 1.38316, 1.36207, 1.23921, 1.23502, 1.23324, 1.23301, 1.23587, 1.23625, 1.23987, 1.24005, 1.25517, 1.25476, 1.56094, 1.2508, 1.25126, 1.35467, 1.29894, 1.3051, 1.3089, 1.3165, 1.30432, 1.23453, 1.23358, 1.23126, 1.31666, 1.30322, 1.21015, 1.20904, 1.23199, 1.21163, 1.60972, 1.2578, 1.39006, 1.20442, 1.20554
1.10158, 1.10163, 1.10129, 1.10098, 1.09765, 1.09457, 1.09431, 1.09255, 1.08828, 1.08843, 1.08839, 1.08821, 1.0743, 1.0747, 1.07482, 1.0746, 1.07497, 1.06885, 1.06499, 1.0644, 1.06458, 1.06506, 1.06782, 1.06893, 1.06482, 1.06382, 1.06215, 1.06203, 1.06128, 1.06057, 1.06307, 1.06185, 1.06031, 1.06098, 1.06128, 1.14499, 1.06396, 1.06359, 1.0645, 1.06204, 1.05886, 1.05853, 1.05941, 1.05752, 1.05382, 1.05375, 1.28164, 1.27614, 1.03889, 1.03916, 1.03856, 1.03946, 1.0315, 1.03129, 1.18422, 1.02035, 1.01615, 1.01483, 1.01493, 1.01472, 1.01502, 1.01462, 1.01335, 1.01387, 1.01995, 1.0195, 1.16006, 1.02432, 1.02388, 1.0251, 1.0263, 1.02597, 1.02605, 1.02623, 1.18385, 1.04129, 1.0077, 1.00777, 1.00874, 1.22637, 1.01702, 1.01867, 1.02145, 1.02213, 1.02411, 1.02141, 1.02156, 1.02472, 1.02503, 1.02736, 1.02771, 1.02719, 1.02471, 1.0248, 1.02191, 1.0223, 1.02234, 1.26668, 1.01243, 1.01122, 1.01136, 1.01205, 1.0097, 1.00877, 1.00924, 1.28031, 1.03625, 1.03672, 1.0373, 1.1746, 1.15866, 1.08869, 1.08868, 1.08719, 1.09571, 1.11367, 1.02426, 1.02347, 1.02383, 1.02412, 1.02553, 1.0284, 1.02727, 1.02868, 1.02855, 1.02854, 1.02976, 1.03116, 1.03129, 1.03168, 1.03305, 1.03723, 1.03901, 1.04354, 1.04616, 1.04753, 1.28933, 1.05866, 1.3058, 1.06067, 1.06149, 1.06344, 1.06648, 1.07068, 1.07057, 1.07331, 1.07408, 1.07902, 1.08134, 1.0841, 1.23845, 1.24996, 1.17929, 1.17928, 1.2442, 1.3624, 1.31322, 1.36631, 1.19848, 1.20188, 1.26008, 1.16418, 1.15572, 1.15551, 1.17145, 1.37321, 1.47178, 1.47835, 1.21839, 1.23552, 1.35523, 1.23617, 1.23347, 1.45552, 1.23469, 1.23591, 1.24145, 1.24309, 1.25011, 1.25211, 1.25381, 1.26089, 1.26056, 1.26163, 1.26323, 1.26321, 1.26425, 1.26396, 1.27043, 1.26969, 1.38162, 1.38158, 1.48603, 1.50562, 1.34247, 1.26297, 1.26487, 1.26378, 1.43319, 1.45919, 1.29189, 1.28831, 1.28928, 1.27771, 1.27715, 1.27808, 1.27593, 1.28229, 1.28336, 1.29956, 1.45324, 1.27263, 1.27014, 1.26655, 1.2606, 1.25908, 1.26095, 1.25777, 1.25659, 1.25609, 1.25859, 1.25196, 1.24879, 1.2493, 1.34344, 1.34148, 1.30313, 1.25532, 1.25471, 1.30949, 1.31301, 1.34378, 1.26374, 1.28129, 1.25669, 1.25297, 1.27916, 1.33328, 1.23379, 1.23369, 1.23542, 1.23488, 1.2361, 1.24836, 1.24964, 1.37968, 1.28234, 1.59553, 1.35837, 1.36555, 1.38179, 1.29591, 1.30828, 1.30669, 1.30983, 1.29458, 1.23373, 1.25613, 1.21939, 1.21846, 1.20627, 1.20618, 1.20724, 1.20666, 1.20615, 1.24843, 1.24402, 1.20369, 1.37875, 1.37378
1.10122, 1.10228, 1.102, 1.10184, 1.09902, 1.09654, 1.09443, 1.08759, 1.08825, 1.08962, 1.08872, 1.08888, 1.09062, 1.07503, 1.07551, 1.07546, 1.07323, 1.07233, 1.2135, 1.06525, 1.06516, 1.06636, 1.06838, 1.06862, 1.06852, 1.06896, 1.15993, 1.35524, 1.06165, 1.06168, 1.06164, 1.06072, 1.0618, 1.06358, 1.06395, 1.06571, 1.06762, 1.0686, 1.06966, 1.07007, 1.14798, 1.06516, 1.145, 1.14546, 1.05914, 1.05251, 1.05267, 1.26896, 1.04038, 1.0387, 1.0379, 1.03719, 1.18097, 1.16672, 1.02828, 1.02865, 1.02245, 1.01639, 1.01558, 1.01479, 1.01494, 1.01545, 1.01549, 1.01633, 1.0183, 1.02048, 1.02556, 1.02518, 1.02508, 1.02503, 1.02632, 1.02684, 1.02702, 1.02645, 1.04089, 1.0426, 1.04284, 1.00811, 1.00944, 1.08167, 1.01173, 1.09408, 1.0306, 1.02594, 1.02548, 1.02608, 1.02479, 1.02508, 1.02773, 1.02859, 1.02837, 1.0284, 1.02836, 1.02811, 1.02417, 1.02199, 1.02276, 1.07039, 1.27442, 1.01191, 1.01003, 1.0098, 1.0113, 1.01116, 1.01127, 1.012, 1.03795, 1.03732, 1.04593, 1.18591, 1.19898, 1.08454, 1.08469, 1.08798, 1.25017, 1.25419, 1.08722, 1.02495, 1.02287, 1.02413, 1.02492, 1.02699, 1.02841, 1.0281, 1.02852, 1.02857, 1.02874, 1.03079, 1.03029, 1.03227, 1.03186, 1.0368, 1.03931, 1.04223, 1.04535, 1.04675, 1.04909, 1.04976, 1.42163, 1.42082, 1.06162, 1.06358, 1.06552, 1.07065, 1.07199, 1.07379, 1.07425, 1.07924, 1.07901, 1.08082, 1.25354, 1.23706, 1.23882, 1.1827, 1.1801, 1.3888, 1.19245, 1.1948, 1.20146, 1.20272, 1.27166, 1.45053, 1.16502, 1.15975, 1.16033, 1.35028, 1.37935, 1.37133, 1.30971, 1.39696, 1.2234, 1.22149, 1.4058, 1.22563, 1.40701, 1.23455, 1.23923, 1.28623, 1.28419, 1.2512, 1.25535, 1.2582, 1.25978, 1.2612, 1.26254, 1.2637, 1.26354, 1.26305, 1.26561, 1.35156, 1.5016, 1.50543, 1.49998, 1.50919, 1.34418, 1.25981, 1.26054, 1.26387, 1.46788, 1.27527, 1.38171, 1.28778, 1.28759, 1.27837, 1.43642, 1.27493, 1.27714, 1.27742, 1.37781, 1.427, 1.33297, 1.33789, 1.27012, 1.26965, 1.2595, 1.26014, 1.25496, 1.25762, 1.258, 1.25901, 1.25719, 1.25417, 1.24989, 1.24943, 1.24254, 1.24473, 1.35101, 1.30305, 1.30407, 1.30152, 1.3109, 1.27517, 1.37568, 1.39619, 1.28163, 1.24828, 1.24782, 1.40244, 1.23427, 1.23414, 1.23548, 1.23614, 1.24341, 1.24964, 1.24972, 1.2353, 1.23647, 1.26194, 1.23822, 1.37143, 1.35084, 1.38255, 1.34103, 1.35099, 1.33223, 1.29518, 1.27739, 1.27478, 1.229, 1.28483, 1.21057, 1.20736, 1.20826, 1.20331, 1.20618, 1.20513, 1.20551, 1.20513, 1.22658, 1.1977
