1.20833638006843,1.10050936498535,1.10103497213894,1.09510681276726,1.28846131320393,1.08307816380962,1.06285521316234,1.06302754337664,1.06953300896619,1.05560872765133,1.05248093426191,1.05127462276186,1.0489481648689,1.04521721572946,1.04798311566886,1.04658724093309,1.04113298965072,1.03811721090059,1.0447691571723,1.04772462034742,1.04880168418676,1.04739719294027,1.0419429416579,1.04209803885076,1.03053468147171,1.0234691426857,1.01494741358891,1.00647738355641,1.00215189517766,1.00039412699187,1.00379764872416,0.996275434870271,0.994509050173769,0.991027979845052,0.990381741541453,0.987805404837774,0.984660378426928,0.987865720412776,0.969839979997736,0.969822746976307,0.958784996750845,0.957492520143648,0.956113878429305,0.956803199286476,0.95816460797939,0.959000409518711,0.956785966265047,0.953597857300628,0.950177102546913,0.950952588511231,0.947437052139656,0.946342755278896,0.922423321535037,0.943292510485911,0.987159166534175,0.952925769464885,0.981773847337521,0.964730389143951,0.973209035687163,0.953709871939918,0.965997016219004,0.966117647369009,0.997671309606044,0.999842670306135,0.970580999919196,0.97791365053736,0.972321535083554,0.972037190229971,0.968271775047671,0.98813283224493,1.0262953582001,1.03075871075029,1.06080448361226,1.02084972342844,1.02107375270702,1.02685543139655,1.00937253115653,0.993811112805883,0.992260140877246,0.979921297533872,0.986151034780562,0.959284754372294,0.967177478186911,0.972493865297847,0.959086574625858,0.988313778969938,0.950418364846923,0.940630008675085,0.945420788632429,0.928360097417429,0.922500870131469,0.93223752723902,0.950108170461196,0.904276949969992,0.895970633641073,0.895858619001783,0.891886407562331,0.889223905751505,0.886699268112113,0.886880214837121,0.912333387488186,0.893514928087399,0.916107419181201,0.873559089272278,0.881960187219058,0.86375350007901,0.91480632606329,0.902967240341366,0.911773314291734,0.908025132130863,0.926231819270911,0.927420897749532,0.921544437442143,0.929962768410353,0.930970900163966,0.913169189027507,1.03342121256111,1.03737619097913,0.933969445892663,0.931530973360418,0.926903907106653,0.927532912388823,0.924887643599426,0.924181089720825,0.925490799349451,0.922828297538626,0.916736424463371,0.991148610995057,0.92624905229234,0.907594306595131,0.906629257395091,0.908533506263027,0.907732170766565,0.907292728720118,0.904371731587853,0.898874397751909,0.898107528298305,0.897797333912578,0.910567002791684,0.983281736712584,0.974940954340807,0.894678157033876,0.966246895029729,0.905612509130762,0.904147702309272,0.90482840665573,0.902691511998497,0.905233382659318,0.906120883262926,0.90358762911282
1.12409275481134,1.20182229796816,1.19022447454625,1.18419291704599,1.08892015807415,1.07839078198085,1.07746881533438,1.06534538475888,1.07698629073436,1.05588445599419,1.05233445357976,1.05271358005121,1.05292899281907,1.04457097742586,1.04622534748308,1.04722486272598,1.04154658216502,1.03943553703993,1.04371794286511,1.04740580945098,1.04872413559032,1.0860077774526,1.0415896647186,1.04177922795432,1.02949208367523,1.02913880673593,1.01526622448535,1.00598624244568,0.997309416156029,0.997619610541756,1.04829331005459,0.995232837073799,0.994060991616607,0.99033865898788,0.987589992069908,0.986366447548428,1.04270119460079,1.10382672161049,0.969745198379875,0.969650416762014,0.959353686458012,0.959198589265148,0.956630869072183,0.957354655972214,0.957458054100789,0.958233540065108,0.956208660047166,0.954304411179229,0.949505014711171,0.949461932157597,0.949806592586183,0.94807467393254,0.952158900011282,0.970313888087042,0.983635013651885,0.953804653557779,0.938898090021441,0.949470548668312,0.96461837450466,0.969538402122724,0.94573959952887,0.952426011843436,0.976724572058739,0.969133426119135,0.981903094998241,0.988460259652087,1.01461136967104,0.962895072361731,0.969676266294158,0.996981988748872,1.01210396505308,1.05352353205838,1.00994983737442,1.00331512412414,1.0120608824995,1.01025141524943,0.983574698076883,1.04672510510453,1.03569597138978,0.988916934719963,0.966746652651178,0.967056847036906,0.967479056061923,0.962050654311696,0.958009510786527,0.968599202454827,0.945007196118125,0.93088473505682,0.914961423256154,0.91577137526333,0.946403070853898,0.931591288935421,0.919691887638495,0.903630711666394,0.909421006866636,0.931212162463977,0.899848063462664,0.894083617794565,0.893058253019522,0.931470657785416,0.911885328931025,0.912807295577492,0.861498559224987,0.856878386179794,0.880719409676149,0.883218197783396,0.906904985737959,0.905526344023616,0.913186422048936,0.919390309763482,0.925844076288752,0.93051422509609,0.932073813535441,0.928739223888873,0.930591773692522,0.915840307349047,1.03336089698611,1.04178784446503,1.04304585502937,0.931134613867545,0.927963737924555,0.926912523617368,0.924879027088711,0.924999658238717,0.92088958262783,0.922931695667201,0.918580357756305,0.918158148731287,0.925783760713749,0.910523920238111,0.90638799509508,0.907930350513002,0.908292243963017,0.908283627452303,0.905543577045045,0.955803684043577,0.897926581573298,0.997498979391751,0.908602438348744,0.900141024826962,0.916538244716934,0.905112751509313,0.899899762526952,0.904225250905704,0.910162026788096,1.08169952209528,0.944317875260954,0.898254008980454,0.904423430652141,0.90712901501654
1.12416168689705,1.20363176521824,1.21842631411528,1.09573581804943,1.08960086242061,1.07721893652366,1.0768311935415,1.06904186785546,1.06775800775898,1.18727762788184,1.05433348406556,1.05385095946554,1.05443688219413,1.34241790329905,1.0604770562051,1.05343736695124,1.05292037630836,1.04295968992223,1.04731102783312,1.04737134340812,1.04875860163318,1.071592355027,1.04411430235799,1.04421770048656,1.03666102058982,1.03480847078617,1.0149387970782,1.10313740075332,0.997257717091741,0.997180168495309,0.996060022102405,0.999256747577539,0.990838416609329,0.988210380841362,0.986013170609128,0.984100305230476,1.07962294301305,0.968538886879825,0.969400537951289,0.96754798814764,0.959379535990156,0.959026259050855,0.957104777161489,0.956096645407875,0.956424072815032,0.956355140729315,0.954942032972113,0.953752954493492,0.952917152954171,0.950771641786224,0.950719942721936,0.947928193250391,0.9508750399148,0.971003208944213,0.980481370730324,0.999946068434711,0.956036329832873,0.947161323796787,0.940673091228658,0.95172807447555,0.94318049584662,0.928377330438858,0.987727856241342,1.02692436348227,0.996844124577438,0.966393375711878,0.974535978337219,0.959284754372294,0.969581484676297,1.00567604805995,0.987684773687769,1.0024707060741,1.03504973308618,1.03702291403983,1.00551233435637,1.00832131684935,0.982583799344698,0.974915104808663,0.970417286215618,0.975690590772981,0.957888879636522,0.981360254823219,0.980024695662448,0.966962065419044,0.958991793007997,0.95415793049708,0.929833520749633,0.926292134845914,0.909912147977371,0.919088731888469,0.912634965363199,0.917408512299113,0.914840792106149,0.900321971551969,0.887474754076432,0.93698522464279,0.944964113564552,0.898770999623333,0.895220997208899,0.895048666994606,0.892748058633795,0.907034233398679,0.861507175735702,0.91115292552028,0.87057777656501,0.947557683289661,0.907034233398679,0.917770405749128,0.918511425670588,0.919226596059904,0.92406045857082,0.933150877374772,0.933754033124797,0.927619077495969,0.924947959174429,0.917925502941992,0.918726838438454,1.04139148497216,1.02265919067852,0.932375391410454,0.928006820478128,0.926481698081636,0.924396502488691,0.924922109642285,0.920200261770659,0.924258638317257,0.919105964909898,0.916314215438353,0.91651239518479,0.911781930802449,0.907913117491573,0.909179744566626,0.909636419634502,0.910144793766666,0.907309961741548,0.906319063009363,0.925404634242305,0.970572383408481,0.901674763734169,0.900830345684133,0.90165753071274,0.901243938198436,0.898822698687621,0.902881075234219,0.891472815048028,0.891085072065868,0.887664317312154,0.889852911033674,0.935649665482019,0.907490908466555
1.14882214056237,1.10112113724609,1.10155196278182,1.09515851183155,1.08675741388477,1.07916626794517,1.07807197108441,1.06886092113045,1.06799065354827,1.19628188157864,1.05647037872279,1.0552985332656,1.05614295131563,1.05714246655853,1.05596200459063,1.0570649179621,1.04958578666179,1.04489840483302,1.04721624621526,1.04731964434384,1.04881891720818,1.04531199734732,1.04396782167584,1.04419185095442,1.0441229188687,1.03389512065042,1.02992290921097,1.00581391223138,0.997507595902466,0.990778101034327,0.995241453584514,0.996990605259587,1.03320579979325,0.997188785006024,0.985556495541251,1.21809888670813,1.15065745734459,0.966970681929759,0.969064494033418,0.968754299647691,0.965893618090428,0.958457569343688,0.957587301761509,0.955131596207835,0.955674436382858,0.954692154161388,0.954545673479239,0.953279046404186,0.952839604357739,0.950590695061216,0.950314966718347,0.950401131825494,0.949194820325443,0.949125888239726,1.04825884401173,0.966057331794007,0.95866436560084,0.940742023314376,0.929480243810333,0.924689463852989,0.965109515615395,0.929014952231742,0.966229662008299,1.01473200082104,0.96085295932236,0.970382820172759,0.971985491165683,0.954718003693532,0.983566081566168,0.985522029498393,0.986461229166289,1.00614995614926,1.0313532499896,0.99618065325241,0.997679926116759,1.01275881986739,0.976457460226585,0.975621658687264,0.987934652498494,0.982962925816143,0.965462792554696,0.974647992976509,0.972872991769292,0.948626130618277,0.953382444532762,0.953141182232752,0.949453315646883,0.919674654617065,0.915521496452605,0.917486060895545,0.913307053198941,0.912074892166747,0.913944674991825,0.884820868776321,0.885389558483487,0.891360800408737,0.90859382183803,0.941689839492986,0.899400004905502,0.927524295878108,0.931281094549694,0.862486873003957,0.879564797240386,0.875859697633088,0.871336029507899,0.896142963855366,0.895160681633896,0.934788014410555,0.925344318667302,0.920338125942093,0.92782587375312,0.932849299499759,0.934934495092704,0.928006820478128,0.925602813988742,0.926292134845914,1.0891872699063,1.08988520727419,1.01854911506763,1.01411161204959,0.930436676499658,0.925490799349451,0.924947959174429,0.923715798142234,0.9222251417886,0.924267254827972,0.925077206835148,0.916960453741951,0.917244798595535,0.914349650995414,0.909765667295222,0.909894914955941,0.909825982870224,0.910325740491674,0.90762877263799,0.906853286673671,1.01139741117448,0.905939936537919,0.903423915409242,0.901019908919856,0.901442117944873,0.901855710459176,0.901700613266313,0.899494786523363,0.890559464912275,0.890430217251555,0.886811282751404,0.888724148130055,0.901088841005573,0.906810204120098
1.11935367391828,1.18020347258511,1.09690766350663,1.09797611083524,1.5956571532025,1.07785655831654,1.07780485925226,1.06996383450193,1.06796480401613,1.06519890407673,1.06391504398025,1.05820229737643,1.05632389804064,1.05611710178349,1.05675472357637,1.05661685940494,1.05616880084778,1.04526891479375,1.04195155816861,1.04733687736527,1.04799173217958,1.04436418116871,1.0440626032937,1.04365762729011,1.03803966230416,1.03603201530765,1.01779947863546,1.00626197078855,0.997473129859607,0.990269726902163,0.9942333218309,0.996335750445274,1.04065908156141,1.0392976728685,0.981368871333933,0.981506735505367,1.04015932393997,0.966065948304721,0.968986945436986,0.968685367561974,0.967341191890489,0.957259874354352,0.956880747882908,0.953442760107764,0.952874070400597,0.95451120743638,0.953520308704196,0.952021035839848,0.951977953286274,0.952313997204146,0.945817148125302,0.948583048064704,0.94891047547186,0.949548097264744,0.994784778516637,0.939716658539333,0.951331714982676,0.966152113411868,0.920139946195656,0.928911554103166,0.922561185706471,0.931617138467565,1.01532654006035,1.00456451817776,0.970451752258476,0.976595324398019,0.977069232487324,0.961749076436684,0.966427841754736,0.978137679815941,0.985608194605539,0.988667055909239,0.982540716791125,0.990803950566471,0.990614387330748,0.97826692747666,0.993707714677307,0.967048230526191,0.966806968226181,0.956389606772173,0.943990447853797,0.967840949511938,0.964489126843941,0.963593009729617,0.931315560592552,0.930867502035391,0.935899544292744,0.960654779575923,0.944360957814527,0.910377439555962,0.899417237926932,0.903639328177108,0.89348046204454,0.883959217704856,0.913117489963219,0.889878760565818,0.908387025580878,0.910239575384527,0.896815051691108,0.927894805838838,0.929799054706775,0.871008602100742,0.880374749247563,0.883356061954831,0.874334575236596,0.896530706837525,0.911747464759591,0.913195038559651,0.925034124281575,0.923913977888671,0.925697595606603,1.08659370018119,0.93503789322128,0.996499464148852,0.925956090928042,0.926938373149512,1.0608303331444,0.940871270975095,1.00632228636355,1.01736865309973,0.929755972153201,0.925232304028012,0.926395532974489,0.925008274749431,0.923853662313669,0.924120774145823,0.919597106020633,0.919062882356325,0.919080115377755,0.919140430952757,0.909386540823777,0.909808749848795,0.909377924313063,0.909843215891654,0.908016515620148,0.906861903184386,0.907818335873712,0.90749952497727,0.906155349305785,0.901804011394889,0.902682895487782,0.903923673030692,0.902915541277078,0.897814566934007,0.895462259508909,0.889620265244379,0.882132517433351,0.887457521055002,0.898883014262623,0.908137146770154
1.33311207172723,1.22273456947261,1.09680426537805,1.1993148933502,1.08276796942389,1.07831323338442,1.0770638393308,1.07339320576636,1.06617256978748,1.06458713181599,1.06477669505171,1.06142487238371,1.05486770772987,1.05458336287628,1.05698736936567,1.05665994195851,1.05737511234783,1.04133978590787,1.04116745569358,1.04707838204383,1.04679403719024,1.04404537027227,1.04410568584727,1.04448481231872,1.03499803402189,1.01977265958911,1.0184715664712,1.01224182922451,1.00073017090974,0.993354437738006,0.993345821227292,1.00500396022421,1.0082351517422,1.00845056451007,0.990536838734317,1.07543531880573,0.965712671365421,0.965928084133287,0.968013279726231,0.968357940154817,0.970503451322764,0.958268006107966,0.954623222075671,0.951702224943406,0.950358049271921,0.949401616582595,0.951572977282686,0.951564360771971,0.951392030557678,0.951400647068393,0.945713749996727,0.945791298593158,0.949806592586183,0.95063377761479,0.955691669404287,0.988529191737804,0.985875306437693,0.937123088814224,0.958879778368706,0.926205969738767,0.926093955099477,0.957639000825797,0.97936122433742,0.947988508825393,0.978663286969534,0.98727979768418,0.946282439703893,0.93782102618211,0.973157336622875,0.971347869372799,0.973838040969332,0.986986836319882,0.982273604958971,0.990269726902163,0.993785263273739,0.975750906347984,0.971149689626363,0.964239248033216,0.965721287876135,0.955424557572133,0.950366665782635,0.957182325757921,0.963739490411767,0.938949789085729,0.948574431553989,0.928110218606704,0.937088622771366,0.899287990266212,0.901054374962714,0.91553011296332,0.889241138772934,0.878134456461755,0.911083993434563,0.877944893226033,0.876169892018816,0.877962126247462,0.89275667514451,0.922138976681454,0.924637764788701,0.884295261622727,0.889982158694394,0.930746870885386,0.890102789844399,0.893532161108828,0.92674880991379,0.966531239883312,0.935184373903429,0.914642612359712,0.967746167894077,0.925180604963724,0.926421382506633,0.931177696421118,0.936795661407067,0.936899059535643,0.931117380846116,0.928584126696009,0.929885219813921,0.939501245771466,0.941103916764391,0.946575401068191,1.01030311431372,0.924827328024424,0.925301236113729,0.925387401220876,0.924973808706573,0.923190190988641,0.921802932763583,0.919416159295626,0.91931276116705,0.919717737170638,0.910032779127376,0.908412875113022,0.90724102965583,0.90870583647732,0.90761153961656,0.905164450573601,0.908430108134452,0.909274526184487,0.906198431859358,0.902924157787793,0.903432531919957,0.903406682387813,0.903691027241396,0.895358861380333,0.938613745167858,0.879556180729672,0.87873761221178,0.884295261622727,1.05754744256212,0.906017485134351
1.10971179842859,1.09144479571354,1.09468460374225,1.16724424047028,1.08284551802032,1.07787379133797,1.07998483646306,1.07425485683782,1.07264356933418,1.06383749538381,1.06423385487669,1.06286382967306,1.0601237792658,1.05685812170495,1.05684088868352,1.05705630145139,1.05737511234783,1.18389133917098,1.04089172735071,1.04696636740454,1.04645799327237,1.044355564658,1.04407983631513,1.04203772327576,1.02875106375377,1.02645907190368,1.01977265958911,1.01297423263526,1.00847641404221,0.993294122163004,0.99350953493087,0.99606863861312,1.00845918102078,1.03806551183631,1.05051636981897,1.03265434310751,0.963773956454625,0.962128202908128,0.966488157329739,0.974768624126514,0.973622628201466,1.17223320017406,0.954356110243517,0.951831472604125,0.951797006561267,0.946196274596746,0.951435113111252,0.951081836171951,0.951624676346974,0.949823825607613,0.949436082625454,0.94525707492885,0.950513146464784,0.951012904086234,0.955639970339999,0.943576855339494,0.964161699436784,0.945886080211019,0.965135365147539,0.939966537350057,0.947109624732499,0.918433877074156,0.953459993129193,0.937286802517802,0.945825764636017,0.954855867864966,0.966109030858294,0.936959375110646,0.953572007768484,0.97255418087285,0.973174569644304,0.970813645708491,0.985823607373405,0.94807467393254,0.977525907555201,0.997395581263175,0.971778694908532,0.973665710755039,0.987348729769898,0.952365696268433,0.933650634996221,0.952296764182716,0.951297248939817,0.954838634843537,0.958250773086537,0.953709871939918,0.91602987058477,0.900882044748421,0.881744774451192,0.89958095163051,0.899606801162654,0.870198650093566,0.859104892548458,0.881115769169023,0.883433610551262,0.874670619154467,0.898641751962613,0.924396502488691,0.919450625338484,0.89652209032681,0.891653761773035,0.874618920090179,0.887974511697881,0.875558119758076,0.924956575685143,0.922216525277886,0.923974293463674,0.91797720200628,0.99532761869166,0.970020926722744,0.928006820478128,0.936899059535643,0.937484982264239,0.938027822439262,1.05206734174761,0.936950758599931,0.93160852195685,1.02669171769297,0.945084744714557,0.947032076136067,1.0432957338401,0.927455363792391,0.925008274749431,0.925180604963724,0.92504274079229,0.924293104360115,0.932857916010474,0.932452940006886,0.918287396392007,0.914754626999002,0.909670885677361,0.90762877263799,0.907215180123686,0.909489938952353,0.906086417220068,0.904690542484295,0.907844185405856,0.907870034938,0.906456927180798,0.905388479852181,0.901209472155578,0.903277434727093,0.903311900769952,0.889068808558641,0.887741865908586,0.877229722836717,0.87788457765103,0.883330212422687,0.889379002944369,0.989028949359254
1.11233121768584,1.31048511459057,1.09396943335293,1.19367969534282,1.22189015142257,1.26785923608521,1.08119114796311,1.07567658110574,1.07251432167346,1.06874028998045,1.06485424364814,1.06479392807314,1.06155412004443,1.06093373127298,1.05598785412277,1.05633251455136,1.05695290332281,1.23447887357667,1.04099512547929,1.0468888188081,1.04634597863308,1.0425891799615,1.04485532227945,1.0415896647186,1.02602824636795,1.02564050338579,1.02053952904272,1.01419777715674,1.00081633601689,0.996189269763125,0.991639752105791,1.00882969098151,1.00410784310988,1.02785494663945,1.00320310948485,1.02621780960367,0.965143981658254,0.963842888540343,0.96572990438685,0.975742289837269,0.969883062551309,0.968211459472668,0.954649071607815,0.951909021200557,0.953123949211322,0.949677344925464,0.943559622318065,0.951486812175539,0.949246519389732,0.950254651143345,0.949884141182615,1.10808327790352,0.951719457964835,0.950943972000517,0.95755283571865,0.944024913896656,0.972450782744274,0.927705242603116,0.957156476225777,0.91554734598475,0.91699491978481,0.930419443478229,0.923043710306492,0.949255135900446,0.925085823345863,0.905190300105745,0.930298812328224,0.930066166538929,0.981575667591085,0.95475246973639,0.972450782744274,0.950538995996928,0.944248943175236,0.943585471850209,0.961533663668817,1.01225044573523,0.95829385564011,0.967125779122622,0.939484012750037,0.943189112357335,0.958957326965138,0.945205375864562,0.948255620657547,0.940914353528668,0.932177211664017,0.924620531767272,0.914056689631116,0.888241623530035,0.893506311576684,0.905207533127174,0.872973166543682,0.853895350170383,0.861426180534984,0.862478256493243,0.895850002491068,0.872128748493646,0.900864811726992,0.910713483473833,0.910334357002389,0.87519622630806,0.899942845080525,0.877712247436737,0.883967834215571,0.872757753775816,0.925775144203035,0.922940312177916,0.923035093795777,0.922061428085022,0.980265957962458,0.947600765843234,0.93138449267827,0.937269569496373,0.937631462946388,0.938148453589267,0.937855492224969,0.936847360471355,0.931177696421118,1.07411699266639,0.943258044443052,0.947557683289661,0.947721396993239,1.01280190242096,0.924939342663714,0.925051357303004,0.924947959174429,0.92480147849228,0.924991041728002,0.96183524154383,1.34354666620266,0.912574649788196,0.911411420841719,0.908343943027305,0.911333872245287,0.911049527391704,0.906310446498649,0.904449280184285,0.906973917823676,0.908102680727295,0.905621125641477,0.907654622170133,0.89932245630907,0.904018454648553,0.904966270827164,0.909825982870224,0.886595869983538,0.884295261622727,0.88129671589403,0.887147326669275,0.887655700801439,0.949513631221885
1.10879844829284,1.31668900230511,1.20929281275776,1.09417622961008,1.59194343708449,1.08340559121678,1.08022609876307,1.08321602798105,1.17628296020995,1.06880060555545,1.06505242339458,1.0652419866303,1.06234683903018,1.06079586710154,1.05705630145139,1.05589307250491,1.05325642022623,1.05434210057627,1.16210880008436,1.04800896520101,1.0453550799009,1.04401090422941,1.04431248210442,1.04326988430795,1.04832777609745,1.02043613091414,1.02057399508557,1.01575736559609,1.00071293788831,0.99972203915613,0.990623003841463,0.990407591073597,0.997257717091741,1.0027636674384,1.02239207884636,1.0233571280464,0.967651386276216,0.966384759201163,0.966367526179734,0.975862920987274,0.968478571304822,0.966643254522602,0.955450407104277,0.952943002486315,0.953511692193482,0.94488656496812,0.943887049725221,0.949548097264744,0.94989275769333,0.951667758900547,0.952408778822006,0.952408778822006,0.952184749543426,0.952520793461297,0.955372858507845,0.9426979712466,0.962533178911716,0.924896260110141,0.926697110849502,0.918296012902722,0.972916074322865,0.932711435328325,0.932978547160479,0.934081460531954,0.903217119152091,0.911911178463169,0.931617138467565,0.929247598021037,0.963593009729617,0.984591446341211,0.948772611300426,0.951753924007694,0.934805247431984,0.946954527539635,0.940113018032206,1.01113029934232,0.959448468075873,0.942637655671598,0.928041286520987,0.929695656578199,0.930893351567535,0.94466253568954,0.922983394731489,0.928584126696009,0.915831690838333,0.916779507016944,0.892446480758783,0.901338719816298,0.909955230530944,0.858207052131992,0.875006663072338,0.853355956599646,0.860656726128166,0.883933368172712,0.876816130322414,0.876755814747412,0.859612405029551,0.865382020604078,0.911704382206017,0.876006178315237,0.878849626851071,0.895065900016035,0.880348899715419,0.87387790016872,0.961499197625958,0.92417247321011,0.926205969738767,0.925740678160176,0.925456333306593,0.94794542627182,0.952908536443456,0.936528549574913,0.93696799162136,0.939337532067888,0.939475396239322,0.936761195364209,0.932297842814022,0.933728183592653,0.943102947250189,1.02819960706804,1.01418054413531,0.943120180271618,0.92541325075302,0.924904876620856,0.923509001885083,0.924844561045853,0.925163371942295,0.930798569949673,0.912402319573903,0.912772829534633,0.912204139827467,0.908542122773742,0.911747464759591,0.91211797472032,0.907456442423697,0.906086417220068,0.905733140280767,0.909119428991623,0.907353044295121,0.907568457062987,0.908378409070164,0.907801102852282,0.904966270827164,0.944877948457406,0.89349769506597,0.890697329083709,1.08534430612757,0.887836647526447,0.889180823197932,0.947195789839646
1.1061876455463,1.10486931940696,1.30992504139411,1.30176520574734,1.21677194405807,1.08176845418099,1.08096711868453,1.08189770184171,1.07901117075231,1.09683011491019,1.06501795735172,1.06513858850173,1.06270873248019,1.06175229979087,1.05757329209427,1.05543639743703,1.05344598346195,1.05526406722274,1.05602232016563,1.04954270410822,1.0446485260223,1.04320095222224,1.04637182816523,1.04714731412954,1.05731479677283,1.02066877670344,1.01992775678198,1.02089280598202,0.999523859409693,0.998619125784655,0.990011231580723,0.990054314134297,0.995741211205963,0.991355407252208,1.00329789110271,1.01212119807451,1.01292253357097,0.966143496901153,0.96671218660832,0.977629305683777,1.15176037071606,0.959913759654463,0.95938815250087,0.952503560439868,0.952727589718448,1.1311324440652,0.942818602396605,0.942525641032307,0.948307319721835,0.950435597868353,0.952391545800577,0.952089967925565,0.952141666989852,0.950409748336209,0.967263643294057,0.942973699589469,0.943292510485911,0.923500385374368,0.9239312109101,0.919002566781323,0.917287881149108,0.943077097718045,0.919769436234926,0.923043710306492,0.910885813688126,0.912212756338181,0.933056095756911,0.907042849909394,0.981773847337521,0.981506735505367,0.925723445138747,0.952339846736289,0.985737442266259,0.93223752723902,0.957819947550805,0.955605504297141,0.948514115978987,0.927929271881696,0.928885704571022,0.90419940137356,0.911988727059601,0.910859964155982,0.918838853077744,0.930600390203237,0.916081569649058,0.948531349000416,0.908025132130863,0.878280937143904,0.860748922792813,0.857584940058395,0.886440772790674,0.85691112892051,0.877298654922434,0.867045007172005,0.886707884622828,0.886458005812103,0.860256058379935,0.886776816708545,0.863391606628995,0.887018079008555,0.879711277922535,0.920363975474237,0.888241623530035,0.933288741546206,0.964308180118933,0.928110218606704,0.926059489056618,0.927420897749532,0.92650754761378,0.947643848396807,0.953003318061317,0.938613745167858,0.939165201853595,0.940862654464381,0.939932071307199,0.936812894428497,0.931660221021138,0.932926848096191,0.942930617035896,0.943051248185901,0.952236448607714,1.01145772674948,0.925602813988742,0.92454298317084,1.09440887539938,0.920303659899234,0.921846015317156,0.92077756798854,0.911583751056012,0.911368338288146,0.912333387488186,0.913591398052525,0.91297100928107,0.911247707138141,0.908533506263027,0.907353044295121,0.906904985737959,0.90809406421658,0.909059113416621,0.908395642091593,0.908507656730884,0.908998797841618,0.904320032523565,1.26125898887779,0.89568628878749,0.89494526886603,0.894359346137434,0.886819899262118,0.892541262376644,0.898788232644762
1.16987227623825,1.15524144104478,1.15643913603412,1.3007398409723,1.0953049925137,1.08296614917033,1.08132039562383,1.08190631835243,1.08160474047741,1.15849848209492,1.06616395327677,1.06670679345179,1.06199356209088,1.06213142626231,1.05622049991207,1.05568627624776,1.05504865445487,1.05502280492273,1.05333396882266,1.05086964675827,1.04716454715097,1.04484670576873,1.04650107582594,1.04727656179026,1.03054329798242,1.02986259363596,1.02085833993916,1.01431840830674,1.00109206435976,0.997361115220317,0.99679242551315,0.99350953493087,0.995835992823824,0.987986351562781,1.17608478046351,1.00449558609204,1.1936107632571,0.964928568890388,0.970055392765602,0.975621658687264,1.0880068079384,0.959543249693734,0.959258904840151,0.951797006561267,0.95184008911484,0.951693608432691,1.12746181050076,0.941164232339393,0.94720440635036,0.948772611300426,0.95050452995407,0.952107200946994,0.952021035839848,0.944266176196666,0.966703570097605,0.964316796629648,0.945213992375277,0.937915807799971,0.955286693400698,0.917667007620553,0.971261704265653,0.942904767503752,0.918132299199143,0.937510831796383,0.913134722984648,0.916693341909797,0.903691027241396,0.947411202607512,0.98447943170192,0.957802714529375,0.949056956154009,0.946696032218196,0.941784621110848,0.958492035386547,0.955312542932842,0.941707072514416,0.933702334060509,0.943499306743062,0.919821135299214,0.895539808105341,0.91054115325954,0.922992011242204,0.899572335119795,0.903785808859257,0.934469203514113,0.933762649635512,0.88409708187629,0.879521714686813,0.878875476383215,0.858163107927348,0.85006961941308,0.842069189214531,0.878246471101045,0.880779725251151,0.896513473816096,0.887440288033573,0.877134941218856,0.869190518339952,0.909645036145217,0.945782682082444,0.915426714834745,0.907508141487984,0.972743744108572,0.973252118240736,0.966996531461903,1.02901817558593,0.917692857152696,0.925878542331611,0.928273932310282,0.947437052139656,0.95221059907557,0.941500276257264,0.94295646656804,0.94318049584662,0.941836320175136,0.936821510939211,0.936407918424908,0.932159978642588,0.942112048518004,0.943085714228759,0.952184749543426,1.01169898904949,1.00242762352053,0.923414220267222,0.921837398806441,0.918744071459883,0.920157179217085,0.91870098890631,0.917193099531247,1.28327417375371,0.916598560291936,0.916150501734775,0.912178290295323,0.910920279730984,0.908154379791583,0.908059598173722,0.903406682387813,0.907172097570113,0.908197462345156,0.907327194762977,0.908559355795171,0.908938482266616,0.904500979248573,0.90724102965583,0.899960078101954,0.898348790598315,0.89505728350532,0.887009462497841,0.892300000076634,0.899158742605492
1.11524359830739,1.143428204855,1.1050674991534,1.15954107989139,1.09602877941373,1.08184600277742,1.08142379375241,1.08143241026312,1.08070000685238,1.52067627696365,1.06848179465901,1.06737026477682,1.06787002239827,1.13265756646169,1.06481977760528,1.05592753854777,1.05693567030138,1.05699598587638,1.05279112864764,1.05130908880472,1.05167098225473,1.04737995991884,1.04678542067953,1.04452789487229,1.02962133133595,1.02820822357875,1.04423493350799,1.08418107718109,1.0047626979242,0.99775747471319,0.996008323038117,0.993276889141574,0.994310870427332,0.987831254369918,0.983703945737602,1.21199839712216,0.991217543080774,0.983100789987577,0.970193256937037,0.970356970640615,0.967573837679784,0.959215822286577,0.958802229772274,0.95184008911484,0.951633292857688,0.950849190382656,0.952046885371992,0.940793722378663,0.94573959952887,0.947928193250391,0.949427466114739,0.952632808100587,0.947859261164673,0.944205860621663,0.945033045650269,0.963076019086739,0.945644817911009,0.943671636957355,0.94442127338953,0.942172364093007,0.939294449514315,0.939837289689338,0.926283518335199,0.942336077796585,0.964006602243921,0.916452079609787,0.901407651902015,0.898917480305482,0.91808921664557,0.943214961889479,0.922164826213598,0.940543843567939,0.942560107075166,0.934727698835552,0.946135959021744,0.922914462645772,0.921087762374267,0.931487890806845,0.923483152352939,0.895522575083911,0.897357891866131,0.905190300105745,0.904923188273591,0.892437864248068,0.937588380392815,0.899391388394788,0.884476208347735,0.858144151603775,0.875006663072338,0.868053138925619,0.848300649763363,0.845284009362166,0.841281640135212,0.865683598479091,0.889594415712235,0.890671479551565,0.878436034336768,0.873653870890139,0.90724102965583,0.907206563612972,0.916572710759792,0.953709871939918,0.9529343859756,0.916607176802651,0.921777083231439,0.915331933216883,0.91530608368474,0.91554734598475,0.976052484222996,0.944429889900244,0.946627100132479,0.942499791500163,0.943447607678774,0.944067996450229,0.943025398653757,0.936071874507037,0.935080975774853,0.93186701727829,0.939811440157194,0.941414111150118,1.03833262366846,1.00913126885652,0.955054047611403,0.920622470795676,0.918881935631318,0.916891521656234,0.916874288634805,0.917150016977674,0.91565936062404,1.2822057264251,0.917141400466959,0.916719191441941,0.910842731134553,0.905983019091492,0.907439209402267,0.907482291955841,0.901829860927032,0.906224281391502,0.908102680727295,0.907421976380838,0.908955715288045,0.90894709877733,0.907990666088005,0.906043334666495,0.899150126094778,0.898770999623333,0.898047212723303,1.0594172253872,0.892946238380232,0.8962808280268
1.15121753054104,1.1563702039484,1.10426616365693,1.09778654759952,1.15263925480896,1.08213896414172,1.08231129435602,1.08143241026312,1.0811825314524,1.22862826280143,1.068180216784,1.06752536196968,1.06726686664824,1.06710315294466,1.10814359347853,1.06581929284818,1.06232960600875,1.0562377329335,1.05162789970116,1.05148141901901,1.05256709936906,1.08605947651689,1.04969780130108,1.0584780257193,1.03168067739675,1.02684681488584,1.05393712457268,1.00837301591363,1.00454728515633,0.996370216488132,0.995034657327362,0.993328588205862,0.991122761462913,0.988701521952097,0.9805847688589,1.08705899175979,1.15636158743769,0.980533069794612,0.970081242297746,0.970184640426322,0.966626021501173,0.958853928836562,0.958500651897262,0.952917152954171,0.95208135141485,0.950926738979087,0.950194335568342,0.942517024521593,0.941146999317964,0.948720912236138,0.950823340850512,0.951883171668413,0.944567754071678,0.946876978943204,0.945799915103873,0.960396284254484,0.945119210757416,0.946472002939615,0.949143121261156,0.93820876916427,0.93843279844285,0.958509268407976,0.961714610393825,0.954873100886396,0.962171285461701,0.916529628206219,0.942809985885891,0.901235321687722,0.938984255128588,0.936812894428497,0.922052811574308,0.922543952685042,0.934589834664118,0.952744822739878,0.939440930196464,0.919166280484901,0.921794316252868,0.932116896089014,0.889396235965798,0.904923188273591,0.891946723137333,0.892877306294515,0.908240544898729,0.880564312483285,0.908576588816601,0.901597215137737,0.859776980384201,0.857914952418766,0.875842464611659,0.940457678460792,0.869664426429258,0.854612243861842,0.884863951329894,0.859460754440973,0.853200859406783,0.868690760718503,0.872947317011538,0.882951085951242,0.895970633641073,0.935382553649865,0.928687524824585,0.990200794816446,0.962438397293855,0.918192614774146,0.920062397599224,0.916219433820492,0.914599529806138,0.915219918577593,1.11646714282887,0.945231225396706,0.945860230678875,0.945455254675287,0.945446638164572,0.944326491771668,0.943206345378764,0.937045540217792,0.93672672932135,0.931117380846116,0.939932071307199,0.939888988753625,1.24146686376625,1.04750059106884,0.9942333218309,0.922121743660025,0.91784795434556,0.916159118245489,0.916452079609787,0.915805841306189,0.914513364698992,0.91749467740626,0.917822104813416,0.916159118245489,0.908809234605896,0.908662753923747,0.907938967023717,0.905991635602207,0.903070638469942,0.905129984530742,0.908843700648755,0.908843700648755,0.91029989095953,0.909808749848795,0.909240060141628,0.909145278523767,0.900761413598416,0.901235321687722,0.893747573876694,0.892437864248068,0.892187985437343,0.898047212723303
1.16115236739503,1.14877044149808,1.18874243470333,1.09756251832094,1.08910972130987,1.085421854724,1.08241469248459,1.08189770184171,1.14524628861579,1.22718930551208,1.06966225662691,1.06786140588755,1.06804235261256,1.06729271618039,1.06899016879117,1.10946191961787,1.06027025994795,1.05902086589433,1.05539331488346,1.05654792731922,1.05961540513364,1.08367270304893,1.04913772810463,1.04484670576873,1.02852703447519,1.0474144259617,1.0364714573541,1.06340666984808,1.00541755273851,0.995586114013099,0.993457835866582,0.993207957055857,0.991527737466501,0.988417177098514,0.988779070548529,0.972804059683575,0.970641315494198,0.975828454944415,0.973062555005014,0.964980267954676,0.966677720565461,0.960809876768787,0.959457084586587,0.763451283803026,0.951616059836259,0.951340331493391,0.84326257594851,0.942775519843032,0.941052217700103,0.943094330739474,0.948807077343285,0.951650525879118,0.945110594246701,0.949031106621865,0.945670667443153,0.94648061945033,0.944257559685951,0.947385353075368,0.951348948004105,0.95024603463263,0.942835835418035,0.946756347793199,0.947290571457507,0.949591179818317,0.948626130618277,0.961085605111656,0.916710574931227,0.901261171219866,0.899598184651939,0.943619937893067,0.903277434727093,0.919252445592047,0.917942735963421,0.924887643599426,0.910618701855972,0.92867890831387,1.02673480024655,0.906853286673671,0.883795504001278,0.887069778072843,0.890628396997992,0.873076564672258,0.907861418427285,0.884691621115601,0.889361769922939,0.938898090021441,0.861442551905342,0.85282259458641,0.868294401225629,0.938329400314274,0.857854636843763,0.868027289393475,0.899839446951949,0.882425478797649,0.883140649186964,0.872068432918644,0.875609818822364,0.865468185711225,0.899382771884073,0.933435222228355,0.92613703765305,0.988934167741393,0.968254542026241,0.975078818512241,0.915495646920461,0.915331933216883,0.91590062292405,0.916555477738363,0.974062070247913,0.941164232339393,0.946342755278896,0.945550036293148,0.947350887032509,0.945636201400295,0.944559137560964,0.941689839492986,0.935658281992734,0.930798569949673,0.939664959475045,0.93976835760362,1.03958201772208,0.987874336923491,0.989563173023562,0.99033865898788,0.916452079609787,0.916012637563341,0.916004021052626,0.91530608368474,0.909386540823777,0.917442978341972,0.917201716041962,0.916736424463371,0.912841761620351,0.908921249245186,0.908318093495161,0.904974887337879,0.904457896695,0.903949522562836,0.908361176048734,0.909145278523767,0.910601468834543,0.911600984077442,0.909843215891654,0.909300375716631,0.902286535994909,0.903906440009262,0.895617356701772,0.893575243662401,0.893894054558843,0.895944784108929
1.16027348330214,1.15431947439831,1.16316863090226,1.18401197032099,1.08854964811342,1.08662816622405,1.0825353236346,1.08152719188098,1.16387518478086,1.49692917343408,1.06829223142329,1.06867997440544,1.068240532359,1.06780109031255,1.068361163509,1.28047380777145,1.06164028515158,1.05896055031932,1.05887438521218,1.05867620546574,1.05778870486213,1.11795779918251,1.05106782650471,1.05442826568342,1.03249062940393,1.02925943788594,1.03090519143243,1.02167690845705,1.04410568584727,0.994465967620195,0.99228599040939,0.991234776102203,0.990442057116456,0.990364508520024,0.985935622012696,1.02028965023199,0.970132941362034,0.969874446040595,0.970184640426322,0.969676266294158,0.969745198379875,0.959138273690145,0.959784511993744,0.765104792209167,0.95159882681483,0.951581593793401,0.955131596207835,1.00410784310988,0.940630008675085,0.943189112357335,0.944231710153807,0.948522732489701,0.948548582021845,0.950401131825494,0.944877948457406,0.944524671518105,0.947256105414648,0.946308289236037,0.946204891107461,0.948841543386143,0.946661566175337,0.93989760526434,0.948720912236138,0.946540935025332,0.988374094544941,0.934658766749835,0.922587035238615,0.925016891260146,0.932849299499759,0.911756081270305,0.904363115077138,0.929350996149613,0.908783385073752,0.914444432613275,0.901080224494858,0.90017549086982,0.910816881602409,0.905112751509313,0.882856304333381,0.877376203518866,0.916658875866939,0.877970742758177,0.881434580065465,0.887311040372853,0.871499743211477,0.917572226002691,0.863434689182568,0.899899762526952,0.862883232496831,0.90444066367357,0.898236775959025,0.899287990266212,0.899115660051919,0.895832769469639,0.8754547216295,0.868285784714914,0.870965519547169,0.871732389000773,0.925533881903025,0.91907149886704,1.03558395675049,0.987960502030638,0.961232085793804,0.925361551688732,0.916219433820492,0.915607661559752,0.916305598927638,0.916615793313366,0.917322347191967,0.990149095752158,0.941965567835855,0.94635137178961,0.946101492978885,0.944240326664522,0.945067511693128,0.941586441364411,0.936192505657042,0.930876118546106,0.931117380846116,0.939725275050047,0.976130032819428,1.04161551425074,1.04040058623998,0.969986460679885,0.98217882334111,0.913539698988237,0.916822589570517,0.915831690838333,0.910713483473833,0.916365914502641,0.916417613566929,0.916391764034785,0.918020284559853,0.907568457062987,0.907232413145116,0.906138116284356,0.905397096362896,0.902915541277078,0.908102680727295,0.910515303727396,0.911695765695303,0.912678047916772,0.911437270373863,0.907706321234421,0.907042849909394,1.01787702723189,0.895884468533927,0.893756190387409,0.894075001283851,0.898658984984043
1.12621241644714,1.15536207219479,1.16065260977358,1.10251701198186,1.09889807748171,1.12516981865067,1.2409671061448,1.08680049643835,1.0770638393308,1.45196822052506,1.06642244859821,1.06596577353033,1.06728409966967,1.068240532359,1.06832669746614,1.25274587629172,1.06194186302659,1.05952924002649,1.05965848768721,1.05923627866219,1.05664270893708,1.05364416320839,1.05348044950481,1.05001661219752,1.02969887993238,1.03031065219312,1.03021587057526,1.02119438385703,1.04460544346872,0.990967664270049,0.990881499162903,0.990312809455736,0.990312809455736,0.989675187662852,0.998782839488233,0.981834162912524,0.971192772179936,0.968116677854807,0.965910851111858,0.970193256937037,0.969529785612009,0.958750530707986,0.959241671818721,0.776929229862876,0.950719942721936,0.951822856093411,0.952443244864865,1.08809297304554,0.943585471850209,0.943335593039484,0.94551557025029,0.948643363639706,0.949375767050451,0.949866908161186,0.948583048064704,0.943843967171648,0.948841543386143,0.945705133486012,0.932547721624747,0.946463386428901,0.945696516975297,0.943301126996625,0.943740569043072,0.945877463700305,0.990898732184332,0.925611430499456,0.902191754377048,0.923259123074358,0.932435706985456,0.930488375563946,0.902174521355618,0.902898308255649,0.898021363191159,0.922819681027911,0.898314324555457,0.907766636809424,0.906732655523666,0.910549769770255,0.878892709404644,0.947626615375378,0.861788935636071,0.886001330744227,0.880478147376139,0.889706430351525,0.865967943332674,0.863908597271874,0.858366457580213,0.867329352025589,0.916925987699093,0.869647193407828,0.89846942174832,0.85255806770747,0.853859160825382,0.85347572609858,0.910980595305987,0.881469046108323,0.86340022313971,0.875342706990209,0.921699534635007,0.919424775806341,0.924922109642285,1.28840961413964,0.952874070400597,0.926550630167353,0.915866156881191,0.917305114170537,0.917615308556265,0.91883023656703,0.918149532220573,0.949668728414749,1.0983035382424,0.946359988300325,0.945730983018156,1.19223212154276,0.944248943175236,0.942198213625151,0.935701364546307,0.932685585796181,0.931022599228254,0.93698522464279,1.03502388355404,1.04208942234005,1.04936175738321,1.04987874802609,0.982626881898272,0.91285899464178,0.914590913295424,0.915952321988338,0.914944190234724,0.916607176802651,0.916521011695505,0.916891521656234,0.917710090174126,0.908162996302297,0.906879136205815,0.90701700037725,0.905758989812911,0.904750858059298,0.905259232191462,0.910946129263128,0.91297100928107,0.913324286220371,0.911325255734573,0.90590547049506,0.908214695366586,0.949418849604024,0.894281797541002,0.893756190387409,0.895108982569608,0.902536414805633
1.12249008381841,1.15880867648065,1.15549131985551,1.25321116787031,1.09800196036739,1.09202210193142,1.08653338460619,1.08692974409907,1.49507662363043,1.13582844240468,1.0675942940554,1.06773215822683,1.06997245101264,1.06917111551618,1.06802511959113,1.06510412245887,1.06425970440883,1.06128700821228,1.0600031481158,1.05989974998722,1.05743542792283,1.05653931080851,1.05550532952275,1.04526891479375,1.02969026342167,1.02930252043951,1.19586828906434,1.01224182922451,1.01281051893168,0.991045212866481,0.990424824095026,0.989657954641423,0.98996814902715,0.988968633784251,0.997688542627473,0.994802011538067,0.972338768104984,0.965497258597554,0.964351262672506,0.96914204262985,0.968599202454827,0.959594948758022,0.959439851565158,0.957406355036502,0.952374312779148,0.9495222477326,0.952365696268433,1.08773107959553,0.941638140428699,0.942766903332317,0.943223578400194,0.947842028143244,0.948712295725423,0.950392515314779,0.947049309157497,0.944111079003802,0.946196274596746,0.930919201099679,0.944369574325242,0.945636201400295,0.946523702003903,0.94403353040737,0.943456224189489,0.94551557025029,1.02966441388953,0.925861309310181,0.929075267806744,0.922311306895747,0.915969555009767,0.937450516221381,0.927145169406663,0.982445935173264,0.910274041427386,0.898762383112618,0.900856195216278,0.898297091534027,0.917374046256255,0.883795504001278,0.893178884169527,0.869517945747109,0.907706321234421,0.865993792864818,0.914125621716833,0.92270766638862,0.881977420240487,0.839029284234404,0.851504268447069,0.858875693363449,0.860754954350313,0.864451437446896,0.851387945552421,0.860437866756014,0.858145874905918,0.895393327423192,0.90896433179876,0.887888346590735,0.86228869325752,0.924008759506532,0.924250021806542,0.918976717249179,0.9256372800316,1.29973170921869,0.952684507164875,0.932530488603317,0.914461665634704,0.918063367113426,0.918985333759893,0.918097833156285,0.918158148731287,1.15101935079461,1.01203503296736,0.945903313232449,0.943611321382353,0.939983770371487,0.942534257543022,0.943128796782332,0.937924424310686,0.934365805385537,0.930255729774651,0.937123088814224,0.937372967624949,1.18773430294971,1.05221382242976,1.05299792490479,0.985272150687668,0.911738848248876,0.913298436688227,0.915366399259742,0.915779991774045,0.916684725399083,0.916925987699093,0.916452079609787,0.916615793313366,0.922793831495767,0.907172097570113,0.907172097570113,0.90421663439499,0.907163481059399,0.905138601041457,0.911463119906007,0.910928896241699,0.906370762073651,0.911342488756002,0.912781446045348,0.908550739284457,0.909937997509515,0.895513958573197,0.895100366058894,0.896909833308969,0.901502433519876
1.12158535019337,1.13457904835106,1.11133170244294,1.19456719594643,1.09242707793501,1.09151372779926,1.08613702511332,1.08640413694547,1.46994226187581,1.08013993365592,1.0679475709947,1.06758567754468,1.07345352134136,1.06890400368403,1.06628458442677,1.06488009318029,1.06229513996589,1.06219174183732,1.05983943441222,1.05942584189791,1.05697013634424,1.05638421361564,1.05546224696918,1.04474330764016,1.03252509544679,1.02843225285733,1.18558879178177,1.01280190242096,1.0395303186578,0.993423369823723,0.99325103960943,0.990011231580723,0.98887385216639,0.987667540666339,0.994379802513049,1.01196610088164,0.972752360619287,0.972760977130001,0.962920921893875,0.964178932458213,0.96378257296534,0.964463277311797,0.958397253768686,0.957587301761509,0.952029652350562,0.949306834964734,0.948824310364714,1.09772623202452,1.0646560639017,0.942732437289459,0.945412172121714,0.948384868318267,0.948919091982575,0.951788390050552,0.929712889599628,0.94442127338953,0.944679768710969,0.946489235961045,0.944197244110949,0.945817148125302,0.94586884718959,0.943102947250189,0.940793722378663,0.942043116432287,0.944317875260954,0.924956575685143,0.967461823040494,0.924792861981565,0.955579654764997,0.913625864095383,0.914746010488287,0.985203218601951,0.895083133037464,0.891360800408737,0.898271242001883,0.927903422349552,0.875316857458066,0.902760444084214,0.873447074632987,0.868561513057783,0.864287723743318,0.909679502188075,0.873093797693687,0.895893085044641,0.875437488608071,0.876755814747412,0.893747573876694,0.860213837477433,0.865235539921929,0.868466731439922,0.871715155979343,0.866407385379121,0.85831734346914,0.902829376169931,0.893325364851676,0.893213350212386,0.891515897601601,0.897512989058995,1.03250786242536,0.921535820931429,0.926369683442345,0.939406464153605,0.94319772886805,0.937407433667807,0.916072953138343,0.916219433820492,0.918881935631318,1.17329303099197,0.917020769316954,0.919459241849199,1.05445411521556,0.945687900464582,0.945550036293148,0.940595542632226,0.942766903332317,0.942818602396605,0.937829642692825,0.934090077042669,0.930936434121108,0.938605128657143,0.936787044896353,1.05143833646544,1.05036127262611,1.05402328967983,0.979042413440978,0.913444917370376,0.912876227663209,0.913918825459681,0.914668461891856,0.916047103606199,0.917115550934815,0.916900138166949,0.9150475883633,0.915383632281171,0.906353529052222,0.907895884470144,0.912867611152494,0.909601953591643,0.906818820630813,0.908137146770154,0.908361176048734,0.905466028448613,0.911463119906007,0.911221857605997,0.908774768563037,0.90968811869879,0.895918934576785,0.89591031806607,0.901080224494858,0.903777192348543
1.12098219444335,1.11963801877186,1.11006507536789,1.16346159226655,1.09009200353134,1.08966117799561,1.08674879737406,1.08667124877763,1.46813279462574,1.43406311126002,1.06614672025534,1.06825776538043,1.07163543758057,1.06816298376257,1.06664647787679,1.06477669505171,1.06255363528733,1.06215727579446,1.05972741977293,1.06009792973366,1.05649622825493,1.05866758895503,1.05120569067614,1.0655952635696,1.03303346957895,1.03358492626469,1.02036719882842,1.01715324033186,1.01767884748545,0.993345821227292,0.993113175437996,0.993354437738006,0.988089749691357,0.98607348618413,1.00593454338139,0.978344476073092,0.974277483015779,0.971778694908532,0.963825655518913,0.963618859261761,0.963549927176044,0.963567160197474,0.957949195211524,0.95658778651861,0.953080866657749,0.952512176950583,0.949470548668312,0.966798351715466,1.08675741388477,0.940733406803661,0.943232194910908,0.949108655218297,0.950039238375479,0.951323098471961,0.954864484375681,0.948617514107562,0.94879846083257,0.947049309157497,0.944705618243113,0.944981346585982,0.944688385221684,0.94295646656804,0.94002685292506,0.940001003392916,0.942809985885891,0.9252840030923,0.92649031459235,0.971080757540645,0.937553914349956,0.950599311571931,0.955036814589974,0.980464137708895,0.913987757545399,0.917141400466959,0.895014200951747,0.916710574931227,0.905939936537919,0.906827437141527,0.913668946648957,0.869647193407828,0.871784088065061,0.883735188426275,0.911954261016742,0.892972087912376,0.884665771583457,0.936657797235633,0.898314324555457,0.9167536574848,0.8891032746015,0.904225250905704,0.871284330443611,0.867312119004159,0.852008334323876,0.904949037805734,0.905845154920058,0.90896433179876,0.902915541277078,0.898322941066171,0.913177805538222,0.920355358963522,0.927403664728103,0.92882538899602,0.945007196118125,0.933254275503348,0.916219433820492,0.916770890506229,0.9184597266063,0.931160463399689,0.916228050331206,0.918097833156285,0.946678799196767,0.944921031010979,0.945248458418136,0.939983770371487,0.94245670894659,0.938648211210717,0.937036923707078,0.935305005053434,0.928497961588863,0.937140321835653,0.93782102618211,0.939914838285769,1.03978019746852,1.04875860163318,1.16565880249879,0.982644114919701,0.907430592891553,0.912764213023919,0.914358267506128,0.915736909220472,0.916374531013355,0.908740302520179,0.913393218306088,0.914297951931126,0.910644551388116,0.916202200799063,0.923396987245792,0.910687633941689,0.905810688877199,0.904276949969992,1.17900577759578,0.907034233398679,0.910696250452404,0.910480837684537,0.905569426577189,0.908628287880888,0.896375609644661,0.897926581573298,0.90189879301275,0.90614673279507
1.18832884218902,1.11391665565734,1.1077730835178,1.15792979238775,1.08848933253842,1.08495656314541,1.08729163754908,1.08870474530628,1.08915280386344,1.0799503704202,1.1170099830039,1.38419074724365,1.07151480643056,1.07121322855555,1.06804235261256,1.06251055273376,1.05928797772648,1.06025302692652,1.06114052753013,1.0587106715086,1.05853834129431,1.05910703100147,1.05043882122254,1.0646560639017,1.03356769324326,1.02283152089281,1.02308139970354,1.01390481579244,1.00675311189928,0.994422885066622,0.993457835866582,0.993164874502284,1.02625227564653,0.984539747276923,0.984014140123329,0.979843748937441,0.982221905894683,0.97108937405136,0.966893133333327,0.964971651443961,0.96439434522608,0.963437912536754,0.957664850357941,0.955958781236441,0.952426011843436,0.952184749543426,0.99434533647019,0.957699316400799,1.07156650549485,1.07191978243415,0.946902828475348,0.950625161104075,0.951529894729113,0.952512176950583,0.953959750750643,0.952374312779148,0.952943002486315,0.950047854886193,0.946911444986062,0.94685112941106,0.943835350660933,0.942336077796585,0.93880330840358,0.938863623978582,0.940405979396504,0.94112114978582,0.943594088360923,0.942448092435875,0.940836804932237,0.94733365401108,0.951934870732701,0.898633135451899,0.89238616518378,0.898521120812608,0.921329024674277,0.89264466050522,0.89225691752306,0.913401834816803,0.894660924012447,0.881210550786884,0.871422194615045,0.88641492325853,0.871551442275765,0.871853020150778,0.862702285771823,0.898667601494757,0.930281579306795,0.932271993281878,0.886828515772833,0.905509111002186,0.91382404384182,0.865657748946947,1.00281536650269,0.906904985737959,0.90579345585577,0.909610570102358,0.912049042634603,0.910205109341669,0.911118459477421,0.918132299199143,0.925301236113729,0.933986678914093,0.943930132278795,0.933900513806946,0.933521387335502,0.917218949063391,0.917985818516994,0.909584720570214,0.92867890831387,0.916296982416924,1.13106351197948,0.943361442571628,0.94477455032883,0.940698940760802,0.940586926121512,0.939354765089317,0.937036923707078,0.935434252714153,0.925964707438757,0.927136552895949,0.937717628053535,0.939587410878613,1.04639767769737,1.04625981352593,1.16487470002376,0.982695813983988,0.908025132130863,0.911428653863149,0.912867611152494,0.915219918577593,0.917623925066979,0.908318093495161,0.913255354134654,0.913324286220371,1.10698898104276,0.915719676199042,0.913737878734674,0.912996858813214,0.904001221627123,0.904035687669982,0.924620531767272,0.905612509130762,0.908843700648755,0.909963847041659,0.910463604663108,0.977439742448054,0.902148671823474,0.902364084591341,0.904001221627123,0.905707290748623
1.17949691870651,1.17920395734221,1.10776446700708,1.17312070077767,1.08729163754908,1.08176845418099,1.08611979209189,1.0885410316027,1.08854964811342,1.08652476809548,1.11844894029324,1.33636049626665,1.07061007280553,1.07140279179127,1.06002038113723,1.06030472599081,1.05836601108001,1.06484562713743,1.06363069912666,1.05795241856571,1.0586503559336,1.05863312291217,1.05327365324766,1.04573420637234,1.03210288642177,1.07508204186643,1.01725663846044,1.0117076055602,1.0337055574147,0.994655530855918,0.993578467016587,1.01127678002447,1.00671002934571,0.983359285309016,0.983049090923289,0.979016563908835,0.978439257690953,0.978559888840958,0.968495804326251,0.967289492826201,0.966462307797595,0.963903204115345,0.957208175290065,0.955898465661438,0.953011934572032,0.953123949211322,0.95597601425787,0.9580525933401,0.969469470037006,1.06491455922314,0.948134989507542,0.948600281086133,0.95280513831488,0.954313027689943,0.953701255429204,0.952089967925565,0.953141182232752,0.951236933364815,0.951590210304115,0.945903313232449,0.943559622318065,0.934925878581989,0.935227456457002,0.934451970492684,0.93600294242132,0.937148938346368,0.942189597114436,0.941801854132277,0.939191051385739,0.933366290142638,0.933245658992633,0.879013340554649,0.877522684201015,0.899089810519775,0.918632056820593,0.898529737323323,0.900666631980555,0.907180714080828,0.890033857758682,0.90225206995205,0.918390794520583,0.875075595158055,0.86972474200426,0.853611866967871,0.910506687216681,0.886578636962108,0.928782306442446,0.932616653710464,0.887336889904997,0.912557416766767,0.9252840030923,0.883907518640568,0.89908119400906,0.907801102852282,0.906982534334391,0.908499040220169,0.913177805538222,0.910696250452404,0.911609600588156,0.924025992527961,0.925059973813719,0.926145654163765,0.94160367438584,0.947747246525383,1.01479231639605,0.916546861227648,0.917503293916974,0.909153895034482,0.909300375716631,0.912307537956042,1.01261233918524,1.01215566411736,0.945463871186002,0.945842997657446,0.939501245771466,0.939440930196464,0.936847360471355,0.936718112810636,0.932849299499759,0.924844561045853,0.936201122167757,0.939621876921471,1.04757813966528,1.12519566818281,1.05142110344401,0.980662317455332,0.90640522811651,0.908723069498749,0.912385086552474,0.915142369981161,0.916925987699093,0.915331933216883,0.912936543238212,0.913203655070366,0.914547830741851,0.915375015770456,0.913591398052525,0.913780961288247,0.90968811869879,0.90286384221279,0.900244422955538,0.90555219355576,0.906715422502237,0.910127560745237,0.91017064329881,0.912049042634603,0.9027518275735,0.904406197630712,0.908007899109434,0.908748919030893
1.17202640391691,1.36029716303194,1.21410944224725,1.58383530050201,1.08256978967745,1.08170813860599,1.08463775224897,1.08956639637775,1.08934236709917,1.08942853220631,1.08393119837037,1.40028638925861,1.07057560676267,1.07115291298055,1.07230752541631,1.06150242098014,1.0576508406907,1.06431140347312,1.06426832091955,1.06515582152315,1.05933967679077,1.05631528152993,1.04794003311529,1.04198602421147,1.08685219550263,1.07379818176994,1.01701537616043,1.01199195041379,1.00196233194194,0.997361115220317,0.994009292552319,1.01895409107122,0.981032827416062,0.982825061644708,0.9805847688589,0.978913165780259,0.978129063305226,0.977741320323067,0.974191317908632,0.968909396840554,0.966617404990458,0.7778494732072,0.95573475195786,0.955407324550704,0.953356595000618,0.953468609639908,0.958328321682969,0.958629899557981,0.970805029197777,1.07084271859482,0.946885595453918,0.949229286368302,0.952158900011282,0.95402868283636,0.953554774747055,0.953253196872042,0.953770187514921,0.952288147672002,0.951443729621966,0.946808046857487,0.942043116432287,0.935434252714153,1.03661793803625,0.931238011996121,0.931763619149714,0.934546752110545,0.942284378732297,0.942784136353747,0.937036923707078,0.932065197024727,0.929824904238919,0.987848487391347,0.877746713479596,0.917262031616964,0.931556822892562,0.901804011394889,0.922173442724313,0.909265909673772,0.923172957967211,0.890430217251555,0.91091166322027,0.933840198231944,0.869741975025689,0.874084696425871,0.882046352326205,0.937872725246398,0.908361176048734,1.01583491419252,0.895160681633896,0.900907894280565,0.902243453441335,1.04600993471521,1.04317510269009,0.90614673279507,0.908869550180898,0.910230958873813,0.912178290295323,0.918270163370578,0.917132783956244,0.921458272334997,0.926869441063795,0.926102571610191,0.928997719210312,0.948781227811141,0.938200152653555,0.917925502941992,0.91895948422775,0.928618592738868,0.912066275656032,0.912350620509616,0.91638314752407,1.12562649371854,0.945713749996727,0.945713749996727,0.937295419028517,0.937493598774954,0.936769811874923,0.935641048971305,0.934701849303408,0.925240920538727,0.92504274079229,0.938441414953565,1.10378363905691,1.16331511158441,0.988374094544941,0.988770454037814,0.905078285466454,0.907964816555861,0.91065316789883,0.913324286220371,0.918321862434866,0.914211786823979,0.912212756338181,0.913177805538222,0.915056204874015,0.916727807952656,0.912229989359611,0.913996374056113,0.908628287880888,0.903510080516389,0.898719300559045,0.89932245630907,0.904957654316449,0.90955887103807,0.910885813688126,0.913091640431075,0.904742241548583,0.908499040220169,0.909093579459479,0.912273071913184
1.17222458366335,1.16804557596675,1.21248953823289,1.20300275993607,1.08415522764895,1.08256117316674,1.08610255907046,1.08957501288846,1.08931651756702,1.08894600760629,1.08509442731685,1.28107696352148,1.07409975964496,1.07121322855555,1.06780109031255,1.06139902285157,1.05748712698712,1.06133870727657,1.064768078541,1.06469052994456,1.06031334250152,1.0515331180833,1.04655277489023,1.04307170456152,1.03642837480052,1.08551663634186,1.02056537857486,1.00897617166366,1.00125577806334,0.998205533270352,0.993940360466602,0.981368871333933,0.97949047199814,0.980257341451744,0.981549818058941,0.978749452076681,0.978404791648095,0.976043867712282,0.974940954340807,0.97047760179062,0.967573837679784,0.770432380784033,0.745699548428712,0.955347008975701,0.952529409972012,0.952796521804166,0.959181356243719,0.957389122015072,0.953572007768484,0.953029167593461,1.04457959393658,0.95026326765406,0.951400647068393,0.952133050479138,0.952236448607714,0.954356110243517,0.953615090322057,0.952632808100587,0.95172807447555,0.948660596661136,0.94343899116806,0.944283409218095,0.926171503695909,1.03516174772547,0.932814833456901,0.932883765542618,0.93952709530361,0.940569693100083,0.933667868017651,0.929643957513911,0.928980486188883,1.01500772916391,0.910963362284558,0.93088473505682,0.927670776560257,0.928420412992431,0.935270539010575,0.923043710306492,0.926610945742356,0.928360097417429,0.923526234906512,0.929195898956749,0.961180386729517,0.871232631379323,0.88252026041551,0.925775144203035,0.910368823045247,0.90640522811651,0.908050981663007,0.900907894280565,0.901114690537717,1.04538092943304,1.0446485260223,0.909722584741648,0.911773314291734,0.911247707138141,0.913031324856073,0.921716767656436,1.02916465626808,0.917701473663411,0.925809610245893,0.927412281238817,0.92893740363531,0.945300157482423,0.943818117639504,0.9171069344241,0.918795770524171,0.91895948422775,0.912703897448916,0.912402319573903,0.910730716495262,0.979068262973122,0.943352826060913,0.945696516975297,0.936718112810636,0.93477939789984,0.936683646767777,0.935184373903429,0.934555368621259,0.92541325075302,0.922802448006482,0.936683646767777,1.06128700821228,1.13998160056914,0.98826207990565,0.989227129105691,0.995000191284504,0.904164935330702,0.909438239888065,0.911850862888166,0.916658875866939,0.914944190234724,0.914048073120401,0.912419552595333,0.91590062292405,0.916400380545499,0.909989696573803,0.915013122320441,0.906026101645065,0.902570880848492,0.89993422856981,0.898503887791179,0.905155834062886,0.90421663439499,0.912436785616762,0.91345353388109,0.906250130923646,0.908878166691613,0.910532536748825,0.913126106473934
1.16746826974886,1.20791417104342,1.16576220062737,1.26270656267785,1.08445680552396,1.07926104956303,1.08193216788457,1.0885410316027,1.08898047364915,1.0894199156956,1.08486178152755,1.07845971406657,1.07445303658426,1.07176468524129,1.06639659906606,1.06008069671223,1.05698736936567,1.05748712698712,1.06193324651588,1.11117660525008,1.05950339049435,1.09302161717432,1.04458821044729,1.03895301243991,1.12824591297579,1.13044312320803,1.01696367709614,1.01001015294942,1.0080025059529,0.994629681323774,0.993966209998746,1.01580906466037,0.978697753012393,0.978973481355261,0.981360254823219,0.979171661101698,0.980257341451744,0.973553696115749,0.974768624126514,0.975328697322966,0.969633183740585,0.771562005338723,0.971158306137077,0.973010855940726,0.952227832096999,0.952529409972012,0.954045915857789,0.953994216793502,0.953029167593461,0.953227347339898,0.954657688118529,0.949332684496878,0.94915173777187,0.952624191589873,0.952718973207734,0.953503075682767,0.954338877222087,0.953434143597049,0.951693608432691,0.949212053346873,0.943516539764492,0.94379226810736,0.924991041728002,0.922664583835047,0.923198807499355,0.931970415406866,0.93685597698207,0.937846875714254,0.931324177103267,0.926050872545903,0.924982425217287,0.923801963249381,0.92309540937078,0.930350511392512,0.925826843267323,0.926309367867343,0.932142745621158,0.925809610245893,0.92480147849228,0.925723445138747,0.924146623677967,0.924818711513709,0.929204515467464,0.907085932462967,0.90214005531276,0.90749952497727,0.910274041427386,0.905621125641477,0.90614673279507,0.909627803123787,0.907913117491573,0.910403289088106,0.910498070705967,0.912428169106047,0.911962877527457,0.913186422048936,0.914754626999002,0.922138976681454,1.02977642852882,0.919752203213497,0.927670776560257,0.927662160049542,0.928049903031701,0.955648586850714,0.944490205475246,0.933374906653353,0.918390794520583,0.918890552142032,0.918511425670588,0.911127075988136,0.91005862865952,1.00601209197782,1.05290314328693,0.945050278671699,0.945506953739575,0.932883765542618,0.93589092778203,0.934572601642689,0.93405561099981,0.934719082324838,0.922449171067181,1.1018363076354,1.05001661219752,1.13316594059386,0.988675672419953,1.1191296446397,0.987090234448458,0.903191269619947,0.905267848702176,0.910791032070265,0.916486545652646,0.917891036899133,0.915935088966909,0.908645520902318,0.913462150391805,0.914987272788298,0.910248191895242,0.915986788031196,0.916219433820492,0.905164450573601,0.904035687669982,0.905319547766464,0.904371731587853,0.905319547766464,0.915667977134755,0.913289820177512,0.907533991020128,0.910954745773843,0.911557901523868,0.912264455402469
1.16678756540241,1.18950930415693,1.20859487538987,1.23609016108031,1.15819690421991,1.08020024923093,1.08072585638452,1.08364685351679,1.08859273066699,1.08893739109558,1.08267318780603,1.07832184989513,1.07626250383433,1.06916249900546,1.06685327413394,1.05972741977293,1.05292037630836,1.05650484476565,1.05933967679077,1.116191414486,1.05881406963717,1.08816190513126,1.20208940980031,1.13651776326186,1.03301623655752,1.02106513619631,1.0143528743496,1.01021694920657,1.0079421903779,0.996249585338127,0.994026525573749,1.02915603975736,0.97802566517665,0.979447389444567,0.982377003087547,0.978594354883817,0.976457460226585,0.972838525726433,0.97498403689438,0.973510613562176,0.967332575379774,0.752391992300778,0.973579545647893,0.970580999919196,0.952503560439868,0.952813754825595,0.95391666819707,0.952486327418438,0.952305380693431,0.953580624279198,0.953933901218499,0.947109624732499,0.948255620657547,0.949953073268332,0.949832442118327,0.949186203814729,0.953184264786325,0.952253681629143,0.951865938646984,0.949065572664724,0.945644817911009,0.932297842814022,0.922957545199345,0.924999658238717,0.928222233245994,0.929264831042466,0.929325146617469,0.9341676256391,0.928920170613881,0.927067620810232,0.924284487849401,0.922759365452909,0.922767981963623,0.925559731435169,0.92626628531377,0.926921140128083,0.930609006713951,0.930212647221078,0.92456021619227,0.923353904692219,0.921036063309979,0.922526719663613,0.92758461145311,1.11476107370737,0.910635934877401,0.988072516669928,0.914883874659722,0.909214210609484,0.895746604362492,0.910791032070265,0.908154379791583,0.911437270373863,1.01808382348904,0.911730231738161,0.914358267506128,0.914237636356123,0.916012637563341,0.922164826213598,0.922621501281474,0.929876603303206,0.928248082778138,0.9290494182746,0.929126966871032,0.929704273088913,0.945584502336007,0.938398332399992,0.920579388242103,0.921303175142133,0.921303175142133,0.916874288634805,0.916357297991926,0.919364460231338,0.979223360165986,0.944343724793098,0.944877948457406,0.938019205928547,0.937450516221381,0.934563985131974,0.933754033124797,0.934383038406966,0.919338610699194,0.92515475543158,1.06232960600875,1.09477938536011,1.12548862954711,1.03330058141111,1.1147783067288,0.901674763734169,0.902924157787793,0.908387025580878,0.917098317913386,0.919252445592047,0.913625864095383,0.909601953591643,0.910351590023818,0.914332417973984,0.913393218306088,0.915943705477623,0.916064336627628,0.904509595759287,0.903889206987833,0.905190300105745,0.904285566480707,0.907215180123686,0.911308022713144,0.946092876468171,0.910118944234522,0.910549769770255,0.913686179670386,0.915245768109737
1.19164619881416,1.1883719247426,1.20532921782902,1.16823513920247,1.08622319022046,1.07827015083085,1.07833046640585,1.08256978967745,1.0855941849383,1.08398289743466,1.08225097878101,1.07559041599859,1.07235060796988,1.0690074018126,1.06475946203028,1.05657377685137,1.05312717256551,1.05464367845129,1.05800411763,1.13349336800101,1.05708215098353,1.06548324893031,1.03877206571491,1.03299038702538,1.09785547968524,1.01486986499248,1.01363770396028,1.01103551772446,1.0092949825601,0.995663662609531,0.995577497502385,1.00275505092769,0.979559404083857,0.98338513484116,0.982583799344698,0.979662802212433,0.975647508219408,0.97474277459437,0.974510128805075,0.973346899858597,0.752583278838643,0.775691898924253,0.976586707887304,0.970787796176347,0.952856837379168,0.952770672272022,0.953227347339898,0.951081836171951,0.951684991921976,0.951797006561267,0.955200528293552,0.946058410425312,0.945920546253878,0.947893727207532,0.949065572664724,0.948970791046863,0.957863030104378,0.952486327418438,0.951641909368403,0.948807077343285,0.946015327871739,1.04938760691535,0.924215555763684,0.922793831495767,0.926774659445934,0.933771266146227,0.93355585337836,0.992940845223703,0.927739708645974,0.92674880991379,0.926300751356628,0.923905361377956,0.922121743660025,0.924870410577997,0.926309367867343,0.927739708645974,0.928575510185295,0.930652089267525,0.924284487849401,0.924258638317257,0.919192130017045,0.923302205627931,0.934882796028416,0.916555477738363,0.914909724191866,0.915814457816904,0.916133268713345,1.02308139970354,0.913686179670386,0.911833629866737,0.91189394544174,0.913022708345358,0.95221059907557,0.913134722984648,0.915228535088307,0.916736424463371,1.03224936710392,0.919174896995615,1.10297368704974,1.02720870833585,0.934124543085527,0.929230364999608,0.929152816403176,0.928851238528163,0.945696516975297,0.947557683289661,0.920734485434967,0.921785699742154,0.921863248338585,0.917081084891956,0.916839822591946,0.919105964909898,1.11489032136809,0.943878433214507,0.943154646314476,0.942680738225171,0.938467264485709,0.934236557724818,0.933719567081939,0.932668352774752,0.919433392317055,0.919502324402772,1.08366408653821,1.04862073746175,1.13693135577616,1.02983674410382,1.03083625934672,0.901829860927032,0.902820759659217,0.904466513205714,0.918597590777734,0.919028416313467,0.913332902731085,0.909920764488085,0.908180229323727,0.972011340697827,0.913126106473934,0.914151471248977,0.915943705477623,0.904914571762876,0.905328164277179,0.905724523770053,0.904052920691411,0.907835568895141,0.914004990566828,0.914513364698992,0.9133415192418,0.912169673784608,0.916633026334795,0.917305114170537
1.16017008517356,1.19009522688553,1.15213949718751,1.15149325888391,1.21143832392571,1.07970910812019,1.07788240784869,1.07770146112368,1.08318156193819,1.08091541962024,1.08161335698813,1.07309162789134,1.07235060796988,1.06754259499111,1.14302322885141,1.05540193139417,1.05298069188336,1.0533598183548,1.09023848421349,1.05309270652265,1.05704768494067,1.08406044603109,1.0378845651113,1.10741980657849,1.10860888505712,1.01418054413531,1.01084595448874,0.992441087602254,1.00308247833484,1.00154873942763,0.991389873295067,0.990330042477165,0.998317547909642,0.988193147819933,0.982385619598261,0.978551272330244,0.976259280480148,0.972976389897868,0.97364847773361,0.973415831944314,0.772609773041624,0.980171176344597,0.979068262973122,0.989166813530688,0.9993515291954,0.954718003693532,1.19324025329637,0.949909990714759,0.948720912236138,0.965712671365421,0.946394454343183,0.945636201400295,0.942189597114436,0.947730013503954,0.948255620657547,0.948574431553989,0.949703194457608,0.95171084145412,0.951633292857688,0.948944941514719,0.946015327871739,1.07941614675589,0.922285457363603,0.92175985021001,0.926981455703085,1.08161335698813,0.925206454495868,1.14177383479779,0.926852208042366,0.926352450420916,0.925904391863755,0.9171069344241,0.92101883028855,1.04957717015107,0.92711931987452,0.927670776560257,0.928317014863855,0.931970415406866,0.928420412992431,0.922095894127881,0.921828782295727,0.923353904692219,0.925180604963724,0.931755002638999,1.11276204322158,0.940113018032206,0.917382662766969,0.914685694913285,0.913083023920361,0.912066275656032,0.912324770977472,0.91297100928107,1.03156866275746,0.913970524523969,0.916374531013355,0.919872834363502,0.920269193856376,0.920131329684941,0.927196868470951,0.932797600435471,0.936752578853494,0.937571147371386,0.929730122621057,0.929704273088913,0.928127451628133,0.947195789839646,0.936804277917782,0.921466888845711,0.922431938045752,0.916684725399083,0.923078176349351,0.922888613113628,0.925258153560156,0.941353795575115,0.943352826060913,0.943137413293047,0.939354765089317,0.933219809460489,0.933530003846216,0.935080975774853,0.940974669103671,0.91808921664557,1.12862503944724,1.01859219762121,1.06764599311969,1.13447565022248,1.08362100398464,0.982170206830395,0.901424884923444,0.904173551841416,0.911669916163159,0.917649774599123,0.917270648127679,0.904845639677159,0.905621125641477,0.907870034938,0.911454503395293,0.913039941366787,0.913462150391805,0.90542294589504,0.906629257395091,0.907585690084416,0.90518168359503,0.908326710005876,0.916340064970497,0.916633026334795,0.911988727059601,0.913918825459681,0.917184483020532,0.916331448459782
1.14374701575144,1.1840809024067,1.18449449492101,1.17692919851355,1.1598426577664,1.07888192309159,1.07808920410584,1.07977804020591,1.08006238505949,1.08138932770955,1.08070000685238,1.07983835578091,1.06843871210543,1.06660339532322,1.06270873248019,1.05396297410483,1.05366139622982,1.05232583706905,1.16759751740958,1.15518974198049,1.13544069942252,1.08064830778809,1.27403727426761,1.06606917165891,1.10233606525685,1.08630935532761,1.00627920380998,1.00259133722411,1.00159182198121,0.997102619898877,0.991200310059345,0.990562688266461,0.99703368781316,0.987314263727039,0.985142903026948,0.982618265387557,0.9754665614944,0.971985491165683,0.971537432608522,0.975931853072991,0.771862721562664,0.982351153555403,0.964006602243921,0.962024804779552,0.988692905441383,0.953184264786325,0.951788390050552,0.947730013503954,0.946876978943204,1.0287682967752,0.945653434421724,0.94488656496812,0.943697486489499,0.943128796782332,0.946454769918186,0.946187658086032,0.944412656878815,0.95367540589706,0.951857322136269,0.949573946796888,0.9491689707933,1.1376637591869,0.92356070094937,0.920019315045651,0.920622470795676,1.08309539683105,0.923836429292239,0.92406045857082,0.927868956306694,0.927817257242406,0.928523811121007,0.92552526539231,0.924181089720825,0.925516648881595,0.926809125488792,0.928894321081737,0.928963253167454,0.930212647221078,0.928549660653151,0.926128421142335,0.923155724945782,0.924232788785113,0.925094439856578,0.929833520749633,0.929850753771062,0.940707557271517,0.918804387034886,0.919717737170638,0.917184483020532,0.916047103606199,0.91322950460251,0.914418583081131,0.926102571610191,0.916469312631217,0.916710574931227,0.919821135299214,0.920975747734977,0.923500385374368,0.929170049424605,0.932159978642588,0.938338016824989,0.936907676046358,0.93696799162136,0.928765073421017,0.927937888392411,0.94855719853256,0.933512770824787,0.920992980756406,0.922190675745742,0.924965192195858,0.925163371942295,0.924327570402974,0.924861794067282,0.937545297839242,0.942766903332317,0.943852583682363,0.946256590171749,0.935184373903429,0.934012528446237,0.939906221775055,0.939139352321451,0.916977686763381,0.918356328477724,1.07522852254858,1.06608640468034,1.11241738279299,1.1038956536962,0.982868144198282,0.901795394884174,0.90432864903428,0.908895399713042,0.917046618849098,0.917442978341972,0.909145278523767,0.901252554709151,0.901347336327012,0.910187876320239,0.910454988152393,0.912100741698891,0.912686664427487,0.905914087005775,0.906689572970093,0.905896853984345,0.913091640431075,0.917262031616964,0.918080600134855,0.914944190234724,0.929566408917479,0.919304144656335,0.91627113288478
1.14269580144426,1.14343682136572,1.17021693666684,1.18179752706732,1.16379763618443,1.0781839857237,1.08004515203806,1.07970910812019,1.07696905771293,1.07917488445588,1.08013131714521,1.07678811098793,1.07127354413055,1.06616395327677,1.06267426643734,1.05420423640484,1.05473846006915,1.20197739516102,1.14595284249439,1.14873597545522,1.10463667361766,1.02322788038568,1.02155627730704,1.07266080235561,1.04208942234005,1.10015608804605,1.00228114283838,1.00053199116331,1.00054922418474,0.999205048513251,1.00266888582054,0.990993513802193,0.988951400762822,0.986840355637734,0.986288898951996,0.982678580962559,0.987926035987779,0.970529300854908,0.970667165026342,0.972916074322865,0.975371779876539,0.972916074322865,0.966160729922582,0.963360363940322,0.966126263879724,0.972778210151431,1.17870419972076,0.945705133486012,0.946084259957456,0.942336077796585,0.943490690232348,0.9440507634288,0.944610836625252,0.945842997657446,0.944817632882403,0.943826734150219,0.942723820778744,0.9508750399148,0.951616059836259,0.949453315646883,0.946627100132479,0.929764588663916,0.929807671217489,0.920243344324232,0.919622955552777,0.918020284559853,0.92211312714931,0.9222251417886,0.927877572817408,0.926481698081636,0.923896744867242,0.924758395938706,0.924146623677967,0.924844561045853,0.92711931987452,0.928747840399588,0.930660705778239,0.929402695213901,0.930617623224666,0.928334247885285,0.924215555763684,0.92456021619227,0.928230849756709,0.928997719210312,0.92856689367458,0.926438615528063,0.92467223083156,0.920596621263532,0.918235697327719,0.918003051538424,0.91614188522406,0.917038002338383,0.926628178763785,0.927395048217388,0.91649516216336,0.920458757092098,0.921992495999305,0.925697595606603,0.928980486188883,0.933624785464078,0.937493598774954,0.936976608132075,0.93685597698207,0.929170049424605,0.929213131978179,0.928747840399588,0.933848814742658,0.920958514713547,0.921156694459984,0.924327570402974,0.925309852624444,0.924835944535138,0.925602813988742,0.955476256636421,0.94293923354661,0.943576855339494,0.942508408010878,0.937640079457103,0.936959375110646,0.938949789085729,0.939725275050047,0.915676593645469,0.916340064970497,1.12533353235424,1.08311262985248,1.10958255076787,1.02321926387497,1.11294298994658,0.901890176502035,0.902898308255649,0.910773799048835,0.915280234152595,0.916116035691916,0.970356970640615,1.05499695539059,0.903880590477118,0.907956200045146,0.910756566027406,0.911170158541709,0.910868580666697,0.906620640884376,0.906948068291532,0.907749403787995,0.910903046709555,0.917382662766969,0.918278779881292,0.915495646920461,0.91773593970627,0.919045649334896,0.916589943781222
1.14242007310139,1.14254070425139,1.19305069006065,1.13078778363662,1.1307791671259,1.38014098720777,1.23617632618746,1.08175122115956,1.07546978484859,1.07600400851289,1.07771869414511,1.07752051439867,1.07072208744482,1.06593130748747,1.06369101470166,1.05723724817639,1.05457474636557,1.18700189953897,1.03328334838968,1.03380033903256,1.09991482574604,1.02364147289999,1.01822168766048,1.07151480643056,1.04256333042935,1.09958739833888,1.00251378862768,0.999342912684685,0.999980534477569,0.999205048513251,0.998334780931072,0.990398974562883,0.989433925362842,0.987340113259183,0.986917904234165,0.98510843698409,0.989011716337824,0.970064009276317,0.970288038554898,0.970891194304923,0.97351923007289,0.972580030404994,0.973200419176448,0.966160729922582,0.962946771426019,0.968116677854807,0.977086465508754,0.943395908614486,0.945558652803863,0.941784621110848,0.940793722378663,0.942818602396605,0.945343240035996,0.945765449061014,0.946023944382454,0.943249427932337,0.944240326664522,0.9508750399148,0.951159384768383,0.949944456757618,0.946256590171749,0.929273447553181,0.928222233245994,0.918899168652747,0.91905426584561,0.916719191441941,0.916788123527659,0.920174412238515,0.927963737924555,0.92602502301376,0.923052326817207,0.924999658238717,0.923388370735078,0.924741162917277,0.92624905229234,0.930229880242507,0.931720536596141,0.929454394278189,0.930945050631822,0.929945535388924,0.926654028295929,0.926412765995918,0.92880815597459,0.928248082778138,0.935434252714153,0.934236557724818,0.924594682235128,0.920846500074257,0.920260577345661,0.916546861227648,0.916064336627628,0.917270648127679,0.918890552142032,0.922699049877906,0.920269193856376,0.920682786370679,0.92126009258856,0.925775144203035,0.927868956306694,0.932168595153302,0.937924424310686,0.938096754524979,0.936597481660631,0.934253790746247,0.928816772485305,0.92845487903529,0.941638140428699,0.931289711060408,0.927334732642386,0.92624905229234,0.925499415860166,0.924973808706573,0.925645896542315,0.927817257242406,0.938544813082141,0.943249427932337,0.938493114017853,0.940595542632226,0.941870786217994,0.947075158689641,0.971141073115648,0.955984630768585,0.914289335420411,0.914797709552575,1.12858195689367,1.05397159061554,1.04563942475448,1.08432755786324,0.902407167144914,0.902519181784204,0.90640522811651,0.913625864095383,0.914702927934714,0.915228535088307,0.905259232191462,0.905112751509313,0.904862872698588,0.910454988152393,0.911618217098871,0.907930350513002,0.908059598173722,0.912557416766767,0.909343458270204,0.914039456609686,0.916098802670487,0.918373561499154,0.91578860828476,0.918046134091997,0.918097833156285,0.9167536574848
1.14305769489427,1.13903378439053,1.13397589260103,1.13106351197948,1.16977749462039,1.16098865369145,1.4465225857534,1.45837028798604,1.07515097395214,1.07413422568782,1.07674502843435,1.07708968886294,1.07626250383433,1.27831968009279,1.0631223249945,1.06181261536587,1.05334258533337,1.14220466033352,1.16356499039513,1.03530822840762,1.03566150534692,1.01789426025332,1.01587799674609,1.07492694467356,1.41338348554487,1.09642513890661,1.00183308428122,1.08155304141313,0.994293637405903,0.994457351109481,1.00303939578127,0.990959047759334,0.987831254369918,0.986306131973425,0.985556495541251,0.982066808701819,0.987960502030638,1.02319341434283,0.970598232940625,0.970020926722744,0.973467531008602,0.972976389897868,0.972760977130001,0.966600171969029,0.965660972301133,0.965255996297544,0.976000785158709,0.942784136353747,0.942922000525181,0.940630008675085,0.940561076589368,0.942887534482322,0.944119695514517,0.946015327871739,0.943516539764492,0.943120180271618,0.946067026936027,0.949186203814729,0.950297733696918,0.949341301007592,0.945188142843133,0.940285348246499,0.928136068138848,0.916822589570517,0.918881935631318,0.918675139374166,0.916047103606199,0.919734970192068,0.926317984378057,0.92613703765305,0.922440554556466,0.923078176349351,0.922121743660025,0.923198807499355,0.927059004299517,0.931350026635411,0.934736315346267,0.93125524501755,0.93003170049607,0.930901968078249,0.928704757846015,0.925516648881595,0.927033154767373,0.928015436988843,0.935615199439161,0.937648695967817,0.923302205627931,0.921173927481414,0.915349166238313,0.91577137526333,0.917046618849098,0.918520042181303,0.920208878281373,0.921880481360015,0.920277810367091,0.919743586702782,0.920691402881393,0.925232304028012,0.927196868470951,0.932177211664017,0.936571632128487,0.938484497507138,0.936950758599931,0.933805732189085,0.930927817610393,0.928575510185295,0.928532427631722,0.937019690685648,0.92819638371385,0.927041771278088,0.927110703363805,0.926834975020936,0.92478424547085,0.926826358510221,0.926602329231641,1.08291445010604,0.940647241696514,0.939794207135764,0.941681222982272,0.960594464000921,1.13675040905115,1.02751028621086,0.913298436688227,0.913177805538222,1.06257948481948,1.06762014358754,1.1240152062149,1.09326287947433,0.964730389143951,0.902794910127073,0.907430592891553,1.0296471808681,0.915702443177613,0.912867611152494,0.906482776712942,0.905474644959328,0.905224766148603,0.910248191895242,0.910989211816702,0.907714937745136,0.908619671370174,0.911532051991724,0.910928896241699,0.913729262223959,0.91577137526333,0.917417128809828,0.915297467174025,0.917296497659823,0.919347227209908,0.9171069344241
1.14053305725488,1.13614725330113,1.1327178820367,1.13239907114025,1.16971717904539,1.63977368806149,1.13177006585809,1.36271840254275,1.41807086737364,1.07203179707344,1.07674502843435,1.07677949447721,1.07531468765572,1.06797342052684,1.06319125708022,1.05923627866219,1.0533598183548,1.05173991434045,1.14306631140499,1.12539384792925,1.02938868554666,1.01785117769975,1.01601586091753,1.01642945343183,1.09786409619595,1.39052388261892,1.0217630735642,0.991553586998645,0.99239800504868,0.993578467016587,0.994802011538067,0.890585314444419,0.836341794542506,0.985935622012696,0.9819375610411,0.982135740787537,0.986840355637734,0.973769108883615,0.970184640426322,0.969521169101294,0.970503451322764,0.972623112958567,0.972829909215718,0.964316796629648,0.963722257390337,0.963593009729617,0.980067778216021,0.943301126996625,0.94295646656804,0.939216900917883,0.940009619903631,0.94295646656804,0.943533772785921,0.944197244110949,0.942560107075166,0.944490205475246,0.946247973661034,0.947359503543224,0.950771641786224,0.949048339643294,0.945644817911009,0.938992871639302,0.927670776560257,0.914978656277583,0.917675624131267,0.91883023656703,0.915452564366888,0.916477929141931,0.915969555009767,0.922276840852888,0.922259607831459,0.921699534635007,0.921492738377855,0.92283691404934,0.927369198685244,0.9341676256391,0.934589834664118,0.934770781389126,0.930557307649663,0.930152331646075,0.928334247885285,0.9269900722138,0.927059004299517,0.92821361673528,0.937329885071376,0.937752094096393,0.938967022107158,0.920725868924252,0.920088247131368,0.915797224795474,0.9171069344241,1.02953516622881,0.920424291049239,0.920984364245691,0.925059973813719,0.919838368320643,0.92235438944932,0.923181574477926,0.925551114924454,0.93149650731756,0.934555368621259,0.935813379185598,0.93611495706061,0.934710465814123,0.931841167746146,0.929101117338888,0.927541528899537,0.927334732642386,0.928351480906714,0.926722960381646,0.927283033578098,0.926093955099477,0.926714343870931,0.926154270674479,0.926317984378057,0.926550630167353,0.938656827721431,0.939449546707179,0.939923454796484,1.05129185578329,0.952150283500567,0.952641424611302,1.10876398224998,0.912342003998901,0.912238605870325,1.06020994437295,1.04877583465461,1.09491724953154,1.09673533329233,0.903286051237808,0.90664649041652,0.908421491623737,0.913281203666797,0.912385086552474,0.906922218759388,0.906086417220068,0.902165904844904,0.909869065423798,0.910325740491674,0.905957169559348,0.904337265544994,0.910394672577391,0.913108873452505,0.912902077195353,0.913892975927537,0.915978171520482,0.91406530614183,0.916279749395494,0.921518587909999,0.917865187366989
1.13645744768685,1.13522528665466,1.13145987147236,1.1272463977329,1.15662869926984,1.16048027955929,1.14975272371955,1.35114642865298,1.35146523954942,1.07702937328794,1.07625388732362,1.07644345055934,1.07391881291995,1.07433240543425,1.06442341811241,1.05916734657648,1.05811613226929,1.05198117664046,1.04649245931523,1.03746235608628,1.02643322237153,1.01840263438548,1.01652423504969,1.01501634567463,1.39243674799757,1.09238399538144,1.05377341086911,0.99412130719161,0.990631620352178,0.990924581716476,0.996206502784554,0.991605286062933,0.986340598016284,0.98546171392339,0.825858085955995,0.781131502138409,0.7273377640958,0.736254991034388,0.971141073115648,0.96951255259058,0.970296655065613,0.971968258144254,0.969857213019165,0.965686821833277,0.965652355790418,0.964402961736794,1.0037631826813,0.994509050173769,0.945937779275307,0.939466779728608,0.940216416160782,0.93795027384283,0.942741053800173,0.944171394578805,0.941956951325141,0.946075643446741,0.946876978943204,0.94770416397181,0.948359018786123,0.948651980150421,0.946092876468171,1.04339913196867,0.947169940307502,0.922078661106451,0.91797720200628,0.918382178009868,0.914521981209707,0.915779991774045,0.914513364698992,0.922957545199345,0.923233273542214,0.919467858359914,0.921268709099275,0.922164826213598,0.925327085645873,0.934581218153403,0.936028791953464,0.933969445892663,0.932332308856881,0.929480243810333,0.927980970945984,0.928239466267424,0.929101117338888,0.937157554857083,0.937545297839242,0.938113987546408,0.93843279844285,0.923000627752919,0.917684240641982,0.916676108888368,0.913996374056113,0.913134722984648,0.921277325609989,0.921363490717136,0.922655967324333,0.927196868470951,0.92211312714931,0.924827328024424,0.926180120206623,0.929445777767474,0.934133159596242,0.936209738678471,0.935675515014163,0.935615199439161,0.933547236867646,0.930833035992532,0.927688009581686,0.92771385911383,0.926895290595939,0.926283518335199,0.927196868470951,0.925671746074459,0.925576964456598,0.927153785917378,0.925852692799467,0.925508032370881,1.11505403507167,0.939613260410757,0.936459617489196,1.04524306526161,0.952796521804166,0.952684507164875,0.00336920217010888,0.913324286220371,0.911850862888166,0.911308022713144,1.04948238853321,1.0952446769387,0.997119852920307,0.905009353380737,0.905362630320037,0.907870034938,0.907068699441537,0.910118944234522,0.907249646166545,0.906207048370073,0.901459350966303,0.90968811869879,0.909894914955941,0.904750858059298,0.906465543691512,0.910739333005977,0.913496616434664,0.913763728266818,0.911178775052424,0.9150475883633,0.916064336627628,0.917873803877704,0.920183028749229,0.920958514713547
1.13606108819398,1.13514773805823,1.13296776084742,1.1258936055507,1.17643805740281,1.14638366803013,1.15557748496265,1.41525326836995,1.39023092125462,1.36121051316769,1.08028641433807,1.0760643240879,1.07369478364137,1.07401359453781,1.06777524078041,1.05979635185864,1.0584177101443,1.05410945478698,1.04740580945098,1.03860835201133,1.02251270999637,1.01861804715335,1.01660178364612,1.01474923384247,1.20595822311119,1.08585268025973,1.38173504168998,0.994793395027352,0.995413783798807,0.990390358052168,0.994689996898776,0.99020941132716,0.990381741541453,1.01427532575317,1.01290530054954,0.785571590109666,0.749757063324239,0.756465016915591,0.970089858808461,0.969547018633438,0.96951255259058,0.970400053194188,0.97097735941207,0.969391921440575,0.988443026630658,0.958112908915102,0.95488171739711,0.953778804025635,0.945955012296737,0.938889473510726,0.939423697175035,0.937286802517802,0.939182434875024,0.940698940760802,0.940311197778643,0.947118241243214,0.948384868318267,0.947247488903933,0.946687415707481,0.948393484828982,0.943981831343082,0.943258044443052,0.940733406803661,0.924982425217287,0.920251960834946,0.917675624131267,0.91821846430629,0.916314215438353,0.916434846588358,0.921656452081434,0.918838853077744,0.916650259356224,0.919209363038474,0.923957060442244,0.926068105567333,0.931324177103267,0.936511316553484,0.935787529653454,0.934744931856981,0.930789953438959,0.928317014863855,0.928851238528163,0.930927817610393,0.935270539010575,0.937752094096393,0.939061803725019,0.93782102618211,0.938088138014264,1.12247285079698,0.915323316706169,0.914513364698992,0.912746980002489,0.913849893373964,0.921044679820694,0.924680847342275,0.926903907106653,0.922233758299315,0.924810095002994,0.926429999017348,0.932823449967616,0.934874179517701,0.936864593492785,0.935563500374873,0.934546752110545,0.934245174235532,0.931100147824686,0.929058034785315,0.925318469135158,0.925542498413739,0.92602502301376,0.926205969738767,0.926843591531651,0.926128421142335,0.927800024220977,0.928067136053131,0.92504274079229,0.926576479699497,0.937700395032105,0.937321268560661,0.937459132732095,1.06849041116972,1.00019594724544,1.00869182681008,1.07495279420571,0.910377439555962,0.910842731134553,1.12774615535435,1.0058828443171,1.00230699237052,0.907284112209404,0.906026101645065,0.907473675445126,0.907232413145116,0.907439209402267,0.907051466420108,0.905336780787893,0.900054859719815,0.908033748641578,0.909946614020229,0.904285566480707,0.906715422502237,0.908559355795171,0.912626348852484,0.912428169106047,0.912531567234623,0.915823074327618,0.915754142241901,0.917916886431277,0.919881450874217,0.920467373602812
1.13605247168326,1.1354234664011,1.12815974786865,1.12597115414713,1.1311324440652,1.14549616742652,1.14545308487294,1.13109797802234,1.12130100533979,1.36597544359289,1.08126869655954,1.08060522523452,1.0745392016914,1.07085133510554,1.07104951485197,1.06088203220869,1.05926212819434,1.05639283012636,1.0366524040791,1.03744512306485,1.09022986770278,1.38531951014727,1.01468030175676,1.04071939713642,1.20853455981487,1.02057399508557,1.08807574002411,1.08978180914561,0.995103589413079,0.995913541420256,0.989433925362842,0.990631620352178,0.991958563002234,0.986306131973425,0.983953824548327,0.980533069794612,0.980912196266057,0.98082603115891,0.97314872011216,0.969521169101294,0.969202358204852,0.969900295572739,0.971520199587092,0.974311949058637,1.06909356691975,0.964670073568948,0.953149798743466,0.953011934572032,0.947893727207532,0.939053187214305,0.939794207135764,0.93477939789984,0.939354765089317,0.939863139221481,0.940474911482222,0.946739114771769,0.948393484828982,0.948359018786123,0.94648061945033,0.94744566865037,0.947497367714658,0.940845421442951,0.93989760526434,0.921794316252868,0.920450140581383,0.917770405749128,0.917873803877704,0.916633026334795,0.91747744438483,0.918115066177714,0.916822589570517,0.913410451327517,0.918278779881292,1.17823890814217,0.954855867864966,0.93978559062505,0.936588865149916,0.936020175442749,0.934701849303408,0.932547721624747,0.930350511392512,0.929023568742456,0.93184978425686,0.934271023767676,0.938544813082141,0.938967022107158,0.937889958267827,0.936830127449926,1.12334311837916,0.916452079609787,0.914875258149007,0.91371202920253,0.913031324856073,1.02755336876444,1.02946623414309,0.928773689931732,0.92344868631008,0.925628663520886,0.919545406956346,0.932926848096191,0.934262407256962,0.937157554857083,0.936580248639201,0.934107310064098,0.934227941214103,0.932392624431883,0.929764588663916,0.924939342663714,0.923405603756507,0.925568347945883,0.927929271881696,0.926912523617368,0.927257184045954,0.927989587456699,0.928015436988843,0.927800024220977,0.926197353228052,1.14626303688012,0.939776974114335,0.936718112810636,0.967797866958365,0.999825437284706,1.01826477021405,1.0561257182942,0.909757050784507,0.910041395638091,0.911833629866737,0.994491817152339,0.994336719959476,0.910213725852383,0.908662753923747,0.907646005659419,0.906267363945075,0.906991150845106,0.906413844627224,0.906827437141527,0.898443572216176,0.908076831195151,0.908981564820189,0.906474160202227,0.908395642091593,0.908343943027305,0.910205109341669,0.910032779127376,0.908516273241598,1.0561257182942,0.914840792106149,0.917727323195555,0.919588489509919,0.921768466720724
1.13842201212979,1.13376047983317,1.12867673851153,1.12463559498636,1.12457527941136,1.14565126461938,1.14667662939442,1.13420853839033,1.11344274756803,1.14675417799086,1.08269903733817,1.0821820466953,1.07463398330927,1.07033434446266,1.07060145629481,1.24174259210912,1.16152287735576,1.16141086271647,1.04937037389392,1.13097734687234,1.0801227006345,1.38019268627205,1.36853454727514,1.36770736224653,1.01263818871738,1.08304369776676,1.00871767634222,1.00928636604939,0.991027979845052,0.991596669552218,0.991639752105791,0.991725917212938,0.992139509727241,1.0275878348073,0.985022271876943,0.980791565116052,0.979171661101698,0.978852850205256,0.972709278065713,0.972131971847832,0.967616920233358,0.967737551383362,0.973286584283595,0.97353646309432,0.975940469583706,0.961774925968827,0.961680144350966,0.952994701550603,0.95341691057562,0.943146029803762,0.935167140881999,0.934245174235532,0.937588380392815,0.938501730528567,0.94026811522507,0.945558652803863,0.947393969586082,0.946790813836057,0.945989478339595,0.94586884718959,0.945886080211019,0.946067026936027,0.944524671518105,1.10465390663909,0.918597590777734,0.917598075534835,0.918003051538424,0.917589459024121,0.917305114170537,0.918563124734876,0.915107903938303,0.912049042634603,0.913315669709656,0.936666413746348,0.950082320929052,0.935606582928446,0.93429687329982,0.936097724039181,0.93611495706061,0.932616653710464,0.932892382053333,0.93077272041753,0.93186701727829,0.933891897296231,0.938157070099981,0.938182919632125,0.937407433667807,0.936580248639201,0.936071874507037,0.916245283352636,0.914384117038272,0.91870098890631,0.919493707892057,0.929299297085325,1.06893846972688,0.928110218606704,0.926602329231641,0.925103056367292,0.926326600888772,0.929669807046055,0.934839713474843,0.936666413746348,0.936769811874923,0.934994810667707,0.934477820024827,0.933693717549795,0.933633401974792,0.924456818063694,0.92090681564926,0.922182059235027,0.925137522410151,0.922285457363603,0.928015436988843,0.928187767203136,0.927912038860267,0.927782791199547,0.926361066931631,0.92674880991379,0.938510347039282,0.936468233999911,0.93466738326055,0.979645569191004,0.936071874507037,1.00322895901699,0.934744931856981,0.910842731134553,0.91382404384182,1.12122345674336,0.918278779881292,0.917313730681252,0.910015546105946,0.907275495698689,0.90456991133429,0.904733625037868,0.906904985737959,0.904268333459277,0.901355952837727,0.902389934123484,0.907516757998699,0.907085932462967,0.909955230530944,0.908283627452303,0.907439209402267,0.908042365152293,0.907602923105846,0.907697704723707,1.03773808442915,0.919123197931328,0.920424291049239,0.921889097870729
