0,0,0,0,0,0,0,0,0,0,0,0,0,0,0,0,0,0,0,0,0,0,0,0,0,0,0,0,0,0,0,0,0,0,0,0,0,0,0,0,0,0,0,0,0,0,0,0,0,0,0,0,0,0,0,0,0,0,0,0,0,0,0,0,0,0,0,0,0,0,0,0,0,0,0,0,0,0,0,0,0,0,0,0,0,0,0,0,0,0,0,0,0,0,0,0,0,0,0,0,0,0,0,0,0,0,0,0,0,0,0,0,0,0,0,0,0,0,0,0,0,0,0,0,0,0,0,0,0,0,0,0,0,0,0,0,0,0,0,0,0,0,0,0,0,0,0,0,0,0,0,0,0,0,0,0,0,0,0,0,0,0,0,0,0,0,0,0,0,0,0,0,0,0,0,0,0,0,0,0,0,0,0,0,0,0,0,0,0,0,0,0,0,0,0,0,0,0,0,0,0,0,0,0,0,0,0,0,0,0,0,0,0,0,0,0,0,0,0,0,0,0,0,0,0,0,0
1.04324516622448,1.04225267613823,1.04357311947037,1.03099007124645,1.03073979113775,1.025380344672,1.22159994989764,1.0147391248777,0,1.03504633507721,1.00540108771839,1.00549602155273,1.00572904096428,1.07257972103456,1.0707241960907,0.99627880927348,0.996019898816198,0.992628171825801,0,0.99186007080253,0.994682194786906,1.04905339081618,0.989875090630033,1.14926036813298,1.16066105860197,0.983954671506845,1.05454229251056,1.02869439852522,0,1.13830845578994,0.971794510363156,0.974469918421739,0.963561157821581,0.956389338154863,0.951159346917762,0.952721440010031,0.953834754976345,0.953834754976345,0,0.953670778353399,0.951754840969511,0.951832514106696,0.951073043432001,0.953092544998802,0.952402117112716,0.951970599683913,0.951867035501,0.954067774387899,0,0.944660694439978,0.947292950755681,0.946654304961051,0.943970266553892,0.947465557727202,0.940017566906049,0.939033707168377,0.973408385546882,0.917535508865375,0,0.918079220825668,0.919977897512404,0.91488599185252,0.932854377587907,0.974021140295784,0.973624144261284,0.917872092459842,0.932785334799299,0.945143993960238,0,0.944229177011174,0.956354816760559,0.958098147172926,0.968946495333052,1.0018281234079,1.00865472913157,0.97178588001458,0.971923965591797,0.981512282859816,0,0.971432035722961,0.971578751648754,0.973071801952415,0.989900981675761,0.989503985641261,1.00562547678137,1.00508176482108,1.00890500924028,1.01736275084483,0,1.01676725679308,1.02251506894475,1.0259240566323,1.04740499423815,1.0323795573672,1.04845789676443,1.02905687316541,1.02098749724678,1.0209098241096,0,1.03153378320675,1.07725736996279,1.11897647497953,1.11265905982185,1.1202882879631,1.07440935493268,1.05770963043798,1.05359295416719,1.05248826954945,0,1.04086319001748,1.07351179868077,1.07215683395433,1.07169079513122,1.0587107508728,1.03973261435402,1.09887639314586,1.04445341502513,1.04368531400186,0,1.03445084102546,1.03437316788827,0.996408264502121,1.0189593653314,0.975660906525238,0.985266484490409,0.988105869171937,0.983920150112541,0.984576056604323,0,1.0080678654284,0.99258502008292,1.0610582056855,0.992075829516932,1.02026254796639,0.962447842855267,0.963164161787082,0.977033131948834,0.964337889193428,0,0.985991433770799,0.990927993156314,1.00187127515078,1.00131030249333,0.968463195812791,0.942580780433144,0.963388550850059,0.963440332941516,0.942054329170003,0,0.92066832539849,0.909448872249593,0.904874787504274,0.90540986911599,0.90307967500045,0.903977231252362,0.944298219799782,0.905530693996055,0.8936467040068,0,0.893482727383855,0.893931505509811,0.938645341482454,0.940707994792136,0.941079099780907,0.889176183444394,0.882936441423892,0.891454595468477,0.929117436654467,0,0.905237262144469,0.960764924882933,0.881288044845862,0.931594346695801,0.932828486542179,0.927460409727861,0.9060916666535,0.897133364831534,0.897875574809077,0,0.895139754310461,0.890954035251065,1.02197998733303,0.909871759329821,0.915412443115661,0.918985407426156,0.917759897928353,0.915446964509965,0.939447963900028,0,1.15355828172386,1.03714350978119,0.915239836144139,0.914920513246824,0.915438334161389,0.915239836144139,0.914756536623879,0.914730645578151,0.915904372984497,0,0.918001547688483,0.919710356706546,0.918916364637547,0.916525758081974,0.915697244618671,0.913531027126076,0.911701393227949,0.908732553317779,0.909914911072701,0,0.90613481839638,0.904857526807121,0.904736701927056,0.902777612800287,0.901215519708018,0.90118962866229,0.90279487349744,1.32595812487953,0.894078221435604,0,0.893577661218192,0.893620812961072,0.89540729511632,0.896598283219818,0.896563761825514,0.897383644940241,0.893534509475311,0.891195685011195
1.11198589263291,1.05949611259323,1.06063531860527,1.0289878303768,1.02786588506191,1.04369394435043,1.01584380949544,1.01586107019259,0,1.01659464982156,1.0068423559306,1.00637631710749,1.00379584288324,1.00203525177372,1.0018626448022,1.0018626448022,0.99772870783426,0.995786879404644,0,0.992723105660137,0.992697214614409,0.992800778797322,1.08567195982446,0.989383160761196,0.98684583827983,1.05814114786678,1.02002089820626,1.13936135831622,0,1.03508085647151,1.13923190308758,0.967004666903435,0.962163041352257,0.960963422900182,0.953524062427606,0.953109805695955,0.953204739530291,0.95323063057602,0,0.953144327090259,0.952246770838347,0.950235899620122,0.951090304129153,0.954352575890909,0.954050513690747,0.953644887307671,0.954266272405149,0.955776583405962,0,0.952082794215402,0.983600827215226,0.947215277618496,0.945981137772117,0.944548499908488,0.940164282831843,0.937609699653325,0.937670112093357,0.911080008130471,0,0.914066108737793,0.917354271545277,0.917423314333886,0.917941135248451,0.96692699376625,0.921980138382053,0.92223041849076,0.926614635567405,0.949364234413938,0,0.947310211452832,0.957053874995221,0.96138630998041,0.968661693830041,0.969205405790334,0.989607549824174,1.00217333735094,0.962249344838018,0.962413321460963,0,0.998980108377791,0.992956125071691,0.973011389512383,0.973382494501154,0.989788787144272,0.996097571953382,1.01366033130569,1.05439557658477,1.01920101509153,0,1.01229673623067,1.01423856466029,1.03532250623164,1.06589983123667,1.03550374355174,1.08747570267686,1.01631847866713,1.01781152897079,1.04796596689559,0,1.03393302011089,1.03240544841293,1.0492259977877,1.04933819231919,1.04994231671951,1.11023393187197,1.10988871792893,1.03496003159145,1.04671456635206,0,1.04324516622448,1.07935454466677,1.07265739417174,1.06714260143163,1.06053175442236,1.04531644988274,1.04695621611219,1.00269978861408,1.04275323635564,0,1.04461739164807,1.0301788184803,0.97383127262711,0.972044790471862,0.969533359036225,0.978155077263723,0.988218063703426,0.988382040326372,1.01277140540236,0,0.999316691972258,0.971949856637526,0.958201711355839,0.95958256712801,0.966089849954371,0.963423072244364,0.965727375314176,0.950632895654621,0.950572483214589,0,0.957666629744122,0.982168189351598,1.00368364835175,0.940975535597994,0.938628080785301,0.955034373428419,0.946611153218171,0.957269633709622,0.92299851951403,0,0.914722015229575,0.902958850120385,0.901586624696789,0.901465799816724,0.8954504468592,0.923568122520051,0.917621812351136,0.889038097867176,0.887873000809407,0,0.891834330805825,0.942019807775699,0.945817161149171,0.939085489259833,0.939327139019964,0.887545047563516,0.886103779351311,0.944712476531434,0.947042670646974,0,0.933294525365287,0.880701181142688,0.878845656198832,0.927926448550969,0.929367716763173,0.921177515964478,0.918527998951624,0.900205768924617,0.900317963456106,0,0.903493931732102,0.908594467740562,0.915662723224367,0.916189174487507,0.917682224791168,0.92022817762111,0.915576419738606,0.916413563550485,1.0225323296419,0,1.03599567342058,0.923663056354388,0.91552463764715,0.915481485904269,0.915869851590193,0.915153532658378,0.915110380915498,0.917233446665212,0.915136271961226,0,0.918243197448613,0.920607912958458,0.921194776661631,0.919572271129328,0.914972295338281,0.915257096841291,0.915697244618671,0.916896863070745,0.991428553373726,0,0.905815495499065,0.905737822361881,0.902717200360255,0.902527332691581,0.902216640142843,0.90195772968556,0.902605005828766,0.902829394891744,0.900714959490606,0,0.893508618429583,0.896270329973927,0.89516564535619,0.896891715071405,0.898350243980761,0.899213278838369,0.898238049449272,0.89564894487645
1.03834312823327,1.03770448243864,1.0364185605008,1.04332283936166,1.04322790552733,1.01618902343848,1.01683629958169,1.01361717956281,0,1.01072601278983,1.00732565545086,1.00565999817567,1.00277746175126,1.0018626448022,1.00217333735094,1.00113769552181,0.998220637703097,0.995614272433122,0,0.993914093763635,0.992395152414246,0.99210172056266,1.05022711822252,1.04844063606728,1.07841383667198,1.07598007837353,0.983212461529303,0.979009481772755,0,0.977533692166246,0.988701363223686,0.96897238637878,0.967859071412466,1.11245193145602,1.21554144519723,0.953291043016052,0.953377346501813,0.953178848484563,0,0.95298898081589,0.953135696741683,0.949890685677079,0.949907946374231,0.950779611580414,0.953265151970324,0.954689159485376,0.954119556479355,0.954404357982366,0,0.954300793799453,0.949830273237046,0.948259549796201,0.946559371126714,0.944928235245836,0.943883963068131,0.937057357344456,0.938231084750802,0.906272903973598,0,0.91440269233226,0.915213945098411,0.931007482992627,0.938464104162356,0.933208221879526,0.967013297252011,0.962145780655105,0.962698122963974,0.927184238573426,0,0.949674926962677,0.939732765403039,0.945005908383021,0.977490540423365,0.969947615767876,0.975177607004978,0.95701072325234,0.971647794437363,0.982116407260141,0,0.992274327534181,0.974374984587403,0.971086821779918,1.0215225788585,0.986043215862256,1.01891621358852,1.05606986420853,1.04268419356703,1.01303894620822,0,1.00815416891416,1.01320292283116,1.02026254796639,1.04003467655418,1.08507646577271,1.0861638896933,1.01120068196151,1.02348166798527,1.02226478883604,0,1.03952548598819,1.04001741585703,1.04015550143424,1.03453714451122,1.05519819900234,1.05461996564774,1.04663689321488,1.02891878758819,1.02522499839763,0,1.02918632839405,1.02916043734832,1.12486237270842,1.10913787760281,1.0281593169135,1.00798156194264,1.00720483057079,1.00581534445004,1.00331254336298,0,1.00030918205851,0.97780986332068,0.989383160761196,0.974107443781544,0.973477428335491,0.966624931566088,0.960212582574064,0.975091303519217,0.989806047841424,0,0.984446601375682,0.964363780239156,0.956794964537939,0.956881268023699,0.96741029328651,0.982004212728652,0.939344399717116,0.959686131310924,0.951590864346566,0,0.963069227952745,0.951832514106696,0.959168310396359,0.958607337738914,0.969559250081953,0.986189931788049,0.947741728881636,0.949692187659829,0.896822672282796,0,0.894276719452854,0.904149838223883,0.899446298249923,0.900973869947888,0.938723014619638,0.915800808801584,0.886362689808594,0.890418953639349,0.892145023354563,0,0.879760473147896,0.897841053414773,0.878250162147083,0.906359207459358,0.873581143567427,0.926588744521677,0.868644584181912,0.869024319519259,0.879406628856277,0,0.934071256737134,0.934356058240145,0.929169218745924,0.926977110207601,0.934459622423057,0.91745783572819,0.90697196220826,0.906514553733728,0.906454141293695,0,0.923360994154225,0.909923541421277,1.03761817895288,0.989762896098544,1.01885580114849,0.905565215390359,0.906307425367902,1.0366343192152,1.03731611675271,0,1.08633649666482,1.02285165253921,1.0378253073187,0.917449205379614,0.917682224791168,0.913746785840478,0.914601190349509,1.06883414975254,0.916827820282137,0,0.917535508865375,0.91741468398531,0.917500987471071,0.918562520345928,0.918182785008581,0.917734006882625,0.917958395945603,0.917828940716962,0.984446601375682,0,0.907317176151303,0.90356297452071,0.903459410337797,0.903468040686373,0.903373106852037,0.902613636177342,0.902415138160092,0.901293192845202,0.900421527639019,0,0.902009511777017,0.900784002279214,0.896546501128361,0.8968571936771,0.898479699209402,0.899782881844389,0.899636165918596,0.897029800648622
1.03895588298217,1.03726433466126,1.03710035803831,1.03930972727379,1.04024180492,1.02021939622351,1.01870045487412,1.01562805078104,0,1.00914665900041,1.00497820063816,1.00403749264337,1.00202662142515,1.00157784329919,1.00407201403768,1.00343336824305,0.998660785480476,0.99588181323898,0,0.994397393283896,0.994311089798135,0.994941105244188,0.992352000671366,0.991143751870715,0.991143751870715,1.13263831677546,1.12755504146415,0.99186007080253,0,0.991808288711073,1.04636072206044,1.0340020628995,0.969826790887811,0.968126612218324,0.958486512858849,0.956190840137613,0.953204739530291,0.952617875827118,0,0.951953338986761,0.950589743911741,0.950408506591643,0.950313572757306,0.951133455872033,0.951211129009218,0.955595346085864,0.954611486348192,0.954033252993595,0,0.95371393009628,0.951720319575207,0.949692187659829,0.947025409949822,0.94636950345804,0.947422405984321,0.936470493641283,0.936530906081315,0.936064867258207,0,0.986284865622386,0.916059719258866,0.915602310784334,0.93223299249043,0.931896408895963,0.932906159679364,0.963388550850059,0.967798658972434,0.953834754976345,0,0.973934836810023,0.932491902947713,0.949303821973906,0.928470160511262,0.950140965785785,0.965813678799937,0.942615301827448,0.971682315831667,0.964890231502297,0,0.967470705726543,0.971932595940373,0.980390337544927,0.977188478223203,0.977844384714984,1.04680086983782,1.03184447575548,1.03092102845784,1.06167959078297,0,1.00288102593418,1.00209566421375,1.00156058260204,1.00282061349414,1.09107455803308,1.09372407504594,1.09154922720477,1.02914317665117,1.03692775106679,0,1.02628653127249,1.02287754358494,1.03752324511854,1.04970066695938,1.03288011758461,1.0156798328725,1.01058792721261,1.02738258554165,1.01734549014768,0,1.01918375439438,1.02398222820268,1.02810753482204,1.01386745967152,0.997055540645327,1.01696575481033,0.997832272017173,0.992895712631659,0.993258187271854,0,0.96833374058415,0.990047697601554,0.982081885865837,0.994380132586744,0.994552739558265,0.96085985871727,0.959047485516294,0.980830485322306,0.965416682765437,0,0.960342037802705,0.958158559612958,0.969783639144931,0.953843385324921,0.965822309148513,0.956838116280819,0.94472110688001,0.943029558559099,0.932845747239331,0,0.948906825939406,0.927305063453492,0.941648702786927,0.934166190571471,0.913453353988892,0.910881510113221,0.908370078677584,0.908715292620627,0.891730766622912,0,0.951608125043718,0.891359661634141,0.890298128759283,0.890298128759283,0.888382191375395,0.88757956895782,0.887752175929341,0.886233234579952,0.88625912562568,0,0.866659604009415,0.86302881636346,0.863095270047496,0.867574420958479,0.867608942352783,0.862889867751386,0.862996884073729,0.894587412001592,0.91464434209239,0,0.953808863930617,0.928944829682946,0.930075405346411,0.931870517850235,1.06682327853431,0.908732553317779,0.911200833010536,0.912676622617045,0.919382403460655,0,0.917112621785147,0.911934412639502,0.963129640392777,0.969541989384801,0.984558795907171,0.905383978070262,0.905668779573273,0.90540986911599,1.04295173437289,0,1.03891273123929,1.04014687108567,1.04954532068501,1.05624247118005,1.05544847911105,0.920599282609881,1.0595047429418,1.06060942755954,0.91745783572819,0,0.917362901893853,0.919071710911916,0.919727617403698,0.919555010432177,0.921194776661631,0.919175275094829,0.918890473591819,0.917147143179452,0.916499867036246,0,0.911416591724938,0.90580686515049,0.905159589007284,0.905962211424859,0.904072165086699,0.903424888943493,0.899713839055781,0.900136726136009,0.900861675416399,0,0.901759231668311,0.899998640558791,0.901552103302485,0.900343854501834,0.89914423604976,0.899506710689955,0.894035069692724,0.895925116030884
0,0,0,0,0,0,0,0,0,0,0,0,0,0,0,0,0,0,0,0,0,0,0,0,0,0,0,0,0,0,0,0,0,0,0,0,0,0,0,0,0,0,0,0,0,0,0,0,0,0,0,0,0,0,0,0,0,0,0,0,0,0,0,0,0,0,0,0,0,0,0,0,0,0,0,0,0,0,0,0,0,0,0,0,0,0,0,0,0,0,0,0,0,0,0,0,0,0,0,0,0,0,0,0,0,0,0,0,0,0,0,0,0,0,0,0,0,0,0,0,0,0,0,0,0,0,0,0,0,0,0,0,0,0,0,0,0,0,0,0,0,0,0,0,0,0,0,0,0,0,0,0,0,0,0,0,0,0,0,0,0,0,0,0,0,0,0,0,0,0,0,0,0,0,0,0,0,0,0,0,0,0,0,0,0,0,0,0,0,0,0,0,0,0,0,0,0,0,0,0,0,0,0,0,0,0,0,0,0,0,0,0,0,0,0,0,0,0,0,0,0,0,0,0,0,0,0
1.03922342378803,1.03647034259226,1.03673788339812,1.03575402366045,1.0267180487013,1.02649365963832,1.11784589931607,1.01640478215289,0,1.01055340581831,1.00352830207738,1.00173318957356,0.999679166612453,1.00194894828796,1.00392529811188,1.00360597521457,1.00307952395143,0.994897953501308,0,0.994000397249396,0.992352000671366,0.992964755420267,0.991238685705052,0.991756506619617,0.987734764183166,0.986034585513679,0.98592239098219,0.982280383883087,0,1.00096508855029,1.03395891115662,1.0301788184803,0.968609911738585,0.966107110651523,0.963026076209864,0.959409960156489,0.953834754976345,0.95279048279864,0,0.951728949923783,0.949528211036884,0.951245650403522,0.952039642472521,0.952143206655434,0.954076404736475,0.954801354016865,0.954162708222236,0.952264031535499,0,0.952600615129966,0.952643766872847,0.948708327922156,0.947146234829887,0.947232538315648,0.946714717401083,0.943417924245023,0.936297886669761,0.938265606145106,0,0.918165524311428,0.917708115836896,0.91882143080321,0.917777158625505,0.932526424342016,0.983212461529303,0.948086942824679,0.944453566074152,0.94516125465739,0,0.947034040298398,0.950676047397502,0.960989313945911,0.947180756224191,0.947336102498561,0.954326684845181,0.950417136940219,0.956708661052178,0.963215943878538,0,0.961196442311737,0.983177940134999,0.96873073661865,0.974426766678859,0.980493901727839,0.963440332941516,1.02512143421472,1.02607077255809,0.974133334827272,0,0.969050059515965,0.968135242566901,0.963526636427277,1.01599915576981,0.995363992324416,0.984429340678529,1.0759196659335,1.03351876337924,1.02203176942449,0,1.02462087399731,1.02189368384727,1.00801608333694,1.00767949974247,1.01674136574735,1.01670684435305,1.01898525637713,1.02196272663588,1.00612603699878,0,1.0142730860546,1.00209566421375,1.0094746122463,1.017155622479,1.00320034883149,0.99326681762043,0.98467099043866,0.982858617237684,0.963207313529962,0,0.96387185037032,0.978457139463886,0.966176153440132,0.974055661690088,0.998557221297564,0.975315692582195,0.980830485322306,0.962042216472192,0.975212128399282,0,0.959021594470566,0.947543230864387,0.937376680241771,0.931413109375703,0.94568770592053,0.959461742247946,0.92757260425935,0.938878360894007,0.930023623254955,0,0.930593226260976,0.95351543207903,0.923430036942834,0.93933576936854,0.95094358820336,0.932181210398974,0.899618905221444,0.914868731155368,0.906359207459358,0,0.890168673530642,0.887268876409081,0.885404721116649,0.88476607532202,0.883868519070108,0.89428534980143,0.891385552679869,0.885888020636909,0.889633591918926,0,0.89107486013113,0.912581688782708,0.862036326277212,0.867988677690131,0.868480607558967,0.879139088050419,0.875410777465555,0.894604672698745,0.903338585457732,0,0.902553223737309,0.900602764959117,0.903649278006471,0.909198592140887,0.909474763295321,0.90263952722307,0.908887899592148,0.922946737422574,0.922877694633965,0,0.921160255267326,0.915352030675628,0.916180544138931,0.925216519098081,0.925639406178309,0.926623265915982,0.908698031923475,0.90914681004943,1.02789177610764,0,1.02770190843897,1.03107637473221,1.02309330229934,0.929764712797673,0.931214611358453,0.921954247336325,0.921652185136163,0.922834542891085,0.923188387182704,0,0.92042667563836,0.920254068666839,0.919529119386448,0.919088971609068,0.92086682341574,0.922489328948042,0.918200045705733,0.91785483176269,0.915455594858541,0,0.911684132530796,0.911770436016557,0.918838691500362,0.919624053220785,0.906385098505087,0.905461651207447,0.899929597770183,0.900102204741704,0.900904827159279,0,0.90162977643967,0.90516821935586,0.901301823193779,0.901836904805495,0.899877815678726,0.899239169884097,0.89380205028117,0.894216307012821
1.19769388434191,1.03810147847314,1.03870560287346,1.03993111237127,1.02687339497566,1.02573418896362,1.02472443818022,1.11189095879858,0,1.00598795142156,1.00257896373401,1.00227690153385,0.998496808857531,0.996995128205294,0.994984256987069,0.995346731627264,1.0379720232445,0.998030770034423,0,0.991998156379747,0.990608670258999,0.989564398081294,0.989314117972588,0.986181301439473,0.985792935753549,0.98403234464403,0.983281504317912,0.980321294756318,0,1.03833449788469,0.982332165974543,1.32484480991322,0.966141632045827,0.965511616599774,0.9653217489311,1.18933107657169,0.954904918199778,0.954378466936638,0,0.952281292232652,0.951495930512229,0.951720319575207,0.952514311644205,0.952971720118737,0.953152957438835,0.954525182862431,0.954551073908159,0.953204739530291,0,0.952661027569999,0.952255401186923,0.949968358814263,0.9458430521949,0.945169885005966,0.944505348165608,0.944902344200108,0.945014538731597,0.942408173461622,0,0.944988647685868,0.950512070774556,0.94768994679018,0.933449871639657,0.976299552319867,0.980718290790818,0.98398919290115,0.949605884174068,0.95054659216886,0,0.93933576936854,0.95857281634461,0.96041971093989,0.969343491367551,0.947992008990343,0.948440787116298,0.966357390760229,0.941536508255439,0.942132002307188,0,0.986189931788049,0.995786879404644,1.00131893284191,0.971155864568527,0.990850320019129,0.984265364055584,0.998859283497726,0.965813678799937,0.984567426255747,0,0.977128065783171,0.98033855545347,0.999791361143942,0.966055328560067,0.966063958908643,0.990142631435891,1.00830088483995,1.01815674291383,1.02792629750195,0,1.02805575273059,1.02286891323637,1.01424719500887,0.995519338598785,1.01959801112603,1.0187090852227,1.01862278173694,1.00811101717128,1.00552191259846,0,1.00753278381668,1.04373709609331,0.987303246754362,0.987596678605949,0.998790240709118,0.97523801944501,0.974530330861772,0.986612818868276,0.965943134028578,0,0.956052754560396,0.984412079981377,0.970741607836875,0.960851228368694,0.957295524755351,0.955638497828744,0.969671444613442,0.966996036554859,0.974185116918729,0,0.932509163644864,0.944608912348521,0.952246770838347,0.929013872471554,0.948777370710765,0.912711144011349,0.913919392812,0.938162041962194,0.944591651651369,0,0.929048393865858,0.912564428085556,0.930912549158291,0.929082915260163,0.901137846570833,0.892671474617704,0.900084944044552,0.897444057380273,0.894164524921365,0,0.888408082421123,0.885896650985485,0.887398331637722,0.883903040464412,0.881676410531785,0.927158347527698,0.908559946346257,0.908974203077909,0.907308545802726,0,0.906695791053825,0.885620479831051,0.93243149050768,0.919494597992144,0.876998761603553,0.877404387986628,0.871587533046354,0.878414138770029,0.87975184279932,0,0.903347215806308,0.903485301383525,0.906738942796706,0.908741183666355,0.91114905091908,0.914894622201096,0.918234567100037,0.922411655810857,0.924206768314681,0,0.924422527029082,0.926442028595884,0.917431944682462,0.924828153412158,0.926295312670091,0.926666417658862,1.02973867070292,0.909932171769853,1.02917769804548,0,1.02973867070292,1.19954940928577,1.04414272247639,1.0217383375729,0.93010129639214,0.926372985807275,0.923602643914355,0.923645795657236,0.923412776245682,0,0.924189507617528,0.920521609472697,0.919831181586611,0.920349002501175,0.920840932370012,0.914955034641129,0.917967026294179,0.918484847208743,0.915593680435758,0,0.913418832594588,0.914394061983684,0.913289377365946,0.911623720090764,1.37099991409806,0.903545713823558,0.902656787920222,0.901733340622582,0.902371986417212,0,0.903407628246341,0.903683799400775,0.902855285937472,0.901698819228278,0.901267301799474,0.898954368381086,0.900093574393128,1.00783484601684
1.1008441126212,1.04057838851447,1.04050934572586,1.03978439644547,1.03425234300821,1.02619159743815,1.16203328402557,1.02006404994914,0,1.28281501234773,1.00837855797714,1.09935969266612,0.993145992740365,0.992766257403018,0.99278351810017,0.995225906747199,0.992524607642888,0.994863432107004,0,0.995010148032797,0.992049938471203,0.986103628302288,0.98423084266128,0.98407549638691,0.982461621203184,0.982047364471533,0.980485271379263,1.05559519503684,0,1.03859340834197,0.969239927184638,0.966348760411653,0.96503694742809,0.965062838473818,0.965658332525567,0.961800566712062,0.955621237131592,0.954559704256735,0,0.954611486348192,0.95259198478139,0.952384856415564,0.952376226066988,0.951504560860805,0.95283363454152,0.951979230032489,0.952531572341358,0.952419377809869,0,0.952358965369836,0.950322203105883,0.949441907551123,0.949088063259504,0.945825791497748,0.946870063675453,0.945955246726389,0.946904585069757,0.946602522869594,0,0.943348881456414,0.94428095910263,0.948518460253483,0.930506922775215,0.967954005246803,0.978664267829712,1.00511628621538,0.995717836616035,0.934433731377329,0,1.00863746843442,0.954904918199778,0.943392033199295,0.936971053858695,0.962603189129637,0.946222787532247,0.962387430415235,0.959591197476587,0.952583354432814,0,0.955612606783016,1.00791251915403,1.0100528456009,0.974901435850543,1.02467265608877,0.9596947616595,0.971535599905874,0.962145780655105,0.983902889415389,0,0.98033855545347,0.955181089354213,0.968609911738585,0.987139270131417,0.96688384202337,1.00242361745965,0.983298765015064,0.988908491589512,1.01309935864825,0,1.0055046519013,1.01102807498999,0.993111471346061,0.986811316885526,1.02280850079633,1.00242361745965,1.00689413802205,1.00566862852425,1.01401417559731,0,0.979484150944439,0.978603855389679,0.988727254269415,1.00779169427396,0.978577964343951,0.984084126735487,0.962525515992452,0.954654638091072,0.975134455262097,0,0.97358962286698,0.974012509947207,0.984446601375682,0.969731857053474,0.95885761784762,0.95628577397195,0.937998065339248,0.950589743911741,0.944833301411499,0,0.958124038218654,0.919201166140557,0.924388005634778,0.923939227508822,0.933260003970983,0.909699152358299,0.919822551238035,0.909336677718104,0.927796993322328,0,0.911269875799145,0.932768074102147,0.956829485932243,0.909164070746583,0.897124734482959,0.884731553927715,0.894397544332919,0.931533934255768,0.907515674168552,0,0.9074984134714,0.896451567294025,0.893517248778159,0.888900012289959,0.891333770588412,0.890211825273523,0.891169793965467,0.888433973466851,0.888615210786949,0,0.90604851491062,0.857164494506018,0.858644599286814,0.853142752069567,0.853779671794481,0.874064443087687,0.943348881456414,0.876748481494846,0.871967268383701,0,0.902613636177342,0.904132577526731,0.913893501766271,0.911960303685231,0.914255976406467,0.91484284010964,0.917932504899874,0.922247679187912,0.925466799206788,0,0.929281413277413,0.929324565020293,0.926139966395721,0.923697577748692,0.921427796073185,0.920771889581403,0.912866490285719,0.912607579828436,0.914307758497923,0,1.04087182036606,1.03773037348437,1.0324140787615,1.01933910066875,1.04717197482659,0.928478790859838,0.924759110623549,0.923861554371638,0.922730978708172,0,0.92255837173665,0.920728737838523,0.919934745769524,0.92090997515862,0.920961757250077,0.915585050087182,0.916793298887832,0.918795539757482,0.915982046121681,0,0.914713384880998,0.912305517628274,0.912340039022578,0.984317146147041,1.37180253651564,0.907636499048617,0.901370865982387,0.903528453126406,0.904745332275632,0,0.904218881012492,0.903381737200613,0.904098056132427,0.904331075543981,0.903856406372297,0.902682678965951,0.902613636177342,0.998341462583162
1.04033673875434,1.0397757660969,1.04000878550845,1.0413982716292,1.0397757660969,1.02739121589023,1.03121446030943,1.02747751937599,0,1.02519910735191,1.00720483057079,1.00131893284191,0.998470917811803,0.992956125071691,0.996529089382186,0.986215822833777,0.990841689670553,0.991359510585118,0,0.992818039494474,1.04022454422285,1.0401727621314,0.993404903197647,1.03807558742741,0.981736671922794,0.980027862904731,1.07937180536393,0.986069106907984,0,1.14664537251443,0.963017445861288,0.962396060763811,0.964294737450547,0.964605429999286,0.964683103136471,0.961602068694812,0.961489874163323,0.954266272405149,0,0.954128186827931,0.953101175347379,0.95347228033615,0.950891806111903,0.950589743911741,0.951590864346566,0.950451658334524,0.950192747877241,0.950348094151611,0,0.948777370710765,0.948483938859179,0.949027650819471,0.949424646853971,0.947551861212963,0.947387884590017,0.945342491977488,0.958987073076262,0.945765379057715,0,0.945532359646161,0.94423780735975,0.946067441257878,0.945066320823053,0.950555222517437,1.04510069116833,1.0433832518017,0.962102628912224,0.954128186827931,0,0.974504439816044,0.954041883342171,0.974538961210348,0.97178588001458,0.959409960156489,0.921030800038685,0.942373652067318,0.921013539341533,0.925742970361222,0,0.936910641418662,0.962232084140866,0.977412867286181,1.01139917997876,1.01176165461896,0.995864552541828,0.956579205823537,0.983600827215226,0.96668534400612,0,0.954594225651039,0.947482818424354,0.950123705088633,0.989693853309935,0.979872516630362,0.973658665655588,0.982064625168685,0.983229722226455,0.998747088966237,0,1.00483148471237,0.990608670258999,1.02890152689104,1.0374283112842,1.03704857594686,1.00187127515078,1.00149153981343,1.01044121128682,1.01065697000122,0,0.972916455678046,0.972208767094808,0.971915335243221,0.968342370932726,0.966607670868935,0.962257975186594,0.981926539591468,0.961205072660313,0.963284986667147,0,0.970059810299365,0.968437304767063,0.966314239017349,0.945713596966259,0.952436638507021,0.952937198724433,0.95138373598074,0.927365475893524,0.950719199140382,0,0.913168552485881,0.935952672726718,0.915490116252845,0.90914681004943,0.914920513246824,0.897418166334545,0.897202407620143,0.904667659138448,0.909293525975224,0,0.905323565630229,0.909043245866518,0.910484514078722,0.882789725498099,0.881685040880361,0.881710931926089,0.888347669981091,0.885870759939757,0.909129549352278,0,0.906341946762206,0.938912882288312,0.896322112065384,0.896460197642601,0.895139754310461,0.990315238407412,0.924344853891898,0.928323444585468,0.92946265059751,0,0.857743590895472,0.857021230719655,0.870448327034312,0.87946704129631,0.863923783510799,0.865753417408927,0.869585292176704,0.894173155269941,0.891523638257086,0,0.904512312864078,0.930878027763986,0.932793965147875,0.922066441867814,0.916499867036246,0.916793298887832,0.919002668123308,0.924051422040311,0.926459289293036,0,0.930213490923629,0.930981591946899,0.930972961598323,0.9245606126063,0.922411655810857,0.920487088078393,0.922308091627944,0.924016900646007,1.0863796484077,0,1.06165369973725,1.08669034095644,1.0385847779934,0.939068228562681,1.01410047908307,1.01088998941277,0.927348215196372,0.924016900646007,0.922774130451052,0,0.921125733873022,0.92071147714137,0.919857072632339,0.919391033809231,0.920607912958458,0.915602310784334,0.918761018363178,0.92018502587823,0.92042667563836,0,0.914946404292552,0.912849229588567,0.912538537039828,0.914998186384009,0.911856739502318,0.910018475255614,0.90332132476058,0.905703300967577,0.904417379029742,0,0.905487542253175,0.905314935281653,0.905418499464566,0.905729192013305,0.904512312864078,0.903183239183363,0.902259791885723,0.902579114783038
0,0,0,0,0,0,0,0,0,0,0,0,0,0,0,0,0,0,0,0,0,0,0,0,0,0,0,0,0,0,0,0,0,0,0,0,0,0,0,0,0,0,0,0,0,0,0,0,0,0,0,0,0,0,0,0,0,0,0,0,0,0,0,0,0,0,0,0,0,0,0,0,0,0,0,0,0,0,0,0,0,0,0,0,0,0,0,0,0,0,0,0,0,0,0,0,0,0,0,0,0,0,0,0,0,0,0,0,0,0,0,0,0,0,0,0,0,0,0,0,0,0,0,0,0,0,0,0,0,0,0,0,0,0,0,0,0,0,0,0,0,0,0,0,0,0,0,0,0,0,0,0,0,0,0,0,0,0,0,0,0,0,0,0,0,0,0,0,0,0,0,0,0,0,0,0,0,0,0,0,0,0,0,0,0,0,0,0,0,0,0,0,0,0,0,0,0,0,0,0,0,0,0,0,0,0,0,0,0,0,0,0,0,0,0,0,0,0,0,0,0,0,0,0,0,0,0
1.04023317457143,1.04003467655418,1.03982754818835,1.03493414054572,1.03387260767086,1.0341833002196,1.03207749516704,1.01598189507266,0,1.0137293740943,1.01291812132815,1.00276020105411,1.09336160040574,0.992352000671366,0.994785758969819,0.989245075183979,0.990142631435891,0.990392911544597,0,0.992429673808551,1.00148290946485,1.00502998272962,1.03463207834556,1.0339675415052,0.9866041885197,0.976998610554529,0.977240260314659,1.07553993059615,0,1.06107546638265,0.960713142791476,0.961990434380735,0.962689492615397,0.96547709520547,0.964242955359091,0.962620449826789,0.965149141959579,0.966564519126055,0,0.952583354432814,0.951539082255109,0.951012630991969,0.950097814042905,0.946783760189692,0.947085822389855,0.948716958270733,0.949433277202547,0.9504602886831,0,0.949674926962677,0.94749144877293,0.947258429361376,0.947819402018821,0.945937986029237,0.947353363195713,1.00075796018446,0.941381161981069,0.941691854529808,0,0.945152624308814,0.943970266553892,0.946697456703931,0.946801020886844,0.946490328338105,0.991816919059649,0.949286561276754,0.94817324631044,0.935296766234937,0,0.947758989578788,0.959668870613771,0.959479002945098,0.938731644968214,0.916137392396051,0.949813012539894,0.917794419322657,0.91901992882046,0.927779732625176,0,0.953524062427606,0.953670778353399,1.01169261183035,1.00118947761327,0.967876332109618,0.975212128399282,0.96556339869123,0.969869942630692,0.97849166085819,0,0.941407053026798,0.98190064854574,0.970499958076745,0.958926660636229,0.991255946402205,0.971621903391635,0.978759201664049,0.983169309786423,0.983920150112541,0,0.980010602207579,0.975928447331096,0.978897287241266,0.992188024048421,0.988114499520513,0.988019565686176,0.974944587593424,0.974590743301804,0.986353908410994,0,0.980442119636383,0.967876332109618,0.963518006078701,0.963820068278863,0.988744514966567,0.936479123989859,0.953204739530291,0.941432944072526,0.983203831180727,0,0.965425313114013,0.974495809467468,0.971216277008559,0.959970932813934,0.945972507423541,0.948121464218984,0.927063413693361,0.933165070136646,0.930575965563824,0,0.930550074518096,0.938170672310769,0.957347306846807,0.917207555619484,0.899118345004032,0.904615877046991,0.912814708194262,0.913341159457403,0.897858314111925,0,0.907843627414443,0.902095815262777,0.890721015839511,0.896796781237068,0.879423889553429,0.879527453736342,0.945497838251857,0.885188962402247,0.885102658916487,0,0.959988193511086,0.907041004996868,0.91444584407514,0.893689855749681,0.903985861600938,0.904892048201426,0.925915577332743,0.927054783344785,0.866832210980936,0,0.896952127511437,0.899636165918596,0.883350698155543,0.878845656198832,0.924111834480344,0.868791300107705,0.870983408646028,0.906057145259196,0.893594921915344,0,0.908275144843247,0.908568576694833,0.91002710560419,0.94219241474722,0.920288590061143,0.920305850758295,0.920858193067164,0.92324016927416,0.927201499270578,0,0.928729070968544,0.931387218329975,0.932224362141854,0.992619541477224,1.01857962999406,1.01090725010993,0.99816885561164,0.923300581714193,1.00832677588568,0,0.925786122104102,1.02762423530178,0.93564198017798,1.00400297124907,0.94239091276447,0.96508009917097,1.0400260462056,0.926036402212808,0.923507710080019,0,0.920789150278555,0.921073951781566,0.922299461279368,0.92139327467888,0.920564761215577,0.920055570649589,0.920245438318262,0.918286349191494,0.918131002917124,0,0.914851470458216,0.915196684401259,0.914618451046662,0.914454474423716,0.914998186384009,0.910052996649918,0.905694670619001,0.905392608418838,0.903649278006471,0,0.904512312864078,0.904322445195405,0.904753962624208,0.905228631795893,0.904607246698415,0.902976110817537,0.901017021690768,0.903019262560418
1.04064743130308,1.04018139247997,1.04032810840576,1.04259789008127,1.03373452209364,1.02494019689462,1.02513869491187,1.01604230751269,0,1.01566257217534,1.00918981074329,1.00822321170277,1.00773128183393,0.994009027597972,0.989236444835403,0.98889123089236,0.989003425423849,0.989849199584305,0,0.992956125071691,1.00126715075045,1.00387351602043,1.00441722798072,1.03943918250243,1.03740242023848,1.04554946929429,1.03707446699258,1.14529903813656,0,0.960039975602543,0.960031345253967,0.961817827409214,0.962862099586919,0.96411350013045,0.965787787754208,0.971268059100016,0.971613273043059,1.16860097929196,0,1.16428580500392,0.950140965785785,0.950192747877241,0.948319962236233,0.947646795047299,0.945635923829074,0.945411534766096,0.945584141737618,0.942951885421915,0,0.946999518904094,0.946990888555518,0.947085822389855,0.946887324372605,0.947431036332898,0.947077192041278,0.945946616377813,0.943038188907675,0.941277597798156,0,0.941277597798156,0.944669324788554,0.946490328338105,0.946895954721181,0.948095573173255,0.951271541449251,0.95254883303851,0.990272086664532,0.940837450020776,0,0.980718290790818,0.941898982895634,0.958590077041762,0.965451204159741,0.954758202273985,0.935840478195229,0.921203407010207,0.921125733873022,0.930006362557803,0,0.92805590377961,0.9255703633897,0.977637256349159,0.928219880402555,0.932198471096126,0.973425646244034,0.971880813848917,0.948570242344939,0.950624265306045,0,0.9596947616595,0.934295645800112,0.934062626388558,0.961800566712062,0.947681316441604,0.967815919669586,0.968842931150139,0.969283078927519,0.974608003998957,0,0.974495809467468,0.987424071634427,0.972881934283742,0.965356270325405,0.967108231086348,0.974608003998957,0.974547591558924,0.982401208763152,0.967341250497902,0,0.968799779407258,0.980675139047937,0.960281625362673,0.962240714489442,0.959168310396359,0.970068440647941,0.941760897318417,0.951521821557957,0.970767498882603,0,0.958322536235904,0.941873091849906,0.963319508061451,0.93913727135129,0.951979230032489,0.954904918199778,0.951806623060967,0.924534721560572,0.905254522841621,0,0.934261124405808,0.922385764765129,0.886906401768886,0.878112076569866,0.878578115392974,0.913392941548859,0.896831302631372,0.900041792301672,0.887691763489309,0,0.886785576888821,0.865235596494363,0.900714959490606,0.900050422650248,0.876273812323162,0.870940256903148,0.87111286387467,0.888252736146754,0.888994946124296,0,0.889607700873198,0.918769648711754,0.921928356290597,0.956311665017678,0.892749147754889,0.877740971581095,0.888028347083776,0.888675623226981,0.888494385906884,0,0.870292980759942,0.888580689392645,0.916076979956018,0.890453475033653,0.889590440176045,0.921971508033477,0.915015447081161,0.917742637231201,0.919857072632339,0,0.912478124599795,0.911597829045036,1.12367138460492,0.942123371958612,0.945454686508976,0.966038067862914,0.921660815484739,0.923499079731443,0.985059356124583,0,0.934071256737134,0.933467132336809,0.934028104994254,0.933907280114188,0.933898649765612,0.927477670425013,1.04738773354099,0.925596254435429,0.926114075349993,0,0.926148596744297,1.0231105629965,0.936746664795717,1.08789858975709,0.942295978930133,0.943253947622077,1.01011325804093,0.998108443171608,0.924741849926397,0,0.921229298055935,0.9209531269015,0.921962877684901,0.922144115004999,0.920607912958458,0.920901344810044,0.920504348775545,0.917440575031038,0.917906613854146,0,1.05389501636735,0.913470614686044,0.91668973470492,0.917803049671233,0.913824458977663,0.910165191181407,0.907852257763019,0.904581355652687,0.903994491949514,0,0.903554344172134,0.902553223737309,0.903511192429254,0.904503682515502,0.905478911904599,0.900878936113551,0.900456049033323,0.900714959490606
1.04043167258868,1.0407855168803,1.03801517498738,1.03759228790715,1.03666884060951,1.02188505349869,1.02171244652717,1.02378373018543,0,1.01367759200285,1.01342731189414,1.00835266693141,1.01035490780106,0.99656361077649,0.99009947969301,0.988787666709447,0.987786546274622,0.988382040326372,0,1.00166414678495,1.00010205369268,1.0034506289402,1.00248402989968,1.02413757447705,1.02303288985931,1.02258411173336,1.02200587837876,1.07889713619224,0,1.20490022540293,0.959677500962347,0.959573936779435,0.960402450242738,0.962085368215072,0.971794510363156,0.971354362585776,0.966063958908643,0.96479529766796,0,0.964035826993265,0.950175487180089,0.950123705088633,0.947715837835908,0.947577752258691,0.947569121910115,0.947137604481311,0.94428095910263,0.941924873941362,0,1.04343503389315,0.946792390538268,0.946973627858365,0.947189386572767,0.944557130257065,0.945256188491727,0.945618663131922,0.944936865594412,0.944548499908488,0,1.02203176942449,1.03149926181244,0.947128974132735,0.947042670646974,0.948164615961864,0.950952218551936,0.953187478833139,0.93986222063168,0.940483605729157,0,0.95162538574087,0.955017112731267,0.924871305155038,0.950598374260317,0.949027650819471,0.947853923413125,0.911796327062285,0.897185146922991,0.909561066781082,0,0.924569242954876,0.925950098727048,0.925691188269765,0.94239091276447,0.960195321876912,0.92058202191273,0.915300248584172,0.916586170522007,0.926951219161872,0,0.927736580882295,0.927736580882295,0.926813133584655,0.977550952863398,0.950822763323295,0.95021863892297,0.986422951199603,0.969429794853312,0.972010269077558,0,0.966529997731751,0.959893259676749,0.942882842633306,0.940380041546245,0.946412655200921,0.956941680463732,0.956829485932243,1.00432229414638,1.01093314115565,0,0.971397514328657,0.977835754366408,0.9777667115778,0.963336768758603,0.93596993342387,0.962145780655105,0.959832847236717,0.941562399301167,0.948337222933385,0,0.937747785230542,0.948017900036071,0.945083581520205,0.931326805889942,0.931758323318746,0.921565881650402,0.93933576936854,0.921056691084413,0.905591106436088,0,0.911382070330634,0.898471068860826,0.920737368187099,0.917708115836896,0.874064443087687,0.875488450602739,0.888684253575557,0.859386809264357,0.870120373788421,0,0.849618980745956,0.85616078496662,0.858183738672852,0.87645504964326,0.869723377753922,0.890962665599641,0.866279868672068,0.867125642832523,0.864458865122516,0,0.899316843021281,0.882530815040816,0.924569242954876,0.915317509281324,0.889935654119088,0.892006937777346,0.87115601561755,0.888666992878405,0.896917606117133,0,0.873201408230079,0.879501562690614,0.886310907717137,0.869775159845378,0.876222030231706,0.921048060735837,0.919296099974894,0.919088971609068,0.919442815900687,0,0.922437546856585,0.92601051116708,0.917932504899874,0.983946041158269,0.943098601347708,0.944755628274314,0.972985498466654,0.926493810687341,0.92926415258026,0,0.93335493780532,0.93427838510296,0.933820976628428,0.934528665211666,0.934873879154709,0.935253614492056,0.932258883536158,0.932888898982212,0.927270542059187,0,0.928323444585468,1.0717339468741,1.08511961751559,0.939758656448767,0.942140632655764,0.943771768536642,0.943383402850718,1.01076916453271,1.00851664355435,0,0.923378254851377,0.920495718426969,0.920676955747066,0.921004908992957,0.920443936335512,0.921073951781566,0.920357632849751,0.920478457729816,0.920512979124121,0,0.952807743495792,1.06732383875173,0.927891927156664,0.924500200166267,1.34223496229401,0.909164070746583,0.908301035888975,0.9046849198356,0.903890927766601,0,0.903977231252362,0.904262032755372,0.906298795019326,0.906738942796706,1.0793804357125,0.902561854085886,0.901025652039344,0.899765621147237
1.04029358701146,1.04101853629185,1.04110483977761,1.03829134614181,1.03716940082692,1.04397874585344,1.01679314783881,1.01655149807868,0,1.01674136574735,1.05779593392374,1.01179617601326,0.997288560056881,0.996529089382186,0.995148233610014,0.99539851371872,0.986491993988211,0.986094997953712,0,0.986328017365266,1.13240529736391,0.993085580300332,0.998134334217336,0.998885174543454,1.01775111653075,1.0183120891882,1.20453775076274,1.02101338829251,0,0.964847079759416,0.962214823443713,0.961981804032159,0.961843718454942,0.962939772724104,0.971276689448592,0.972062051169015,0.963785546884559,0.963587048867309,0,1.05026163961683,0.955086155519876,0.950848654369023,0.94845804781345,0.948535720950635,0.949027650819471,0.948932716985134,1.0433832518017,0.939258096231355,0,0.939611940522974,0.939456594248605,0.94520440640027,0.945998398469269,0.945264818840303,0.946947736812637,0.947284320407104,0.948423526419146,0.947871184110277,0,0.94817324631044,0.946076071606454,0.94845804781345,0.948389005024842,0.949830273237046,0.950348094151611,0.951219759357794,0.938248345447954,0.938239715099378,0,0.968411413721335,0.95857281634461,0.921048060735837,0.922791391148204,0.922610153828107,0.977171217526051,0.914040217692065,0.969265818230366,0.90336447650346,0,0.928185359008251,0.916698365053496,0.929540323734695,0.929851016283434,0.91974487810085,0.898669566878076,0.899739730101509,0.909017354820789,0.916301369018996,0,0.933380828851048,0.935918151332414,0.93010129639214,0.959409960156489,0.965589289736958,0.982988072466325,0.982979442117749,0.944600281999945,0.948164615961864,0,0.948061051778951,0.930714051141041,0.933967692554221,0.942882842633306,0.944186025268294,0.956544684429232,0.938075738476433,1.00792977985118,1.0100528456009,0,0.95536232667431,0.957183330223862,0.980692399745089,0.940164282831843,0.924785001669278,0.946930476115485,0.927589864956502,0.927546713213622,0.926951219161872,0,0.933449871639657,0.937057357344456,0.935512524949338,0.924810892715006,0.923464558337138,0.911908521593774,0.912227844491089,0.920279959712567,0.921781640364804,0,0.888589319741221,0.890798688976696,0.879622387570679,0.905202740750164,0.858421073258694,0.854735051381853,0.894630563744473,0.895070711521853,0.878655788530159,0,0.850372410176647,0.851437395190935,0.858106065535667,0.863837480025039,0.88111543787434,0.874659937139436,0.869516249388096,0.87882839550168,0.866892623420969,0,0.855528180415994,0.861555615861524,0.861501244665495,0.909699152358299,0.900292072410378,0.875652427225685,0.87484980480811,0.873762380887524,0.890850471068152,0,0.891463225817054,0.876783002889151,0.87051736982292,0.869973657862628,0.960393819894162,0.958098147172926,0.960160800482608,0.92042667563836,0.920745998535675,0,0.92504391212656,0.925984620121352,0.921669445833315,0.92203192047351,0.943452445639327,0.944600281999945,0.949062172213776,0.932112167610365,0.932396969113376,0,0.932345187021919,0.93315643978807,0.93388138906846,0.934882509503285,0.935296766234937,0.935357178674969,0.93287163828506,0.93267314026781,0.929592105826151,0,0.929367716763173,0.929315934671717,1.05892650958721,0.939214944488475,0.939542897734365,0.943409293896447,1.01337552980268,1.01105396603572,1.00698907185639,0,0.926623265915982,0.922782760799628,0.920590652261305,0.92058202191273,0.920478457729816,0.919054450214764,0.920685586095642,0.920452566684088,0.920702846792794,0,1.05752839311788,1.19633891961547,0.926372985807275,0.908775705060659,0.908275144843247,0.908534055300529,0.907636499048617,0.908456382163344,0.903830515326568,0,0.90580686515049,0.908792965757811,0.907092787088325,0.90798171299166,0.908361448329008,0.903027892908994,0.901862795851224,0.902044033171321
0,0,0,0,0,0,0,0,0,0,0,0,0,0,0,0,0,0,0,0,0,0,0,0,0,0,0,0,0,0,0,0,0,0,0,0,0,0,0,0,0,0,0,0,0,0,0,0,0,0,0,0,0,0,0,0,0,0,0,0,0,0,0,0,0,0,0,0,0,0,0,0,0,0,0,0,0,0,0,0,0,0,0,0,0,0,0,0,0,0,0,0,0,0,0,0,0,0,0,0,0,0,0,0,0,0,0,0,0,0,0,0,0,0,0,0,0,0,0,0,0,0,0,0,0,0,0,0,0,0,0,0,0,0,0,0,0,0,0,0,0,0,0,0,0,0,0,0,0,0,0,0,0,0,0,0,0,0,0,0,0,0,0,0,0,0,0,0,0,0,0,0,0,0,0,0,0,0,0,0,0,0,0,0,0,0,0,0,0,0,0,0,0,0,0,0,0,0,0,0,0,0,0,0,0,0,0,0,0,0,0,0,0,0,0,0,0,0,0,0,0,0,0,0,0,0,0
1.04006056759991,1.04312434134441,1.04304666820723,1.04232171892684,1.05332541336133,1.02664900591269,1.02676120044418,1.0167241050502,0,1.01619765378706,1.01716425282758,1.06633134866548,1.05674303139746,0.995527968947362,0.994285198752407,0.99322366587755,0.995441665461601,0.985206072050376,0,0.985603068084876,0.991074709082107,0.991126491173563,0.986863098976983,1.16783287826869,1.10609136455545,0.992075829516932,1.00717030917649,1.00820595100561,0,1.00749826242238,0.962007695077888,0.961645220437692,0.962232084140866,0.97451307016462,0.972631654175035,0.9699389854193,0.967453445029391,0.962119889609377,0,0.954999852034115,0.954689159485376,0.955034373428419,0.947629534350147,0.947828032367397,0.947500079121506,0.956415229200591,1.2378077445235,1.12697680810955,0,0.938567668345269,0.937566547910444,0.937540656864716,0.942822430193274,0.943918484462435,0.945437425811824,0.947793510973093,0.948207767704744,0.94744829703005,0,0.947551861212963,0.947793510973093,0.947767619927364,0.94604155021215,0.94652484973241,0.962758535404006,0.962542776689604,0.962663601569669,0.938377800676595,0,0.940423193289125,0.936703513052837,0.941760897318417,0.923852924023062,0.917337010848125,0.917570030259679,0.914066108737793,0.932888898982212,0.927123826133394,0,0.939007816122649,0.938429582768052,0.925112954915169,0.938386431025171,0.918985407426156,0.907774584625835,0.907161829876933,0.908870638894996,0.928418378419805,0,0.910424101638689,0.90420162031534,0.919563640780752,0.940613060957799,0.978992221075603,0.977671777743463,0.954956700291235,0.940380041546245,0.921341492587424,0,0.940008936557473,0.94102731768945,0.977654517046311,0.928444269465533,0.92922100083738,0.954913548548354,0.959875998979597,0.96094616220303,0.951073043432001,0,0.951297432494979,0.93962057087155,0.939983045511745,0.925717079315494,0.900490570427628,0.900775371930638,0.908611728437714,0.908344187631856,0.917086730739419,0,0.941726375924112,0.903355846154884,0.930317055106542,0.903485301383525,0.927270542059187,0.912029346473839,0.911606459393612,0.945679075571954,0.929324565020293,0,0.916353151110453,0.875755991408598,0.875125975962544,0.862429870172281,0.854787696508167,0.853135847790706,0.853220425206752,0.881546955303144,0.860864324940581,0,0.837481258508564,0.87324455997296,0.874116225179143,0.862993431934298,0.884420861378977,0.917509617819647,0.906764833842434,0.868083611524467,0.856095194317442,0,0.86328513771617,0.883600978264249,0.882409990160751,0.915550528692878,0.880770223931297,0.882936441423892,0.883074527001109,0.895113863264733,0.90235472572006,0,0.902984741166113,0.914696124183846,0.885154441007943,0.962793056798311,0.961791936363486,0.96022121292264,0.962724014009702,0.925354604675299,0.922903585679693,0,0.922696457313868,0.924284441451865,0.921168885615902,0.923421406594258,0.944134243176837,0.944375892936967,0.947698577138756,0.948751479665037,0.934675381137459,0,0.935831847846653,1.04957121173074,1.02425839935711,0.937877240459183,0.936271995624033,0.935909520983838,0.934968812989046,0.932500533296288,0.932940681073668,0,0.927546713213622,0.929341825717445,0.928703179922816,0.939094119608409,0.938429582768052,1.02917769804548,0.948354483630537,0.947707207487332,1.00862883808584,0,1.0058671265415,0.92231672197652,0.921816161759108,0.92018502587823,0.918700605923145,1.09205841777076,0.914955034641129,0.915783548104432,0.91717303422518,0,0.917026318299387,0.916309999367572,0.914618451046662,1.28199512923301,0.906661269659521,0.90701511395114,0.923430036942834,0.918950886031851,0.909561066781082,0,0.908732553317779,0.908525424951953,0.907066896042596,0.906350577110782,0.905297674584501,0.903813254629416,0.903666538703623,0.902863916286048
1.04270145426419,1.04327968761878,1.0667197143514,1.19548451510643,1.18099415984721,1.02536308397485,1.02563062478071,1.04994231671951,0,1.03720392222123,1.01032901675533,1.01844154441684,1.07620446743651,0.997616513302772,0.994742607226939,0.99194637428829,0.992049938471203,0.989391791109772,0,0.988839448800904,0.989340009018316,0.993145992740365,0.984317146147041,0.980701030093665,0.980209100224829,1.11037201744919,1.0849729015898,0.999497929292356,0,0.997115953085359,1.18765678894794,0.973304821363969,0.965200924051035,0.966754386794729,0.970413654590984,0.967505227120847,0.962844838889767,0.96246510355242,0,0.95516382865706,0.954283533102301,0.954179968919388,0.947500079121506,0.947189386572767,0.947310211452832,0.946404024852345,0.946360873109464,1.01363444025997,0,0.954792723668289,0.93724722501313,0.936177061789696,0.937109139435912,0.94496275664014,0.944203285965446,0.945083581520205,0.946145114395062,0.945618663131922,0,0.947862553761701,0.948207767704744,0.944539869559913,0.940069348997506,0.939033707168377,0.939957154466017,0.962862099586919,0.959349547716456,0.941294858495309,0,0.941648702786927,0.941148142569515,0.935417591115001,0.939655092265854,0.953316934061781,0.914342279892227,0.914463104772292,0.934476883120209,0.939508376340061,0,0.935754174709469,0.921194776661631,0.942951885421915,0.93427838510296,0.939983045511745,0.906488662687999,0.912590319131284,0.913108140045849,0.908853378197844,0,0.896235808579623,0.89665869565985,0.894000548298419,0.913453353988892,0.980114166390492,0.969516098339073,0.929816494889129,0.924413896680507,0.925302822583842,0,0.936418711549826,0.9366085792185,0.982012843077229,0.982798204797652,0.925440908161059,0.949735339402709,0.956829485932243,0.938464104162356,0.927399997287828,0,0.929514432688967,0.917716746185473,0.935693762269436,0.912719774359925,0.89938588580989,0.891221576056923,0.892999427863595,0.895096602567581,0.896744999145611,0,0.901931838639832,0.903131457091906,0.896641434962698,0.899472189295651,0.934252494057232,0.933803715931276,0.90351982277783,0.92572570966407,0.924206768314681,0,0.881745453320393,0.866953035861002,0.855462589766816,0.854401056891959,0.865278748237243,0.845091499882947,0.846516370432857,0.983462741638009,0.841393395518099,0,0.843446555444347,0.855061278558028,0.857994734039036,0.850470796150414,0.862398800917407,0.86440708303106,0.918476216860167,0.88505087682503,0.898937107683934,0,0.873123735092895,0.870897105160268,0.888218214752449,0.914911882898248,0.90512506761298,0.887847109763678,0.914333649543651,0.91284059923999,0.913315268411674,0,0.947370623892865,0.954999852034115,0.969153623698877,0.90705826569402,0.969835421236387,0.962646340872517,0.963725134444526,0.991091969779259,0.914765166972455,0,0.91424734605789,1.24285649844051,0.922687826965292,0.924543351909148,0.972044790471862,0.942019807775699,0.940380041546245,0.947232538315648,0.93893877333404,0,0.939033707168377,0.938714384271062,0.93937892111142,0.940336889803364,0.939560158431517,0.938067108127857,0.936185692138272,0.932215731793278,0.932371078067647,0,0.928219880402555,0.927684798790839,0.929730191403368,0.93704872699588,0.93777367627627,0.9384123220709,0.947828032367397,1.01706931899324,1.0369967938554,0,1.0050731344725,0.997668295394228,0.998591742691868,0.918251827797189,0.917440575031038,0.915731766012975,0.913401571897435,0.913936653509152,0.913073618651544,0,0.914514886863749,0.913582809217533,0.912737035057077,0.911787696713709,1.28171895807857,1.28101989984391,0.912616210177012,0.912417712159763,0.911882630548046,0,0.911295766844873,0.907386218939911,0.905979472122011,0.90585001689337,0.902872546634624,0.904123947178155,0.903373106852037,0.90239787746294
1.04668004495776,1.04596372602594,1.06662478051706,1.20597901897494,1.02893604828535,1.02283439184206,1.02351618937957,1.0350118136829,0,1.03477016392277,1.01655149807868,1.0435990105161,1.00118084726469,1.00087878506453,0.993076949951756,0.992231175791301,0.991126491173563,0.989633440869903,0,0.98884807914948,0.988615059737926,0.986146780045168,0.985119768564615,0.981728041574218,0.977430127983333,0.974608003998957,1.10543545806367,1.15869333912663,0,0.99254186834004,0.976877785674464,0.980157318133373,0.966564519126055,0.965045577776666,0.965891351937121,0.96182645775779,0.962560037386756,0.959384069110761,0,0.957761563578459,0.953662148004824,0.954093665433627,0.948389005024842,0.947853923413125,0.947638164698723,0.947715837835908,0.945877573589204,0.852814798823676,0,0.946024289514997,0.876549983477596,0.939163162397018,0.936539536429891,0.951375105632164,0.943081340650556,0.945420165114672,0.946058810909302,0.946775129841116,0,0.948069682127527,0.948242289099049,0.941277597798156,0.94287421228473,0.94234776102159,0.941294858495309,0.941898982895634,0.957960061595709,0.955388217720038,0,0.939706874357311,0.942218305792949,0.934217972662927,0.947103083087007,0.945851682543476,0.945584141737618,0.933820976628428,0.934856618457557,0.948190507007592,0,0.944505348165608,0.958987073076262,0.938041217082128,0.950382615545915,0.947793510973093,0.927417257984981,0.959297765625,0.912607579828436,0.912926902725751,0,0.939534267385789,0.891359661634141,0.897547621563186,0.938507255905236,0.933173700485222,0.932172580050397,0.916068349607442,0.917820310368385,0.923102083696943,0,0.933415350245352,0.931007482992627,0.934166190571471,0.935849108543805,0.950348094151611,0.948924086636558,0.919158014397677,0.912124280308176,0.915818069498736,0,0.920012418906708,0.916940014813626,0.914868731155368,0.919339251717775,0.890565669565142,0.901310453542355,0.899549862432836,0.924370744937626,0.888917272987111,0,0.911382070330634,0.914307758497923,0.907204981619814,0.902302943628603,0.877982621341225,0.904866157155697,0.896960757860013,0.892265848234629,0.854821354867613,0,0.85527703727243,0.870500109125768,0.870629564354409,0.871501229560593,0.871967268383701,0.93893877333404,0.928159467962523,0.847717714954646,0.851514205293262,0,0.850974808507257,0.881935320989067,0.872925237075645,0.855867353115034,0.855348669165612,0.849919316876403,0.882168340400621,0.888321778935362,0.861912912292574,0,0.868575541393304,0.879052784564658,0.899860554981574,0.890859101416728,0.903476671034949,0.931835996455931,0.931922299941692,0.925751600709798,0.950693308094654,0,0.955094785868452,0.95050344042598,0.985482243204811,0.914368170937956,0.917664964094016,0.915455594858541,0.912374560416882,0.912158801702481,0.910769315581732,0,0.910389580244385,0.911399331027786,0.973486058684067,0.978465769812462,0.972044790471862,0.940613060957799,0.941389792329645,0.942416803810198,0.938671232528182,0,0.939439333551452,0.940915123157961,0.941691854529808,0.940673473397831,0.940267847014756,0.939560158431517,0.939594679825822,0.932457381553408,0.931887778547387,0,0.93243149050768,0.926864915676112,0.92785740576236,0.935512524949338,0.935693762269436,0.936082127955359,0.957114287435253,1.24010341724474,1.00522848074687,0,1.04294310402432,1.0438492906248,1.09992066532356,0.916810559584985,0.916663843659192,0.913263486320218,0.913064988302968,0.911779066365133,0.912460863902643,0,0.911761805667981,0.912098389262448,0.910406840941537,0.910122039438527,0.91143385242209,0.913531027126076,0.913582809217533,0.911666871833644,0.91167550218222,0,0.911477004164971,0.912693883314197,0.903537083474982,0.904615877046991,0.903398997897765,0.903217760577667,0.903140087440483,0.90167292818255
1.04555809964287,1.04586879219161,1.04088908106321,1.03381219523083,1.05413666612748,1.0249833486375,1.04325379657305,1.03496003159145,0,1.0321637986528,1.04292584332716,1.05956515538184,1.00118084726469,1.0337517827908,0.993111471346061,0.989719744355663,0.989106989606762,0.988727254269415,0,0.988899861240936,0.988666841829382,0.986431581548179,0.984921270547366,0.983514523729465,0.985042095427431,1.07324425787491,0.97081928097406,0.967375771892206,0,0.965899982285697,0.971035039688462,0.971906704894645,0.968747997315802,0.968152503264053,0.960272995014097,0.961705632877725,0.962223453792289,0.959910520373901,0,0.956130427697581,0.954818614714017,0.955327805280006,0.953739821142008,0.759833149334763,0.774445192508915,0.946921845766909,0.946697456703931,0.837986996935122,0,0.837704784536685,1.00191442689366,0.938248345447954,0.937031466298728,0.936306517018337,0.9394220728543,0.936315147366913,0.947146234829887,0.942891472981882,0,0.945282079537455,0.941104990826635,0.940164282831843,0.941700484878384,0.944997278034445,0.941329379889613,0.941277597798156,0.942313239627285,0.955146567959908,0,0.940216064923299,0.942762017753241,0.943676834702305,0.947508709470082,0.947586382607267,0.945912094983508,0.946404024852345,0.938429582768052,0.93845547381378,0,0.943184904833469,0.943504227730784,0.943927114811011,0.94568770592053,0.949062172213776,0.944220546662598,0.944410414331271,0.956855376977971,0.904356966589709,0,0.91227099623397,0.938774796711095,0.897133364831534,0.895804291150819,0.942468585901654,0.908490903557649,0.909914911072701,0.898566002695163,0.904374227286861,0,0.914635711743814,0.914834209761064,0.915490116252845,0.939853590283104,0.922247679187912,0.916016567515986,0.906782094539586,0.921255189101663,0.925078433520864,0,0.932457381553408,0.930645008352432,0.902967480468961,0.906195230836413,0.884403600681824,0.882366838417871,0.88485237880778,0.887527786866363,0.938136150916465,0,0.869542140433824,0.870353393199975,0.903200499880515,0.896762259842763,0.951004000643392,0.885879390288333,0.886069257957007,0.911761805667981,0.876644917311933,0,0.856812376284114,0.849062323262799,0.848976882811896,0.863941044207951,0.864873121854167,0.934459622423057,0.854426084902829,0.8653305303287,0.853593256265238,0,0.864268997453842,0.860578660402713,0.896908975768557,0.892516128343335,0.879095936307539,0.879130457701843,0.852117466658729,0.868100872221619,0.855142403834643,0,0.872925237075645,0.861904281943998,0.895726618013634,0.891635832788575,0.924862674806462,0.933337677108168,0.922411655810857,0.927037522647633,0.981201590311078,0,0.980761442533698,0.967884962458194,0.992766257403018,0.971526969557298,0.923904706114518,0.912081128565296,0.911442482770666,0.911416591724938,0.911813587759437,0,0.911597829045036,0.911960303685231,0.913401571897435,1.00113769552181,0.971388883980081,0.94014702213469,0.937385310590347,0.943392033199295,0.941993916729971,0,0.941381161981069,0.943020928210524,0.943918484462435,0.94131211919246,0.941338010238189,0.939473854945757,0.938671232528182,0.936936532464391,0.931076525781236,0,0.932224362141854,0.926536962430221,0.926942588813296,0.9352018324006,0.935572937389371,0.935805956800925,0.936090758303935,1.24028465456484,0.954654638091072,0,0.98423084266128,0.98607773725656,0.986552406428244,0.985568546690571,0.91284059923999,0.912547167388404,0.910691642444548,0.911934412639502,0.911485634513547,0,0.911848109153742,0.910717533490276,0.911269875799145,0.904262032755372,0.909474763295321,0.912788817148534,0.913306638063098,0.912745665405654,0.912236474839665,0,0.912728404708501,0.909164070746583,0.905686040270425,0.904978351687186,0.903899558115177,0.904192989966764,0.903235021274819,0.900412897290443
0,0,0,0,0,0,0,0,0,0,0,0,0,0,0,0,0,0,0,0,0,0,0,0,0,0,0,0,0,0,0,0,0,0,0,0,0,0,0,0,0,0,0,0,0,0,0,0,0,0,0,0,0,0,0,0,0,0,0,0,0,0,0,0,0,0,0,0,0,0,0,0,0,0,0,0,0,0,0,0,0,0,0,0,0,0,0,0,0,0,0,0,0,0,0,0,0,0,0,0,0,0,0,0,0,0,0,0,0,0,0,0,0,0,0,0,0,0,0,0,0,0,0,0,0,0,0,0,0,0,0,0,0,0,0,0,0,0,0,0,0,0,0,0,0,0,0,0,0,0,0,0,0,0,0,0,0,0,0,0,0,0,0,0,0,0,0,0,0,0,0,0,0,0,0,0,0,0,0,0,0,0,0,0,0,0,0,0,0,0,0,0,0,0,0,0,0,0,0,0,0,0,0,0,0,0,0,0,0,0,0,0,0,0,0,0,0,0,0,0,0,0,0,0,0,0,0
1.04926914953058,1.04870817687313,1.04214911195532,1.05090028541146,1.05035657345116,1.02676120044418,1.02542349641488,1.08806256638003,0,1.02664037556411,1.02202313907591,1.017155622479,1.02197135698445,1.04012098003994,1.01843291406826,0.989253705532555,0.988520125903589,0.987009814902776,0,0.986819947234102,0.98607773725656,0.986129519348016,0.985939651679342,0.985231963096105,0.982962181420597,0.979121676304244,1.01617176274133,0.965943134028578,0,0.965839569845665,0.965287227536796,0.964993795685209,1.06144657137142,0.965175033005307,0.964993795685209,0.965408052416861,0.965908612634273,0.96162795974054,0,0.954136817176508,0.95439572763379,0.955388217720038,0.756883296191461,0.762368745746414,0.947103083087007,0.947172125875615,0.947120343784159,0.947318841801409,0,0.948820522453646,0.986172671090897,0.999851773583975,0.937186812573097,0.937825458367726,0.93845547381378,0.938360539979443,0.938861100196856,0.944272328754054,0,0.944004787948196,0.944332741194087,0.944332741194087,0.945765379057715,0.945963877074965,0.944177394919717,0.940017566906049,0.940293738060484,0.941441574421102,0,0.943849441673826,0.941458835118254,0.941493356512558,0.942140632655764,0.92941949885463,0.946637044263899,0.943547379473664,0.94283106054185,0.93753202651614,0,0.935918151332414,0.938904251939736,0.944807410365771,0.941873091849906,0.941501986861134,0.990410172241749,0.931810105410202,0.975056782124912,0.899118345004032,0,0.899282321626977,0.920435305986936,0.923248799622736,0.923688947400116,0.929531693386119,0.931292284495638,0.908085277174573,0.897392275288817,0.922653305570987,0,0.902967480468961,0.908680771226323,0.905245892493045,0.944591651651369,0.910959183250406,0.896744999145611,0.898099963872055,0.89681404193422,0.908145689614606,0,0.908594467740562,0.927486300773589,0.903338585457732,0.903588865566438,0.871086972828941,0.873805532630405,0.929963210814923,0.873071953001439,0.863975565602256,0,0.895036190127548,0.90950065434105,0.881201741360101,0.884110168830238,0.868506498604695,0.868092241873043,0.861320870380255,0.913910762463424,0.898125854917783,0,0.85908992527334,0.858338221912364,0.862248632852183,0.857867867914968,0.86473503627695,0.898194897706392,0.890695124793783,0.883091787698261,0.884955942990693,0,0.888313148586786,0.846637195312922,0.841027468738473,0.892412564160422,0.886811467934549,0.871501229560593,0.864916273597048,0.86464873279119,0.867151533878251,0,0.864389822333907,0.867548529912751,0.869412685205183,0.921997399079206,0.922549741388074,0.914230085360738,0.917423314333886,1.03288874793319,0.978716049921168,0,0.995545229644514,0.955621237131592,0.98475729392442,0.922040550822086,0.922066441867814,0.912616210177012,0.91158919869646,0.911891260896622,0.912365930068306,0,0.913600069914685,0.914618451046662,0.913427462943163,0.91416104257213,1.08429110405229,1.18430821370042,0.937428462333227,0.938265606145106,0.943107231696284,0,0.942477216250231,0.941795418712721,0.942753387404665,0.939939893768865,0.940923753506537,0.941243076403852,0.939094119608409,0.937057357344456,0.934174820920047,0,0.931922299941692,0.932371078067647,0.926321203715819,0.927227390316307,0.935538415995067,0.934416470680177,0.935400330417849,1.03734200779844,1.21958907867941,0,1.03939603075955,1.03671199235239,0.985473612856234,0.965934503680001,1.0626807112178,0.978923178286994,0.909000094123637,0.909673261312571,0.909949432467005,0,0.912296887279698,0.911744544970829,0.911986194730959,0.905875907939098,0.911321657890601,0.911615089742188,0.911287136496297,0.911382070330634,0.912012085776687,0,0.912806077845686,0.913367050503131,0.913919392812,0.902208009794266,0.902510071994429,0.902492811297277,0.902699939663103,0.901042912736496
1.04948490824498,1.05178058096622,1.0464470255462,1.04567892452293,1.0338208255794,1.02632968301537,1.02622611883246,1.08526633344139,0,1.20140493422962,1.00837855797714,1.01893347428568,1.01213275960773,1.02030569970927,1.03128350309804,0.984878118804486,0.98583608749643,0.98612088899944,0,0.9851974417018,0.985473612856234,0.984947161593094,0.985257854141833,0.985896499936462,0.99210172056266,0.992265697185605,0.974616634347533,0.977999730989354,0,0.968514977904248,0.966754386794729,0.961256854751769,0.960609578608563,0.961049726385943,0.963595679215885,0.964009935947537,0.965951764377154,0.963319508061451,0,0.955232871445669,0.954956700291235,0.954568334605311,0.73882601786574,0.736561414399378,0.948035160733223,0.945851682543476,0.945946616377813,0.947551861212963,0,0.947819402018821,0.948121464218984,1.082953400023,1.09049632467849,0.939025076819801,0.939145901699866,0.9380153260364,0.939232205185627,0.941760897318417,0,0.941855831152753,0.944160134222565,0.943789029233794,0.945333861628911,0.945187145703118,0.941683224181232,0.941363901283917,0.939318508671387,0.940449084334853,0,0.943417924245023,0.944151503873989,0.942641192873176,0.928116316219643,0.938515886253813,0.941579659998319,0.941691854529808,0.941208555009548,0.939085489259833,0,0.938619450436725,0.939094119608409,0.941778158015569,0.942667083918904,0.941622811741199,1.00500409168389,0.921514099558945,0.920556130867001,0.925181997703777,0,0.919598162175057,0.917742637231201,0.911710023576525,0.919218426837709,0.917863462111266,0.924077313086039,0.901379496330963,0.903839145675144,0.92985964663201,0,0.899756990798661,0.908551315997681,0.890746906885239,0.894613303047321,0.897167886225839,0.897245559363023,0.891670354182879,0.896348003111112,0.892809560194921,0,0.912176062399633,0.913513766428924,0.892490237297606,0.882133819006317,0.873615664961731,0.922204527445031,0.94720664726992,0.857832483485806,0.859431687076952,0,0.862832907450784,0.873805532630405,0.875945859077271,0.885922542031214,0.860653744435325,0.875764621757174,0.876403267551803,0.835850122627686,0.835178681508468,0,0.846823610842165,0.847609835597445,0.861629836859279,0.863002062282875,0.885128549962215,0.864640102442613,0.947940226898886,0.86401008699656,0.853557008801219,0,0.85521576179754,0.857773797115489,0.881529694605992,0.876204769534554,0.883583717567098,0.905427129813142,0.906540444779456,0.878612636787278,0.884507164864737,0,0.85893112685954,0.875082824219664,0.920021049255284,0.897090213088654,0.920374893546904,0.915188054052683,0.920349002501175,0.922541111039498,1.0874239205854,0,1.03514126891154,0.948285440841929,0.94913984535096,0.989702483658511,0.923352363805649,0.91183084845659,0.911304397193449,0.914178303269282,0.914342279892227,0,0.914704754532423,0.915119011264074,0.914532147560901,0.914394061983684,0.914437213726564,1.17471126608382,0.962206193095137,1.03199982202985,0.941795418712721,0,0.941959395335666,0.940595800260646,0.939939893768865,1.19327514587096,0.936910641418662,0.938584929042421,0.93845547381378,0.936712143401413,0.935296766234937,0,0.931637498438681,0.932612727827777,0.926329834064395,0.926442028595884,0.934028104994254,0.933829606977004,0.933208221879526,0.940017566906049,1.03834312823327,0,0.977559583211974,1.00155195225346,1.04602413846597,1.04795733654701,0.998496808857531,0.959608458173739,0.907852257763019,0.908162950311758,0.908516794603377,0,0.910009844907038,0.910941922553254,0.911088638479047,0.910372319547233,0.911511525559275,0.913013206211512,0.912331408674002,0.912348669371154,0.912616210177012,0,0.911839478805166,0.912831968891414,0.912642101222741,0.944350001891239,0.900119465438856,0.900378375896139,0.90195772968556,0.902492811297277
1.05135769388599,1.05212579490926,1.04061290990878,1.03892136158786,1.02921221943978,1.02644187754686,1.02456046155728,1.02073721713808,0,1.18314311664265,1.00973352270358,1.01000969385801,1.03521031170015,1.04637798275759,0.991385401630846,0.988960273680969,0.988917121938088,0.987821067668927,0,0.985162920307496,0.985447721810506,0.983946041158269,0.983997823249726,0.983419589895129,0.990151261784467,0.978629746435407,1.08209036516539,1.07304575985766,0,0.968713475921497,0.968471826161367,0.965183663353883,0.958598707390338,0.958952551681957,0.960713142791476,0.959375438762185,0.959185571093511,0.968955125681628,0,0.954809984365441,0.954809984365441,0.745146022127999,0.952583354432814,0.952315813626956,0.947948857247462,0.947551861212963,0.945014538731597,0.943909854113859,0,0.94636950345804,0.948552981647787,0.979967450464699,1.06095464150258,0.938049847430704,0.938153411613617,0.938550407648117,0.93990537237456,0.941579659998319,0,0.943279838667806,0.944229177011174,0.944867822805803,0.9305845959124,0.929359086414597,0.942848321239002,0.943150383439164,0.939983045511745,0.939646461917278,0,0.939655092265854,0.949122584653808,0.942132002307188,0.940276477363332,0.939991675860321,0.94054401816919,0.941821309758449,0.94239091276447,0.940889232112233,0,0.938999185774073,0.939724135054463,0.934666750788883,0.935253614492056,0.939059598214105,0.93893877333404,0.914385431635108,0.921885204547717,0.965615180782687,0,0.929609366523303,0.931361327284247,0.920927235855772,0.91167550218222,0.912417712159763,0.910052996649918,0.90974230410118,0.915421073464237,0.912642101222741,0,0.981132547522469,0.904426009378318,0.888692883924134,0.88645762364293,0.903925449160905,0.900896196810703,0.90118962866229,0.923844293674486,0.930032253603531,0,0.871647945486386,0.875859555591511,0.882289165280686,0.892179544748868,0.882047515520556,0.864519277562548,0.86489038255132,0.864424343728212,0.860143690834479,0,0.904961090990034,0.870198046925606,0.870103113091269,0.915481485904269,0.933208221879526,0.853473294420031,0.853911716127695,0.874090334133415,0.897305971803056,0,0.863250616321866,0.85433546624278,0.855225255180974,0.860595921099865,0.868238957798837,0.862441952660287,0.868316630936021,0.860973930367497,0.863975565602256,0,0.861685071090166,0.854532238190315,0.854484771273146,0.850740063025988,0.899515341038531,0.889935654119088,0.890626082005174,0.864631472094037,0.88782121871795,0,0.90974230410118,0.895087972219005,0.893741637841137,1.02879796270813,0.915878481938769,0.915507376949998,0.917742637231201,0.923058931954063,0.924301702149018,0,0.936211583184001,0.939482485294333,0.940233325620451,1.25802865123725,0.929290043625989,0.912029346473839,0.911856739502318,0.912521276342676,0.914609820698086,0,0.998289680491705,1.17226887743679,0.911986194730959,0.912866490285719,0.913824458977663,1.15461118425015,1.16041077849327,0.995536599295938,0.941407053026798,0,0.94131211919246,0.941674593832656,0.93821382405365,0.935607458783675,0.936073497606783,0.938723014619638,0.93874027531679,0.936315147366913,0.934701272183188,0,0.932284774581887,0.929583475477575,0.929652518266184,0.926433398247308,0.932837116890755,0.93335493780532,0.93403673534283,0.934640859743155,1.03850710485621,0,1.03141295832668,1.0377907859244,1.04775883852977,0.972295070580569,0.981425979374056,0.97319262683248,1.00420146926632,0.906954701511108,0.907593347305737,0,0.908240623448943,0.908810226454964,0.911442482770666,0.910052996649918,0.91163235043934,0.911571937999307,0.9121156499596,0.91275429575423,0.912046607170991,0,0.911140420570504,0.910475883730146,0.913565548520381,0.909992584209886,0.901819644108343,0.901465799816724,0.903096935697602,0.903450779989221
1.0494762778964,1.04678360914067,1.06180904601161,1.03565908982611,1.02928989257697,1.02915180699975,1.02279987044776,1.01668095330732,0,1.01638752145573,1.0119256312419,1.00704948429642,1.01422993431172,1.04057838851447,0.992835300191626,0.988727254269415,0.988709993572263,0.989020686121001,0,0.987493114423036,0.984705511832964,0.983177940134999,0.982513403294641,0.981710780877066,1.03435590719112,1.0022251194424,0.974098813432968,0.987458593028732,0,0.985758414359245,0.968402783372759,0.966435063897414,0.95740771928684,0.959366808413609,0.959228722836391,0.959107897956327,0.959047485516294,0.959194201442087,0,0.959064746213446,0.757894773044577,0.953506801730454,0.952212249444043,0.951133455872033,0.949053541865199,0.948345853281962,0.948466678162026,0.946334982063736,0,0.944772888971467,0.964708994182199,0.962560037386756,0.963250465272842,1.07551403955042,0.935978563772446,0.938067108127857,0.938817948453975,0.943202165530621,0,0.944462196422728,0.946024289514997,0.945480577554705,0.946240048229399,0.94837174432769,0.950624265306045,0.944997278034445,0.944125612828261,0.945670445223378,0,0.950529331471708,0.944272328754054,0.941933504289938,0.940889232112233,0.940578539563494,0.940604430609222,0.941260337101004,0.940638952003527,0.940181543528995,0,0.939197683791322,0.936936532464391,0.935650610526556,0.935961303075294,0.937506135470412,0.939396181808572,0.938110259870737,0.921194776661631,0.921721227924771,0,0.922834542891085,0.932776704450723,0.96945568589904,0.927072044041938,0.9337950855827,0.938602189739573,0.947500079121506,0.952695548964303,0.968946495333052,0,0.98102035299098,0.904227511361068,0.908585837391986,0.900602764959117,0.91396254455488,0.890764167582392,0.909008724472213,0.911649611136492,0.878819765153104,0,0.902587745131614,0.902665418268798,0.902277052582875,0.909328047369528,0.910130669787103,0.8653305303287,0.868722257319097,0.867272358758316,0.895951007076612,0,0.879320325370516,0.909319417020952,0.872795781847004,0.873598404264579,0.887855740112254,0.880304185108189,0.933907280114188,0.922256309536488,0.890695124793783,0,0.927529452516469,0.929989101860651,0.919158014397677,0.918726496968873,0.885741304711116,0.899938228118759,0.900153986833161,0.852637876677867,0.866875362723817,0,0.863164312836105,0.847756551523239,0.849017445450203,0.899808772890118,0.90219937944569,0.902475550600125,0.903778733235112,0.905979472122011,0.899886446027302,0,0.934640859743155,0.90360612626359,0.906013993516315,0.90769691148865,0.91119220266196,0.916240956578964,0.91946007659784,0.923732099142996,0.924854044457886,0,1.05770963043798,0.941691854529808,0.941277597798156,0.929488541643238,0.92941949885463,0.910786576278885,0.91167550218222,0.913608700263261,0.914514886863749,0,0.92616585744145,0.926735460447471,0.932768074102147,1.1207543267862,0.913151291788729,0.914540777909477,0.936133910046816,1.16013460733883,0.943046819256252,0,0.941174033615243,0.941251706752428,0.941217185358124,0.935995824469599,0.936090758303935,0.938792057408247,0.938886991242584,0.934528665211666,0.934416470680177,0,0.933026984559429,0.932241622839006,0.929669778963336,0.924457048423387,0.924034161343159,0.933147809439494,0.933501653731113,0.934632229394579,0.935296766234937,0,1.13780789557253,1.00301048116282,1.03965494121683,1.04582564044872,1.04851830920446,1.1635004432835,0.983566305820922,0.968635802784313,0.903002001863265,0,0.903459410337797,0.908016234385965,0.908119798568878,0.910570817564483,0.91095055290183,0.911399331027786,0.911666871833644,0.912944163422903,0.911019595690439,0,0.904719441229904,0.90862035878629,0.910372319547233,0.910009844907038,0.910415471290113,0.901897317245528,0.911701393227949,0.911520155907851
0,0,0,0,0,0,0,0,0,0,0,0,0,0,0,0,0,0,0,0,0,0,0,0,0,0,0,0,0,0,0,0,0,0,0,0,0,0,0,0,0,0,0,0,0,0,0,0,0,0,0,0,0,0,0,0,0,0,0,0,0,0,0,0,0,0,0,0,0,0,0,0,0,0,0,0,0,0,0,0,0,0,0,0,0,0,0,0,0,0,0,0,0,0,0,0,0,0,0,0,0,0,0,0,0,0,0,0,0,0,0,0,0,0,0,0,0,0,0,0,0,0,0,0,0,0,0,0,0,0,0,0,0,0,0,0,0,0,0,0,0,0,0,0,0,0,0,0,0,0,0,0,0,0,0,0,0,0,0,0,0,0,0,0,0,0,0,0,0,0,0,0,0,0,0,0,0,0,0,0,0,0,0,0,0,0,0,0,0,0,0,0,0,0,0,0,0,0,0,0,0,0,0,0,0,0,0,0,0,0,0,0,0,0,0,0,0,0,0,0,0,0,0,0,0,0,0
1.04710293203798,1.04712882308371,1.06149835346288,1.04012961038852,1.02914317665117,1.02881522340528,1.01964979321749,1.01865730313124,0,1.01220180239634,1.01209823821342,1.01016504013238,1.00299322046567,1.02259274208193,0.992947494723115,0.989460833898381,0.98952987668699,0.990004545858674,0,1.00199210003084,1.02083215097241,1.01312524969398,0.980131427087644,0.980036493253307,0.979259761881461,0.977594104606278,0.975168976656401,0.975005000033456,0,0.976152836394074,1.06150698381145,0.9671254917835,0.966659452960392,0.962301126929474,0.961904130894975,0.960739033837205,0.960083127345423,0.959202831790663,0,0.958305275538752,0.746430217996119,0.953265151970324,0.951642646438022,0.949355604065362,0.94837174432769,0.948121464218984,0.948207767704744,0.94933834336821,0,0.984084126735487,0.953178848484563,0.953291043016052,0.959573936779435,1.0681264611693,1.06796248454636,0.94170911522696,0.942537628690263,0.942822430193274,0,0.945143993960238,0.947163495527039,0.947215277618496,0.947482818424354,0.949554102082612,0.949968358814263,0.949277930928177,0.94744829703005,0.94768994679018,0,0.949769860797014,0.945627293480498,0.946861433326877,0.948466678162026,0.945014538731597,0.941985286381394,0.941821309758449,0.939318508671387,0.938783427059671,0,0.932949311422244,0.933415350245352,1.10168125643308,0.934407840331601,0.935547046343643,0.932638618873506,0.938817948453975,0.937135030481641,0.939292617625659,0,0.939542897734365,0.940595800260646,0.938326018585139,0.937221333967401,0.936953793161543,0.944151503873989,0.942951885421915,0.948578872693515,0.972838782540861,0,0.895554011042113,0.894777279670266,0.87553160234562,0.895588532436417,0.893871093069778,0.919805290540883,0.901396757028116,0.888347669981091,0.890884992462457,0,0.888278627192482,0.895536750344961,0.93295794177082,0.900033161953096,0.887061748043256,0.899213278838369,0.877585625306726,0.867375922941229,0.867798810021457,0,0.870905735508844,0.867203315969708,0.865960545774753,0.9107089031417,0.8487732065855,0.860293858899702,0.893491357732431,0.890091000393458,0.896555131476938,0,0.925734340012646,0.928789483408576,0.929298673974565,0.883609608612826,0.883040005606805,0.905936320379131,0.893663964703953,0.918407174071558,0.861462408096903,0,0.862156288122419,0.878690309924463,0.991255946402205,0.901586624696789,0.902674048617374,0.903200499880515,0.903899558115177,0.905616997481816,0.908525424951953,0,0.908922420986452,0.908473642860497,0.907239503014118,0.909863128981245,0.912176062399633,0.915144902309802,0.922679196616715,0.921738488621923,0.922627414525259,0,0.932664509919234,0.939801808191647,0.941640072438351,0.941985286381394,0.929436759551782,0.929402238157477,0.91299594551436,0.913194443531609,0.913928023160576,0,1.17423659691214,0.905522063647479,0.905487542253175,0.924534721560572,1.38261636328146,0.911105899176199,0.910156560832831,1.05471489948208,0.975824883148183,0,1.00201799107657,0.940595800260646,0.941217185358124,0.941804049061297,0.937402571287499,0.937040096647304,0.93544348216073,0.935141419960567,0.934882509503285,0,0.933216852228103,0.932578206433473,0.932405599461952,0.928530572951294,0.923050301605487,0.923991009600279,0.945722227314835,0.933829606977004,0.936047606561055,0,0.936798446887174,1.04334010005881,1.04463465234523,1.04428080805361,1.1663139369193,1.16255110494013,1.15607834350808,0.980606096259328,0.903821884977992,0,0.903994491949514,0.90589316863625,0.908577207043409,0.908413230420464,0.907783214974411,0.910570817564483,0.913418832594588,0.914031587343489,1.00738606789089,0,0.905004242732915,0.908732553317779,0.908931051335029,0.908301035888975,0.913341159457403,0.931456261118583,0.910579447913059,0.911382070330634
1.05994489071918,1.05130591179453,1.04077688653172,1.03143021902383,1.02822835970211,1.03426960370536,1.08258229503423,1.01941677380594,0,1.01300442481391,1.0111316391729,1.00685961662775,1.00376995183751,0.998073921777303,0.992188024048421,0.990858950367705,0.989184662743946,0.995458926158753,0,1.00715304847933,1.00740332858804,0.977395606589029,0.977231629966083,0.97913030665282,0.978888656892689,0.976325443365595,0.974288681101642,0.974133334827272,0,0.973684556701316,0.973201257181056,0.972148354654775,0.969852681933539,0.965209554399611,0.962818947844039,0.962724014009702,0.962050846820768,0.96114466022028,0,0.962905251329799,0.763721984403142,0.952583354432814,0.950710568791806,0.949208888139569,0.948345853281962,0.948786001059341,0.948302701539081,0.950184117528665,0,0.951254280752099,0.953118436044531,0.965528877296926,0.966081219605795,0.946421285549497,1.07686900427686,1.09110044907881,1.03052403242334,0.944229177011174,0,0.944186025268294,0.947318841801409,0.948052421430375,0.949510950339732,0.950080553345752,0.949666296614101,0.948967238379439,0.947715837835908,0.947275690058528,0,0.948311331887657,0.948751479665037,0.947318841801409,0.947336102498561,0.945040429777325,0.941829940107025,0.941588290346895,0.937480244424683,0.936194322486848,0,0.930127187437868,0.930653638701008,1.02891015723962,0.927028892299057,0.927253281362035,0.92713245648197,0.932888898982212,0.930696790443889,0.939007816122649,0,0.938783427059671,0.938308757887987,0.93874027531679,0.933130548742342,0.933389459199624,0.929134697351619,0.928867156545761,0.926398876853004,0.926398876853004,0,0.876239290928858,0.876437788946108,0.875177758054001,0.878949220381745,0.914083369434945,0.914652972440966,0.927011631601905,0.895390034419168,0.897530360866034,0,0.896425676248296,0.895994158819493,0.933544805473994,0.92018502587823,0.886276386322833,0.887398331637722,0.905910429333402,0.906367837807934,0.929298673974565,0,0.936832968281478,0.86590013333472,0.864959425339928,0.871725618623571,0.860815994988555,0.895519489647808,0.888580689392645,0.883600978264249,0.903942709858058,0,0.903174608834787,1.01312524969398,1.05810662647248,0.883764954887195,0.89147185616563,0.892490237297606,0.8972541897116,0.898393395723641,0.880597616959776,0,0.879061414913234,0.973002759163807,0.896201287185318,0.902984741166113,0.904167098921035,0.903148717789059,0.903554344172134,0.904693550184176,0.906272903973598,0,0.908568576694833,1.02639872580398,0.905729192013305,0.906203861184989,0.913470614686044,0.917561399911103,0.920823671672859,0.921401905027456,0.922403025462281,0,0.9231538657884,0.936487754338435,0.943607791913696,0.944332741194087,0.944065200388228,0.934174820920047,0.935115528914839,0.913228964925914,0.913729525143326,0,0.914730645578151,1.00231142292816,0.905729192013305,0.905901798984826,0.909526545386778,0.908007604037389,0.908551315997681,1.01354813677421,0.974979108987728,0,1.00468476878658,0.940259216666179,0.941217185358124,0.941622811741199,0.941735006272688,0.934822097063252,0.934010844297102,0.93295794177082,0.93291479002794,0,0.932681770616386,0.932371078067647,0.932284774581887,0.930947070552595,0.920590652261305,0.920771889581403,1.01929594892587,0.963647461307342,0.934485513468786,0,0.935711022966588,1.12109954072925,1.04894982663326,1.04314160204157,1.16240438901434,1.04400463689917,0.986621449216852,0.984412079981377,0.974668416438989,0,0.901828274456919,0.902518702343005,0.90472807157848,0.906255643276445,0.908585837391986,0.909120919003702,0.912253735536817,0.913600069914685,0.91328074701737,0,0.910260125015744,0.908827487152116,0.908577207043409,0.908672140877746,0.909379829460985,0.910122039438527,0.911373439982058,0.912184692748209
1.04278775774995,1.0425892597327,1.03996563376557,1.04841474502155,1.03160282599535,1.03337204745345,1.06994746471885,1.08227160248549,0,1.01561079008389,1.01084683766989,1.00471065983231,1.00471929018088,0.996485937639306,0.995105081867134,0.990332499104565,0.989357269715468,1.18131348274452,0,1.0173368597991,0.977102174737442,0.974789241319054,0.97543651746226,0.97728341205754,0.977050392645986,0.9759629687254,0.974331832844522,0.973943467158599,0,0.973865794021414,0.973313451712545,0.971190385962831,0.969904464024996,0.970430915288137,0.966668083308968,0.96483844941084,0.962672231918245,0.963198683181386,0,0.762848593127244,0.768715504089259,0.962413321460963,0.950512070774556,0.950089183694328,0.948501199556331,0.947750359230212,0.94837174432769,0.948647915482124,0,0.954343945542333,0.954827245062594,1.14583411974828,0.968471826161367,0.949252039882449,0.948647915482124,0.949010390122319,1.04145005372065,0.946136484046486,0,0.94568770592053,0.945774009406291,0.947439666681474,0.947879814458853,0.947698577138756,0.947517339818658,0.948829152802222,0.948596133390668,0.948647915482124,0,0.94929519162533,0.948863674196526,0.947361993544289,0.947344732847137,0.946395394503769,0.94452260886276,0.940190173877571,0.938515886253813,0.938533146950965,0,0.941674593832656,1.11080353487799,0.923360994154225,1.03113678717225,0.930325685455118,0.929143327700195,0.929143327700195,0.929039763517283,1.05669987965458,0,0.935383069720698,0.935555676692219,0.937618330001901,0.930049514300683,0.929195109791652,0.927727950533719,0.925665297224037,0.92645065894446,0.927003001253329,0,1.01179617601326,0.908922420986452,0.907325806499879,1.00505587377535,0.927512191819317,0.923499079731443,0.923870184720214,0.925199258400929,0.900033161953096,0,0.901569363999637,0.921341492587424,0.918648823831689,0.957787454624187,0.923093453348367,0.926597374870253,0.896641434962698,0.909112288655126,0.926269421624362,0,0.930161708832172,0.940017566906049,0.931525303907192,0.891894743245857,0.866953035861002,0.867384553289805,0.877879057158312,0.92247206825089,0.923732099142996,0,0.906549075128032,0.907248133362694,0.90143127842242,0.904693550184176,0.904762592972784,0.894984408036092,0.896952127511437,0.897012539951469,1.04239076171545,0,1.04307255925296,1.04084592932033,0.902760352103135,0.904037643692394,0.905453020858871,0.905988102470587,0.90681661593389,0.906169339790685,0.907826366717291,0,0.908931051335029,0.910139300135679,0.917337010848125,0.917811680019809,1.10862868703682,0.911986194730959,0.912348669371154,0.922368504067977,0.922282200582216,0,0.92319701753128,0.924931717595071,0.926286682321515,0.940190173877571,0.940794298277896,0.941596920695471,0.935089637869111,0.912875120634295,0.914040217692065,0,0.914532147560901,0.914851470458216,1.10746358997905,0.998703937223357,0.909336677718104,0.908085277174573,0.908922420986452,1.01139054963019,0.960307516408401,0,0.987976413943296,1.01336689945411,0.940656212700679,0.941260337101004,0.941260337101004,0.932388338764799,0.932664509919234,0.930938440204019,0.932319295976191,0,0.932535054690593,0.932077646216061,0.931016113341203,0.930636378003856,0.928478790859838,0.92022817762111,0.92058202191273,0.987294616405786,0.961360418934682,0,0.951159346917762,1.09591618358426,1.06043682058802,1.04035399945149,1.03978439644547,0.984394819284225,0.985145659610344,0.98616404074232,1.07009418064465,0,0.900481940079052,0.900343854501834,0.900542352519084,0.905910429333402,0.906592226870912,0.909371199112408,0.910536296170178,0.913289377365946,0.914186933617858,0,0.910087518044222,0.910061626998494,0.908145689614606,0.908335557283279,0.911701393227949,0.910881510113221,0.911994825079535,0.913686373400446
1.0430207771615,1.04044893328583,1.03507222612294,1.03491687984857,1.13380341383323,1.12489689410272,1.12859068329328,1.01376389548861,0,1.01260742877941,1.00850801320578,1.00447764042075,1.00379584288324,0.997918575502934,0.990505106076086,0.990392911544597,0.989296857275436,0.990764016533368,0,1.01303894620822,0.975807622451031,0.974374984587403,0.974573482604652,0.975220758747858,0.977050392645986,0.974892805501967,0.974694307484717,0.975074042822065,0,0.976023381165433,0.968937864984476,0.969188145093182,0.969973506813605,0.970482697379593,0.970948736202701,0.966529997731751,0.96459679965071,0.738815661447449,0,0.762310059376097,0.733160194025547,0.96648684598887,0.990289347361684,0.968661693830041,0.968670324178617,0.947586382607267,0.947948857247462,0.949001759773743,0,0.949476428945427,0.949968358814263,0.948829152802222,0.948311331887657,0.948561611996363,0.948578872693515,0.950071922997177,0.950132335437209,0.946473067640953,0,0.944859192457227,0.94472110688001,0.94447945711988,0.945515098949009,0.948242289099049,0.948104203521831,0.948345853281962,0.948725588619309,0.948829152802222,0,0.949864794631351,0.949459168248275,0.948768740362189,0.94720664726992,0.947241168664224,0.94560140243477,0.939750026100191,0.938792057408247,0.941501986861134,0,0.939353030065692,1.07425400865831,0.920487088078393,0.921505469210369,0.918217306402885,0.91882143080321,0.924500200166267,0.927779732625176,0.927305063453492,0,1.03426097335678,0.933225482576679,0.933484393033961,0.962240714489442,0.926631896264558,0.92387881506879,0.920987648295805,0.920443936335512,0.920245438318262,0,0.920012418906708,0.919529119386448,0.919028559169036,0.924465678771963,0.926459289293036,0.922385764765129,0.922333982673673,0.922083702564966,0.931827366107355,0,0.928021382385306,0.926433398247308,0.922023290124934,0.919313360672046,0.923188387182704,0.923084822999791,0.920590652261305,0.920340372152599,0.920538870169849,0,0.920996278644381,0.927296433104915,0.957657999395546,0.902872546634624,0.903131457091906,0.898773131060989,0.89793598724911,0.902855285937472,0.906108927350652,0,0.906609487568064,0.904123947178155,0.900904827159279,0.901370865982387,0.906557705476608,0.906661269659521,0.903890927766601,0.904253402406796,0.906100297002076,0,0.906583596522336,1.0022251194424,0.906152079093533,0.907860888111595,0.908525424951953,0.908275144843247,0.908801596106387,0.909379829460985,0.909630109569691,0,1.08352300302902,0.911908521593774,0.9181396332657,1.02561336408356,1.0249833486375,1.02347303763669,0.916094240653171,0.923490449382866,0.923801141931605,0,0.923248799622736,0.924077313086039,0.924543351909148,1.08142582832503,0.938645341482454,0.94107046943233,0.94074251618644,0.928642767482783,0.914670233138118,0,0.914325019195075,0.91468749383527,0.915490116252845,0.914558038606629,0.911382070330634,0.908154319963182,0.905668779573273,0.90661811791664,1.0490792818619,0,1.00184538410505,0.980925419156643,0.986509254685363,0.940673473397831,0.941199924660972,0.941346640586765,0.92878085306,0.932267513884734,0.931033374038356,0,0.932258883536158,0.930670899398161,0.930739942186769,0.9301875998779,0.929678409311912,0.93179284471305,0.919563640780752,0.917233446665212,1.10071465739256,0,0.962059477169344,1.05884883645002,1.04648154694051,1.09536384127539,0.992619541477224,0.985767044707821,0.985352787976169,1.11714684108141,0.981909278894316,0,0.974530330861772,0.899230539535521,0.898850804198174,0.900861675416399,0.902915698377505,0.906229752230717,0.909940802118429,0.912529906691252,0.914264606755043,0,0.913073618651544,0.911839478805166,0.909267634929495,0.903657908355047,0.905392608418838,0.909267634929495,0.91026875536432,0.910795206627461
0,0,0,0,0,0,0,0,0,0,0,0,0,0,0,0,0,0,0,0,0,0,0,0,0,0,0,0,0,0,0,0,0,0,0,0,0,0,0,0,0,0,0,0,0,0,0,0,0,0,0,0,0,0,0,0,0,0,0,0,0,0,0,0,0,0,0,0,0,0,0,0,0,0,0,0,0,0,0,0,0,0,0,0,0,0,0,0,0,0,0,0,0,0,0,0,0,0,0,0,0,0,0,0,0,0,0,0,0,0,0,0,0,0,0,0,0,0,0,0,0,0,0,0,0,0,0,0,0,0,0,0,0,0,0,0,0,0,0,0,0,0,0,0,0,0,0,0,0,0,0,0,0,0,0,0,0,0,0,0,0,0,0,0,0,0,0,0,0,0,0,0,0,0,0,0,0,0,0,0,0,0,0,0,0,0,0,0,0,0,0,0,0,0,0,0,0,0,0,0,0,0,0,0,0,0,0,0,0,0,0,0,0,0,0,0,0,0,0,0,0,0,0,0,0,0,0
1.07630803161942,1.19984284113735,1.09357735912015,1.12011568099157,1.02730491240447,1.02361975356248,1.14676619739449,1.01038942919536,0,1.0098716082808,1.00963858886924,1.00534930562693,1.00313993639146,1.00404612299195,1.02689928602139,0.991808288711073,0.989167402046795,0.989150141349642,0,0.994259307706678,0.974349093541674,0.974219638313033,0.975168976656401,0.978750571315472,0.978163707612299,0.97756821356055,0.97479787166763,0.973710447747045,0,0.971949856637526,0.970482697379593,0.969196775441758,0.971121343174222,0.970491327728169,0.968739366967226,0.963121010044201,0.963181422484234,0.741745664789026,0,0.741365929451679,0.970845172019788,0.968696215224345,1.00187990549935,1.08458453590388,0.948423526419146,0.948406265721994,0.948337222933385,0.94909669360808,0,0.949390125459666,0.947784880624517,0.9472497990128,0.947215277618496,0.947698577138756,0.948138724916136,0.950408506591643,0.94929519162533,0.949485059294003,0,0.942002547078546,0.94210611126146,0.944004787948196,0.943193535182045,0.945627293480498,0.944833301411499,0.944462196422728,0.944565760605641,0.947525970167234,0,0.948941347333711,0.947853923413125,0.948259549796201,0.947267059709952,0.947353363195713,0.944971386988716,0.94467795513713,0.941122251523787,0.948276810493353,0,0.929246891883108,0.918924994986123,0.91946007659784,0.920530239821273,0.920927235855772,0.92319701753128,0.924284441451865,0.925751600709798,0.928789483408576,0,0.926493810687341,0.978422618069582,0.982081885865837,0.924707328532093,0.924465678771963,0.923335103108497,0.922610153828107,0.920349002501175,0.9199433761181,0,0.918545259648776,0.919028559169036,0.918709236271721,0.919434185552111,0.921695336879043,0.923007149862606,0.923507710080019,0.921962877684901,0.923818402628757,0,0.926813133584655,0.926795872887503,0.926761351493199,0.920288590061143,0.920409414941208,0.91978802984373,0.921652185136163,0.916810559584985,0.917475096425343,0,0.918372652677254,0.921617663741858,0.939370290762844,0.956622357566417,1.11176150356993,0.90978545584406,0.907412109985639,0.906428250247967,0.910976443947558,0,0.910829728021765,0.908231993100367,0.906505923385152,0.89107486013113,0.903235021274819,0.907394849288487,0.908370078677584,0.90492656959573,1.12722708821826,0,0.909638739918267,1.0143421288432,1.01405732734019,0.908283775191823,0.908603098089138,0.911718653925101,0.911442482770666,0.911261245450569,0.914325019195075,0,0.911943042988079,0.912383190765458,0.917777158625505,0.919244317883438,1.02503513072896,0.926217639532906,0.929160588397347,0.924085943434616,0.924793632017854,0,0.925846534544135,0.925415017115331,0.925181997703777,0.925449538509635,0.925345974326722,0.940164282831843,0.941873091849906,0.933052875605157,0.931568455650072,0,0.9167328864478,0.91761318200256,0.917406053636734,0.917708115836896,0.915895742635921,0.914532147560901,0.912719774359925,0.911899891245198,0.914212824663586,0,0.91484284010964,0.97732656380042,0.971932595940373,0.939844959934528,0.940431823637701,0.940509496774886,0.935702392618012,0.935236353794904,0.935184571703448,0,0.932388338764799,0.931913669593115,0.930170339180748,0.929566214780423,0.929894168026314,0.929764712797673,0.915101750566922,0.915645462527215,0.917095361087995,0,1.08662129816783,1.0610582056855,1.09234321927377,1.09104003663878,1.12127214770077,1.13232762422672,1.05696742046044,1.11449732406855,1.02796944924483,0,0.989728374704239,0.981046244036708,0.898488329557978,0.898937107683934,0.899316843021281,0.903770102886536,0.908715292620627,0.912564428085556,0.914911882898248,0,0.915533267995726,1.17101747689326,0.907817736368715,0.905694670619001,0.905401238767414,0.905642888527544,1.08435151649232,0.968212915704085
