0.954386701164054,0.948575340583264,0.923715778887538,0.92424801390593,0.941632369479263,0.924736819034249,0.920395877800078,0.920150061261804,0.919503515809949,0.91963941852317,0.92009749531065,0.925403234599201,0.94303407690615,0.945370120471127,0.959621705055164,1.04240837562973,1.01027146465225,1.11422840942055,1.13384909483587,1.11679830227127,1.09103354650238,1.02240255810946,1.04529764058356,1.09189728016974,1.08699538208552,0.968982085635893,0.959206581934238,1.05000348715231,1.06593565837178,0.978706149204726,0.951845947035322,0.931559911000822,0.94421194827709,0.920856125809518,0.914136165189055,0.921495398948054,0.946742229604801,0.93197953026655,0.923717362247766,0.921420321719949,0.920742899304521,0.919946808287783,0.919786910482088,0.920326588330747,0.920635994700749,0.92127128306113,0.920564920527303,0.920636057568961,0.920857924359921,0.920228036607081,0.92121489037102,0.921838695677086,0.922438288690546,0.923795967795361,0.92497579528311,0.957192387250665,1.0624601363799,0.983688203933303,0.929518805991659,0.922882423258355,0.922735898611263,0.921967354596998,0.922440292553685,0.924373945443349,0.925052264149902,0.925509974241893,0.926377636417127,0.927682124723444,0.927511195966538,0.935647023482385,0.968729433698062,0.937742068073935,0.92814864939161,0.929296788605416,0.930494406958581,0.936197037343688,0.952291936615404,0.938561558687934,0.936856689576592,0.936172849318314,0.930947538072201,0.931100464079726,0.931013438801376,0.931363287713115,0.931214762384374,0.930457802885212,0.929964959859213,0.930295762503618,0.930995972514277,0.935274056481912,0.971108310638104,1.05960118912278,1.03556666092916,1.0517976311491,1.00826010790378,1.03962219221439,1.03865426225206,1.00728057630382,0.990943004295106,0.986717937634788,0.976824093424991,0.975409194076664,0.976660515893613,0.977297288529693,0.977685707426048,0.977490201682836,0.979669100095361,0.988299071103801,0.973856958274239,0.977725223600527,0.971109442824699,0.985366803254981,1.01366005582597,0.997762823656969,1.00366710395265,0.957701259953204,0.942615757812847,0.941427863179627,0.941198503390089,0.94359773504487,0.952954411850258,0.942105056034621,0.937987457015405,0.943230122722101,0.960729063925522,0.942091449211321,0.934868232662695,0.933331711932797,0.932086542550126,0.9302197887186,0.929996070447514,0.937208606454344,0.963746569169141,0.93422913454835,0.924490610941499,0.923349047790525,0.922767433425606,0.922072760271881,0.92127364777166,0.920313305497445,0.920231855970513,0.921413457454176,0.954103336293604,1.07763672935022,1.06277281196591,0.828368611316218,1.59094337964626,1.92400341732969,1.92353358109985,1.90870542566741,1.84104640756211,1.79752665792508,1.90515023043497,1.9093399005612,1.65448535875619,1.24093801699492,1.04953945689146,1.11562616060659,1.10683429303467,1.21323461343455,1.30535184505364,1.44097932750552,1.38830563393626,1.41001548677833,1.41603851870063,1.3012369633356,1.26824037054363,1.26197686386264,1.22101459228966,1.19662610631733,1.13833926021148,1.05794487061497,1.04532953025693
0.917602319537744,0.917292707395782,0.917161039089162,0.918148336477719,0.91868351801636,0.918417843451448,0.918584704794492,0.918634149809884,0.919627371846407,0.920274180194138,0.925056303790679,0.957260624713293,1.02098359855323,1.02810807370344,1.02480454455014,1.13460816855038,1.07327125118444,1.06974679302429,1.04263066258339,1.031431051821,1.03335701847408,0.993949485969497,1.02339667877032,1.08773983799485,1.06094170302732,0.979526009054949,0.940364368694182,0.95332585904574,0.949162917886035,0.923316064226828,0.917562922209473,0.916693962777475,0.916561138009487,0.91722207796185,0.918834070071389,0.955174428507167,1.07396326499462,0.988655606367788,0.931667450721554,0.921982757376526,0.920852204667188,0.921068283546109,0.921343676857721,0.920998215543427,0.921315683771196,0.922041561250299,0.921644690075239,0.921396485769823,0.921174678801661,0.922865002725979,0.930056281004911,0.930308527654035,0.927957993211486,0.934316085839758,0.935559795272794,0.946775048592046,0.982790475203375,0.942123134667703,0.92262863564487,0.92134904010482,0.921730185696029,0.92184327988512,0.924504952079995,0.925748104041997,0.925984081282405,0.926333791780766,0.926144374678487,0.926675714314878,0.92813179303029,0.972242217128465,1.10659737536923,0.972714288338292,0.929497508291434,0.930126333262258,0.932299530830027,0.933440457302837,0.934883159477579,0.930950171152475,0.931282016225692,0.930765667251905,0.928929629437525,0.929303788103655,0.930390608576948,0.930838046075542,0.929880785790811,0.928921898596812,0.929154720500544,0.937382979114352,0.970642204039427,1.00291252179209,1.0070159186491,1.02367998092093,1.01432096144685,1.0353350048361,1.06945399819729,1.25412068846812,1.21065647800197,1.14029322427662,1.05328432032492,0.988504911445107,0.976512028528467,0.976394131796037,0.977384183622706,0.978509707954847,0.982212349414368,0.994655709550793,1.012015607667,1.0526528641862,0.998309155346833,1.01545594193426,0.968327580080853,0.951746364314048,0.952024650778618,0.950688483023151,0.947444146920958,0.944948773025297,0.94349218470301,0.94319256371109,0.942277598679592,0.941751523561625,0.94139977361641,0.939996545167643,0.939187404077747,0.937855712521795,0.937592884048409,0.937045270548656,0.935994139629802,0.934143206224038,0.931085544474552,0.929190758051704,0.928452216010286,0.927409514793049,0.926233124076309,0.924936555222872,0.923712792369345,0.922707399631491,0.922124558787687,0.921963718867597,0.922322844389784,0.921396651315173,0.923159602306526,0.937632592853531,0.997362057784976,1.23549936165279,1.68885840285641,1.74773002134488,1.92472602055855,1.91741137652783,1.90949958050716,1.85596801346821,1.77178901606259,1.81601906839868,1.75415607088641,1.68634140409632,1.51226801817023,1.28329913184952,1.05125123251603,1.0863635679156,1.24016884577525,1.28039091485971,1.29963686034873,1.33830320788172,1.33186703594282,1.32650963025015,1.33551798956623,1.27534434332176,1.26240868756751,1.2477342507054,1.20643958246839,1.16720886683387,1.09620956542258,1.0480038280933,1.04519079845293
0.916694778410645,0.916957031668204,0.918266255502514,0.9190381944527,0.918951144449097,0.918185367435912,0.918188727795583,0.917969150467426,0.919735479643723,0.9214630055807,0.939806718788513,1.002280130217,0.99871580767421,1.0116646446091,1.06029010151352,1.08267935788613,0.996425396119743,0.971384220052123,0.963413359667788,0.963219593863741,0.980685274048992,1.03516338748159,1.08716657305675,1.1025927888144,1.0736234150637,1.04387377654711,0.968819793177115,0.926878079045142,0.917106392040578,0.916111437298625,0.918248775349682,0.91957244055799,0.919105053714849,0.91965721575673,0.921040534854953,0.963513905404132,1.10175694863802,1.0107551009306,0.962951021341758,0.93101999950113,0.925149750748918,0.942394709095148,0.961866310459949,0.947333700832533,0.936615174809184,0.934417833668744,0.928182167915489,0.927920276810199,0.927681564267274,0.933241656004137,0.960902899384361,0.959547047207832,0.949618371850185,0.971259091741762,0.94353361863523,0.933691892604712,0.929600776382412,0.922513682276515,0.921411970326463,0.922246942613533,0.923586450254595,0.925306830818597,0.926473758970255,0.927039368747369,0.927152637507256,0.926779918767872,0.925944367228563,0.925708871967412,0.927263554493917,0.940845295453262,0.974418230884706,0.940519654521762,0.929703807174322,0.930337718578298,0.931211963501581,0.931027787739921,0.929309795230501,0.928739066870893,0.929221900215365,0.929727539335014,0.930135923190563,0.929796248561527,0.929172798382257,0.928971504507006,0.929175838588725,0.929810870466448,0.931063504027888,0.961503907581062,1.09294876951924,1.18156528157972,1.02503651047784,1.00269692360599,1.0379805165945,1.14212459392691,1.21588429411684,1.33160209124608,1.25417823991258,1.21519494915626,1.21615604795301,1.02879803913414,0.979356999330103,0.980128446455213,0.980613643842607,0.983728777571225,1.01490088772646,1.09440098384651,1.10913200211915,1.06757323698073,0.984418114009557,0.970682196394756,0.955582790871142,0.950950863734247,0.950864543358727,0.949329502201318,0.947320936343908,0.945801217401363,0.944916944215257,0.94431416296733,0.943282516819447,0.94260410520245,0.942123118316721,0.940892383091019,0.939304551015919,0.937700008847295,0.937102019873464,0.936868885972249,0.935995688774278,0.93295923851624,0.930946048832998,0.928768340187082,0.927575788961789,0.926418588041621,0.924900125234077,0.923462006678136,0.922485252429119,0.921949130322093,0.921562607509609,0.921681129837737,0.922757716524623,0.924632768540271,0.940184627151103,0.996939457649371,1.18263307873652,1.61359437669951,1.84830541277355,1.8948992990338,1.90147816159116,1.79969676390888,1.83327437737043,1.79921246692304,1.7001501962018,1.68528399814756,1.63941744767368,1.6012603360635,1.44570604400445,1.11334980282105,1.03065991174247,1.20938197015784,1.32834254804408,1.35001854966369,1.30169282795393,1.31968354180529,1.37241412616592,1.28558015415878,1.24206309156627,1.22428105379444,1.25273171090224,1.21500340249612,1.15752087154229,1.07049273370769,1.04519534571325,1.06269401374228,1.0603227762171
0.917992279368719,0.919107685002295,0.919871038430699,0.920329687027157,0.919621275025296,0.917917769793816,0.918196723042019,0.918854819788943,0.921205818761907,0.923791106686823,0.931582335186035,0.9468343639341,0.950426242372229,0.990575764004255,1.03474749986275,1.05870864145215,0.985337632652697,0.953425827540798,0.954065924605877,0.969915808773536,0.995835844315111,1.0784568869467,1.10232926973171,1.08628042043489,1.05558166932375,0.990931037662523,1.01888934033839,0.940795296192363,0.916511730815237,0.919144664316218,0.926729458445127,0.927510944413904,0.921572949163441,0.921412082455859,0.929237334351616,0.990977275349786,1.13191540891083,1.14270998242628,1.11224829856493,0.998246507112042,0.975140061440459,1.01747799455112,1.08322832214541,1.029087328829,0.98595151349017,0.97562963542826,0.951222381289877,0.950754094157284,0.950089197923812,0.94388539066518,0.948104481916882,0.947068047394822,0.972576663751309,1.06896491367996,0.95780014195549,0.9223418744523,0.921093565402906,0.921380980608834,0.922044813128991,0.922876861554562,0.924079970000177,0.926097141187934,0.927367184695145,0.927865621842488,0.927794143128577,0.926917823272636,0.926124689865335,0.926017839455376,0.926819973793976,0.929037225151981,0.929677857449004,0.92916789153565,0.929254055747673,0.929861812273646,0.930855104183426,0.930107202570069,0.929360216670674,0.928952954674596,0.929578159062067,0.930876281844017,0.930402930224559,0.929414938463109,0.928750215217408,0.931467650322601,0.952474025454381,0.984834065004841,0.957610202902613,0.962257893878071,0.995526983986553,1.02082786516765,1.01247965828109,1.0805224932737,1.1691658753523,1.10060909490138,1.15326628622043,1.21341623978541,1.18571383331828,1.09946965977879,1.04822124056255,0.99331429402612,0.980613034420778,0.983863680782534,0.993480289898902,0.998981956869042,1.08010526518266,1.18668307248153,1.17256418900732,1.01806956815193,0.963037169715209,0.954694164788995,0.95221137023239,0.950510672883318,0.949897615454289,0.949035452021927,0.947853773395058,0.946225206913536,0.945549072368355,0.945126974534199,0.944465503154378,0.943261481450832,0.942552010412237,0.940961076593427,0.939522858057176,0.938139910727413,0.936869758376445,0.936060473400554,0.934557298061488,0.932455761692037,0.931056244650392,0.928700665136159,0.927166401320473,0.925158756986475,0.924021938214968,0.922637140640928,0.921859870061382,0.921371065395977,0.921250620966387,0.926305570661793,0.945496911513076,0.977613070344883,1.08871460579844,1.19018052663834,1.5229591764716,1.68339757264144,1.7211569266436,1.70582990428414,1.63295840047293,1.53968372519346,1.5327350971068,1.51951337857067,1.48380377630161,1.45796989280745,1.4226637363766,1.40551407907453,1.31536318408239,1.03821540678824,0.990650668230454,1.11445564292628,1.31156871727024,1.33473661874298,1.24452898844837,1.25596855230147,1.27326327358168,1.21301569653818,1.1837389647874,1.21191260399511,1.27849449791523,1.23682459693704,1.0897966117582,1.03281348217267,1.03900488785437,1.04429098526851,1.03668979714077
0.921741715623841,0.921043463812611,0.921312103493852,0.924278678531394,0.930794703894848,0.925963102058252,0.939921378397879,0.941918179136014,0.932545241527888,0.929974337231285,0.92870331874094,0.92833764260623,0.931537679566064,0.95950998072476,1.03500435399897,1.06149040846944,1.03707850839026,0.98352697488977,0.982698199140953,1.02691766228455,1.05229161934542,1.07883638902746,1.06172371284553,0.971017689720083,0.942836505388104,0.926267463133622,0.939008844599173,0.921981556470967,0.919155824472105,0.926383057470266,0.929634418012457,0.92832042561228,0.922259779956092,0.921269906079178,0.952542453826512,1.07895114718702,1.13822899022777,1.17442807320498,1.19089017032936,1.15266425970974,1.11184639219034,0.999303734971714,0.984549731082926,0.971078123153702,0.960890446094479,0.958430616712442,0.950951392992475,0.951747397457258,0.950839637761912,0.945529549747804,0.942699571107176,0.937509954802414,0.934388734947355,0.956031469906338,0.92855236376108,0.920938250612787,0.921309287214555,0.922212104845108,0.922970816493202,0.923504780964268,0.924255970091292,0.925523306403303,0.926479434377161,0.927355617504543,0.927410271150084,0.927111524652113,0.926685067918122,0.92690787686928,0.927790466918543,0.928654504557828,0.928647009544381,0.928925737107323,0.928817296527042,0.92922678399303,0.930687713239308,0.930671252854866,0.930558011749176,0.930263344009069,0.930346276622206,0.93069761430319,0.930106087401532,0.929085631949255,0.929836863582653,0.944033521314612,1.03101946978046,1.15714139418939,1.03228167194389,0.968873243118679,0.962427192074966,0.98472548311552,1.07668102643785,1.1448185893549,1.24204282469068,1.10404212939816,1.04142634275067,1.02816612047185,1.02191113833758,1.00044709290899,0.98479062685848,0.98075000924932,0.982056723475227,0.999040493277919,1.02861872401045,1.00124462002533,1.04242270187837,1.02006965218201,1.0018682102822,0.96475148518928,0.954751622883814,0.952883164246569,0.952049399617177,0.950895519516693,0.949930631867446,0.949117145537475,0.948006123758234,0.94609825101465,0.945682610300977,0.94554909989097,0.944976908121306,0.942976662110307,0.9424910444478,0.94168173264936,0.939748417984743,0.938053363979709,0.936197747111916,0.935273477960373,0.934221928310931,0.933316395789064,0.93155834437521,0.928879277897045,0.931590876820345,0.947050494035869,0.94781105495846,0.941323734400544,0.947684538408746,0.949539634652232,0.950718712456971,0.977041315873568,1.07547721611425,1.15232265337541,1.50183668371833,1.62147292534471,1.68593945516597,1.65040113065475,1.63945272701618,1.58531901607562,1.50248943711359,1.43521189913365,1.40610493444908,1.37046132725847,1.33863778726685,1.33336248746246,1.31730342209959,1.28547061430429,1.20639558351696,1.01580095253499,1.01369687854928,1.2027793742148,1.29612075623799,1.29271562004692,1.25045968773653,1.22375028585218,1.22305651930716,1.2104523212605,1.22503303710554,1.28876741917714,1.27453182349275,1.15675666879803,1.08174150594318,1.04691858142044,1.05893721730074,1.03738546350387,1.02827214296678
0.936197094630196,0.929732372882141,0.928364687208957,0.938143014957254,0.967112723689112,0.952458130004939,1.01912345494749,1.02155972633935,0.950691514461197,0.932584872398346,0.931100246787181,0.928708936629333,0.932031235736633,0.960113337045894,1.02031484628843,1.03700275482446,1.03631376684657,1.02921067358458,1.01581951687605,0.954871636712428,0.942702873301104,0.946090871853784,0.940939608648864,0.924389436733532,0.942037506745229,0.948370696855503,0.946044416749698,0.925101651169675,0.925568398560117,0.929062975634711,0.930387182472635,0.934512950859472,0.955915691348988,0.960215442433294,0.976984657333299,1.04847456827627,1.08389720710715,1.14840253989673,1.16439729594364,1.15417618516016,1.11883651544276,1.00152913823417,0.954577589015847,0.949601240179497,0.951134931984247,0.951715138560668,0.955901838544178,0.979998987356192,0.985934133923402,0.977610277396722,0.946994410602845,0.927869170541436,0.923032000026836,0.921788689293603,0.920771863284828,0.921220330059242,0.921780652782068,0.922274484862133,0.923004490794518,0.923659035135538,0.924433321978106,0.925642680750348,0.926785643072729,0.927580520570297,0.927559880962091,0.927510714219173,0.92706085224434,0.927755522115312,0.929544508952727,0.931024500210095,0.930765422198289,0.930888797360842,0.929112894935197,0.929760866520963,0.930921970498515,0.931132921715807,0.93079832743241,0.930030693146975,0.92932101396866,0.929774895875054,0.932914655152111,0.944608817091498,0.950258281443487,0.960082918559143,0.98399054027424,1.01355255078929,0.984475543549709,0.965515953571936,0.965910902030627,0.983122997421062,1.00267552532604,1.01399009761747,1.04984601406554,1.06806841187289,1.01898204450359,1.03368518034148,1.04065434506657,1.03881139156221,1.02309868255458,0.986029017589384,0.984332954191886,1.00870448271235,0.983628879252014,0.966447801503607,0.971604779433319,0.95877805406631,0.954367190205591,0.953504537834837,0.953368845207476,0.952720340156369,0.952246926146964,0.951151578505182,0.950474129008506,0.948918008753268,0.947501696195556,0.946686361485955,0.946275900165259,0.946026442326315,0.945316416710107,0.943319537695263,0.942720822680888,0.94198808008977,0.939436648919905,0.937774127509085,0.936088768978199,0.935181852699745,0.934750721456061,0.934685282142743,0.933064694486034,0.932551113284379,0.94896034923641,1.01599230485243,1.03261471279835,1.03864533485487,1.05972600109263,1.08847952724166,1.16089037269771,1.16634563990892,1.29069305910453,1.25942207468501,1.36822688210262,1.64534430227638,1.66247768412416,1.56022332032173,1.54048842689371,1.49762475137514,1.42751687510386,1.35441783152344,1.30053723623533,1.22431795846316,1.07863894034178,1.04619211028197,1.04378310502914,1.03618643526556,1.01890755082694,0.98165453991911,1.0159105672985,1.19672782972103,1.26762298747032,1.25748165484245,1.24184384795981,1.26671330811717,1.29074619086184,1.26653810142959,1.29554761593149,1.32774493961681,1.21696662625339,1.11785525494071,1.0821078871972,1.07601131528101,1.06521109421628,1.0396001952381,1.02902493359509
0.971350329171678,0.941723232018537,0.931683447495089,0.933164615033653,0.939334312096502,0.946916859459134,1.01113909388216,1.01910922343452,0.963209475024146,0.9474424257055,0.945972249875038,0.929314780078728,0.938601587822053,0.981199461465819,0.945279460003666,0.933873316792233,0.93470635824002,0.936130579245573,0.932891302326456,0.9141581780271,0.910047554186783,0.911042276649724,0.917451410196824,0.964070786930815,1.06255601896746,1.08678923232156,1.06578676815907,0.977093485957468,0.954262435930228,0.952176508903867,0.991079262385478,1.01840528276393,1.0907535301635,1.11382763822837,1.11587189144262,1.12989455126334,1.12620330473895,1.13279581647749,1.1452034604002,1.1318554467797,1.12360783680781,1.07352209459674,0.971562759301345,0.950532173302605,0.964943120485138,0.983186155540304,1.00369365623556,1.07659956782465,1.09506417973103,1.0699443375937,0.962806745035759,0.92538563771807,0.92244221342766,0.922090146607994,0.921357166249181,0.921309749695616,0.921608256590132,0.921842908010114,0.92274784032325,0.924078589493314,0.924889108596031,0.926067378737718,0.92770594161074,0.92779231235818,0.92772849167155,0.927789424107535,0.927903641049095,0.928729517191521,0.930272760804189,0.931977406077382,0.933334082078062,0.933406647251918,0.932762705945049,0.932757720894258,0.933132872006379,0.932389689735871,0.930817099819132,0.929807099604452,0.929444022760323,0.93080579091759,0.947762273002476,0.996038383656498,1.01229511437913,1.00679410770048,0.977083921988196,0.967431402989026,0.973678616693188,0.970606741078367,0.982155946184953,1.02067824769249,0.986832259876139,0.97618792892681,0.981581883946696,1.00287655221949,1.05049675157673,1.19146694065357,1.23507630202792,1.2284039515384,1.15597882638302,1.00103579780858,0.972197139018221,0.990609472994868,0.965741214035326,0.957444097228656,0.956586292430687,0.955760726037597,0.955177641336149,0.953704148210038,0.953420654594555,0.952984989396908,0.952499714137988,0.951197823751495,0.950299080377466,0.948718190564741,0.948037664245662,0.94809948709667,0.947132198441727,0.946398856445446,0.945402019042613,0.943951329045246,0.942027809253813,0.940732169017571,0.939492356987561,0.938066021679881,0.936542619790403,0.935818603033308,0.936316049114908,0.936935580913012,0.936642954280773,0.936107276175141,0.939645765670612,0.957362089190317,1.00362017005043,1.1528737409555,1.13750873629002,1.29162088432945,1.5946845669292,1.42895898455424,1.45319453567142,1.67324929868163,1.58174090120658,1.37865790117717,1.42185897453703,1.21512930211238,1.18635214784782,1.29944414011537,1.26855276271259,1.09108217901835,1.03892546025776,1.02006369653367,0.983213852773482,0.975083181138458,0.975432410398229,0.975371676319138,0.974947175080768,0.97470372013478,1.0162119860192,1.19052572127796,1.24930205311361,1.20319834997746,1.1997810964732,1.24689313643488,1.28996645598955,1.40292813840498,1.34540041861711,1.39112559870879,1.31780683487982,1.14958994541547,1.10294116165528,1.09676010397213,1.05097705733789,1.03290014648758,1.0278218880272
0.95189873882526,0.936919810470511,0.930775135442781,0.929148032619876,0.927614746451296,0.938978621436449,0.988398316568885,1.00955705352193,0.999594064326743,0.989295712197865,0.985348042161697,0.926574099709603,0.914918719985995,0.924305749864133,0.911802842568378,0.908360517063319,0.908819672729641,0.909740238800658,0.909954987238039,0.910005705248356,0.910406711859099,0.911422778590314,0.940716129074935,1.05857413547449,1.11058246715867,1.11683759515917,1.10803073419877,1.08556839699672,1.06758513213017,1.05321440711459,1.20466394452848,1.22698137824514,1.1485343810024,1.13528766669897,1.14720295473889,1.16448946416362,1.12498645470192,1.11218019007793,1.10791077611829,1.12171373740998,1.12863241523986,1.08169679607737,0.973536137381613,0.965402082227969,1.04557523422892,1.12801232180292,1.13758803001412,1.03711616863729,0.992669573370759,0.999265344929865,0.939838683319497,0.922569646047665,0.921872579291403,0.921603473053903,0.921271508062187,0.921018582209339,0.920860722562592,0.921827067306867,0.932073832878216,0.960982428462753,0.934461020988816,0.927212410367385,0.927828886139016,0.927912055567031,0.92728245080597,0.927898019929447,0.929124628471045,0.930273377549418,0.931997501954316,0.932382627635859,0.933169933366274,0.933671555014534,0.933323156845517,0.933765171663443,0.934057292889532,0.933933072644024,0.933359614764722,0.93694053864804,0.953060928171871,0.94751947592484,0.964530047892313,0.969760289851596,0.980117627518053,0.992400919619757,1.00823395376019,0.99719727105536,1.00059155467691,0.980042440474052,0.986566917080716,1.02310307403272,0.987826770383041,0.979102819295662,0.989351656761047,0.986699590157434,0.985595956761078,1.03316962186955,1.09896452380991,1.10002220405141,1.04281923408798,0.976070853649119,0.962948990391226,0.964984352719133,0.959004156685287,0.957635781007288,0.957080390722415,0.955788989760339,0.955314976646591,0.954223755860226,0.952994606030805,0.952406856735471,0.951880372792313,0.950798579849937,0.949935167472677,0.949300097587685,0.949161702440069,0.949374666478331,0.948530919120165,0.946201275920386,0.945339107682974,0.943835640491147,0.943543767370968,0.945819172412896,0.940593840886541,0.937700735365892,0.936300466881413,0.936350588760561,0.937815614780087,0.938253263388511,0.938099804512057,0.93748652367141,0.937287834380042,0.947902149648407,1.02133799321104,1.16706701459143,1.21465955853777,1.59854546178441,1.73044471940365,1.49042582095927,1.46748200549443,1.65428733270509,1.59938680069309,1.42995346913775,1.2288420056299,1.1006727105733,1.06356405727529,1.04595176641111,1.02963480074427,0.986415631157214,0.975701617016883,0.974706263561291,0.973784291372052,0.973635796693367,0.973754730855853,0.973496069945739,0.973919777888182,0.982011181218802,1.04068335848173,1.18342937562821,1.222104557778,1.19304123562722,1.21644698835571,1.28235531893419,1.37691910114217,1.45563200287868,1.45639961399134,1.37307778198087,1.23631631636647,1.13627604415368,1.14026106150045,1.06806827461955,1.03196643642304,1.023567809234,1.0244318543048
0.971552705645457,0.940473138473422,0.926216229524604,0.92153964411891,0.919994841649646,0.921526624720651,0.929322760427262,0.933273412336768,0.932371228229259,0.929939437837097,0.927432486652109,0.911866615824809,0.908495595938185,0.90901414395271,0.909643014509998,0.910769240395005,0.911078291752936,0.911800756702471,0.912556691228673,0.913985259742854,0.919034853320977,0.939140089765632,0.974280579718788,1.07271684559352,1.10032306882223,1.10057850480167,1.10584184254486,1.10823603540016,1.10305051993463,1.09259830816994,1.12377603638105,1.12600739745682,1.09756269085222,1.10086762134345,1.09036294481683,1.10185056384871,1.09978315218506,1.10446452087478,1.11386784839007,1.12306830565869,1.12298006173799,1.05564716039183,0.996096921024849,1.02335922170865,1.15615945475284,1.22288528462597,1.26648488111634,1.12350451143207,1.03985862931058,1.09533723233733,0.961016103436694,0.921524911173572,0.920628679977943,0.920329414712045,0.920504753365794,0.920395110489771,0.920046341312921,0.922181156166725,0.959705258495947,1.07185887021207,0.962912064555829,0.92835468785253,0.928469070428025,0.928647696145977,0.925403784467445,0.925764902589826,0.930717739766059,0.933347398918672,0.936485168020002,0.937216730771571,0.93649390216564,0.933651503775657,0.932359603269176,0.93268634734401,0.932870805044121,0.941018912279361,0.973273356817377,0.995231263681098,1.03921009844345,0.986842485062131,0.972130845502409,0.966074152191302,0.991328613707809,1.04335808946711,1.07829871200882,1.05586055955083,0.99628837626492,0.976570345598109,0.977082380526285,0.984426346692182,0.97755717476331,0.986982648582249,1.02033921634065,0.979754776618945,0.963223775133041,0.966221589056187,0.98032467461691,0.984554322156342,0.988471424930277,0.980860108621689,0.964458899943299,0.957432884355994,0.956893110509114,0.956837579782066,0.95638366762358,0.954093226553645,0.953855350032981,0.953488198346839,0.952593684369334,0.952037899706961,0.951367799100267,0.950935712124593,0.950666220025183,0.950779289988497,0.950922344697132,0.950497987240998,0.949202011398677,0.947290021928522,0.945535002325452,0.954376197246181,0.991828760666147,0.973648698390076,0.944246735401886,0.936064601111542,0.935449986739393,0.935766963442757,0.937291806741358,0.937916923903723,0.937767237843234,0.938383858739753,0.967906504362134,1.10325457787367,1.20849740779785,1.15518137729018,1.22067000391878,1.44592820119438,1.56137556096633,1.51220474504497,1.48968910611604,1.491998494979,1.47104408645347,1.42730609263815,1.31943846601489,1.09525097134445,1.00258606228889,0.980060172226857,0.976432332136947,0.975240117077755,0.974633468892586,0.973950925546502,0.973717916279685,0.977301664666916,0.988163459911994,0.976202494955219,0.978654650743261,1.02351891890257,1.12580952901127,1.19046606398317,1.15158120815623,1.16564218200628,1.323818598175,1.50210569342073,1.4223463986802,1.38624402700984,1.2618148047213,1.17078572014541,1.15955798770375,1.14993255293551,1.07392953347229,1.03349282094801,1.02133770833351,1.01958473616406,1.02078812848579
0.949928599061157,0.933557206741323,0.929708056479265,0.931710177254045,0.930234817064518,0.93080283647885,0.928436786090576,0.926697108114142,0.916754284490911,0.912692171618135,0.912081467831752,0.910472009510487,0.921712033089812,0.95204769248421,0.938166412744582,0.918129197443307,0.914266937466193,0.914776254599834,0.916665086677686,0.921480134608152,0.95311734290789,1.03480854140222,1.08307256278295,1.09259871549696,1.08821657043916,1.08081723428618,1.09250348181153,1.09333214778774,1.08355883943822,1.07280100129877,1.06082953179501,1.04511199777956,1.01591640877699,1.01246491178566,1.01828505595604,1.06088724525239,1.08538576831376,1.09443904289985,1.11381951607756,1.11201517186425,1.11298444967578,1.12180330693907,1.12852520236685,1.1527989365695,1.1412793935305,1.14704187118092,1.1350316424399,1.03670463146816,1.12566683967977,1.12374132406281,0.962558954781412,0.921300419813551,0.920807065868712,0.920598623533571,0.921001605020304,0.921330464179833,0.920751012162241,0.922529476447903,0.93428629173231,0.964486538026898,0.939146945082982,0.930593412449345,0.929532028209941,0.928749923379858,0.925889609559441,0.926695440506464,0.931446756463081,0.933619494947088,0.935571220111142,0.936613777398328,0.936564748415642,0.933903987526259,0.932601874519452,0.932657067973336,0.935403470967977,0.986910274288114,1.14879425305754,1.13662483393184,1.04661614864697,0.98529079755277,0.968400084064848,0.995392515483605,1.0657501948927,1.09726225497818,1.10211526880053,1.03713501429434,0.985797144735619,0.975204420879562,0.97371245908137,0.970616038166341,0.97050666166073,0.973871882005413,0.981611213591667,0.968218946547426,0.962297065504857,0.959974126149961,0.959430473044899,0.972163862298698,1.02692551348188,1.02696102987482,0.972171262859417,0.95806628076384,0.956691348620183,0.954517102291732,0.955110976053283,0.953782020309444,0.95311727560343,0.952742210849932,0.952820764263663,0.952884595880941,0.952780935143836,0.952601335124476,0.952428138268395,0.952257889185955,0.952018682713216,0.950949771428771,0.949405152481362,0.947866303006485,0.946443179503106,0.999044128378971,1.17694881416609,1.05704344077948,0.954791676597698,0.935725723341106,0.934448698449656,0.935747205390974,0.93824375038804,0.93869194735937,0.944048613540873,0.987876997393956,1.1818175984107,1.57584333560609,1.44260223192862,1.22762331270443,1.42580551330871,1.45618006252628,1.52929601953369,1.55938786985257,1.5159935854018,1.41345917485722,1.36813655753027,1.31154328612378,1.24162113807181,1.03971677828483,0.98056793505185,0.977136608219338,0.976453030465557,0.981186480803041,1.00060761652054,0.996235383052243,0.991284324754037,1.00867786600686,1.05560742332577,0.990042223209587,0.993575250796482,1.07707551980252,1.07744172581998,1.13820050092071,1.12241019837185,1.14382459050114,1.17738902110314,1.23606057455921,1.20100623292215,1.2089629233453,1.12819426951634,1.15399844262019,1.17532308185431,1.15786841256892,1.05926153394253,1.0728225313187,1.03378339566378,1.0379441006792,1.03838100455926
0.939820391192923,0.933485762283248,0.938642848537598,0.9678510669502,0.971911883072662,0.978629017924058,0.976187657550613,0.972545499757421,0.939214660336802,0.918663757690494,0.918131527003991,0.923462633480296,0.98615488785735,1.09380873709937,1.03237599424835,0.938118002977502,0.91906803310414,0.9190044259485,0.920167061149423,0.938664599604328,1.01202450588979,1.05135669856086,1.08037226773274,1.08678845561085,1.06843539625153,1.06314056742602,1.08604711321242,1.06215751074978,1.05463656505003,1.05912806273453,1.04592275172854,1.0071888338351,0.991849507867624,0.992508974654013,1.00290270138295,1.02951917358551,1.07936707143889,1.08618819376072,1.08791869725661,1.12279295919362,1.12309314445971,1.14137290995656,1.14530146052963,1.10573422794953,0.992833613666325,0.967050460100758,0.960590471525509,0.939875108685675,0.968398302388918,0.964999263441303,0.930383575164379,0.921518060608295,0.921582996849757,0.920993198236737,0.921217504816502,0.921872994534263,0.923557564634509,0.925645583435884,0.92748144568481,0.928878810200796,0.929446802751634,0.929040569443339,0.927613181303269,0.927769388301481,0.927505132950052,0.929040919914568,0.930952512787218,0.930838363841137,0.931891915773852,0.932867903451698,0.933351695150622,0.933702481765841,0.936013615522462,0.945395795431182,0.957753379152231,1.04876051236538,1.23750373435584,1.15262199401498,1.080002719935,1.03959095035534,1.01159174396169,1.07882219454406,1.11708345623531,1.1401147495916,1.16037143275209,1.14359796772707,1.04664849537163,0.984416892606113,0.971377373032893,0.969641913487823,0.970173954700211,0.971943583153705,0.975620377892923,0.989494785691953,0.984163728963146,0.962994811721286,0.957085353341633,0.958734575447937,0.972043324712775,0.972861720627161,0.965045993241901,0.98395501019026,0.983221566344834,0.959705275910656,0.954008457086546,0.953603723894397,0.952626288396672,0.952981989463015,0.95482450594471,0.955102354129189,0.954714293924899,0.954261673839563,0.953740016144375,0.952954605104075,0.952239863332297,0.951162934879284,0.950016079743018,0.948659650190302,0.947583706420432,1.01164598937811,1.26308641921961,1.25533899774866,1.05446305321834,1.00120444549382,0.949843864537935,0.938900122489628,0.943967031266156,0.96353603752516,1.00605901754414,1.222441619985,1.55022795454345,1.54040910351208,1.24820215502546,1.21866154442002,1.4623529713366,1.46095695421897,1.50494927014879,1.43460654332289,1.39163635242832,1.32727178337998,1.27244964020583,1.08805359642311,1.03012785244976,0.989382808678705,0.985471403121282,1.00758703154048,0.997506553098001,1.01898275058615,1.095281205031,1.07283045625129,1.05027051260023,1.06667816381962,1.10994669215527,1.02050429168462,0.986151513895292,1.04103049460801,1.11518992278876,1.12549495292642,1.11159202337489,1.15024231027427,1.1517793429149,1.17193566298937,1.18225489000025,1.20176563487946,1.11797004343417,1.10208942673802,1.16133171910363,1.42481418901498,1.17603572183183,1.27557275656184,1.10956426624532,1.10028281676804,1.09878396616696
0.947934848982167,0.963892433455001,0.942796148299348,0.946674716700166,0.95292844887347,0.950793477432415,0.948308122889272,0.951702046764826,0.967333995172559,0.942435999688236,0.936242076155013,0.966267572531081,1.08357349333849,1.0579659283207,1.01256142369226,0.936155631567252,0.918723269023968,0.919228114415528,0.924129349772488,0.955119620733826,1.03492760740346,1.04803282148918,1.06180757820227,1.10908276190949,1.11046356657346,1.08889902858917,1.16594662213783,1.07702383304272,1.04780470246168,1.05140174254595,1.05119256598999,1.01109419131631,1.00254109149194,1.01152437045545,1.04351567342271,1.0716935849355,1.0876837884884,1.0764966355839,1.05157957522644,1.11498621488169,1.1328963299231,1.11295665770506,1.08364214574306,0.979661183362002,0.92972555774825,0.92325334152056,0.922546684838261,0.921608679179796,0.922079339613973,0.922240492745665,0.921819849016287,0.922239179521603,0.922562229469177,0.922794746582534,0.922477180900395,0.923256332312329,0.924920661768504,0.926124493924124,0.926580332650747,0.926399446852366,0.92616679143706,0.926636252505726,0.941003591523944,0.989619811189413,0.96410181928213,0.934822323297201,0.930367624471207,0.93043837364011,0.931087476075955,0.932796098886307,0.933436992455261,0.933855838055575,0.949327194397549,1.00647194724077,1.01236360894397,1.03523007440466,1.10172151414377,1.12172883114275,1.07450505972785,1.09491560520674,1.10406835270398,1.13765008229152,1.16084655310649,1.18863305802447,1.13423633928508,1.24744384889513,1.20436027602552,1.05334011145377,0.981311003054991,0.973054973725791,0.973541604792069,0.978147076670396,1.00926721719045,1.08261502701572,1.09574568917042,0.986516417019665,0.956435035794688,0.954075619625884,0.953571736653701,0.953784180326727,0.976070224332242,1.06588814537479,1.06572301454282,0.975822319382637,0.952392702257184,0.952903415354014,0.953356346249088,0.954524908522385,0.955673954424611,0.955858905713475,0.955612874706922,0.954977156101735,0.953961575066964,0.953041525895332,0.951978465093923,0.951107536415378,0.950548944100388,0.949502485389761,0.958808377153802,1.05552315352477,1.25104135572879,1.1840226565551,1.20572507527355,1.20339848384795,0.995856327354966,0.942114942771576,0.974152792456207,1.11013272541428,1.21450579630432,1.43326472261544,1.37247333421767,1.21127345560393,1.15929749833808,1.31881711280167,1.38145680781393,1.38880427674549,1.38365190159077,1.35554127402825,1.25535158544046,1.08703591819599,1.03944441468643,0.993198874516461,0.988018222923736,1.01481112851322,1.04879174352938,1.14072734084198,1.08368321551845,1.08812088958423,1.10232320119877,1.05442556255981,1.02282574516833,1.03199309695722,1.12004977037313,1.10407377371674,1.03055969504248,1.10090939730729,1.14288506338802,1.15039705927855,1.1307443726235,1.13298244030856,1.17859980406166,1.15432602980586,1.15578271172899,1.27423202004933,1.28509630015698,1.24573539348385,1.23622519542244,1.42510663876964,1.15564181428268,1.22596732256593,1.12745352959918,1.04445761159009,1.04012109682511
1.01703517967434,1.08232870131875,0.976581090936633,0.94790159016354,0.962502622680988,0.94824086498515,0.94368072515344,0.949262045297037,0.978700965389141,0.996129967262342,0.999539894300808,0.993519337202629,1.01331088440386,0.960507764810947,0.941957909180791,0.922164790611264,0.917764626016323,0.918756283306474,0.934576253611903,1.00008805984059,1.04911757913849,1.06342295814226,1.06627912114347,1.18679669956945,1.19272663881029,1.08255489285669,1.07872020502482,1.07521446478156,1.0521283600352,1.04989009964379,1.05431091634645,1.04908949414393,1.05332648406443,1.06457805821691,1.07955100364374,1.07917840166399,1.07599430744047,1.06854490343759,1.09143678579888,1.08219980666791,1.07813680470913,0.983778813843996,0.951790352372423,0.926795763893656,0.922002665377293,0.924018484420991,0.923634652234456,0.921510747146478,0.920876471102827,0.920766253545966,0.921140738492403,0.9224506546396,0.922954594017771,0.923136269184819,0.923434568803463,0.923401746640885,0.92397044547874,0.92462402847231,0.92548717356985,0.925676211287048,0.925781447204411,0.927719361454865,0.997486774205607,1.23097104330509,1.0991160484597,0.961892447447154,0.950627301480223,0.951694950673614,0.940612577336481,0.935338206937455,0.936938964036965,0.944734871358692,0.976924290883285,1.08265024338383,1.05175358491127,1.04825387166436,1.09415435983544,1.06070287082323,1.03245809691823,1.11873049778744,1.12392437340006,1.04288684069251,1.02639474751305,1.03313436538556,1.05294044597176,1.21064607883482,1.18520445671468,1.17404792623595,1.03417641525389,1.02843521748607,1.04289322571894,1.06784508951079,1.12975837990872,1.16580640995239,1.22562803229323,1.05586366017403,0.965411523381931,0.953320449722766,0.952687840981459,0.951476027668173,0.956404958884969,0.977877951063386,0.978870301737699,0.95820955757838,0.961856236936583,0.990752129778945,0.963446512073828,0.955228386757331,0.955777950408738,0.955854471357022,0.955533458695635,0.954844123844949,0.953901990433743,0.953139472923277,0.952065212288188,0.95122609421332,0.951336748979112,0.9505158374097,1.00285233084227,1.21808899395461,1.24954745217268,1.13624497088715,1.03383467785024,1.00983217364198,0.960953902272114,0.961623680451565,1.03088469795087,1.30856676163954,1.39388953526008,1.42763114228778,1.38443801542079,1.19867508204194,1.20369121375494,1.4351280662182,1.40096938091017,1.4492415074694,1.33845501650267,1.31599560264224,1.089685275854,0.993682688317049,0.983228231436461,0.982471211210431,1.01509818910054,1.14731784767403,1.19027806578796,1.21468043109295,1.12042608803906,1.09869690450747,1.13652767184468,1.05738917531789,0.988599002869659,1.01473497808149,1.07084721145062,1.08784601920014,1.05958683536831,1.09673020080592,1.09044890097971,1.08845942179328,1.13118347266021,1.20494957181836,1.25154601957943,1.34444104953155,1.28061882035896,1.24304324756363,1.18600777836265,1.18591396387499,1.47905730072547,1.49312345707571,1.10957566870782,1.04104867221826,1.02484293485981,1.00548293615232,1.0096967912132
1.1533101516919,1.13636913442939,0.998188948675481,0.961567526435442,0.954654434605722,0.946060689941431,0.944420570443925,0.945577684632815,0.962176775111491,1.00958348022027,1.01303179401297,0.977960075152532,0.984570463584798,0.950415526812084,0.931863096864543,0.935564539343823,0.934217176242181,0.923590993022546,0.938529805234762,1.00961653942692,1.05142181349811,1.11025246804924,1.02409722199542,1.05104832652791,1.06766488147264,1.04142048428995,1.05348237700347,1.1278739153785,1.06792395012666,1.05573546317086,1.06226950499285,1.065713051545,1.06960516063299,1.08171198072316,1.08462797128159,0.983393471724222,0.954874473038101,0.952771174476394,0.959975364303019,0.95312259507161,0.950077284855235,0.926274098090434,0.919539382296521,0.919425415279988,0.922155899963385,0.923879535504384,0.92349790987556,0.920963734052291,0.921095605215162,0.921716567495501,0.922109670809231,0.923109849604869,0.923466186800758,0.923663331089556,0.923919534435501,0.923706908155112,0.924022485476947,0.92517525672539,0.925913137497627,0.927216626461885,0.930886255677845,0.941870296569012,1.0023437062718,1.23586839401135,1.13827941998413,1.05158588285352,1.07526683569575,1.04490523409327,0.987308032229606,0.96451665546532,1.0028477063044,1.00986544959105,1.03369400104266,1.12245754770647,1.10359858951377,1.08672927655313,1.0958111740761,1.01782843049031,0.995313198002513,1.01683780098014,1.01757396388361,0.994587618419107,0.998331717377325,1.0366322184263,1.05673133264321,1.1236512302061,1.20650951322249,1.14722136857524,1.12285325096786,1.2475483082976,1.30774479413464,1.34148367682686,1.3084870741354,1.25069533001078,1.25061682146957,1.17993017099633,0.996958417038188,0.952797032675089,0.952215079846867,0.950672194883973,0.950067554749747,0.950422785062464,0.951414173465636,0.953074342766099,0.990692231158456,1.1043691304195,0.991789123730763,0.955194898750583,0.955417953046281,0.955487012063241,0.954814089710579,0.954111088069696,0.953041925711907,0.952094668058181,0.951038698452844,0.949951772034213,0.949898398906969,0.950425639785228,1.00312466110111,1.17467862923935,1.05133610135279,0.986078695080649,0.956341530234772,0.966923130336976,1.00813791897358,1.04797021636958,1.08879026277755,1.23980454954494,1.24902915144792,1.36494438311211,1.49834989674781,1.35615508720947,1.32847713860861,1.42389739985721,1.4369270265166,1.53975187284095,1.15746174711383,1.05314827064248,0.998222163673367,0.983557805670192,0.983210162331667,0.990831993023572,1.05108306721905,1.17633595734898,1.18810484895506,1.17344915573602,1.07998281848757,1.0005858295855,0.996660157420365,0.977947602921359,0.960131917719746,0.966747146174719,0.975770528017211,0.984005215064744,1.00649038940315,1.0530587158534,1.02502042395503,1.03783122587101,1.16423958418648,1.30234881903928,1.29361542865925,1.27529203403832,1.10343148386533,1.06514494591979,1.11712849058985,1.17133256981681,1.2461709645573,1.17302653366889,1.02888436430987,0.997333456163408,0.997754142252146,1.00337810541516,1.03613654723756
1.00742437797941,1.00035049889471,0.976802586503582,0.973874999060041,0.976705178725144,0.950691073056512,0.943551871584377,0.942999313830998,0.945863000494706,0.958138188588806,0.963981432023393,0.957069665620549,0.968983839053904,0.992585773776606,0.966025252092054,0.996644241568968,0.996498607396824,0.941334434897556,0.936939135310241,0.974011710546968,0.987655809703889,1.04485713478167,1.01835017608578,1.01378590066969,1.02080802984613,1.03963174798022,1.04084847965564,1.07862971566896,1.07879733812433,1.07877021627143,1.06746676768609,1.06951518278965,1.07182706577197,1.05743163179711,0.976284511227332,0.929372199488346,0.922099291629247,0.921446664543506,0.920514122778981,0.919934043430738,0.91918659397827,0.918774211600554,0.918593531892783,0.91935089524471,0.921078987008291,0.922066913551217,0.921978445238023,0.921493523146031,0.921385820749487,0.922441648860806,0.922790582760289,0.923279159125345,0.923884155243625,0.925005876972657,0.925264140170674,0.925077977291443,0.926074906406593,0.92761812119301,0.927434220029062,0.933395836130671,0.965182511133073,1.01161260646467,1.00017078159731,1.05765839325237,1.22487687608977,1.29179023932424,1.25817194836672,1.11486955003985,1.05038222882796,1.05343294310315,1.200043660092,1.12138376175316,1.1037207719983,1.14315196496745,1.08629428518204,1.08085162756276,1.09752980260803,1.04347197069471,0.996530313925333,0.99784099460352,1.03356891860076,1.04291443559342,1.08198377894588,1.23301382030552,1.24069741467491,1.13642888072114,1.18160227238354,1.25256462935389,1.24432567452293,1.25958765862841,1.27291628645658,1.24733141040858,1.0771147203158,1.02121205053212,1.01712832077348,1.00881231840938,0.965730262162402,0.95298946810452,0.951958046533529,0.9506442940841,0.950200096972055,0.950937358429494,0.95182140296152,0.952533213589323,0.962402988398096,0.99101067087704,0.963113530657647,0.95419361207067,0.953910892829577,0.95397774293669,0.953941566780356,0.952627913429911,0.950904524120472,0.950763167561992,0.950574854467189,0.949721309229203,0.949807875024968,0.950593667699506,0.961020918726503,0.991603541344448,0.961082348112152,0.962719834906737,0.977433626284649,1.05224188846126,1.16439400512221,1.10341715059594,1.09235871513778,1.12798439962291,1.22302073072357,1.20506577565617,1.21316644916204,1.20116967623206,1.34382001742142,1.40924865813574,1.27855142468795,1.13800764113965,1.00991447374962,0.984244633674766,0.983428233887257,0.9834533531455,0.988431499171713,1.03742493523101,1.17546665597555,1.21901192623713,1.14973495263077,1.10501455984703,1.00339598698584,0.961475394882452,0.956828792847414,0.955505636750145,0.952742793203089,0.952891122875442,0.953776537800815,0.96999391470687,1.01831543404245,1.00028850942668,0.999412980194679,1.00276049509884,1.07551406498633,1.28360821319036,1.3637051909877,1.31899548812341,1.05511748619644,0.993955424809027,1.04610011439304,1.20015452022639,1.24020388439601,1.19673540300831,1.03545965569186,0.995766852954745,0.997096667921804,1.01622506536251,1.08419662914819
0.96059689551786,0.960070628091559,0.962262459755668,0.986893302907164,1.04855577909649,0.968478494971076,0.943817746201177,0.942919862234809,0.942690552326502,0.94358617557707,0.949042851059725,0.950750655490728,0.961614721550318,1.00159356579439,0.995723659712304,0.975953787131568,0.995155377395383,0.948108772379338,0.967206497893301,1.06224819303878,1.037873894733,1.03512543766973,1.02577450044237,1.0105458040727,0.990830462882667,1.06932581552619,1.0503564222332,1.10462679363865,1.15046175351021,1.13172275005478,1.06429494141454,1.06089238857609,1.08094498900122,1.05268136854551,0.946777456311478,0.921338600711882,0.921084223903143,0.920186667491974,0.918978085481694,0.91879536427812,0.919021916884809,0.919643644128529,0.919683443162638,0.919450825753144,0.919954617777145,0.921332775883102,0.921963551756048,0.921835940503408,0.921054090223049,0.922243871707007,0.930152865915659,0.96191267713838,0.968626218971369,0.96226204242947,0.933584405997264,0.926847045526808,0.940026779210375,0.978316746166381,0.943150659469213,0.957520346092597,1.05740235847664,1.09656787204255,1.09719479205033,0.997272897994162,1.04536820495027,1.16738721714976,1.18599117452816,1.13858639433248,1.03147641113699,1.07276492560653,1.14308363097656,1.20448041624092,1.19763129666042,1.18454183415609,1.09980260612144,1.09374781315092,1.18836654658352,1.19931145393684,1.04989261947617,1.07390477008768,1.23151471875276,1.26116333671459,1.26306110219623,1.26932461804488,1.28377060054648,1.25207096794495,1.33031190615936,1.25496032969812,1.09914446870073,1.02362352817207,1.01305316691385,1.00589561583291,0.96468458531347,0.955595922797022,0.956326559413238,0.956045656624927,0.955127265609511,0.953205107580752,0.952033104933989,0.950844644494527,0.950533011345507,0.950695139267549,0.950834125766996,0.951399072579543,0.952538870431651,0.953584397404024,0.953127179501091,0.952314445504689,0.950222018453223,0.950400991849755,0.952226938434348,0.951626448305299,0.951106401735532,0.951284191822587,0.951115925832034,0.949842405061126,0.949604319922174,0.949996768984307,0.950189792436895,0.948112747335327,0.962391247727313,1.0249936489331,1.04678795749755,1.07827928887372,1.11646916528238,1.09381814057864,1.11576823217703,1.12956421240699,1.20335168392408,1.19839529225853,1.17647832524903,1.13361089118873,1.2215509452984,1.2603702886638,1.17511138209408,1.01858689328373,0.982128755246882,0.982333632923605,0.982911171064365,0.988347812869583,1.02547726507277,1.11266699549906,1.1743140033402,1.16388091751769,1.12391062973226,1.07831495023274,0.986640917290228,0.973636330324571,0.973201440103684,0.958613481200162,0.952797699402121,0.95846274553572,0.977074298203905,0.972075029695943,0.979514726573676,0.984076687446055,1.02233794211256,0.999876235023269,1.03899013398573,1.22179978680008,1.36508499225381,1.36873624103101,1.10334126290575,0.99526486252992,0.993595203929516,1.03153911973052,1.04365336351773,1.04264159760409,1.02237267223161,1.01451598064743,1.00208264631834,1.00654239677576,1.02718058835104
0.962866364964675,0.958853981177463,0.959507189611626,0.986639773309882,1.06223452609103,0.979181452195578,0.949756683481518,0.943377556812564,0.942250216868988,0.942721390985473,0.94332458336386,0.94409636646096,0.948238831804671,0.959727905494596,0.960800105559017,0.960560151440177,0.983717491826936,0.961612338501022,0.989009276232556,1.02658712295366,1.02857801434628,1.02497530903815,1.02064854769629,1.00377553640727,0.958652029830626,0.968381432830323,0.973165712987802,1.02528618702982,1.04243194002003,0.996490766062095,0.978754659036748,0.984189489327671,1.07170648802271,1.06436045361371,0.949841675902891,0.92101010148179,0.920674128849206,0.920008943062796,0.918656502272897,0.918803764203363,0.920005473989656,0.92142117541518,0.920741387258909,0.920864564783385,0.920893648123543,0.921874767521766,0.922864009110005,0.922219739086037,0.921195281652987,0.921724176141659,0.952631441684317,1.08645193782039,1.13965441616589,1.11877180028594,1.00020661001786,0.938974501533689,0.980852731263672,1.13195083994035,0.988848324711795,0.982995745319834,1.07240174615131,1.05761336513402,1.00359519222177,0.965045950751361,0.994385329850371,1.13755537599461,1.16019484205935,1.03465180909066,1.00547990866076,1.12938359074103,1.17975215188203,1.18967683459574,1.11740310365163,1.14558559736808,1.21400982355005,1.1316273701185,1.13820281605756,1.20795991799856,1.1368718249575,1.2059914097785,1.29763578915769,1.26846383006877,1.21854414517546,1.11689931092449,1.17307268366065,1.05104481780122,1.03400947114734,1.00851939312212,0.979023751696343,0.991973455339319,0.971521653944441,0.993655183398084,0.963592107743303,0.955789384816583,0.955158508496832,0.954169188133793,0.953638905742372,0.952916872413366,0.951712260021654,0.95127458939583,0.950683637227489,0.950636669554873,0.950876740790487,0.951032271736386,0.952199746760324,0.952666614090812,0.952350354083654,0.95166220174576,0.950825593293164,0.950071347633891,0.950830541658105,0.951346156184259,0.951532708913202,0.951942150267669,0.951040644246322,0.949667097130897,0.949205959198087,0.949532893571363,0.955542123017959,0.977669513555775,0.995434357131368,1.04335270525448,1.05980047199082,1.08594946712244,1.13456586074725,1.11226975466758,1.1809102895521,1.13260371271455,1.04565205777419,1.03673529580973,1.08171708129246,1.09288696641336,1.12638775792742,1.18541374346124,1.10442945603321,1.02423825233798,1.00932661644141,1.00760828272461,1.0035382115068,1.02691387414357,1.11695564536241,1.14703805238242,1.13554909088444,1.13324830247359,1.12126014329362,1.07149135851027,1.00603217554864,1.02579212807313,1.02586180919999,0.971176180468152,0.956096986333421,0.980168963666254,1.05563549151685,0.990765207452244,0.969951184095209,0.975487503258558,0.987018866493587,0.981175383520908,0.990249392697534,1.05998490749341,1.22020499645786,1.2767425092727,1.20292112535105,1.02462380800686,0.982659730807319,0.987136133494187,1.00498897652093,1.03197763672498,1.10896486392777,1.11341056552283,1.04448877478721,1.01022182015916,1.01720847619268
0.988598105349281,0.963443235686566,0.963314792114215,0.970209186313497,0.993820236569203,0.994339030088627,0.977112462153933,0.955533878534651,0.949648753770529,0.943574128609769,0.942190307411519,0.94264935083821,0.944318395999728,0.947895451468109,0.950821797917301,0.953559575946714,0.958983601733975,0.956095471009105,0.961617369494089,0.971845440778154,0.997337319166038,0.98751179272649,0.966793887260382,0.959624340470273,0.94620702939757,0.94114919517888,0.946085453986266,0.966795721427637,0.971301076253873,0.97392928782421,1.01665060537254,0.969055705057289,0.959706633090031,0.954157953002023,0.927561152493357,0.919832895019432,0.919855797920272,0.919333449489242,0.918418298405039,0.919215588348712,0.920698852820656,0.921585238906079,0.921528803189896,0.921343320802019,0.921047636700418,0.92168318069066,0.9225807688294,0.92197311880565,0.922009242753879,0.920962252274269,0.926160854965406,0.994288610138561,1.14939048973956,1.18727833928353,1.14975546137513,0.976145680364003,0.945981622779063,0.984489439186181,0.969371912612166,1.04301830306335,1.04716891968087,0.985833453347977,0.959834396413656,0.958258646878526,0.973871624145906,1.048706911684,1.10182312379582,1.0292537713531,0.997473069544017,1.07480822683611,1.19949302591375,1.12466613280092,1.106709272147,1.19358543167412,1.15260633988177,1.197852885747,1.19714908831951,1.13726658657791,1.15268187031625,1.07284479387502,1.05222144892064,1.0130343811399,0.993796435636015,0.968937990367694,0.983829813974978,0.952456217964387,0.944185993374528,0.94558212199169,0.996248656620607,1.15867421900373,1.09299992006049,1.17722619641049,1.04009448275861,0.964073635315184,0.952142686477188,0.952255366592906,0.962358620530198,0.992694878023042,0.962278527445199,0.951785331411279,0.950254023883009,0.950630976456605,0.951058193693782,0.950844467000549,0.951634029826311,0.952289976569097,0.95205378490431,0.951641549671762,0.951553049379538,0.950538382768234,0.950654219610608,0.951798312742413,0.95234886199887,0.952657103866382,0.951595573277302,0.949796261918056,0.951983275926421,0.966988035059927,1.00644329027418,1.09244014200017,1.09868044430885,1.05263690247023,1.05609314638691,1.10396647456073,1.16164385777861,1.11821884836043,1.08919859977367,1.0228346020803,0.984373343879181,0.980952617023851,1.00739730676935,1.07042383754197,1.10086022844102,1.18905915527441,1.2601735105351,1.16324916746079,1.12910658016299,1.10931859441577,1.08452388705005,1.10026366135136,1.1579767919905,1.15710671559408,1.11265262535798,1.08423599158877,1.07267376172965,1.05116411289964,1.03024329715472,0.989263003597538,0.976793011982556,0.964291938877558,0.968223940196063,0.987156705811828,1.04521584187595,1.03341439606105,1.00898994462842,0.980607499048967,0.974523674188149,0.975160876601691,0.984814473946505,1.01869680319655,1.0277729469062,1.03470605271937,1.03060520626325,0.990630485694377,0.981477364161469,1.00171681359434,1.0845864413576,1.12745516745804,1.17598884618265,1.19406434604517,1.16006876698005,1.06395703337623,1.04481516527118
1.03880707679227,0.995448829119665,0.98153816021836,0.980116410154004,1.01080614047158,1.02440207724441,1.01287125203142,1.00387563495856,0.999071369024907,0.965437433086178,0.950517531540309,0.945146187529973,0.953251776178271,0.965991985533385,0.98486157403025,0.98518051186284,0.975496715720325,0.987907358734859,0.963674553509242,0.971824501589957,0.997622706886442,0.972785931796234,0.951845591084385,0.950770145770481,0.959718685560558,0.961294471650244,0.975935010637587,1.01208590272914,1.02036897605997,1.03467805551635,1.05196448220849,1.01167720261363,0.942291786153019,0.924833236756663,0.920831216839859,0.919532275421102,0.919007502485552,0.918289778862808,0.918510404122758,0.919731691152877,0.920213440585979,0.920885252593436,0.921380691011108,0.921457013369377,0.921569690233459,0.921700755085359,0.922015763478424,0.931395086074722,0.96741176277463,0.965312065486115,0.928562864383266,0.964255642817435,1.1337074629955,1.15948250712273,1.14429971501577,0.978664084100221,0.937832230879074,0.944050984715121,0.960817750699645,1.02379884353818,0.984267340365138,0.958020628037901,0.956518275576182,0.958128589067023,0.99070944140154,1.10677322588403,1.09312957013938,1.12275872601014,1.06226721724494,1.14184143789034,1.23933941569107,1.19841718128611,1.19027781553637,1.17216156777053,1.07514558393071,1.06621310326626,1.06316415731409,1.04100991227133,0.997012797815724,0.958501261927457,0.94980452843478,0.941417110039862,0.93997906309196,0.941406314076681,0.942426807606706,0.942820974120521,0.944513468203425,0.946762569331923,0.999443914931603,1.19387599148621,1.21625198723941,1.23214234291395,1.14278167763135,0.986752595231748,0.950631253968901,0.951131029298803,0.991584691252932,1.11364640844777,0.992284631859958,0.95151169383895,0.949142319879808,0.949646345099192,0.950075904433723,0.950303499224152,0.950719210185414,0.950784157111522,0.950473725435386,0.950256904689934,0.950631063887013,0.95067415073727,0.951990340033665,0.952859009978249,0.956897687401672,0.969545636389195,0.967225123049284,0.963894887046721,0.97350105269346,1.03684371992893,1.11503639568905,1.07994207221549,1.05401789362869,1.04060632864209,1.06516892008447,1.18099121355572,1.21915352161583,1.16909046267907,1.02891347599673,0.983017548754947,0.978232799011545,0.977190395796793,0.994197960876427,1.06290062713755,1.07729251517691,1.11444021674419,1.15012420177964,1.15616664379023,1.14537786721354,1.10631160889239,1.09912745684769,1.09815279781251,1.11979791074867,1.16378784528562,1.09713429340728,1.05853962547757,1.03627464988339,0.991410317934056,0.978678841065969,0.965134694660554,0.960772957152716,0.969051162664115,1.01266174207562,1.0654732745701,1.11761174264112,1.22044793675188,1.1355394658946,1.00349009175346,0.975498205044801,0.974907175767155,1.00704662009394,1.10482286349392,1.00730971193516,0.981077980985266,1.00241360343219,1.01684775684696,1.01886626327324,1.0352684884828,1.11498667387584,1.14336698227563,1.17375027581086,1.22610205678989,1.22813592958383,1.15381262323064,1.06190751772174
1.04375545722327,1.05314213270746,1.00002624554195,1.0009881968614,1.05063908565415,1.01373643809871,1.05245544370152,1.05092146975829,1.05361050244903,1.01100433181118,0.975876669692672,0.960800825489072,0.998541397473013,1.06135563908853,1.12175327863066,1.11489864598823,1.08021460839989,1.14085411878221,1.03826465346252,1.0427409353573,1.11930927629754,1.03831466233566,0.979815776075622,0.980912140883278,1.02214392089887,1.03165033873025,1.05534632858864,1.04122040835757,1.04616154292471,1.05918928037555,1.06820294914711,0.972366610488789,0.928568873232078,0.922022150975927,0.919238018920239,0.919896015443618,0.918858579666779,0.918986144252554,0.920547314416115,0.922875444831515,0.921514595394272,0.921210928166266,0.921319502188876,0.920995789658702,0.920889329788073,0.921274278609076,0.922444620704007,0.960201782818699,1.10747749259513,1.10765112772844,0.973392361454438,0.999496818610853,1.08655940775733,1.00461193885076,0.977342620521128,0.952415982664469,0.972425553411797,0.984220963326124,1.01910286166211,1.10111670564366,0.992857140065635,0.95905535150225,0.958207137049113,0.95715576850293,0.973632725312596,1.03730886428588,1.02954653549157,0.995391692708877,0.970726516919309,1.02376514607133,1.14699058726547,1.03305265863602,0.995403936520212,0.984995942444191,0.963198150894334,0.965954546463349,0.996924653735749,0.966495881947935,0.943390943125147,0.939253353343742,0.939509005898838,0.93965184775408,0.940611884260344,0.941401061449398,0.942926255564891,0.944696398168899,0.945573193406841,0.946583269968236,0.95767871358728,0.998969224557917,1.00955553721629,1.00902616842448,0.993698541324095,0.95768424508635,0.949175175928354,0.949650050411319,0.959763832384398,0.990045599853237,0.959669862960089,0.949695831291865,0.949266632089215,0.949566554751587,0.954801681405725,0.968745009488354,0.954719312605887,0.950509378950798,0.949927357313215,0.949975479838138,0.951445138479019,0.952180686501059,0.954295662734717,0.963864017334764,1.00515313104045,1.03713967581384,1.02677825013236,1.03327265688271,1.01876428610056,1.05117051007058,1.14045404194475,1.07594754944524,1.04394170631707,1.03817593310595,1.07330041784584,1.16078434408822,1.17167559154511,1.07937500691146,0.996446731428152,0.979604985010191,0.978559350626185,0.981349192473184,1.00621294117384,1.04196860081002,1.0167387422204,1.00436947600695,1.0046292688761,1.01165967395745,1.01116102706355,1.01985845105908,1.0987910259545,1.15315744194899,1.14899715256051,1.14616002118206,1.07785680501108,1.02360284089314,0.986173855849252,0.968147823889346,0.964456939021682,0.963557565658091,0.962353869483419,0.968316783650919,1.03267239738516,1.22492092462035,1.29704783988168,1.28482140958538,1.06627980438225,0.984166094409943,0.976428060473858,0.974847108551535,0.982000611915109,1.01316758656432,1.01053283838977,1.00116953259353,1.07474042700978,1.13772820370537,1.16825547537529,1.13503190584922,1.04090718979639,1.02084709462513,1.05336830373514,1.17278508691508,1.18117475726702,1.06127970720319,1.01836353866056
1.07538235424193,1.00493496464011,0.979911969024087,0.986128052362129,0.960971079009095,0.94259883365042,0.960696874652733,0.952033392025636,0.950292410914856,0.942132035197927,0.943085369948125,0.973811796917703,1.01203068709571,1.10549197943681,1.1357988030225,1.11847625973987,1.12800283550906,1.19418799718275,1.15366273388738,1.06870470229769,1.07007601612212,1.06431899388685,1.05653283178923,1.0567995124514,1.06224327188629,1.05665545674318,1.06170121299405,1.06236532972744,1.15325429272709,1.11227622938342,1.15576796098461,0.990801720772261,0.92541242246663,0.920337165080168,0.918684867412409,0.91857087254558,0.919250169234725,0.922136858595622,0.923795795653102,0.923392116701184,0.921930181847459,0.921951426998214,0.921293306523841,0.920653727759534,0.921449211993364,0.92188893276945,0.9228791100759,0.934274737560263,0.972625875042453,0.974072430815557,0.974065469438193,1.08023283082062,0.99548898301879,0.947381072038625,0.969507976796302,1.00684283482175,1.09474709209319,1.04920271675796,1.12786293123057,1.12228375469766,0.994338410286822,0.961828782048665,0.959789567725182,0.955258167273977,0.954625000130844,0.96170595376768,0.958791233348971,0.946027754207875,0.942392151215567,0.951473205148976,0.977408155502283,0.947716640038652,0.938173042491461,0.937875019292398,0.936872564952329,0.986498227200643,1.14071950786234,0.991598746511301,0.942279263717901,0.940995645150183,0.942434545393204,0.943101629523563,0.943986938815778,0.945082885111285,0.945704232713806,0.946047865923663,0.945562250852982,0.945630060262206,0.946066735930255,0.946724538115166,0.955567511775195,0.980651871361293,0.954290946476313,0.946258047228144,0.948573035852053,0.949218899327004,0.949045787787794,0.949905067472922,0.949815493855394,0.94988647895833,0.950095098197573,0.962878235081862,1.02628470133823,1.06670152911886,0.991794139553882,0.999798703685539,0.985429187237853,0.969835785040538,0.987177567383831,0.99003645942723,0.986293973651103,1.04109612776814,1.13813784076126,1.05794652810583,1.04280407019036,1.11606137048477,1.06323249682883,1.065714775208,1.14991470704461,1.11933675641766,1.05444329215047,1.05210782640912,1.11235871374814,1.14534125749635,1.13958968405108,1.02258947590133,0.983199039036008,0.978455959697328,0.97868781525238,0.999957560462638,1.06796855112701,1.03140111183152,1.04546749138575,0.993275406849755,0.97649366515729,0.975476854045861,0.975933470140401,0.992322847464294,1.06162724273068,1.07922610416374,1.02002585319205,1.00320626834357,0.988810630106102,0.976113212463127,0.96716649910743,0.965521497615955,0.965947291400252,0.966219449907218,0.966328866944095,0.97705741902682,1.05112762052865,1.21981875902033,1.35413161329747,1.31933365211949,1.04592598984715,0.977624250054495,0.976173222426757,0.974542094176624,0.974387222841775,1.00741041318085,1.11610865172061,1.04605417672129,1.01378025290407,1.04997330621793,1.17370796765516,1.18372779856851,1.02673069081825,0.987650957935513,0.995049141078447,1.02502481292051,1.03793763024709,1.04989033560458,1.08710763500113
1.01092373073989,0.978610998819207,1.00421701054325,1.02014857717314,0.963210522958065,0.947963513907535,0.982223049630151,0.954261635322097,0.930725241769462,0.941581794414175,0.944775036237918,0.934651197384023,0.937440609582939,0.956842319873979,0.959943560174288,0.966387568556402,1.0210988193868,1.05189265032996,1.05198814665726,1.04688179884818,1.05463213403087,1.04823415670671,1.0469489887564,1.04371392163306,1.0332828444921,1.02576423203478,0.955676757797884,0.939511163913848,0.980468019810455,1.04124951124994,1.09308920628862,1.01713864762587,0.935016816003174,0.932272834487549,0.920413228368789,0.918189877884071,0.919582064954639,0.923174836202395,0.924016915355044,0.922519370567675,0.921377865121373,0.921350067919878,0.921304431152101,0.921760105429395,0.923027721695659,0.923679084486641,0.923852445312344,0.925289972559203,0.928399535938112,0.92961328069273,0.938386635041746,0.966471856989969,0.9458799575871,0.978761794093221,1.08615427637251,1.14768344159116,1.17217115021036,1.13302994123229,1.12290589233256,1.01965036705406,0.968284864475271,0.9614543993904,0.9594737593373,0.955338156662138,0.952631571413204,0.948982098895917,0.945360186766132,0.943303533189159,0.942367493435824,0.941973207854941,0.941058727910486,0.940103504323562,0.940392920841513,0.949480185635783,0.986400899805396,1.0358946371666,1.1502470471323,0.991861888076712,0.943173619851169,0.943134153723712,0.945119918225166,0.945721169841243,0.946880287468397,0.947195804097049,0.946932784885673,0.946235365619784,0.94557408273572,0.945843414936002,0.945519319128715,0.944222053143255,0.977152521368864,1.07852937377331,0.98407215389355,0.983443273268837,0.988716998659018,0.962803923867851,0.97732130837692,1.00252802692255,1.02534925646282,1.00377623951106,0.990406732145773,1.03752944550931,1.21753979151125,1.15656882125287,1.05926896644121,1.16033437081001,1.10882075915418,1.05975150110737,1.12987758567817,1.1310972687492,1.11008898875258,1.20455419450389,1.16147628384024,1.06494363401844,1.06395637665502,1.15569591895826,1.15866990767703,1.15781179828793,1.15381782521984,1.06325060430203,1.02828595268692,1.03999000661859,1.09526585520389,1.10632874799289,1.14518014395853,1.04403488418581,1.01056256486804,0.984151127437116,0.979621584047662,1.00881559170469,1.10661505356266,1.08272125310727,1.10100619796781,1.00724422727125,0.979399085820804,0.976144955005538,0.974583203503125,0.986339779901578,1.02678937312437,0.996381538652709,0.970241744241998,0.965585020530221,0.964843041962634,0.965409260578197,0.966002274773313,0.966388328980441,0.967494186111937,0.968354881899099,0.968136661882384,0.970719044260968,0.988255637865792,1.06656715629841,1.27377504577534,1.24935693970539,1.02916158829824,0.976763359396464,0.974878997701074,0.974255395219447,0.97509563634738,1.0142303529069,1.16197810001178,1.13658203226691,1.01235620714004,0.991574080390511,1.04599199872078,1.12530866550599,1.01782483287187,0.9862823571585,0.987446604932832,0.994899090359022,1.0513392992887,1.2179149875892,1.33085680616156
0.966714856561524,0.978515777272356,1.04840420373788,0.987137708991471,1.02644220215478,1.00828158780141,1.00497104198789,1.01754009420904,0.965283766118557,1.00701273787031,1.01292886749394,0.951455637327849,0.920642756621132,0.915524565218759,0.913020010496124,0.914322298670877,0.927131625592674,0.93504057499572,0.959719978603219,1.01796146704305,1.06445685020763,1.02186141043874,0.949704065078316,0.933349835122987,0.930996644899463,0.929320554327109,0.910707539938349,0.905450403776085,0.910028602444313,0.933914161860133,0.964695699447246,0.958414464512254,0.957768602707043,1.00600915056119,0.937945400533597,0.917200220166082,0.918244015647692,0.921798781886693,0.922844128092147,0.921397125113676,0.920896108500961,0.921361811409778,0.921970365817291,0.923711569431487,0.924979410917768,0.925262603236387,0.925379794294518,0.926160477181253,0.927960528606782,0.929196780185421,0.931229898799439,0.933633308293975,0.952866281874522,1.01532867807229,1.02271837938233,1.12249477602758,1.12818160922778,1.03225348796043,1.02415703117786,0.974773163908093,0.961159179967071,0.960429999176418,0.956646420176417,0.954283824024954,0.959473545225224,0.987803983560472,0.986246299257248,0.952874811447863,0.943869596853851,0.942131162302088,0.941386949129301,0.940871587877584,0.941495750783681,0.981225681723387,1.13970300758725,1.15014095596726,1.02286348652345,0.953067246402387,0.943998676014335,0.945033346135882,0.946105347136087,0.946933320047034,0.947568030669955,0.948424033972614,0.948365265717957,0.948162147656665,0.947115281309146,0.94730132849406,0.945811258995333,0.940381218070513,0.947635512402138,0.973315572347515,0.98402563364675,1.12606234008988,1.15447773731743,1.05355976797812,1.11600284444875,1.20335126178375,1.29213375889631,1.198320077088,1.1393440719001,1.13653641618244,1.1393888364577,1.06927979119926,1.02110411454793,1.04451566297008,1.04928690801116,1.10675407574989,1.15591935753975,1.13753905559626,1.11847380377777,1.15740332842013,1.14328675938228,1.13144331541953,1.15373492505151,1.17245843588804,1.18736922472451,1.19404136367359,1.15181438649587,1.03988409475369,1.0131373710904,1.05359754223,1.18979792591755,1.15120829653304,1.16061580394807,1.14038812824247,1.12733330035749,1.00937726908914,0.979840040779872,0.987055803405341,1.01825547032083,1.04279603273534,1.01907390780458,0.988022145033626,0.980459444188361,0.978572603236844,0.974655718463288,0.975671290618241,0.981893047288608,0.970906616473602,0.965933038395497,0.965049617429185,0.963964371370036,0.964552772697251,0.966296757968174,0.967692743108779,0.968940124892488,0.969211168564957,0.968839868039778,0.967957472742924,0.968352701240294,0.980760153991244,1.0280546813257,1.02542204589342,0.983458714684376,0.974044281819095,0.974184747042095,0.974397554226389,0.975085202190223,1.0094446969965,1.11944401977923,1.04198479564214,0.988189026205273,0.98289563756549,0.989692073967649,1.016902617298,1.02323421149122,0.995714009793849,0.989689871648931,1.01306374267035,1.11050498831274,1.21150307002863,1.3566766147652
0.955458463107922,0.933353219313695,0.944312724531394,0.936870567253232,1.01050788647949,1.06782731340035,1.01711984353182,0.966038506436202,0.94250706283383,0.953234462625054,0.975758723473538,1.01862233500023,0.938942104456493,0.914563492951443,0.911832008133296,0.913977730768059,0.92994070997499,0.954050748428301,0.971773451379442,0.937425966068693,0.954515140490152,1.00421172974781,0.948221781452955,0.911268359583517,0.906316995476247,0.906423403778532,0.905920290956049,0.905056720695369,0.908748926543244,0.951592123149124,1.04874580787228,1.04457772021366,1.04563068651506,1.04986264014345,0.965365789406124,0.939350751433059,0.926773777079379,0.92756285904226,0.924136553191105,0.922747768528365,0.922232822212445,0.921716433130585,0.922034290533124,0.923779718125725,0.925162179390962,0.925529524888819,0.926052641820879,0.927368193804498,0.930779383554641,0.936048104942856,0.934197175010694,0.935817285042365,0.943479482915769,0.962927242885918,0.960097494725978,0.985392187430994,0.988942421512956,0.995300542959548,1.08564422704104,0.99709826388206,0.994348152532754,1.00087749442738,0.989982511495814,0.958291332814279,0.977635652944045,1.10497527353705,1.10507909685242,0.976303928102464,0.942962289050721,0.940725424260483,0.941155411465706,0.941157285857318,0.941577714307485,0.9517793470329,0.991809453437013,0.992339718114958,0.953928346883571,0.944048420693339,0.944851474283822,0.945876905938099,0.946897142763219,0.947911598080068,0.948624899628265,0.948906679604895,0.948825548793337,0.948726064180039,0.957521572422517,0.993844803440562,0.996645562432489,0.989603503506654,0.980754758633239,0.957449517292617,1.00240960392654,1.13141370871516,1.19088162514065,1.19828271155667,1.22513777008278,1.20463201820251,1.22022198237528,1.17347997092689,1.15377864132,1.1467840572718,1.08495401528022,1.08582006711834,1.02075519719388,1.0031913996559,1.00862064831623,1.03952720480104,1.10705380455814,1.13379145654679,1.06372699122494,1.03798116059014,1.03418624463917,1.05693912731339,1.1397430295744,1.11884742423401,1.11286666887207,1.14338443775655,1.07754582600856,1.00835890441309,0.994546442000697,1.00426518141269,1.03749785222484,1.0514322021449,1.13908856371245,1.11285134399217,1.11283352293387,1.00770395741001,0.979654827362404,0.980524405345929,0.984172239930731,0.991976242518232,0.984352045743163,0.981222151710511,0.979339399451107,0.977890971525304,0.975324738692528,0.973529148166181,0.971418343765873,0.968184661644711,0.965669302111434,0.964320682868036,0.963902283830669,0.969924727793469,0.985332730252696,0.973459669371846,0.969838263759804,0.969820229616963,0.969090179197631,0.96748094187663,0.967778065404216,0.967930878482431,0.96834242904704,0.970187033044426,0.972500224137713,0.972874497493126,0.973486541979854,0.974106388011246,0.975156781229719,0.985356049124809,1.00768133512118,0.987798443915639,0.981300612303252,0.981919927346846,0.982889293753043,1.02360364605734,1.15014035898408,1.03152631964619,0.994595555477596,1.02870372914066,1.14094854637483,1.14052458981174,1.27859088667379
0.936920573461022,0.947100592789953,0.954345970804273,0.965661882876271,1.02886799714977,1.11824403611299,1.08260337255693,0.978073274313321,0.943035803716866,0.93453652670136,0.964172424010209,1.06329900806535,0.950607207132269,0.913598045311058,0.912125224493202,0.924816751263926,0.993914737209697,1.05108238731463,0.947596353272431,0.904384690333068,0.906385660213892,0.945006983857083,1.00534331709702,0.929674203543176,0.906689926654525,0.906596522427444,0.906528659283207,0.906319187237425,0.928246792794239,1.04988881436767,1.17629580950606,1.09646338053007,1.09381967993791,1.08661848339936,1.03786155690921,1.00942015784606,0.948406011570151,0.945785507360968,0.9299534125915,0.924965923306199,0.924252616727562,0.921617632274542,0.921741998459252,0.92447855895221,0.925990308949554,0.926927341055021,0.927081174411102,0.934142001236695,0.966054043552202,0.985367172987826,0.947631744310623,0.939735345231392,0.950399012403728,0.975580142795018,0.95706379821743,0.952802819784659,0.9538492213039,0.968177156486497,1.01883831779154,1.03102736241839,1.13387950044107,1.13825544641534,1.09606684618072,0.973851010339724,0.95133759248912,0.982691745094745,0.989833775407731,0.979724278171053,0.948737323402619,0.94760777095859,0.97243919177501,0.948970230998786,0.941867585792783,0.942248298042386,0.943729535010426,0.944745817068844,0.944519413778096,0.94400900772006,0.945163150478222,0.946219358260767,0.947343373080602,0.948124456037999,0.948714950141956,0.949329218374092,0.949208226281649,0.949514719822035,0.988094561882005,1.14094387379901,1.1730751849223,1.1511976970006,1.12017047450405,1.03990082028744,1.11805230403027,1.162689768326,1.15084619169162,1.17022063840829,1.18598336363922,1.20444640810111,1.19580600721218,1.16820982264043,1.14380322491579,1.18081250214882,1.15752677033658,1.09125445088891,1.04397231633522,1.02464410409013,1.00371956716439,0.999850567716746,1.01168767898975,1.01923883726192,1.00620681266042,1.01106379842868,0.997905569190471,1.00125048592186,1.02731424498147,1.01731164956338,1.02603494428179,1.09051388170909,1.09771862052866,1.01242569713797,0.990189536415911,0.990301892181196,0.990882203423063,1.02371862736182,1.13776127153998,1.06592644536149,1.01573330875506,0.985614102462048,0.979496261946025,0.98011016062741,0.980435894515225,0.980749909404456,0.980375699408923,0.978874348031008,0.976620402417803,0.976002303613862,0.977146470419803,0.992043999981549,1.02291898999647,0.980884882374684,0.967164062498118,0.965537703224906,0.972150062356779,1.01395043941543,1.0501428435943,0.989097259887106,0.97157484007655,0.971071172923955,0.969767945705552,0.967646158399587,0.967376695191059,0.96731044139787,0.967797862820968,0.969998108097769,0.971899587108765,0.972490910317678,0.973500673775176,0.974664781636167,0.97633886336367,0.979516946606817,0.98076931964945,0.981113089163874,0.982071158988401,0.982281183643711,0.988936751675359,1.0517732279632,1.17645694755108,1.04202065829101,0.998850741145506,1.03543124909532,1.17485822022456,1.20584835856694,1.20172543679517
0.985778950946482,1.04627845789794,1.08782305851937,1.11972397470303,1.13086297736587,1.18552327097612,1.11729439488192,1.04135168259444,0.971230605272719,0.933100591166701,0.93275375552324,0.952666345206259,0.925234851985968,0.913600922385387,0.912385661524323,0.915455522954372,0.943005205776007,0.991314712790573,0.922895206820935,0.901183519774861,0.90076342551099,0.920893613928949,0.983320776244663,0.943277468097288,0.937440413600877,0.933168070958582,0.923013030232655,0.952739305777598,0.951509797294555,1.04602247666929,1.11659479105961,1.09313158706388,1.15128593723796,1.07758195272112,0.995094195267024,0.957187881448857,0.936290969619929,0.935378219749317,0.92949203206498,0.927276248793426,0.926031216367547,0.922858804107976,0.922521706725315,0.925423255598682,0.926181860325764,0.926289360131429,0.926964911658699,0.953826863398025,1.0642579971772,1.09064907195461,0.973236200965519,0.943555505576512,0.97918504135708,1.09036586430842,1.01142858088542,0.965007604060797,0.987369230296192,1.01848362069379,1.11982064669106,1.14848665486292,1.13413156371139,1.01865866550726,0.979408261268665,0.949132013611078,0.942279050761393,0.942793008861185,0.97163737945006,1.05869644686013,0.96796519941918,0.971669134828123,1.07219341051225,0.97460106000475,0.942948617444194,0.943220957850418,0.946594418737093,0.95008791082232,0.949563694878848,0.946991255551248,0.947613726014268,0.948114630460084,0.947980247846771,0.948444353914586,0.949634485666913,0.952268203925499,0.953317123023112,0.95414815893031,0.964701434122473,1.02289790558051,1.0922709703554,1.02887919502292,1.01831032722896,1.06820190334111,1.12425464890635,1.13621454384692,1.15314381768114,1.20164193460623,1.20902648981744,1.27903201513245,1.25112119828499,1.24087278979682,1.25495806330501,1.27242420187705,1.234939026488,1.26698301950667,1.19536162717398,1.15121255512254,1.02203717494817,0.990417919416523,0.989078249625895,0.991934067856304,1.02647597700149,1.09455670792851,1.01547199792676,0.991462844622122,0.993336739158554,0.992717904597773,0.997073466509674,1.01276030253929,1.01836064274444,0.9972042517576,0.990353183585805,0.990203178252994,0.989771208697854,1.02134358801878,1.15134163617949,1.13418666016847,1.01087823480538,0.98002060412013,0.978989859616397,0.979655795181557,0.979906335647737,0.979759415054052,0.97910450587049,0.977054107108028,0.976517570122875,0.975681569897585,0.982089061796585,1.05390468288904,1.20166924881512,1.03512393333915,1.01002611249432,0.976899838936143,0.996915089225399,1.10522472899877,1.06528119446153,0.988327630685573,0.973080909992541,0.972909057201761,0.971231187386556,0.968237431512398,0.967700059582666,0.968390965689159,0.969008132748625,0.97049444299232,0.971304050479879,0.972293095640017,0.972617139470634,0.973932012492878,0.975490394793389,0.979248953217921,0.980616683188954,0.980954316378035,0.982534976631648,0.986658618477217,1.02034032962254,1.1113954667601,1.06722763994736,1.0166667733652,1.00920678248789,1.05861233481721,1.19399657094651,1.28362146363026,1.21816637561937
0.955913342494965,0.937767147737281,0.988462045072198,1.14024413833304,1.15336553517851,1.11831150068517,1.09571426431149,1.04418588772993,0.953496370031388,0.926685997966856,0.924232899635094,0.921280326058467,0.918839172591045,0.914920955282939,0.914246649193087,0.917807078955549,0.920163606766082,0.926794512400162,0.921762069060339,0.913928323329753,0.926216834071277,0.929736958314036,0.952707855659361,1.00462310481802,1.05659028101533,1.0602993693513,0.994559438049585,1.10785367659913,1.02622052971611,1.06027497540725,1.17085153303429,1.08588959648568,1.09393895652903,1.04854124527257,1.01300100768926,0.950289787551877,0.933369145273572,0.931595353584438,0.929788331909667,0.928684583128582,0.927393980221049,0.924496210663719,0.922894643927184,0.924558989272496,0.925411416135373,0.925668060092617,0.926419091262393,0.935866111173387,0.99126537953276,1.08909189999819,1.04826593874206,0.994224196586061,1.02003113093119,1.15034008610368,1.12614190130709,1.01034960012079,1.09888573495514,1.14638088847322,1.14254299500321,1.11516555417346,1.00428432515556,0.948756184305338,0.940679457667454,0.940220818977016,0.940064696985007,0.940429556886778,0.948120148933718,0.969309127691475,0.946631484251125,0.949777200610271,0.975708195826606,0.951816978412628,0.944711538972099,0.946452400923531,0.950437397222987,0.951468340681271,0.950545153657386,0.949142538601045,0.948144607114699,0.947875032499504,0.949694591791071,0.952292940990928,0.953544545050848,0.954013868420301,0.962949221375521,0.993494848797429,0.987807239651992,0.986624290672127,0.990511800600498,0.984465335196647,0.971961879079002,1.00543291804146,1.09005886544046,1.11949099712944,1.17412230445885,1.34535038382789,1.28554643402012,1.27656410266125,1.27287661505528,1.2645999036822,1.19904423713141,1.26760406753838,1.35566848768166,1.35694476230479,1.28319883661141,1.30134429675089,1.06401513559771,1.02638032873392,0.997474474858202,1.00913404277951,1.12029762338776,1.2036733685189,1.03877224479795,0.991267412588117,0.99064109119716,1.00007407068929,1.02890551623614,1.00415985100235,0.995829015682533,0.997949485206469,1.01444649500421,1.01380466993066,0.993836280026214,0.995739817286505,1.02565443040059,1.01865209908873,0.986528006214072,0.979116563213155,0.978610661131668,0.97824553202837,0.978162100685678,0.978431383395079,0.977745137368706,0.976715422829253,0.976116246115142,0.975133165377217,0.976263548345199,1.00993022411835,1.09617333501226,1.04333912226357,1.14905122865703,1.05823135774419,1.0247050661987,1.08972091816834,1.17582130759437,1.02023199034518,0.97469973401541,0.973656181175188,0.972278686504818,0.970926014897348,0.970952408622501,0.971314404451726,0.972021001900307,0.972656405858299,0.972820792992629,0.972632726276078,0.97220817433469,0.977323965748464,0.996101633857266,1.0112938469156,1.01034508742236,0.992432598805713,0.990043625642086,1.00611740824918,1.05307818481265,1.11556301669075,1.04921498219144,1.01290714263996,1.02848086568001,1.12230879490664,1.18359751185859,1.26971490382767,1.28764438761951
0.983818026277892,0.914801047541764,0.951008016808755,1.15574051669583,1.16619647062771,1.06695201120097,1.06271985911718,1.06057291932648,0.971580224161324,0.932375227076629,0.934016710848446,0.929481912535489,0.9241310498567,0.925459009940105,0.929506630452927,0.948097342719712,0.947574247369541,0.937249970249583,0.963281422581701,0.950905218301023,1.01449685496528,1.01600318244,1.01299442630344,1.01984194991625,1.0716659128484,1.17992002942342,1.03815235692558,1.03232415392105,1.01834420739824,1.02784909219989,1.06108227403209,1.06451770226453,1.11476256922974,0.998739077218024,0.961202881167012,0.943915613172878,0.934937929947195,0.932642539322653,0.931033014929689,0.929201414846812,0.92816757002661,0.926497589706286,0.923464881989961,0.923356372925065,0.924595585930351,0.925507286109956,0.927438203779082,0.932001649837163,0.941756563050608,1.03084285443729,1.25210348210438,1.15075826508991,1.12770117528145,1.17619104543788,1.11873172717146,0.983049874731487,1.00806855118781,1.10175671347506,1.00779593731634,0.97120063338793,0.944831455499298,0.938646976803507,0.938708813395098,0.938899270537784,0.938883438467798,0.939114815775613,0.94011804178565,0.941093052567497,0.941490882171023,0.943058459047998,0.944511831386958,0.944626973772445,0.945106467987104,0.945869310596899,0.94997293952697,0.949051933559295,0.948232920681975,0.948403494291597,0.948924492047418,0.949080375228443,0.952518755926751,0.954798146453499,0.955515840014172,0.959909947285665,1.00777790095169,1.11640657711379,1.08708657366283,1.0555577883548,1.00015801277755,1.03545516281317,0.985386377863458,0.973971563734407,0.992065728285902,0.9989041164736,1.0183964398886,1.09307674013453,1.11792644681892,1.12327564981494,1.12907805801302,1.17653380891244,1.29298563480307,1.35065057581849,1.38645961147815,1.32731476994717,1.29696042470483,1.25562353847623,1.0780397380021,1.13888092738727,1.02310261617149,1.02621843442125,1.19329118085931,1.21161497894295,1.03624358445546,0.991245836896064,0.990835521213564,1.03094546230834,1.15398353005104,1.03583601306226,0.997643911307662,1.01400634861686,1.08650844215443,1.09758276573072,1.06657853529896,1.04604075147713,0.996541840073781,0.981277823442853,0.979217683943138,0.978615730479564,0.978356336136525,0.97771990610358,0.977687257108666,0.978405101451804,0.978428281799697,0.977455817479665,0.976567571650693,0.975776724021053,0.975138284178938,0.978815720343892,0.99186921858199,0.996938455497112,1.09852808660993,1.21900355301758,1.1848383324933,1.16233098030221,1.05850588686269,0.987277909594127,0.974863278158845,0.974266250124457,0.973705277287289,0.973602218118856,0.973143237765748,0.973430607127778,0.97367709119327,0.973688509076649,0.973436410361501,0.972336399943163,0.972474635774407,0.993706429323375,1.07696962525379,1.12580294947824,1.12441724681454,1.03690002355934,1.01493047491962,1.02726706144405,1.02193470546351,1.02632581907137,1.01358273297121,1.00883086332662,1.01580592340044,1.05003780751415,1.14622565657622,1.34306049939946,1.28633095068792
1.05233366386365,0.949321073609877,0.975204400136618,1.12980129764896,1.13837594562235,0.975528378523563,0.956922928786845,1.03943479482206,1.05295295612701,0.982316363235108,0.984816376779318,0.959129515752622,0.944155212158385,0.961795742201865,0.980808023296779,1.00556124363411,0.985644926876925,0.96824265988116,0.974032621984568,0.974136677072659,1.00236965036214,1.04885503647871,1.04905391681294,1.01023403429861,1.04346282976561,1.17022223221297,1.03223173246103,0.994943955130761,1.00169598325114,1.02011903362281,1.05184957350085,1.03579465024669,1.0112408365462,0.959208552316673,0.953301051812872,0.98041876857838,0.950746246185656,0.95268628938015,0.934876036285421,0.928954574790734,0.927403589979708,0.925889747255831,0.924037238413781,0.923360713798677,0.929851309543996,0.955740773562345,0.962266185465297,0.952145782979515,0.934660025762548,0.948678440074287,1.01528675816508,1.01234082508518,1.0147764736935,1.10078513581926,1.00308068166872,0.945765498009568,0.945069130602529,0.967132910772942,0.944083239384649,0.936698378076944,0.936740804038069,0.937371016015531,0.937531056548531,0.937635420425087,0.937964710372979,0.938738141481676,0.939902875184657,0.943715877197889,0.952736800118996,0.947632963242255,0.945432505466582,0.944831633773315,0.944659380172235,0.945062734063314,0.946120572741229,0.951161597329634,0.966441672340554,0.954202913027325,0.951545188662171,0.95395276989949,0.955578512029213,0.956250143300094,0.95926136143394,0.977988025135907,1.04673125477122,1.03506468229883,1.00126770834244,0.990216764909751,0.977238494733168,0.986794282468339,0.975319991844897,0.977402050495493,0.996321168769704,0.981233347161843,1.01557805270247,1.10786367990568,1.25281792877898,1.29441191988638,1.28754072846662,1.28840366449045,1.29443428966034,1.29117775681604,1.28957576721412,1.27674151927006,1.26769573067252,1.15861894018374,1.03591524076405,1.02379456064001,0.992158743818654,0.994361282189733,1.03620245269505,1.03542977860907,0.9988654374537,0.990428857165479,0.990235341218414,1.01962375452432,1.10965283791116,1.03365758733475,1.03315692488238,1.00871025897413,1.01792977057971,1.06509553698731,1.23629607862477,1.22898679945671,1.03261511990617,0.990954253862124,1.01844980540641,0.988274068946691,0.978931980899656,0.978575846097731,0.978932330949001,0.979584847285856,0.979391491725577,0.978614947286649,0.977242527034221,0.976530461252831,0.975780127426688,0.974928305388692,0.97563732964463,1.01085287181931,1.15612899734789,1.18709335936475,1.10645720838359,1.03394557103728,0.990674663988122,0.977413546629123,0.975273029860829,0.974838612237387,0.975970757894452,0.976671938165603,0.97764627490676,0.976294508436765,0.975443623332672,0.975029881317007,0.97466419491566,0.97654660796894,0.989365743397878,1.00206771528434,1.07924698907024,1.11099187877071,1.13756304181314,1.04050749396305,1.01966932568344,1.02070677036754,1.00795362812017,1.00486130595594,1.00673383369417,1.0105894880895,1.02408981824831,1.1029019725884,1.24247540679322,1.28124703557933,1.12286478451271
0.947137054886105,0.972708885234268,1.05842480733174,1.03572412153974,1.00317965886705,0.925810323796329,0.912414436858821,0.957442369449606,1.06017935249096,1.07009298860857,1.02931029321331,0.95796262239869,0.981664693042778,1.0255353556161,1.05856689112032,1.11851226106729,1.03550560130697,0.973110259428713,0.965088070614606,0.968530956560077,0.974828704418121,0.989599832644661,0.988249538549275,0.982719960198458,0.987483049490098,1.01480551876909,0.989261451821074,0.982179834444751,0.988575750607103,1.04032296575943,1.13971361630519,1.05197254103018,1.01173267643705,0.956105996431564,0.980938821193732,1.09951883756832,0.999468707550691,1.02972427512142,0.950265060705684,0.927436322418071,0.926018568234968,0.923626945736459,0.922854057592398,0.923517502635585,0.950577433552549,1.05175008119345,1.06734449561842,1.01912715264193,0.953969652136717,0.963816357922441,0.994464007355268,1.04607932257941,0.971044247610131,0.969450698035651,0.946658171634406,0.937218467465854,0.936139797810246,0.943766610582679,0.967902427633623,0.946012104818849,0.938110496359109,0.937503817183155,0.937193241358809,0.937427614987534,0.938328134444254,0.93888587266346,0.942856868138244,0.9622111962913,0.992004443851997,0.973153601812214,0.949380765045198,0.943519520077992,0.943560543908641,0.944436010413085,0.944535765691417,0.968501583415424,1.04608925231828,0.99766532006947,0.979275547059,0.968199457518757,0.989553420034572,0.975882470181458,1.00825367680733,1.01564988034428,1.006938419146,1.0402727711509,1.02176830784435,0.984631168254131,0.99408422423711,0.985112883282826,1.00875419319632,1.02985092100556,1.14601795183669,1.07294042220156,1.17322700572031,1.24679209015511,1.27558264836236,1.31708557838651,1.35130078951494,1.30843565567713,1.10902852857434,1.05836448368763,1.05305355913501,1.05264512596896,1.11195121645945,1.12042314185153,1.07393115818442,0.99836157491952,0.981536814738544,0.98297295546072,0.987807426896969,0.988650156418049,0.98904656808303,0.989767761191903,0.990186807670786,0.996848125849267,1.01452113162111,1.03616899025339,1.14142200379957,1.03078324118183,0.995490934055489,1.01546909806765,1.09675553902505,1.10168661311633,1.04449582812782,1.04123209392197,1.17421959204898,1.03751975629176,1.01582059622423,0.988452486216868,0.980274406575993,0.980588559620302,0.980440952970609,0.979533021882162,0.978680877919279,0.977745341073126,0.97709495476805,0.977049167973934,0.977893568253197,0.986779804049192,1.02046639328089,1.02766633326833,1.03319360293231,0.991212575940176,0.980904013623312,0.984143008895976,0.999478662038161,0.982177452775333,0.978389048233786,0.979050561410238,0.978616506512906,0.978079446867047,0.976678518247391,0.977433251697098,0.987183002804175,1.02885139883843,1.07105825587817,1.03063364096863,1.10200799553206,1.167626752371,1.14660392180176,1.03610012239745,1.00673687246718,1.00521942768436,1.0038755588732,1.01541367653081,1.052722136994,1.05246778884136,1.07428156884203,1.2481861387308,1.1647817875671,1.09110039361728,1.04481467848428
0.910164910058754,0.920230076252157,0.941176823768469,0.928038587442262,0.919093710447948,0.908467245863224,0.906959742038143,0.914497388668854,0.964695610745184,1.04969061009101,0.978957244902254,0.956351482298495,1.04730472909857,1.17162203081136,1.08834438284329,1.01800382368673,0.981396790400528,0.965618193728531,0.962027595957574,0.961098136838743,0.963481998163431,0.966774488438914,0.968328095782657,0.970933886868267,0.971989788655127,0.974541918151548,0.977454155496105,0.980164600878395,0.991525396911983,1.02464114739904,1.04784944660019,0.977418170359794,0.956426354595739,0.942822991550497,0.952740061054918,0.994156849136288,0.970495094554817,1.02802112272251,0.949612433730813,0.924974937365374,0.923746000951967,0.923110544720475,0.923492408617928,0.927479578993597,0.941963992357567,0.969599069600092,0.974168321494945,0.963370254254923,0.970267141544526,1.06583384977797,1.08697930536945,0.99461066855122,0.9459593688929,0.93984630683738,0.944411178233344,0.966299122301034,0.971855162008956,0.984005587836369,1.10400493122449,1.00793314759184,0.945773594189077,0.937561996573438,0.936339147969524,0.936532803653566,0.937678635826751,0.938780583695957,0.950275597742388,0.985072227327238,0.97958853524218,1.01622690980079,0.960281834710869,0.94258138217309,0.942496415593266,0.943066603304304,0.944110882441126,0.972201154612154,1.07882557097903,1.09516130070096,1.08995945350961,1.03917157322122,1.10328702159789,1.03416613393113,1.16746635142459,1.20115955150417,1.01943335283957,1.0329828427222,1.19361826524432,1.11046263002507,1.1091121239709,1.03363544347745,1.11824129859842,1.10645783907109,1.27847415569516,1.18908117766866,1.21681081170511,1.12553348530898,1.06751798577983,1.20295626628388,1.39732880508925,1.37722946892519,1.12932667043957,1.08011022741208,1.05340994688685,0.991235673134518,1.01898713986633,1.1190224246526,1.08143755548368,0.998055177547211,0.981540198513455,0.983214659052419,0.986876650538697,0.988062036248026,0.989096236819465,0.990106893839109,0.990936792815971,0.993108141211935,0.994492071111446,1.0033369651748,1.0341655286469,1.02123330068897,0.999449077757003,1.02937343398399,1.17025946721671,1.21274130000183,1.19513192092895,1.08654919311701,1.17931971114288,1.09970755639332,1.14736994594797,1.03477057738558,0.998681237319783,0.995734691823624,0.985999142706493,0.981650455598064,0.981015207011329,0.98041421166976,0.980062560949868,0.979763068318445,0.979814129043978,0.980211642109054,0.981225030532047,0.983397930619093,0.990310756205035,0.986879023164117,0.993726001614469,1.0058828454122,1.06767483717104,1.00226889358377,0.981881251044352,0.981699217191545,0.981358768666623,0.981297581059712,0.984501336384471,1.00291390399014,1.05282411999584,1.16996420693488,1.1481235063086,1.07933244568677,1.17716281149831,1.15776329008094,1.07026170588367,1.02864099091137,1.00852692287319,1.00466827799828,1.01457108849665,1.08444818797676,1.23761441118489,1.23697531788032,1.12856451119074,1.22396736093877,1.24303368536382,1.07868974710576,1.03536727253588
