1.80141293396251,1.77645420411917,1.77655859424399,1.77614103374471,1.77368312080577,1.81756493327557,1.81465149979195,1.85270644529453,1.76408871933367,1.75925830355791,1.75842318255935,1.80473443793405,1.75675294056223,1.75349786667011,1.7995244217044,1.74889521116668,1.74700669890858,1.74610514783058,1.7427361938023,1.74216679312147,1.92346396989981,1.84719274870176,1.73567562535993,1.73637788619963,1.73583695555283,1.91586247081065,1.7368334067443,1.83225547084115,1.7409900317144,1.79876522079662,1.86874456447142,1.89466178546083,1.86453099943323,1.89460484539275,1.85840994211424,1.85529721839234,1.85256409512432,1.89247908285096,1.89297256344102,1.84640507775994,1.89152059170489,1.89079935084249,1.76848259458746,1.89067598069498,1.83771222736583,1.83491267401839,1.76326308834646,1.7643544396514,1.8366018960382,1.83677271624245,1.95407874650612,1.84119506153028,1.77076019731081,1.84803735971167,1.96815243333413,1.87829151588678,1.95859599190743,1.852118064591,1.92353039997925,1.92452685117071,1.8479234795755,1.84672773814575,1.84447860545644,1.84507647617132,1.84456401555857,1.93635140530941,1.94084967068802,1.93216631030527,1.84559842679542,1.91302495741781,1.92694680406426,1.84317847390186,1.93660763561579,1.8432259239586,1.92763008488127,1.84387124473022,1.92998360769539,1.92538095219196,1.91847222393115,1.92476410145439,1.84076801101966,1.93075229861452,1.83905980897715,1.93174874980599,1.92427062086433,1.93749969668243,1.91566318057235,1.9087259822775,1.90760616093852,1.91726699249004,1.92759212483588,1.83116411953621,1.83196128048939,1.83265405131774,1.82920917719868,1.91871896422618,1.75073627336806,1.86492008989847,1.85235531487468,1.80293133577807,1.85617978944763,1.85989038388442,1.78708301682812,1.73548582513298,1.73634941616559,1.85592355914126,1.73215483115009,1.73160441049195,1.73397691332877,1.73221177121817,1.84891993076697,1.73541939505355,1.73377762309047,1.82029805654358,1.78326803226652,1.83324243202127,1.73583695555283,1.73954754998962,1.84156517197283,1.74018338074989,1.73849415873007,1.66818266465811,1.66818266465811,1.94867893004952,1.65936644411649,1.6532453867975,1.74959747200638,1.6511386042784,1.65001878293942,1.64672574900192,1.69468826635105,1.69471673638509,1.64402109576794,1.64477080666438,1.64309107465591,1.64353710518923,1.64520734718635,1.7040928675962,1.75048004306168,1.69195514308303,1.64429630609701,1.76601519163717,1.64357506523462,1.64553949758351,1.64344220507576,1.64388823560908,1.76637581206836,1.6406806117737,1.64197125331693,1.6403389713652
1.90722656048463,1.77737473521986,1.77685278459576,1.77437589163412,1.7740911912937,1.77142449810512,1.81688165245856,1.7666035723407,1.76480996019606,1.7618870367011,1.8510741633428,1.80691714054393,1.85300063564629,1.80060628299799,1.75487391831547,1.93673100576331,1.74731986928304,1.8292945873008,1.83050930875325,1.86213951657372,1.74354284476682,1.79003441035712,1.73987970038677,1.85511690817674,1.83980002986223,1.73877885907049,1.74103748177114,1.91169635582919,1.73916794953573,1.90124785333584,1.90018497206495,1.79742712919665,1.86436966924033,1.86528071032967,1.86026998433831,1.89498444584664,1.78362865269771,1.85233633485199,1.97413114048292,1.84836002009748,1.77060835712925,1.84598751726066,1.76895709515482,1.83915470909062,1.83580473508503,1.8904387304113,1.83736109694598,1.88954666934465,1.88743988682556,1.8392116491587,1.83943940943104,1.95970632323506,1.96393886829594,1.85256409512432,1.85218449467043,1.8822488506186,1.97712998406866,1.9345008530967,1.93303939134921,1.92450787114801,1.94372514412625,1.84923310114143,1.84699345846347,1.84518086629614,1.845313726455,1.93713907625124,1.84443115539971,1.93409278260876,1.93116036910245,1.84516188627345,1.84528525642096,1.93408329259742,1.92486849157921,1.84545607662521,1.9315114995223,1.84422237515006,1.92496339169268,1.84194477242672,1.93347593187119,1.92995513766135,1.84166956209765,1.92738334458624,1.84037892055442,1.84029351045229,1.91708668227445,1.92451736115936,1.91908907466872,1.83616535551623,1.92134769736937,1.92348294992251,1.83267303134043,1.83045236868517,1.83246425109079,1.82919968718733,1.92500135173807,1.90261441496985,1.8590647528972,1.8550884381427,1.74675995861355,1.74408377541361,1.74117034193,1.74006001060237,1.93857206796468,1.73693779686912,1.83310957186241,1.7338630331926,1.73308485226212,1.73354986281814,1.73392946327203,1.73100653977707,1.85190928434136,1.82126603770101,1.84882503065349,1.93211886024853,1.73682391673295,1.73481203432733,1.84663283803227,1.78608656563666,1.73844670867333,1.78790864781533,1.78658953623806,1.66752785387514,1.77253482943275,1.76845412455342,1.70500390868554,1.70385561731251,1.75177068460491,1.64828211086287,1.64615634832108,1.77045651694769,1.64646002868419,1.6453971474133,1.64467590655091,1.64355608521193,1.64406854582468,1.64326189486016,1.64378384548426,1.64541612743599,1.6420851334531,1.6908448117554,1.64202819338502,1.64114562232972,1.64103174219355,1.63944691029856,1.64202819338502,1.64116460235241,1.64222748362331,1.63991192085457,1.64143981268148,1.64063316171697
1.80585425927303,1.77957641785242,1.88725008659861,1.77757402545815,1.77408170128235,1.88131882950656,1.76865341479171,1.87257852905572,1.87549196253934,1.76425953953792,1.75996056439761,1.8686591543693,1.86643849171404,1.75643028017642,1.75424757756655,1.86628665153248,1.93357083198466,1.74678842864759,1.74457725600367,1.74489991638948,1.84679416822518,1.74219526315551,1.85065660284352,1.85422484711009,1.85194724438675,1.74105646179383,1.74129371207752,1.73997460050024,1.74363774488029,1.8752831822897,1.90234869465213,1.87028194630968,1.89894178057845,1.90197858420958,1.89795481939834,1.85918812304472,1.7845491837984,1.85239327492007,1.8514158037513,1.77563806314331,1.89536404630053,1.84563638684081,1.7702572267094,1.84136588173454,1.89183376207935,1.76621448187546,1.7662429519095,1.83735160693464,1.88760121701846,1.76693572273785,1.76926077551794,1.8428653035274,1.84348215426498,1.88359643222991,1.85564834881218,1.88229630067533,1.88033186832645,1.85606590931146,1.93018289793369,1.85168152406902,1.92360632007002,1.92270476899203,1.84890095074427,1.84780010942799,1.92074033664315,1.93029677806985,1.94175122176601,1.92083523675662,1.9316918097379,1.84687008831595,1.93456728317613,1.84560791680677,1.93061943845566,1.92296099929841,1.93220427035065,1.93610466501439,1.92758263482453,1.9177794531028,1.92497288170403,1.92448889112532,1.8435675643671,1.8432259239586,1.84169803213169,1.92064543652967,1.8383670381488,1.92096809691548,1.92671904379193,1.92565616252103,1.93026830803581,1.9268329239281,1.8336505025092,1.83263507129504,1.83030052850361,1.8313823897972,1.90496793778397,1.91858610406731,1.75191303477512,1.79661098822078,1.74422612558382,1.85588559909587,1.74110391185057,1.85950129341918,1.73732688733436,1.73745974749322,1.93367522210948,1.73406232343089,1.78006040843114,1.73086418960686,1.85614182940224,1.73187013080967,1.7308926596409,1.73201248097988,1.73188911083237,1.7340433434082,1.81958630569254,1.84959372157262,1.73570409539397,1.73567562535993,1.84235284291465,1.91540695026598,1.78465357392322,1.66571526170782,1.66432023003977,1.65901531369664,1.70624710017203,1.70242262559908,1.65297017646842,1.64886100155505,1.64821568078344,1.7693936356768,1.76758104350947,1.64367945535944,1.76459168993508,1.74648474828448,1.64311954468995,1.64250269395238,1.64272096421337,1.64187635320346,1.69099665193696,1.69112951209582,1.64090837204604,1.72176326872482,1.64267351415663,1.64287280439492,1.68916507974693,1.64207564344175,1.64173400303325,1.64137338260205,1.64041489145598,1.64230340371409
1.80332042624331,1.77978519810207,1.8263431937718,1.77780178573048,1.88604485515751,1.7760176635972,1.7709405075264,1.77032365678883,1.81473690989408,1.87803528558041,1.76372809890248,1.76052996507844,1.87109808728555,1.85011567219672,1.75393440719209,1.80016974247601,1.7993251314661,1.79653506813001,1.74776589981636,1.74531747688876,1.85747992100221,1.74479552626466,1.8526400152151,1.83295773168085,1.74285007393847,1.84503851612593,1.74303987416541,1.7437990750732,1.74618106792136,1.87437214120036,1.80005586233985,1.87150615777348,1.87149666776213,1.8980876795572,1.78957888981245,1.89923597093022,1.89851473006783,1.78148391013323,1.89729051860403,1.85042884257118,1.97815490529416,1.84817970988188,1.84591159716988,1.89343757399704,1.98738868633506,1.83983798990762,1.83861377844383,1.83965767969203,1.83964818968068,1.88888236855034,1.77017181660728,1.84469687571743,1.84605394734009,1.88439359318308,1.85528772838099,1.85954874347591,1.96554268021363,1.93861002801007,1.93485198351654,1.94658163754178,1.93508923380023,1.92550432233948,1.85069456288891,1.84970760170879,1.84861625040385,1.93093260883012,1.84799939966628,1.84837900012017,1.93485198351654,1.94047956024548,1.92078778669988,1.92786733516495,1.92904409657201,1.9242231708076,1.84584516709045,1.93643681541154,1.84557944677273,1.92790529521034,1.91738087262621,1.93089464878473,1.93116036910245,1.93729091643279,1.84249519308486,1.92451736115936,1.92854112597061,1.91879488431695,1.83844295823957,1.83719027674173,1.83655444598147,1.83494114405243,1.8338118327021,1.83343223224821,1.83195179047804,1.83287232157872,1.83085094916175,1.90064998262096,1.75132465407159,1.85967211362343,1.7443210256973,1.74237557337111,1.78875325882524,1.73911100946764,1.73571358540532,1.86020355425888,1.73382507314721,1.73202197099123,1.73032325896007,1.73222126122952,1.73045611911893,1.73065540935722,1.73133869017422,1.73303740220539,1.73236361139973,1.73270525180823,1.73434702377131,1.73347394272736,1.78466306393456,1.92060747648428,1.73621655600672,1.73534347496277,1.83912623905658,1.66570577169647,1.66063810563702,1.65801886250517,1.75111587382195,1.75250141547865,1.71318429846689,1.64889896160044,1.64720024956928,1.76431647960601,1.64634614854803,1.76480996019606,1.64252167397507,1.64217054355522,1.64355608521193,1.6413828726134,1.64189533322615,1.64085143197795,1.74371366497107,1.76385146904999,1.64100327215951,1.64160114287439,1.64081347193256,1.63870668941347,1.68858618905475,1.63958926046877,1.6877131080108,1.68784596816966,1.6387920995156,1.68764667793137
1.80802747187156,1.82882957674478,1.77928222750066,1.7800129583744,1.77649216416456,1.88228681066399,1.77347434055613,1.88314091168524,1.76919434543851,1.76830228437186,1.76418361944714,1.76285501785853,1.84995434200382,1.75883125304728,1.75639232013103,1.7551206586105,1.75483595827008,1.86585011101051,1.74755711956672,1.74670301854546,1.79407715519106,1.74515614669586,1.85479424779093,1.74420714556113,1.79059432102661,1.74383703511859,1.74497583648026,1.74512767666182,1.82671330421434,1.80669887028294,1.87540655243721,1.9795878970076,1.86920957502744,1.97726284422752,1.86473028967153,1.85995681396385,1.85857127230715,1.90111499317698,1.90127632336988,1.85317145585055,1.84989740193574,1.89829645980684,1.89823951973876,1.77167123840014,1.77039957687961,1.89585752689059,1.84179293224516,1.84014167027074,1.84100526130334,1.84164109206361,1.84285581351606,1.88974595958294,1.77484090219013,1.85310502577111,1.88540902439724,1.7904709508791,1.88583607490787,1.94009046978024,1.85580018899374,1.94444638498864,1.85433872724626,1.8508748731045,1.84899585085774,1.85133988366052,1.84940392134568,1.93156843959039,1.92917695673087,1.9444179149546,1.93529801404987,1.93870492812354,1.92433705094376,1.93579149463993,1.84761979921239,1.84884401067619,1.92439399101185,1.93040116819467,1.84590210715853,1.94093508079015,1.9369302960016,1.92757314481318,1.92763957489262,1.94037517012066,1.94490190553331,1.93278316104284,1.92444144106858,1.92887327636776,1.9289207264245,1.90933334300372,1.92054104640485,1.92597882290684,1.90893476252714,1.83198975052343,1.82958877765257,1.83160066005819,1.9027852351741,1.91814007353399,1.85319043587324,1.94836575967506,1.74504226655969,1.74264129368883,1.73947162989884,1.83526380443824,1.73714657711876,1.73385354318125,1.73291403205787,1.73118684999267,1.72853913682678,1.93750918669378,1.7295071179842,1.72990569846079,1.72917496758705,1.73032325896007,1.73033274897141,1.72872893705372,1.73230667133165,1.73142410027635,1.73086418960686,1.73411926349898,1.73242055146781,1.73406232343089,1.75663906042606,1.66761326397727,1.86879201452816,1.65962267442286,1.65366294729678,1.71288061810377,1.71195059699174,1.64850987113521,1.76589182148965,1.64246473390699,1.64552051756081,1.76380401899325,1.64254065399777,1.64020611120634,1.64223697363466,1.64087041200065,1.64106970223894,1.76430698959466,1.7608621154756,1.64196176330558,1.64072806183044,1.63867821937943,1.63938048021913,1.63680868714401,1.63901036977658,1.75334602648856,1.6382511688688,1.64013019111556,1.68822556862355,1.68531213513994
1.80569292908013,1.78311619208496,1.78166422034883,1.78333446234595,1.89125487138716,1.82587818321578,1.77492631229226,1.77342689049939,1.76927026552928,1.76986813624416,1.76361421876631,1.81246879718208,1.76110885577063,1.85966262361208,1.85990936390711,1.75715152103881,1.75176119459356,1.75158088437796,1.75137210412832,1.79595617743782,1.79578535723357,1.7948268660875,1.74393193523206,1.74404581536823,1.74465317609445,1.84696498842943,1.74402683534553,1.74462470606041,1.74725343920361,1.87721914460454,1.98106833877778,1.87152513779618,1.87210402848836,1.79678180842504,1.86602093121476,1.86279432735668,1.78904744917701,1.85875158252274,1.85547752860793,1.85226990477255,1.77831424634324,1.85142529376265,1.84744897900814,1.89666417785511,1.84108118139412,1.84164109206361,1.76965935599452,1.84094832123525,1.83953430954451,1.84296020364088,1.84319745392456,1.84639558774859,1.88807571758582,1.85358901634983,1.88623465538445,1.97843011562323,1.97393185024462,1.93503229373214,1.94188408192488,1.92782937511956,1.92505829180616,1.92961349725285,1.85203265448887,1.85283930545339,1.94786278907366,1.9374522466257,1.931530479545,1.93455779316478,1.93757561677321,1.9381355274427,1.93497535366406,1.93099903890955,1.92705119418908,1.93377012222296,1.92862653607273,1.94170377170928,1.94012842982563,1.94413321461418,1.84692702838404,1.93099903890955,1.84519984631883,1.91975337546303,1.92624454322457,1.9174188326716,1.93487096353924,1.92461226127283,1.92724099441603,1.93045810826276,1.91861457410136,1.92440348102319,1.91851967398788,1.83280589149929,1.83196128048939,1.83220802078441,1.83025307844688,1.91737138261486,1.86008967412271,1.74888572115534,1.74463419607176,1.74259384363209,1.86132337559786,1.73680493671025,1.8555914087441,1.78006989844248,1.73168033058273,1.73105398983381,1.72905159743953,1.72822596645232,1.72992467848348,1.85466138763207,1.83160066005819,1.72946915793881,1.72929833773456,1.73130073012884,1.85188081430732,1.73209789108201,1.73280964193305,1.83826264802398,1.73243004147916,1.73190809085506,1.75703764090265,1.85618927945898,1.65965114445691,1.65614933026976,1.65524777919177,1.7603211848288,1.64776965025012,1.64678268907,1.64705789939907,1.75950504385294,1.64474233663034,1.75485493829277,1.64325240484881,1.75628793000621,1.64037693141059,1.73757362762938,1.76414565940176,1.63970314060493,1.76107089572524,1.64066163175101,1.76378503897056,1.6370459374277,1.76294042796065,1.63883005956098,1.63927609009431,1.63593560610007,1.63840300905036,1.64180043311268,1.68751381777251,1.68811168848739
1.80435483748016,1.78315415213035,1.78096195950913,1.78118971978146,1.78063929912332,1.77718493499291,1.77679584452767,1.87652637377619,1.77292391989798,1.771120817742,1.76609111172795,1.88158454982429,1.9583492516124,1.76155488630395,1.80682224043045,1.75672447052819,1.8029977658575,1.80371900671989,1.75061290322054,1.86545153053392,1.79578535723357,1.79575688719953,1.74522257677529,1.74734833931708,1.74439694578808,1.74662709845468,1.86809924369981,1.74721547915822,1.75020483273261,1.80892902294955,1.90808066150588,1.98226408020753,1.98381095205714,1.86793791350691,1.90272829510602,1.90418026684215,1.78980665008479,1.85779309137667,1.8557717189597,1.97678834366015,1.85045731260522,1.84943239137972,1.84919514109604,1.84600649728335,1.84363399444653,1.77100693760584,1.89788838931891,1.84447860545644,1.89312440362257,1.98293787101319,1.77424303147526,1.77504968243977,1.89174835197722,1.78064878913467,1.8884932780851,1.88714569647379,1.96037062402937,1.95175369372604,1.95023529191048,1.93143557943153,1.93572506456049,1.93121730917054,1.93063841847835,1.85347513621366,1.85164356402363,1.85070405290025,1.94136213130078,1.9310085289209,1.9318721199535,1.92405235060335,1.93363726206409,1.91965847534956,1.9402423099618,1.93006901779752,1.94376310417164,1.84946086141376,1.93116036910245,1.92724099441603,1.84777163939395,1.93286857114496,1.93329562165559,1.92484002154517,1.93109393902302,1.92417572075086,1.84143231181397,1.93324817159886,1.84050229070193,1.94100151086958,1.92429909089837,1.83632668570913,1.83407755301983,1.83300518173759,1.83264456130639,1.82696004450937,1.83110717946813,1.90964651337818,1.85487016788171,1.74807907019082,1.74218577314416,1.74115136190731,1.73956653001231,1.94714154821127,1.73442294386209,1.7331797523756,1.73103500981111,1.72801718620268,1.72849168677004,1.72947864795016,1.72845372672465,1.72786534602112,1.85525925834695,1.85466138763207,1.77745065531064,1.73122481003806,1.73012396872177,1.84882503065349,1.72925088767782,1.78092399946374,1.78149340014457,1.73137665021961,1.66555393151491,1.71191263694635,1.75342194657933,1.65483970870384,1.76411718936771,1.65047430348409,1.74386550515263,1.64811129065862,1.75779684181043,1.64098429213682,1.64170553299921,1.64438171619914,1.64124052244319,1.64066163175101,1.63989294083188,1.64112664230702,1.76423106950388,1.81235491704591,1.63870668941347,1.63791901847165,1.7641741294358,1.63848841915248,1.63917169996949,1.63734961779081,1.63836504900497,1.63903883981062,1.75996056439761,1.75717999107286,1.63995937091131,1.63792850848299
1.81040946471972,1.78412213328777,1.78303078198283,1.77953845780704,1.78308772205092,1.82570736301153,1.7760176635972,1.77562857313196,1.77173766847958,1.77217420900155,1.7695739458924,1.81667287220892,1.76330104839185,1.8789368366584,1.87878499647684,1.76003648448839,1.75654416031259,1.75698070083456,1.80410809718513,1.75060341320919,1.86632461157787,1.79607954758534,1.74794621003196,1.74794621003196,1.74724394919226,1.84897687083505,1.74812652024755,1.7465891384093,1.75030922285743,1.88343510203701,1.98392483219331,1.80640467993117,1.80295031580076,1.79896451103491,1.86800434358634,1.86590705107859,1.90545192836269,1.97670293355803,1.85766023121781,1.85509792815404,1.78128461989493,1.97646568327435,1.90331667580955,1.9017413339259,1.84558893678407,1.84285581351606,1.84362450443519,1.84250468309621,1.84436472532027,1.84384277469617,1.97022125580784,1.97435890075525,1.77827628629785,1.88957513937869,1.85858076231849,1.89142569159141,1.95829231154431,1.9409255907788,1.94150448147098,1.9384771678512,1.85822963189864,1.85623672951572,1.85678715017386,1.92886378635641,1.85348462622501,1.94329809361562,1.94471210530636,1.93790776717037,1.85315247582785,1.93703468612642,1.92477359146574,1.93424462279032,1.9345008530967,1.9405839503703,1.9320524301691,1.84976454177687,1.933798592257,1.93181517988542,1.93119832914784,1.92255292881048,1.84484871589899,1.92632995332669,1.93749969668243,1.92489696161325,1.91153502563629,1.93454830315343,1.91903213460064,1.90926691292429,1.92531452211253,1.92544738227139,1.83297671170354,1.83300518173759,1.83196128048939,1.82992092804972,1.90713166037115,1.91739036263756,1.75097352365174,1.74882878108725,1.7927390635911,1.74123677200943,1.73923437961516,1.85875158252274,1.73373966304508,1.85734706084335,1.72998161855156,1.77777331569644,1.72975385827923,1.72751421560127,1.72921292763243,1.7286435269516,1.72809310629346,1.85315247582785,1.72715359517008,1.72998161855156,1.73044662910758,1.73064591934587,1.72980130833597,1.81560999093803,1.73035172899411,1.84357705437845,1.85303859569168,1.66243171778166,1.65876857340161,1.76005546451108,1.75840420253665,1.65042685342735,1.74072431139668,1.64639359860476,1.64625124843455,1.64234136375948,1.64231289372543,1.64282535433819,1.75671498051684,1.63994039088862,1.64000682096805,1.75811001218489,1.637026957405,1.68826352866894,1.68748534773847,1.63672327704189,1.63898189974254,1.63677072709863,1.63618234639509,1.63827963890284,1.68361342310878,1.69761118984601,1.75392491718074,1.76055843511249,1.63699848737096,1.76332002841454
1.80969771386868,1.78349579253885,1.78338191240268,1.78169269038287,1.78090501944104,1.77887415701273,1.77672941444824,1.88888236855034,1.82342027027684,1.76994405633494,1.76784676382719,1.76760002353216,1.88471625356889,1.80979261398215,1.76177315656494,1.85270644529453,1.7556426092346,1.75476952819065,1.75554770912112,1.75239702535383,1.75224518517227,1.81824821409257,1.74966390208581,1.85023904234424,1.74760456962345,1.85669225006038,1.74853459073549,1.75080270344749,1.75217875509284,1.98343135160325,1.8824101808115,1.91181023596536,1.80241887516532,1.90831791178956,1.86992132587849,1.86275636731129,1.90463578738682,1.86051672463334,1.9867338755521,1.85511690817674,1.85353207628174,1.77803903601417,1.90580305878253,1.77538183283693,1.84641456777129,1.77284799980721,1.84378583462809,1.84224845278983,1.84293173360684,1.89807818954585,1.84605394734009,1.89376972439419,1.85082742304777,1.85612284937955,1.78843059843943,1.86379077854815,1.86665676197502,1.94400035445532,1.962164236174,1.93119832914784,1.92904409657201,1.85574324892566,1.85515486822213,1.85571477889162,1.94296594321847,1.93519362392505,1.85274440533992,1.93681641586543,1.93830634764695,1.93541189418603,1.85186183428462,1.93956851915614,1.93173925979464,1.94107743096036,1.9287214361862,1.92790529521034,1.84924259115277,1.84831257004074,1.93114138907976,1.93120781915919,1.93675947579735,1.93415921268819,1.84526627639827,1.93212835025988,1.84237182293735,1.84203018252884,1.83981900988493,1.93218529032796,1.93470963334634,1.92149953755093,1.83232190092058,1.83305263179432,1.90303197546913,1.82960775767526,1.92371071019484,1.83068961896885,1.75327959640912,1.74742425940786,1.79396327505489,1.7904519708564,1.73802914817405,1.73697575691451,1.7345463140096,1.73005753864234,1.80259918538092,1.82269902941444,1.72922241764378,1.72800769619133,1.72599581378571,1.72743829551049,1.7283018865431,1.72739084545376,1.72811208631615,1.72925088767782,1.82429335132079,1.72703971503391,1.72649878438711,1.72871944704238,1.8096028137552,1.82244279910807,1.66285876829229,1.66077096579588,1.75966637404584,1.65685159110946,1.65117656432379,1.64872814139619,1.69524817702054,1.69651034852972,1.64374588543887,1.64234136375948,1.75221671513823,1.63952283038933,1.64136389259071,1.63944691029856,1.75051800310707,1.63973161063898,1.68675461686472,1.74347641468739,1.63873515944751,1.63666633697381,1.63658092687168,1.63646704673551,1.63641010666743,1.637026957405,1.6365239868036,1.7566675304601,1.68748534773847,1.63831759894823,1.63928558010565,1.75790123193525
2.10111698232081,2.07879647563202,1.78363814270906,1.78374253283388,1.78252781138143,1.78077215928218,1.77866537676309,1.77687176461845,1.89208999238572,1.82005131624855,1.81736564303728,1.76867239481441,1.88604485515751,1.76333900843724,1.76108987574793,1.96034215399533,1.75834726246857,1.7572084611069,1.82922815722137,1.75331755645451,1.75165680446874,1.75139108415102,1.75099250367443,1.86263299716378,1.80083404327032,1.74833530049719,1.85245021498815,1.75086913352692,1.75345990662472,1.88466880351215,1.91275923710009,1.87851927615912,1.87514083211949,1.87142074767136,1.80286490569864,1.91128828534126,1.86302208762902,1.86077295493971,1.78680780649905,1.78403672318564,1.85763176118376,1.85236480488603,1.99411710438028,1.84745846901949,1.84849288025634,1.8460159872947,1.77507815247382,1.77246839935332,1.7739108810781,1.77428099152065,1.84849288025634,1.77853251660422,1.78024071864673,1.85594253916395,1.78810793805363,1.89105558114887,1.89120742133043,1.94236807250359,1.95284504503098,1.94253889270784,1.85529721839234,1.9384771678512,1.85695797037811,1.85529721839234,1.85517384824482,1.93837277772638,1.93591486478744,1.94027077999584,1.9273548745522,1.9339789024726,1.92552330236217,1.92182219793674,1.9339789024726,1.93417819271089,1.84927106118682,1.93916993867955,1.84940392134568,1.9313501693294,1.84871115051733,1.84803735971167,1.93470963334634,1.92817101552806,1.93042014821737,1.92480206149978,1.93058147841027,1.92802866535785,1.92575106263451,1.92752569475645,1.8371238466623,1.90988376366186,1.91517918999364,1.83111666947948,1.8324452710681,1.82955081760718,1.82727321488383,1.82946540750505,1.80588272930707,1.75003401252836,1.7450043065143,1.79622189775555,1.79568096710875,1.78345783249346,1.78108532965664,1.73180370073024,1.72855811684947,1.72694481492044,1.72789381605516,1.7268973648637,1.72620459403535,1.72746676554454,1.85256409512432,1.85582865902778,1.72508477269637,1.72792228608921,1.85065660284352,1.8369435364467,1.81687216244722,1.80848299241623,1.72889026724663,1.8184949543876,1.66274488815612,1.65752538191512,1.65644352062153,1.65221097556064,1.65080645388125,1.64531173731117,1.64670676897922,1.87127839750115,1.75356429674954,1.64264504412259,1.74373264499377,1.63951334037799,1.63828912891419,1.64184788316942,1.87105063722881,1.75442788778215,1.68730503752287,1.63950385036664,1.63557498566887,1.6380898386759,1.63612540632701,1.63838402902766,1.63365800337672,1.75949555384159,1.63449312437528,1.6373685978135,1.75894513318345,1.63639112664473,1.63603050621354,1.6358027459412
1.92759212483588,1.7864566760792,1.78789915780399,1.83191383043265,1.83193281045534,1.78289792182397,1.78054439900985,1.87285373938479,1.86820363382463,1.77473651206531,1.77240196927388,1.76790370389528,1.76396534918616,1.85505047809731,1.76127018596353,1.76099497563446,1.75775888176504,1.84994485199247,1.80390880694684,1.75529147881475,1.75364970685167,1.75327010639778,1.75036616292551,1.75019534272126,1.80246632522205,1.75063188324324,1.75183711468434,1.75008146258509,1.75145751423045,1.88296060146964,1.88229630067533,1.91552083040214,1.8783959060116,1.80417452726456,1.91153502563629,1.86899130476645,1.79327050422654,1.90894425253848,1.85814422179652,1.86284177741342,1.85565783882353,1.780876549407,1.84920463110738,1.85121651351301,1.84987842191304,1.77459416189511,1.84574077696563,1.84596853723796,1.84539913655713,1.77501172239439,1.89776501917139,1.85242174495411,1.8535036062477,1.85921659307876,1.79160026222942,1.89165345186375,1.89175784198857,1.95625195910465,1.94791972914174,1.962164236174,1.93481402347116,1.93108444901168,1.85860923235253,1.85746094097951,1.85654989989018,1.94465516523828,1.85512639818808,1.94060293039299,1.85494608797249,1.85345615619096,1.94777737897153,1.85276338536261,1.93213784027122,1.94154244151637,1.93145455945422,1.84973607174283,1.94793870916444,1.93855308794198,1.92814254549402,1.93121730917054,1.84608241737413,1.9252670720558,1.84517137628479,1.92567514254373,1.92105350701761,1.91938326502049,1.93378910224565,1.92847469589118,1.83588065517581,1.91402140860928,1.832606601261,1.83074655903693,1.83105972941139,1.8291142770852,1.82954132759583,1.82967418775469,1.75122975395811,1.75075525339075,1.74660811843199,1.74338151457392,1.79483635609884,1.73709912706202,1.83158168003549,1.73231616134299,1.94770145888076,1.86025100431561,1.72780840595304,1.77334148039727,1.72753319562397,1.77321811024975,1.72659368450059,1.72563519335451,1.8179730037635,1.72748574556723,1.72757115566936,1.72660317451193,1.72749523557858,1.84233386289196,1.81858985450107,1.81768830342308,1.66279233821285,1.70637996033089,1.70566820947984,1.65191678520888,1.6506166536543,1.64757036001182,1.64480876670977,1.64541612743599,1.64132593254532,1.74478603625331,1.63932354015104,1.68765616794272,1.63914322993544,1.63952283038933,1.63694154730288,1.75793919198064,1.72420220164107,1.68550193536688,1.76407922932232,1.76147896621317,1.75946708380755,1.63647653674686,1.75704713091399,1.6363246965653,1.72104202786243,1.637026957405,1.73079775952743,1.63880158952694,1.73269576179688,1.76033067484015
1.87862366628394,1.83928756924948,1.88827500782412,1.78606758561396,1.83232190092058,1.88786693733618,1.78033561876021,1.82621033361294,1.77802005599147,1.77471753204262,1.77392037108945,1.89454790532467,1.76786574384989,1.76202938687131,1.88570321474901,1.80816033203042,1.95061489236437,1.76031169481746,1.80641416994252,1.80311164599367,1.864825189785,1.94034670008662,1.75321316632969,1.79867032068314,1.79886961092144,1.75200793488859,1.7505844331865,1.92527656206714,1.75525351876936,1.81391127890687,1.81171908628565,1.88140423960869,1.80585425927303,1.91439151905182,1.87200912837489,1.79902145110299,1.86547051055661,1.86660931191829,1.86045978456525,1.85882750261352,1.90830842177822,1.85388320670159,1.78054439900985,1.77813393612764,1.90476864754568,1.77504968243977,1.77623593385818,1.84883452066484,1.90111499317698,1.77654910423264,1.77791566586665,1.84903381090313,1.89619916729909,1.85712879058236,1.79030962068619,1.89211846241976,1.89136875152333,1.86576470090838,1.86319290783327,1.95656512947911,1.86263299716378,1.85919761305607,1.85635060965188,1.85936843326032,1.93318174151942,1.93353287193927,1.9398816895306,1.94399086444397,1.94488292551061,1.94906802051476,1.93699672608103,1.85276338536261,1.94279512301421,1.94385800428511,1.93643681541154,1.84953678150454,1.93152098953365,1.93911299861147,1.94131468124404,1.93791725718171,1.93749020667109,1.92346396989981,1.92836081575501,1.92220179839063,1.92223026842467,1.84137537174588,1.9242041907849,1.83971461976011,1.83550105472192,1.91343302790574,1.8329672216922,1.83196128048939,1.83006327821993,1.82936101738023,1.82906682702847,1.89953965129333,1.75163782444605,1.85880852259083,1.74447286587885,1.8592640431355,1.73860803886624,1.94428505479574,1.94235858249224,1.73251545158129,1.73137665021961,1.72999110856291,1.72651776440981,1.72613816395592,1.72680246475023,1.7272390052722,1.72695430493178,1.72575856350203,1.93720550633067,1.72524610288927,1.8494893314478,1.93684488589947,1.72657470447789,1.72702073501121,1.72526508291197,1.72301595022266,1.66004023492214,1.65860724320871,1.73061744931183,1.6514992247096,1.75851808267282,1.69418529574964,1.75049902308437,1.75576597938211,1.74322967439236,1.63860229928865,1.63845045910709,1.63655245683764,1.63848841915248,1.63715981756386,1.74123677200943,1.63662837692842,1.63705542743904,1.63856433924326,1.63595458612276,1.63366749338807,1.73335057257985,1.63523334526037,1.63544212551001,1.63409454389869,1.6370459374277,1.63555600564617,1.75873635293381,1.63486323481782,1.75328908642047,1.63748247794967
1.92473563142035,1.83882255869347,1.78588727539836,1.7881838581444,1.78396080309487,1.78328701228921,1.7814174800538,1.78171167040556,1.89770807910331,1.82329690012932,1.77306627006819,1.77119673783278,1.76974476609665,1.76556916110385,1.8829321314356,1.81092192533248,1.95447732698271,1.75975178414797,1.75762602160618,1.875264202267,1.94505374571487,1.75487391831547,1.75462717802044,1.86509091010272,1.85833402202346,1.93079025865991,1.75239702535383,1.75467462807717,2.04235483205848,2.00455611686228,1.88639598557736,1.88226783064129,1.8777126251946,1.98959985897898,1.8717908581139,1.87228433870396,1.86875405448277,1.86368638842333,1.98664846544997,1.99744809836317,1.85910271294259,1.78340089242538,1.78049694895311,1.9088873124704,1.77763096552623,1.77677686450498,1.84873962055137,1.7761979738128,1.84836951010882,1.77643522409648,1.85461393757533,1.8529816556236,1.8556103887668,1.85646448978805,1.89647437762816,1.86755831305301,1.89133079147794,1.86611583132823,1.94664806762121,1.95307280530331,1.86383822860488,1.86065907480355,1.85880852259083,1.85716675062775,1.93069535854644,1.93843920780581,1.9389991184753,1.95836823163509,1.85548701861928,1.85638856969727,1.85505047809731,1.85458546754129,1.94381055422837,1.85247868502219,1.93964443924692,1.92850316592522,1.94051752029087,1.94704664809779,1.93425411280167,1.84821766992727,1.93740479656896,1.84542760659117,1.93068586853509,1.93194804004428,1.9236822401608,1.9294426770486,1.91809262347726,1.91727648250139,1.91683994197942,1.91980082551977,1.8331285518851,1.83106921942274,1.82831711613203,1.82854487640437,1.8291142770852,1.82871569660862,1.75383950707861,1.74882878108725,1.79383041489603,1.74155943239524,1.78847804849617,1.73659615646061,1.73418569357841,1.73271474181958,1.94715103822261,1.72876689709911,1.7275806456807,1.72750472558993,1.72597683376301,1.81434781942884,1.7267170546481,1.94270971291209,1.72440149187937,1.9421308222199,1.72456282207227,1.72698277496583,1.72563519335451,1.72581550357011,1.84395665483234,1.77454671183837,1.65876857340161,1.65610188021303,1.75214079504745,1.75338398653395,1.74890470117803,1.64331883492825,1.69414733570425,1.7633105384032,1.76183958664437,1.63954181041203,1.63712185751847,1.63824167885745,1.63883954957233,1.63671378703054,1.63953232040068,1.63637214662204,1.63849790916383,1.63611591631566,1.75802460208276,1.63603999622488,1.63567937579369,1.75973280412527,1.63478731472704,1.63558447568022,1.6352997753398,1.63532824537384,1.6359830561568,1.63324044287744,1.75620251990409,1.63548957556674
1.80304521591424,1.79379245485064,1.90514824799957,1.78834518833731,1.78721587698698,1.7850521543998,1.78381845292466,1.89775552916005,1.78056337903254,1.77789668584396,1.82296474973217,1.76983966621012,1.81837158424009,1.81487926006429,1.85720471067314,1.84325439399264,1.80903341307437,1.80747705121341,1.80734419105455,1.75699968085726,1.75495932841759,1.87185728819333,1.75392491718074,1.75636385009699,1.93438697296053,1.7517896646276,1.75501626848568,1.85485118785901,1.75759755157214,1.91760863289855,1.91852916399923,1.88290366140156,1.88176486003989,1.87696291429816,1.87506491202871,1.87216096855644,1.79624087777824,1.91390752847311,1.86421782905877,1.78794660786072,1.90971294345761,1.78600115553453,1.855752738937,1.85475628774554,1.98089751857352,1.77854200661557,1.84680365823652,1.8489863608464,1.90436057705775,1.8517764241825,1.85006822213999,1.89841033994301,1.89843880997705,1.89759419896714,1.78996798027769,1.89333318387221,1.87708628444568,1.86612532133958,1.9435353438993,1.94773941892614,1.94416168464822,1.85987140386172,1.86031743439504,1.86127592554112,1.85951078343053,1.94455077511346,1.85591406912991,1.94904904049207,1.96801008316392,1.85666378002634,1.95033019202395,1.85536364847177,1.94374412414894,1.85274440533992,1.9475496186992,1.9320524301691,1.84922361113008,1.92086370679066,1.9343015628584,1.93816399747674,1.92136667739207,1.93274520099745,1.93070484855779,1.93496586365271,1.93083770871665,1.92760161484723,1.92867398612947,1.9095895733101,1.92809509543728,1.9125599468618,1.83200873054612,1.90492048772724,1.8306801289575,1.82969316777739,1.89868555027208,1.82905733701712,1.9400430197235,1.75175170458221,1.74636137813696,1.74521308676394,1.74024032081797,1.78613401569339,1.78347681251616,1.78103787959991,1.73305638222808,1.72863403694025,1.77723238504965,1.78467255394591,1.72629949414882,1.72580601355876,1.72696379494313,1.72680246475023,1.72357586089215,1.81618888163021,1.72514171276445,1.77185154861574,1.72579652354742,1.72424016168646,1.72312983035883,1.72463874216305,1.7439793852888,1.74359029482356,1.65282782629822,1.64812078066997,1.64602348816222,1.74335304453988,1.74971135214255,1.75869839288842,1.63782411835817,1.63641010666743,1.6365239868036,1.63729267772273,1.63467343459088,1.6361633663724,1.63661888691707,1.75234008528574,1.63659041688303,1.75672447052819,1.63237685184484,1.63228195173136,1.7568668206984,1.63473986467031,1.63595458612276,1.68178185091875,1.63501507499938,1.75368766689706,1.63442669429585,1.63577427590716,1.74955002194965,1.74198648290587
1.80396574701492,1.79359316461235,1.89077088080845,1.78880070888198,1.78964531989188,1.78581135530758,1.78458714384379,1.83055675880999,1.77995601830632,1.89540200634592,1.97158781744185,1.77324658028379,1.77011487653919,1.76850157461015,1.76671745247687,1.76372809890248,1.76167825645146,1.76207683692805,1.76087160548695,1.85840994211424,1.75486442830412,1.75630691002891,1.842362332926,1.75416216746442,1.75497830844029,1.75478850821334,1.75643028017642,1.75703764090265,1.75776837177639,1.92144259748284,1.88669966594047,1.88199262031222,1.88203058035761,1.87923102701016,1.87537808240317,1.8721514785451,1.91483754958514,1.7949881962804,1.86507193008003,1.8630980077198,1.85896036277238,1.85743247094547,1.78301180196014,1.90902966264061,2.00625482889344,1.77825730627515,1.77699513476597,1.84926157117547,1.85145376379669,1.85220347469312,1.99282646283705,1.85513588819943,1.78413162329912,1.89903668069193,1.79409613521376,1.89506985594877,1.89548741644805,1.95401231642669,1.95520805785645,1.86492008989847,1.94380106421703,1.8621964566418,1.86020355425888,1.85990936390711,1.85974803371421,1.93830634764695,1.94887822028782,1.8587231124887,1.9386764580895,1.94993161154737,1.94628744719001,1.94497782562409,1.92758263482453,1.93092311881877,1.95070030246649,1.93287806115631,1.8500302620946,1.94584141665669,1.93577251461723,1.92514370190828,1.84527576640961,1.93278316104284,1.93038218817198,1.93047708828545,1.84251417310756,1.84017963031613,1.83856632838709,1.91850069396519,1.91263586695257,1.91738087262621,1.9151507199596,1.83148677992202,1.83067063894616,1.83112615949082,1.82876314666535,1.82872518661996,1.80273204553978,1.79875573078527,1.74905654135959,1.79145791205921,1.78934163952877,1.78622891580687,1.73479305430463,1.73425212365784,1.94977977136581,1.73080724953878,1.72964946815441,1.72815953637289,1.72751421560127,1.94560416637301,1.72405036145952,1.82178798832511,1.84886299069888,1.72447741197014,1.72157346849788,1.72423067167512,1.7705988671179,1.72503732263963,1.82237636902864,1.72299697019997,1.70525064898056,1.70162546464591,1.65260955603723,1.75728438119768,1.75694274078917,1.63995937091131,1.72878587712181,1.75689529073244,1.63862127931134,1.75433298766867,1.63561294571426,1.63532824537384,1.63661888691707,1.63664735695111,1.63563192573695,1.75844216258204,1.63549906557809,1.63567937579369,1.63509099509016,1.63439822426181,1.75741724135654,1.63363902335402,1.75826185236644,1.63293676251433,1.74000307053429,1.6340565838533,1.76695470276055,1.63081099997254,1.7474527294419,1.63445516432989
1.8200797862826,1.79354571455561,1.79466553589459,1.7902906406635,1.78931316949473,1.78932265950608,1.98053689814233,1.90234869465213,1.78237597119987,1.8982490097501,1.77700462477731,1.77359771070364,1.7716617483888,1.89060955061555,1.76428800957196,1.81248777720478,1.76274113772236,1.76327257835781,1.76014087461321,1.87550145255068,1.87480868172233,1.75811001218489,1.75663906042606,1.75818593227567,1.75630691002891,1.75711356099342,1.7579107219466,1.85301012565764,1.75989413431818,1.92372020020619,1.81614143157348,1.88574117479439,1.8815465897789,1.88022747820163,1.87616575334499,1.80313062601636,1.80114721364478,1.86748239296224,1.86579317094242,1.86250013700492,1.91405936865466,1.85930200318089,1.85636958967458,1.7817401404396,1.85182387423923,1.85154866391016,1.84971709172014,1.98632580506417,1.85303859569168,1.85347513621366,1.85130192361513,1.85479424779093,1.78446377369627,1.86031743439504,1.86751086299628,1.86881099455086,1.96403376840942,1.95960193311024,1.86726412270125,1.93735734651223,1.93539291416334,1.86287973745881,1.86130439557516,1.86164603598366,1.8611715354163,1.95616654900253,1.94473108532906,1.9611203349258,1.93866696807815,1.85698644041215,1.94707511813184,1.94085916069937,1.94188408192488,1.93176772982868,1.93487096353924,1.94665755763256,1.9399006695533,1.93403584254068,1.93385553232508,1.93265030088398,1.9332576616102,1.93052453834219,1.93057198839892,1.92539993221466,1.84239080296004,1.83839550818284,1.83872765857999,1.92522911201041,1.83587116516446,1.92731691450681,1.90329769578685,1.90410434675137,1.82882008673344,1.82844048627955,1.82874416664266,1.90606877910026,1.85650244983344,1.75095454362904,1.8587231124887,1.85721420068448,1.74365672490299,1.73875038903645,1.857337570832,1.73421416361245,1.73262933171745,1.73150002036713,1.9461640770425,1.72724849528355,1.72709665510199,1.72600530379706,1.72325320050635,1.72502783262829,1.72264583978012,1.81526835052953,1.77124418788952,1.72255093966665,1.72072885748797,1.72107998790782,1.72091865771492,1.7218391888156,1.73932927972863,1.76741022330522,1.64919315195221,1.64631767851398,1.75628793000621,1.64196176330558,1.63924762006026,1.75861298278629,1.63569835581638,1.63428434412564,1.63490119486321,1.63324993288879,1.63299370258241,1.63436026421642,1.63524283527171,1.6330316626278,1.63351565320651,1.63413250394408,1.74062941128321,1.63361055331998,1.75673396053953,1.7235853509035,1.63289880246894,1.7603401648515,1.68204757123648,1.68211400131591,1.63084896001793,1.7519699748432,1.74965441207447,1.74697822887453
1.82609645347677,1.79466553589459,1.84208712259693,1.84851186027903,1.7894270496309,1.78759547744087,1.78915183930183,1.88738294675747,1.82882957674478,1.82699800455476,1.82563144292075,1.7742715015093,1.89092272099001,1.89422524493886,1.87576717286841,1.76723940310097,1.76005546451108,1.76227612716634,1.75978974419336,1.76115630582736,1.7572084611069,1.94351636387661,1.7594765738189,1.7566675304601,1.87039582644585,1.7579107219466,1.75756908153809,1.75701866087995,1.7587553329565,1.92570361257777,1.92316977954805,1.92288507920763,1.92128126728994,1.88036982837184,1.87781701531942,1.80373798674259,1.87199014835219,1.8690197748005,2.00638768905231,1.91597635094681,1.86088683507588,1.85837198206885,1.78668443635153,1.7838469229587,1.78129410990628,1.8524597049995,1.85122600352435,1.90815658159666,1.77915885735314,1.85004924211729,1.97685477373959,1.78271761160837,1.86122847548438,1.90100111304081,1.86538510045449,1.97005992561494,1.99058682015909,1.86977897570828,1.94280461302556,1.95768495081809,1.9451201757943,1.93715805627393,1.86278483734534,1.86134235562055,1.86171246606309,1.94193153198161,1.94070732051781,1.86002324404328,1.85952976345322,1.95314872539409,1.85858076231849,1.85582865902778,1.94463618521559,1.93422564276762,1.94640132732618,1.93164435968117,1.85257358513567,1.84836002009748,1.93375114220026,1.93705366614911,1.84679416822518,1.9243845010005,1.93243203062299,1.93321021155347,1.8418214022792,1.83891745880694,1.91377466831425,1.92672853380328,1.91672606184325,1.91463825934685,1.90554682847616,1.90536651826056,1.89902719068058,1.82944642748236,1.91769404300067,1.89804022950046,1.80627181977231,1.75124873398081,1.74996758244893,1.74730088926034,1.74736731933977,1.74117983194135,1.73802914817405,1.7845302037757,1.73212636111605,1.73090214965225,1.73038019902815,1.72961150810902,1.8272067848044,1.72650827439846,1.85005873212864,1.72486650243538,1.72382260118718,1.72190561889503,1.72175377871348,1.80999190422044,1.72093763773761,1.72184867882695,1.84328286402668,1.72356637088081,1.65539012936198,1.75672447052819,1.64681115910404,1.64484672675516,1.7629309379493,1.76107089572524,1.63883005956098,1.63613489633836,1.63551804560078,1.6814307204989,1.63271849225334,1.7545987079864,1.63332585297956,1.63069711983637,1.6300802690988,1.75316571627296,1.6889183394519,1.67946628815002,1.74277415384769,1.63208266149307,1.7309116396636,1.63349667318381,1.68034885920531,1.62961525854278,1.74093309164632,1.63072558987041,1.6309248801087,1.63189286126613,1.62947290837257,1.63248124196966
1.82322098003854,1.7962124077442,1.79379245485064,1.79208425280813,1.90068794266635,1.91818752359073,1.78432142352606,1.7835052825502,1.78295486189205,1.78084807937296,1.7801742885673,1.89421575492751,1.77339842046535,1.7713201079803,1.76969731603991,1.7666035723407,1.81302870785157,1.95722943027342,1.76281705781314,1.76081466541886,1.76099497563446,1.76076721536213,1.7577114317083,1.75835675247992,1.75946708380755,1.84783806947338,1.84245723303947,1.80757195132689,1.76220969708691,1.92809509543728,1.88949921928792,1.8914826316595,1.88522871418164,1.88330224187814,1.87970552757753,1.8754445124826,2.01287885681384,1.99418353445971,1.86532816038641,1.86494855993251,2.00271505466091,1.86034590442909,1.98715143605138,1.85634111964054,1.91325271769015,1.85300063564629,1.77804852602551,1.85143478377399,1.849849951879,1.90445547717122,1.85215602463639,1.78503317437711,1.85909322293125,1.86101969523474,1.79547218685911,1.86679911214523,1.99384189405121,1.9607786945173,1.86873507446008,1.95439191688058,1.95051050223955,1.8644835493765,1.86373383848006,1.86243370692549,1.94156142153907,1.86178838615387,1.86165552599501,1.94127672119865,1.9297843174571,1.94513915581699,1.9445792451475,1.95471457726639,1.94398137443262,1.93531699407256,1.93732887647818,1.93810705740866,1.93741428658031,1.93087566876204,1.93507025377753,1.93300143130383,1.84678467821383,1.93404533255203,1.93177721984003,1.9281994855621,1.94054599032491,1.92185066797078,1.92689935400753,1.92278068908281,1.91577706070852,1.90649582961089,1.83249272112483,1.83002531817454,1.82937050739158,1.82830762612068,1.91654575162765,1.90527161814709,1.85747992100221,1.75378256701053,1.75063188324324,1.74781334987309,1.80607252953402,1.7416922925541,1.841679052109,1.78285047176724,1.78040204883964,1.82316403997046,1.81972865586275,1.72816902638423,1.72534100300275,1.72706818506795,1.72261736974608,1.72344300073329,1.72409781151625,1.72208592911063,1.72215235919006,1.81648307198198,1.72089018768087,1.8447917758309,1.72136468824824,1.71998863660288,1.65430826806839,1.8054272087624,1.87255954903303,1.64323342482612,1.6422654436687,1.63780513833548,1.63639112664473,1.63445516432989,1.63188337125478,1.75359276678359,1.63290829248028,1.63111468033565,1.6331929928207,1.629539338452,1.62789756648892,1.63084896001793,1.62857135729458,1.62954882846335,1.62922616807754,1.67944730812732,1.73587491559822,1.75226416519497,1.62964372857682,1.63071609985906,1.75656314033528,1.62936851824775,1.63138989066472,1.75747418142462,1.62909330791868,1.62976709872434
1.80595864939785,1.86181685618791,1.79277702363648,1.83916419910197,1.89673060793454,1.89742337876289,1.91080429476255,1.83390673281558,1.78543175485369,1.7827840416878,1.87062358671818,1.77770688561701,1.77398680116888,1.77587531342699,1.76845412455342,1.8306991089802,1.76585386144426,1.88516228410221,1.7619060167238,1.8092611733467,1.76005546451108,1.75995107438626,1.80739164111129,1.75980872421605,1.80703102068009,1.75959994396641,1.7589546231948,1.84663283803227,1.80826472215524,1.92841775582309,1.92904409657201,1.88892981860708,1.88649088569083,1.88197364028953,1.87866162632933,2.01269854659824,1.87460939148404,1.79517799650735,2.00388232605663,1.91729546252409,1.78999645031173,1.78999645031173,1.91398344856389,1.91507479986882,1.85412045698527,1.78270812159703,1.8533422760548,1.78042102886233,1.78057286904389,1.77984213817015,2.00283842480843,1.78352426257289,1.78736771716854,1.86064009478085,1.86687503223601,1.87112655731959,1.89730949862672,1.9566030895245,1.94238705252628,1.86790944347286,1.94293747318442,1.86362944835524,1.86202563643755,1.86592603110128,1.94490190553331,1.9410869209717,1.93143557943153,1.95778934094291,1.93031575809255,1.94452230507942,1.9402233299391,1.93950208907671,1.93907503856608,1.85615131941359,1.93767051688669,1.85313349580516,1.85189030431866,1.94729338839282,1.92848418590252,1.84796143962089,1.93437748294918,1.927677534938,1.92860755605004,1.92706068420043,1.91048163437674,1.83978104983954,1.9238625503764,1.91558726048158,1.92115789714243,1.92152800758497,1.90452190725065,1.83088890920714,1.83010123826532,1.82926611726676,1.82738709502,1.93063841847835,1.80642365995387,1.75531045883744,1.79801550990018,1.79459910581516,1.79114474168475,1.74147402229311,1.73726045725492,1.78396080309487,1.73289505203518,1.73075030947069,1.73036121900545,1.73072183943665,1.77597970355181,1.72550233319565,1.72575856350203,1.72460078211766,1.72194357894042,1.72267430981416,1.76916587540446,1.72092814772626,1.7216588786,1.71961852616034,1.7200930267277,1.72014047678444,1.65215403549256,1.6983324307084,1.73802914817405,1.69013306090435,1.68880445931574,1.63874464945886,1.63685613720075,1.63533773538519,1.75436145770271,1.7305510192324,1.63206368147038,1.73095908972033,1.75440890775945,1.6286567673967,1.63102927023352,1.62951086841796,1.62880860757826,1.75325112637508,1.62949188839526,1.62878013754422,1.63109570031295,1.63133295059664,1.62927361813428,1.72808361628211,1.75487391831547,1.6286757474194,1.72871944704238,1.62647406478683,1.62922616807754,1.62832461699955
1.82259463928962,1.79548167687046,1.79370704474852,1.91245555673697,1.79160026222942,1.78972123998266,1.87354651021315,1.83352713236169,1.83198026051208,1.78194892068924,1.82741556505404,1.77683380457306,1.89527863619841,1.77433793158873,1.77049447699308,1.76984915622147,1.88574117479439,1.88769611713193,1.88407093279727,1.76350982864149,1.76134610605431,1.76129865599757,1.80613895961345,1.80718286086165,1.76076721536213,1.9377938870342,1.75974229413662,1.76201989685997,1.84624374756703,1.89657876775298,1.89568670668634,1.81695757254934,1.88626312541849,1.88354898217317,1.8789368366584,1.80608201954537,1.8747612316656,1.86980744574232,1.79734171909452,1.86589756106724,1.91889927444177,1.85995681396385,1.8585617822958,1.91453386922203,1.85357952633848,1.85284879546474,1.77991805826093,1.85144427378534,1.85369340647465,1.90897272257252,1.98000545750688,1.9888216780485,1.85899832281777,1.86214900658507,1.86645747173673,1.87166748796639,1.89767011905792,1.96470755921507,1.94414270462553,1.94121029111922,1.93863849804411,1.937433266603,1.86371485845737,1.86296514756093,1.9343015628584,1.86148470579076,1.8620351264489,1.95320566546218,1.93912248862282,1.94302288328655,1.8590647528972,1.85840045210289,1.9468473578595,1.94070732051781,1.93835379770369,1.95060540235302,1.92363479010407,1.93006901779752,1.92846520587983,1.94784380905096,1.92893970644719,1.92806662540324,1.9348424935052,1.92074033664315,1.92599780292954,1.91815905355669,1.93375114220026,1.91931683494105,1.91680198193403,1.92448889112532,1.8319043404213,1.83089839921849,1.82978806789086,1.82816527595047,1.82993990807242,1.9041707768308,1.75731285123172,1.75326061638643,1.80574037913686,1.74512767666182,1.74197699289452,1.74031624090875,1.9384961478739,1.73539092501951,1.7337017029997,1.73168982059407,1.72826392649771,1.72504681265098,1.72532202298005,1.72706818506795,1.77180409855901,1.79408664520241,1.72186765884964,1.71903014545681,1.72150703841845,1.7221808292241,1.72145009835036,1.90116244323372,1.71823298450364,1.72058650731776,1.65187882516349,1.75478850821334,1.64397364571121,1.63941844026452,1.75334602648856,1.63683715717806,1.75291897597793,1.80298827584615,1.75391542716939,1.75374460696514,1.63222501166328,1.62947290837257,1.62966270859952,1.62682519520668,1.62601854424216,1.62766980621659,1.62663539497974,1.6271098955471,1.62718581563788,1.62906483788464,1.62687264526342,1.62336134106493,1.75707560094804,1.62817277681799,1.75482646825873,1.80408911716244,1.75959045395506,1.7551016785878,1.75325112637508,1.62677774514994
1.81297176778349,1.79867981069449,1.79576637721088,1.7934223444081,1.79448522567899,1.8388700087502,1.79044248084506,1.8892145189475,1.89027740021839,1.88680405606529,1.77876976688791,1.7781054660936,1.89943526116851,1.77517305258729,1.77113030775335,1.77103540763988,1.87248362894225,1.76479098017337,1.76653714226127,1.762949917972,1.76019781468129,1.75905901331962,1.76152641626991,1.7603211848288,1.75984668426144,1.76089058550964,1.75878380299054,1.76215275701883,1.76262725758619,1.89507934596011,1.89450045526793,1.88829398784681,1.9280571353919,1.88492503381853,1.88144219965408,1.87848131611373,2.00928214251323,1.87209453847701,1.92059798647294,1.92000011575806,1.86536612043179,1.92029430610982,1.92035124617791,1.7843498935601,1.78607707562531,1.85361748638387,1.85295318558956,1.91127879532991,1.99009333956903,1.8522983748066,1.85415841703066,1.7834863025275,1.85897934279508,1.90223481451596,1.86866864438065,1.9005361024848,1.89864759022669,1.95162083356718,1.95809302130602,1.96259128668463,1.93938820894054,1.93925534878168,1.86391414869566,1.86353454824177,1.93659814560444,1.94491139554466,1.94763502880132,1.9501593718197,1.9482328995162,1.94593631677016,1.94085916069937,1.92919593675357,1.94000505967812,1.9393597389065,1.93811654742001,1.94801462925522,1.85185234427327,1.93455779316478,1.85138733371726,1.84884401067619,1.92700374413235,1.92974635741171,1.92340702983173,1.92411878068278,1.84237182293735,1.92140463743746,1.92716507432525,1.92232516853814,1.90628704936125,1.92156596763036,1.8327679314539,1.82897192691499,1.82750097515617,1.82782363554197,1.90799525140376,1.90984580361647,1.7554433189963,1.75361174680628,1.85494608797249,1.74703516894262,1.74248945350727,1.85493659796114,1.73772546781094,1.93488994356193,1.73291403205787,1.85250715505624,1.81573336108554,1.72694481492044,1.72646082434172,1.84668977810036,1.84627221760108,1.84720223871311,1.77033314680018,1.76827381433782,1.84773367934856,1.71843227474193,1.7195710761036,1.71996965658019,1.81938701545425,1.71901116543411,1.69860764103747,1.69496347668012,1.64472335660764,1.75064137325458,1.74995809243758,1.63663786693976,1.63530926535114,1.63308860269588,1.74293548404059,1.67676163491604,1.62868523743075,1.75048953307303,1.74108493182788,1.62738510587617,1.71746429358451,1.62806838669317,1.62602803425351,1.62721428567192,1.62873268748748,1.75556668914382,1.75373511695379,1.62664488499108,1.67581263378132,1.73997460050024,1.6279734865797,1.62680621518399,1.62710040553575,1.62558200372019,1.62577180394713,1.62669233504782
1.82064918696343,1.79773080955976,1.91416375877948,1.99014078962577,1.91210442631713,1.98535782390674,1.78939857959685,1.78625738584091,1.78565002511468,1.83082247912771,1.89836288988627,1.78051592897581,1.77764045553758,1.77407221127101,1.77159531830937,1.8193585454202,1.81591367130114,1.8498309718563,1.76336747847128,1.81044742476511,1.81026711454951,1.76339594850532,1.97407420041483,1.76000801445434,1.76324410832376,1.76135559606566,1.76065333522596,1.76098548562311,1.76241847733655,1.8972240885246,1.81895996494362,1.88936635912905,1.88889185856169,1.81400617902034,1.88099616912076,1.92513421189693,1.92475461144304,1.99994397134751,1.86846935414235,1.92394796047853,1.86249064699357,1.86311698774249,1.86025100431561,1.9181021134886,1.85649295982209,1.85495557798383,1.85435770726895,1.85271593530588,1.78188249060981,1.8547278177115,1.90858363210729,1.85492710794979,1.78724434702102,1.86175991611983,1.87050021657067,1.87159156787561,1.89017301009357,1.96026623390455,1.95743821052306,1.94524354594181,1.93738581654627,1.94065987046108,1.93792674719306,1.86389516867297,1.95627093912735,1.95115582301116,1.94782482902827,1.85993783394115,1.94922935070767,1.93697774605833,1.95060540235302,1.85985242383903,1.94403831450071,1.95781781097695,1.93461473323286,1.85514537821078,1.93814501745405,1.94348789384257,1.95082367261401,1.84857829035846,1.84906228093718,1.92435603096646,1.9381545074654,1.92480206149978,1.93181517988542,1.84124251158702,1.92443195105724,1.83715231669634,1.91399293857523,1.92180321791404,1.90754922087043,1.83028154848092,1.90513875798823,1.82884855676748,1.92104401700626,1.89945424119121,1.75736030128845,1.753877467124,1.75178017461626,1.74675995861355,1.86137082565459,1.73813353829887,1.8569959304235,1.82876314666535,1.94785329906231,1.85372187650869,1.83334682214609,1.72625204409208,1.72693532490909,1.72503732263963,1.72388903126661,1.72259838972338,1.71919147564971,1.72155448847518,1.76754308346408,1.71832788461711,1.71762562377741,1.71891626532064,1.76744818335061,1.76556916110385,1.74429255566326,1.73638737621097,1.6429677045084,1.63902934979928,1.63713134752982,1.7507457633794,1.6319877613796,1.63159867091436,1.62864727738536,1.62914075797542,1.75500677847433,1.62429136217696,1.75385848710131,1.67294665035444,1.7385795688322,1.62381686160959,1.6252024032663,1.62497464299396,1.62585721404926,1.62563894378827,1.75048004306168,1.62389278170037,1.67427525194306,1.62587619407195,1.62282041041813,1.8444501354224,1.75258682558077,1.62757490610312,1.62434830224504,1.67937138803654
1.82549858276189,1.84655691794149,1.84401359490042,1.84403257492312,1.842362332926,1.87999971792929,1.87822508580735,1.78764292749761,1.78693117664656,1.78439734361684,1.89930240100965,1.7805349089985,1.82579277311366,1.7777448456624,1.89095119102405,1.77143398811646,1.77023824668671,1.76752410344139,1.81380688878205,1.81073212510553,1.81061824496936,1.86328780794674,1.7622476571323,1.85705287049158,1.76239000730251,1.76061537518057,1.76274113772236,1.76351931865284,1.76263674759754,1.89840084993166,1.89553486650478,1.81739411307132,1.92983176751384,1.92831336569827,1.88216344051647,1.87943031724846,1.87505542201736,1.87282526935075,1.87151564778483,1.86864966435795,1.86618226140766,1.92000011575806,1.86170297605175,1.91758965287585,1.8589034227043,1.85551548865332,1.8531619658392,1.85370289648599,1.78155034021266,1.90945671315124,1.907482790791,1.85917863303337,1.85969109364612,1.86268993723186,1.87182881815929,1.90132377342662,1.89823951973876,1.958529561828,1.966017180781,1.95543581812878,1.86823210385867,1.94033721007527,1.8662297114644,1.86047876458795,1.94577498657726,1.94135264128943,1.93336205173502,1.94770145888076,1.9454428361801,1.96382498815978,1.94120080110787,1.94175122176601,1.92850316592522,1.85809677173978,1.94409525456879,1.85261154518106,1.8533422760548,1.85265899523779,1.93363726206409,1.84913820102795,1.84928055119816,1.94334554367236,1.93332409168963,1.92552330236217,1.92550432233948,1.84211559263097,1.83900286890906,1.91098460497815,1.91470468942628,1.90497742779532,1.92135718738072,1.83097431930927,1.9048730376705,1.82958877765257,1.90464527739817,1.90547090838538,1.93253642074781,1.75331755645451,1.94120080110787,1.74684536871567,1.74459623602637,1.74005052059102,1.78558359503525,1.82346772033357,1.83562442486943,1.77864639674039,1.73142410027635,1.72625204409208,1.72558774329778,1.72334810061982,1.7220194990312,1.72381311117583,1.72095661776031,1.71793879415187,1.71809063433343,1.72053905726102,1.71755919369798,1.71668611265403,1.71745480357316,1.69775354001622,1.69488755658934,1.64462845649417,1.64085143197795,1.75215977507015,1.63570784582773,1.63328789293418,1.62998536898532,1.75464615804313,1.75059392319785,1.75696172081187,1.75101148369713,1.62351318124648,1.62586670406061,1.62329491098549,1.62468994265354,1.62313358079259,1.62289633050891,1.62272551030466,1.62232692982807,1.75663906042606,1.72129825816881,1.62417748204079,1.73537194499682,1.67283277021827,1.67238673968495,1.72481905237865,1.62836257704494,1.74886674113264,1.75044208301629,1.62814430678395
1.82499561216049,1.89852422007917,1.79666792828887,1.89769858909196,1.84318796391321,1.7923784431599,1.79093596143511,1.89506985594877,1.83584269513042,1.83340376221417,1.8320846506369,1.78134155996302,1.96927225467311,1.77947202772761,1.77654910423264,1.81915925518191,1.81938701545425,1.76633785202298,1.7636521788117,1.76215275701883,1.84608241737413,1.76238051729116,1.76196295679188,1.76140304612239,1.8098021039935,1.84715478865637,1.76175417654224,1.76308277813086,1.7655596710925,1.89835339987492,1.93677845582004,1.8906000606042,1.88795234743831,2.00566644818991,1.81090294530978,1.88034135833779,1.87913612689669,1.80037852272565,1.86861170431256,1.86978846571962,1.92046512631408,1.79041401081101,1.79016727051598,1.85566732883488,1.85672072009443,1.78353375258424,1.85498404801787,1.85421535709875,1.85377881657677,1.85606590931146,1.78480541410477,1.90871649226615,1.90581254879388,1.79171414236559,1.86956070544729,1.90336412586629,1.98345982163729,1.87400203075782,1.96232556636691,1.96324609746759,1.93782235706824,1.86837445402888,1.86571725085164,1.86473977968287,1.86374332849141,1.93504178374349,1.94887822028782,1.94536691608933,1.95734331040959,1.94425658476169,1.94842269974315,1.95108939293173,1.94136213130078,1.935165153891,1.85567681884623,1.93280214106553,1.93476657341442,1.9461450970198,1.94419964469361,1.84894840080101,1.92884480633372,1.94415219463687,1.92353039997925,1.92786733516495,1.95006447170623,1.92954706717342,1.92469767137496,1.92295150928706,1.90547090838538,1.90537600827191,1.90466425742086,1.90595489896409,1.90113397319968,1.8968824481161,1.9149893897667,1.91564420054966,1.75675294056223,1.85315247582785,1.74980625225602,1.74573503738804,1.86006120408867,1.74083819153285,1.73614063591595,1.73250596156994,1.78013632852191,1.73016192876716,1.7293268077686,1.72668858461406,1.72474313228787,1.7234240207106,1.72176326872482,1.71928637576318,1.71833737462846,1.82181645835915,1.71773950391358,1.71967546622842,1.71734092343699,1.71700877303984,1.71533853104272,1.64683962913808,1.74846816065606,1.64291076444031,1.7338630331926,1.80394676699223,1.63467343459088,1.63034598941652,1.7505844331865,1.75135312410563,1.62877064753287,1.71954260606956,1.62511699316417,1.62297225059969,1.7084487828046,1.75305183613679,1.7182045144696,1.75475054816795,1.62080852801251,1.62022963732032,1.75010993261913,1.62068515786499,1.75038514294821,1.62481331280106,1.62600905423081,1.67347809098989,1.62639814469605,1.75114434385599,1.62529730337977,1.62292480054295,1.62333287103088,1.6260659942989
1.80965975382329,1.80077710320224,1.84591159716988,1.79458012579247,1.79415307528184,1.90840332189169,1.79215068288756,1.83671577617437,1.7881838581444,1.78590625542106,1.78377100286792,1.83012021828801,1.77993703828362,1.77990856824958,1.7784471065021,1.89331420384952,1.89201407229494,1.76969731603991,1.76655612228396,1.76362370877766,1.76392738914077,1.76425004952658,1.81612245155078,1.7631112481649,1.76163080639473,1.76314920821029,1.76332951842589,1.85804932168304,1.7660626416939,1.93507974378888,1.89540200634592,1.89126436139851,1.89098915106944,1.93074280860317,1.88117647933636,1.87935439715768,1.80565496903474,1.87362243030392,1.80066322306607,1.87102216719477,1.86508142009138,1.86481569977365,1.79009135042521,1.8589034227043,1.91767506297798,1.99001741947826,1.78347681251616,1.85537313848311,1.85640754971997,1.91112695514836,1.85535415846042,1.85524027832425,1.90640092949741,1.90532855821517,1.90193113415285,1.80367155666316,1.98379197203444,1.87487511180176,1.87294863949827,1.94159938158446,1.93921738873629,1.867776583314,1.86487263984174,1.86336372803752,1.86393312871836,1.93414972267685,1.86380975857084,1.86201614642621,1.93250795071377,1.96133860518679,1.86149419580211,1.93526954401582,1.93756612676187,1.94086865071072,1.85497455800653,1.93544985423142,1.93861951802141,1.93341899180311,1.94174173175467,1.849166671062,1.93236560054356,1.93390298238182,1.91888029441908,1.92095860690413,1.93657916558175,1.92039869623464,1.84105271136008,1.92484951155652,1.92566565253238,1.9139454885185,1.832606601261,1.82964571772065,1.82958877765257,1.82801343576892,1.92165137773248,1.91471417943763,1.75699019084591,1.74977778222198,1.79693364860659,1.79339387437406,1.79920176131859,1.78808895803093,1.73760209766343,1.85323788592998,1.85217500465908,1.85258307514701,1.72827341650905,1.72562570334316,1.7234050406879,1.72299697019997,1.81705247266282,1.72092814772626,1.72109896793051,1.71982730640998,1.84612986743087,1.71605977190511,1.71490199052074,1.71688540289232,1.71428513978317,1.64893692164583,1.64531173731117,1.64175298305594,1.63716930757521,1.748657960883,1.75174221457087,1.63230093175406,1.62915024798676,1.74794621003196,1.73188911083237,1.75345041661338,1.62235539986211,1.67161804876582,1.72300646021132,1.75370664691975,1.75361174680628,1.61903389589057,1.7528525458985,1.62089393811463,1.62126404855718,1.62085597806924,1.74820244033833,1.75037565293686,1.74985370231276,1.74887623114399,1.7476330396575,1.74802213012273,1.62380737159825,1.62514546319821,1.62631273459393,1.62759388612581
1.80799900183751,1.98650611527976,1.79927768140937,1.79983759207886,1.795851787313,1.88174588001719,1.79304274395421,1.78903795916566,1.78732975712315,1.90224430452731,1.90163694380108,1.97379899008576,1.82755791522425,1.89614222723101,1.77907344725102,1.77779229571914,1.77351230060152,1.87309098966848,1.81512600035932,1.76431647960601,1.76447780979891,1.76211479697344,1.76166876644012,1.7603211848288,1.81061824496936,1.81054232487858,1.76486690026415,1.76394636916346,1.76332002841454,1.82901937697173,1.93467167330095,1.82095286732655,1.93348542188254,1.93404533255203,1.81315207799909,1.92738334458624,1.805607518978,1.87345161009967,1.87163901793234,1.86935192519765,1.7962124077442,1.8636009783212,1.79077463124221,1.92063594651833,1.85968160363478,1.78411264327642,1.78158830025805,1.85396861680372,1.78318262216439,1.85517384824482,1.90863108216402,1.8578595214561,1.86181685618791,1.86290820749285,1.87208504846567,1.87383121055356,1.9008777428933,1.98301379110397,1.95713453015995,1.97117025694257,1.94134315127808,1.94077375059724,1.86528071032967,1.8634396481283,1.96245842652577,1.93603823493495,1.93410227262011,1.8616745060177,1.95495182755007,1.95360424593876,1.94420913470496,1.94874536012896,1.95168726364661,1.95092806273883,1.94553773629358,1.92916746671953,1.94512966580564,1.93080923868261,1.92893970644719,1.92467869135227,1.92871194617486,1.93297296126978,1.93142608942018,1.93368471212083,1.84514290625075,1.91920295480489,1.83987594995301,1.93094209884147,1.83868020852326,1.91370823823482,1.83186638037591,1.83016766834475,1.82935152736888,1.90570815866906,1.90195011417554,1.89975792155432,1.9315114995223,1.85956772349861,1.7469117987951,1.79297631387478,1.79098341149185,1.73675748665352,1.73808608824214,1.73373017303374,1.73113939993593,1.92163239770979,1.72733390538567,1.72519865283254,1.72411679153895,1.72331014057443,1.76976374611934,1.72069089744258,1.76685031263573,1.8470598885429,1.71805267428804,1.76460117994642,1.71735041344834,1.71577507156469,1.7180052242313,1.74238506338245,1.64283484434953,1.74405530537957,1.63711236750713,1.74022134079527,1.74069584136264,1.67756828588056,1.73697575691451,1.73760209766343,1.62338032108762,1.71546190119023,1.62080852801251,1.62001136705934,1.75184660469569,1.62026759736571,1.62181446921532,1.6192806361856,1.62018218726359,1.62089393811463,1.67567977362245,1.75398185724882,1.62060923777422,1.61999238703664,1.61906236592461,1.74810754022486,1.74806958017947,1.62251673005502,1.74822142036103,1.74391295520936,1.62411105196136,1.74033522093144
1.82201574859744,1.91665014175247,1.99096642061298,1.98592722458758,1.7956904571201,1.90814709158531,1.79333693430597,1.79074616120817,1.78730128708911,1.78794660786072,1.78528940468348,1.78305925201688,1.90148510361952,1.89849575004513,1.82760536528099,1.82610594348812,1.96629239111007,1.77206032886538,1.76724889311231,1.76658459231801,1.76662255236339,1.762949917972,1.81061824496936,1.76137457608835,1.87264495913515,1.76278858777909,1.76342441853936,1.76496180037762,1.763633198789,1.82679871431647,1.82342976028818,1.93491841359598,1.93195753005563,1.9308282187053,1.88355847218452,1.92734538454085,1.92837030576636,1.80378543679932,1.80186845450717,1.79768335950303,1.92130973732398,1.99579683638875,1.9200285857921,1.91933581496375,1.78610554565935,1.85930200318089,1.85887495267026,1.85848586220502,1.7817401404396,1.78331548232325,1.78506164441115,1.8567966401852,1.78947449968763,1.79150536211595,1.87175289806851,1.90442700713718,1.90467374743221,1.87490358183581,1.95524601790184,1.95928876273578,1.9551985678451,1.86835547400619,1.86297463757228,1.86461640953536,1.93833481768099,1.9505010122282,1.86274687729995,1.94558518635031,1.85999477400924,1.94205490212913,1.94980824139985,1.85915016299933,1.93722448635336,1.85670174007173,1.93938820894054,1.93808807738597,1.85367442645195,1.85169101408037,1.93096107886416,1.9287404162089,1.93802164730653,1.84640507775994,1.84631966765781,1.9287404162089,1.92820897557345,1.935165153891,1.93060045843297,1.92410929067143,1.92359683005868,1.92134769736937,1.92410929067143,1.83032899853765,1.82917121715329,1.82920917719868,1.82750097515617,1.91818752359073,1.75710407098208,1.85730910079796,1.74770895974827,1.74697822887453,1.92818050553941,1.73793424806058,1.73752617757265,1.85971956368017,1.7331607723529,1.77749810536737,1.72632796418286,1.85483220783632,1.72331014057443,1.76946006575623,1.72021639687522,1.90894425253848,1.71814757440151,1.71745480357316,1.71397196940871,1.71720806327813,1.7153954711108,1.76319665826703,1.71382012922715,1.64497958691402,1.64316699474669,1.63644806671282,1.74768048971423,1.63264257216256,1.62893197772578,1.67650540460967,1.67445556215866,1.62402564185923,1.62271602029331,1.62283939044082,1.62243131995289,1.75051800310707,1.61910981598135,1.61745855400692,1.61721181371189,1.61901491586787,1.6185783753459,1.61858786535725,1.61831265502817,1.61979309679835,1.85322839591863,1.61901491586787,1.74721547915822,1.74266976372287,1.71705622309657,1.62373145150747,1.7430778342108,1.78692168663522,1.62439575230178,1.62541118351594
1.82451162158177,1.7982812302179,1.79999892227176,1.79783519968458,1.79404868515702,1.79270110354571,1.78966429991458,1.79069871115143,1.97476697124319,1.78873427880255,1.78615299571609,1.89676856797993,1.78163575031478,1.83215108071633,1.78285996177858,1.82581175313635,1.96642525126893,1.8914636516368,1.76994405633494,1.76738175327118,1.76343390855071,1.8122315468984,1.87905071679457,1.76354778868688,1.94664806762121,1.87235076878339,1.76522752069534,1.81183296642181,1.8461962975103,1.82840252623416,1.8249576521151,1.89154906173893,1.89174835197722,1.81600857141462,1.88498197388661,1.92817101552806,2.00949092276287,1.80228601500646,1.87294863949827,1.79755049934416,1.79408664520241,1.86598297116937,1.79026217062946,1.85902679285181,1.85851433223906,1.78647565610189,1.78374253283388,1.85579069898239,1.91213289635117,1.91209493630578,1.85639805970862,1.85588559909587,1.90652429964493,1.90629653937259,1.8688394645849,1.98380146204579,1.99395577418738,1.94710358816588,1.95388894627918,1.95437293685789,1.95308229531466,1.86784301339343,1.86633410158922,1.86551796061335,1.96960440507027,1.94066936047242,1.9480525893006,1.86264248717513,1.94723644832474,1.94694225797297,1.94568008646379,1.944237604739,1.93869543811219,1.94358279395604,1.85596151918664,1.93072382858048,1.93671202574061,1.93143557943153,1.84923310114143,1.8496886216861,1.93195753005563,1.93665508567253,1.92889225639046,1.92274272903742,1.92986023754788,1.931530479545,1.92471665139765,1.92848418590252,1.92129075730129,1.90540447830595,1.83073706902559,1.83079400909367,1.82860181647245,1.82991143803837,1.92318875957074,1.90890629249309,1.75519657870127,1.85033394245771,1.79454216574708,1.81543917073378,1.74282160390443,1.85801136163766,1.94229215241281,1.73222126122952,1.83478930387087,1.77606511365393,1.81912129513652,1.72627102411478,1.72370872105101,1.72094712774896,1.71853666486675,1.76612907177334,1.76657510230666,1.71484505045266,1.71884034522986,1.71436105987395,1.71393400936332,1.71375369914772,1.71568966146257,1.79092647142377,1.64052877159215,1.63762482811988,1.74439694578808,1.63221552165193,1.63002332903071,1.6252024032663,1.69002867077953,1.72136468824824,1.62203273947631,1.74789875997522,1.61804693471045,1.61653802290623,1.75037565293686,1.61734467387075,1.6199828970253,1.75067933329997,1.85610386935685,1.71157099653785,1.74799366008869,1.61798050463102,1.61706946354168,1.61675629316722,1.61870174549341,1.74058196122647,1.74235659334841,1.74043012104491,1.73846568869603,1.62188089929475,1.62351318124648,1.62367451143939
1.82547011272785,1.79971422193134,1.84790449955281,1.98962832901302,1.84856880034712,1.7930617239769,1.79377347482795,1.7923784431599,1.78991104020961,1.98388687214792,1.83442868343968,1.78746261728201,1.78737720717989,1.78405570320834,1.78346732250481,1.90002364187204,1.77553367301849,1.77673890445959,1.76968782602856,1.76600570162582,1.81244981715939,1.76372809890248,1.8735180401791,1.87636504358329,1.7633105384032,1.76457270991238,1.76406024929963,1.81282941761328,1.76287399788122,1.89851473006783,1.82561246289806,1.82111419751945,1.89202356230629,1.88936635912905,1.88248610090228,1.88289417139021,1.87916459693073,1.8751028720741,1.92721252438199,1.99478140517459,2.01243282628052,1.86554643064739,1.86070652486028,1.91753271280777,1.86503397003464,1.85808728172843,1.85896985278373,1.78307823203957,1.85359850636117,1.90896323256118,1.85731859080931,1.85858076231849,1.78778527766782,1.86530918036371,1.79658251818674,1.87238872882878,1.90002364187204,1.95020682187644,1.95820690144219,1.87131635754654,1.86821312383598,1.86786199341613,1.86763423314379,1.8644645693538,1.85633162962919,1.95749515059114,1.93421615275628,1.94147601143694,1.86248115698222,1.96696618191572,1.95078571256862,1.85887495267026,1.93027779804716,1.93922687874764,1.92913899668548,1.93547832426546,1.94077375059724,1.94534793606663,1.93822093754483,1.93557322437894,1.84876809058541,1.84666130806631,1.84632915766916,1.9364083453775,1.8418403823019,1.92326467966152,1.84019861033882,1.83838601817149,1.92695629407561,1.92638689339478,1.90112448318833,1.8291332571079,1.82627676369237,1.82642860387392,1.82733015495191,1.8366018960382,1.83560544484674,1.84573128695428,1.74734833931708,1.74452031593559,1.82935152736888,1.80589221931842,1.78344834248211,1.82872518661996,1.84499106606919,1.72849168677004,1.7253125329687,1.85208959455696,1.72163040856596,1.72095661776031,1.81274400751115,1.84796143962089,1.7173029633916,1.84496259603515,1.80712592079357,1.71649631242709,1.71511077077038,1.76396534918616,1.77359771070364,1.75482646825873,1.63923813004892,1.74084768154419,1.63419893402351,1.63117162040373,1.74217628313281,1.72792228608921,1.62312409078124,1.7505844331865,1.75397236723748,1.75101148369713,1.61738263391614,1.6173541638821,1.61588321212327,1.74535543693415,1.61633873266794,1.61575035196441,1.71049862525561,1.74701618891992,1.74533645691146,1.61459257058004,1.61445971042118,1.61659496297432,1.61668986308779,1.61761988419982,1.78778527766782,1.62115965843236,1.62123557852314,1.73689034681238,1.62387380167768,1.72933629777995
1.82534674258033,1.80097639344053,1.79825276018386,1.79234997312586,1.84556995676138,1.79268212352301,1.79289090377265,1.79279600365918,1.96676689167743,1.83713333667365,1.83685812634458,1.8953165962438,1.97184404774822,1.83320447197588,1.78387539299274,1.77994652829497,1.77712799492483,1.77243992931927,1.77155735826398,1.81412005915651,1.81424342930402,1.76295940798335,1.81113070558212,1.76372809890248,1.76359523874361,1.76372809890248,1.86666625198637,1.93943565899728,1.76375656893652,1.82868722657458,1.89870453029477,1.89752776888771,1.89251704289635,1.93131220928401,1.93076178862587,1.88324530181006,1.87886091656762,1.87665923393505,1.8726734291692,1.86917161498205,1.79562402704067,1.86696044233814,1.79064177108335,1.86382873859354,1.78721587698698,1.85772666129724,1.85600896924338,1.85592355914126,1.85522129830156,1.85646448978805,1.85788799149014,1.8587231124887,1.86092479512127,1.86371485845737,1.7972563089924,1.90402842666059,1.96952848497949,1.87443857127979,1.97302080915529,1.95131715320407,1.95239901449766,1.86670421203176,1.86417037900204,1.86536612043179,1.86290820749285,1.93744275661435,1.86435068921764,1.86168399602905,1.86147521577941,1.94565161642974,1.95041560212608,1.94642030734887,1.94433250485247,1.94711307817722,1.85485118785901,1.93395043243855,1.93328613164424,1.92709864424582,1.93041065820602,1.84923310114143,1.92186964799347,1.93136914935209,1.84500055608054,1.92802866535785,1.93393145241586,1.9231792695594,1.92178423789135,1.83883204870481,1.9336182820414,1.90411383676272,1.83081298911636,1.82975959785682,1.82765281533772,1.82746301511078,1.82669432419165,1.92460277126149,1.75657263034663,1.75149547427584,1.7476330396575,1.74356182478951,1.74133167212291,1.85583814903913,1.85496506799518,1.73015243875581,1.7316139005033,1.83980951987358,1.72646082434172,1.72037772706812,1.76861545474632,1.84822715993862,1.85165305403498,1.71488301049805,1.84833155006343,1.71544292116754,1.7154144511335,1.71566119142853,1.71708469313062,1.84086291113313,1.71745480357316,1.69114849211851,1.63760584809719,1.63649551676955,1.63306013266184,1.62726173572866,1.62846696716976,1.62389278170037,1.62193783936283,1.61975513675296,1.61882511564093,1.61765784424521,1.61590219214597,1.74226169323494,1.61619638249773,1.61505758113606,1.70868603308828,1.61312161882121,1.61377642960418,1.61559851178285,1.61486778090911,1.61770529430195,1.73866497893432,1.61686068329204,1.61713589362111,1.61680374322396,1.61687966331474,1.61640516274737,1.62201375945361,1.61836959509626,1.6205048476494,1.62122608851179
1.82434080137752,1.91455284924472,1.79974269196539,1.79458012579247,1.8456743468862,1.79321356415846,1.84294122361818,1.78824079821249,1.78830722829192,1.83685812634458,1.83614637549353,1.83508349422264,1.78713046688486,1.78757649741818,1.78281251172185,1.8921659124765,1.89402595470057,1.77496427233765,1.76946955576758,1.81652103202737,1.76553120105846,1.87944929727115,1.80957434372116,1.86703636242892,1.87120247741037,1.76437341967409,1.76427851956062,1.76639479209106,1.76613856178468,1.93618058510516,1.89759419896714,1.82230993894921,1.89114099125099,1.81603704144866,1.88911961883402,1.88404246276323,1.92798121530112,1.92738334458624,1.9235209099679,1.87064256674088,1.87008265607139,1.9216134176871,1.8632593379127,1.92051257637081,1.86204461646025,1.85867566243197,1.78637126597707,2.00007683150637,1.7833059923119,1.85561987877814,1.85795442156957,1.78745312727066,1.98570895432659,1.86574572088569,1.79791111977536,1.87300557956635,1.90197858420958,1.87451449137057,1.87269240919189,1.96393886829594,1.872312808738,1.94082120065398,1.86560337071548,1.86486314983039,1.86324035789,1.94613560700846,1.86260452712974,1.9512032730679,1.86234829682336,1.94968487125234,1.9317107897606,1.94195051200431,1.95200043402107,1.92531452211253,1.85641703973131,1.85494608797249,1.93602874492361,1.93836328771504,1.93073331859183,1.93806909736327,1.93159690962443,1.84738254892871,1.84530423644365,1.91400242858658,1.84269448332315,1.92692782404157,1.83876561862538,1.93367522210948,1.91905111462333,1.92594086286145,1.83173352021705,1.8294559174937,1.82851640637032,1.82649503395335,1.82614390353351,1.90668562983783,1.8028364356646,1.80028362261218,1.74789875997522,1.94503476569217,1.74231863330302,1.78637126597707,1.73747872751591,1.73405283341955,1.82230993894921,1.72936476781399,1.72345249074464,1.72433506179993,1.72110845794186,1.72066242740854,1.72182020879291,1.71919147564971,1.71822349449229,1.80943199355095,1.71542394114484,1.71466474023706,1.71589844171221,1.71715112321005,1.76495231036627,1.74852510072414,1.73522959482661,1.63279441234412,1.63049782959808,1.75339347654529,1.62470892267624,1.62262112017984,1.62063770780826,1.6655918915603,1.61922369611751,1.61497217103393,1.6149057409545,1.74824040038372,1.74678842864759,1.61221057773188,1.66293468838306,1.6619382371916,1.66118852629516,1.6147444107616,1.61241935798152,1.61521891132896,1.61470645071621,1.6131595788666,1.74083819153285,1.61354866933184,1.61714538363246,1.61776223437003,1.66547801142413,1.66782204422691,1.73559970526915,1.62120710848909
1.87099369716073,1.90345902597976,1.84648099785072,1.79891706097817,1.91414477875679,1.84283683349336,1.83940144938565,1.79192292261523,1.90537600827191,1.78806048799689,1.90077335276848,1.7867983164877,1.78667494634019,1.78550767494447,1.8289529468923,1.89451943529062,1.77785872579857,1.89241265277153,1.77134857801434,1.87444806129114,1.8829321314356,1.76360472875496,1.76416463942445,1.76309226814221,1.76359523874361,1.76416463942445,1.7660816217166,1.76742920332791,1.76684082262438,1.82866824655188,2.00625482889344,1.89419677490482,1.89490852575586,1.88569372473766,1.81429087936076,1.92911052665144,1.87984787774774,1.87710526446837,1.87582411293649,1.87200912837489,1.86948478535651,1.86663778195233,1.86616328138497,1.79083157131029,1.995967656593,1.91422069884757,1.857337570832,1.85670174007173,1.7843688735828,1.85694848036676,1.90880190236827,1.90490150770454,1.78920877936991,1.7911542316961,1.86917161498205,1.87281577933941,1.87847182610238,1.87358447025853,1.95207635411185,1.96719394218806,1.94341197375179,1.94327911359293,1.94068834049512,1.93984372948521,1.93702519611507,1.95426854673307,1.96001949360952,1.86322137786731,1.95088061268209,1.93423513277897,1.9532910755643,1.94417117465957,1.85800187162631,1.92847469589118,1.94053650031356,1.95121276307925,1.93632293527537,1.9395400491221,1.92191709805021,1.93538342415199,1.93530750406121,1.92820897557345,1.92258139884452,1.9273358945295,1.91518868000499,1.84191630239268,1.9108137847739,1.92818050553941,1.90513875798823,1.92198352812964,1.90416128681946,1.82866824655188,1.896360497492,1.82560297288671,1.82490071204701,1.90036528228055,1.84208712259693,1.79990402215829,1.74757609958941,1.74202444295126,1.78977818005075,1.73893069925204,1.7326388217288,1.77975672806802,1.72907057746223,1.72792228608921,1.72430659176589,1.85294369557821,1.85283930545339,1.72100406781704,1.93057198839892,1.93077127863722,1.71741684352777,1.71868850504831,1.84198273247211,1.71620212207532,1.71403839948814,1.71529108098598,1.91229422654407,1.73484050436137,1.74784181990714,1.63274696228738,1.74757609958941,1.62700550542228,1.62328542097415,1.6192806361856,1.61655700292893,1.61775274435869,1.75192252478646,1.74884776110995,1.61292232858292,1.86143725573402,1.61340631916163,1.61297926865101,1.73084520958417,1.6615965967831,1.67262398996863,1.61306467875313,1.61062574583688,1.69979389245588,1.613880819729,1.61410858000133,1.61446920043253,1.73536245498547,1.61479186081834,1.61426042018289,1.61608250236157,1.61900542585653,1.61903389589057,1.73469815419116
1.82406559104845,1.84658538797554,1.80233346506319,1.8454940366706,1.8949369957899,1.84072056096292,1.79452318572438,1.90604030906622,1.96458418906756,1.83671577617437,1.90120989329045,1.97055340620499,1.97757601460198,1.89524067615302,1.89494648580125,1.88686099613337,1.77645420411917,1.87843386605699,1.77106387767392,1.76876729492788,1.76667949243148,1.76432596961735,1.76259878755215,1.76179213658763,1.76326308834646,1.84233386289196,1.76468659004855,1.82193033849531,1.8625760570957,1.90090621292734,1.93525056399313,1.82494816210375,1.81940599547694,1.92974635741171,1.81414852919055,1.88552290453341,1.92827540565288,1.92813305548267,1.80258969536957,1.79818633010443,1.79648761807327,1.79322305416981,1.79150536211595,1.91779843312549,1.85631264960649,1.85632213961784,1.78381845292466,1.9121803464079,1.85670174007173,1.91049112438809,1.85538262849446,1.78667494634019,1.86181685618791,1.79268212352301,1.8682985339381,1.79958136177248,1.90144714357414,1.95621399905926,1.87336619999755,1.96067430439248,1.86945631532247,1.9433550336837,1.93921738873629,1.94046058022278,1.9374522466257,1.93756612676187,1.86513836015946,1.95658410950181,1.93407380258607,1.86136133564324,1.9316918097379,1.93147353947691,1.9639293782846,1.85560089875545,1.85512639818808,1.94360177397873,1.85233633485199,1.93786031711363,1.93528852403852,1.94416168464822,1.84887248071023,1.92051257637081,1.93105597897763,1.92800019532381,1.93802164730653,1.93245101064568,1.83832907810341,1.92503931178346,1.83706690659422,1.90628704936125,1.83092686925253,1.82872518661996,1.8265235039874,1.82569787300018,1.82456856164986,1.91434406899508,1.84156517197283,1.80013178243062,1.74685485872702,1.74358080481221,1.78803201796285,1.73896865929743,1.85338023610019,1.83201822055747,1.77782076575318,1.72756166565801,1.72591040368358,1.77419558141852,1.72283564000707,1.93051504833084,1.71799573421995,1.72101355782839,1.77180409855901,1.77004844645976,1.71811910436747,1.71799573421995,1.93036320814928,1.71496842060017,1.83946787946508,1.63703644741635,1.63248124196966,1.62976709872434,1.62882758760096,1.74787028994118,1.6222130496919,1.74420714556113,1.61645261280411,1.71823298450364,1.75299489606871,1.75115383386734,1.61031257546242,1.6117930172326,1.74872439096243,1.60924969419153,1.72983926838135,1.61160321700565,1.65743048180164,1.61014175525817,1.84566485687485,1.69932888189986,1.61288436853753,1.61053084572341,1.61225802778861,1.61363407943397,1.73042764908489,1.78132257994032,1.73126277008345,1.72413577156164,1.61909083595865,1.66600945205958
1.8239137508669,1.84721172872446,1.79961932181787,1.79959085178383,1.79922074134129,1.7988221608647,1.79383041489603,1.83996136005514,1.86460691952401,1.78844008845078,1.83563391488078,1.78712097687351,1.7831636421417,1.899311891021,1.77841863646806,1.77673890445959,1.77447079174759,1.77089305746967,1.76917536541581,1.81455659967848,1.81371198866857,1.76442086973083,1.88435563313769,1.76198193681458,1.76317767824433,1.88246712087958,1.81341779831681,1.81425291931537,1.76951700582431,2.00996542333023,1.82527082248956,1.82514745234204,1.89175784198857,1.88767713710924,1.9264723034969,1.88387164255898,1.88109106923423,1.92538095219196,2.00417651640839,2.01881011390589,1.86940886526573,1.92036073618925,1.92084472676797,1.86231033677797,1.78763343748626,2.00333190539848,1.98717990608542,1.85609437934551,1.85539211850581,1.85592355914126,1.85761278116107,2.0130306969954,1.90576509873715,1.79085055133299,1.79618393771016,1.90378168636556,1.98290940097915,1.95759954071596,1.95565408838977,1.87054766662741,1.86837445402888,1.86817516379059,1.94065987046108,1.86620124143035,1.9407452805632,1.93425411280167,1.95305382528062,1.86287973745881,1.86196869636947,1.94627795717866,1.86050723462199,1.94448434503403,1.93870492812354,1.94397188442128,1.85567681884623,1.85249766504489,1.85226990477255,1.93513668385696,1.94477853538579,1.93538342415199,1.93004054776348,1.95017835184239,1.93526954401582,1.93088515877338,1.93234662052086,1.93133118930671,1.92725048442738,1.92117687716512,1.91852916399923,1.90404740668329,1.82860181647245,1.82693157447533,1.82589716323848,1.82272749944849,1.82432182135483,1.82350568037896,1.80328246619792,1.75028075282339,1.74721547915822,1.93823042755617,1.74103748177114,1.73981327030734,1.78310670207361,1.78063929912332,1.73148104034443,1.72790330606651,1.81321850807852,1.77560010309792,1.72098508779435,1.72174428870213,1.72243705953048,1.84657589796419,1.71758766373202,1.71958056611495,1.84282734348202,1.83964818968068,1.76648020219319,1.71826145453768,1.71733143342565,1.84631017764647,1.74973033216524,1.62768878623928,1.62592364412869,1.67207356931049,1.62024861734302,1.7486769409057,1.75338398653395,1.61370999952475,1.61360560939993,1.60971470474754,1.60990450497449,1.60868029351069,1.60985705491775,1.61000889509931,1.60980011484967,1.65660485081443,1.60701954152492,1.74210985305338,1.78748159730471,1.60820579294333,1.61055931575745,1.61041696558724,1.70020196294381,1.73372068302239,1.61073962597305,1.61318804890065,1.61007532517874,1.61289385854888,1.72663164454598,1.72430659176589
1.82271800943714,1.8023144850405,1.80044495280508,1.84420339512737,1.79595617743782,1.79449471569034,1.98397228225004,1.79068922114008,1.78879121887063,1.83592810523255,1.78721587698698,1.90131428341527,1.78289792182397,1.78031663873751,1.82556501284132,1.82351517039031,1.82179747833645,1.89119793131908,1.76824534430378,1.76685031263573,1.76421208948119,1.76318716825568,1.76353829867553,1.86113357537091,1.76305430809682,1.76466761002586,1.7657399813081,1.81434781942884,1.90425618693293,1.90177929397129,1.93407380258607,1.89784093926217,1.92994564765,1.92859806603869,1.81396821897495,1.81006782431122,1.88105310918884,1.87484664176772,1.92362530009272,1.87204708842028,1.870044696026,1.86730208274664,1.7920368027514,1.86146572576806,1.8595867035213,1.85813473178517,1.78397978311756,1.85680613019655,1.85482271782497,1.78473898402534,1.85836249205751,1.85759380113838,1.85916914302202,1.90526212813574,1.97376103004037,1.90031783222381,1.98693316579039,1.8728347593621,1.87176238807986,1.96388192822786,1.96336946761511,1.86698891237218,1.86593552111263,1.86565082077221,1.94543334616876,1.94404780451205,1.95079520257997,1.95355679588202,1.86249064699357,1.94460771518154,1.94812850939138,1.85997579398654,1.85841943212559,1.93537393414064,1.85561987877814,1.94069783050647,1.93191957001024,1.93382706229104,1.85036241249175,1.94077375059724,1.84595904722662,1.93457677318747,1.84579771703371,1.93186262994215,1.9285601059933,1.94112488101709,1.83700996652614,1.91924091485028,1.92462175128418,1.89777450918274,1.91297750736107,1.82814629592778,1.82813680591643,1.82458754167255,1.82393273088959,1.8961612072537,1.75516810866723,1.75366868687436,1.74723445918091,1.74407428540227,1.74052502115839,1.74043012104491,1.73255341162668,1.73382507314721,1.73076928949339,1.72975385827923,1.72483803240134,1.7248095623673,1.72255093966665,1.72232317939431,1.72189612888369,1.72048211719294,1.72098508779435,1.72067191741989,1.72107049789647,1.84033147049768,1.81598959139192,1.7185461548781,1.72001710663692,1.63532824537384,1.69657677860915,1.72513222275311,1.62557251370884,1.62285837046352,1.6180564247218,1.75066035327728,1.74932226167731,1.61226751779996,1.60997093505392,1.60983807489506,1.60790211258021,1.60640269078734,1.60754149214902,1.60656402098025,1.60836712313623,1.69661473865454,1.60739914197881,1.6061939105377,1.73894018926339,1.60735169192207,1.78387539299274,1.73371119301104,1.60911683403266,1.73154747042386,1.61030308545107,1.60937306433904,1.61061625582553,1.61278946842406,1.71721755328948,1.61391877977439
1.80607252953402,1.80011280240793,1.79928717142072,1.79983759207886,1.7991638012732,1.795851787313,1.90740687070022,1.90667613982648,1.78910438924509,1.8327869114766,1.83339427220282,1.89914107081675,1.88995473983258,1.86877303450547,1.82479632192219,1.82278443951657,1.89116946128504,1.76890015508674,1.76792268391797,1.76721093306693,1.76291195792661,1.76140304612239,1.76127018596353,1.76344339856206,1.76318716825568,1.76445882977622,1.76629989197759,1.86248115698222,1.90445547717122,2.00630227895018,1.82698851454341,1.89625610736718,1.89079935084249,1.92818050553941,1.88802826752909,1.92522911201041,2.0095573528423,1.87583360294784,1.92465971132957,1.80165018424619,2.006406669075,1.86513836015946,1.86326882792405,1.7894080696082,1.85993783394115,1.85816320181921,1.91205697626039,1.85557242872141,1.85383575664485,1.85357952633848,1.85688205028733,1.8583814720802,1.86014661419079,1.86304106765171,1.86796638354095,1.99114673082858,1.88237222076611,1.8724741389309,1.94489241552196,1.94305135332059,1.96428050870445,1.86560337071548,1.86602093121476,1.86435068921764,1.8639615987524,1.86223441668719,1.93356134197332,1.95087112267075,1.86123796549573,1.86139929568863,1.86014661419079,1.86001375403193,1.85799238161496,1.92547585230544,1.92773447500609,1.94131468124404,1.85286777548743,1.92295150928706,1.84986893190169,1.93071433856913,1.84887248071023,1.93142608942018,1.93684488589947,1.93378910224565,1.84186885233594,1.83914521907927,1.83710486663961,1.91853865401058,1.91280668715682,1.90912456275408,1.82863977651784,1.82624829365833,1.82398967095767,1.82417947118462,1.82293627969813,1.90700829022364,1.75846114260474,1.80023617255544,1.79642118799384,1.74490940640083,1.74390346519802,1.74109442183922,1.85460444756398,1.73259137167206,1.84808480976841,1.72775146588495,1.72809310629346,1.72535049301409,1.72370872105101,1.72291156009784,1.84876809058541,1.72209541912198,1.72078579755605,1.79706650876545,1.77033314680018,1.72069089744258,1.72126978813477,1.72127927814611,1.72094712774896,1.63272798226469,1.74835428051989,1.6258856840833,1.62243131995289,1.62230794980538,1.61896746581114,1.61595913221405,1.61324498896873,1.60906938397593,1.60770282234192,1.60721883176321,1.60592819021998,1.60647861087812,1.60548215968666,1.6042864182569,1.74178719266757,1.60341333721295,1.60517847932355,1.60535878953914,1.60666841110507,1.6056909399363,1.69787691016373,1.60710495162704,1.60757945219441,1.73028529891468,1.60905040395323,1.71230172741159,1.65882551346969,1.61044543562128,1.72756166565801,1.72933629777995
1.80527536858085,1.91407834867736,1.90902017262926,1.79474145598537,1.84524729637557,1.79343183441945,1.8402555504069,1.79044248084506,1.78912336926778,1.78678882647635,1.82970265778873,1.82869671658592,1.77968080797725,1.77677686450498,1.77650165417591,1.77213624895616,1.77042804691365,1.87727608467262,1.85803034166035,1.76446831978756,1.76651816223857,1.76318716825568,1.87994277786121,1.95367067601819,1.87519777218757,1.76302583806278,1.76406024929963,1.86548949057931,1.96452724899947,1.89898923063519,1.89878045038555,1.8949559758126,1.8959808970381,1.89214693245381,1.92337855979769,1.92754467477914,1.80760042136093,1.87828202587544,2.00612196873458,1.86941835527708,1.86674217207715,1.86546102054527,1.79093596143511,2.00335088542118,1.99538876590081,1.91351843800787,1.85851433223906,1.85610386935685,1.78274608164241,1.98982761925131,1.90941875310585,1.85702440045754,1.78635228595438,1.86382873859354,1.79344132443079,1.79662996824348,1.90155153369896,1.94388647431915,1.95564459837843,1.94333605366101,1.94467414526097,1.86504346004599,1.86834598399484,1.86395210874105,1.95649869939968,1.86350607820773,1.86232931680067,1.94693276796163,1.94931476080979,1.9431937034908,1.96012388373434,1.94409525456879,1.94527201597585,1.9339789024726,1.85371238649734,1.93517464390235,1.85294369557821,1.9355257743222,1.92707017421178,1.92249598874239,1.93296347125844,1.84277989342528,1.93555424435624,1.91162043573841,1.8422010027331,1.92224924844736,1.91611870111702,1.91571063062909,1.83314753190779,1.9017603139486,1.82739658503135,1.8259825733406,1.82874416664266,1.82395171091228,1.82223401885843,1.76124171592949,1.75784429186716,1.79985657210155,1.75073627336806,1.7470921090107,1.74276466383634,1.7866369862948,1.78410315326508,1.83990441998705,1.78062980911197,1.77637828402839,1.77559061308657,1.85180489421654,1.7270586950566,1.72538845305948,1.7216778586227,1.72188663887234,1.77170919844553,1.72442996191341,1.77011487653919,1.72336708064251,1.72239909948509,1.83462797367797,1.6326710421966,1.72535998302544,1.62633171461662,1.62335185105358,1.75048953307303,1.73702320697124,1.61519044129492,1.6130172286964,1.60783568250078,1.75021432274396,1.60874672359012,1.60789262256887,1.7474337494192,1.60372650758741,1.60442876842711,1.60349874731508,1.74358080481221,1.7432581444264,1.60460907864271,1.60375497762145,1.60355568738316,1.60337537716756,1.6048273489037,1.60522592938028,1.6533877369677,1.70766111186277,1.73079775952743,1.72863403694025,1.60920224413479,1.60768384231923,1.61041696558724,1.60697209146818
