1.68954127113355,1.69164227299248,1.77062651182618,1.7810355849629,1.78644638427083,1.68952208390196,1.6879583245275,1.68906159034384,1.78587076732318,1.68675912255323,1.78394245054854,1.6844758419942,1.78622573110756,1.78741533946604,1.68484039939438,1.78260893795315,1.78338602083248,1.68304639324087,1.68399616120449,1.68273939753545,1.68313273578302,1.68021627658158,1.78287755919538,1.68251874437219,1.68293126985134,1.78339561444827,1.68142507217165,1.78274324857426,1.7768911429398,1.68013952765522,1.68123319985576,1.681828004035,1.68019708934999,1.68046571059223,1.68023546381316,1.85941542600156,1.684159252673,1.68042733612905,1.68089742330297,1.6868070906322,1.68574219927904,1.68724839695873,1.74854200826792,1.82098340112997,1.75070057182161,1.82089705858782,1.74731402544626,1.74650816171955,1.90529209672946,1.8225855349676,1.82591451964819,1.91613288257692,1.82347774123647,1.8167909910279,1.81808612916012,1.8196115140714,1.82152064361445,1.81316460425769,1.81313582341031,1.81467080193738,1.81700205057538,1.81429665092141,1.81372103397376,1.9222919839168,1.73988856682154,1.81268492346798,1.81198458951501,1.82998221274494,1.73673226722525,1.80887625799768,1.81008505358775,1.73006470424827,1.73443939305043,1.81106360239876,1.80925040901366,1.83325363573076,1.80877072822395,1.80759071348126,1.7363197417461,1.80920244093469,1.80973008980337,1.81042083014055,1.83524910781596,1.73781634580999,1.7394568541108,1.81545747843251,1.74403300884464,1.81756807390723,1.81890158650263,1.91679484206672,1.90603080514561,1.83221752522499,1.83655383956397,1.9330560208379,1.91639191020336,1.88970247106388,1.89520920652975,1.88587461836199,1.88472338446668,1.88781252875242,1.88788927767877,1.88566355881451,1.88599933536731,1.81123628748306,1.88625836299375,1.88564437158293,1.88624876937796,1.88687235440458,1.88793724575774,1.8888294520266,1.89945917832658,1.8855292481934,1.90348849696015,1.89584238517217,1.88893498180034,1.88936669451108,1.81574528690634,1.9125160894225,1.89965105064247,1.90133952702225,1.90510022441358,1.81733782712817,1.89205290693346,1.89164038145431,1.89352073014997,1.89162119422272,1.89963186341088,1.90666398378803,1.909369383442,1.89506530229284,1.820283067177,1.82021591186644,1.89667702974626,1.91290942767006,1.90839083463099,1.89837509974184,1.91203640863279,1.91228584264344,1.82629826427996,1.82672038337491,1.91572995071356,1.82621192173781,1.89896990392108,1.90977231530536,1.9070573220356,1.8264037940537,1.93149226146344,1.91215153202232,1.9017424588856,1.91486652529208,1.9108659875059,1.92984215954684,1.9237789943649,1.91094273643225,1.91572995071356,1.90432314153425,1.90123399724851,1.90259629069129,1.82838007890731,1.82786202365442,1.91258324473306,1.91286145959109,1.82798674065974,1.82787161727021,1.82650932382744,1.82677794506967,1.82960806172896,1.82795795981236,1.82813064489666,1.82947375110785,1.90619389661412,1.91924121409424,1.90244279283858,1.90382427351295,1.83146922319304,1.94983525486196
1.69307172174581,1.69147918152398,1.78774152240305,1.69065413056567,1.69356099615132,1.68965639452308,1.69271675796143,1.6886298776331,1.68909037119122,1.68611635029501,1.68700855656387,1.77750513435063,1.85986632594389,1.85879184097494,1.68638497153725,1.779538980899,1.684811618547,1.78655191404456,1.78539108653347,1.78228275501614,1.68536804826307,1.86047072373893,1.68425518883094,1.684159252673,1.73326897192354,1.73261660604953,1.68443746753103,1.73182033593861,1.73055397865378,1.76931218646237,1.68258589968275,1.94242898346884,1.68088782968717,1.78063265309954,1.68278736561442,1.68370835273067,1.68303679962507,1.85693067951086,1.68376591442543,1.68473486962065,1.68593407159492,1.76956162047302,1.75034560803723,1.82608720473249,1.82398620287356,1.82316115191526,1.82583777072184,1.82069559265615,1.82078193519829,1.81982257361887,1.89929608685808,1.8242548241158,1.90206864182261,1.91983601827348,1.82707534715929,1.74395625991829,1.81643602724352,1.81971704384514,1.8280634895861,1.82506068784251,1.82902285116552,1.81262736177322,1.83059620415577,1.73869895846306,1.81073741946176,1.81012342805093,1.83190093590378,1.81044961098793,1.81029611313523,1.82970399788691,1.81020977059308,1.83182418697743,1.80953821748748,1.80839657720797,1.83271639324629,1.81283842132069,1.83266842516732,1.90911035581556,1.8325245209304,1.8093463451716,1.81211890013613,1.73691454592534,1.8363331864007,1.7397926306636,1.83533545035811,1.83421299731018,1.74379316844978,1.81528479334821,1.74654653618272,1.81900711627637,1.82959846811317,1.75341556509137,1.83558488436876,1.92649398763466,1.92545787712888,1.91290942767006,1.9136769169336,1.81291517024704,1.88481932062462,1.88565396519872,1.81047839183532,1.81078538754073,1.88563477796713,1.81239711499416,1.88856083078436,1.88895416903193,1.88768781174709,1.8886663605581,1.89018215185359,1.89019174546938,1.89054670925377,1.88633511192011,1.88567315243031,1.88598014813572,1.8977802955626,1.89881640606837,1.81576447413792,1.81525601250083,1.81516966995868,1.90232766944905,1.81635927831716,1.90763293898325,1.90150261849075,1.89949755278976,1.92702163650334,1.90835246016781,1.90728756881466,1.82186601378304,1.82185642016725,1.9159985719558,1.82380392417347,1.82212504140948,1.89743492539401,1.89830794443128,1.89773232748363,1.93281618044304,1.91865600353079,1.91801323127258,1.92597593238177,1.89868209544725,1.89965105064247,1.89951674002135,1.91857925460444,1.8262311089694,1.91555726562926,1.91256405750147,1.90636658169841,1.82781405557545,1.91994154804721,1.89829835081548,1.91140322999037,1.90979150253694,1.91626719319803,1.82864870014954,1.89848062951557,1.90298962893885,1.82833211082833,1.93642337998166,1.91124973213766,1.89816404019437,1.90321028210212,1.91955780341545,1.89842306782081,1.90218376521214,1.82828414274936,1.82859113845478,1.82750705987003,1.82765096410695,1.82985749573961,1.82998221274494,1.92942004045189,1.92508372611291,1.90527290949787,1.92307866041192,1.92011423313151,1.77054976289983
1.69361855784608,1.69105706242903,1.69305253451423,1.69528784699428,1.69339790468282,1.69414620671477,1.68797751175909,1.68992501576531,1.69264000903507,1.69303334728264,1.73688576507796,1.69100909435006,1.84496744061549,1.78935324985647,1.78784705217678,1.68625066091613,1.68882174994898,1.68661521831631,1.68675912255323,1.68487877385756,1.85789004109029,1.68595325882651,1.68437031222047,1.73570575033527,1.73431467604511,1.6846485270785,1.68505145894186,1.68532967379989,1.68453340368897,1.68376591442543,1.73412280372922,1.68399616120449,1.85758304538487,1.85863834312223,1.68353566764637,1.68487877385756,1.73370068463428,1.68491714832074,1.68626984814772,1.94209320691604,1.68792954368012,1.74977958470537,1.90299922255465,1.90590608814029,1.82305562214152,1.82416848157365,1.74945340176837,1.82263350304658,1.82714250246985,1.82667241529594,1.82273903282031,1.82899407031813,1.82270065835714,1.90398736498145,1.9032390629495,1.82902285116552,1.81601390814857,1.74324633234952,1.81798059938639,1.83209280821966,1.90203986097523,1.74046418376919,1.7401284072164,1.82947375110785,1.80949024940851,1.73977344343201,1.91845453759911,1.81118831940409,1.73682820338319,1.81073741946176,1.90793034107287,1.73710641824122,1.73691454592534,1.90785359214651,1.73789309473635,1.80926959624525,1.80903934946618,1.73745178840981,1.81213808736771,1.8346830844841,1.81323175956825,1.80942309409795,1.81170637465697,1.7406272752377,1.81511210826392,1.81633049746978,1.81653196340146,1.74588457669292,1.91055899180048,1.7494054336894,1.75289750983849,1.90978190892115,1.93147307423185,1.77219986481643,1.77214230312167,1.91869437799397,1.89542985969302,1.90288409916512,1.88919400942678,1.88597055451993,1.8883305840053,1.88688194802038,1.88713138203103,1.81261776815742,1.81594675283801,1.81135141087259,1.89006702846406,1.88772618621027,1.89040280501685,1.89154444529636,1.88714097564682,1.8866804820887,1.89099760919609,1.81323175956825,1.81362509781582,1.81297273194181,1.88375442927147,1.8969552446043,1.90163692911187,1.89201453247028,1.90037057182703,1.90583893282973,1.89980454849518,1.81954435876084,1.91627678681383,1.90277856939138,1.89531473630349,1.90580055836655,1.92190823928503,1.90934060259462,1.91189250439588,1.89686890206215,1.89891234222631,1.89800094872586,1.92800977893014,1.82514703038466,1.91775420364614,1.89954552086873,1.90079269092198,1.90098456323786,1.89936324216864,1.9019151439699,1.89920974431593,1.909695566379,1.90687504333551,1.90603080514561,1.8282169874388,1.90856351971529,1.92332809442257,1.90365158842865,1.90272100769661,1.9151639273817,1.90299922255465,1.90170408442243,1.90980109615274,1.91015605993712,1.90039935267442,1.90012113781638,1.82949293833943,1.90254832261232,1.90221254605952,1.89991967188471,1.90272100769661,1.90000601442685,1.83216955714602,1.82889813416019,1.82794836619657,1.82703697269612,1.90537843927161,1.90355565227071,1.90211660990158,1.92280044555389,1.93002443824693,1.92955435107301,1.77486689000722,1.77393630927518
1.69451076411494,1.74246924947018,1.69360896423029,1.79264386007389,1.79283573238977,1.69164227299248,1.69306212813002,1.69274553880881,1.79226970905791,1.79285491962136,1.7392937626423,1.69261122818769,1.86323368508766,1.69261122818769,1.69228504525069,1.69289903666152,1.69031835401288,1.68992501576531,1.76101370880039,1.78315577405341,1.6862986289951,1.68913833927019,1.73487110576117,1.73574412479845,1.73566737587209,1.73484232491379,1.7343242696609,1.68649050131099,1.73357596762895,1.73446817389782,1.7363197417461,1.73602233965648,1.78538149291767,1.68671115447425,1.95612866682296,1.68707571187443,1.68775685859582,1.68848597339618,1.77809034491407,1.68924386904392,1.73916904563698,1.89928649324229,1.90171367803822,1.82401498372094,1.82452344535803,1.82421644965262,1.82759340241218,1.82853357676001,1.82873504269169,1.82854317037581,1.92258938600642,1.90249076091755,1.74676718934599,1.82026387994541,1.82902285116552,1.82301724767834,1.82845682783366,1.74373560675502,1.81572609967475,1.81545747843251,1.81557260182204,1.81449811685309,1.81634009108558,1.74131801557488,1.74076158585882,1.81252183199948,1.83585350561099,1.81300151278919,1.81122669386726,1.8336853484415,1.83294664002535,1.83333038465712,1.91176778739055,1.80971090257178,1.91302455105959,1.81173515550436,1.81337566380517,1.81155287680427,1.81256020646266,1.83608375239005,1.83871240311767,1.73578249926162,1.81237792776257,1.81374981482114,1.74270908986504,1.74378357483399,1.74632588301946,1.74588457669292,1.90945572598415,1.82324749445741,1.91225706179606,1.91125932575346,1.92812490231967,1.91892462477303,1.8890021371109,1.81354834888946,1.81326054041564,1.88891579456875,1.8886759541739,1.81374022120535,1.88761106282074,1.88788927767877,1.88670926293608,1.88869514140548,1.81245467668892,1.8133181021104,1.81239711499416,1.88727528626794,1.89206250054925,1.81313582341031,1.89477749381901,1.90579096475076,1.88621039491478,1.9024140119912,1.89011499654303,1.88924197750575,1.88655576508338,1.88693950971514,1.91917405878368,1.91306292552277,1.89020133908517,1.81904549073954,1.89445131088201,1.8860185225989,1.82103136920894,1.9095324749105,1.90281694385456,1.9077096879096,1.91148957253252,1.89515164483498,1.82365042632076,1.8224224434991,1.89737736369924,1.91242974688035,1.89664824889888,1.91023280886348,1.90623227107729,1.91629597404542,1.90377630543398,1.91564360817141,1.90272100769661,1.91690996545625,1.90890888988388,1.90213579713317,1.90061041222189,1.89902746561584,1.89647556381459,1.9017520525014,1.82814983212824,1.93156901038979,1.90900482604182,1.91478977636573,1.90197270566467,1.9118541299327,1.92186027120606,1.9014162759486,1.91028077694245,1.90113806109057,1.90037057182703,1.90601161791403,1.90938857067359,1.90269222684923,1.90267303961764,1.90446704577116,1.90172327165402,1.82946415749205,1.82926269156037,1.82895569585496,1.82935862771831,1.90524412865049,1.82883097884963,1.90272100769661,1.90252913538073,1.83220793160919,1.8224320371149,1.86890351202203
1.79766132113426,1.69637192557902,1.69784934241133,1.74590376392451,1.74712215313037,1.78966024556189,1.69571955970501,1.69643908088958,1.69615127241575,1.69474101089401,1.7424404686228,1.69397352163047,1.69637192557902,1.68987704768634,1.69339790468282,1.69100909435006,1.79202986866306,1.78773192878725,1.68891768610692,1.77922239157779,1.69085559649735,1.69173820915042,1.68850516062777,1.68983867322317,1.68668237362687,1.68736352034826,1.6863082226109,1.68743067565882,1.68973314344943,1.77392671565939,1.68768010966947,1.79260548561071,1.79579056605439,1.79651008723895,1.68953167751775,1.68942614774402,1.76872697589893,1.68726758419032,1.68927264989131,1.69051022632876,1.69231382609807,1.83194890398275,1.75302222684381,1.82522377931101,1.82814983212824,1.82903244478131,1.75274401198578,1.82934903410252,1.82411091987888,1.82432197942636,1.82182763931986,1.83027002121876,1.81989932254523,1.81990891616102,1.81955395237664,1.90511941164517,1.82151104999865,1.83198727844593,1.83257248900937,1.91460749766564,1.83324404211497,1.83317688680441,1.81574528690634,1.74002287744266,1.83478861425784,1.81705001865435,1.74034906037966,1.83588228645838,1.8356712269109,1.81284801493648,1.81202296397818,1.91261202558044,1.81107319601456,1.73785472027317,1.80904894308198,1.83692799057994,1.80971090257178,1.80870357291339,1.92669545356634,1.73943766687922,1.91982642465768,1.73935132433707,1.81560138266942,1.81543829120092,1.81477633171112,1.81831637593918,1.81931411198178,1.83872199673346,1.83954704769176,1.82531971546895,1.82615436004305,1.9201238267473,1.91911649708891,1.91364813608622,1.91166225761681,1.89520920652975,1.88729447349953,1.89119907512777,1.81306866809975,1.89609181918282,1.89516123845078,1.90797830915184,1.88706422672047,1.88575949497246,1.81357712973684,1.88629673745693,1.88976003275864,1.81444055515832,1.89257096218634,1.88753431389438,1.88806196276307,1.89068101987488,1.89143891552263,1.90196311204887,1.90710529011457,1.88878148394763,1.88820586699998,1.89320414082876,1.89044117948003,1.90632820723524,1.89023011993256,1.89293551958652,1.90229888860167,1.91661256336663,1.89339601314465,1.90478363509237,1.91658378251924,1.82303643490993,1.893798945008,1.89406756625024,1.90494672656087,1.82316115191526,1.82128080321959,1.90960922383685,1.91210356394335,1.90899523242602,1.90035138459544,1.90325825018109,1.90875539203117,1.82637501320632,1.89697443183588,1.91510636568693,1.90821814954669,1.91586426133468,1.92151490103746,1.91749517601969,1.91808038658314,1.90962841106844,1.9019151439699,1.82885016608122,1.91610410172953,1.90524412865049,1.90929263451565,1.82895569585496,1.90343093526539,1.91037671310039,1.91832982059379,1.9184833184465,1.90364199481286,1.91288064682268,1.91882868861509,1.90662560932486,1.90466851170284,1.90454379469751,1.90244279283858,1.90515778610834,1.9055511243559,1.90345012249697,1.90446704577116,1.90630902000365,1.91045346202674,1.92338565611734,1.8302028659082,1.906059585993,1.77409940074368,1.77430086667536
1.79486957893814,1.69727372546368,1.6990485443856,1.7864943523498,1.69937472732261,1.79198190058409,1.69753275309012,1.69932675924364,1.69863601890645,1.69885667206972,1.69334993660385,1.69677485744238,1.69728331907947,1.79605918729662,1.69444360880439,1.69539337676801,1.6949136959783,1.69410783225159,1.69360896423029,1.69335953021964,1.7909649773099,1.79060041990972,1.69040469655502,1.69115299858697,1.69180536446098,1.69141202621342,1.85778451131655,1.69270716434563,1.93975236466225,1.69023201147073,1.68927264989131,1.68980029875999,1.68983867322317,1.69279350688778,1.68938777328084,1.78374098461686,1.69102828158165,1.69121056028174,1.78991927318833,1.69293741112469,1.85930030261203,1.8254156516269,1.75493135638686,1.82719047054882,1.82795795981236,1.82867748099693,1.82948334472364,1.82961765534476,1.90708610288298,1.82401498372094,1.8297135915027,1.82195235632519,1.82081071604568,1.83248614646723,1.90628023915626,1.81984176085046,1.82129999045118,1.81757766752303,1.82260472219919,1.81872890141833,1.83620846939538,1.8177887270705,1.81675261656473,1.83525870143175,1.83578635030043,1.91690037184045,1.73967750727407,1.81287679578387,1.83658262041135,1.81186946612548,1.81203255759398,1.83874118396505,1.81119791301988,1.80998911742981,1.83897143074411,1.73727910332552,1.83943192430223,1.8396525774655,1.73699129485169,1.73794106281532,1.84033372418689,1.73986937958995,1.81549585289569,1.81454608493206,1.81590837837484,1.81872890141833,1.91155672784308,1.81842190571292,1.84233878988788,1.84171520486125,1.82924350432878,1.83362778674674,1.84211813672461,1.93837088398789,1.77668008339233,1.88786049683139,1.88798521383671,1.9184833184465,1.88830180315792,1.8883401776211,1.9035748395023,1.89886437414734,1.81462283385841,1.81350038081049,1.81500657849018,1.8146516147058,1.81576447413792,1.88928035196893,1.81576447413792,1.89204331331766,1.89224477924934,1.91018484078451,1.90679829440915,1.88975043914285,1.91268877450679,1.88947222428481,1.81657993148043,1.88955856682696,1.88947222428481,1.90565665412964,1.81871930780254,1.89289714512335,1.81901670989216,1.90400655221304,1.90923507282088,1.821261615988,1.89723345946233,1.82256634773602,1.90800708999922,1.9121899064855,1.90514819249255,1.90215498436476,1.8265668855222,1.82651891744323,1.90955166214209,1.91048224287413,1.90638576893,1.91223787456447,1.90302800340203,1.91563401455562,1.82917634901822,1.90172327165402,1.90285531831773,1.90974353445797,1.92637886424513,1.8293874085657,1.91892462477303,1.90411208198677,1.90277856939138,1.90344052888118,1.91579710602412,1.82985749573961,1.90691341779868,1.91487611890787,1.91291902128586,1.83007814890288,1.9133411403808,1.92418192622825,1.83060579777156,1.82928187879196,1.82910919370767,1.91526945715544,1.90368996289183,1.90277856939138,1.90296084809147,1.90620349022991,1.90272100769661,1.90284572470194,1.9052249414189,1.90616511576673,1.82923391071299,1.90222213967531,1.83296582725694,1.90470688616601,1.9057238094402,1.77155709255822
1.69948985071214,1.69945147624896,1.70028612082306,1.74769777007803,1.74828298064147,1.70119751432351,1.6988854529171,1.70024774635988,1.69818511896413,1.70051636760212,1.69859764444328,1.69867439336963,1.69745600416377,1.69504800659942,1.69386799185673,1.6942517364885,1.79301801108986,1.69307172174581,1.69328278129329,1.6942613301043,1.69081722203418,1.78756883731875,1.79053326459916,1.69273594519302,1.69284147496675,1.69335953021964,1.78962187109871,1.79155978148914,1.79734473181305,1.79919629966133,1.73917863925277,1.79239442606324,1.69314847067217,1.69278391327199,1.69246732395078,1.69170942830304,1.69311009620899,1.86133414916041,1.6920931729348,1.69421336202532,1.6937528684672,1.83234224223031,1.83588228645838,1.83023164675559,1.82841845337048,1.83183378059322,1.82688347484341,1.90942694513676,1.82530052823737,1.91226665541185,1.83246695923564,1.91972089488395,1.82248959880966,1.91043427479516,1.83987323062877,1.74388910460773,1.83597822261632,1.83587269284258,1.82010078847691,1.83546976097922,1.83679367995883,1.83648668425341,1.74481968533976,1.81929492475019,1.74251721754916,1.83986363701297,1.81527519973242,1.74154826235394,1.81402802967917,1.81291517024704,1.73934173072127,1.92627333447139,1.81391290628964,1.81285760855228,1.81136100448838,1.81117872578829,1.81347159996311,1.81532316781139,1.8411395879136,1.74006125190584,1.74042580930602,1.92716554074025,1.92888279796742,1.9136769169336,1.8174529505177,1.91709224415634,1.91786932703567,1.82583777072184,1.75056626120049,1.82625988981679,1.83933598814429,1.84013225825521,1.83257248900937,1.9141757849549,1.90298962893885,1.81637846554875,1.89603425748805,1.89062345818012,1.89571766816684,1.89607263195123,1.81376900205273,1.89920974431593,1.89955511448453,1.89185144100178,1.81570691244316,1.81827800147601,1.81621537408025,1.8128192340891,1.81417193391609,1.8136538786632,1.89014377739041,1.89196656439131,1.88629673745693,1.9199703288946,1.88967369021649,1.91183494270111,1.89149647721739,1.89325210890773,1.89235990263887,1.90951328767891,1.89342479399203,1.90675032633018,1.90528250311367,1.90844839632576,1.81973623107673,1.90302800340203,1.90280735023876,1.90710529011457,1.9085443324837,1.90180961419616,1.89804891680484,1.8977707019468,1.89693605737271,1.82691225569079,1.82677794506967,1.91585466771888,1.91618085065589,1.90118602916954,1.9020782354384,1.82814983212824,1.82851438952842,1.83152678488781,1.90153139933813,1.82976155958167,1.90520575418731,1.90826611762567,1.82965602980794,1.90395858413407,1.9086978303364,1.92273329024333,1.91995114166301,1.91596979110841,1.91336032761239,1.90244279283858,1.83090319986118,1.92174514781653,1.82945456387626,1.9149912422974,1.90302800340203,1.90300881617044,1.90918710474191,1.90641454977738,1.915662795403,1.9025771034597,1.90316231402315,1.90780562406754,1.90667357740383,1.90628983277206,1.90800708999922,1.909369383442,1.90524412865049,1.90635698808262,1.83207362098808,1.90774806237278,1.77646902384485,1.7754041324917
1.70297233324543,1.70371104166159,1.80325439914228,1.70304908217179,1.70108239093398,1.79909076988759,1.7926246728423,1.70184028658172,1.69974887833858,1.70084255053912,1.78254178264259,1.76306674258035,1.69630477026846,1.69765747009544,1.96575106346455,1.69680363828976,1.69816593173254,1.79022626889375,1.74464700025547,1.6949136959783,1.7441001641552,1.75124740792188,1.69646786173696,1.69282228773516,1.6959114320209,1.69405027055682,1.79093619646252,1.69278391327199,1.69304294089843,1.74132760919067,1.69572915332081,1.6957483405524,1.79374712589022,1.69341709191441,1.69396392801467,1.69386799185673,1.69355140253552,1.69306212813002,1.69396392801467,1.69517272360474,1.69553728100492,1.91047264925833,1.7568500795457,1.91420456580228,1.83333997827291,1.91524067630805,1.90998337485283,1.91348504461771,1.83559447798455,1.83576716306885,1.83327282296235,1.75091163136909,1.82298846683096,1.75101716114282,1.9282400257092,1.83893305628093,1.82197154355678,1.83645790340603,1.83669774380088,1.74568311076124,1.74425366200791,1.83938395622326,1.83851093718599,1.74167297935927,1.74239250054383,1.7427666515598,1.83744604583283,1.92836474271453,1.81422949561085,1.84155211339275,1.93210625287427,1.84164804955069,1.8409764964451,1.84070787520286,1.81208052567295,1.91922202686265,1.73987897320575,1.83927842644952,1.84041047311324,1.81240670860995,1.81295354471022,1.81452689770047,1.74354373443914,1.81832596955498,1.84302953022506,1.84152333254537,1.84215651118779,1.82366001993656,1.84225244734573,1.84201260695087,1.84308709191982,1.84290481321973,1.76117680026889,1.9184737248307,1.89195697077551,1.8926381174969,1.89874925075781,1.90098456323786,1.90902401327341,1.88879107756343,1.89707036799383,1.88898294987931,1.89360707269212,1.81634968470137,1.89499814698228,1.89194737715972,1.89035483693788,1.81521763803765,1.81564935074839,1.81635927831716,1.89688808929374,1.89003824761667,1.89985251657415,1.89022052631676,1.81707879950173,1.81683895910687,1.90978190892115,1.90892807711547,1.90279775662297,1.81935248644496,1.81995688423999,1.91510636568693,1.81966907576617,1.82274862643611,1.91008890462656,1.89573685539843,1.82357367739441,1.89552579585096,1.82568427286913,1.91313967444912,1.90746984751475,1.89854778482613,1.82720965778041,1.90623227107729,1.90594446260347,1.90770009429381,1.92598552599757,1.82534849631634,1.82450425812645,1.90178083334878,1.91217071925391,1.90227970137008,1.90998337485283,1.91503921037638,1.91188291078008,1.9085347388679,1.83076888924006,1.92893076604639,1.89965105064247,1.92273329024333,1.9199607352788,1.92646520678728,1.90512900526096,1.90528250311367,1.90346930972856,1.90483160317134,1.90387224159192,1.83081685731903,1.91396472540742,1.91901096731518,1.90466851170284,1.90608836684038,1.90549356266114,1.90755619005689,1.9070573220356,1.90515778610834,1.90876498564696,1.90818936869931,1.90821814954669,1.91322601699127,1.90850595802052,1.90652007955112,1.91200762778541,1.91684281014569,1.83167068912472,1.77675683231868
1.70670424978938,1.7050157734096,1.70627253707864,1.7046799968568,1.70472796493577,1.70039165059679,1.70191703550807,1.70327932895085,1.70493902448325,1.74942462092098,1.70084255053912,1.7015332908763,1.70207053336078,1.79821775085032,1.74794720408868,1.69968172302802,1.69862642529066,1.69800284026404,1.69968172302802,1.79715285949716,1.69934594647522,1.69687079360032,1.79408290244302,1.69612249156837,1.74598051285086,1.79507104486982,1.69783015517974,1.79235605160006,1.69648704896855,1.69479857258877,1.69579630863137,1.78982333703039,1.69608411710519,1.69631436388426,1.69712022761097,1.69530703422586,1.86795374405841,1.79057163906234,1.7790401128777,1.74552001929274,1.74599970008245,1.90906238773658,1.83824231594375,1.90871701756799,1.9184737248307,1.91780217172511,1.9171498058511,1.91819550997267,1.83721579905377,1.9188095013835,1.82891732139178,1.93219259541642,1.75219717588551,1.91163347676943,1.82282537536246,1.74817745086774,1.74829257425727,1.83886590097037,1.82182763931986,1.83929761368111,1.91223787456447,1.84307749830403,1.74247884308598,1.84116836876098,1.84245391327741,1.84239635158264,1.8419742324877,1.8418015474034,1.81881524396048,1.7421142856858,1.84255944305114,1.84288562598815,1.84171520486125,1.84290481321973,1.81323175956825,1.73985019235837,1.84431507474148,1.9153270188502,1.81241630222575,1.91585466771888,1.81562056990101,1.74307364726522,1.91869437799397,1.91841616313594,1.84231960265629,1.82217300948845,1.8230939966047,1.84526484270511,1.75288791622269,1.84153292616116,1.84334611954627,1.84240594519844,1.84278009621441,1.92701204288755,1.89613978726179,1.89476790020322,1.91503921037638,1.91108664066916,1.89286836427596,1.9121899064855,1.90594446260347,1.89051792840638,1.89624531703552,1.89507489590863,1.89561213839311,1.81684855272267,1.8186233716446,1.81533276142718,1.81705001865435,1.89547782777199,1.9053880328874,1.89140054105945,1.81747213774929,1.89298348766549,1.88917482219519,1.90101334408525,1.81913183328169,1.90876498564696,1.9057238094402,1.91577791879253,1.82073396711932,1.81974582469252,1.90601161791403,1.91596019749262,1.82335302423114,1.89669621697785,1.90610755407197,1.90369955650762,1.89779948279419,1.89877803160519,1.90134912063804,1.91587385495047,1.89948795917397,1.8984326614366,1.82730559393835,1.92215767329568,1.90566624774544,1.91552848478188,1.91411822326013,1.82972318511849,1.91905893539415,1.91055899180048,1.92042122883693,1.91520230184488,1.90560868605067,1.9201334203631,1.91989357996824,1.91269836812259,1.91626719319803,1.92634048978195,1.92257019877483,1.9053880328874,1.92192742651662,1.83015489782923,1.91899178008359,1.91162388315364,1.9055607179717,1.90592527537188,1.92797140446697,1.91546132947132,1.90361321396548,1.90515778610834,1.90677910717756,1.83231346138293,1.90614592853515,1.91042468117936,1.90644333062477,1.90898563881023,1.91134566829561,1.83308095064647,1.91734167816698,1.9065488603985,1.90626105192468,1.92409558368611,1.92500697718656,1.95881487924534
1.80294740343686,1.70504455425698,1.706675468942,1.70765401775301,1.70460324793045,1.97719624710704,1.98617587149042,1.70505414787278,1.7056873265152,1.70442096923036,1.7038645395143,1.70504455425698,1.79507104486982,1.70558179674146,1.79909076988759,1.69998871873344,1.74936705922622,1.81697326972799,1.75058544843208,1.70092889308127,1.7025310269189,1.79639496384942,1.74681515742496,1.69900057630663,1.74721808928832,1.74634507025104,1.69967212941223,1.81297273194181,1.69793568495348,1.74737158714102,1.74599010646666,1.74679597019337,1.6964103000422,1.69637192557902,1.69790690410609,1.6997105038754,1.69725453823209,1.69820430619571,1.69729291269526,1.74901209544183,1.69786852964292,1.83343591443085,1.83372372290468,1.83191052951957,1.83276436132526,1.83108547856127,1.83595903538473,1.82984790212382,1.8298766829712,1.83755157560657,1.75192855464327,1.82666282168014,1.84138902192425,1.84217569841938,1.82457141343701,1.82287334344143,1.82267187750975,1.92661870463998,1.84016103910259,1.84242513243002,1.7459133575403,1.82071477988773,1.81910305243431,1.84136983469266,1.81926614390281,1.81423908922664,1.84532240439987,1.93270105705351,1.74202794314365,1.84058315819754,1.93197194225315,1.84257863028273,1.74234453246486,1.84332693231468,1.81560138266942,1.7407807730904,1.93461978021235,1.81677180379632,1.94109547087344,1.81594675283801,1.81622496769605,1.81868093333936,1.81853702910245,1.92780831299846,1.81871930780254,1.81874808864992,1.84848829761196,1.84752893603254,1.84602273835285,1.91982642465768,1.83188174867219,1.92445054747049,1.84028575610792,1.78051752971001,1.78057509140477,1.92200417544297,1.90567584136123,1.89333845144988,1.91204600224858,1.90635698808262,1.89300267489708,1.89227356009672,1.8957944170932,1.8196211076872,1.81707879950173,1.81641684001193,1.81742416967032,1.81730904628079,1.81798059938639,1.8929738940497,1.89234071540728,1.81975541830831,1.81937167367655,1.91713061861951,1.8186137780288,1.91920283963106,1.90700935395662,1.82023509909802,1.90189595673831,1.8196211076872,1.92016220121048,1.82352570931544,1.89383731947118,1.9178117653409,1.93184722524783,1.91196925332223,1.89874925075781,1.89807769765222,1.93107014236849,1.8263942004379,1.82637501320632,1.90168489719084,1.91815713550949,1.90032260374806,1.90182880142775,1.83075929562427,1.91736086539857,1.91282308512791,1.90633780085103,1.90608836684038,1.83072092116109,1.92548665797627,1.83226549330396,1.9088705154207,1.91919324601527,1.83286989109899,1.91294780213324,1.91007931101077,1.92038285437375,1.83350306974141,1.91812835466211,1.91600816557159,1.83248614646723,1.90847717717314,1.91175819377476,1.90793993468866,1.9053880328874,1.90868823672061,1.90629942638785,1.90545518819796,1.91723614839325,1.92888279796742,1.90935019621041,1.9118445363169,1.91195006609064,1.91193087885905,1.9121899064855,1.90604039876141,1.91220909371708,1.91176778739055,1.906059585993,1.92339524973313,1.92239751369053,1.93296008467995,1.93020671694702,1.77230539459017
1.70935208774858,1.70747173905292,1.70727986673703,1.70905468565896,1.7089875303484,1.95562979880166,1.7098221749225,1.87851631504783,1.70674262425256,1.70680977956312,1.70150451002892,1.70293395878226,1.70368226081421,1.70620538176808,1.70369185443,1.70079458246015,1.70564895205202,1.7015428844921,1.70306826940338,1.70164841426583,1.74967405493163,1.79172287295764,1.79244239414221,1.70103442285501,1.70160044618686,1.74901209544183,1.79598243837027,1.79594406390709,1.78470034619628,1.74791842324129,1.70015181020194,1.70066986545483,1.87073589263873,1.70067945907062,1.70169638234481,1.69932675924364,1.74776492538859,1.70097686116024,1.70116873347612,1.69957619325429,1.70072742714959,1.9136769169336,1.83903858605467,1.91575873156094,1.83855890526496,1.833522256973,1.83126775726136,1.8331864804202,1.83042351907147,1.83162272104575,1.82909960009187,1.82962724896055,1.93658647145016,1.92512210057609,1.82504150061092,1.91558604647664,1.82460019428439,1.92053635222646,1.84232919627208,1.91964414595759,1.8429623749145,1.81972663746093,1.82025428632961,1.93476368444926,1.81882483757628,1.8159659400696,1.74271868348083,1.8454471214052,1.8177887270705,1.81652236978567,1.81654155701725,1.81567813159578,1.81956354599243,1.81558219543783,1.7424404686228,1.84625298513191,1.74220062822795,1.94145043465783,1.81616740600128,1.84638729575303,1.81634009108558,1.81907427158693,1.92842230440929,1.84662713614789,1.74720849567252,1.8219331690936,1.8220962605621,1.75274401198578,1.93318073784322,1.75796293897783,1.84683819569536,1.84781674450637,1.92287719448024,1.91997992251039,1.91760070579343,1.8962932851145,1.9284127107935,1.91282308512791,1.8947966810506,1.92631170893457,1.81943882898711,1.8946335895821,1.89458562150313,1.89493099167172,1.81883443119207,1.81898792904478,1.81765441644938,1.81789425684424,1.89541067246143,1.8957848234774,1.81864255887619,1.89404837901865,1.89881640606837,1.8972718339255,1.90726838158307,1.90313353317576,1.82205788609892,1.82177967124089,1.91790770149884,1.91157591507467,1.89202412608607,1.90011154420059,1.82679713230126,1.82539646439531,1.9007639100746,1.91412781687593,1.91629597404542,1.90086943984833,1.9015793674171,1.90155058656972,1.92418192622825,1.90260588430708,1.92896914050956,1.9025771034597,1.83201605929331,1.90486997763452,1.9254290962815,1.90343093526539,1.93565589071813,1.90650089231953,1.92905548305171,1.83201605929331,1.90518656695572,1.90602121152982,1.90888010903649,1.91746639517231,1.91264080642782,1.92266613493277,1.91413741049172,1.91875193968873,1.91855047375705,1.83404031222589,1.91100029812701,1.92188905205344,1.9173224909354,1.92461363893899,1.83211199545125,1.83188174867219,1.92107359471093,1.91988398635245,1.91593141664524,1.90841961547837,1.90848677078893,1.91153754061149,1.91233381072241,1.91312048721753,1.91272714896997,1.91473221467096,1.90886092180491,1.90968597276321,1.9088705154207,1.90798790276763,1.90744106666736,1.90856351971529,1.77530819633375,1.86191935972385
1.96559756561184,1.88223863797598,1.80373407993199,1.70977420684353,1.82260472219919,1.7088244388799,1.95940008980879,1.70927533882223,1.75633202429281,1.80893381969245,1.70735661566339,1.70861337933243,1.70704961995797,1.80424254156908,1.7051788648781,1.70599432222061,1.7058408243679,1.70423869053027,1.70481430747792,1.70475674578316,1.70318339279291,1.79354565995854,1.70093848669706,1.79828490616088,1.79738310627622,1.70010384212297,1.70077539522856,1.70293395878226,1.75020170380031,1.69974887833858,1.7012167015551,1.70281883539273,1.70312583109814,1.70280924177693,1.69948025709634,1.70302030132441,1.70280924177693,1.86518118909388,1.86594867835742,1.86852936100606,1.70119751432351,1.915662795403,1.83503804826849,1.84206057502984,1.84254025581955,1.83314810595703,1.83264923793573,1.83005896167129,1.83108547856127,1.83124857002977,1.8456102128737,1.82948334472364,1.82877341715487,1.84414238965719,1.8275646215648,1.82514703038466,1.84333652593047,1.84557183841052,1.82460019428439,1.82366961355235,1.94240979623725,1.84554305756314,1.82493597083719,1.8456102128737,1.81711717396491,1.81957313960822,1.84672307230583,1.928901985199,1.8484211423014,1.81590837837484,1.81704042503855,1.74318877065475,1.84886244862794,1.8484211423014,1.74099183263788,1.74375479398661,1.74309283449681,1.8158028486011,1.81806694192853,1.92199458182718,1.7454240831348,1.85201874822423,1.8229213115204,1.82200991801995,1.82021591186644,1.82854317037581,1.82824576828619,1.75442289474977,1.94420380239076,1.83664977572191,1.83571919498987,1.8384917499544,1.95158129293651,1.95562979880166,1.92565934306056,1.91579710602412,1.91905893539415,1.91952902256806,1.89500774059807,1.89713752330439,1.89555457669834,1.92028691821581,1.90180961419616,1.82232650734116,1.89902746561584,1.82081071604568,1.81951557791346,1.81929492475019,1.8982791635839,1.89805851042063,1.91590263579785,1.89376057054482,1.89516123845078,1.89509408314022,1.89487342997695,1.82269106474134,1.9130149574438,1.88808114999465,1.82161657977239,1.82427401134739,1.90979150253694,1.91824347805164,1.91224746818026,1.82597208134296,1.92064188200019,1.82584736433763,1.90960922383685,1.90996418762124,1.92593755791859,1.91211315755914,1.92200417544297,1.90968597276321,1.91795566957781,1.90383386712874,1.90400655221304,1.90552234350852,1.90571421582441,1.92320337741725,1.90486997763452,1.91955780341545,1.90661601570906,1.906059585993,1.83285070386741,1.90679829440915,1.9202965118316,1.93009159355749,1.92160124357961,1.90667357740383,1.92600471322915,1.90652007955112,1.91563401455562,1.91893421838882,1.91313967444912,1.91578751240832,1.93721965009258,1.92935288514133,1.91661256336663,1.91620963150327,1.83462552278933,1.90800708999922,1.91611369534533,1.90693260503027,1.90662560932486,1.90680788802495,1.91327398507024,1.90940775790518,1.91476099551834,1.91314926806492,1.91399350625481,1.91244893411194,1.91255446388568,1.92674342164531,1.83337835273609,1.93906162432507,1.77547128780226,1.77332231786435
1.80794567726565,1.71476288705652,1.8121668682151,1.77554803672861,1.82570346010072,1.79425558752731,1.71152024491807,1.75937320049958,1.70953436644867,1.71011957701212,1.70663709447882,1.70824882193225,1.70907387289055,1.80327358637387,1.70754848797927,1.80582548817513,1.80385879693731,1.70586960521529,1.70698246464741,1.9625276085577,1.9719677264992,1.70035327613362,1.70497739894642,1.70446893730933,1.70338485872459,1.70630131792602,1.70391250759327,1.70399885013542,1.70538033080978,1.70366307358262,1.75153521639571,1.75165033978524,1.70514049041493,1.75267685667522,1.75168871424842,1.70323136087188,1.70464162239363,1.70376860335635,1.70326973533506,1.75253295243831,1.75225473758028,1.76409325947033,1.84222366649835,1.83696636504312,1.84259781751432,1.83376209736786,1.84537037247885,1.83836703294907,1.84244431966161,1.83188174867219,1.83214077629863,1.75637999237178,1.84508256400502,1.84582127242117,1.75308938215437,1.8451209384682,1.84634892128985,1.84595558304229,1.8454471214052,1.74951096346313,1.82045575226129,1.74903128267342,1.82304602852573,1.82528134100578,1.82228813287798,1.84871854439102,1.81790385046003,1.74574067245601,1.84944765919138,1.85037823992342,1.81870012057095,1.85170215890302,1.85100182495005,1.81571650605895,1.84836358060664,1.84930375495447,1.81593715922222,1.81723229735444,1.92684895141904,1.85232574392965,1.81826840786021,1.81882483757628,1.84869935715944,1.84986018467053,1.82400539010515,1.8257322409481,1.82610639196408,1.85178850144517,1.75670617530879,1.85003286975483,1.84956278258091,1.76362317229641,1.92904588943592,1.92699285565596,1.90696138587765,1.82402457733674,1.89749248708877,1.89703199353065,1.91176778739055,1.89830794443128,1.89809688488381,1.90581974559814,1.90652967316691,1.82302684129414,1.8219331690936,1.82092583943521,1.82022550548223,1.82211544779369,1.89663865528309,1.90046650798498,1.90856351971529,1.906711951867,1.89624531703552,1.89623572341973,1.89567929370367,1.82318033914685,1.89675377867262,1.90543600096637,1.90669276463542,1.82546361970587,1.91542295500814,1.92303069233295,1.9057238094402,1.82705615992771,1.82675875783808,1.91213234479073,1.91204600224858,1.9092062919735,1.82964643619214,1.91495286783423,1.83243817838826,1.90295125447567,1.83078807647165,1.92611983661868,1.92904588943592,1.9151639273817,1.91558604647664,1.83276436132526,1.83234224223031,1.90703813480401,1.92458485809161,1.90727797519886,1.92645561317148,1.83351266335721,1.9289115788148,1.92810571508808,1.90536884565581,1.8341842164628,1.91938511833115,1.92894995327798,1.90565665412964,1.91706346330895,1.91241055964876,1.92919938728862,1.91941389917853,1.93298886552734,1.91310129998595,1.91157591507467,1.91042468117936,1.93344935908546,1.9097051599948,1.90827571124146,1.92797140446697,1.91276552343315,1.91423334664966,1.91298617659642,1.91242974688035,1.91434847003919,1.91353301269668,1.91247771495932,1.83296582725694,1.92423948792302,1.92452729639685,1.90842920909417,1.77542331972328,1.7720847414269
1.71696941868918,1.71491638490922,1.71405295948774,1.71423523818783,1.71691185699442,1.76207860015354,1.76007353445255,1.75989125575246,1.71256594903964,1.71294010005562,1.71069519395977,1.70751011351609,1.70987014300147,1.70840231978496,1.70952477283288,1.79937857836142,1.70628213069444,1.70800898153739,1.71010038978053,1.70631091154182,1.70546667335193,1.70374941612477,1.80445360111655,1.7058408243679,1.80220869502071,1.80220869502071,1.70339445234038,1.7046799968568,1.70447853092513,1.87947567662725,1.98005514461371,1.70340404595617,1.75303182045961,1.75377052887576,1.78701240760269,1.78810607980323,1.87850672143204,1.7071647433475,1.7076636113688,1.95940008980879,1.87214615416048,1.84686697654274,1.84455491513634,1.83877955842823,1.8375036075276,1.83713905012742,1.84866098269626,1.84936131664924,1.83307135703067,1.83381006544683,1.84685738292695,1.75742569649335,1.82952171918682,1.94617049362858,1.84443019813101,1.82676835145388,1.84603233196865,1.75376093525997,1.84730828286928,1.94486576188056,1.74987552086331,1.85177890782938,1.74980836555275,1.82224975841481,1.8224224434991,1.92257019877483,1.7465753170301,1.93224056349539,1.74610522985619,1.82107933728791,1.82254716050443,1.82340099231011,1.85048376969716,1.81798059938639,1.8192757375186,1.74457025132912,1.8550503308152,1.820935433051,1.81902630350795,1.8529013608773,1.81971704384514,1.85482967765193,1.92877726819368,1.93565589071813,1.82335302423114,1.82423563688421,1.82576102179549,1.85064686116566,1.83283151663582,1.85192281206629,1.83861646695972,1.83792572662254,1.8547145542624,1.93515702269683,1.90283613108614,1.90831408570464,1.91502002314479,1.91733208455119,1.89979495487938,1.90132993340645,1.82318993276264,1.89582319794058,1.82578980264287,1.82422604326841,1.82212504140948,1.82414929434206,1.82321871361002,1.82332424338376,1.82380392417347,1.82343936677329,1.90581974559814,1.90252913538073,1.92132302872158,1.93107973598429,1.89722386584653,1.91237218518559,1.92134221595317,1.89998682719526,1.90002520165844,1.93173210185829,1.88934750727949,1.92233035837997,1.91958658426283,1.91049183648992,1.82870626184431,1.82904203839711,1.9153270188502,1.91692915268783,1.82866788738113,1.90731634966204,1.83086482539801,1.83231346138293,1.83221752522499,1.83218874437761,1.91945227364171,1.9362027268184,1.90893767073126,1.8350188610369,1.83354144420459,1.92519884950244,1.90769050067801,1.91590263579785,1.92207133075353,1.92300191148557,1.91687159099307,1.91761029940922,1.9088705154207,1.91477058913414,1.9163247548928,1.91659337613504,1.90843880270996,1.91896299923621,1.91538458054497,1.90858270694687,1.90623227107729,1.91279430428053,1.90927344728406,1.90932141536303,1.83410746753645,1.90717244542513,1.91246812134353,1.90818936869931,1.91060695987945,1.90912954304714,1.91332195314921,1.9125160894225,1.91099070451122,1.83398275053112,1.91170063207999,1.91505839760796,1.90891848349967,1.91856966098864,1.92065147561599,1.90888010903649,1.86334880847719,1.77427208582798
1.71953091410624,1.71624030388882,1.71615396134668,1.71759300371581,1.71773690795272,1.71375555739812,1.7161059932677,1.80664094551763,1.71386108717186,1.71537687846734,1.80524027761168,1.71189439593405,1.81317419787349,1.71247960649749,1.75813562406212,1.75788619005147,1.71000445362259,1.70869012825878,1.79770928921323,1.75507526062377,1.70828719639543,1.70637806685238,1.80585426902251,1.70553382866249,1.88144236786506,1.8035518012319,1.70685774764209,1.7089971239642,1.80949984302431,1.70731824120021,1.80250609711033,1.70787467091627,1.78750168200819,1.75376093525997,1.7553630690976,1.75537266271339,1.70637806685238,1.70754848797927,1.79122400493634,1.70963030260661,1.70947680475391,1.83968135831288,1.83783938408039,1.83671693103247,1.83846296910702,1.84649282552677,1.84707803609021,1.8487569188542,1.7629708064224,1.84740421902722,1.84972587404942,1.92585121537645,1.92570731113953,1.75599624774002,1.75588112435049,1.85184606313994,1.92529478566038,1.92611024300289,1.92865255118835,1.74998105063705,1.82532930908475,1.82565549202175,1.85200915460844,1.82253756688863,1.74948218261575,1.85212427799797,1.74656572341431,1.85560676053126,1.85601928601042,1.8194484226029,1.82108893090371,1.85479130318876,1.82010078847691,1.85361128844607,1.81856580994983,1.82038859695073,1.85266152048244,1.85392787776728,1.74640263194581,1.74753467860953,1.82459060066859,1.8230939966047,1.85617278386312,1.85541488821538,1.82529093462157,1.75295507153325,1.85695946035825,1.85562594776285,1.75823156022007,1.76079305563712,1.8381655670174,1.85252720986132,1.93555036094439,1.93230771880595,1.91536539331338,1.82704656631191,1.8267395706065,1.92319378380145,1.93547361201804,1.91538458054497,1.91190209801167,1.89979495487938,1.82559793032699,1.82647094936426,1.82535808993213,1.82446588366327,1.89805851042063,1.8972718339255,1.90183839504355,1.9014162759486,1.90148343125916,1.90001560804265,1.89871087629464,1.82580898987446,1.90024585482171,1.91026158971086,1.90037057182703,1.92040204160534,1.91915487155209,1.89922893154752,1.89561213839311,1.89671540420944,1.90237563752802,1.90154099295393,1.83017408506082,1.91291902128586,1.90597324345085,1.89717589776756,1.83101832325071,1.83081685731903,1.83177621889845,1.92504535164973,1.83347428889403,1.91923162047844,1.91832022697799,1.94537422351766,1.90881295372594,1.90793993468866,1.92520844311823,1.90982028338433,1.90930222813144,1.90964759830003,1.92121749894784,1.92114075002149,1.91041508756357,1.90973394084218,1.93196234863736,1.90988743869489,1.91832022697799,1.91656459528765,1.83586309922679,1.93116607852644,1.93012037440487,1.90689423056709,1.91638231658756,1.91838738228855,1.90890888988388,1.92010463951572,1.91030955778983,1.91154713422728,1.91192128524326,1.91974008211554,1.90912954304714,1.90997378123703,1.91270796173838,1.91551889116609,1.91288064682268,1.91474180828675,1.91560523370823,1.83293704640955,1.92702163650334,1.90937897705779,1.90883214095752,1.90935019621041,1.82291171790461,1.82584736433763
1.71974197365371,1.72214997121805,1.71733397608936,1.97967139998195,1.71449426581428,1.71648973789947,1.71671998467853,1.71655689321003,1.71983790981165,1.71624989750462,1.71411052118251,1.7142832062668,1.71377474462971,1.7608314301003,1.71175049169713,1.71317994045047,1.71042657271753,1.86957506512763,1.70969745791717,1.75909498564154,1.70771157944777,1.80994114935084,1.70971664514876,1.70973583238035,1.70830638362701,1.70659872001565,1.80579670732774,1.71004282808577,1.75604421581899,1.70751011351609,1.80535540100121,1.70837353893757,1.70829679001122,1.70876687718514,1.70955355368026,1.88173017633889,1.70698246464741,1.70652197108929,1.75632243067702,1.70911224735373,1.70945761752232,1.92249344984847,1.84003632209727,1.84106283898725,1.92585121537645,1.92468079424955,1.8351819525054,1.76287487026446,1.83605497154267,1.76275015325914,1.85254639709291,1.85110735472378,1.85222021415591,1.83188174867219,1.9502669675727,1.92613902385027,1.75695560931944,1.75491216915527,1.8515678482819,1.75308938215437,1.85295892257206,1.75303182045961,1.82685469399603,1.82452344535803,1.75092122498488,1.8293778149499,1.85561635414706,1.82196194994098,1.74914640606295,1.74787045516232,1.82202910525154,1.7469110935829,1.82103136920894,1.820283067177,1.74623954047731,1.82229772649378,1.85835053464841,1.82080112242988,1.82248959880966,1.82214422864107,1.74891615928389,1.74959730600528,1.82503190699513,1.82455222620542,1.85559716691547,1.85596172431565,1.82649973021164,1.75984328767349,1.8553765137522,1.95270374598443,1.76668353573476,1.85484886488352,1.85619197109471,1.94174783674745,1.78684931613418,1.90418883091313,1.82947375110785,1.91279430428053,1.91307251913856,1.82819780020722,1.91153754061149,1.89978536126359,1.90030341651647,1.82729600032256,1.82550199416904,1.82665322806435,1.89616856810917,1.90600202429823,1.90533047119264,1.90131074617487,1.82605842388511,1.82563630479016,1.82617354727464,1.90050488244815,1.90007316973741,1.82731518755415,1.92102562663196,1.9237694007491,1.91909730985732,1.9164878463613,1.92014301397889,1.90415045644995,1.90631861361944,1.90699976034083,1.90345012249697,1.83109507217707,1.8307017339295,1.91900137369938,1.9065488603985,1.83256289539358,1.91474180828675,1.91634394212439,1.92002789058936,1.92254141792744,1.91845453759911,1.91895340562041,1.91772542279875,1.91521189546067,1.92747253644567,1.91640150381915,1.91860803545182,1.91837778867276,1.91089476835328,1.92168758612176,1.90644333062477,1.83588228645838,1.9163247548928,1.91199803416961,1.93907121794086,1.93024509141019,1.92622536639242,1.90628023915626,1.90717244542513,1.91523108269226,1.94633358509708,1.92489185379703,1.83414584199962,1.9396756157359,1.90957084937368,1.92662829825578,1.90840042824678,1.90742187943578,1.83596862900052,1.90899523242602,1.90948450683153,1.90720122627251,1.91939471194695,1.9154901103187,1.90896645157864,1.83498048657372,1.83557529075296,1.90711488373036,1.90971475361059,1.91062614711104,1.77413777520686,1.94144084104203
1.77226702012699,1.77066488628936,1.80593101794886,1.77155709255822,1.71875383122691,1.72064377353836,1.83386762714159,1.71960766303259,1.81061270245643,1.71948294602726,1.71582777840967,1.71687348253124,1.76300918088558,1.76368073399118,1.76233762777999,1.77273710730091,1.76221291077466,1.76221291077466,1.71266188519758,1.71112690667051,1.71092544073883,1.70774995391095,1.71119406198107,1.71023470040165,1.71063763226501,1.80650663489651,1.79756538497631,1.79948410813515,1.70632050515761,1.70937127498017,1.80231422479445,1.79573300435962,1.70826800916384,1.70869012825878,1.7980834402292,1.7098125813067,1.71010038978053,1.88536615672489,1.70931371328541,1.70895874950102,1.75955547919967,1.85262314601927,1.84231000904049,1.84209894949302,1.93228853157436,1.83963339023391,1.76536921037096,1.8553765137522,1.9295735383046,1.85409096923578,1.83621806301117,1.85213387161376,1.83301379533591,1.83350306974141,1.92926654259918,1.85582741369453,1.83076888924006,1.85658530934227,1.93578060772345,1.82633663874314,1.82870626184431,1.8565469348791,1.85551082437332,1.82567467925334,1.75082528882694,1.85961689193324,1.85916599199092,1.85844647080635,1.75046073142676,1.8227582200519,1.85759263900067,1.74747711691476,1.74711255951458,1.8196211076872,1.85688271143189,1.8224224434991,1.82255675412022,1.82207707333051,1.74980836555275,1.74953015069472,1.75118025261132,1.82837048529151,1.8262311089694,1.82516621761625,1.75560290949245,1.82876382353907,1.85735279860581,1.85863834312223,1.85777491770075,1.84024738164474,1.76753736754045,1.85582741369453,1.85686352420031,1.93790079681397,1.78941081155124,1.90379549266556,1.91377285309154,1.92449851554946,1.90342134164959,1.8300493680555,1.92135180956896,1.82967521703952,1.82975196596588,1.90757537728848,1.90598283706664,1.82766055772274,1.90275938215979,1.90976272168956,1.90763293898325,1.90527290949787,1.82863910653375,1.82876382353907,1.90288409916512,1.90254832261232,1.90465891808704,1.91977845657871,1.90311434594418,1.90330621826006,1.92225360945362,1.93511864823365,1.90319109487053,1.90468769893443,1.90487957125031,1.90311434594418,1.91372488501257,1.92315540933827,1.91657418890345,1.92623496000821,1.92512210057609,1.90977231530536,1.90519616057152,1.91816672912529,1.83325363573076,1.92216726691147,1.92119831171626,1.92823043209341,1.83821353509637,1.91752395686707,1.83413624838383,1.91592182302944,1.91296698936483,1.91286145959109,1.92234954561156,1.9264268323241,1.9290746702833,1.92611024300289,1.91043427479516,1.83525870143175,1.91578751240832,1.91042468117936,1.9184737248307,1.91912609070471,1.91793648234623,1.91641109743495,1.90616511576673,1.92971744254151,1.92528519204459,1.9171498058511,1.92530437927618,1.92603349407654,1.90905279412079,1.90924466643667,1.928575802262,1.90945572598415,1.91495286783423,1.91346585738613,1.90926385366826,1.91339870207557,1.91561482732403,1.83540260566866,1.91149916614831,1.91031915140563,1.90895685796285,1.93108932960008,1.77495323254937,1.86520996994127
1.72598741753574,1.72541180058808,1.88158627210198,1.80906813031357,1.77070326075253,1.77034829696815,1.71967481834315,1.89367422800268,1.71796715473178,1.71995303320118,1.8186137780288,1.7169406378418,1.7152905359252,1.716278678352,1.81728026543341,1.71605802518873,1.71648014428368,1.81694448888061,1.81731863989659,1.71332384468738,1.71343896807691,1.80905853669777,1.80550889885392,1.89135257298048,1.89287795789176,1.70946721113811,1.80942309409795,1.79676911486539,1.76862144612519,1.75726260502485,1.71052250887548,1.70815288577431,1.88706422672047,1.70910265373793,1.8840326441295,1.71270025966076,1.71171211723396,1.7113091853706,1.71046494718071,1.75914295372052,1.76020784507367,1.84290481321973,1.84341327485683,1.92920898090442,1.84245391327741,1.84178236017181,1.85502154996782,1.85546285629435,1.8401514454868,1.76375748291753,1.83762832453292,1.85623993917368,1.9527613076792,1.83540260566866,1.75886473886248,1.83130613172454,1.83155556573519,1.85590416262088,1.85609603493677,1.7565143029929,1.83001099359232,1.85963607916483,1.82792917896498,1.82668200891173,1.75362662463885,1.94031838799411,1.82396701564197,1.82297887321517,1.82389986033141,1.82332424338376,1.86269644260318,1.74904087628922,1.85915639837512,1.82102177559315,1.82172210954613,1.93180885078465,1.74914640606295,1.82547321332166,1.82534849631634,1.93471571637029,1.86130536831302,1.75207245888019,1.82823617467039,1.8293874085657,1.82977115319747,1.83215036991443,1.75955547919967,1.85999104294922,1.76504302743395,1.83990201147615,1.85895493244344,1.85967445362801,1.93533930139692,1.93947414980422,1.83488455041578,1.92273329024333,1.92731903859296,1.90851555163631,1.9168140292983,1.93592451196036,1.92010463951572,1.83045229991885,1.90463973085546,1.90857311333108,1.9111921704429,1.91258324473306,1.91144160445355,1.83047148715044,1.90911035581556,1.90694219864606,1.91550929755029,1.82972318511849,1.9047260733976,1.90483160317134,1.90301840978623,1.92716554074025,1.92685854503484,1.91739923986175,1.82953131280261,1.91859844183603,1.90765212621484,1.91484733806049,1.9217835222797,1.906711951867,1.91342748292295,1.90673113909859,1.91237218518559,1.83532585674231,1.92349118589107,1.92136140318476,1.91618085065589,1.91039590033198,1.91018484078451,1.91171022569579,1.91021362163189,1.92632130255036,1.92557300051841,1.91931796302059,1.91741842709334,1.83686083526938,1.92813449593547,1.92357752843322,1.93538726947589,1.92779871938267,1.92537153458674,1.92788506192482,1.92648439401886,1.9115279469957,1.91849291206229,1.9108563938901,1.91405106794957,1.90997378123703,1.91904934177835,1.83614131408482,1.90952288129471,1.90984906423171,1.91023280886348,1.83637156086388,1.91596979110841,1.92554421967103,1.91569157625038,1.90852514525211,1.91107704705337,1.91048224287413,1.91512555291852,1.91226665541185,1.91365772970201,1.91114420236393,1.9125064958067,1.91513514653432,1.92933369790974,1.90916791751032,1.92624455362401,1.92217686052727,1.77459826876498,1.95260780982649
1.72794451515776,1.77579747073926,1.77381159226986,1.72663018979395,1.77244929882708,1.77287141792203,1.72355063912401,1.72294624132897,1.72331079872915,1.77000292679956,1.81402802967917,1.81659911871202,1.71989547150642,1.72012571828548,1.76879413120949,1.81829718870759,1.81963070130299,1.71600046349397,1.89899868476846,1.71582777840967,1.71401458502457,1.71459979558801,1.76285568303287,1.71380352547709,1.71085828542827,1.71133796621798,1.76235681501157,1.76117680026889,1.71151065130228,1.75929645157322,1.75944035581014,1.76031337484741,1.71199033209199,1.89223518563355,1.70994689192782,1.7101483578595,1.71218220440787,1.88917482219519,1.71262351073441,1.87699093013655,1.71397621056139,1.84419995135195,1.8449482533839,1.84620501705294,1.84526484270511,1.85780369854814,1.85824500487467,1.85696905397404,1.83958542215494,1.76336414466997,1.83814637978581,1.76542677206572,1.83705270758527,1.85879184097494,1.76169485552177,1.83312891872544,1.83376209736786,1.85941542600156,1.94557568944934,1.83225589968817,1.8285527639916,1.8307113275453,1.83238061669349,1.83019327229241,1.82551158778484,1.93594369919195,1.75278238644896,1.75075813351638,1.93481165252824,1.82622151535361,1.82018713101905,1.82213463502528,1.82319952637843,1.82398620287356,1.85912761752774,1.82565549202175,1.86141089808676,1.86339677655616,1.86426020197764,1.86230310435562,1.75382809057053,1.75362662463885,1.862005702266,1.86212082565553,1.82885975969702,1.86120943215508,1.86169870656059,1.86202488949759,1.86424101474605,1.94554690860195,1.84183032825078,1.8427896898302,1.86319531062448,1.86204407672918,1.9261006493871,1.9368646863082,1.92665707910316,1.91542295500814,1.91524067630805,1.91675646760354,1.90646251785635,1.83280273578843,1.92508372611291,1.90905279412079,1.83254370816199,1.90830449208884,1.9088705154207,1.90930222813144,1.90807424530978,1.90543600096637,1.83178581251425,1.92602390046074,1.9262541472398,1.9078727793781,1.92058432030543,1.91402228710219,1.91309170637015,1.91281349151212,1.92659951740839,1.83227508691975,1.91012727908974,1.91480896359731,1.91910690347312,1.92882523627265,1.92165880527438,1.92913223197807,1.91447318704452,1.90578137113497,1.83612212685323,1.91961536511021,1.83563285244773,1.83611253323744,1.83687042888518,1.91916446516788,1.91015605993712,1.91230502987503,1.92135180956896,1.93218300180062,1.9193083694048,1.91673728037195,1.83869321588608,1.93443750151226,1.83853012441758,1.91265999365941,1.9322213762638,1.93380432286984,1.83661140125873,1.91419497218649,1.91227624902764,1.91254487026988,1.92472876232852,1.9325475592008,1.93579979495504,1.83710067566424,1.94202605160548,1.92263735408539,1.91543254862394,1.91029037055824,1.9279138427722,1.94275516640584,1.92548665797627,1.91106745343757,1.90979150253694,1.91537498692917,1.9143292828076,1.91260243196465,1.91159510230625,1.83629481193753,1.91915487155209,1.92121749894784,1.91043427479516,1.83805044362787,1.91941389917853,1.91194047247485,1.77614284090785,1.77435842837013
1.82551158778484,1.72715783866263,1.72694677911516,1.89586157240376,1.9017424588856,1.72693718549936,1.72474984109828,1.72404950714531,1.719914658738,1.72408788160848,1.72341632850289,1.81825881424442,1.81602350176437,1.72242818607609,1.72032718421716,1.71878261207429,1.71822618235822,1.81867133972357,1.7161155868835,1.7149547593724,1.71563590609379,1.71716129100507,1.71490679129343,1.7152905359252,1.7124700128817,1.76447700410209,1.76318186596988,1.76220331715887,1.7623184405484,1.71371718293495,1.76232803416419,1.71102137689677,1.71117487474948,1.71256594903964,1.89222559201775,1.713621246777,1.71407214671933,1.71232610864479,1.89245583879681,1.71384189994027,1.77248767329026,1.93256674643239,1.94278394725322,1.84575411711061,1.84586924050014,1.76933137369396,1.84532240439987,1.84302953022506,1.8437874258728,1.84314465361459,1.86020210249669,1.839489485997,1.83939354983906,1.83660180764294,1.85913721114353,1.83631399916911,1.86079690667593,1.83234224223031,1.83246695923564,1.83145003596145,1.94989281655673,1.82909960009187,1.86212082565553,1.86304181277177,1.82956009364999,1.82317074553105,1.82510865592148,1.86342555740354,1.82586655156922,1.86402995519858,1.82862951291796,1.75234108012242,1.82602964303773,1.8265668855222,1.82525256015839,1.95766364535004,1.8262407025852,1.82352570931544,1.93820779251938,1.82505109422672,1.94063497731532,1.75553575418189,1.864989316778,1.86579518050471,1.83295623364114,1.86242782136095,1.76182916614289,1.86347352548251,1.83933598814429,1.83753238837498,1.77268913922194,1.95198422479987,1.94846336780339,1.9641873040901,1.79438030453264,1.94249613877939,1.83585350561099,1.90965719191583,1.93187600609521,1.92635967701354,1.93175128908988,1.83394437606795,1.91030955778983,1.90600202429823,1.90996418762124,1.83305216979908,1.83333038465712,1.83325363573076,1.83389640798897,1.90668317101962,1.93157860400559,1.90856351971529,1.90565665412964,1.92177392866391,1.90646251785635,1.83191052951957,1.91887665669406,1.91652622082448,1.93336301654331,1.91558604647664,1.90884173457332,1.90861148779426,1.92203295629035,1.83486536318419,1.83609334600585,1.83658262041135,1.91568198263459,1.83690880334836,1.93323829953799,1.92341443696472,1.91993195443142,1.91932755663639,1.92182189674288,1.91662215698242,1.83955664130756,1.92189864566923,1.91562442093982,1.83652505871659,1.92901710858853,1.91575873156094,1.93762258195594,1.840141851871,1.91425253388125,1.91647825274551,1.92800018531435,1.8393263945285,1.92983256593104,1.83933598814429,1.91257365111726,1.91224746818026,1.91944268002592,1.83947029876541,1.92698326204016,1.9194714608733,1.92405720922293,1.93908081155666,1.91373447862836,1.91237218518559,1.91084680027431,1.91190209801167,1.91935633748377,1.91867519076238,1.91287105320688,1.91144160445355,1.91232421710661,1.91652622082448,1.91600816557159,1.91453074873928,1.91387838286528,1.91502002314479,1.9290746702833,1.8386548414229,1.92041163522113,1.92275247747492,1.77437761560172,1.77399387096995
1.83522992058437,1.83310013787806,1.82972318511849,1.73004551701669,1.90512900526096,1.7260449792305,1.7278677662314,1.72626563239377,1.72756077052599,1.90421761176051,1.90859230056267,1.72378088590307,1.82991505743438,1.90260588430708,1.72293664771318,1.72285989878683,1.72166069681255,1.72319567533962,1.72138248195452,1.72056702461201,1.72098914370696,1.71839886744252,1.71936782263773,1.716604861289,1.71608680603612,1.71672957829433,1.81888239927104,1.81626334215922,1.7161059932677,1.81267532985219,1.89467196404527,1.71223017248684,1.7152905359252,1.71624030388882,1.71539606569893,1.71633624004676,1.71424483180363,1.7151274444567,1.71340059361374,1.71472451259334,1.71622111665723,1.85103060579743,1.84900635286485,1.94145043465783,1.94108587725765,1.84434385558887,1.93632744382372,1.84514012569979,1.84215651118779,1.84300074937768,1.95914106218234,1.84208935587723,1.83953745407597,1.76382463822809,1.83674571187985,1.83771466707507,1.83714864374321,1.86239904051356,1.86327205955084,1.83397315691533,1.93531052054953,1.83075929562427,1.83509560996325,1.75548778610292,1.86391483180905,1.82885016608122,1.8282265810546,1.82891732139178,1.75380890333894,1.82660525998538,1.82766055772274,1.86467272745679,1.82790999173339,1.82782364919124,1.75203408441701,1.86595827197321,1.82629826427996,1.82592411326399,1.75338678424399,1.86600624005218,1.86869245247456,1.86277319152954,1.82868707461272,1.75997759829461,1.86678332293152,1.94106669002606,1.76195388314822,1.83930720729691,1.76742224415092,1.76994536510479,1.86477825723053,1.86418345305129,1.95418116281674,1.93195275502156,1.83923045837055,1.83913452221261,1.91233381072241,1.83884671373879,1.90967637914741,1.92574568560271,1.91244893411194,1.92878686180947,1.8368416480378,1.91501042952899,1.91468424659199,1.83503804826849,1.83456796109457,1.91183494270111,1.90718203904092,1.90742187943578,1.8326876123989,1.90819896231511,1.91037671310039,1.91987439273666,1.90830449208884,1.90865945587323,1.92484388571805,1.93649053529222,1.83669774380088,1.8371678309748,1.91935633748377,1.92463282617058,1.92214807967988,1.91167185123261,1.83582472476361,1.92318419018566,1.91659337613504,1.92615821108186,1.92304028594874,1.91693874630363,1.93042737011028,1.92304987956454,1.83874118396505,1.91335073399659,1.91258324473306,1.84013225825521,1.92544828351309,1.9187999077677,1.83951826684438,1.91955780341545,1.84020900718156,1.93480205891244,1.92959272553619,1.92452729639685,1.92366387097537,1.92777953215108,1.92161083719541,1.91498164868161,1.93144429338447,1.8393168009127,1.83987323062877,1.92564015582897,1.92161083719541,1.84021860079736,1.83802166278048,1.92845108525668,1.92528519204459,1.93180885078465,1.83870280950187,1.83754198199077,1.91308211275436,1.93084948920523,1.90889929626808,1.91670849952457,1.91517352099749,1.91365772970201,1.92156286911644,1.91146079168514,1.9116910384642,1.83594944176894,1.90943653875256,1.91901096731518,1.83763791814872,1.83691839696415,1.77298654131156,1.772919386001
1.78283918473221,1.73227123588094,1.73299075706551,1.73092812966975,1.73255904435477,1.77647861746065,1.7310144722119,1.72944111922165,1.72738808544169,1.90247157368596,1.84190707717714,1.7262176643148,1.72675490679927,1.8201103820927,1.72358901358719,1.77111578623169,1.77254523498502,1.72119060963863,1.89928649324229,1.7197515672695,1.72195809890217,1.719262292864,1.90032260374806,1.72021206082762,1.71962685026418,1.89932486770546,1.81468039555318,1.80827186020265,1.80854048144489,1.76448659771789,1.76369992122276,1.88251685283401,1.71614436773088,1.71638420812574,1.71576062309911,1.71615396134668,1.7164513634363,1.71596208903079,1.81369225312638,1.71778487603169,1.80020362931972,1.8522298077717,1.94419420877497,1.94363777905891,1.94510560227542,1.84798942959066,1.9413353112683,1.84619542343715,1.94768628492406,1.84416157688878,1.84270334728806,1.76805542279333,1.84057356458174,1.86657226338404,1.83774344792245,1.96046498116194,1.84254984943535,1.8389906179757,1.83515317165802,1.83538341843708,1.95624379021249,1.86621729959966,1.86724381648964,1.83460633555775,1.86762756112141,1.75804928151998,1.86835667592177,1.86536346779397,1.75369377994941,1.75390483949688,1.8671478803317,1.86807846106373,1.82777568111227,1.75355946932829,1.86973815659613,1.8283896725231,1.75559331587666,1.86990124806463,1.7530414140754,1.7560154349716,1.75613055836113,1.86668738677357,1.86687925908946,1.83220793160919,1.86859651631662,1.86670657400516,1.84005550932886,1.95251187366855,1.84198382610349,1.84281847067759,1.86586233581527,1.85005205698642,1.86686007185787,1.95613826043876,1.92846067887247,1.92433542408096,1.92812490231967,1.91393594456004,1.83859727972814,1.92806734062491,1.91144160445355,1.91174860015896,1.91163347676943,1.91195006609064,1.91112501513234,1.8358343183794,1.83592066092155,1.91570116986618,1.91540376777656,1.91037671310039,1.91114420236393,1.91089476835328,1.93227893795857,1.90955166214209,1.91176778739055,1.93295049106416,1.91025199609507,1.93262430812716,1.93887934562498,1.94251532601098,1.93880259669863,1.93914796686722,1.91987439273666,1.92594715153439,1.83902899243888,1.93607800981307,1.91609450811374,1.93282577405883,1.91916446516788,1.83875077758084,1.83994997955512,1.92574568560271,1.84087096667136,1.92562096859739,1.91894381200462,1.91637272297177,1.92644601955569,1.92967906807833,1.91893421838882,1.84191667079293,1.91934674386797,1.92383655605966,1.84010347740783,1.84060234542913,1.93228853157436,1.93888893924077,1.84034331780268,1.83974851362344,1.9154901103187,1.91515433376591,1.83894264989673,1.93248040389024,1.92134221595317,1.91295739574903,1.84089015390295,1.93287374213781,1.83992119870774,1.91255446388568,1.83874118396505,1.92678179610848,1.92585121537645,1.921630024427,1.83907696051785,1.91604654003477,1.91966333318918,1.91786932703567,1.91761029940922,1.91652622082448,1.91780217172511,1.91512555291852,1.91230502987503,1.91240096603297,1.91181575546952,1.91098111089543,1.77243970521129,1.77293857323258
1.83585350561099,1.73486151214538,1.82932025325514,1.84658876168471,1.84747137433778,1.73204098910188,1.82744949817527,1.82947375110785,1.83280273578843,1.90384346074454,1.7273784918259,1.83106629132968,1.72682206210983,1.77611406006047,1.7278677662314,1.72839541510008,1.88529900141433,1.80982602596131,1.77215189673746,1.77353337741183,1.72063417992257,1.77587421966561,1.72033677783295,1.72105629901751,1.72037515229613,1.72317648810803,1.71808227812131,1.71982831619586,1.81208052567295,1.7658009230817,1.71725722716301,1.71659526767321,1.80554727331709,1.77959654259376,1.71732438247357,1.71816862066346,1.71772731433692,1.71716129100507,1.71751625478945,1.71799593557916,1.72048068206986,1.77926076604097,1.85243127370338,1.85277664387197,1.94477941933842,1.87080304794929,1.77402265181733,1.86968059490137,1.84586924050014,1.9459690276969,1.84557183841052,1.84446857259419,1.86914335241689,1.86850058015868,1.8396525774655,1.83928802006532,1.76511977636031,1.86636120383657,1.76373829568594,1.83520113973699,1.83579594391623,1.83300420172011,1.83553691628978,1.75909498564154,1.83190093590378,1.83173784443528,1.87139785212853,1.87050564585967,1.82698900461715,1.82629826427996,1.82900366393393,1.82977115319747,1.82858154483898,1.82852398314422,1.82885016608122,1.86805927383214,1.83057701692418,1.7558619371189,1.75589071796628,1.82939700218149,1.83015489782923,1.83235183584611,1.86932563111698,1.83328241657815,1.9525886225949,1.83904817967046,1.83874118396505,1.76867900781996,1.84260741113011,1.8456102128737,1.7757303154287,1.8510785738764,1.8691337588011,1.95285724383714,1.84169601762966,1.8419646388719,1.94216995584239,1.93664403314493,1.91515433376591,1.91247771495932,1.93186641247941,1.91220909371708,1.90995459400545,1.91845453759911,1.8389810243599,1.83636196724809,1.91330276591762,1.91408944241275,1.91668931229298,1.91177738100635,1.92662829825578,1.91693874630363,1.91866559714659,1.91159510230625,1.83918249029158,1.93250918473763,1.92655154932942,1.92518925588665,1.83694717781153,1.83610293962164,1.92024854375263,1.91175819377476,1.91027118332665,1.91426212749704,1.9350418993073,1.84108202621884,1.84022819441315,1.83891386904934,1.84072706243445,1.92216726691147,1.93266268259033,1.93299845914313,1.92336646888575,1.92728066412978,1.92506453888132,1.92160124357961,1.92138059041635,1.92942963406769,1.92249344984847,1.92024854375263,1.84275131536703,1.93080152112626,1.84224285372993,1.91951942895227,1.92230157753259,1.9295639446888,1.93209665925847,1.9224454817695,1.92684895141904,1.93028346587337,1.91554767201347,1.93558873540757,1.93772811172967,1.8406503135081,1.91559564009244,1.91396472540742,1.9149912422974,1.93848600737742,1.91380163393892,1.92981337869945,1.93241324857968,1.92104481386355,1.91173900654317,1.83878915204402,1.91518311461329,1.91736086539857,1.91515433376591,1.91700590161419,1.91869437799397,1.91492408698684,1.83767629261189,1.83744604583283,1.8389810243599,1.83923045837055,1.85663327742124,1.8426265983617
1.90659682847747,1.73953360303716,1.83966217108129,1.83374291013627,1.78281999750062,1.73403646118708,1.82382311140506,1.83279314217264,1.73199302102291,1.73257823158636,1.73098569136452,2.00631287104246,1.83581513114782,1.9083812410152,1.72887509588979,1.72992080001136,1.72725377482057,1.72726336843637,1.77413777520686,1.72519114742482,1.72627522600956,1.72535423889332,1.8199472906242,1.820283067177,1.83489414403157,1.72103711178593,1.79383346843237,1.76921625030443,1.72132492025975,1.71808227812131,1.82532930908475,1.72013531190127,1.82003363316635,1.81870971418675,1.71952132049044,1.81690611441743,1.72080686500687,1.89191859631234,1.90501388187143,1.90317190763894,1.94573878091784,1.77972125959909,1.94536462990186,1.85275745664039,1.85275745664039,1.95166763547866,1.8704480841649,1.87054402032284,1.87140744574432,1.94461632786991,1.84678063400059,1.76997414595218,1.77003170764694,1.76909153329911,1.95013265695158,1.95911228133496,1.84086137305557,1.83983485616559,1.83872199673346,1.83767629261189,1.76415082116509,1.86874042055353,1.87004515230155,1.95659875399688,1.95059315050971,1.83569041414249,1.83638115447967,1.75758878796185,1.87249152432907,1.87273136472392,1.75671576892458,1.75582356265572,1.83032758291353,1.95521727332251,1.75633202429281,1.75708032632476,1.83118141471921,1.8295409064184,1.75681170508252,1.83128694449295,1.75837546445698,1.75936360688378,1.83595903538473,1.83685124165359,1.87168566060236,1.76653963149785,1.76698093782438,1.76981105448367,1.77014683103647,1.8706207692492,1.86870204609036,1.86969018851716,1.96388990200048,1.96355412544768,1.84490028530493,1.84322140254094,1.84268416005647,1.84505378315764,1.92905548305171,1.915662795403,1.95281886937396,1.84188788994555,1.92831677463556,1.8406407198923,1.84049681565539,1.84045844119221,1.83980607531821,1.91501042952899,1.91889584392565,1.92126546702682,1.91063574072683,1.91014646632133,1.83933598814429,1.83943192430223,1.91230502987503,1.9123434043382,1.91200762778541,1.92852783418303,1.91242974688035,1.91255446388568,1.91132648106402,1.92959272553619,1.83913452221261,1.93501311845991,1.83913452221261,1.91723614839325,1.84234838350367,1.84161926870331,1.92809612147229,1.91563401455562,1.92491104102861,1.95575451580699,1.84239635158264,1.93307520806948,1.93030265310496,1.92219604775885,1.93018752971543,1.84218529203517,1.93810226274565,1.92236873284315,1.84283765790918,1.94688042119735,1.93528173970215,1.94439567470665,1.92502616441814,1.84176317294022,1.84209894949302,1.92749172367726,1.84099568367669,1.92827840017238,1.84614745535818,1.92357752843322,1.92870051926733,1.91649743997709,1.84134105384528,1.84018981994997,1.9143388764234,1.91486652529208,1.92549625159206,1.91664134421401,1.91799404404099,1.91037671310039,1.91188291078008,1.9217931158955,1.91373447862836,1.83886590097037,1.92192742651662,1.91910690347312,1.91147997891672,1.91219950010129,1.92812490231967,1.93731558625052,1.83890427543355,1.92927613621498,1.7719120563426,1.86838545676915
1.84110121345042,1.73938969880024,1.73701048208328,1.73997490936369,1.7382960265997,1.83581513114782,1.73668429914628,1.73724072886234,1.73684739061478,1.7348231376822,1.73425711435034,1.90913913666294,1.73293319537074,1.73136943599629,1.73106244029087,1.82899407031813,1.72943152560586,1.72847216402644,1.72731133651534,1.72663018979395,1.72499927510893,1.72616010262003,1.72519114742482,1.72596823030415,1.72535423889332,1.81987054169784,1.8262311089694,1.72151679257564,1.7227447753973,1.7230613647185,1.71898407800597,1.82021591186644,1.89568888731946,1.71869626953214,1.82030225440858,1.90571421582441,1.89320414082876,1.72088361393322,1.72170866489152,1.88613364598843,1.94555650221775,1.87226127755001,1.85271908217721,1.94453957894356,1.85493520742567,1.95462246914327,1.84976424851259,1.87202143715515,1.87513936228827,1.85158703551349,1.87560944946219,1.85148150573976,1.8446220704469,1.845782897958,1.84315424723038,1.76899559714117,1.87364275822437,1.87268339664495,1.84144658361902,1.84116836876098,1.76488952958125,1.87162809890759,1.83432812069971,1.96592374854885,1.76240478309055,1.83314810595703,1.83310973149385,1.9547471861486,1.83513398442643,1.87274095833972,1.75774228581456,1.83244777200405,1.83096076155595,1.87124435427582,1.75808765598315,1.87299039235037,1.75727219864065,1.87192550099721,1.8330329825675,1.75885514524669,1.87578213454648,1.87311510935569,1.83549854182661,1.87396894116138,1.87234762009216,1.76865982058837,1.84214691757199,1.77031951612077,1.77240133074811,1.87145541382329,1.87239558817113,1.85821622402729,1.87129232235479,1.9530874906162,1.93996342420972,1.93201991033212,1.84619542343715,1.9362027268184,1.84325018338833,1.84282806429338,1.84183992186658,1.91379204032313,1.91274633620156,1.84251147497217,1.84169601762966,1.83950867322859,1.83990201147615,1.84032413057109,1.83984444978138,1.9188095013835,1.93723883732417,1.91440603173396,1.91314926806492,1.91278471066474,1.92904588943592,1.92326093911201,1.93594369919195,1.9148281508289,1.93375635479087,1.91458831043405,1.93133876361073,1.93425522281217,1.92300191148557,1.91995114166301,1.84219488565096,1.93286414852201,1.93832291590892,1.9343703462017,1.93034102756813,1.84209894949302,1.92944882129927,1.8432981514673,1.94129693680512,1.93130038914756,1.94566203199148,1.9264172387083,1.92922816813601,1.84300074937768,1.93105095513691,1.94241938985304,1.92533316012356,1.92620617916083,1.93209665925847,1.84513053208399,1.91360976162304,1.94572918730204,1.93179925716885,1.92938166598871,1.92243588815371,1.94152718358418,1.8452744363209,1.93244202942707,1.93142510615288,1.94931719960908,1.84011307102362,1.91705386969316,1.91570116986618,1.83926883283373,1.91808998019893,1.83884671373879,1.92248385623268,1.91677565483513,1.91452115512349,1.91415659772331,1.91710183777213,1.91525026992385,1.92148612019008,1.83777222876983,1.91843535036752,1.91610410172953,1.92226320306941,1.92209051798512,1.92193702013241,1.90916791751032,1.88382158458203,1.88220026351281
1.79221214736315,1.74365885782867,1.90199189289625,1.8288885405444,1.7402914986849,1.78850901166658,1.7889790988405,1.83904817967046,1.78571726947047,1.91657418890345,1.91620963150327,1.73428589519773,1.73541794186144,1.73374865271325,1.73353759316578,1.73084178712761,1.73146537215423,1.82281578174667,1.72757995775758,1.91253527665409,1.72875997250026,1.72928762136894,1.77446395814386,1.72751280244702,1.72662059617815,1.82879260438646,1.72615050900424,1.77284263707464,1.72035596506454,1.90230848221746,1.82398620287356,1.8249071899898,1.72211159675488,1.81976501192411,1.82102177559315,1.72085483308584,1.72415503691904,1.72259127754459,1.7709335075316,1.72317648810803,1.86005819825978,1.85929070899624,1.85881102820653,1.95120714192053,1.9534136735532,1.87336454336634,1.87482277296706,1.85300689065103,1.94886629966675,1.77732285565054,1.77585503243402,1.85046458246557,1.87439106025632,1.84598436388968,1.8449482533839,1.84413279604139,1.96813028018152,1.84148495808219,1.76699053144018,1.83962379661812,1.83895224351252,1.83869321588608,1.83893305628093,1.83572878860567,1.83522032696857,1.83427055900495,1.76258706179064,1.96474373380616,1.83322485488338,1.8323614294619,1.75864408569922,1.82929147240776,1.8326876123989,1.83284111025161,1.87532164098836,1.75880717716772,1.96594293578044,1.75991044298405,1.87622344087301,1.8355177290582,1.87653043657843,1.76244315755372,1.83747482668021,1.87514895590406,1.84066950073968,1.84552387033155,1.77002211403115,1.96224939369967,1.85277664387197,1.85175972059779,1.85204752907161,1.94128734318932,1.95550508179634,1.95652200507053,1.80204560355221,1.93995383059393,1.93343017185387,1.93173210185829,1.84634892128985,1.84557183841052,1.94230426646351,1.91845453759911,1.84344205570421,1.84151373892957,1.84299115576188,1.84225244734573,1.84198382610349,1.9164878463613,1.92197539459559,1.91986479912086,1.92274288385912,1.92599511961336,1.84125471130313,1.9298997212416,1.93412091219105,1.84053519011857,1.84044884757642,1.8426361919775,1.84383539395177,1.93797754574032,1.93576142049186,1.93468693552291,1.92428745600199,1.92910345113068,1.93552158009701,1.84231960265629,1.9174759887881,1.93854356907218,1.84348043016739,1.93614516512363,1.84493865976811,1.93245162304286,1.93593410557616,1.92573609198692,1.84502500231025,1.93143469976867,1.93797754574032,1.93168413377932,1.92768359599314,1.84576371072641,1.93523377162318,1.93532970778112,1.84541834055782,1.92947760214666,1.84325018338833,1.92762603429837,1.9308974572842,1.9457963426126,1.94122018787877,1.93919593494619,1.92722310243502,1.93170332101091,1.84185910909817,1.84234838350367,1.84359555355692,1.92268532216436,1.92277166470651,1.93632744382372,1.92181230312709,1.93302723999051,1.92999565739954,1.92637886424513,1.83844378187543,1.84142739638743,1.84023778802895,1.91125932575346,1.83826150317534,1.83730214159592,1.83941273707064,1.83983485616559,1.83892346266514,1.93812144997724,1.91927958855741,1.92287719448024,1.88163424018095,1.77206555419531
1.83278354855685,1.8330329825675,1.84308709191982,1.74484846618715,1.74438797262903,1.91709224415634,1.92188905205344,1.73959116473192,1.84249228774058,1.78584198647579,1.78653272681298,1.91236259156979,1.83841500102805,1.73702007569907,1.73604152688807,1.73154212108058,1.73206017633347,1.73264538689692,1.83298501448852,1.73014145317463,1.77817668745622,1.7297001468481,1.72908615543727,1.73000714255351,1.81920858220804,1.7286928171897,1.72702352804151,1.83067295308212,1.72649587917283,1.72576676437247,1.99090552407696,1.82609679834828,1.72546936228285,1.72496090064576,1.72540220697229,1.72289827325,1.72347389019765,1.72314770726065,1.72362738805036,1.72430853477175,1.77484770277563,1.95215690988416,1.95232000135266,1.8593578643068,1.78361626761154,1.85581782007874,1.85641262425798,1.85371681821981,1.85268070771403,1.85534773290482,1.87618506640984,1.95131267169427,1.87758573431579,1.87578213454648,1.84645445106359,1.84695331908489,1.87904396391651,1.84576371072641,1.76991658425741,1.84170561124546,1.95248309282116,1.97343554971571,1.76452497218107,1.87743223646308,1.83593984815314,1.83728295436433,1.83698555227471,1.97506646440073,1.96530975713802,1.83490373764737,1.87886168521642,1.83499967380531,1.87643450042049,1.7623088469326,1.87661677912058,1.75968978982079,1.96441755086916,1.83432812069971,1.83332079104132,1.83359900589935,1.87549432607265,1.83652505871659,1.87613709833087,1.83883712012299,1.87588766432022,1.97214041158349,1.84617623620556,1.84721234671133,1.77550966226543,1.77774497474548,1.78230194224773,1.85656612211069,1.95572573495961,1.95543792648578,1.93779526704023,1.91926999494162,1.91974967573133,1.91999910974198,1.84647363829518,1.93633703743951,1.93932065195151,1.91907812262574,1.92047879053169,1.84301993660927,1.84234838350367,1.91778298449352,1.91785973341987,1.84310627915141,1.92227279668521,1.91858884822023,1.91739923986175,1.92987094039422,1.91620963150327,1.91623841235065,1.91651662720868,1.93324789315378,1.84302953022506,1.94916370175637,1.93183763163203,1.92899792135695,1.90860189417846,1.93561751625495,1.8421373239562,1.91703468246157,1.84451654067316,1.92976541062048,1.93191438055838,1.92913223197807,1.84375864502542,1.84439182366784,1.84514012569979,1.92533316012356,1.84562940010529,1.84722194032713,1.84485231722596,1.92935288514133,1.9287388937305,1.92916101282545,1.93333423569593,1.92613902385027,1.92497819633917,1.91865600353079,1.93258593366398,1.93092623813158,1.84529362355249,1.84558143202632,1.84533199801567,1.93170332101091,1.92659951740839,1.93551198648121,1.92313622210669,1.92185067759026,1.93335342292752,1.91898218646779,1.91890543754144,1.91754314409866,1.92997647016796,1.93462937382815,1.93565589071813,1.92614861746607,1.92345281142789,1.9149912422974,1.91283267874371,1.91538458054497,1.8388179328914,1.8388275265072,1.83775304153825,1.84004591571306,1.84120674322416,1.83917289667579,1.93028346587337,1.92072822454234,1.91252568303829,1.91556685924506,1.77401305820154,1.77267954560614
1.7490600635208,1.74696865527767,1.74483887257135,1.81847946740768,1.91819550997267,1.91958658426283,1.8470972233218,1.7412892347275,1.74101101986946,1.92191783290082,1.92265654131698,1.84280887706179,1.84272253451964,1.738794894621,1.90187676950672,1.89911380815799,1.82655729190641,1.7833380527535,1.79326744510051,1.77924157880938,1.78060387225216,1.73054438503799,1.82603923665352,1.73042926164845,1.72939315114268,1.72839541510008,1.89299308128129,1.77681439401344,1.725555704825,1.72806923216308,1.82892691500758,1.82877341715487,1.72672612595189,1.82599126857455,1.72573798352509,1.72592026222518,1.72680287487824,1.72775264284187,1.72739767905749,1.72772386199449,1.86145886616573,1.95782673681854,1.85939623876998,1.85844647080635,1.85742954753216,1.85771735600599,1.88092431261218,1.88278547407625,1.88206595289169,1.85216265246114,1.85260395878768,1.84966831235465,1.85049336331295,1.77623877706579,1.877902323637,1.95929456003505,1.8451113448524,1.84509215762081,1.8444589789784,1.84302953022506,1.84209894949302,1.7689380354464,1.83970054554447,1.83994038593932,1.83777222876983,1.87883290436904,1.76268299794858,1.87633856426255,1.8386548414229,1.97419344536345,1.87693336844179,1.83596862900052,1.95577370303858,1.87727873861038,1.83659221402715,1.83880833927561,1.76252950009587,1.83509560996325,1.87738426838411,1.8355081354424,1.87855468951101,1.95233918858425,1.88092431261218,1.95511174354878,1.76835282488295,1.97234187751517,1.84254025581955,1.84392173649392,1.8750913942093,1.87345088590849,1.87487074104603,1.85612481578415,1.87704849183132,1.79178043465241,1.95415238196936,1.94487535549636,1.94933638684066,1.92232076476418,1.93764176918753,1.93524336523897,1.92500697718656,1.91719777393007,1.91539417416076,1.8451113448524,1.84351880463056,1.92437379854414,1.8454471214052,1.84472760022063,1.84381620672018,1.9207953798529,1.93543523755486,1.84359555355692,1.93184722524783,1.84453572790475,1.9356942651813,1.92019098205786,1.93279699321145,1.94892386136151,1.92880604904106,1.84450694705737,1.93972358381487,1.84326937061991,1.93448546959123,1.93287374213781,1.84739462541142,1.93025468502599,1.93419766111741,1.93030265310496,1.92869092565153,1.92511250696029,1.91987439273666,1.84518809377876,1.92584162176065,1.93809266912985,1.92847027248826,1.93192397417418,1.92690651311381,1.91921243324686,1.92468079424955,1.92595674515018,1.84684778931115,1.93923430940936,1.93914796686722,1.93263390174295,1.92711757266128,1.84686697654274,1.94143124742624,1.93499393122833,1.91627678681383,1.93853397545639,1.93331504846434,1.92058432030543,1.93429359727535,1.93924390302516,1.92958313192039,1.84261700474591,1.8424635068932,1.93606841619728,1.84236757073526,1.84012266463941,1.93168413377932,1.92461363893899,1.91487611890787,1.91492408698684,1.84184951548237,1.84045844119221,1.84537996609464,1.83900021159149,1.83953745407597,1.83960460938653,1.91503921037638,1.93212544010586,1.92192742651662,1.92593755791859,1.77369646888033,1.77333191148015
1.79992541446169,1.74990430171069,1.84552387033155,1.84201260695087,1.74919437414192,1.83944151791803,1.84856504653832,1.84981221659156,1.7442632556237,1.74456065771332,1.74367804506025,1.84588842773173,1.73922660733174,1.78727143522913,1.73974466258463,1.73811374789961,1.73955279026875,1.78545824184402,1.78329967829033,1.78373139100107,1.78221559970558,1.73385418248699,1.85111694833958,1.85175972059779,1.83893305628093,1.72994958085874,1.77935670219891,1.81919898859225,1.81954435876084,1.7760660919815,1.7760564983657,1.77584543881823,1.72570920267771,1.77566316011814,1.72809801301046,1.72681246849404,1.82825536190198,1.728865502274,1.77577828350767,1.72944111922165,1.79043732844122,1.79048529652019,1.78938203070386,1.85939623876998,1.85923314730147,1.85828337933785,1.78478668873843,1.85779410493234,1.85672921357919,1.855386107368,1.88548128011442,1.87950445747463,1.85564513499444,1.85054133139192,1.88232498051813,1.88236335498131,1.88251685283401,1.88140399340189,1.88139439978609,1.87994576380117,1.84595558304229,1.96577984431193,1.84089015390295,1.84265537920909,1.84035291141848,1.84125471130313,1.84161926870331,1.88100106153853,1.8396525774655,1.76389179353865,1.83598781623211,1.88164383379674,1.83295623364114,1.83773385430666,1.87930299154296,1.96943501192953,1.83586309922679,1.83570960137408,1.96178890014154,1.83967176469709,1.88026235312238,1.88161505294936,1.88000332549593,1.76698093782438,1.88050219351723,1.84625298513191,1.87866981290054,1.95911228133496,1.87985942125902,1.7788770214092,1.85718011352151,1.87775841940009,1.78883519460359,1.88214270181804,1.94214117499501,1.95132226531007,1.94162311974212,1.95363432671647,1.95158129293651,1.84903513371223,1.8495819698125,1.84714519140077,1.84877610608579,1.84636810852144,1.84532240439987,1.91829144613061,1.84415198327298,1.84573492987903,1.92814408955126,1.92055553945804,1.84515931293137,1.94757116153453,1.91891503115723,1.91876153330453,1.91926040132583,1.93574223326027,1.93894650093554,1.84605151920023,1.93839966483527,1.90968597276321,1.92021976290525,1.93167454016353,1.91788851426725,1.93198153586894,1.93618353958681,1.93435115897011,1.93293130383257,1.84591720857912,1.84635851490565,1.93162657208456,1.92951597660983,1.92317459656986,1.9294104468361,1.92822083847762,1.92182189674288,1.93502271207571,1.92547706436047,1.84520728101034,1.93000525101534,1.93786242235079,1.93862031799854,1.93755542664538,1.94087481771017,1.84679982123218,1.94536462990186,1.92556340690262,1.91856966098864,1.92886361073583,1.846109080895,1.94664058080249,1.93555995456018,1.93575182687607,1.92674342164531,1.92777953215108,1.94203564522127,1.91718818031428,1.92514128780767,1.91823388443585,1.92614861746607,1.91757192494605,1.93855316268798,1.93224056349539,1.91646865912971,1.9204596033001,1.84028575610792,1.93230771880595,1.84028575610792,1.84160008147172,1.91755273771446,1.91809957381473,1.91528864438702,1.93607800981307,1.92484388571805,1.91920283963106,1.77514510486525,1.77411858797527
1.750729352669,1.75137212492721,1.79923467412451,1.799071582656,1.74984674001593,1.84926538049129,1.84523606185773,1.74776492538859,1.74688231273552,1.74408097692361,1.92374061990172,1.84490028530493,1.84375864502542,1.73982141151098,1.90576218390338,1.90866904948902,1.78846104358761,1.78724265438175,1.73832480744709,1.73722154163075,1.84510175123661,1.73576331203003,1.73597437157751,1.732175299723,1.73218489333879,1.73219448695459,1.73084178712761,1.73079381904863,1.73061154034854,1.89351113653418,1.77833018530893,1.77913604903564,1.81955395237664,1.7780423768351,1.73049641695901,1.73080341266443,1.72929721498474,1.81285760855228,1.77932792135153,1.82059006288241,1.86347352548251,1.86292668938224,1.86339677655616,1.78892153714573,1.86309937446654,1.8628403468401,1.86229351073983,1.78583239286,1.88478094616145,1.88529900141433,1.85483927126773,1.88363930588194,1.85318916935112,1.85064686116566,1.96322794251068,1.96256598302088,1.77612365367626,1.84884326139635,1.84784552535375,1.84553346394735,1.88284303577102,1.88286222300261,1.84152333254537,1.88396548881894,1.84209894949302,1.76930259284658,1.76740305691933,1.76631897833458,1.84021860079736,1.83935517537588,1.839815668934,1.76590645285543,1.83685124165359,1.88488647593518,1.83677449272724,1.83730214159592,1.8376666989961,1.84065990712389,1.84223326011414,1.83959501577073,1.9595439940457,1.8820371720443,1.84221407288255,1.88153830402301,1.95320261400573,1.9666720505808,1.84890082309111,1.88114496577544,1.8802239786592,1.78261853156894,1.78558295884935,1.78834592019808,1.79131034747849,1.97389604327383,1.80788811557088,1.94561406391251,1.93464856105973,1.85151988020293,1.84986018467053,1.93964683488852,1.93631785020793,1.84919822518073,1.84845951676458,1.91840656952014,1.84609948727921,1.84721234671133,1.84548549586838,1.84443979174681,1.92101603301617,1.92489185379703,1.94570040645466,1.92180270951129,1.92180270951129,1.92073781815813,1.92074741177393,1.92032529267898,1.92236873284315,1.94242898346884,1.91954820979965,1.92699285565596,1.84713559778498,1.84696291270068,1.93065761688934,1.93150185507923,1.93042737011028,1.84629135959509,1.93315195699584,1.93555995456018,1.92943922768348,1.92186986482185,1.92067066284757,1.92617739831345,1.94172864951586,1.92286760086445,1.92216726691147,1.84882407416476,1.92909385751489,1.92309784764351,1.92257979239062,1.93163616570035,1.92963109999936,1.84807577213281,1.91617125704009,1.93156901038979,1.92317459656986,1.93656728421858,1.93945496257263,1.93560792263915,1.92171636696914,1.94251532601098,1.93574223326027,1.93559832902336,1.93626988212895,1.93544483117065,1.84597477027388,1.94929801237749,1.91889584392565,1.94137368573147,1.93670159483969,1.91697712076681,1.91652622082448,1.92481510487067,1.84219488565096,1.8403145369553,1.84363392802009,1.84274172175123,1.84089015390295,1.91585466771888,1.91841616313594,1.84008429017624,1.91717858669848,1.91577791879253,1.94950907192496,1.8419742324877,1.7762195898342,1.8222593520306
1.75567965841881,1.75514241593433,1.85632628171583,1.93329586123275,1.75258092051728,1.75307019492278,1.8459459894265,1.83731173521171,1.83727336074854,1.83572878860567,1.84635851490565,1.92257979239062,1.92253182431165,1.74482927895556,1.74409057053941,1.91790770149884,1.74264193455448,1.84318302807777,1.91888625030985,1.92987094039422,1.73851667976297,1.73708723100963,1.84254025581955,1.73570575033527,1.73509175892444,1.73455451643996,1.84738503179563,1.73327856553933,1.73340328254466,1.73277010390224,1.78068062117851,1.78094924242075,1.72924924690577,1.73268376136009,1.73025657656416,1.83296582725694,1.73116797006461,1.73329775277092,1.7336623101711,1.7343242696609,1.79221214736315,1.88849367547381,1.96140515550978,1.96178890014154,1.88926116473734,1.86297465746122,1.86072015774958,1.88570193327769,1.78600507794429,1.8616699257132,1.78380813992742,1.85196118652947,1.85233533754544,1.88464663554033,1.88528940779854,1.88581705666722,1.77565356650235,1.88658454593076,1.77739960457689,1.77485729639143,1.77389793481201,1.84537037247885,1.84314465361459,1.84421913858354,1.84287603237235,1.77071285436833,1.83923045837055,1.76840079296193,1.84088056028716,1.96619236979109,1.83972932639185,1.8825456336814,1.84077503051342,1.8409669028293,1.88375442927147,1.83896183712832,1.83909614774943,1.88514550356163,1.96245085963135,1.83971013916026,1.76878453759369,1.84207016864564,1.84227163457732,1.88450273130342,1.88508794186686,1.77526022825478,1.88291978469737,1.96585659323829,1.85899330690662,1.85590416262088,1.88018560419602,1.86037478758099,1.88023357227499,1.97105633299875,1.93567507794971,1.94275516640584,1.9357038587971,1.93217340818483,1.92368305820696,1.85264233325085,1.93485002699141,1.849745061281,1.84854585930673,1.84846911038037,1.84902554009644,1.85230655669806,1.84939009749662,1.92784668746164,1.9284127107935,1.92731903859296,1.92599511961336,1.91968252042077,1.92794262361958,1.84712600416919,1.93663443952913,1.91892462477303,1.84890082309111,1.93522417800739,1.94135449849988,1.93637541190269,1.93488840145459,1.93257634004819,1.84874732523841,1.93875462861965,1.94350346843779,1.94187255375277,1.94643911487081,1.93277780597986,1.93248999750604,1.85061808031828,1.93641378636587,1.93839007121947,1.94129693680512,1.93208706564268,1.85022474207071,1.93759380110856,1.95513093078037,1.93360285693817,1.92653236209783,1.9274245683667,1.92686813865063,1.92115034363729,1.94564284475989,1.92853742779882,1.84818130190655,1.93538726947589,1.92982297231525,1.93623150766578,1.93295049106416,1.93819819890359,1.92301150510136,1.84497703423128,1.92819205763023,1.93516661631262,1.92978459785207,1.92081456708449,1.84550468309996,1.92832636825135,1.92989012762581,1.84264578559329,1.91978805019451,1.84308709191982,1.918646409915,1.84199341971929,1.84566777456847,1.84288562598815,1.91804201211996,1.91824347805164,1.92094887770561,1.91915487155209,1.91869437799397,1.91776379726193,1.92536194097094,1.92562096859739,1.77678561316606,1.77530819633375
1.84690535100592,1.91755273771446,1.80340789699499,1.75576600096095,1.86215920011871,1.75326206723867,1.75554534779769,1.93708533947146,1.75041276334779,1.79930182943507,1.85027271014969,1.79660602339689,1.74634507025104,1.74652734895113,1.74737158714102,1.74407138330782,1.74315039619157,1.74318877065475,1.84821967636973,1.74292974302831,1.74064646246929,1.74124126664853,1.74009003275322,1.73654998852516,1.73691454592534,1.73395011864493,1.91939471194695,1.92021976290525,1.73573453118265,1.84190707717714,1.73401727395549,1.91210356394335,1.73280847836542,1.83742685860124,1.73376783994484,1.7335088123184,1.7343338632767,1.73386377610278,1.7333361272341,1.90508103718199,1.86841423761653,1.79303719832145,1.79352647272695,1.86571843157836,1.86642835914713,1.78941081155124,1.86555534010986,1.86360783610363,1.86254294475048,1.78587076732318,1.96408177431636,1.97100836491978,1.85545326267856,1.85594253708406,1.85551082437332,1.85366885014083,1.96294972765264,1.77803278321931,1.85007124421801,1.88855123716857,1.8916499750701,1.88781252875242,1.77395549650677,1.8436243344043,1.77290019876941,1.77234376905334,1.84204138779826,1.84055437735015,1.84252106858797,1.76797867386698,1.84183032825078,1.8851934716406,1.84098609006089,1.96833174611319,1.84295278129871,1.76887088013584,1.88607608429367,1.88555802904078,1.88443557599286,1.95910268771917,1.84572533626323,1.77203677334793,1.77290019876941,1.84655998083733,1.7730824774695,1.84982181020736,1.85028230376548,1.85452268194652,1.85585619454191,1.96773694193395,1.97185260310967,1.88272791238149,1.8813752125545,1.96581821877511,1.855712290305,1.93573263964448,1.8510689802606,1.92611024300289,1.92545787712888,1.9540852266588,1.95262699705808,1.92532356650777,1.85211468438217,1.8512416653449,1.8517309397504,1.92657073656101,1.92644601955569,1.92868133203574,1.84854585930673,1.92355834120163,1.92399005391237,1.93637541190269,1.93846682014583,1.93509946100206,1.93293130383257,1.93455262490179,1.85006165060221,1.93267227620613,1.85204752907161,1.9418341792896,1.84930375495447,1.94489454272795,1.925266004813,1.92553462605524,1.93653850337119,1.84972587404942,1.94664058080249,1.94552772137036,1.8505797058551,1.94592105961793,1.92525641119721,1.84954359534933,1.9323844677323,1.93552158009701,1.93505149292309,1.85228736946647,1.93240365496389,1.93918634133039,1.94204523883707,1.9333822037749,1.94886629966675,1.93574223326027,1.93232690603754,1.92803855977753,1.84715478501657,1.84608030004762,1.93275861874828,1.94816596571377,1.85007124421801,1.93560792263915,1.92965988084675,1.94247695154781,1.84741381264301,1.93829413506153,1.92370224543854,1.84861301461729,1.92906507666751,1.92700244927175,1.92199458182718,1.97185260310967,1.92507413249712,1.8432981514673,1.9310605487527,1.84391214287813,1.84425751304672,1.91985520550507,1.84258822389853,1.92182189674288,1.92233995199577,1.91728411647222,1.92915141920965,1.93640419275007,1.84224285372993,1.84118755599257,1.77692951740297,1.88150952317562
