1.75433, 1.7531, 1.75449, 1.7529, 1.7503, 1.75138, 1.75202, 1.75041, 1.74838, 1.75052, 1.74475, 1.74594, 1.74809, 1.74941, 1.74931, 1.74409, 1.74609, 1.74721, 1.74544, 1.74605, 1.74701, 1.74698, 1.74726, 1.74617, 1.85983, 1.74527, 1.74682, 2.01072, 1.74422, 1.84808, 1.84893, 1.74372, 1.74379, 1.7931, 1.87199, 1.74066, 1.73918, 1.73989, 1.74025, 1.84776, 1.73578, 1.73308, 1.73792, 1.73408, 1.73377, 1.737, 1.73547, 1.73732, 1.74056, 1.73691, 1.73747, 1.74043, 1.81941, 1.8166, 1.81494, 1.81592, 1.81238, 1.97207, 1.97613, 1.99032, 1.99613, 1.98175, 1.81515, 1.97236, 1.89372, 1.88938, 1.89317, 1.99112, 1.99658, 1.81602, 1.89277, 1.89677, 1.89067, 1.89356, 1.88844, 1.9005, 1.9731, 1.89673, 1.89607, 1.89989, 1.90012, 1.88667, 1.99036, 1.88684, 1.88647, 1.97866, 1.90345, 1.88951, 1.89285, 1.90802, 1.90062, 1.90617, 1.89296, 1.89555, 1.98237, 1.91005, 1.98667, 1.9033, 1.99625, 1.97219, 1.96496, 1.88387, 1.96678, 1.96857, 1.97154, 1.88598, 1.96266, 1.96859, 1.96887, 1.9701, 1.96876, 1.96967, 1.96888, 1.96962, 1.98063, 1.88963, 1.98899, 1.98431, 1.96947, 1.96828, 1.96852, 1.96789, 1.96835, 1.99618, 1.97384, 1.992, 1.89823, 1.89964, 2.00449, 1.9935, 1.97585, 1.97867, 1.9974, 1.9793, 1.9784, 1.97941, 2.00342, 2.00075, 1.90515, 1.99837, 1.9925, 1.99785, 1.90741, 1.99303, 1.98139, 1.98138, 1.99773, 1.99741, 1.99334, 1.90784, 1.90747, 1.98766, 1.9846, 2.01421, 1.98537, 2.01456, 1.99992, 1.98712, 1.90984, 1.9934, 1.99376, 1.98811, 1.91226, 1.91036, 1.91143, 1.91153, 1.91681, 1.91374, 1.99372, 2.00869, 1.91417, 2.0143, 1.93837, 1.90214, 1.84729, 1.84443, 1.84528, 2.03383, 1.84575, 1.84721, 1.84643, 1.89672, 1.89656, 1.95366, 1.84928, 1.94811, 1.85219, 1.90213, 1.90294, 1.90318, 1.85285, 1.85571, 2.03906, 1.85562, 1.85615, 1.85248, 2.04216, 1.85348, 1.85366, 1.85479, 1.85224, 1.85124, 2.05103, 1.85278, 1.85113, 1.9022, 1.85029, 1.84727, 1.84942, 1.84869, 2.05209, 2.05096, 2.05448, 1.8452, 2.0314, 1.84981, 2.03455, 1.85126, 1.851, 1.84883, 1.77904, 1.77945, 1.78186, 1.7776, 1.77657, 1.77423, 1.87185, 1.77506, 1.82142, 1.87254, 1.88667, 1.88258, 1.76819, 1.89204, 1.76405, 1.76306, 1.76533, 1.76152, 1.76279, 1.76346, 1.76202, 1.81051, 1.89484, 1.76148, 1.85967, 1.75981, 1.89315, 1.75867, 1.75826, 1.75878, 1.76136, 1.75983, 1.75613, 1.75756, 1.75811, 1.83746, 1.75332, 1.89685, 1.89203, 1.75092, 1.74846, 1.74698, 1.88695, 1.74734, 1.74382, 1.7417, 1.74011, 1.739, 1.74121, 1.73884
1.75137, 1.75484, 1.75437, 1.75266, 1.75281, 1.75227, 1.75367, 1.75159, 1.74804, 2.00624, 1.74711, 1.74618, 1.74628, 1.7505, 1.80002, 1.74607, 1.74797, 1.74843, 1.74725, 1.74594, 1.74698, 1.74487, 1.74514, 1.74755, 1.7449, 1.74627, 1.74422, 1.74407, 1.74715, 1.74768, 1.93136, 1.74686, 1.79233, 1.79193, 1.74272, 1.84771, 1.85115, 1.80557, 1.73823, 1.73685, 1.8514, 1.73678, 1.85142, 1.78379, 1.73397, 1.73711, 1.73421, 1.84958, 1.78741, 1.73573, 1.73924, 1.84502, 1.81865, 1.81758, 1.8167, 1.89505, 1.8145, 1.81605, 1.81723, 1.81693, 1.81613, 1.96878, 1.81768, 1.81552, 1.81518, 1.81512, 1.81427, 1.8924, 2.0006, 1.81371, 1.89003, 1.88946, 1.97218, 1.97276, 1.89551, 1.81204, 1.97951, 1.88599, 1.89622, 1.88643, 1.88651, 1.88908, 1.88587, 1.90322, 1.81019, 1.81092, 1.90439, 1.90632, 1.88939, 1.9032, 1.89081, 1.89389, 1.89462, 1.89577, 1.9065, 1.98747, 1.90666, 1.90657, 2.01502, 1.97213, 1.88395, 1.97648, 1.88548, 1.96288, 1.97167, 1.96451, 1.96326, 1.96771, 1.96345, 1.97299, 1.97227, 1.97176, 1.97175, 1.96791, 1.99069, 1.96583, 1.96963, 1.99248, 1.99063, 1.96994, 1.96863, 1.98678, 1.99414, 1.89506, 1.9716, 1.99997, 2.00708, 1.99013, 1.99923, 1.89735, 1.97635, 1.97803, 1.99367, 1.98132, 1.99811, 1.90398, 1.98072, 1.9977, 1.98223, 1.98908, 1.98175, 1.9933, 2.00744, 1.98204, 1.9896, 1.99111, 1.99981, 1.99882, 2.00372, 1.91024, 2.01263, 1.98423, 1.98281, 1.99281, 1.98595, 1.98923, 2.00355, 2.00082, 1.98701, 2.00134, 1.98996, 1.98966, 1.98956, 1.91367, 1.91146, 1.91288, 1.91305, 1.91651, 1.99378, 1.98873, 2.01017, 2.00576, 1.84602, 1.93672, 1.84716, 1.84099, 1.84499, 1.84112, 1.84142, 1.89829, 1.89619, 1.84802, 1.89798, 1.95754, 1.84977, 1.84899, 1.84782, 1.92327, 1.85496, 1.85463, 2.03216, 1.85307, 1.85415, 2.04138, 1.85716, 1.85427, 2.03849, 1.8524, 1.85261, 1.85272, 2.04878, 1.90396, 1.90265, 2.03772, 1.85329, 1.85042, 1.84793, 1.8511, 1.85027, 1.84833, 1.84619, 1.84733, 1.84673, 1.84451, 1.84858, 1.84882, 2.03547, 1.84933, 1.93851, 1.78606, 1.87942, 1.8816, 1.77852, 1.77627, 1.87315, 1.8813, 1.7721, 1.77193, 1.82244, 1.77098, 1.76807, 1.76453, 1.76506, 1.87699, 1.76574, 1.76371, 1.86162, 1.85609, 1.89463, 1.81243, 1.81287, 1.81063, 1.76171, 1.76096, 1.76031, 1.75929, 1.89251, 1.89328, 1.75669, 1.7585, 1.89045, 2.07209, 1.88877, 1.75642, 1.75621, 1.87649, 1.87224, 1.75763, 1.90086, 1.75043, 1.74876, 1.88835, 1.74762, 1.74353, 1.74063, 1.73843, 1.73801, 1.73498, 1.738, 1.73801
1.93367, 1.75126, 1.75231, 1.75357, 1.75207, 1.75163, 1.75271, 1.7517, 1.75065, 1.75054, 1.74997, 1.74983, 1.93023, 1.74659, 1.74642, 1.74775, 1.74672, 1.74836, 1.74746, 1.7483, 1.74688, 1.74838, 1.74738, 1.74735, 1.748, 1.92644, 1.92634, 1.79582, 1.79756, 1.79484, 1.74359, 1.74468, 1.86372, 1.79441, 1.83537, 1.83704, 1.74181, 1.78845, 1.73782, 1.74031, 1.73697, 1.7345, 1.73482, 1.73566, 1.73451, 1.73343, 1.73507, 1.73457, 1.73587, 1.73702, 1.73707, 1.73801, 1.8965, 1.81599, 1.81456, 1.81841, 1.9698, 1.81646, 1.81619, 1.89528, 1.99774, 1.89093, 1.89387, 1.81838, 1.97361, 1.89319, 1.97236, 1.89435, 1.89298, 1.8967, 1.89592, 1.88901, 1.89904, 1.89296, 1.89718, 1.8957, 1.88853, 1.8862, 1.89875, 1.98525, 1.81037, 1.88791, 1.81108, 1.90196, 1.88781, 1.90238, 1.88906, 1.97887, 1.8105, 1.90574, 1.81421, 1.9051, 1.99366, 1.89486, 1.90631, 1.90759, 1.98229, 1.82415, 2.01089, 1.96259, 1.97968, 1.88875, 1.98957, 1.96649, 1.96004, 1.88455, 1.96614, 1.96654, 1.96712, 1.96739, 1.96702, 1.8856, 1.96989, 1.96283, 2.00033, 1.99107, 1.97991, 1.99228, 1.9959, 1.89264, 1.98337, 1.9795, 1.99271, 1.97866, 1.97293, 1.97237, 1.89751, 1.97481, 1.97591, 2.00412, 1.97706, 2.00079, 2.0065, 2.00654, 1.98995, 2.00364, 1.98411, 1.90343, 1.99625, 1.98342, 1.99848, 1.97974, 1.99973, 1.99369, 1.98384, 1.90746, 1.90632, 1.98242, 1.90653, 1.90739, 2.0071, 1.99314, 1.91064, 1.98501, 2.00641, 1.98568, 1.98642, 2.00105, 2.01652, 1.98884, 1.98597, 1.99304, 1.98923, 1.90995, 1.91123, 1.91265, 1.914, 1.91415, 1.91663, 2.00667, 1.91441, 1.99784, 1.84431, 1.91322, 1.84465, 1.84478, 1.8473, 1.84409, 1.9193, 1.91299, 1.9373, 1.84535, 1.89834, 1.84751, 2.04451, 1.84971, 1.84957, 1.94812, 1.85384, 1.85135, 1.85422, 1.85497, 1.85481, 1.85804, 2.03096, 2.04867, 1.85819, 1.85468, 1.85617, 1.85521, 1.85506, 1.90594, 1.84877, 2.03128, 1.85147, 1.85177, 1.85123, 1.85118, 1.84611, 2.05137, 1.84733, 1.8487, 1.84779, 1.84713, 1.84785, 1.848, 1.8493, 1.85066, 1.84908, 1.90152, 1.93485, 1.88213, 1.93428, 1.77841, 1.88721, 1.87269, 1.88937, 1.88851, 1.77168, 1.88633, 1.89263, 1.76775, 1.7652, 1.76643, 1.76768, 1.76644, 1.7648, 1.85876, 1.76301, 1.76104, 1.81199, 1.76146, 1.87794, 1.80864, 1.8088, 1.75685, 1.75777, 1.89248, 1.75767, 1.7571, 1.89309, 1.85204, 1.80621, 1.75533, 1.88845, 1.88532, 1.74942, 1.75244, 1.75261, 1.75136, 1.75065, 1.74799, 1.74701, 1.74614, 1.74315, 1.74326, 1.74125, 1.74088, 2.07039, 1.88533
1.75334, 1.75407, 1.75452, 1.75413, 1.7569, 1.75299, 1.75214, 1.75162, 1.74979, 1.75224, 1.75113, 1.7486, 1.74815, 1.74936, 1.75036, 1.74937, 1.84704, 1.74718, 1.74628, 1.75003, 1.74709, 1.74737, 1.74745, 1.74499, 1.74478, 1.83722, 1.83733, 1.79811, 1.74606, 1.74708, 1.81953, 1.74622, 1.86653, 1.87, 1.87167, 1.74379, 1.85532, 1.74054, 1.73799, 1.73437, 1.73819, 1.73663, 1.73498, 1.73737, 1.7353, 2.0278, 1.73382, 1.72982, 1.73543, 2.0287, 1.73656, 1.80343, 1.81762, 1.97883, 1.81818, 1.81892, 1.81994, 1.97556, 1.96941, 1.97037, 1.98667, 1.99037, 1.97081, 1.97266, 1.81365, 1.89655, 1.89527, 1.89643, 1.81404, 1.89756, 1.89714, 1.97426, 1.97485, 1.89579, 1.9774, 1.98785, 1.88897, 1.9016, 1.98002, 1.88726, 1.88506, 1.81039, 1.81053, 1.98554, 1.90366, 1.97973, 1.88896, 1.88681, 1.90662, 1.88667, 1.9063, 1.89198, 1.89453, 1.89662, 1.89562, 1.90462, 1.82726, 1.91015, 2.00107, 1.97668, 1.96207, 1.96231, 1.97786, 1.96195, 1.9678, 1.9638, 1.96576, 1.8846, 1.88612, 1.8854, 1.96974, 1.96569, 1.96686, 1.88947, 1.8872, 1.89028, 1.96384, 1.96684, 1.99984, 1.96873, 1.98883, 1.89367, 1.89291, 1.99307, 1.89847, 1.97342, 1.9753, 1.98902, 1.97415, 1.99378, 1.99289, 1.97909, 1.99929, 1.99081, 1.99975, 1.98128, 1.9815, 2.00097, 1.984, 1.98246, 1.99133, 2.00074, 1.98291, 1.90633, 1.90656, 1.90419, 1.98003, 1.90684, 2.0018, 2.00293, 1.99388, 1.90556, 1.98657, 1.98582, 1.98728, 2.0028, 1.99798, 1.98311, 1.98285, 1.99288, 1.9883, 1.98658, 1.9104, 1.91047, 1.91018, 1.91085, 1.90881, 1.91535, 1.91383, 2.0109, 1.99808, 2.01393, 1.84403, 1.95009, 2.04378, 2.02873, 1.84448, 1.89918, 1.89622, 1.89499, 1.89681, 1.89776, 1.89726, 1.84503, 1.95224, 1.90009, 1.84775, 1.85471, 1.85316, 1.90356, 1.85417, 1.85478, 2.05135, 2.04598, 2.05061, 1.85679, 2.04081, 1.85793, 1.85689, 1.8561, 1.85402, 1.85513, 1.85203, 1.85235, 2.03109, 1.85104, 1.85144, 1.85256, 1.84926, 1.84808, 1.8482, 1.84619, 1.85094, 1.84851, 1.848, 1.85131, 1.85004, 1.84856, 1.8489, 1.90065, 1.87545, 1.87945, 1.7822, 1.77523, 1.77871, 1.88653, 1.88651, 1.8861, 1.88964, 1.76954, 1.76799, 1.82697, 1.76773, 1.89658, 1.76212, 1.76551, 1.76373, 1.76052, 1.81334, 1.81273, 1.76173, 1.87519, 1.8105, 1.80936, 1.7573, 1.75307, 1.87114, 1.7576, 1.7567, 1.75835, 1.75778, 1.75924, 1.75722, 1.80382, 1.75149, 1.88914, 1.88956, 1.75469, 1.75161, 1.75239, 1.74928, 1.86759, 1.74621, 1.8937, 1.74525, 1.88277, 1.88041, 1.74268, 1.74282, 1.74528
1.75612, 1.75667, 1.7544, 1.75745, 1.75597, 1.75742, 1.75772, 2.03468, 1.75039, 1.75081, 1.75122, 1.74977, 1.75005, 1.74864, 1.75083, 1.7502, 1.74848, 1.74556, 1.74645, 1.7472, 1.74832, 1.74805, 2.01441, 1.74832, 1.74648, 1.7476, 1.74688, 1.74634, 1.74758, 2.00807, 1.85591, 1.74769, 1.74342, 1.79559, 1.79058, 1.78969, 1.73758, 1.73876, 1.78599, 1.73675, 1.73491, 1.73795, 1.73503, 1.73107, 1.73169, 1.73332, 1.7338, 2.03882, 1.73491, 2.01209, 1.73679, 1.73755, 1.82037, 1.82108, 1.82021, 1.81996, 1.89562, 1.97329, 1.81702, 1.97039, 2.00195, 1.81738, 1.99042, 1.81611, 1.81591, 1.81595, 1.89681, 1.89685, 1.97531, 2.00467, 1.97294, 1.81388, 1.88756, 1.89943, 1.81418, 1.81219, 1.81234, 1.98784, 1.98656, 1.99333, 1.98638, 1.90645, 1.88796, 1.80972, 1.88518, 1.88613, 1.90594, 1.88596, 1.81048, 1.88854, 2.00694, 1.90703, 1.89592, 1.81655, 1.90172, 1.90421, 1.91028, 1.90861, 2.00457, 2.00433, 1.97366, 1.88564, 1.88579, 1.96814, 1.9774, 1.98383, 1.8877, 1.88415, 1.88577, 1.88864, 1.88691, 1.88777, 1.97228, 1.96577, 1.98535, 1.88854, 1.96882, 1.96832, 1.9872, 1.89312, 1.98474, 1.98866, 1.9855, 1.98636, 1.8978, 1.98996, 1.97457, 1.89699, 1.97499, 1.89904, 1.99701, 1.98734, 1.98328, 1.99886, 1.99956, 1.98704, 1.9958, 1.99065, 1.99278, 1.98626, 1.98267, 1.9044, 2.00673, 2.00543, 1.99886, 1.99604, 1.99202, 1.99268, 2.00415, 1.98228, 1.98341, 1.90677, 2.01076, 1.90993, 1.98281, 1.98721, 1.99656, 1.90874, 1.98589, 1.987, 1.98642, 1.99151, 1.91046, 1.98663, 1.91175, 1.91377, 1.91603, 1.91297, 1.99028, 1.91439, 2.00646, 1.99685, 1.8415, 1.8427, 1.84325, 1.84071, 2.04175, 1.84415, 1.84383, 1.84555, 1.84772, 2.04409, 1.84216, 2.04102, 1.84785, 1.90001, 1.84893, 1.85387, 1.85246, 1.90569, 1.90602, 1.85451, 1.85424, 1.85237, 1.85591, 1.85632, 2.04552, 1.85503, 1.85633, 1.85671, 1.85428, 1.94888, 1.94841, 1.8543, 1.8544, 1.8544, 1.85268, 2.05031, 2.05188, 1.84809, 1.84848, 1.85003, 1.84809, 1.91695, 1.89917, 1.84585, 1.84994, 1.84968, 1.85001, 1.78579, 1.78282, 1.7806, 1.77512, 1.77589, 1.93911, 1.77489, 1.93761, 1.93928, 1.7695, 1.76702, 1.88577, 1.76733, 1.94063, 1.76491, 1.76269, 1.76092, 1.76115, 1.76528, 1.81342, 1.87686, 1.81202, 1.81328, 1.83058, 1.80988, 1.75898, 1.75863, 1.75965, 1.80705, 1.80812, 1.7552, 1.75465, 1.75776, 1.87611, 1.80601, 1.85967, 1.88616, 1.7517, 1.75239, 1.75267, 1.75269, 1.88266, 1.7508, 1.74764, 1.74627, 1.84078, 1.74834, 1.79575, 1.8643, 1.79605, 1.79295
1.75776, 1.75487, 1.75492, 1.75636, 1.75665, 1.75803, 1.7529, 1.75477, 1.74914, 1.751, 1.75241, 1.75038, 1.75434, 1.75021, 1.74968, 1.74895, 1.80004, 1.83201, 1.74943, 1.74997, 1.80025, 1.75084, 1.74766, 1.75092, 1.74794, 1.74778, 1.74641, 1.74296, 1.74409, 1.74421, 1.74255, 1.74435, 1.79373, 1.74246, 1.74306, 1.74147, 1.84788, 1.74088, 1.78886, 1.73781, 1.73508, 2.02455, 1.73406, 2.02783, 1.73399, 1.73135, 1.73412, 2.01387, 1.73698, 1.73532, 1.73862, 1.73798, 1.97545, 1.97568, 1.9769, 1.89112, 1.81748, 1.81739, 1.97316, 1.8958, 1.89384, 1.97218, 1.89574, 1.82001, 1.81616, 1.81728, 1.81761, 1.89109, 2.00461, 1.89081, 1.81291, 1.8923, 1.89814, 1.8128, 1.88977, 1.88893, 1.88909, 1.98745, 1.98038, 1.90055, 1.98172, 1.80961, 1.99646, 1.88612, 1.90471, 1.9052, 1.88673, 1.90526, 1.90454, 1.90462, 1.90523, 1.90982, 1.9075, 1.8181, 1.82007, 1.8993, 1.90673, 1.90205, 2.01137, 1.9739, 1.96283, 1.97336, 1.96113, 1.96258, 1.97321, 1.98276, 1.97315, 1.88879, 1.88776, 1.88635, 1.88851, 1.88946, 1.96594, 1.96897, 1.9685, 1.89031, 1.96701, 1.98978, 1.98974, 1.97301, 1.96946, 1.97132, 1.99124, 1.98945, 1.97304, 1.97538, 1.97523, 1.999, 1.97931, 1.89887, 1.98983, 1.98211, 1.99665, 1.90373, 1.98351, 1.9889, 1.9025, 1.90334, 1.98777, 1.90683, 1.99651, 1.90503, 1.90628, 1.997, 2.00627, 1.90569, 2.0042, 1.99937, 1.90705, 1.90741, 2.00299, 2.01862, 2.01538, 1.9911, 1.98682, 2.00135, 1.90727, 1.98612, 1.99397, 2.00166, 1.98775, 1.91041, 1.98653, 1.91159, 1.91032, 1.91102, 1.9117, 1.9112, 1.98892, 1.9878, 1.91482, 1.99147, 1.84488, 1.84402, 1.84431, 2.0427, 1.84311, 1.84187, 1.84312, 2.04927, 1.84477, 1.84593, 2.04178, 2.03298, 1.84782, 1.85101, 1.95695, 1.85408, 1.85139, 2.04818, 1.94512, 1.85459, 1.94788, 1.85243, 2.04203, 1.85294, 1.85557, 1.85625, 1.85462, 1.85203, 1.85545, 1.94728, 1.85481, 1.85415, 1.90335, 1.85192, 2.04752, 2.04823, 2.03196, 1.85097, 1.84862, 1.8993, 2.02422, 1.90178, 1.90114, 1.84749, 1.85102, 1.8506, 1.8493, 1.78217, 1.78274, 1.78038, 1.87262, 1.88309, 1.8865, 1.88626, 1.88953, 1.88727, 1.89035, 1.76662, 1.89482, 1.76418, 1.7657, 1.76587, 1.89114, 1.7621, 1.76199, 1.76062, 1.75796, 1.7618, 1.82849, 1.81076, 1.75939, 1.87913, 1.80705, 1.89187, 1.76008, 1.75801, 2.07566, 1.88701, 1.88447, 1.75472, 1.75645, 1.88806, 1.88663, 1.88684, 1.75309, 1.88666, 1.8826, 1.75452, 1.75209, 1.88825, 1.74533, 1.7475, 1.87719, 1.88924, 1.87041, 1.86713, 1.86455, 1.79359
1.75956, 1.75868, 1.7585, 1.75841, 1.75597, 1.75532, 1.75449, 1.75174, 2.02258, 1.75426, 1.75186, 1.85235, 1.8534, 1.75291, 1.74519, 1.75112, 1.748, 1.8039, 1.75156, 1.74627, 1.74892, 1.74814, 1.74883, 1.74957, 1.74727, 1.74761, 1.74777, 1.74874, 1.74795, 1.74409, 1.74517, 1.74498, 1.74249, 1.74671, 1.74288, 1.74325, 1.84941, 1.73792, 1.73768, 1.73507, 1.73434, 1.73386, 1.73515, 1.73477, 1.73721, 1.73132, 1.73368, 1.73405, 1.73842, 1.74039, 1.78753, 1.73889, 1.97613, 1.97566, 1.81966, 1.89634, 1.89686, 1.8176, 1.97921, 1.81767, 1.89867, 1.89621, 2.00401, 1.90015, 1.891, 1.89682, 1.81736, 1.97592, 1.89678, 1.81376, 1.89769, 1.8932, 1.81252, 1.88841, 1.89145, 1.89068, 1.97981, 1.81194, 1.97954, 1.88688, 1.88738, 1.81054, 1.81084, 1.88539, 1.88927, 1.80997, 1.90805, 1.8933, 1.90681, 1.88874, 1.88877, 1.90811, 1.90814, 1.90997, 1.90699, 1.9014, 1.98614, 1.90954, 2.0043, 1.9621, 1.96185, 1.97812, 1.97673, 1.98301, 1.97651, 1.97857, 1.88877, 1.88703, 1.88917, 1.88832, 1.88635, 1.88802, 1.96451, 1.98646, 1.97232, 1.96613, 1.97576, 1.96627, 1.99685, 1.99152, 1.96843, 1.98844, 1.96971, 1.98698, 1.96875, 1.9904, 2.00014, 1.97354, 1.9825, 1.97588, 1.89949, 1.99758, 1.97585, 1.99608, 1.99345, 2.02589, 1.9873, 1.99234, 1.98706, 1.9888, 2.00062, 1.99385, 2.00237, 1.90824, 1.90638, 2.0007, 2.00466, 1.90646, 1.985, 2.00393, 1.99442, 1.99466, 1.98603, 1.99655, 1.98657, 1.98708, 1.99015, 2.00503, 1.99641, 1.98413, 1.98731, 1.9884, 1.98569, 1.98653, 1.98862, 1.98824, 1.98907, 1.98823, 1.99945, 1.98813, 2.01081, 1.91339, 2.04122, 1.84205, 1.84287, 2.03514, 2.04938, 2.04418, 1.90175, 1.84328, 2.02889, 1.84681, 1.84552, 2.03106, 2.0629, 1.85058, 2.04248, 2.03131, 1.8523, 2.03249, 1.90321, 1.85457, 1.94427, 1.8542, 1.85508, 1.8542, 1.85405, 1.90583, 1.85415, 1.85587, 1.85548, 1.90435, 1.8545, 1.85437, 1.85399, 2.06293, 1.84871, 1.84595, 1.84964, 1.91739, 1.91624, 1.85112, 1.90025, 1.92076, 1.84915, 2.02375, 1.8507, 1.85118, 1.85078, 1.78353, 1.78089, 1.78031, 1.88874, 1.83557, 1.77483, 1.82269, 1.82244, 1.87272, 1.76793, 1.89092, 1.89, 1.88751, 1.76612, 1.76246, 1.89077, 1.76446, 1.76276, 1.76121, 1.76144, 1.75995, 1.76212, 1.76314, 1.76237, 1.89414, 1.89128, 1.89137, 1.75799, 1.75783, 1.75785, 1.75548, 1.81698, 1.88749, 1.8859, 1.75458, 1.88879, 1.75641, 1.75316, 1.88941, 1.75269, 1.75146, 1.75415, 1.88202, 1.85802, 1.88536, 1.7484, 1.7492, 1.75177, 1.74787, 1.74897, 1.86087
1.75977, 1.84052, 1.75774, 1.84316, 1.82499, 1.84685, 1.75631, 2.01368, 1.75385, 1.75243, 1.75444, 1.75421, 1.75211, 1.75321, 1.74936, 1.75073, 1.75173, 1.74764, 1.74892, 1.7492, 1.74941, 1.75149, 1.74856, 1.74717, 1.79925, 1.79958, 1.74931, 1.74979, 1.74693, 1.74771, 1.85387, 1.74238, 1.74461, 1.7431, 1.85093, 1.74413, 1.78983, 1.79084, 1.73653, 1.73925, 1.73586, 1.93387, 1.73792, 1.73612, 1.73421, 1.73222, 2.02089, 1.73646, 1.73728, 1.78717, 1.73999, 1.78933, 1.81998, 1.97554, 1.81808, 1.97585, 1.97648, 1.97184, 1.97597, 1.97561, 1.99089, 1.81941, 2.0003, 1.88761, 1.89881, 1.8994, 1.97355, 1.97517, 1.8141, 1.81498, 1.88964, 1.88828, 1.9009, 1.88911, 1.89021, 1.90295, 1.88714, 1.88861, 1.88671, 1.88604, 1.81164, 1.81081, 1.90323, 1.90198, 1.90224, 1.8861, 1.90713, 1.89016, 1.81023, 1.98665, 1.90769, 1.90992, 1.91048, 1.89287, 1.98628, 1.98454, 1.90079, 2.00302, 1.99043, 1.98859, 1.96144, 1.96155, 1.97537, 1.98625, 1.98584, 1.96548, 1.88696, 1.88577, 1.88595, 1.89126, 1.96476, 1.96526, 1.96616, 1.99319, 1.9997, 1.98683, 1.88991, 1.99351, 1.98945, 1.96831, 1.96831, 1.98851, 1.89556, 1.96999, 1.89522, 1.97288, 1.97528, 1.97653, 1.99701, 1.97588, 1.90031, 2.00338, 1.97785, 1.97871, 1.98292, 1.9901, 2.00061, 1.99568, 2.00917, 1.99994, 1.99048, 1.99254, 1.99309, 1.9901, 1.98, 1.97922, 1.99226, 1.90733, 1.99772, 1.9947, 1.99666, 1.99118, 1.98287, 1.99016, 2.00138, 1.99854, 1.90751, 2.01042, 1.99469, 2.00763, 1.9095, 1.98847, 1.98895, 1.98942, 1.99278, 1.98664, 1.98808, 1.98931, 1.99271, 1.91359, 1.98944, 2.00341, 1.84426, 1.844, 2.0441, 1.84243, 1.84202, 2.03623, 1.84126, 1.84472, 2.05236, 2.03995, 1.84607, 1.84799, 1.84652, 1.84357, 1.85048, 1.84903, 1.85077, 1.92622, 1.85122, 1.85384, 2.0349, 1.85454, 1.85701, 1.90607, 1.90638, 1.90414, 1.85626, 1.85726, 1.85645, 1.90527, 1.90547, 1.94539, 1.85332, 2.05853, 2.05718, 1.85226, 1.85163, 1.85161, 1.89999, 1.90334, 1.8997, 2.0324, 1.85221, 2.02543, 1.84934, 1.852, 1.8502, 1.78453, 1.78534, 1.78306, 1.7773, 1.82993, 1.87442, 1.87322, 1.77294, 1.77148, 1.76803, 1.89057, 1.88985, 1.76432, 1.76499, 1.81713, 1.76377, 1.76346, 1.76146, 1.76225, 1.89003, 1.75946, 1.75791, 1.86143, 1.88865, 1.8874, 1.76092, 1.75662, 1.75708, 1.75219, 1.75539, 1.75737, 1.81723, 1.80537, 1.75303, 1.88159, 1.75508, 1.75275, 1.8881, 1.75403, 1.85267, 1.80287, 1.88361, 1.75174, 1.85258, 1.74809, 1.7498, 1.87475, 1.8728, 1.74975, 1.74771, 1.8554
1.81204, 1.85036, 1.76142, 1.75792, 2.02699, 1.7568, 1.75644, 1.75572, 1.93722, 2.0274, 1.75521, 1.75495, 1.75407, 1.75476, 1.74955, 1.85023, 1.75209, 2.02555, 1.75152, 1.7515, 1.75087, 1.75177, 1.75256, 1.79978, 1.80038, 1.74494, 1.83707, 1.75075, 1.74566, 1.74653, 1.744, 1.74622, 1.74472, 1.7463, 1.74715, 1.86151, 1.86212, 1.79359, 1.73856, 1.73933, 1.73563, 1.73757, 1.73924, 1.73565, 1.7366, 1.73753, 1.73707, 1.73694, 1.73704, 1.73949, 1.7401, 1.74038, 1.97773, 1.97608, 1.82059, 1.82023, 1.81999, 1.89926, 1.90044, 1.9979, 1.82002, 1.81504, 1.81361, 2.00399, 1.89164, 1.89622, 1.8993, 1.81277, 1.89976, 1.81491, 1.9018, 1.89994, 1.8978, 1.97623, 2.00021, 1.89982, 1.89192, 1.88894, 1.81244, 1.88776, 1.90673, 1.88672, 1.98107, 1.90357, 1.88377, 1.88645, 1.81123, 1.886, 1.88621, 1.90946, 1.81442, 1.81539, 1.8961, 1.91141, 1.9111, 1.9963, 1.98678, 1.91017, 2.0119, 1.99583, 1.98914, 1.88549, 1.96306, 1.88716, 1.97305, 1.96251, 1.96278, 1.96811, 1.88515, 1.88618, 1.96011, 1.96984, 1.96857, 1.96403, 1.99238, 1.97236, 1.97145, 1.97594, 1.98065, 1.97961, 1.96868, 1.99208, 1.97278, 1.97261, 1.98754, 1.9729, 1.97497, 1.98168, 1.97985, 1.97562, 1.99419, 1.99453, 1.98889, 1.99702, 1.9886, 1.98627, 1.99436, 1.90387, 1.9046, 2.00676, 2.00253, 1.99318, 2.00165, 1.98655, 1.99098, 2.00752, 1.99346, 1.99103, 2.00418, 1.99397, 2.00132, 1.98532, 2.01208, 1.98648, 2.00383, 2.00492, 1.9091, 2.00788, 2.00184, 1.98272, 1.98918, 1.98791, 1.99047, 1.90964, 1.98747, 1.99054, 1.98753, 1.99469, 1.99441, 1.91176, 1.99661, 2.00751, 1.84307, 1.84349, 1.84152, 1.8447, 1.84549, 1.94166, 1.84372, 1.84368, 1.84719, 2.0386, 2.04859, 1.8457, 1.84597, 1.84698, 1.84911, 1.84913, 1.84868, 1.84895, 1.85126, 1.85334, 1.85587, 1.85545, 1.85635, 1.9095, 1.93583, 1.85438, 2.02958, 1.85714, 1.85603, 1.90711, 1.90415, 1.94832, 1.85543, 1.8545, 1.85426, 1.85163, 1.85084, 1.85061, 1.85201, 2.0292, 1.84947, 1.8504, 2.04208, 1.85471, 1.85181, 1.85122, 1.84938, 1.84829, 1.78012, 1.78168, 1.77788, 1.82769, 1.77634, 1.77218, 1.82431, 1.82282, 1.77146, 1.76854, 1.76916, 1.76541, 1.7656, 1.76409, 1.89427, 1.89238, 1.76145, 1.76082, 1.75884, 1.75932, 1.85816, 1.75801, 1.80872, 1.80731, 1.86383, 1.86036, 1.75381, 1.75232, 1.7595, 1.75598, 1.75446, 1.75752, 1.75641, 1.88602, 1.8708, 1.75527, 1.75417, 1.75465, 1.75315, 1.75238, 1.75133, 1.88126, 1.75062, 1.75079, 1.74507, 1.87734, 1.74804, 1.74915, 1.87994, 1.7992
1.84449, 1.81114, 1.76099, 1.75856, 1.75492, 1.75797, 1.75946, 1.75593, 1.75555, 1.7548, 1.75639, 1.85812, 1.75487, 1.86183, 1.82367, 1.84505, 1.75434, 1.75003, 1.75217, 1.75175, 1.85077, 1.74883, 1.74932, 1.74823, 1.74908, 1.79828, 1.83427, 1.81331, 1.74785, 2.01076, 1.74904, 1.74756, 1.84513, 1.74509, 1.74577, 1.74394, 1.74465, 1.85679, 1.85688, 1.85838, 1.85813, 1.73826, 1.7354, 1.73522, 2.01608, 1.73691, 1.73691, 1.74085, 1.83892, 1.78985, 1.74129, 1.73985, 1.98222, 1.97557, 1.82096, 1.82043, 1.89857, 1.97495, 1.89924, 1.89379, 1.81891, 1.81813, 1.97365, 1.97962, 1.89549, 1.89493, 1.89471, 1.89993, 1.90041, 1.89293, 1.90039, 1.89031, 1.88855, 1.90034, 1.88898, 1.81346, 1.88977, 1.90398, 1.88907, 1.81037, 1.81158, 1.88677, 1.88701, 1.88861, 1.90441, 1.88786, 1.99362, 1.88664, 1.90765, 1.90805, 1.90802, 1.99803, 1.91058, 1.90986, 1.91016, 1.82246, 1.90667, 1.90726, 2.01121, 1.88514, 1.88613, 1.98439, 1.96219, 1.88672, 1.96264, 1.97682, 1.98258, 1.96366, 1.96519, 1.96134, 1.96046, 1.88847, 1.96688, 1.96564, 1.99296, 2.00197, 1.8923, 1.96384, 1.96417, 1.96512, 1.98218, 1.96904, 1.97069, 1.9789, 1.97192, 1.97573, 1.97535, 1.98317, 1.9816, 1.99704, 1.97404, 1.99664, 1.98798, 1.90184, 1.97599, 2.00306, 1.90251, 1.99313, 1.9778, 1.98129, 1.98312, 1.99758, 1.98604, 1.9838, 1.9826, 2.00613, 2.00316, 2.0009, 1.99904, 1.90856, 1.90684, 2.00066, 1.90856, 1.98724, 1.98362, 2.00052, 1.98466, 1.9869, 2.00773, 2.00686, 1.90631, 1.91048, 1.98627, 1.9929, 1.99112, 1.91003, 1.99312, 1.91313, 1.91294, 2.00094, 1.98774, 1.99056, 1.84467, 1.84384, 2.02769, 1.84465, 1.89308, 1.89537, 1.89426, 1.89504, 1.84507, 2.0344, 1.84409, 1.84767, 1.84855, 1.93191, 1.89928, 1.85074, 1.84908, 1.85093, 1.85438, 1.8519, 1.85344, 1.85461, 2.0478, 1.85493, 1.91126, 1.90739, 1.90697, 2.05214, 1.85755, 1.85616, 1.9035, 1.90548, 1.90603, 1.90467, 2.04653, 1.90374, 1.85486, 1.85405, 1.85009, 1.8489, 1.85102, 2.03042, 1.85172, 1.85142, 1.84953, 1.85122, 1.84966, 1.78529, 1.78175, 1.77915, 1.77973, 1.82755, 1.82499, 1.77334, 1.77069, 1.82146, 1.76776, 1.76642, 1.85803, 1.89282, 1.89008, 1.76793, 1.7646, 1.76079, 1.75989, 1.89536, 1.76126, 1.75819, 1.75927, 1.88926, 1.75937, 1.80844, 1.85308, 1.86434, 1.75613, 1.75508, 1.75514, 1.75553, 1.75756, 1.75713, 1.75497, 1.75732, 1.80563, 1.81082, 1.87025, 1.80455, 1.86888, 1.86689, 1.7544, 1.8808, 1.85537, 1.75075, 1.75097, 1.75128, 1.8718, 1.86879, 1.7511, 1.80082
1.76324, 1.75883, 1.76044, 1.76173, 1.75911, 1.75834, 1.759, 1.85779, 1.75603, 1.75611, 1.75408, 1.75479, 1.75248, 1.7534, 1.75126, 1.75149, 1.75208, 1.75386, 1.74874, 1.75067, 1.75127, 1.75198, 1.75227, 1.85737, 1.86035, 1.7507, 1.80126, 1.75082, 1.79883, 1.75089, 1.74901, 1.748, 1.74819, 1.74476, 1.93723, 1.865, 1.74238, 1.74278, 1.74158, 1.74089, 1.74176, 1.85537, 1.73833, 1.73868, 1.85993, 1.73918, 1.78859, 1.8376, 1.74046, 1.74149, 1.74139, 1.74344, 1.82094, 1.82088, 1.82293, 1.82016, 1.97952, 1.82004, 1.81982, 1.97748, 1.89331, 1.89325, 1.89307, 1.97565, 1.89692, 1.99463, 1.89518, 1.89372, 1.89711, 1.89963, 1.90172, 1.89117, 1.88887, 1.90104, 1.8929, 1.90119, 2.00328, 1.98084, 1.98247, 1.8884, 1.88668, 1.88655, 1.90479, 1.90683, 1.80799, 1.98415, 1.99421, 1.90751, 1.88809, 1.8895, 1.81356, 1.89231, 1.89265, 1.91138, 1.91116, 1.82294, 1.91078, 1.91326, 1.99587, 2.00294, 1.98631, 1.98079, 1.96277, 1.96465, 1.96348, 1.96547, 1.97053, 1.96456, 1.96569, 1.96552, 1.96588, 1.9626, 1.97284, 1.97264, 1.89075, 1.9673, 1.96683, 1.99646, 1.9942, 2.00358, 1.98646, 1.99733, 1.89595, 1.99035, 1.99403, 1.89685, 1.9734, 1.97332, 1.97293, 1.90383, 1.98578, 1.98933, 1.90288, 1.90374, 1.99342, 1.98253, 1.98289, 1.90386, 2.00094, 1.99619, 1.90627, 1.98096, 1.9945, 1.90663, 1.99716, 1.98333, 1.9827, 1.98672, 2.00294, 1.99129, 1.99745, 1.90715, 2.00392, 1.98559, 2.00074, 2.00451, 2.01444, 2.00055, 1.99681, 1.98687, 1.90711, 1.98439, 1.98691, 1.98978, 1.99255, 1.99109, 1.99056, 1.91098, 1.99743, 1.99314, 1.9907, 1.99563, 1.84354, 1.84286, 1.94975, 1.84453, 1.8956, 1.89612, 1.84457, 1.94103, 1.89761, 1.89734, 1.84597, 1.92529, 1.89732, 1.89922, 1.90014, 1.85087, 1.85054, 1.95129, 1.85221, 1.90387, 1.94736, 2.05134, 1.85452, 1.85781, 1.85603, 1.85414, 1.85495, 1.855, 1.85521, 1.85527, 1.85431, 1.90716, 1.90611, 1.8545, 1.85413, 1.90837, 1.95355, 1.85205, 1.85167, 1.85109, 1.85197, 1.85317, 1.8539, 2.02338, 1.85241, 1.8542, 1.8533, 1.88506, 1.88309, 1.7795, 1.88607, 1.77802, 1.77562, 1.77295, 1.82357, 1.77131, 1.76914, 1.76797, 1.76638, 1.76647, 1.76654, 1.7594, 1.76368, 1.76099, 1.76172, 1.7598, 1.75921, 1.7599, 1.76035, 1.75961, 1.75759, 1.81048, 1.80808, 1.76111, 1.86251, 1.80616, 1.75597, 1.88794, 1.8618, 1.85774, 1.8839, 1.75418, 1.75198, 1.80505, 1.80336, 1.80428, 1.75095, 1.75369, 1.75215, 1.7518, 1.75226, 1.79965, 1.74981, 1.75021, 1.87408, 1.87272, 1.74913, 1.74792
1.762, 1.7634, 1.76175, 1.76184, 1.8109, 1.7589, 1.81015, 1.75638, 1.75719, 1.75597, 1.85094, 1.75653, 1.75702, 1.7538, 1.84782, 1.7548, 1.75185, 1.75241, 1.75304, 1.75282, 1.80275, 1.75462, 1.85778, 1.85892, 1.75439, 1.75311, 1.75017, 1.75047, 1.75395, 1.75087, 1.75119, 1.9308, 1.74764, 1.93724, 1.74629, 1.85876, 1.74457, 1.85974, 1.74251, 1.74339, 1.74153, 1.85765, 1.73778, 1.74349, 1.86526, 1.80254, 1.79251, 1.74048, 1.79236, 1.79265, 1.91302, 1.74554, 1.98796, 1.97331, 1.89754, 1.89627, 1.89955, 1.89614, 1.89671, 1.89819, 1.89494, 1.8197, 1.89675, 1.89868, 1.81671, 1.90093, 1.90041, 1.89938, 1.89491, 1.90152, 1.89399, 1.9002, 1.97956, 1.97867, 1.88674, 1.81327, 1.90256, 1.81031, 1.90387, 1.90653, 1.88911, 1.88617, 1.80967, 1.90642, 1.9079, 1.98951, 1.90871, 1.88781, 1.91034, 1.89128, 1.91081, 1.9117, 1.89468, 1.89676, 1.82046, 1.82361, 1.91039, 1.90969, 1.99622, 1.972, 1.96376, 1.96486, 1.97926, 1.9786, 1.9913, 1.9748, 1.97241, 1.88926, 1.8891, 1.88665, 1.96838, 1.96484, 1.96268, 1.96281, 1.96609, 1.96946, 2.00461, 1.96874, 1.96941, 1.96855, 1.97021, 1.97313, 1.98365, 1.97266, 1.97239, 1.9761, 1.97547, 1.97693, 1.99691, 1.89901, 1.99553, 1.99201, 1.97878, 1.9784, 1.90284, 2.00764, 1.90159, 1.99308, 1.99998, 2.01273, 2.00077, 2.00433, 1.90679, 1.98916, 1.99998, 1.98622, 2.0005, 1.98389, 1.98417, 1.98461, 1.99881, 1.90683, 1.98796, 1.99403, 1.90922, 1.90784, 2.00263, 1.98515, 1.98601, 1.98582, 1.98618, 1.90953, 1.98486, 1.98762, 1.90967, 1.91205, 1.98752, 1.98579, 1.99354, 1.9118, 1.99288, 1.9865, 1.84702, 1.8452, 1.84582, 1.84426, 1.89677, 1.84683, 1.84494, 1.84418, 2.02556, 1.84472, 1.84644, 1.8449, 1.89925, 1.94882, 2.01833, 2.01687, 1.8515, 1.94504, 1.94844, 1.85489, 1.85509, 1.85626, 1.85772, 1.8559, 1.85208, 1.85317, 1.85577, 1.85346, 1.85593, 1.85685, 1.85277, 1.85457, 2.02759, 1.8562, 1.90359, 1.91049, 1.85425, 1.9445, 1.94759, 1.85352, 1.85276, 1.85326, 1.8526, 1.85243, 1.85509, 1.85279, 1.90352, 1.78505, 1.87972, 1.88323, 1.77824, 1.77726, 1.77594, 1.77457, 1.77211, 1.86583, 1.76537, 1.7692, 1.7687, 1.76578, 1.76609, 1.76423, 1.76296, 1.76227, 1.88932, 1.89321, 1.89159, 1.76038, 1.8112, 1.76054, 1.75813, 1.88882, 1.76111, 1.88204, 1.75917, 1.87647, 1.80858, 1.88737, 1.88642, 1.88937, 1.75593, 1.75461, 1.75409, 1.80641, 1.75497, 1.75521, 1.87171, 1.80624, 1.755, 1.753, 1.75272, 1.85318, 1.75085, 1.75446, 1.87677, 1.75045, 1.74715, 1.7506
1.76218, 1.76508, 1.76459, 1.7615, 1.75923, 1.8444, 2.01311, 1.76126, 1.75944, 1.75933, 1.75886, 1.75826, 1.7568, 1.75855, 1.75533, 1.75523, 1.80405, 1.75282, 1.75494, 1.75026, 1.75139, 1.75089, 1.8593, 1.75087, 1.84825, 1.75329, 1.85813, 1.93207, 1.75208, 1.8009, 1.74744, 1.86998, 1.87113, 1.74786, 1.75051, 1.74797, 1.74774, 1.86109, 1.74271, 1.85841, 1.74413, 1.85981, 1.85815, 1.74147, 1.74143, 1.80298, 1.80405, 1.79474, 1.74378, 1.74456, 1.74503, 1.74548, 1.9756, 1.97721, 1.89858, 1.82023, 1.89662, 1.89777, 1.82073, 1.81848, 1.99347, 1.89928, 1.9794, 1.89392, 1.8952, 1.89985, 1.90106, 1.89286, 1.8932, 1.81613, 2.00365, 1.89061, 1.88964, 1.90427, 1.81411, 1.8889, 1.88833, 1.9035, 1.88681, 1.9062, 1.90688, 1.9067, 1.90443, 1.98615, 1.8891, 1.90871, 1.90911, 1.88675, 1.90916, 1.89183, 1.8903, 1.98715, 1.89635, 1.89696, 1.91295, 1.9131, 1.90011, 1.91036, 1.99833, 1.84419, 1.96182, 1.96283, 1.97338, 1.97967, 1.96174, 1.96185, 1.9625, 1.88682, 1.88707, 1.88869, 1.96967, 1.96877, 1.96739, 1.89063, 1.96578, 1.96975, 1.89031, 1.96878, 1.89108, 1.97161, 1.99825, 1.99011, 1.98682, 1.97381, 1.9725, 1.89637, 1.89947, 1.89784, 1.98363, 1.89985, 1.99752, 1.98964, 1.90032, 1.97974, 1.9791, 1.90361, 1.99644, 1.99041, 1.9953, 2.00413, 1.99214, 1.90664, 2.00283, 2.01131, 2.00166, 2.00017, 1.99008, 2.00009, 2.01395, 1.99947, 1.98994, 1.99388, 1.99423, 1.90833, 1.99304, 1.99528, 1.98735, 1.98588, 1.90815, 1.90773, 1.98565, 1.98381, 1.9893, 1.98875, 1.90746, 1.90647, 1.90515, 1.91201, 1.91112, 1.91224, 1.99391, 1.99371, 1.84642, 2.03373, 1.84781, 1.84494, 1.84461, 1.84542, 1.84274, 1.84527, 1.84647, 1.84726, 1.84814, 1.84971, 1.84601, 1.95164, 1.84917, 2.03058, 1.85051, 1.85296, 1.85253, 1.85402, 2.02389, 1.8553, 1.85468, 1.8567, 1.85558, 1.90651, 1.85513, 1.85603, 1.85773, 1.85696, 2.05922, 1.85541, 1.85289, 1.85293, 1.85778, 1.90415, 1.85402, 1.85545, 1.85169, 1.90267, 1.85045, 1.85189, 2.03595, 1.85463, 1.90462, 1.85098, 1.90405, 1.83431, 1.86902, 1.87561, 1.77996, 1.88292, 1.88901, 1.77344, 1.77248, 1.77013, 1.88567, 1.7702, 1.76557, 1.88563, 1.76388, 1.8888, 1.89267, 1.88762, 1.76075, 1.76447, 1.75947, 1.75744, 1.88935, 1.80876, 1.75806, 1.88942, 1.88717, 1.75591, 1.75542, 1.86124, 1.75576, 1.75704, 1.75588, 1.75259, 1.75757, 1.75779, 1.8203, 1.75539, 1.75467, 1.8739, 1.87544, 1.80846, 1.75451, 1.75392, 1.75164, 1.75322, 1.752, 1.87332, 1.87342, 1.75236, 1.75062, 1.8767
1.76341, 1.76231, 1.76422, 1.76369, 1.76207, 1.75839, 1.75872, 1.75753, 1.93753, 1.75821, 2.01674, 1.75683, 1.81869, 1.81844, 1.7582, 1.75953, 1.75434, 1.75478, 1.7533, 1.75356, 1.75284, 1.75384, 1.75275, 1.75407, 1.7514, 1.75436, 1.75094, 1.74942, 1.85915, 1.80262, 1.75108, 1.75068, 1.74978, 1.75049, 1.74938, 1.85259, 1.85448, 1.8369, 1.74554, 1.74571, 1.86492, 1.74539, 1.74487, 1.85475, 1.86171, 1.84572, 1.74414, 1.79617, 1.74288, 1.74479, 1.74766, 1.74789, 1.82339, 1.97981, 1.97881, 1.89637, 1.89617, 1.89816, 1.81844, 1.8208, 1.89876, 1.89894, 1.99454, 1.8961, 1.98021, 1.90004, 1.89706, 1.81757, 1.89417, 1.89286, 1.90071, 1.89339, 1.9798, 1.9791, 1.81259, 1.9075, 1.9054, 1.90636, 1.88886, 1.88824, 1.90709, 1.88373, 1.8823, 1.90631, 1.9086, 1.80721, 1.88647, 1.88944, 1.98609, 1.89179, 1.89005, 1.89079, 1.89498, 1.89675, 1.91033, 1.91086, 1.91106, 1.91118, 2.02016, 1.96756, 1.96762, 1.96921, 1.97307, 1.97694, 1.96352, 1.96677, 1.88985, 1.96615, 1.88899, 1.8889, 1.88759, 1.88873, 1.96741, 1.88975, 1.89044, 1.9689, 1.96783, 1.9696, 1.99361, 1.98521, 1.97241, 1.9693, 1.97084, 1.8944, 1.99042, 1.99601, 1.98752, 1.98981, 1.99699, 1.90121, 1.9901, 1.90167, 1.99391, 1.98662, 1.99366, 1.98673, 1.98177, 1.98181, 1.9071, 1.9059, 1.99017, 1.99957, 1.99658, 1.99303, 2.02672, 1.98527, 1.98565, 1.98486, 1.99595, 1.90698, 1.9849, 1.98485, 2.00438, 1.98371, 1.99767, 1.90962, 1.98717, 1.98993, 1.98265, 1.90816, 1.99005, 1.98459, 1.98701, 1.9095, 1.90951, 1.90851, 1.90985, 1.98794, 1.98633, 1.99106, 1.91379, 1.98913, 1.84747, 1.84696, 1.84574, 1.8477, 1.92026, 1.89576, 1.84506, 1.89595, 1.95066, 1.84827, 1.84866, 1.84947, 1.84579, 1.95296, 1.84848, 2.05077, 1.85361, 1.85259, 1.85165, 1.94741, 1.90623, 1.90504, 2.03046, 1.90597, 1.90634, 1.90718, 1.90637, 1.85501, 1.85634, 1.90566, 2.0433, 1.95309, 1.85427, 2.02946, 1.85348, 1.85491, 1.85395, 1.85442, 1.90668, 1.91839, 1.90469, 2.03452, 2.04186, 1.85326, 1.85256, 1.9198, 1.85433, 1.77983, 1.78401, 1.90333, 1.78052, 1.87536, 1.88595, 1.77274, 1.77244, 1.77112, 1.86561, 1.77079, 1.76817, 1.88653, 1.76597, 1.87966, 1.76483, 1.81112, 1.81051, 1.87263, 1.81164, 1.8728, 1.88516, 1.8586, 1.75808, 1.85252, 1.75695, 1.87541, 1.75776, 1.75469, 1.75454, 1.75561, 1.75773, 1.8884, 1.88598, 1.88328, 1.88322, 1.75189, 1.75715, 1.75684, 1.75409, 1.96356, 1.96153, 1.75166, 1.75118, 1.75221, 1.86923, 1.86681, 1.75016, 1.74727, 1.74917, 1.75139
1.76492, 1.7674, 1.76662, 1.76487, 1.76494, 2.01762, 1.94054, 1.76219, 1.76038, 2.03904, 1.76066, 1.76131, 1.76099, 1.75783, 1.75721, 1.76018, 1.7583, 1.75514, 1.75696, 1.93488, 1.93485, 1.75551, 1.86495, 1.75432, 1.75528, 1.7546, 1.75235, 1.75182, 1.75422, 1.85942, 1.75059, 1.75128, 1.75098, 1.75167, 1.74953, 1.79934, 1.74829, 1.86475, 1.86593, 1.74707, 1.74714, 1.86705, 1.84396, 1.84439, 1.74599, 1.74455, 1.74603, 1.74628, 1.74672, 1.74761, 1.74776, 1.74724, 1.97906, 1.82132, 1.82045, 1.82101, 1.82246, 1.90264, 1.89679, 1.89633, 1.9857, 1.89723, 1.89961, 1.90115, 1.81808, 1.89442, 1.89409, 1.81796, 1.81588, 1.97824, 1.98021, 1.9794, 1.81497, 1.90463, 1.90652, 1.88998, 1.90501, 1.99345, 1.80971, 1.88637, 1.88665, 1.9104, 1.88872, 1.88663, 1.90699, 1.90822, 1.88852, 1.90966, 1.89305, 1.81167, 1.893, 1.91271, 1.91155, 1.89538, 1.91293, 1.82499, 1.91167, 1.9138, 1.98974, 2.00375, 1.96585, 1.88913, 1.98296, 1.96578, 1.96947, 1.96497, 1.88877, 1.8873, 1.88911, 1.88847, 1.88936, 1.88934, 1.96989, 1.9721, 1.96672, 1.98499, 1.96774, 1.99066, 1.96866, 1.98937, 1.89354, 1.97075, 1.97078, 1.97319, 1.97201, 1.96937, 1.99374, 1.98327, 1.98578, 1.89771, 1.89846, 1.98349, 1.98174, 1.90117, 1.99284, 1.983, 1.90478, 1.98344, 1.9907, 1.98552, 1.97904, 1.98894, 1.98328, 1.90824, 2.00306, 1.99133, 1.99497, 1.98371, 1.98599, 1.99684, 2.00583, 2.00167, 1.98638, 1.90785, 1.90763, 1.90704, 1.99306, 2.01415, 1.99933, 1.99036, 1.98488, 1.98222, 1.90728, 1.91027, 1.90888, 1.90945, 1.90995, 1.98859, 1.99914, 2.00038, 1.98715, 1.99491, 1.89677, 1.84864, 2.03247, 2.04066, 1.84754, 1.9067, 1.89796, 1.89836, 1.84779, 1.94797, 1.8505, 1.84898, 1.84555, 1.84952, 2.04175, 1.85183, 1.85114, 1.85217, 1.85329, 1.90228, 1.85124, 1.94242, 1.8561, 2.03744, 1.85747, 1.85691, 1.8577, 1.85433, 1.85577, 1.9415, 1.8584, 1.85587, 1.9068, 1.90413, 1.8542, 2.04072, 1.85822, 1.85446, 1.85409, 1.85217, 1.85224, 1.85564, 1.85549, 1.85236, 1.90254, 1.92068, 1.85423, 1.89092, 1.88942, 1.82808, 1.82651, 1.86844, 1.82479, 1.82311, 1.82157, 1.76788, 1.8876, 1.7683, 1.7679, 1.76355, 1.76868, 1.88786, 1.76329, 1.76483, 1.81212, 1.81257, 1.87569, 1.80937, 1.76009, 1.75678, 1.87459, 1.85802, 1.80706, 1.80789, 1.87164, 1.88525, 1.75545, 1.88812, 1.75772, 1.75587, 1.75437, 1.75385, 1.88423, 1.75439, 1.75666, 1.75602, 1.75397, 1.75129, 1.75406, 1.87902, 1.75408, 1.87548, 1.75404, 1.87898, 1.75294, 1.87521, 1.87379, 1.74852
1.76452, 1.76627, 1.76601, 1.76227, 1.76217, 1.76288, 2.03834, 1.76159, 1.7594, 1.76275, 1.75977, 1.81086, 1.8108, 1.80941, 1.75977, 1.75794, 1.75656, 1.75799, 1.75806, 2.01588, 1.75669, 1.7551, 1.86179, 1.80924, 1.75756, 1.75568, 1.75807, 1.75499, 1.7547, 1.75377, 1.75313, 1.75353, 1.80254, 1.7508, 1.86881, 1.75048, 1.75105, 1.80143, 1.74822, 1.7998, 1.75135, 1.75051, 1.84487, 1.74664, 1.74587, 1.86115, 1.74659, 1.85442, 1.74856, 1.7466, 1.74783, 1.75035, 1.82571, 1.98258, 1.97945, 1.82277, 1.82236, 1.82162, 1.82084, 1.89735, 1.81785, 1.8963, 1.89547, 1.89835, 1.99122, 1.90003, 1.97914, 1.89944, 1.89607, 1.88956, 1.98298, 1.89352, 1.89063, 1.98331, 1.89128, 1.81257, 1.90765, 1.90835, 1.90667, 1.90758, 1.81203, 1.88694, 1.88813, 1.88606, 1.88692, 1.88982, 1.88883, 1.81041, 1.91025, 1.81626, 1.91088, 1.99008, 1.89613, 1.91381, 1.82111, 1.90143, 1.8269, 1.90262, 2.0072, 1.96176, 1.97507, 1.98523, 1.96437, 1.96253, 1.96922, 1.96223, 1.98797, 1.88893, 1.88901, 1.88677, 1.9648, 1.89061, 1.97284, 1.96594, 1.96842, 1.96784, 1.96778, 1.89265, 1.96721, 1.89544, 1.97097, 1.97277, 1.97215, 2.00012, 1.97358, 1.9972, 1.89939, 1.9823, 2.00588, 1.96693, 1.97126, 1.9004, 1.97873, 1.98598, 1.99067, 1.99079, 1.98931, 1.97905, 1.90594, 2.00924, 1.99375, 1.90679, 1.99079, 1.90634, 1.90676, 1.99334, 1.90654, 1.9862, 1.99493, 1.98638, 1.9862, 1.98948, 2.0012, 1.98209, 2.00752, 1.99053, 1.99748, 1.9986, 1.9982, 1.98528, 1.9083, 1.98669, 1.98683, 1.91007, 1.90856, 1.90976, 1.90842, 1.98686, 1.99803, 2.00653, 2.0202, 1.99065, 1.85039, 1.84547, 2.04165, 1.84667, 1.84731, 1.84726, 2.02223, 1.84839, 1.84861, 2.04401, 1.8488, 1.89987, 1.89927, 1.90023, 1.90095, 1.85204, 1.9473, 1.84854, 1.85184, 1.85415, 1.90587, 1.85577, 1.85657, 1.8545, 1.85323, 1.85827, 1.91397, 1.92983, 1.85634, 1.85728, 2.03532, 1.85501, 1.90467, 1.85234, 1.8552, 2.03738, 1.85478, 1.85152, 1.85753, 1.85358, 1.85242, 1.85013, 2.03195, 1.85009, 1.85293, 1.91483, 1.85485, 1.78248, 1.78242, 1.77547, 1.77618, 1.77529, 1.82708, 1.82313, 1.77031, 2.08024, 1.77069, 1.88878, 1.88629, 1.8149, 1.76839, 1.76619, 1.76185, 1.76074, 1.81281, 1.81004, 1.76188, 1.80893, 1.75773, 1.75967, 1.75895, 1.75702, 1.75476, 1.88916, 1.88612, 1.75618, 1.75587, 1.88781, 1.75771, 1.75247, 1.7525, 1.80394, 1.75601, 1.88459, 1.75495, 1.8795, 1.75335, 1.85313, 1.75452, 1.75183, 1.87595, 1.87585, 1.75167, 1.75107, 1.75504, 1.87493, 1.75077, 1.75078
1.76746, 1.76861, 1.76421, 1.76526, 1.7661, 1.86391, 1.76409, 1.76377, 1.76318, 1.86152, 1.76085, 1.8137, 1.81094, 1.81317, 1.80987, 1.75707, 1.75785, 1.75899, 1.80694, 1.75855, 1.75765, 1.75501, 1.75576, 1.84903, 1.75737, 1.75639, 1.75648, 1.75842, 1.75408, 1.8788, 1.75407, 1.75517, 1.75427, 1.80447, 1.75226, 1.74972, 1.74925, 1.86803, 1.74994, 1.8523, 1.74899, 1.74843, 1.74927, 1.87509, 1.85465, 1.74923, 1.85586, 1.85984, 1.74784, 1.74945, 1.75064, 1.7512, 1.8248, 1.82422, 1.82383, 1.81885, 1.98198, 1.90301, 1.97958, 1.82356, 1.90215, 1.90348, 1.89987, 1.90262, 1.89415, 1.81954, 1.89705, 1.90358, 1.90458, 1.90282, 1.90323, 1.89147, 2.00378, 1.88948, 1.91049, 1.89232, 1.81046, 1.88798, 1.90748, 1.88557, 1.90649, 1.90655, 1.98656, 1.80992, 1.90978, 1.88958, 1.88694, 2.0144, 1.81328, 1.89337, 1.89357, 1.89143, 1.8932, 1.91389, 1.89907, 1.90072, 1.91324, 1.9893, 1.98898, 1.98967, 1.96571, 1.97504, 1.96497, 1.98394, 1.96654, 1.96581, 1.96572, 1.8886, 1.8894, 1.96592, 1.96566, 1.96535, 1.96367, 1.89307, 1.98361, 1.98361, 1.97004, 1.98918, 1.98966, 1.99659, 1.9713, 1.98687, 1.99331, 1.89631, 1.97782, 1.97564, 1.9766, 1.99023, 1.89963, 1.98566, 1.99593, 1.99532, 1.90166, 1.99251, 1.98609, 1.9864, 1.98751, 2.00171, 1.97984, 1.97959, 1.98088, 1.98243, 1.98281, 1.98295, 2.00632, 2.00197, 2.00342, 2.00263, 1.99911, 2.01087, 1.994, 2.00658, 2.00433, 2.00063, 1.99069, 2.00009, 2.00103, 1.98328, 2.00707, 2.01328, 1.98359, 1.9077, 1.90728, 1.91007, 1.90969, 1.91142, 1.98736, 1.9109, 1.98879, 1.988, 2.01286, 2.01446, 1.94399, 2.03328, 1.84792, 1.84735, 1.89656, 1.84569, 1.95082, 2.02445, 1.84934, 1.84841, 1.84925, 1.91646, 1.84994, 1.89978, 1.85236, 1.91796, 1.94534, 1.94392, 1.85487, 1.85376, 1.90457, 1.93759, 1.90506, 1.90464, 1.85742, 1.93387, 1.85516, 1.8533, 1.85561, 1.85829, 1.90579, 1.85356, 1.90616, 1.95341, 1.85389, 1.85487, 1.85461, 2.02834, 1.85384, 1.85439, 1.8548, 1.92848, 1.85306, 1.85313, 1.85469, 1.85465, 1.85095, 1.78409, 1.88562, 1.88317, 1.77317, 1.77268, 1.77549, 1.87292, 1.87142, 1.76882, 1.7679, 1.88576, 1.76869, 1.76793, 1.76438, 1.88661, 1.88489, 1.76404, 1.75814, 1.85154, 1.76145, 1.75904, 1.76014, 1.75589, 1.89272, 1.88821, 1.88664, 1.88775, 1.7558, 1.88895, 1.89076, 1.88854, 1.88606, 1.80664, 1.87244, 1.80635, 1.80503, 1.75337, 1.75301, 1.75407, 1.75256, 1.87694, 1.75653, 1.75415, 1.80572, 1.75038, 1.75365, 1.75357, 1.74846, 1.75412, 1.75182, 1.85011
1.76833, 1.76913, 1.76859, 1.76792, 1.7677, 1.76906, 1.94071, 1.76358, 1.76566, 1.76354, 1.84843, 1.84747, 1.81302, 1.75779, 1.75786, 1.75994, 1.75932, 2.02432, 1.86386, 1.76112, 1.75884, 1.80599, 1.75613, 1.75757, 1.852, 1.80658, 1.8082, 2.02831, 1.75622, 1.75634, 1.75217, 1.75674, 1.80591, 1.80718, 1.7529, 1.75343, 1.85514, 1.75411, 1.75475, 1.84918, 1.75116, 1.85753, 1.75093, 1.74801, 1.74943, 1.75161, 1.74904, 1.7505, 1.75162, 1.75237, 1.86055, 1.75362, 1.82219, 1.90109, 1.90029, 1.89828, 1.89896, 1.90376, 1.89852, 1.90075, 1.82183, 1.82266, 1.98628, 1.98794, 1.89484, 1.89472, 1.8972, 1.89626, 1.89606, 1.9065, 1.90715, 1.9045, 1.90636, 1.89029, 1.89019, 1.90795, 1.90769, 1.90887, 1.88642, 1.81105, 1.98638, 1.90952, 1.88534, 1.88634, 1.81141, 1.91143, 1.88881, 1.88994, 1.89039, 1.91343, 1.91375, 1.91377, 1.89666, 2.0186, 2.01135, 1.90515, 1.91213, 1.99806, 2.01018, 1.84712, 1.98582, 1.88982, 1.89043, 1.97628, 1.96849, 1.96674, 1.96842, 1.88933, 1.96649, 1.96876, 1.9664, 1.96827, 1.96788, 1.96914, 1.96629, 1.89224, 1.96878, 1.97029, 1.9668, 1.97025, 1.98715, 1.98574, 1.89716, 1.97591, 1.98876, 1.98367, 1.89777, 1.98492, 1.89645, 1.98583, 1.98685, 1.99435, 1.98574, 1.9026, 1.9822, 1.9929, 1.90271, 1.9931, 2.00422, 1.98219, 1.98245, 1.99129, 1.99666, 1.90877, 1.99954, 2.0039, 1.9072, 1.90762, 1.99052, 2.00345, 1.98826, 1.98732, 1.9949, 1.99326, 1.98962, 1.99513, 2.00302, 1.90763, 2.00144, 2.00273, 1.99356, 1.90642, 1.91012, 1.90956, 1.90949, 1.90875, 1.98962, 1.9096, 1.90952, 2.01517, 1.98869, 1.91402, 1.84762, 1.84664, 1.89715, 1.84771, 1.84898, 2.03156, 1.94273, 1.94812, 1.94109, 1.84486, 2.02823, 1.90087, 1.90012, 1.85116, 1.90047, 1.90254, 1.90544, 1.85383, 1.85193, 1.85506, 1.9048, 1.90461, 2.0273, 2.03065, 1.85602, 1.85441, 1.85566, 2.04589, 1.85137, 1.85549, 1.85616, 1.85447, 1.85066, 1.85538, 1.8548, 1.85124, 2.05332, 2.0352, 1.85267, 1.85297, 1.85412, 1.85177, 1.90263, 1.9019, 1.85061, 1.85167, 1.85165, 1.93372, 1.78197, 1.77882, 1.77698, 1.77538, 1.88326, 1.76985, 1.77046, 1.76885, 1.88323, 1.76937, 1.76782, 1.76869, 1.88949, 1.86709, 1.86455, 1.76088, 1.85625, 1.85492, 1.85465, 1.80841, 1.88681, 1.75609, 1.76191, 1.75544, 1.75675, 1.75617, 1.75549, 1.75776, 1.88667, 1.89217, 1.75228, 1.75295, 1.75457, 1.80684, 1.75558, 1.75619, 1.80372, 1.75493, 1.87288, 1.75527, 1.75406, 1.80454, 1.80696, 1.80636, 1.75152, 1.75094, 1.75559, 1.80233, 1.87259, 1.87641
1.77145, 1.76442, 1.76649, 1.76863, 1.77051, 1.76551, 1.76483, 1.76416, 1.76871, 1.76827, 1.76532, 1.76375, 1.76137, 1.76104, 1.81208, 1.76331, 1.76229, 1.94084, 1.7619, 1.75791, 1.76005, 2.01963, 1.76125, 1.81027, 1.7584, 1.7577, 1.75761, 1.80744, 1.80716, 1.85185, 1.75547, 1.75424, 1.75801, 1.75774, 1.75713, 1.85917, 1.75227, 1.75374, 1.86261, 1.85859, 1.75246, 1.85958, 1.8026, 1.75169, 1.74738, 1.75381, 1.75289, 1.80231, 1.75612, 1.75186, 1.75165, 1.75558, 1.90213, 1.8237, 1.90141, 1.82535, 1.90172, 1.89823, 1.82529, 1.82356, 1.89909, 1.82067, 1.90311, 1.89626, 1.90683, 1.90406, 1.89787, 1.89599, 1.89319, 1.81716, 1.89368, 1.89335, 1.90948, 1.89054, 1.88967, 1.90984, 1.88972, 1.81317, 1.81139, 1.91034, 1.90932, 1.91061, 2.01879, 2.00285, 1.90988, 1.91409, 1.91294, 1.89056, 1.99742, 2.01458, 1.89352, 1.81682, 1.8996, 1.99304, 1.91361, 1.9024, 1.91335, 2.00649, 2.01027, 1.84718, 1.89084, 1.98455, 1.89101, 1.975, 1.97172, 1.98327, 1.96542, 1.88963, 1.9695, 1.96789, 1.9706, 1.96916, 1.89067, 1.89158, 1.98565, 1.97711, 1.98697, 1.96933, 1.96912, 1.99333, 1.99108, 1.98682, 1.98657, 1.8955, 1.9722, 1.99681, 1.99438, 2.01429, 1.89823, 1.98243, 1.99955, 1.98306, 1.9906, 1.98243, 1.98247, 1.9873, 1.90368, 1.99965, 1.9975, 1.98563, 1.99454, 1.99658, 1.98319, 1.98232, 1.9998, 1.90701, 1.99953, 1.90914, 1.99691, 2.00054, 1.99324, 1.98838, 1.99313, 1.90957, 1.90847, 1.99651, 2.00788, 1.98455, 1.90795, 1.90831, 1.98805, 1.9097, 1.90958, 1.91273, 1.90916, 1.90985, 1.90817, 1.99012, 1.98598, 1.91124, 1.98948, 2.00755, 1.94494, 1.84896, 1.84895, 1.93107, 1.84677, 1.84802, 1.84855, 1.84591, 1.95145, 1.84688, 1.84772, 1.84837, 1.90056, 1.91299, 1.90378, 1.8512, 1.8525, 1.85022, 1.85123, 1.85295, 1.90458, 1.85312, 1.90438, 1.85369, 1.85669, 1.85448, 1.85513, 2.04466, 1.85447, 1.90402, 1.85457, 1.90446, 1.85483, 1.85069, 1.85161, 1.85365, 1.85281, 1.85295, 1.85247, 1.85261, 2.04255, 1.85329, 1.85305, 1.85192, 1.85145, 1.85107, 1.85209, 1.78582, 1.78018, 1.77871, 1.87878, 1.77564, 1.88555, 1.77278, 1.98543, 1.77016, 1.76867, 1.93399, 1.97562, 1.81702, 1.76385, 1.76121, 1.76135, 1.75947, 1.76157, 1.76023, 1.75986, 1.80966, 1.75953, 1.80981, 1.80757, 1.80569, 1.96165, 1.75448, 1.75389, 1.75657, 1.75616, 1.88645, 1.88325, 1.75151, 1.88298, 1.75441, 1.85609, 1.75503, 1.75212, 1.75482, 1.75461, 1.87904, 1.75458, 1.86347, 1.8605, 1.75067, 1.75501, 1.75424, 1.75362, 1.75366, 1.87495, 1.75235
1.77215, 2.04622, 1.77154, 1.77083, 1.77141, 1.76801, 1.76664, 1.76697, 1.76285, 1.76446, 1.76803, 1.76281, 1.76321, 1.76301, 1.76482, 1.86284, 1.85214, 1.76102, 1.94397, 1.75779, 1.76015, 1.75999, 1.76104, 1.75869, 1.76024, 1.75971, 1.86157, 1.80785, 1.80877, 1.75779, 1.75562, 1.7567, 1.75716, 1.75703, 1.75463, 1.75393, 1.86017, 1.75643, 1.86368, 1.75109, 1.75555, 1.75212, 1.75083, 2.02148, 1.85911, 1.86106, 1.75311, 1.80547, 1.75451, 1.75408, 1.75445, 1.85889, 1.82649, 1.89994, 1.82497, 1.82453, 1.90006, 1.90283, 1.82335, 1.89871, 1.9036, 1.8992, 1.90611, 1.90196, 1.90308, 1.81971, 1.90405, 1.90686, 1.89654, 1.89378, 1.81734, 1.98601, 1.89006, 1.88895, 1.89224, 1.99629, 1.99628, 1.89212, 1.89062, 1.88497, 1.88635, 1.98928, 1.91026, 1.9121, 1.98789, 1.81013, 1.88794, 1.88935, 1.99005, 1.91352, 1.8932, 1.89527, 1.89718, 1.91321, 1.91357, 1.90323, 1.9067, 1.91729, 2.00665, 1.84832, 1.96747, 1.98285, 1.97945, 1.9771, 1.97514, 1.97194, 1.89017, 1.8904, 1.96809, 1.97242, 1.97273, 1.8901, 1.891, 1.96929, 1.96974, 1.9707, 1.89206, 1.97044, 1.98255, 1.98111, 1.98768, 1.99044, 1.98545, 1.98863, 1.99184, 1.99634, 1.96906, 1.99352, 2.01167, 1.98643, 1.9043, 1.99463, 1.98962, 1.90401, 1.9795, 1.99539, 1.90475, 1.97783, 1.99627, 1.99078, 1.98933, 1.90691, 1.90796, 1.90825, 1.99454, 1.99094, 1.90792, 1.99691, 2.01406, 2.00655, 2.00811, 2.01998, 1.99359, 2.00135, 2.00232, 1.99955, 1.99687, 1.90793, 1.90856, 1.90859, 2.00646, 1.90879, 1.90797, 1.90653, 1.90803, 1.90868, 1.90824, 1.98761, 2.00126, 2.00303, 2.00653, 2.01382, 1.84804, 2.04546, 1.84884, 2.02464, 2.03126, 1.89977, 1.95462, 1.8986, 1.89672, 1.8477, 1.84881, 1.84976, 1.84958, 1.8509, 1.95062, 1.85252, 1.85048, 1.85321, 1.84945, 2.03491, 2.03201, 1.85507, 1.85463, 1.85195, 1.85461, 1.8551, 1.85461, 2.04358, 1.85549, 1.90407, 1.85482, 1.90456, 1.90258, 1.85415, 2.02479, 1.85234, 1.85252, 1.93833, 1.85444, 1.94731, 1.90285, 1.84862, 1.85282, 1.8528, 1.8511, 1.84912, 2.02496, 1.78085, 1.78031, 1.77984, 1.88091, 1.87921, 1.8728, 1.77317, 1.87649, 1.88423, 1.98759, 1.76758, 1.76892, 1.76862, 1.76368, 1.88612, 1.75983, 1.89102, 1.88905, 1.88728, 1.88514, 1.75886, 1.75762, 1.75533, 1.80695, 1.80958, 1.80721, 1.75662, 1.754, 1.75432, 1.75354, 1.75704, 1.85954, 1.75528, 1.75734, 1.75378, 1.885, 1.75805, 1.88011, 1.75145, 1.88039, 1.87864, 1.87925, 1.87781, 1.75235, 1.80323, 1.75165, 1.8033, 1.75208, 1.75409, 1.75025, 1.75461
1.7734, 1.76979, 1.7696, 1.77041, 1.76944, 1.76928, 1.76713, 2.02404, 1.76545, 1.76693, 1.7659, 1.76495, 1.7647, 1.9415, 1.76343, 1.7643, 1.84732, 1.85853, 1.76309, 1.76298, 1.76191, 1.76165, 1.75981, 1.76068, 1.75989, 1.75773, 1.86509, 1.75846, 1.85951, 1.75873, 1.75639, 1.75815, 1.75885, 1.75724, 1.75351, 1.75641, 1.75642, 1.86157, 1.75534, 1.86129, 1.85535, 1.75392, 1.75467, 1.75449, 1.86255, 1.75331, 1.7559, 1.75798, 1.75391, 1.75697, 1.75802, 1.76021, 1.82401, 1.82697, 1.90343, 1.90133, 1.82457, 1.82559, 1.98069, 1.82363, 1.90044, 1.90178, 1.89892, 1.90606, 1.9898, 1.90093, 1.98184, 1.89296, 1.89588, 1.89624, 1.98543, 1.90748, 1.99771, 1.89216, 1.89236, 1.89234, 1.89327, 1.88863, 1.8077, 1.81025, 1.89022, 1.88933, 1.91374, 1.88602, 1.88811, 2.01102, 1.88885, 1.88967, 2.01429, 1.81469, 1.81616, 1.89516, 1.82016, 1.89891, 1.89943, 1.99717, 1.91304, 2.01007, 2.00763, 2.00123, 1.97145, 1.969, 1.9682, 1.96822, 1.97573, 1.96853, 1.96898, 1.89046, 1.96998, 1.96916, 1.96865, 1.96939, 1.9719, 1.96981, 1.98209, 1.98997, 1.97902, 1.97172, 1.97999, 1.98137, 1.98349, 1.9823, 1.98709, 1.983, 1.97571, 1.97469, 1.97611, 1.97497, 1.98395, 1.99339, 1.97975, 1.9795, 1.99645, 1.98318, 1.98002, 1.99961, 1.98256, 1.9886, 1.99529, 1.9073, 2.00201, 1.98746, 1.98247, 1.99573, 1.99185, 1.90748, 1.98921, 1.99658, 1.90702, 1.90974, 1.99653, 2.00896, 2.00817, 1.99363, 1.98676, 1.99444, 2.00677, 1.9862, 1.987, 1.99365, 1.90812, 1.90912, 1.90656, 1.90669, 1.91011, 1.90829, 1.91029, 1.99035, 2.00317, 1.98675, 1.9867, 2.0003, 2.03577, 2.02322, 1.85011, 2.05868, 2.06232, 1.89859, 1.84844, 1.8482, 1.84708, 1.95374, 1.84886, 2.03089, 1.84902, 2.02557, 2.05649, 1.85268, 1.85246, 1.85207, 2.02692, 1.8547, 1.85299, 1.85558, 1.85314, 1.91382, 1.85712, 2.03796, 1.85542, 2.02488, 1.8546, 1.8512, 1.85454, 2.0419, 1.85575, 1.85364, 1.85075, 1.85432, 1.85328, 2.03261, 1.85104, 1.93104, 1.85064, 2.02374, 2.02127, 1.85132, 2.02729, 1.85038, 1.78597, 1.7799, 1.77644, 1.776, 1.88325, 1.9308, 1.8828, 1.77265, 1.7712, 1.76755, 1.93799, 1.76805, 1.76169, 1.76502, 1.76276, 1.86765, 1.76075, 1.89289, 1.85432, 1.75946, 1.75861, 1.85571, 1.88921, 1.89232, 1.75463, 1.75665, 1.7547, 1.75369, 1.75639, 1.75602, 1.75499, 1.7553, 1.75468, 1.88769, 1.75439, 1.75187, 1.75335, 1.88345, 1.88052, 1.7555, 1.80367, 1.84671, 1.75188, 1.75056, 1.80598, 1.75382, 1.7526, 1.80261, 1.85649, 1.87282, 1.87014, 1.80137
1.7743, 1.77349, 2.05891, 1.77191, 1.77319, 1.7699, 1.771, 2.04989, 1.76671, 1.76871, 1.76959, 1.7698, 1.94691, 1.76638, 1.76643, 1.76533, 1.7647, 1.76533, 1.76222, 2.03533, 1.76429, 1.75986, 1.76099, 1.76439, 1.76241, 1.76091, 1.86183, 1.76075, 1.80919, 1.85835, 1.75877, 1.93213, 1.75846, 1.75819, 1.75749, 1.75823, 1.85478, 1.75548, 1.80664, 1.80683, 1.75403, 1.75535, 1.75561, 1.75309, 1.75543, 1.75614, 1.7563, 1.75603, 1.93775, 1.75643, 1.75859, 1.75782, 1.82709, 1.82646, 1.90108, 1.90283, 1.90416, 1.90064, 1.82526, 1.90723, 1.90266, 1.90318, 1.90343, 1.89988, 1.90607, 1.89472, 1.90683, 1.89435, 1.90705, 1.90655, 1.90858, 1.89376, 1.89441, 1.89053, 1.91026, 1.81408, 1.91128, 1.91112, 1.91223, 1.88625, 1.88835, 1.8899, 1.89053, 1.88775, 1.91062, 1.91055, 1.81193, 1.89242, 1.89194, 1.89267, 1.91594, 2.0058, 1.8958, 1.91466, 1.8238, 1.91442, 1.83005, 1.99402, 1.99287, 1.89025, 1.97289, 1.97158, 1.9659, 1.97229, 1.97167, 1.96533, 1.89251, 1.89229, 1.97095, 1.97178, 1.97215, 1.97163, 1.97072, 1.96899, 1.99084, 1.98724, 1.98937, 1.98328, 1.98321, 1.98356, 1.98577, 2.00728, 1.96237, 1.98725, 1.9842, 1.97883, 1.99074, 1.89962, 1.99752, 1.89846, 1.97661, 1.90289, 1.97945, 1.97947, 1.98024, 1.98088, 1.97968, 1.99108, 1.99974, 1.90417, 1.99023, 1.99615, 1.98398, 1.98291, 1.99395, 1.99198, 1.99039, 1.98301, 1.98952, 2.0033, 1.99725, 1.90961, 1.98192, 1.98143, 1.99602, 1.99722, 1.90813, 1.98923, 2.00065, 1.99618, 1.98438, 1.98971, 1.90997, 1.90968, 1.9082, 1.90849, 1.90848, 1.99267, 1.99275, 1.98787, 2.02808, 1.91156, 1.8504, 2.03492, 2.02379, 1.84925, 1.85094, 1.84798, 1.95161, 2.04571, 1.84964, 1.85068, 1.85104, 1.84756, 1.84784, 1.84924, 1.9484, 1.8513, 1.85335, 1.854, 1.85415, 2.04576, 1.85471, 2.04447, 1.85522, 1.85432, 1.94257, 1.85632, 2.02544, 2.051, 2.02467, 2.04106, 2.02289, 2.04446, 1.85421, 2.02501, 1.85142, 1.85206, 1.85005, 2.04516, 1.85206, 1.94408, 1.85091, 1.85141, 1.84776, 2.03071, 2.03066, 2.02743, 1.8492, 1.77875, 1.77579, 1.87957, 1.77357, 1.9328, 1.93261, 1.77182, 1.76814, 1.76793, 1.76716, 1.76511, 1.81499, 1.87082, 1.88069, 1.75983, 1.76508, 1.81158, 1.81132, 1.75739, 1.75555, 1.75988, 1.75827, 1.88996, 1.89006, 1.89341, 1.89137, 1.7547, 1.75574, 1.75162, 1.75484, 1.88782, 1.75431, 1.75382, 1.75082, 1.75392, 1.75284, 1.75394, 1.75283, 1.75376, 1.80407, 1.75524, 1.75431, 1.75205, 1.75522, 1.75164, 1.87502, 1.75302, 1.75137, 1.87509, 1.80355, 1.80237
1.86664, 1.82357, 1.77402, 1.77405, 1.77322, 1.7749, 1.86827, 1.77093, 1.76906, 2.04544, 1.76891, 1.76937, 1.76529, 1.76739, 1.9486, 1.76685, 1.85963, 1.76508, 1.76642, 1.7649, 1.76652, 1.94196, 1.76335, 1.7615, 1.86371, 1.7592, 1.85939, 1.86299, 1.85815, 1.75993, 1.75946, 1.86115, 1.86253, 1.75808, 1.75953, 1.80953, 1.75904, 1.84635, 1.75914, 1.80745, 1.80741, 1.80736, 1.75634, 1.75722, 1.75663, 1.75767, 1.75825, 1.75678, 1.93896, 1.75879, 1.75895, 1.84785, 1.90589, 1.82622, 1.82436, 1.90701, 1.9011, 1.90503, 1.90146, 1.90044, 1.98453, 1.8994, 1.90047, 1.89603, 1.82031, 1.89664, 1.90746, 1.89654, 1.81739, 1.90738, 1.89465, 1.81645, 1.89136, 1.89153, 1.89056, 1.88975, 1.89003, 1.81281, 1.91295, 1.99603, 1.88971, 1.91425, 1.88743, 1.81357, 2.00837, 1.88976, 1.89155, 1.89255, 1.88966, 1.91693, 1.81996, 1.99331, 1.8961, 1.89726, 1.82629, 1.90152, 1.91419, 1.91605, 2.02542, 2.01751, 1.96846, 1.96829, 1.96927, 1.96881, 1.98112, 1.969, 1.89228, 1.89243, 1.96964, 1.97122, 1.97205, 1.9734, 1.97532, 1.89356, 1.89287, 1.97023, 1.96949, 1.9808, 1.98175, 1.99004, 1.89661, 1.89558, 1.89583, 1.99309, 1.98574, 1.98966, 1.98689, 1.9962, 1.99271, 1.96895, 2.00083, 1.98015, 1.90331, 1.98226, 1.90366, 1.98081, 1.99316, 1.98351, 1.99939, 1.9903, 1.99356, 1.98699, 1.99976, 1.90751, 1.99156, 2.00209, 1.90829, 1.90946, 1.99058, 1.98231, 1.9966, 1.99377, 2.00904, 1.90981, 1.98133, 1.99189, 1.98376, 1.99471, 1.98318, 1.90967, 1.98531, 1.90812, 1.90822, 1.90896, 1.91045, 1.90938, 1.90946, 1.91046, 2.00479, 1.9902, 1.91301, 1.9975, 1.94514, 1.85199, 1.84898, 1.9013, 1.84944, 1.84939, 1.95523, 1.84765, 1.85088, 1.84701, 1.85083, 1.84855, 1.84856, 1.85208, 1.85299, 2.02449, 2.03483, 1.85137, 1.85462, 1.85354, 1.85669, 1.94301, 1.90336, 1.85605, 1.85536, 1.85596, 1.85166, 1.85551, 1.85412, 1.85534, 1.85425, 1.85148, 1.8523, 1.85292, 2.04484, 1.85074, 1.84994, 1.85071, 1.85183, 1.85149, 1.95473, 1.8518, 1.84993, 1.84748, 1.85106, 1.85004, 1.83064, 1.86129, 1.77603, 1.77922, 1.77707, 1.88327, 1.76838, 1.77096, 1.76957, 1.7693, 1.76825, 1.76019, 1.81496, 1.81536, 1.76235, 1.76243, 1.76215, 1.8869, 1.8634, 1.75805, 1.75748, 1.878, 1.76097, 1.75791, 1.75547, 1.89005, 1.75455, 1.75369, 1.75355, 1.8869, 1.88658, 1.88554, 1.88735, 1.80299, 1.80391, 1.75454, 1.75314, 1.7552, 1.88312, 1.75281, 1.87841, 1.75449, 1.75463, 1.87718, 1.87763, 1.75423, 1.75318, 1.75278, 1.87666, 1.75446, 1.75478, 1.75213
1.77879, 1.82687, 1.82535, 1.77394, 1.82321, 1.77502, 1.94612, 2.03218, 1.77095, 1.76959, 1.77166, 1.86967, 1.77033, 2.02352, 1.76776, 1.76791, 1.76614, 1.76804, 1.7677, 1.76707, 1.7686, 1.7649, 1.76512, 1.81401, 1.81308, 1.76447, 1.76502, 1.7599, 1.76325, 1.76314, 1.76109, 1.75749, 1.75864, 1.75962, 1.81837, 1.76131, 1.80951, 1.75916, 1.7601, 1.7581, 1.75767, 1.75909, 1.75824, 1.75829, 1.93819, 1.7577, 1.75869, 1.80949, 1.76138, 1.75995, 1.76196, 1.76342, 1.98396, 1.82884, 1.90275, 1.82806, 1.90578, 1.90306, 1.90753, 1.90118, 1.90156, 1.90369, 1.82391, 1.90072, 1.89793, 1.89785, 1.91052, 1.89618, 1.90832, 1.91016, 1.89457, 1.89378, 2.00051, 1.81588, 1.91285, 1.89079, 1.99333, 1.81347, 1.88987, 1.81367, 1.8117, 1.9146, 1.88896, 1.88924, 1.8138, 1.89208, 1.91676, 1.88971, 1.89059, 1.81711, 1.89376, 1.89594, 1.82189, 2.00308, 1.90297, 1.91664, 1.91422, 2.01738, 2.02003, 1.98373, 1.97213, 1.97079, 1.96934, 1.96729, 1.89255, 1.98985, 1.97029, 1.89159, 1.89163, 1.89134, 1.96961, 1.97199, 1.8933, 1.89229, 1.97662, 1.96956, 1.9861, 1.97897, 1.89401, 1.89723, 1.98448, 1.97238, 1.89709, 1.98359, 1.98489, 1.98756, 1.99061, 1.9775, 1.97775, 2.00677, 1.9871, 1.97932, 1.98125, 1.98165, 1.98025, 2.00085, 2.00333, 1.98251, 1.98281, 1.90694, 1.98406, 1.99771, 1.98476, 1.9912, 1.99092, 1.99126, 1.99317, 2.01378, 2.00803, 1.99219, 1.98583, 2.00091, 1.90757, 1.98554, 1.98442, 2.00702, 1.98532, 1.99341, 1.98638, 2.00246, 1.98486, 1.98617, 1.90973, 1.91015, 1.91153, 1.90991, 1.91317, 2.00314, 2.01516, 1.9905, 1.99021, 1.85269, 1.85164, 1.85202, 1.90272, 1.90111, 1.90031, 1.89937, 1.95141, 1.9458, 2.03407, 1.84831, 1.85072, 1.85095, 1.84956, 1.84931, 1.84946, 2.03453, 1.85095, 1.85076, 1.85214, 1.85636, 1.85345, 1.95052, 1.85617, 1.85452, 2.04443, 2.04122, 1.85135, 1.90498, 1.93137, 1.92878, 1.92685, 1.85196, 1.85467, 2.03784, 1.84961, 2.0243, 1.85291, 1.85193, 1.84943, 1.85164, 1.84849, 1.85037, 1.84907, 1.90027, 1.89931, 1.84805, 1.8333, 1.83129, 1.82834, 1.77353, 1.77601, 1.77165, 1.89136, 1.88943, 1.81886, 1.8819, 1.8857, 1.76548, 1.7631, 1.88023, 1.8718, 1.76107, 1.88682, 1.75897, 1.7589, 1.75935, 1.81013, 1.75944, 1.85499, 1.75542, 1.75281, 1.85351, 1.75629, 1.75328, 1.75577, 1.75445, 1.88903, 1.75205, 1.755, 1.80157, 1.75326, 1.87137, 1.8038, 1.75513, 1.7559, 1.88392, 1.88189, 1.75208, 1.81288, 1.8101, 1.81115, 1.80828, 1.86902, 1.75312, 1.75127, 1.90915, 1.75388, 1.7533
1.77819, 1.77435, 1.77526, 1.77788, 1.7763, 1.86488, 1.77433, 1.7741, 1.86174, 1.77352, 1.86606, 1.77247, 1.76971, 1.86776, 1.77069, 1.77121, 1.76643, 1.76853, 1.76922, 1.76815, 1.86983, 2.03805, 1.76303, 1.76578, 1.76672, 1.76486, 1.76489, 1.86559, 1.7635, 1.76383, 1.85897, 1.93796, 1.86402, 1.76045, 1.81234, 1.75836, 1.81052, 1.76052, 1.75921, 1.84846, 1.76134, 1.84807, 1.75616, 1.94382, 1.75779, 1.75982, 1.76025, 1.76174, 1.76274, 2.01672, 1.93719, 1.76433, 1.8299, 1.98841, 1.90794, 1.82596, 1.90847, 1.91037, 1.90902, 1.90449, 1.98494, 1.89982, 1.90703, 1.98685, 1.90794, 1.89795, 1.90839, 1.90756, 2.00037, 1.91236, 1.91126, 1.91135, 1.89148, 1.89022, 1.8923, 1.89197, 1.89077, 1.81432, 1.81346, 1.91499, 1.91778, 1.9171, 1.99374, 1.89114, 1.8904, 1.89282, 2.00981, 1.81113, 1.8903, 1.89389, 1.91925, 1.89692, 1.91847, 1.99329, 2.00714, 1.90638, 1.91762, 1.91501, 1.99796, 1.851, 1.97189, 1.98382, 1.97358, 1.97, 1.96903, 1.89239, 1.89302, 1.96961, 1.89258, 1.89186, 1.89384, 1.97545, 1.97455, 1.97582, 1.97242, 1.96917, 1.99589, 1.99014, 1.96697, 1.97238, 1.97202, 1.97494, 1.89766, 1.96524, 2.00376, 1.9871, 1.97674, 1.97911, 1.9793, 1.90282, 1.98319, 1.99219, 1.90674, 2.0039, 1.99391, 1.98401, 2.00823, 1.98282, 2.01719, 2.00017, 2.00294, 2.00097, 1.99148, 1.98316, 1.99079, 2.00361, 2.00741, 2.00125, 2.01032, 1.91041, 1.99977, 1.98722, 2.00947, 1.99657, 1.98447, 1.91049, 1.98816, 1.99725, 1.99437, 1.98787, 1.98982, 1.98274, 1.90983, 1.91026, 1.91295, 1.9102, 1.98892, 1.91086, 2.01221, 2.01795, 1.98949, 2.01056, 1.85454, 1.84866, 1.85042, 1.93965, 1.85088, 1.91658, 1.85033, 1.84997, 1.84773, 1.85122, 1.84774, 1.85454, 1.90578, 1.90622, 1.90627, 1.94852, 2.02442, 1.85115, 1.85193, 1.85285, 1.8514, 2.03426, 2.03167, 1.85493, 1.85426, 1.85368, 1.85149, 1.85119, 2.01175, 1.93188, 1.93043, 1.85337, 1.85118, 1.90068, 1.84958, 1.85277, 1.84948, 2.0318, 1.84905, 2.02827, 1.85046, 1.85124, 1.84955, 1.84741, 1.90069, 1.84709, 1.86512, 1.86454, 1.86834, 1.77563, 1.77468, 1.77319, 1.77162, 1.76744, 1.81823, 1.81687, 1.76775, 1.81408, 1.76684, 1.88152, 1.88238, 1.88198, 1.7597, 1.75915, 1.81104, 1.80992, 1.80726, 1.81079, 1.80951, 1.75598, 1.75469, 1.75678, 1.75425, 1.75152, 1.88658, 1.88373, 1.75781, 1.75427, 1.75311, 1.80485, 1.75481, 1.87004, 1.75447, 1.80341, 1.80299, 1.88231, 1.881, 1.75426, 1.75499, 1.81239, 1.81194, 1.8626, 1.75496, 1.75341, 1.75377, 1.87331, 1.75399, 1.75466
1.87534, 1.77786, 1.95124, 1.776, 1.77824, 2.03554, 1.77628, 1.7753, 1.7717, 1.77532, 1.77268, 1.87478, 1.87659, 1.76851, 1.77271, 1.81885, 2.03544, 1.87127, 1.87171, 1.76601, 1.76803, 1.76702, 1.8712, 1.81599, 1.81633, 1.94518, 1.76598, 1.76626, 1.76705, 1.76502, 1.76428, 1.86126, 1.7613, 1.76194, 1.81097, 1.81244, 1.81223, 1.75985, 1.81102, 1.76123, 1.8098, 1.81238, 1.85468, 1.76259, 1.76113, 1.76117, 1.76169, 1.76238, 1.76141, 2.03972, 1.76252, 1.81618, 1.9832, 1.90424, 1.90472, 1.90443, 1.90923, 1.90917, 1.90839, 2.00444, 1.90661, 1.82445, 1.90089, 1.9101, 1.91023, 1.98603, 1.82073, 1.89501, 1.89506, 1.89567, 1.8953, 1.81762, 1.81792, 1.99329, 1.81705, 1.89153, 1.91421, 1.91388, 1.91477, 1.81346, 1.9133, 1.99673, 2.03517, 1.92017, 1.89088, 1.9168, 1.81406, 1.81209, 1.89241, 1.89375, 1.8205, 1.8209, 1.82336, 1.99277, 1.91866, 1.91755, 1.91734, 1.91574, 2.00356, 1.97251, 1.98587, 1.89419, 1.96918, 1.97226, 1.89375, 1.97156, 1.96902, 1.97234, 1.89259, 1.89323, 1.89227, 1.97012, 1.97419, 1.97842, 1.99127, 1.97094, 1.9929, 1.97339, 1.972, 1.97012, 1.89659, 1.99595, 1.97438, 1.97407, 1.97532, 1.96934, 2.01062, 1.9862, 1.99639, 1.99164, 2.00059, 1.97929, 2.01771, 2.00633, 1.98175, 1.98718, 1.9946, 1.9906, 1.98382, 1.9889, 1.9844, 1.99063, 1.90741, 1.98666, 1.98439, 1.98464, 1.9806, 2.00417, 1.91006, 1.99343, 2.00772, 1.99657, 1.99638, 2.0069, 1.99375, 1.91117, 1.91007, 1.98401, 1.98613, 1.98798, 1.98632, 1.98894, 1.98607, 1.90973, 1.90981, 1.90999, 1.90997, 1.91048, 1.90941, 2.01184, 1.91362, 1.90347, 1.95121, 1.90227, 2.03613, 1.85169, 1.84988, 1.85203, 1.84808, 1.8475, 1.94876, 1.84869, 1.84936, 1.84913, 1.90659, 1.9076, 1.90772, 1.85254, 1.85168, 1.85308, 1.85292, 1.85171, 1.85405, 1.85301, 1.85259, 1.85058, 1.85525, 1.85268, 1.85373, 1.85198, 1.85245, 1.90243, 2.04607, 2.02862, 1.85141, 1.90276, 1.90136, 1.89993, 1.89927, 2.0337, 1.8488, 2.0302, 1.85114, 1.90152, 1.89785, 2.01793, 1.84868, 1.89922, 1.82964, 1.91667, 1.77619, 1.82465, 1.83203, 1.7696, 1.87126, 1.87941, 1.76849, 1.81654, 1.81553, 1.81396, 1.7641, 1.88254, 1.76169, 1.81522, 1.86822, 1.88331, 1.88335, 1.8722, 1.8075, 1.75737, 1.81, 1.75748, 1.75619, 1.75535, 1.75699, 1.75658, 1.75748, 1.88267, 1.75321, 1.7519, 1.75364, 1.88579, 1.80318, 1.75472, 1.86858, 1.75545, 1.75291, 1.7521, 1.7529, 1.75516, 1.75428, 1.86901, 1.81099, 1.87985, 1.87676, 1.87712, 1.7515, 1.80386, 1.86908, 1.87291
1.83034, 1.83022, 1.9515, 1.77775, 2.052, 1.77611, 1.77455, 1.77614, 1.77388, 1.77528, 1.77441, 1.77147, 1.77131, 1.77472, 1.87411, 1.82101, 1.77257, 1.81989, 1.82226, 1.86644, 1.76919, 1.76998, 1.7691, 1.8176, 1.8582, 1.76752, 1.76642, 1.76738, 1.76399, 1.94707, 1.7659, 1.76229, 1.76297, 1.76433, 1.76534, 1.76173, 1.76046, 1.76229, 1.76085, 1.82294, 1.76297, 1.81328, 1.7605, 1.76131, 1.94277, 1.76258, 1.76132, 1.76185, 1.85206, 1.76193, 1.83638, 1.90492, 1.90613, 1.99053, 1.98336, 1.90742, 1.91004, 1.83045, 1.82648, 1.82618, 1.90849, 1.82621, 1.82316, 1.82317, 1.89881, 1.89966, 1.98928, 1.91058, 1.89825, 1.91501, 1.89596, 1.89507, 1.89533, 1.89454, 1.89579, 1.9157, 1.91721, 1.89201, 1.91512, 1.88989, 1.8924, 1.88901, 2.00125, 1.81189, 1.91752, 1.81383, 1.91971, 1.92009, 1.89447, 1.82045, 1.89393, 1.82151, 1.89999, 1.91976, 1.91985, 1.99637, 1.9071, 1.99892, 1.99789, 1.99442, 1.98948, 1.96941, 1.96858, 1.89273, 1.97876, 1.98039, 1.97233, 1.97151, 1.97196, 1.89332, 1.89288, 1.97318, 1.97023, 1.97545, 1.9865, 1.97218, 1.99762, 1.89555, 1.99031, 1.98576, 1.97617, 1.97932, 1.99151, 1.9883, 1.98549, 1.98376, 1.9787, 1.98971, 1.90134, 1.9867, 1.98477, 1.99324, 1.90694, 1.99313, 1.99278, 1.99703, 1.90709, 1.99904, 2.00109, 1.98602, 1.98334, 1.90865, 1.99558, 1.98678, 1.98786, 1.98355, 1.99321, 2.0004, 2.01235, 1.9104, 1.99284, 1.99887, 1.99822, 1.91039, 2.0017, 1.99116, 2.00312, 1.98829, 1.98927, 1.99248, 1.98948, 1.98642, 1.98618, 1.90966, 1.98987, 1.9892, 1.99064, 1.99985, 2.00153, 2.00972, 2.01165, 1.91272, 1.85383, 2.02002, 1.85179, 2.03905, 1.9455, 1.84983, 1.8489, 1.85017, 2.02382, 1.84903, 1.84919, 1.85076, 1.84942, 1.94848, 2.03027, 1.90614, 1.9014, 1.85269, 1.85259, 1.85344, 1.90545, 1.8552, 1.85286, 2.03559, 1.85805, 2.04897, 1.85434, 1.85205, 1.90407, 1.90361, 2.04477, 2.04571, 1.85177, 1.90043, 1.90126, 1.84942, 1.84931, 1.84835, 2.03139, 2.04147, 1.84985, 1.84855, 1.84892, 1.89653, 1.84694, 1.89825, 1.7783, 1.77644, 1.82619, 1.77186, 1.82436, 1.84197, 1.77134, 1.87321, 1.7663, 1.8738, 1.87225, 1.81589, 1.81398, 1.76249, 1.8126, 1.81761, 1.76085, 1.75855, 1.80943, 1.84337, 1.81033, 1.80799, 1.75508, 1.88598, 1.75653, 1.75439, 1.75479, 1.75163, 1.88847, 1.75412, 1.88935, 1.8923, 1.7515, 1.75088, 1.75309, 1.75432, 1.81319, 1.75154, 1.75184, 1.75473, 1.87925, 1.7509, 1.75299, 1.87494, 1.87021, 1.75455, 1.87893, 1.8567, 1.75434, 1.75436, 1.75425, 1.75105
1.84328, 1.7816, 1.78102, 1.7793, 1.77962, 1.77834, 1.82726, 1.7781, 1.77508, 1.77941, 2.03162, 2.03246, 1.77345, 1.87273, 1.77346, 1.8782, 1.77551, 1.87487, 1.77218, 1.77178, 1.77239, 1.77155, 1.77177, 1.76909, 1.77008, 1.88956, 1.76482, 1.76786, 1.76681, 1.76714, 1.7649, 1.7677, 1.76647, 1.76784, 1.76257, 1.94937, 1.86669, 1.76251, 1.76235, 1.76313, 1.76427, 1.76338, 1.76141, 1.7643, 1.87719, 1.86043, 1.85492, 1.76383, 1.76217, 1.76559, 1.7661, 1.76566, 1.90956, 1.90716, 1.90856, 1.90476, 1.82769, 1.91011, 1.98854, 1.9058, 1.90613, 1.90101, 1.90121, 1.90087, 1.90003, 1.90799, 1.89751, 2.00313, 1.91386, 1.99909, 1.91483, 1.9161, 1.89789, 1.89392, 1.91656, 1.91665, 1.89358, 1.89324, 2.01008, 1.89312, 1.81428, 1.89028, 1.89257, 1.81489, 1.91946, 1.81606, 1.91769, 1.89349, 1.89497, 1.81796, 1.92115, 1.89869, 1.92007, 1.82647, 1.90661, 1.9203, 2.01399, 2.00641, 1.99578, 1.983, 1.97276, 1.97315, 1.8935, 1.98025, 1.97086, 1.97174, 1.97252, 1.89551, 1.89449, 1.96831, 1.97179, 1.97184, 1.97453, 1.97583, 1.89553, 1.97145, 1.97453, 1.98695, 1.97243, 1.97344, 1.97329, 1.98374, 1.97502, 1.97633, 1.97667, 1.98735, 1.90162, 1.90261, 1.9891, 1.9771, 1.98632, 1.98054, 1.97979, 1.90342, 1.99269, 1.98836, 1.99632, 1.90776, 1.9977, 1.9903, 1.98201, 1.91023, 1.90969, 1.98985, 2.01364, 1.99402, 1.99046, 1.98885, 1.98616, 2.00077, 1.98962, 1.98773, 1.98967, 1.98788, 2.00648, 1.98761, 2.00014, 1.91044, 1.98747, 1.98853, 1.99359, 1.98758, 1.98961, 1.91122, 1.98752, 1.99103, 1.98948, 1.99365, 1.99863, 1.91296, 1.99232, 1.91324, 1.85396, 2.02509, 1.85253, 1.85176, 2.0417, 1.84791, 1.90121, 1.93405, 1.94855, 1.94848, 1.84959, 2.0488, 1.84856, 2.02724, 1.84939, 1.84969, 1.90145, 1.85444, 1.85252, 1.85476, 1.93599, 1.93582, 1.85439, 1.85218, 2.02478, 1.85485, 1.85467, 2.03876, 1.85093, 1.85195, 1.85289, 2.0359, 1.84923, 1.90184, 1.90068, 1.90061, 1.90112, 1.84843, 1.84977, 1.84743, 1.84783, 1.8481, 1.84699, 1.89931, 1.84594, 1.84589, 1.77607, 1.77539, 1.77558, 1.77189, 1.77249, 1.76952, 1.76834, 1.76777, 1.76573, 1.76792, 1.76574, 1.76319, 1.81122, 1.81707, 1.81246, 1.89574, 1.75796, 1.75809, 1.7572, 1.84287, 1.80926, 1.8082, 1.88595, 1.75549, 1.75769, 1.80669, 1.80596, 1.75465, 1.88699, 1.75258, 1.75269, 1.75333, 1.75319, 1.75037, 1.88363, 1.75508, 1.75208, 1.75409, 1.75196, 1.75237, 1.75327, 1.75093, 1.75236, 1.87444, 1.8715, 1.75203, 1.7519, 1.75295, 1.8761, 1.75329, 1.87119, 1.75126
1.78217, 1.78242, 1.78148, 1.78158, 1.83036, 1.78093, 1.82853, 1.82856, 1.77882, 1.77584, 1.87531, 1.77501, 1.7752, 1.82695, 1.77446, 1.87361, 1.87028, 1.8649, 1.77472, 1.86995, 1.77186, 1.77315, 1.77362, 1.77494, 1.7704, 1.77086, 1.87548, 1.76945, 1.76904, 1.86775, 1.76782, 1.76763, 1.76801, 1.86979, 1.85909, 1.76497, 1.7662, 1.76519, 1.76495, 1.76792, 2.02464, 1.86637, 1.76453, 1.76295, 1.76359, 1.86819, 1.8617, 1.7653, 1.76624, 1.767, 1.76768, 1.76604, 1.83181, 1.90715, 1.90679, 1.90682, 1.91094, 1.90374, 1.90923, 1.90996, 1.90332, 1.90025, 1.90135, 1.9893, 1.89931, 1.90201, 1.8971, 1.82103, 1.8971, 1.89697, 1.89692, 1.91609, 2.0043, 1.81806, 1.81593, 1.89237, 1.81678, 1.89135, 1.89028, 1.89266, 1.89009, 1.92016, 1.91982, 1.92066, 1.92023, 1.92028, 1.92065, 1.81653, 1.89562, 1.89444, 1.89595, 1.89937, 1.99634, 1.92164, 1.90846, 1.91032, 1.9133, 1.91915, 2.03212, 1.85468, 1.89555, 1.89634, 1.97206, 1.9715, 1.98658, 1.98045, 1.98224, 1.97619, 1.89415, 1.89437, 1.9715, 1.97506, 1.97667, 1.89396, 1.97523, 1.99623, 1.97281, 1.97223, 1.97299, 1.98242, 1.97338, 1.98953, 1.8989, 1.89952, 1.99413, 1.98705, 1.99927, 1.90146, 1.97835, 1.90313, 1.98042, 1.98991, 1.98259, 2.005, 1.90707, 1.99518, 2.00244, 1.98975, 1.99159, 1.98584, 1.98757, 1.99229, 1.98593, 1.99321, 2.01297, 1.99452, 1.90876, 1.98815, 1.99789, 1.99971, 2.00001, 1.9977, 1.99969, 1.99659, 1.98713, 1.98554, 1.99837, 1.91037, 1.9101, 1.99686, 1.99956, 1.98741, 1.98829, 1.9896, 1.98659, 1.98969, 1.9924, 1.91112, 1.98677, 2.01093, 1.98774, 1.98988, 2.02043, 1.85112, 1.85059, 1.84886, 1.84724, 1.84762, 1.9023, 1.84827, 1.84904, 1.85104, 1.84866, 2.03513, 1.84991, 1.8501, 1.85484, 1.85259, 1.85233, 1.85006, 1.90337, 1.90373, 1.90456, 1.90346, 1.8495, 1.85319, 2.02697, 1.85201, 1.85126, 1.85674, 2.04533, 1.85187, 1.85217, 1.8541, 1.85135, 1.84941, 1.8499, 2.04514, 1.85205, 1.84966, 1.94037, 1.84691, 1.84444, 2.03435, 1.84813, 2.02061, 1.8431, 1.84601, 1.7755, 1.77581, 1.88273, 1.77188, 1.77074, 1.76874, 1.76879, 1.76857, 1.76635, 1.76526, 2.05461, 1.76169, 1.87279, 1.76049, 1.76056, 1.76165, 1.75953, 1.76095, 1.75814, 1.75777, 1.7563, 1.83298, 1.75797, 1.87474, 1.87237, 1.807, 1.88524, 1.88325, 1.75239, 1.88606, 1.75537, 1.75439, 1.88252, 1.88029, 1.75113, 1.75431, 1.75378, 1.75241, 1.8545, 1.75477, 1.75491, 1.75476, 1.86553, 1.80373, 1.80285, 1.75426, 1.75399, 1.87182, 1.87274, 1.84594, 1.75097, 1.80287
1.78611, 1.78107, 1.78385, 1.83279, 1.8659, 1.78213, 1.7825, 1.781, 1.78128, 1.77857, 1.77655, 1.77748, 1.77782, 1.77334, 1.8781, 1.77532, 1.77447, 1.77483, 1.77193, 2.02713, 2.02813, 1.77322, 1.77481, 1.7719, 1.77158, 1.77195, 1.76981, 1.94933, 1.76631, 1.87139, 1.87062, 1.76879, 1.86874, 2.02741, 1.87222, 1.85962, 1.76784, 1.76698, 1.76627, 1.76345, 1.76446, 1.86709, 1.86948, 1.76658, 1.87813, 1.76529, 1.76589, 1.76515, 1.76659, 1.94056, 1.76789, 1.90998, 1.91347, 1.99055, 1.99, 1.90982, 1.83088, 1.90451, 1.99433, 1.91019, 1.91261, 1.91287, 2.0022, 1.90375, 1.91517, 1.91665, 1.91418, 1.89903, 1.82166, 1.91696, 1.82001, 1.91707, 1.89558, 1.89308, 1.89306, 1.89283, 1.91779, 1.89274, 1.8923, 1.89084, 1.99745, 1.88982, 1.9203, 1.89062, 1.99793, 1.91989, 1.81636, 1.81652, 1.89434, 1.92223, 1.82011, 1.82366, 1.92136, 1.9028, 1.92696, 1.83327, 1.92055, 1.92149, 2.02436, 1.97314, 1.98807, 1.99337, 1.997, 1.97427, 1.97246, 1.99005, 1.97307, 1.89665, 1.97353, 1.89605, 1.89591, 1.89417, 1.97566, 1.97047, 1.97064, 1.9853, 1.98695, 1.98713, 1.98609, 1.97395, 1.97493, 2.00049, 1.99007, 1.98842, 1.90099, 1.99592, 1.99344, 1.98689, 1.90331, 1.90319, 1.98634, 1.98065, 1.98075, 1.97895, 1.9065, 1.99656, 2.00267, 1.99354, 1.98569, 2.0102, 2.00049, 2.00395, 1.99661, 2.00088, 2.01043, 1.98852, 2.00891, 1.98613, 1.91015, 1.98663, 1.91076, 1.98818, 1.99685, 1.99766, 2.00401, 2.02392, 1.98767, 1.91027, 1.98962, 2.00373, 1.9103, 1.91071, 1.99022, 1.9912, 1.98705, 1.993, 1.99574, 1.99274, 1.9893, 2.00533, 1.99732, 1.85365, 1.85188, 1.85049, 1.85103, 1.85045, 1.84966, 1.84828, 1.9045, 1.90634, 1.90627, 1.85092, 1.84788, 1.84862, 1.94567, 1.84883, 1.94583, 1.85138, 1.90928, 1.85093, 1.85142, 1.85136, 1.85216, 1.85521, 2.05307, 1.85165, 1.85157, 2.02681, 1.85212, 1.85234, 1.85443, 1.85475, 1.84889, 1.85142, 2.02429, 1.85147, 1.85087, 2.02912, 1.84928, 1.8482, 1.84557, 1.84569, 1.84497, 1.84531, 1.84576, 1.84437, 1.84494, 1.84389, 1.77223, 1.77449, 1.77303, 1.87921, 1.76882, 1.76738, 1.76913, 1.76621, 1.7671, 1.7646, 1.76426, 1.76179, 1.76145, 1.8751, 1.95436, 1.76158, 1.7596, 1.85635, 1.75827, 1.76135, 1.75701, 1.75667, 1.75553, 1.75455, 1.75589, 1.75599, 1.75434, 1.75462, 1.75323, 1.75264, 1.75421, 1.7533, 1.75165, 1.75433, 1.75349, 1.75494, 1.88119, 1.75413, 1.75417, 1.75258, 1.87912, 1.75333, 1.80462, 1.80459, 1.86112, 1.75446, 1.87475, 1.87311, 1.8757, 1.87094, 1.86207, 1.7508
1.78777, 1.78693, 1.78524, 1.8656, 1.78543, 1.86393, 1.78401, 1.78097, 1.78295, 1.77956, 1.7794, 1.77658, 1.77763, 1.77693, 1.87825, 1.77644, 1.77566, 1.77563, 1.77598, 1.77605, 1.77318, 1.77367, 1.77559, 1.8714, 1.82204, 1.77458, 1.77144, 1.85874, 1.76771, 1.76644, 2.03811, 1.85741, 1.76865, 1.8663, 1.76794, 1.7685, 1.7695, 1.76853, 1.86247, 1.87191, 1.87834, 1.87909, 1.81668, 1.7679, 1.76817, 1.7659, 1.94403, 1.94236, 1.7666, 1.76827, 1.77177, 2.01405, 1.91417, 1.99503, 1.90973, 1.90717, 1.91329, 1.99308, 1.99165, 1.91247, 2.02086, 1.91361, 1.90374, 1.92127, 1.90018, 1.91442, 1.90103, 1.8997, 1.9166, 1.91866, 1.91697, 1.89724, 1.99852, 1.894, 1.81858, 1.81863, 1.81693, 1.89339, 1.8148, 1.89246, 1.89243, 2.00366, 1.81487, 1.89329, 1.8902, 1.99744, 1.89266, 1.92123, 1.89485, 1.89634, 1.89754, 2.00198, 2.00349, 1.90618, 1.99786, 1.90711, 1.92178, 1.9215, 2.0142, 1.99738, 1.89641, 1.97351, 1.9748, 1.98245, 1.98563, 1.97464, 1.98559, 1.89666, 1.97509, 1.97688, 1.89423, 1.89336, 1.8935, 1.89481, 1.97238, 1.97237, 1.89622, 1.97365, 1.9845, 1.89943, 1.97624, 1.97635, 1.9792, 1.98081, 1.90011, 1.90106, 1.89972, 1.90251, 1.90134, 1.98955, 1.90631, 1.98272, 1.98207, 2.00015, 1.90767, 1.90815, 1.98685, 2.00446, 1.90739, 1.90891, 2.01189, 1.91301, 1.99277, 1.99617, 1.99378, 1.99144, 1.98627, 1.98962, 1.99465, 1.99954, 1.9967, 2.00134, 1.9867, 1.91252, 2.00956, 1.98922, 2.00653, 1.98934, 1.98596, 2.01046, 1.98821, 1.98995, 1.98956, 1.98563, 1.91172, 1.9922, 1.99275, 1.99618, 1.99038, 2.00028, 2.00496, 1.85544, 1.85304, 1.93979, 2.01766, 1.8505, 2.03882, 1.84934, 1.84771, 1.93733, 1.84918, 1.84723, 1.94763, 1.848, 1.94649, 1.94324, 1.85118, 1.90774, 1.90843, 1.9083, 1.90725, 1.8523, 1.85091, 2.03202, 1.85244, 2.0452, 1.85384, 1.85341, 1.85139, 2.04562, 1.9027, 1.94672, 1.94624, 1.85251, 1.85223, 1.85176, 1.84982, 1.84769, 1.93842, 1.93421, 1.84973, 1.84742, 1.84222, 2.03482, 2.03534, 1.84585, 1.94474, 1.8443, 1.77456, 1.87738, 1.77259, 1.87537, 1.76963, 1.88019, 1.76821, 1.81602, 1.81387, 1.83238, 1.76346, 1.76213, 1.87698, 1.76013, 1.76242, 1.88254, 1.87691, 1.87887, 1.87673, 1.87479, 1.89252, 1.75514, 1.75587, 1.7545, 1.75417, 1.88321, 1.75568, 1.8788, 1.75276, 1.75353, 1.7531, 1.85223, 1.75332, 1.88234, 1.75405, 1.74973, 1.8831, 1.75291, 1.75232, 1.88241, 1.88157, 1.75338, 1.86186, 1.80369, 1.86449, 1.75417, 1.87942, 1.87497, 1.87401, 1.87349, 1.87351, 1.75096
1.78796, 1.78588, 1.78533, 1.78528, 1.85442, 1.83369, 1.84224, 1.78084, 1.83244, 1.78222, 1.78034, 1.78013, 1.77725, 1.77823, 1.77651, 2.05819, 1.77803, 1.77591, 1.82681, 1.82794, 1.77471, 1.77589, 1.77489, 1.82313, 1.8389, 1.84048, 1.77222, 1.77187, 1.77151, 1.76894, 1.76857, 1.82022, 1.76924, 1.81981, 1.82059, 1.766, 1.77002, 1.76905, 1.87125, 1.81935, 1.87534, 1.76831, 1.76956, 1.76835, 1.76594, 1.76763, 1.76703, 1.86891, 2.02541, 1.768, 1.76941, 1.99523, 1.99381, 1.99664, 1.91257, 1.91479, 1.91555, 1.91489, 1.90737, 1.91419, 1.91278, 1.9124, 1.90447, 1.90281, 1.82509, 1.90208, 1.91554, 1.91755, 1.82111, 1.89794, 1.81934, 1.89717, 1.89398, 2.00888, 1.91815, 1.81709, 1.89313, 1.81707, 1.92024, 1.8173, 1.89277, 1.92149, 1.8926, 1.81675, 1.81769, 1.89223, 2.02669, 1.92104, 1.8194, 1.82053, 1.81857, 1.92309, 1.90159, 1.90595, 1.90709, 1.83176, 1.83606, 1.91638, 2.02064, 1.99347, 1.98391, 1.89578, 1.89794, 1.97563, 1.97355, 1.98315, 1.97118, 1.97566, 1.97517, 1.97857, 1.97274, 1.89365, 1.97544, 1.97204, 1.89635, 1.97101, 1.97268, 1.89788, 2.00013, 1.89932, 2.00724, 1.89956, 1.97765, 1.90039, 1.99729, 1.98366, 1.98776, 1.97931, 1.98388, 1.98035, 1.99958, 1.98263, 1.99989, 1.9826, 1.98643, 1.99326, 1.9874, 1.99431, 2.00223, 1.99322, 1.99408, 1.99846, 2.00045, 1.99665, 2.00653, 1.99067, 1.91136, 1.9917, 1.98534, 1.98271, 2.00776, 1.98851, 2.013, 1.91217, 1.99696, 1.91111, 2.0064, 2.01414, 1.9878, 1.9896, 1.99281, 1.9915, 1.99094, 1.99028, 1.99362, 1.99243, 1.91245, 1.99617, 1.99427, 1.99397, 2.00344, 1.91248, 1.85492, 2.02055, 1.8538, 1.85091, 1.94753, 1.85103, 1.84935, 1.89939, 1.89778, 1.84808, 1.84823, 1.84817, 1.85084, 1.84808, 1.84903, 1.90992, 1.90759, 1.91262, 1.85325, 1.85206, 1.85395, 1.85289, 1.90602, 1.85309, 2.03581, 1.85137, 1.85417, 1.85226, 2.04455, 2.02372, 1.93326, 1.90129, 1.90009, 2.03485, 1.84854, 2.03595, 1.84576, 1.84564, 1.84564, 1.84432, 1.84474, 1.84389, 2.02853, 1.84508, 1.84271, 1.84158, 1.77599, 1.87698, 1.77344, 1.76898, 1.76899, 1.7688, 1.81534, 1.76541, 1.8142, 1.87163, 1.87042, 1.81153, 1.87429, 1.87188, 1.76273, 1.7595, 1.75632, 1.75991, 1.75818, 1.75652, 1.75817, 1.87483, 1.75542, 1.8761, 1.75413, 1.85104, 1.88398, 1.88288, 1.75446, 1.75394, 1.87805, 1.87773, 1.93508, 1.88158, 1.75122, 1.85986, 1.75434, 1.75255, 1.75215, 1.75151, 1.80315, 1.86398, 1.75494, 1.75396, 1.86168, 1.7551, 1.75298, 1.9267, 1.75443, 1.87234, 1.75266, 1.87312
1.78653, 1.78881, 1.78903, 1.7871, 2.06027, 2.05944, 1.78475, 1.83618, 1.78151, 1.78394, 1.78167, 1.78225, 1.78117, 1.78086, 1.77771, 1.77747, 2.03527, 2.03579, 1.77627, 1.77856, 1.77534, 1.7764, 1.77557, 1.82524, 1.86497, 1.88615, 1.77401, 1.7721, 1.7727, 1.77157, 1.77174, 1.87576, 1.77233, 1.82916, 1.8306, 1.77071, 1.77141, 1.77169, 2.02539, 1.77087, 1.7684, 1.81913, 1.77055, 1.77218, 1.87146, 1.77156, 1.86816, 1.8201, 1.77014, 1.77116, 1.77313, 1.86501, 1.83466, 1.83562, 1.99994, 1.99991, 1.99958, 1.99945, 2.00071, 1.91363, 1.91465, 2.01068, 1.9027, 1.91757, 1.90387, 1.99702, 1.89996, 1.82523, 1.82067, 1.8997, 2.01455, 1.92125, 1.82032, 1.92056, 1.921, 1.89607, 1.89664, 1.89266, 1.92499, 2.01187, 1.81632, 1.9239, 1.81607, 1.89259, 1.89374, 1.89299, 1.89456, 1.92356, 1.8971, 1.89971, 2.01536, 1.90002, 1.9244, 1.90464, 1.82898, 1.83077, 1.9274, 2.01105, 2.014, 1.89901, 1.9719, 1.97729, 1.97495, 1.89719, 1.9996, 1.97261, 1.98978, 1.97763, 1.97526, 1.89726, 1.89717, 1.89685, 1.8986, 1.99574, 1.89696, 1.97551, 1.98777, 1.9894, 1.9901, 1.89938, 1.9864, 1.97705, 2.001, 1.97701, 1.90292, 2.0039, 1.98997, 1.98306, 1.98918, 1.99383, 1.99916, 1.98486, 1.98672, 1.98214, 2.01836, 2.00006, 2.00041, 2.00275, 1.98994, 1.99608, 1.98792, 2.00189, 1.9944, 1.99434, 1.9104, 1.99616, 1.91272, 1.91134, 1.99965, 1.997, 1.98973, 1.99778, 1.99057, 1.99049, 1.9878, 1.91173, 2.00336, 1.99572, 1.98921, 2.01196, 1.99334, 1.99249, 1.99301, 1.99488, 1.9917, 1.99386, 1.9899, 1.99944, 1.99884, 1.99999, 2.00421, 1.99012, 1.85283, 1.85296, 1.85294, 1.85062, 1.84961, 1.84829, 1.84628, 1.84757, 1.84699, 1.84775, 1.84906, 1.84931, 1.84806, 1.94551, 1.84906, 1.84966, 1.85006, 1.89924, 1.85225, 2.04272, 1.85408, 1.85199, 1.93969, 1.8506, 1.8535, 1.85284, 1.85392, 1.85403, 1.85235, 1.85178, 1.8519, 1.85159, 1.85163, 1.84946, 1.90036, 1.89948, 1.848, 1.89924, 1.84758, 1.84859, 1.84719, 1.84457, 1.84662, 1.84445, 1.84476, 1.84312, 1.77558, 1.77293, 1.77176, 1.77121, 1.76839, 1.76593, 1.81533, 1.81508, 1.81494, 1.81594, 1.83968, 1.81346, 1.81114, 1.81007, 1.81083, 1.80997, 1.80915, 1.7591, 1.75837, 1.75847, 1.88027, 1.87801, 1.7521, 1.87912, 1.75439, 1.85476, 1.85363, 1.87746, 1.75462, 1.754, 1.75307, 1.75498, 1.75339, 1.75301, 1.75311, 1.75174, 1.88238, 1.75361, 1.86945, 1.86638, 1.86404, 1.80311, 1.80357, 1.75508, 1.75234, 1.862, 1.75462, 1.7543, 1.927, 1.87529, 1.87429, 1.8167
1.96229, 1.78726, 1.79164, 1.78678, 1.78742, 1.78705, 1.78653, 2.04969, 1.78289, 1.78572, 1.78337, 2.06797, 2.03885, 2.0532, 1.87891, 1.78182, 1.77959, 1.78005, 1.7794, 1.77544, 1.77705, 1.77858, 2.02048, 1.77569, 1.77601, 1.77645, 1.87606, 1.82451, 1.77366, 1.7734, 1.7734, 1.7745, 1.87692, 1.77195, 1.87249, 1.77022, 1.82189, 1.77168, 1.87192, 1.8716, 1.77015, 1.76966, 1.86826, 1.7703, 1.77132, 1.77185, 1.77007, 1.76921, 1.8215, 1.934, 1.93039, 1.82203, 1.91763, 1.99259, 1.99344, 2.00119, 1.99994, 2.00196, 1.82999, 1.91059, 1.91065, 1.82847, 2.01529, 1.90279, 1.82465, 1.82542, 1.99746, 1.9201, 1.99606, 2.00443, 1.81891, 1.92215, 1.92319, 1.81822, 2.01134, 1.92296, 1.81883, 1.92434, 1.92433, 1.92298, 1.92379, 1.89302, 1.92563, 1.92566, 2.0002, 1.81882, 1.89431, 1.89562, 1.82038, 2.00313, 1.92452, 1.90302, 1.90355, 1.92656, 1.92414, 1.92405, 1.91353, 1.92422, 2.00156, 1.98033, 1.97776, 1.99994, 1.99367, 1.99721, 1.99213, 1.97512, 1.97996, 1.9761, 1.97862, 1.89727, 1.89664, 1.89695, 1.97619, 1.98953, 1.97529, 1.89813, 1.97712, 1.97301, 1.98554, 1.89909, 1.99025, 1.9883, 2.00103, 1.90027, 1.90175, 2.00015, 1.90402, 1.98071, 1.99037, 2.00047, 1.98172, 1.99483, 1.98457, 1.9837, 1.98299, 1.90834, 2.00035, 1.98988, 1.99956, 1.99937, 1.91347, 1.91222, 1.99625, 1.99824, 1.99017, 2.00488, 2.00592, 1.99899, 2.00061, 2.00872, 2.01134, 1.9896, 1.98988, 2.00361, 1.99616, 1.99006, 1.98908, 1.9996, 1.98697, 1.98824, 1.99416, 1.91381, 1.99083, 1.99467, 1.99383, 1.99405, 1.99635, 1.99019, 1.99079, 1.99205, 2.009, 2.00903, 1.85376, 1.85121, 1.84904, 1.85113, 1.84889, 1.85103, 2.02143, 2.02188, 2.02278, 2.035, 1.84602, 2.04824, 1.94835, 1.84932, 1.8499, 1.84814, 1.84994, 2.0245, 2.03587, 1.85144, 1.85112, 1.85436, 1.85206, 1.94315, 1.90422, 1.85508, 1.85527, 2.02328, 1.85236, 2.04178, 1.85348, 1.85251, 1.85077, 1.84939, 1.85076, 1.84542, 1.84652, 1.84717, 1.84558, 1.8959, 1.84492, 1.84222, 2.04525, 1.84373, 1.844, 1.84376, 1.77342, 1.82409, 1.85957, 1.7691, 1.86615, 1.86657, 1.81631, 1.7653, 1.87558, 1.76305, 1.85971, 1.85595, 1.85939, 1.81296, 1.81117, 1.81022, 1.80847, 1.75825, 1.76125, 1.75701, 1.75651, 1.75648, 1.84792, 1.75499, 1.75463, 1.84935, 1.84772, 1.75368, 1.75424, 1.80709, 1.75189, 1.87791, 1.75254, 1.80685, 1.80552, 1.75023, 1.75316, 1.75182, 1.75142, 1.80498, 1.87826, 1.75369, 1.80454, 1.75495, 1.75483, 1.75133, 1.86829, 1.7556, 1.87713, 1.75417, 1.7538, 1.7536
1.79289, 2.05825, 1.79051, 1.79158, 1.78903, 1.78955, 1.78781, 1.78676, 1.78419, 1.78379, 1.78296, 2.06733, 1.78328, 1.78344, 1.78223, 1.78292, 1.77968, 1.8822, 1.87631, 1.77933, 1.78074, 1.78201, 1.77858, 1.77848, 1.77791, 1.7777, 1.77576, 1.82688, 1.77419, 1.77502, 1.89544, 1.77612, 1.77358, 1.87566, 1.8754, 1.7721, 1.82328, 1.77395, 1.77278, 1.89145, 1.82178, 1.82177, 1.82286, 1.82227, 1.77114, 1.7715, 1.77269, 1.85535, 1.85618, 1.9319, 1.82359, 1.9119, 1.91274, 1.91153, 1.91105, 1.91051, 1.83257, 1.90833, 1.91043, 1.83082, 1.90411, 1.99597, 1.90267, 1.90317, 1.90178, 1.90302, 1.82705, 2.01671, 1.82196, 1.82246, 1.89908, 1.89756, 1.89896, 1.89855, 1.92507, 2.02477, 2.00454, 1.92488, 1.89378, 1.92596, 1.81735, 1.92444, 1.89409, 1.92477, 1.81787, 1.81754, 1.81754, 1.89633, 1.89776, 1.90117, 2.0315, 1.82491, 1.92758, 1.90659, 1.92821, 1.92326, 1.83855, 2.01699, 2.03589, 1.8582, 1.89927, 1.98574, 1.99856, 1.89833, 1.98438, 1.89751, 1.89789, 1.98323, 1.89839, 1.89681, 1.89846, 1.89719, 1.97408, 1.97905, 1.89928, 1.98254, 1.98308, 1.97693, 2.00159, 1.8993, 1.97951, 1.99263, 2.00181, 1.99758, 1.98487, 2.00444, 2.01358, 1.98285, 1.98755, 2.01149, 1.90595, 1.98272, 1.98924, 1.90959, 2.00243, 2.00228, 1.9877, 1.90878, 1.99036, 1.99598, 2.00426, 1.99419, 1.99035, 1.98938, 1.99109, 1.99356, 1.9935, 1.99759, 1.98969, 2.00989, 2.01065, 1.91369, 2.01617, 2.00189, 1.91371, 1.98904, 1.99173, 2.00413, 1.98926, 1.91411, 2.00323, 1.99648, 1.99292, 1.99623, 1.99267, 1.99401, 1.99329, 1.98961, 1.91372, 1.99076, 2.01346, 1.91292, 1.85029, 1.85254, 1.85132, 1.85159, 1.84901, 1.85026, 1.84962, 1.94521, 1.8455, 1.84585, 1.94908, 1.8478, 1.84829, 1.84538, 1.85065, 1.84832, 1.84919, 2.04309, 1.94126, 1.8515, 1.85137, 1.8537, 1.85283, 1.85282, 1.85466, 1.85428, 2.04897, 1.85552, 1.90304, 1.90173, 1.85267, 1.85135, 1.85152, 1.853, 1.85154, 1.84847, 1.84731, 2.03504, 1.8465, 1.84302, 1.84451, 1.84414, 2.02883, 1.84244, 1.84454, 1.84092, 1.82359, 1.77381, 1.81999, 1.76833, 1.91398, 1.76594, 1.8164, 1.766, 1.76476, 1.76165, 1.86169, 1.85852, 1.76096, 1.81217, 1.85057, 1.75809, 1.81057, 1.75807, 1.75639, 1.75522, 1.75762, 1.7558, 1.82274, 1.8428, 1.75494, 1.75728, 1.80396, 1.75455, 1.75312, 1.87511, 1.75188, 1.75166, 1.75049, 1.82314, 1.75418, 1.75258, 1.74878, 1.81183, 1.87941, 1.87828, 1.87831, 1.75236, 1.84828, 1.87689, 1.87593, 1.75469, 1.75206, 1.75335, 1.75216, 1.75326, 1.75224, 1.75289
2.04423, 1.7927, 1.79314, 1.79206, 1.78702, 1.78875, 1.79224, 1.78752, 1.83827, 1.7884, 1.78533, 1.78551, 1.78212, 1.78545, 1.78246, 1.78119, 1.77979, 1.77836, 1.78034, 1.7781, 1.78026, 1.78128, 1.77929, 1.78065, 1.78245, 1.87716, 1.77637, 1.88062, 1.77573, 1.827, 1.77467, 1.82765, 1.77816, 1.87557, 1.77423, 1.77494, 1.77496, 1.82349, 1.82316, 1.77292, 1.77294, 1.77338, 1.77359, 1.77349, 1.95803, 1.94727, 1.94865, 1.77323, 1.82303, 1.82486, 1.77362, 1.83764, 1.91688, 1.91618, 1.91718, 1.91326, 1.91259, 1.99986, 1.99986, 2.01002, 1.82864, 1.90905, 1.90323, 1.82931, 1.90344, 1.90434, 1.90367, 2.0157, 1.9006, 1.99958, 1.82439, 1.89828, 1.8989, 1.92395, 2.00377, 2.00109, 1.8189, 1.92483, 1.81801, 2.00783, 1.92493, 1.89523, 1.81795, 1.89239, 1.92733, 2.00647, 1.89544, 1.92714, 1.928, 1.82317, 1.82419, 1.90005, 1.90662, 1.90658, 2.01224, 1.83511, 2.00631, 1.92801, 2.03445, 1.97853, 1.99791, 1.99616, 1.97632, 1.99678, 1.99258, 1.98411, 1.89913, 1.97593, 1.89629, 1.89899, 1.89876, 1.89791, 1.97583, 1.98277, 1.9907, 1.90084, 1.9973, 1.99938, 1.99044, 1.9935, 1.99343, 1.90091, 2.00067, 1.99544, 1.97945, 1.99702, 1.99766, 2.0104, 1.98185, 1.98579, 1.98535, 1.98475, 1.98609, 1.9855, 2.00794, 1.98646, 2.01117, 1.98424, 2.00319, 2.00513, 1.99106, 2.01047, 2.00479, 1.99364, 1.99237, 2.00291, 2.00405, 2.00122, 1.91317, 2.01778, 1.91318, 2.00666, 2.01364, 2.00027, 1.91295, 1.98992, 2.00321, 1.99395, 1.99354, 2.00416, 2.01371, 1.99697, 1.9976, 1.99828, 1.99804, 1.91471, 1.98997, 1.99298, 1.99018, 1.9929, 2.01832, 1.99216, 1.8537, 1.85162, 1.85149, 1.85097, 1.90045, 1.84803, 1.89737, 1.84731, 1.84638, 1.84743, 1.84721, 1.84741, 1.84615, 1.84632, 2.02721, 1.84889, 1.84619, 1.85057, 1.85095, 1.90477, 1.90317, 1.90289, 1.85392, 2.03795, 1.85441, 1.85401, 1.8549, 1.85349, 1.91755, 1.90296, 1.85115, 1.85457, 1.85096, 2.04075, 2.03655, 1.85003, 1.84957, 1.84636, 1.84819, 1.84774, 1.84546, 1.84504, 1.84279, 1.84122, 1.84408, 1.84302, 1.82548, 1.77323, 1.90717, 1.76907, 1.76757, 1.76636, 1.76232, 1.86881, 1.76471, 1.86069, 1.76295, 1.857, 1.76077, 1.7569, 1.76232, 1.76119, 1.81049, 1.7594, 1.75807, 1.86809, 1.75787, 1.75888, 1.80633, 1.80623, 1.75293, 1.8618, 1.75355, 1.80302, 1.75456, 1.75203, 1.75182, 1.87925, 1.87873, 1.87494, 1.87005, 1.86758, 1.86333, 1.75064, 1.75135, 1.75289, 1.7526, 1.75193, 1.75139, 1.75217, 1.75494, 1.84459, 1.75342, 1.87422, 1.87233, 1.86929, 1.75212, 1.86271
1.84434, 1.79542, 1.79463, 1.79532, 1.7915, 1.7919, 1.79137, 2.06045, 1.78469, 1.78565, 2.04278, 1.88768, 1.78779, 2.0801, 1.78409, 1.78404, 1.78287, 1.78303, 1.782, 1.78224, 1.78381, 1.9601, 1.78178, 1.77702, 1.7771, 1.77847, 1.78061, 1.77944, 1.77768, 1.77983, 2.03185, 1.93595, 1.82663, 1.8269, 1.87054, 1.87266, 1.77591, 1.86122, 1.82561, 1.875, 1.77565, 1.77324, 1.77496, 1.95173, 1.87163, 1.77556, 1.82294, 1.82426, 1.77647, 1.94771, 1.77479, 1.99741, 1.92373, 1.99911, 1.9979, 1.91691, 1.91067, 1.91194, 1.91073, 1.91326, 1.90955, 1.90984, 2.02376, 1.83061, 1.90412, 1.8275, 1.92343, 1.90137, 1.92329, 1.89988, 1.90009, 1.90265, 1.89789, 1.89637, 1.81856, 1.82123, 1.89713, 1.89616, 1.89606, 1.89781, 1.89477, 1.89388, 1.89731, 1.81847, 2.02553, 1.92668, 1.89654, 1.89575, 1.89912, 1.92809, 1.90125, 1.90217, 1.90427, 1.82985, 1.92728, 1.92834, 1.92807, 2.00678, 2.03547, 2.00305, 1.98005, 2.0008, 2.00584, 1.99696, 1.99972, 1.89938, 1.97696, 1.98128, 1.89963, 1.89876, 1.89747, 1.97908, 1.97749, 1.97796, 1.97684, 1.97564, 1.98081, 1.9901, 1.90103, 2.00117, 1.90228, 1.99019, 1.99436, 1.9992, 1.97334, 2.00158, 1.98444, 1.9985, 1.98448, 1.98479, 2.00713, 1.98563, 2.01271, 2.00669, 2.02352, 2.00771, 2.00822, 2.00434, 1.98691, 2.01836, 2.01027, 1.98961, 2.01258, 1.99428, 2.00846, 2.00285, 2.0095, 2.00706, 1.99724, 2.00243, 1.91478, 2.01004, 1.91543, 2.01149, 2.00875, 1.98988, 2.01032, 1.91443, 2.00345, 1.91362, 1.99253, 1.98981, 1.99676, 2.00016, 1.9984, 1.99898, 1.99216, 1.9934, 2.02465, 1.99293, 1.91712, 1.85328, 1.8523, 1.85154, 1.90016, 1.90009, 1.84811, 1.89985, 1.89945, 1.84455, 1.84778, 1.84724, 1.84611, 1.8462, 1.84654, 2.03094, 2.0349, 1.84822, 1.84622, 1.84872, 2.04355, 1.85214, 1.8512, 2.03405, 2.03253, 1.85137, 1.85488, 1.94858, 1.94696, 1.85496, 1.92052, 1.9047, 2.03818, 1.85169, 2.02379, 1.85121, 1.85099, 1.90038, 1.89942, 1.9463, 1.89743, 1.89608, 1.84742, 1.84607, 1.84185, 1.89224, 1.84023, 1.83894, 1.77351, 1.76626, 1.77161, 1.91971, 1.86347, 1.76649, 1.76633, 1.76493, 1.86715, 1.76273, 1.85827, 1.86206, 1.85895, 1.86223, 1.76055, 1.75909, 1.86804, 1.85506, 1.75843, 1.7554, 1.75825, 1.85007, 1.84827, 1.80538, 1.75483, 1.75479, 1.85925, 1.85953, 1.80255, 1.97632, 1.88007, 1.75089, 1.75351, 1.75333, 1.87288, 1.85277, 1.75197, 1.80362, 1.74978, 1.75178, 1.75235, 1.87603, 1.7509, 1.87825, 1.75399, 1.87193, 1.75384, 1.75465, 1.75137, 1.84528, 1.75152, 1.75208
1.84524, 1.84497, 1.79046, 1.79033, 1.79192, 1.79201, 1.78976, 1.79039, 1.79094, 1.88142, 1.88284, 1.83749, 1.83742, 1.78594, 1.78629, 2.04842, 1.88671, 1.78267, 1.88588, 1.78238, 1.78326, 1.7843, 1.78267, 1.78295, 1.78017, 1.77953, 1.77846, 1.77663, 1.87997, 1.77928, 1.77687, 1.77872, 1.82819, 1.82903, 1.87638, 1.77592, 1.87882, 1.77789, 1.87667, 1.86797, 1.86628, 1.77274, 1.77639, 1.77692, 1.77645, 1.77627, 1.77536, 1.7764, 1.77827, 1.94774, 1.94916, 1.91258, 1.83839, 1.83845, 1.91312, 1.91741, 1.9122, 1.91184, 1.92325, 1.91072, 1.83214, 1.9086, 1.83084, 1.92743, 1.90522, 1.90741, 1.9263, 1.90296, 1.90507, 1.90332, 1.90294, 1.89961, 1.82256, 1.82341, 2.01682, 1.89894, 1.89741, 1.89423, 1.89492, 2.0183, 1.9277, 1.89953, 1.81998, 1.89626, 1.89613, 1.9325, 1.93019, 1.93113, 2.00638, 1.92829, 1.89898, 2.03496, 1.90577, 1.92955, 2.00695, 1.91336, 2.00706, 2.00768, 2.02615, 1.90264, 2.00902, 2.00273, 2.01329, 1.9997, 2.017, 1.90237, 1.90138, 1.98272, 1.98194, 1.90033, 1.89993, 1.9782, 1.9773, 1.98387, 1.97803, 1.98849, 1.97749, 1.97802, 1.98074, 2.00296, 1.99734, 2.00347, 2.01727, 1.90294, 2.00466, 1.90623, 1.90807, 1.90654, 1.90769, 1.98719, 1.9865, 2.01272, 2.01351, 1.98746, 2.00652, 1.98762, 2.01314, 1.91214, 2.00937, 2.00672, 2.0252, 1.99023, 2.01419, 1.98942, 2.0014, 1.99301, 1.99697, 1.98971, 2.00635, 1.99552, 1.99748, 2.00125, 2.0088, 1.90792, 2.00466, 2.0069, 2.00405, 1.99113, 1.9904, 2.00027, 1.98978, 1.99362, 1.99094, 1.99816, 1.99844, 1.99593, 1.99731, 1.99051, 2.00169, 1.9937, 1.9925, 1.94785, 1.85303, 1.90146, 1.90057, 1.89903, 1.94449, 1.84915, 1.96932, 1.96826, 1.84743, 1.84784, 1.84636, 1.84637, 1.84739, 1.84734, 1.84621, 1.8482, 2.04441, 1.85141, 1.8493, 1.84877, 1.85175, 1.85174, 1.85309, 1.85164, 2.04242, 1.90592, 1.90526, 1.90558, 1.85548, 1.85383, 1.85511, 1.85442, 1.85167, 1.85132, 1.8508, 1.84804, 1.84857, 1.89979, 1.89757, 1.8957, 1.89583, 1.84296, 1.84319, 1.84189, 1.84083, 1.77548, 1.7754, 1.98302, 1.77069, 1.86943, 1.86659, 1.76671, 1.76504, 1.76617, 1.76356, 1.76293, 1.76151, 1.75943, 1.7646, 1.76086, 1.8463, 1.86504, 1.75841, 1.75854, 1.75806, 1.75758, 1.866, 1.80644, 1.83761, 1.8188, 1.80457, 1.80303, 1.85533, 1.75104, 1.75002, 1.74841, 1.75387, 1.7518, 1.80449, 1.80336, 1.85189, 1.75212, 1.87754, 1.75282, 1.80334, 1.85936, 1.75262, 1.75208, 1.85854, 1.8751, 1.87358, 1.75372, 1.88252, 1.7498, 1.75226, 1.74861, 1.7514, 1.86868
1.79672, 1.79728, 1.79346, 1.79438, 1.79266, 1.79443, 1.79296, 1.78941, 2.0524, 2.05207, 1.79055, 1.89755, 1.83734, 1.78832, 1.78867, 1.78401, 1.78551, 1.88505, 1.90243, 2.05785, 2.04566, 1.78408, 1.78347, 1.78228, 1.78337, 1.77933, 1.782, 1.88553, 1.78053, 1.87294, 1.77966, 1.78026, 1.87909, 1.87962, 1.7762, 1.87662, 1.869, 1.77527, 1.77562, 1.77361, 1.77483, 1.95421, 1.77719, 1.87932, 1.77745, 1.77425, 1.77819, 1.94901, 1.94787, 1.94759, 1.77768, 1.92188, 1.91956, 1.92174, 1.92305, 1.91525, 1.92196, 1.92112, 1.83521, 1.83531, 1.92402, 1.90947, 2.00389, 1.92792, 1.90452, 1.92678, 1.90402, 1.9267, 1.90262, 1.90502, 1.90123, 1.92672, 2.01678, 2.01163, 1.92896, 1.93017, 1.93079, 1.82043, 1.9301, 1.93013, 1.93068, 1.81991, 1.81997, 1.89356, 1.89474, 1.92979, 1.82404, 1.89927, 1.90071, 1.90196, 1.90283, 1.90722, 2.00791, 1.93119, 1.93172, 1.93209, 2.00769, 1.92832, 2.02759, 2.00682, 2.00067, 2.00042, 1.98016, 1.97935, 1.97981, 2.00577, 1.97767, 1.90236, 1.89964, 1.89986, 1.90033, 1.90106, 1.97811, 1.98305, 1.99009, 1.97834, 1.98854, 1.9794, 1.97756, 1.99738, 1.97177, 1.90357, 1.90446, 1.99328, 2.00345, 2.01035, 2.00327, 1.99973, 1.99656, 1.99556, 1.9892, 1.99746, 2.00802, 1.98831, 1.98995, 2.00768, 2.00769, 2.01095, 1.91329, 1.9896, 1.99016, 1.99008, 2.00914, 1.99062, 2.00431, 2.00752, 1.99101, 2.00017, 1.9153, 2.00154, 1.98989, 2.00457, 2.01411, 2.02331, 1.91621, 1.91493, 2.00691, 1.91377, 1.99402, 1.99339, 1.99272, 1.99672, 1.99648, 2.00227, 1.99942, 1.99965, 1.9998, 1.99302, 1.99423, 1.99983, 2.01181, 2.00423, 1.9031, 1.90294, 1.90222, 1.89981, 1.90064, 1.93473, 1.84756, 1.92123, 1.89663, 1.84493, 1.94152, 1.84761, 1.84246, 1.84682, 1.84711, 1.84666, 1.84684, 1.84963, 1.84966, 1.85066, 1.85193, 1.85219, 1.85204, 1.85118, 1.85325, 1.90691, 1.85416, 1.85607, 1.85699, 1.93507, 1.85489, 1.93199, 1.85396, 2.03221, 2.04226, 1.84841, 1.84751, 1.84721, 1.84737, 1.89591, 1.89319, 2.03523, 2.02049, 1.84394, 1.83851, 1.83611, 1.83148, 1.84559, 1.77262, 1.77206, 1.76656, 1.76496, 1.81584, 1.76655, 1.7649, 1.7637, 1.81285, 1.76284, 1.76173, 1.81256, 1.84379, 1.75961, 1.75848, 1.86374, 1.75736, 1.86154, 1.83815, 1.83596, 1.80564, 1.8058, 1.75037, 1.86895, 1.80574, 1.75075, 1.87604, 1.75205, 1.87759, 1.87406, 1.87804, 1.75169, 1.75271, 1.75181, 1.87458, 1.87322, 1.80298, 1.7512, 1.87878, 1.75296, 1.75068, 1.74962, 1.87268, 1.85842, 1.75428, 1.75168, 1.75347, 1.75125, 1.85953, 1.75146
