1.76148, 1.75693, 1.75976, 1.76114, 1.7571, 1.75414, 1.85662, 1.83954, 2.00786, 1.75584, 1.75465, 1.75565, 1.75305, 1.75232, 1.75196, 1.83781, 1.83958, 1.74854, 1.75027, 1.7465, 1.74847, 1.74959, 1.74422, 1.74539, 1.7456, 1.85282, 1.7472, 1.74527, 1.74803, 1.84911, 1.85143, 1.92602, 1.74635, 1.7475, 1.79557, 1.86402, 1.86471, 1.74255, 1.7956, 1.74282, 1.74173, 1.74175, 1.85432, 1.85468, 1.85292, 1.7375, 1.85814, 1.85203, 1.73647, 1.7352, 1.80651, 1.79678, 1.79907, 1.78848, 1.73608, 1.73807, 1.73848, 1.74012, 1.73827, 1.97662, 1.89141, 1.97057, 1.81333, 1.81499, 1.89061, 1.81479, 1.81407, 1.88941, 1.89331, 1.97008, 1.81197, 1.8938, 1.88828, 1.89203, 1.8942, 1.88638, 1.88581, 1.80967, 1.88639, 1.88601, 1.88334, 1.8828, 1.89748, 1.9873, 1.89708, 1.8825, 1.88021, 1.89581, 1.87932, 1.87964, 1.87908, 1.80238, 1.89662, 1.97931, 1.88207, 1.90142, 1.88213, 1.8799, 1.97965, 1.88338, 1.90238, 1.88318, 1.97982, 1.99444, 1.88943, 1.88995, 1.90676, 1.89288, 1.99014, 1.89595, 1.98788, 1.83687, 1.95445, 1.95543, 1.96676, 1.9588, 1.96596, 1.95397, 1.95436, 1.95497, 1.96782, 1.87946, 1.88111, 1.96184, 1.9618, 1.95955, 1.88206, 1.95633, 1.95894, 1.96229, 1.88307, 1.96111, 1.88307, 1.88312, 1.88631, 1.97524, 1.97899, 1.96577, 1.96573, 1.88855, 2.00035, 1.98649, 1.88984, 1.9846, 1.89247, 1.99036, 1.89411, 1.9758, 1.8917, 1.97224, 1.97133, 1.89619, 1.97757, 1.98317, 1.9919, 1.98657, 1.97878, 1.98549, 1.97543, 1.9945, 2.00163, 1.98313, 1.99306, 1.99287, 1.9927, 1.99187, 1.97635, 1.89941, 2.00277, 1.98606, 1.8999, 1.89995, 1.98633, 1.98738, 1.97767, 1.97868, 1.89998, 1.90003, 1.90045, 1.90128, 1.97601, 1.98033, 1.98146, 1.89999, 1.89952, 1.89676, 1.90289, 1.90356, 1.97926, 1.904, 1.98923, 1.99716, 1.83822, 2.0227, 2.01292, 1.83818, 1.84077, 1.83664, 1.83623, 1.83489, 1.83605, 1.9315, 1.83936, 2.04267, 1.84119, 1.83816, 1.94447, 1.94309, 1.84114, 1.84166, 1.84258, 1.84697, 1.84488, 2.0252, 1.84543, 2.01686, 1.84695, 2.02161, 1.84878, 1.84649, 1.89927, 1.89727, 1.84849, 2.04953, 1.8502, 1.84835, 1.84663, 1.84802, 1.84601, 1.84496, 1.89762, 1.89653, 1.84648, 2.04366, 1.84524, 1.8439, 1.84489, 1.84269, 1.84522, 1.84787, 1.84756, 1.89702, 1.8436, 1.89697, 1.83033, 1.82648, 1.89348, 1.7723, 1.77158, 1.87618, 1.88245, 1.76612, 1.76514, 1.81296, 1.8787, 1.87503, 1.75985, 1.87897, 1.87751, 1.75569, 1.8798, 1.88595, 1.88018, 1.75507, 1.75421, 1.75317, 1.75128, 1.8823, 1.74943, 1.8014, 1.75198, 1.88252, 1.75174, 1.74933, 1.74909, 1.85572, 1.75014, 1.75005, 1.75081, 1.74827, 1.88228, 1.75082, 1.75124, 1.81402, 1.74995, 1.74953, 1.86664, 1.86883, 1.80398, 1.95302, 1.74816, 1.74827, 1.74557, 1.74733, 1.74612, 1.86734, 1.86675, 1.74454, 1.74645, 1.87212
1.75998, 1.75847, 1.75789, 1.76108, 1.75822, 1.75611, 1.93519, 1.75414, 1.75596, 2.05214, 1.75124, 1.75225, 1.7555, 1.75344, 1.81231, 1.81307, 1.81108, 1.7518, 1.75146, 1.74842, 1.74858, 1.74734, 1.74885, 1.74597, 1.7483, 1.7463, 1.74568, 1.85241, 1.84665, 1.74702, 1.74559, 1.7449, 1.74357, 1.79571, 1.74424, 1.74398, 1.74371, 1.74445, 1.84721, 1.74271, 1.846, 1.8474, 1.83002, 1.73865, 1.73997, 1.74045, 1.85688, 1.85731, 1.7386, 1.84226, 1.84768, 1.83868, 1.8266, 1.82692, 1.73543, 1.73763, 1.73983, 1.74095, 1.7409, 1.81725, 1.81605, 1.97551, 1.97369, 1.8163, 1.81663, 1.89076, 1.81296, 1.81288, 1.98186, 1.88852, 1.81285, 1.88727, 1.8906, 1.88599, 1.88643, 1.8863, 1.88776, 1.88616, 1.88479, 1.89386, 1.88392, 1.80706, 1.88313, 1.88367, 1.88434, 1.88274, 1.88335, 1.80205, 1.99703, 1.89889, 1.8801, 1.87676, 1.87543, 1.89965, 1.88056, 1.90301, 1.90342, 1.9064, 1.88017, 1.98293, 1.90349, 1.90293, 1.80948, 1.80979, 1.81002, 1.90338, 1.90708, 1.89441, 1.9027, 1.90367, 1.83713, 1.95847, 1.95854, 1.95934, 1.88056, 1.96368, 1.9736, 1.95935, 1.95874, 1.95689, 1.88079, 1.88063, 1.88082, 1.87895, 1.88523, 1.96399, 1.96469, 1.96235, 1.95903, 1.96157, 1.96013, 1.96095, 1.88532, 1.97575, 1.97983, 1.97961, 1.96284, 1.96223, 1.96367, 1.98208, 1.98451, 1.88964, 1.98406, 1.8907, 1.97824, 1.89346, 1.97274, 1.97945, 1.9747, 1.9836, 1.9892, 1.97964, 1.97301, 1.97214, 1.97256, 1.89778, 1.9982, 1.9835, 1.99042, 1.98378, 2.01674, 2.01779, 1.99651, 1.98693, 1.97639, 1.98958, 1.98052, 1.98367, 1.9967, 1.99346, 1.97931, 1.97778, 1.97664, 1.89815, 1.89986, 1.99815, 1.98016, 1.90085, 1.98677, 1.97912, 1.97908, 1.97874, 1.90057, 1.90139, 1.9002, 1.90028, 1.90291, 1.90262, 2.0024, 1.98366, 1.90633, 1.97985, 1.93743, 2.04225, 2.02465, 2.03848, 1.8396, 1.93444, 1.8375, 1.83674, 1.83805, 1.83897, 1.84102, 1.83999, 1.84157, 1.83975, 1.94457, 1.8431, 2.03075, 2.02153, 1.84371, 1.84291, 1.84437, 1.84583, 1.84546, 1.89669, 1.84795, 1.89973, 1.84806, 1.8994, 1.85126, 1.89844, 1.84813, 1.84717, 1.84809, 1.84875, 2.03802, 1.85158, 1.84588, 1.848, 2.03158, 1.847, 1.8462, 1.8474, 1.89895, 1.91151, 1.93046, 1.8439, 1.84816, 1.84663, 1.84761, 1.8453, 1.93075, 1.84651, 1.77936, 1.77624, 1.89652, 1.89432, 1.7706, 1.86601, 1.87842, 1.7664, 1.76551, 1.76278, 1.85916, 1.81094, 1.76136, 1.87938, 1.88071, 1.75801, 1.87993, 1.88578, 1.75587, 1.866, 1.80338, 1.80502, 1.8034, 1.87826, 1.85393, 1.85049, 1.84797, 1.84549, 1.74956, 1.74995, 1.86485, 1.75044, 1.74801, 1.88488, 1.75041, 1.75009, 1.88073, 1.75087, 1.87778, 1.87741, 1.74564, 1.74558, 1.75189, 1.74968, 1.91983, 1.95606, 1.93403, 1.74503, 1.87486, 1.8476, 1.86349, 1.86069, 1.86914, 1.86861, 1.74193, 1.74406
1.7583, 1.76115, 1.76047, 1.76129, 1.75875, 1.76067, 1.75626, 1.75485, 1.75428, 1.75517, 1.75587, 1.75454, 1.75421, 1.75512, 1.75255, 1.74942, 1.75074, 1.75293, 1.75228, 1.74977, 1.75038, 1.92819, 1.93136, 1.75048, 1.74912, 1.74974, 1.751, 1.74743, 1.84462, 1.8455, 1.7469, 1.74909, 1.74811, 1.85266, 1.74462, 1.74462, 1.74417, 1.74546, 1.92738, 1.7425, 1.79255, 1.74186, 1.8555, 1.85852, 1.74016, 1.86467, 1.85946, 1.86019, 1.83669, 1.83819, 1.84677, 1.73727, 1.73916, 1.7389, 2.00767, 2.00691, 1.74033, 1.74106, 1.81671, 1.81828, 1.81667, 1.81013, 1.8161, 1.81673, 1.89314, 1.81719, 1.81322, 1.88994, 1.8113, 1.81491, 1.88955, 1.81367, 1.9935, 1.88895, 1.89986, 1.88633, 1.89072, 1.89119, 1.8824, 1.97257, 1.88253, 1.88659, 1.80775, 1.89757, 1.89782, 1.89659, 1.8058, 1.98506, 1.80217, 1.89938, 1.80341, 1.87948, 1.90088, 1.87769, 1.80389, 1.88548, 1.80263, 1.88001, 1.90331, 1.80388, 1.88525, 1.90272, 1.90335, 1.88628, 1.88762, 1.89075, 1.89327, 1.81649, 1.90665, 1.98246, 1.98645, 1.97319, 1.9646, 1.95992, 1.95893, 1.95721, 1.98978, 1.96995, 1.9584, 1.95905, 1.88, 1.87959, 1.87974, 1.87928, 1.88209, 1.96585, 1.9633, 1.88301, 1.88288, 1.96595, 1.97711, 1.96216, 1.97346, 1.96127, 1.97464, 1.96307, 1.96196, 1.96341, 1.88689, 1.99013, 1.98994, 1.89005, 1.88902, 1.97353, 1.9726, 1.98682, 1.97403, 1.98258, 1.98981, 1.97541, 1.98052, 1.89443, 1.97723, 1.97605, 1.97505, 1.98139, 1.99959, 1.99074, 1.98398, 1.89975, 1.89948, 1.97974, 1.98973, 1.97879, 1.97788, 1.97631, 1.99355, 1.97637, 1.97716, 1.97702, 1.98557, 1.99685, 1.99127, 1.89758, 1.98067, 2.0043, 1.99719, 1.97574, 1.987, 1.98184, 1.97423, 1.89759, 1.90002, 1.9014, 1.90158, 1.90225, 1.90176, 2.00384, 1.97978, 1.99996, 1.98107, 1.98358, 1.88767, 1.83997, 1.84058, 1.83817, 1.83782, 1.91324, 1.88897, 1.88905, 2.02123, 1.94428, 1.94315, 1.89086, 1.89011, 1.83749, 1.83896, 1.84105, 1.8411, 1.84477, 2.0342, 1.84428, 1.84586, 1.84357, 1.84539, 1.84793, 1.89613, 1.84639, 1.84827, 1.84741, 1.8487, 1.84752, 1.8483, 1.84869, 1.8472, 1.84809, 1.84631, 1.84704, 1.89627, 2.02229, 2.03319, 1.84787, 1.84979, 1.8475, 1.8459, 1.84713, 1.8995, 1.84859, 1.84719, 1.84486, 1.84615, 1.91096, 1.91207, 1.91293, 1.77469, 1.8801, 1.87644, 1.87296, 1.7696, 1.87172, 1.81641, 1.86203, 2.05483, 1.75961, 1.86196, 1.85806, 1.76232, 1.75792, 1.75606, 1.87718, 1.7584, 1.86033, 1.80627, 1.80576, 1.86773, 1.8662, 1.81005, 1.75087, 1.85581, 1.8537, 1.75159, 1.75262, 1.75382, 1.80096, 1.86451, 1.80059, 1.75079, 1.75099, 1.88107, 1.74887, 1.8823, 1.74762, 1.87899, 1.87685, 1.74773, 1.74842, 1.74854, 1.74868, 1.74838, 1.84049, 1.74892, 1.74844, 1.74728, 1.86867, 1.74861, 1.86311, 1.87164, 1.74532, 1.74444, 1.86656
1.76204, 2.02138, 1.75891, 1.75959, 1.7617, 1.75673, 1.75851, 1.75793, 1.75702, 1.75521, 1.75489, 1.75645, 1.75464, 1.75479, 1.75416, 1.75435, 1.75437, 1.75355, 1.75081, 1.75129, 1.74939, 1.75111, 1.75189, 1.93039, 1.75052, 1.75098, 1.75115, 1.74936, 1.74642, 1.74839, 1.85426, 1.74745, 1.74721, 1.74764, 2.01694, 1.83877, 1.74728, 1.74448, 2.02159, 1.79486, 1.79401, 1.83746, 1.79374, 1.86102, 1.74133, 1.74156, 1.86209, 1.74427, 1.83933, 1.74008, 1.74146, 1.74079, 1.74176, 1.7409, 1.74266, 1.73898, 1.73865, 1.73916, 1.74062, 1.97358, 1.97369, 1.81859, 1.81519, 1.81425, 1.81376, 1.89565, 1.81447, 1.97026, 1.97155, 1.89247, 1.89269, 1.89076, 1.89322, 1.88805, 1.89061, 1.8881, 1.88602, 1.88953, 1.88199, 1.88342, 1.80724, 1.88532, 1.80696, 1.97508, 1.89776, 1.89758, 1.80561, 1.88538, 1.89955, 1.90044, 1.80326, 1.89952, 1.80402, 1.97708, 1.87739, 1.87893, 1.87935, 1.98663, 1.90124, 1.90425, 1.90403, 1.88823, 1.90645, 1.88947, 1.88973, 1.9903, 1.98958, 1.90149, 1.9035, 1.99367, 1.98592, 1.95382, 1.95894, 1.95508, 1.95578, 1.95308, 1.88037, 1.97026, 1.9668, 1.95876, 1.88112, 1.8817, 1.88059, 1.88123, 1.88162, 1.88276, 1.96534, 1.95934, 1.8813, 1.95946, 1.98239, 1.98043, 1.97662, 1.9862, 1.98765, 1.88622, 1.96251, 1.96569, 1.99757, 1.99425, 1.99779, 1.99663, 1.98587, 1.98689, 1.9725, 1.89144, 1.96876, 1.98157, 1.9787, 1.8948, 1.99019, 1.97542, 1.89656, 1.98975, 1.98266, 1.98442, 1.97158, 1.99017, 1.98763, 1.98277, 1.99308, 1.90056, 2.00307, 1.90045, 1.97709, 1.97747, 1.89954, 1.97738, 2.00022, 1.98114, 1.97374, 1.97918, 1.98321, 1.9806, 1.9903, 1.99247, 1.97307, 1.9927, 1.98648, 1.97978, 1.89996, 1.9, 1.89973, 1.903, 1.9004, 1.9015, 1.98137, 1.98952, 1.98028, 1.97998, 2.00354, 1.99141, 1.88892, 1.83778, 1.83792, 1.83762, 1.83783, 1.83732, 1.89932, 1.84046, 1.92874, 1.84056, 1.94096, 1.83891, 1.84215, 1.89275, 1.83948, 1.84217, 1.8413, 1.8415, 1.84259, 2.02799, 2.03166, 1.84488, 1.84528, 1.89414, 1.93466, 2.02192, 2.02285, 1.84946, 1.84893, 1.84685, 1.84794, 1.84702, 1.93568, 1.93418, 1.94803, 1.84827, 1.89745, 1.85021, 1.8462, 1.84552, 1.84867, 1.84737, 1.8475, 1.84599, 1.84513, 1.8445, 1.84823, 1.84668, 1.84811, 1.84774, 1.84491, 1.91123, 1.77655, 1.77505, 1.82206, 1.82241, 1.76939, 1.86176, 1.81692, 1.81594, 1.81376, 1.75935, 1.76257, 1.7623, 1.86519, 1.75868, 1.75864, 1.75919, 1.88214, 1.75781, 1.88387, 1.80537, 1.86545, 1.86862, 1.86883, 1.85337, 1.75305, 1.75178, 1.75276, 1.85277, 1.75259, 1.75265, 1.86497, 1.8797, 1.74759, 1.75035, 1.74927, 1.75119, 1.75137, 1.74842, 1.74698, 1.74807, 1.8771, 1.74882, 1.74721, 1.87303, 1.87281, 1.74863, 1.74912, 1.74544, 1.74773, 1.86788, 1.75085, 1.87592, 1.87206, 1.87012, 1.7443, 1.87051
1.86263, 1.76108, 1.76114, 1.75919, 1.75758, 1.75613, 1.75759, 1.85665, 2.01388, 1.85814, 1.75594, 1.75754, 1.75459, 1.80617, 1.80791, 1.80406, 1.82641, 1.75412, 1.75343, 2.01688, 1.75209, 1.75221, 2.01075, 1.75111, 1.75423, 1.74805, 1.75024, 1.74936, 1.75145, 1.75025, 1.75148, 1.7486, 1.75078, 1.74802, 1.74835, 1.74664, 1.74834, 1.79738, 1.74565, 1.74615, 1.74505, 1.74519, 1.8602, 1.74197, 1.74371, 1.74295, 1.85144, 1.74208, 1.7422, 1.73924, 1.84695, 1.74109, 1.74114, 1.84841, 1.74386, 1.74084, 2.0149, 1.74342, 1.8185, 1.81952, 1.9727, 1.81744, 1.81602, 1.89253, 1.81672, 1.81658, 1.81543, 1.98322, 1.89216, 1.89919, 1.89543, 1.89673, 1.89654, 1.89015, 1.88894, 1.97925, 1.89691, 1.97848, 1.89215, 1.88987, 1.89964, 1.88526, 1.88332, 1.88382, 1.88326, 1.89894, 1.89964, 1.90092, 1.88006, 1.87562, 1.80439, 1.88023, 1.90281, 1.97751, 1.87959, 1.98036, 1.88153, 1.88254, 1.80439, 1.90449, 1.90442, 1.90386, 1.90988, 1.9077, 1.9061, 1.81374, 1.89296, 1.90113, 1.90161, 2.00594, 2.0009, 1.95449, 1.95793, 1.95724, 1.95789, 1.95584, 1.95593, 1.95584, 1.96948, 1.98273, 1.88085, 1.88069, 1.88007, 1.9576, 1.88245, 1.9629, 1.96353, 1.95863, 1.88117, 1.88341, 1.96137, 1.95947, 1.96233, 1.88942, 1.88742, 1.88659, 1.96437, 1.99336, 1.98238, 1.9665, 1.99557, 1.88916, 2.0066, 1.98927, 1.89271, 1.95958, 1.89257, 1.98898, 1.9791, 1.97802, 1.97996, 1.89587, 1.98413, 1.89656, 1.96978, 1.89941, 1.98937, 1.987, 1.99278, 1.89891, 1.97381, 1.97971, 1.97578, 1.9927, 1.99299, 1.98383, 1.97675, 1.98431, 1.98189, 1.98232, 1.97929, 1.97568, 1.99948, 1.98155, 1.97678, 1.97538, 1.97616, 1.98986, 1.97612, 1.97746, 1.97876, 1.9784, 1.97897, 1.90091, 1.90103, 1.9, 1.97917, 1.99968, 1.99045, 1.99351, 2.01375, 1.99423, 1.93017, 2.01766, 1.83859, 1.83924, 1.83869, 1.83748, 1.83576, 2.02167, 1.83888, 1.84117, 1.83991, 1.84096, 1.90577, 1.89322, 1.89304, 1.89271, 1.89458, 1.94075, 1.93889, 2.04534, 1.84534, 1.84601, 1.89744, 1.89612, 1.84833, 1.84836, 1.94413, 1.84572, 1.84908, 1.9063, 1.89947, 1.93604, 1.84851, 2.02697, 1.84588, 1.94128, 1.84744, 1.84485, 1.84982, 1.84689, 2.04242, 1.84592, 1.84527, 2.03114, 1.84426, 1.84407, 1.91767, 1.84478, 1.8455, 1.84451, 1.84464, 1.90665, 1.8665, 1.77446, 1.77014, 1.76781, 1.76913, 1.76939, 1.81818, 1.8161, 1.76085, 1.76413, 1.87853, 1.85577, 1.75904, 1.75949, 1.80742, 1.75768, 1.75587, 1.75456, 1.84829, 1.807, 1.80482, 1.75381, 1.80552, 1.80265, 1.75067, 1.75103, 1.75144, 1.7509, 1.87814, 1.8828, 1.88252, 1.74888, 1.74985, 1.74998, 1.74745, 1.74753, 1.74644, 1.8652, 1.79977, 1.79808, 1.87902, 1.74876, 1.87302, 1.87287, 1.87545, 1.87167, 1.74745, 1.74712, 1.86879, 1.74637, 1.74749, 1.74482, 1.75199, 2.05934, 1.86831, 1.74401
1.76248, 1.76193, 1.76326, 1.75902, 1.75877, 1.76132, 1.76066, 1.85847, 1.75827, 1.75834, 1.75822, 1.76104, 1.75531, 1.75504, 1.80716, 1.80655, 1.82897, 1.75079, 1.75188, 1.75196, 1.75408, 1.8018, 1.75225, 1.75371, 1.74867, 1.74978, 1.84579, 1.75095, 1.75207, 1.85466, 1.75124, 1.75213, 1.81009, 1.87313, 1.74781, 1.74876, 1.74928, 1.74603, 1.79878, 1.74661, 1.74388, 1.84728, 1.86221, 1.74426, 1.84632, 1.84815, 1.74235, 1.74414, 1.74204, 1.8696, 1.82687, 1.74341, 1.84959, 1.85299, 1.85448, 1.74204, 1.74388, 1.74453, 1.99397, 1.81828, 1.81654, 1.81732, 1.81565, 1.97526, 1.89632, 1.97323, 1.81675, 1.97202, 1.89477, 1.8973, 1.89375, 1.89631, 1.88759, 1.88814, 1.89756, 1.89753, 1.88784, 1.8963, 1.89578, 1.88498, 1.88455, 1.99694, 1.88371, 1.90195, 1.885, 1.80482, 1.80308, 1.80475, 1.90125, 1.87892, 1.89936, 1.89989, 1.97948, 1.80302, 1.90227, 1.88279, 1.88056, 1.90513, 1.88063, 1.8065, 1.88644, 1.88632, 1.88386, 1.88584, 1.90622, 1.89085, 1.89319, 1.8937, 1.90486, 1.98328, 1.98101, 1.98251, 1.95794, 1.95954, 1.95694, 1.96545, 1.97595, 1.96217, 1.95879, 1.87928, 1.8806, 1.88215, 1.96098, 1.87913, 1.95857, 1.95827, 1.96511, 1.97494, 1.97639, 1.97604, 1.96218, 1.982, 1.9816, 2.00927, 1.88662, 1.96468, 1.98596, 1.88865, 1.97576, 1.98729, 1.96834, 1.96865, 1.99387, 1.98274, 1.89309, 1.97919, 1.99704, 1.89417, 1.89335, 1.96861, 1.97826, 1.97884, 1.98284, 1.99394, 1.97223, 1.97279, 1.9718, 1.97327, 1.89606, 1.9755, 1.97581, 1.99966, 1.99389, 1.99343, 1.97688, 1.99218, 1.99263, 1.97968, 1.90045, 1.99989, 1.99663, 1.99191, 1.983, 1.99265, 1.97664, 1.9936, 1.99795, 2.00029, 2.00722, 1.98317, 1.90065, 1.89942, 1.90159, 1.90155, 1.90301, 1.97949, 1.98063, 1.90293, 1.97971, 1.98739, 2.00415, 2.00703, 1.93635, 2.02528, 1.84049, 1.84004, 1.88921, 1.83827, 1.83674, 2.01802, 1.84105, 1.84139, 2.01717, 1.84107, 1.84239, 1.89175, 1.84159, 1.89238, 1.84449, 1.9097, 1.93798, 1.93561, 1.84764, 1.84578, 1.89656, 1.92994, 1.89717, 1.89722, 1.89586, 1.84936, 1.84836, 1.84759, 1.84556, 1.84816, 1.848, 1.89796, 1.84503, 1.89913, 1.8981, 1.94517, 1.84576, 2.02697, 1.84712, 2.02046, 1.84724, 1.84572, 1.84847, 1.92231, 1.91995, 1.84532, 1.847, 1.84733, 1.84749, 1.84396, 1.84444, 1.8782, 1.77205, 1.76975, 1.76492, 1.76804, 1.76696, 1.86384, 1.86431, 1.76158, 1.76131, 1.87925, 1.87622, 1.76123, 1.75651, 1.75795, 1.87842, 1.87741, 1.75328, 1.75146, 1.84624, 1.81726, 1.7537, 1.7526, 1.7492, 1.75221, 1.75046, 1.88089, 1.7506, 1.88166, 1.74956, 1.88252, 1.75123, 1.88221, 1.87966, 1.74813, 1.80014, 1.86568, 1.80038, 1.79944, 1.7991, 1.75088, 1.7452, 1.74746, 1.87214, 1.85021, 1.75028, 1.74764, 1.79953, 1.74425, 1.74765, 1.7474, 1.7446, 1.86658, 1.74738, 1.74565
1.76308, 1.76511, 1.76323, 1.7644, 1.76086, 1.7624, 1.76219, 1.76131, 1.75654, 1.75944, 1.75946, 1.76125, 1.84162, 1.75794, 1.80571, 1.80615, 1.7524, 1.75504, 1.75422, 1.75264, 2.01866, 1.75242, 1.7542, 1.75229, 1.75465, 1.75118, 1.75083, 1.75148, 1.75107, 1.74953, 1.7513, 1.79936, 1.74992, 1.74933, 1.75028, 1.74812, 1.74867, 1.79962, 1.80139, 2.03125, 1.84777, 1.84868, 1.74733, 1.74775, 1.85051, 1.85006, 1.74531, 1.74619, 1.84935, 1.7446, 1.74483, 1.74526, 1.74164, 1.8557, 1.74502, 1.74554, 1.74603, 1.74704, 1.81556, 1.81556, 1.89334, 1.89285, 1.89046, 1.89154, 1.81693, 1.8959, 1.89144, 1.8935, 1.89651, 1.88736, 1.8972, 1.89363, 1.88814, 1.88653, 1.89029, 1.88851, 1.89006, 1.89858, 1.89913, 1.89834, 1.88522, 1.88342, 1.89815, 1.88348, 1.88258, 1.88293, 1.97921, 1.9005, 1.87944, 1.80321, 1.90331, 1.88223, 1.90046, 1.80428, 1.88053, 1.90397, 1.88105, 1.88227, 1.88349, 1.88359, 1.80719, 1.88922, 1.81053, 1.88896, 1.98213, 1.89323, 1.81807, 1.90416, 1.90398, 1.98277, 2.01785, 1.97349, 1.88148, 1.96502, 1.88315, 1.88268, 1.96158, 1.97641, 1.95911, 1.88108, 1.95957, 1.95889, 1.9585, 1.95992, 1.88209, 1.9595, 1.95983, 1.96022, 1.88386, 1.97789, 1.96021, 1.95934, 1.96213, 1.96224, 1.96494, 1.96337, 1.96291, 1.96639, 1.88952, 1.96937, 1.97712, 1.98977, 1.97396, 1.98405, 1.97748, 1.98251, 1.97096, 1.99691, 1.98307, 1.98568, 1.97182, 1.98463, 1.98662, 1.99594, 1.89898, 1.99035, 1.98312, 1.97406, 1.99142, 1.98481, 1.90014, 1.99123, 1.98143, 1.89899, 1.8994, 1.99354, 1.99277, 1.97909, 1.97735, 2.00832, 1.98931, 1.97894, 1.97603, 1.98006, 1.99348, 1.9001, 1.99314, 1.99211, 1.99186, 1.97779, 1.9024, 1.90236, 1.90269, 1.90144, 1.90206, 1.90091, 1.97683, 1.99269, 1.99043, 1.99641, 1.9795, 1.90445, 1.83906, 1.83884, 1.89019, 1.89021, 1.8407, 1.83864, 1.93483, 1.8411, 1.93841, 1.83931, 1.84058, 2.01945, 1.89239, 1.89066, 1.84397, 1.84215, 1.8935, 1.89407, 1.89737, 1.84519, 1.84231, 1.84753, 1.89646, 2.00654, 1.84789, 1.89739, 1.84912, 1.84737, 1.92718, 2.04127, 1.84917, 1.84463, 1.84792, 1.84631, 1.84744, 1.8473, 1.89785, 1.84738, 1.84659, 1.84525, 2.04682, 1.84563, 2.01506, 1.84827, 1.84744, 1.84564, 1.84448, 1.89423, 1.89618, 1.84197, 1.84323, 1.84191, 1.9259, 1.77542, 1.77126, 2.04904, 1.76906, 1.76806, 1.76366, 1.76348, 1.76605, 1.7602, 1.85444, 1.76105, 1.76048, 1.75956, 1.88165, 1.88024, 1.85874, 1.87958, 1.87868, 1.8495, 1.75158, 1.75486, 1.80248, 1.87968, 1.75062, 1.74815, 1.75299, 1.74922, 1.75107, 1.75123, 1.74894, 1.75158, 1.75037, 1.88504, 1.74581, 1.74474, 1.79974, 1.74768, 1.79959, 1.74859, 1.74839, 1.74738, 1.74876, 1.74969, 1.74889, 1.74771, 1.74772, 1.79693, 1.80095, 1.79937, 1.74638, 1.86147, 1.87098, 1.79691, 1.8689, 1.86474
1.76506, 1.76772, 1.9381, 1.76485, 1.76468, 1.76407, 1.76281, 1.76171, 1.93615, 1.76062, 1.75911, 1.76102, 1.84368, 1.75851, 1.75837, 1.80596, 1.80961, 1.84305, 1.75416, 1.75497, 1.9338, 1.9382, 1.75383, 1.75396, 1.75205, 2.01316, 1.80384, 1.80331, 1.75098, 1.80336, 1.75026, 1.8012, 1.75246, 1.84976, 1.74892, 1.74644, 1.74958, 1.75031, 1.85108, 1.74769, 1.7491, 1.9307, 1.74687, 1.74582, 1.74605, 1.85388, 1.85239, 1.74618, 1.74579, 1.74451, 1.74626, 1.74652, 1.85173, 1.7456, 1.74624, 1.74884, 1.74847, 1.7479, 1.79767, 1.81655, 1.81697, 1.89555, 1.81876, 1.97263, 1.98048, 1.81733, 1.81972, 1.81572, 1.8957, 1.88941, 1.89142, 1.89215, 1.89737, 1.89329, 1.90024, 1.89996, 1.80994, 1.80975, 1.90021, 1.97704, 1.89744, 1.90068, 1.88359, 1.90035, 1.90383, 1.90302, 1.90105, 1.80339, 1.88077, 1.87948, 1.8045, 1.88017, 1.90269, 1.88194, 1.80392, 1.87888, 1.90635, 1.90461, 1.9069, 1.90548, 1.90452, 1.8847, 1.80863, 1.89105, 1.98395, 2.00623, 1.89616, 1.90323, 1.82329, 2.01748, 2.00782, 1.97651, 1.96977, 1.97362, 1.88396, 1.88379, 1.96405, 1.96287, 1.95671, 1.88255, 1.88151, 1.96193, 1.95995, 1.95996, 1.96235, 1.88207, 1.95816, 1.883, 1.96913, 1.97854, 1.97757, 1.98783, 1.96185, 1.96242, 1.99998, 1.97675, 1.967, 1.97603, 1.96884, 1.88953, 1.97903, 1.89085, 1.88988, 1.8892, 1.97658, 1.9811, 1.89324, 1.89395, 1.99892, 1.97206, 1.97208, 1.97021, 1.89628, 1.98093, 1.97753, 1.97653, 1.98693, 1.9757, 1.97586, 1.99014, 1.99058, 1.99801, 1.9864, 1.97666, 1.9927, 1.97819, 1.97626, 1.97978, 1.99023, 1.9817, 2.00512, 1.98101, 1.89939, 1.89954, 1.89777, 1.97296, 1.9756, 1.99, 1.97887, 1.97712, 1.89951, 1.89947, 1.90046, 1.89959, 1.90303, 1.90117, 1.98104, 1.99338, 2.00287, 1.90235, 1.97989, 1.98034, 1.93599, 1.83847, 1.839, 1.88908, 2.02677, 1.83685, 1.83782, 1.84047, 1.83897, 1.94189, 1.84, 2.03339, 2.01702, 1.89146, 1.90668, 1.89308, 1.84299, 1.93124, 1.93016, 1.84485, 2.02881, 2.02962, 1.89766, 1.92869, 1.89806, 1.89936, 1.89723, 1.8476, 1.90808, 1.8462, 2.02866, 2.0549, 1.84643, 1.84666, 1.84768, 1.84616, 1.84739, 1.844, 1.84418, 1.84447, 1.84262, 1.84736, 1.84536, 2.01898, 2.03556, 1.8475, 1.84502, 1.84429, 1.84511, 1.84796, 1.84218, 1.84014, 1.77404, 1.77266, 1.77162, 1.77025, 1.76876, 1.76709, 1.76396, 1.93009, 1.76319, 1.87713, 1.87676, 1.87638, 1.75888, 1.87529, 1.75828, 1.88186, 1.8618, 1.75509, 1.75386, 1.75414, 1.7537, 1.75461, 1.8032, 1.75177, 1.75115, 1.8001, 1.74957, 1.74851, 1.74942, 1.88166, 1.75146, 1.86915, 1.75076, 1.74855, 1.74569, 1.84459, 1.74527, 1.74832, 1.75083, 1.87202, 1.7477, 1.80124, 1.75038, 1.74795, 1.87224, 1.74805, 1.87135, 1.85583, 1.85314, 1.74816, 1.75014, 1.74719, 1.87278, 1.74773, 1.86976, 1.86655
1.76293, 1.76784, 1.76623, 1.76308, 1.76332, 1.76433, 1.76498, 1.76317, 1.76176, 1.76186, 1.75549, 1.75999, 1.75861, 1.75902, 1.80855, 1.75658, 1.80682, 1.75536, 1.75756, 1.75409, 1.93783, 1.93862, 1.93592, 1.84904, 1.75427, 1.93121, 1.86149, 1.75062, 1.75145, 1.75254, 1.75349, 1.80103, 1.84129, 1.84658, 1.74807, 1.74954, 1.75073, 1.7525, 1.74972, 1.74879, 1.7512, 1.74549, 1.74838, 1.85715, 1.74715, 1.74715, 1.74825, 1.74553, 1.85271, 1.74286, 1.74251, 1.86916, 1.7453, 1.79678, 1.74727, 1.74697, 1.74561, 1.74762, 1.74885, 1.81799, 1.81792, 1.89881, 1.89399, 1.8989, 1.89373, 1.97392, 1.97543, 1.81689, 1.89081, 1.89292, 1.89675, 1.89078, 1.8152, 1.89643, 1.88875, 1.88983, 1.88641, 1.88609, 1.88697, 1.88856, 1.80777, 1.90349, 1.9019, 1.88382, 1.80668, 1.80501, 1.9898, 1.88196, 1.90157, 1.88249, 1.88002, 1.88062, 1.98229, 1.99722, 1.99152, 1.98645, 1.80588, 1.88031, 1.80597, 1.80645, 1.90778, 1.99992, 1.80985, 1.90661, 1.99302, 1.90463, 1.90739, 1.90694, 1.90637, 1.90626, 1.99226, 1.97548, 1.98425, 1.96596, 1.95929, 1.96107, 1.8805, 1.96235, 1.9595, 1.95853, 1.95972, 1.96257, 1.96169, 1.96225, 1.88294, 1.95828, 1.96164, 1.8846, 1.88362, 1.97937, 1.96616, 1.96155, 1.97993, 1.99447, 1.97338, 1.88599, 1.98702, 1.99281, 1.99048, 1.96583, 1.987, 2.00011, 1.97704, 1.98053, 1.98397, 1.9859, 1.98559, 1.89517, 1.99647, 1.99258, 2.00103, 1.99175, 1.89639, 1.89714, 1.89841, 1.97723, 1.99932, 1.89889, 1.97984, 1.98208, 1.9781, 1.90175, 1.98381, 1.98598, 1.99058, 1.90002, 1.97616, 1.99701, 1.99557, 1.99145, 1.90202, 1.90026, 1.98708, 1.90005, 1.98723, 1.97729, 1.97709, 1.99467, 1.98742, 1.89947, 1.90325, 1.90268, 1.90047, 1.89988, 1.90134, 1.90638, 1.98055, 1.98263, 1.99285, 2.00619, 1.98073, 1.99639, 1.93757, 1.8397, 1.89226, 1.84056, 1.93415, 1.94074, 2.0187, 1.94387, 1.83683, 1.94465, 1.8358, 1.83951, 1.84098, 1.89261, 1.89231, 1.90627, 1.84193, 1.84111, 1.84231, 1.84342, 1.84417, 2.0454, 1.84723, 1.84836, 1.847, 1.8451, 1.84438, 1.84765, 1.84836, 1.84708, 2.02734, 1.84861, 1.89652, 1.84835, 1.89649, 1.8975, 1.84513, 1.84505, 1.84446, 2.02359, 1.84554, 1.8952, 1.84718, 1.84714, 1.84737, 1.84546, 2.04156, 1.84754, 1.84434, 1.84411, 1.84602, 1.84428, 1.7762, 1.77198, 1.77285, 1.77185, 1.76802, 1.87165, 1.7647, 1.76576, 1.87682, 1.76236, 1.76152, 1.85542, 1.75922, 1.7588, 1.75857, 1.87635, 1.87835, 1.84839, 1.75117, 1.87882, 1.75538, 1.75476, 1.7522, 1.75095, 1.75286, 1.80043, 1.75058, 1.79921, 1.74766, 1.74879, 1.74729, 1.87239, 1.7512, 1.75099, 1.75094, 1.8775, 1.87986, 1.74846, 1.74706, 1.75144, 1.74917, 1.87281, 1.88078, 1.87658, 1.87605, 1.87582, 1.86461, 1.74897, 1.748, 1.74647, 1.86471, 1.74724, 1.86964, 1.86527, 1.7959, 1.7454
1.76522, 1.76575, 1.76841, 1.76479, 1.76248, 1.75938, 1.76296, 1.76218, 1.76126, 2.01781, 1.75822, 1.75979, 1.76271, 1.75772, 1.92035, 1.75838, 1.75779, 1.8611, 1.86226, 1.85844, 1.75471, 1.75583, 1.75466, 1.75419, 1.75434, 1.75563, 1.85606, 1.85486, 1.75378, 1.75446, 1.85686, 1.80233, 1.80305, 1.75119, 1.80234, 1.75065, 1.75139, 1.75253, 1.74798, 1.74827, 1.75072, 1.74968, 1.85005, 1.8518, 1.74792, 1.74582, 1.74589, 1.74455, 1.74525, 1.74483, 1.84657, 1.851, 1.74861, 1.74837, 1.74772, 1.7491, 1.7499, 1.93341, 1.75123, 1.89729, 1.8962, 1.89441, 1.81813, 1.89439, 1.8964, 1.81628, 1.89342, 1.89541, 1.89431, 1.90003, 1.81265, 1.8963, 1.89003, 1.81278, 1.8126, 1.98554, 1.89889, 1.90331, 1.88885, 1.81028, 1.90022, 1.88383, 1.88417, 1.90128, 1.9012, 1.98958, 1.88531, 1.88636, 1.806, 1.87959, 1.90499, 1.88069, 1.90377, 1.80584, 1.98312, 1.80349, 1.8798, 1.88213, 1.88266, 1.80655, 1.88592, 1.88645, 1.88719, 1.88934, 1.98556, 1.90656, 1.90762, 1.8973, 1.89879, 1.99693, 2.00314, 2.00332, 1.88309, 1.95933, 1.95962, 1.95881, 1.96186, 1.97219, 1.96493, 1.96017, 1.88394, 1.96138, 1.9657, 1.96085, 1.96141, 1.96076, 1.88375, 1.97708, 1.97556, 1.96983, 1.9921, 1.96131, 1.96094, 1.99083, 1.97032, 1.88769, 1.88911, 1.88917, 1.97327, 1.98955, 1.98922, 1.96149, 1.96301, 1.97718, 1.99647, 2.00793, 1.96969, 1.89631, 1.9803, 1.89638, 1.97236, 1.97184, 1.89675, 1.97878, 1.98599, 1.97984, 1.98282, 1.98309, 1.97606, 1.90056, 1.99017, 1.99134, 1.98407, 1.90006, 1.98762, 1.99056, 1.90046, 1.99352, 2.00311, 1.89617, 1.89613, 1.98749, 1.98945, 1.9943, 1.997, 1.99055, 1.98941, 1.90031, 1.89983, 1.98627, 1.90298, 1.8998, 1.89957, 1.90259, 1.90133, 1.90065, 1.98113, 1.97979, 1.99447, 1.99354, 2.00449, 2.01417, 1.84064, 2.04622, 1.84224, 1.84117, 2.01797, 1.84143, 1.84014, 1.89216, 1.89098, 1.84047, 1.9426, 1.8422, 2.01914, 1.84106, 2.03412, 2.01718, 2.01553, 1.84423, 1.84503, 1.84503, 1.84396, 1.84745, 2.01728, 1.84784, 1.84814, 2.02065, 1.8461, 1.84772, 1.84839, 1.84507, 2.03429, 2.03251, 1.89663, 1.84747, 1.84652, 1.89629, 1.84389, 1.84743, 1.84549, 1.84428, 1.84646, 1.93147, 1.84793, 1.84549, 1.89598, 1.89534, 1.84523, 1.84553, 1.84475, 1.8454, 1.84172, 2.01844, 1.77494, 1.77292, 1.77192, 1.77536, 1.87535, 1.8665, 1.76566, 1.76811, 1.76203, 1.87462, 1.98121, 1.761, 1.87612, 1.75881, 1.75716, 1.75713, 1.75578, 1.88395, 1.88356, 1.88285, 1.88015, 1.87963, 1.8477, 1.75191, 1.75109, 1.74804, 1.80005, 1.80236, 1.80098, 1.74748, 1.74777, 1.74782, 1.74693, 1.8797, 1.88273, 1.85328, 1.87313, 1.7447, 1.74829, 1.87932, 1.87688, 1.87361, 1.74714, 1.87797, 1.87348, 1.74716, 1.87273, 1.87134, 1.74624, 1.79744, 1.74527, 1.79733, 1.79748, 1.74606, 1.74755, 1.7451
1.76792, 1.76857, 1.7644, 1.76436, 1.76587, 1.76354, 1.76481, 1.76345, 2.01776, 2.01917, 1.76026, 1.76143, 1.76168, 1.75988, 1.93505, 1.75884, 1.93599, 1.75806, 1.85676, 1.84207, 1.75701, 1.75767, 1.85797, 1.75583, 1.75779, 1.75408, 1.75477, 1.75499, 1.75437, 1.85838, 1.85952, 1.75298, 1.85456, 1.75423, 1.75056, 1.75114, 1.75452, 1.7522, 1.74835, 1.7482, 1.75053, 1.75044, 1.85557, 1.74953, 1.85402, 1.84845, 1.74764, 1.74834, 1.74874, 1.74758, 1.74685, 1.74764, 1.74952, 1.74937, 1.7476, 1.92873, 1.75166, 1.75118, 1.75446, 1.81845, 1.82055, 1.822, 1.89597, 1.8182, 1.81929, 1.97485, 1.97554, 1.89892, 1.89359, 1.89793, 1.89018, 1.89885, 1.98306, 1.89477, 1.89935, 1.88645, 1.80999, 1.88968, 1.88546, 1.90303, 1.99955, 1.89961, 1.88569, 1.90334, 1.88492, 1.88649, 1.88138, 1.88216, 1.90402, 1.80402, 1.88456, 1.88227, 1.8042, 1.90444, 1.88042, 1.90494, 1.8819, 1.88213, 1.80713, 2.0072, 1.80762, 1.80914, 1.88788, 1.8124, 1.81408, 1.89196, 1.99347, 1.99002, 1.90616, 1.90935, 1.99967, 1.99424, 1.96427, 1.97892, 1.96178, 1.96012, 1.96028, 1.96205, 1.96058, 1.96167, 1.96459, 1.96249, 1.9616, 1.96186, 1.9623, 1.96225, 1.96176, 1.97579, 1.9595, 1.96416, 1.97194, 1.96402, 1.97293, 1.97574, 1.97549, 1.97602, 1.97832, 1.9875, 2.00315, 1.96821, 1.96659, 1.97286, 1.96647, 1.97697, 1.97392, 1.97284, 1.97122, 1.97064, 1.98911, 1.97387, 1.97231, 1.99211, 1.97434, 1.98025, 1.98844, 1.89883, 1.97816, 1.99315, 1.8994, 1.98995, 1.98693, 1.98307, 1.89908, 2.00474, 1.98927, 1.98324, 1.99284, 1.98884, 2.00626, 2.00162, 1.99788, 1.98635, 1.97996, 1.98714, 1.97878, 1.90104, 1.97912, 1.89983, 1.98772, 1.89986, 1.90069, 1.89876, 1.89827, 1.90269, 1.90071, 1.9006, 1.90223, 1.98143, 1.97908, 1.97893, 1.97905, 1.90426, 1.84103, 2.01452, 1.84217, 1.84082, 2.04948, 1.84321, 1.8907, 1.84053, 1.8406, 1.83873, 1.94497, 1.84056, 2.02387, 1.84167, 2.01878, 2.04988, 1.84725, 1.84466, 1.84456, 1.84447, 2.01816, 1.84739, 1.84567, 1.84747, 2.03258, 1.84521, 1.90574, 1.84804, 1.84893, 1.84791, 2.03891, 2.02478, 1.8448, 2.03213, 1.84705, 2.01141, 1.84786, 1.84599, 1.84313, 1.84634, 1.84551, 2.02542, 1.84344, 2.03035, 1.92222, 1.84257, 2.01606, 1.84308, 1.84559, 1.84602, 1.84271, 1.84237, 1.7721, 1.77183, 1.76868, 1.8765, 1.76902, 1.87495, 1.87396, 1.76563, 1.76401, 1.76012, 1.93121, 1.93, 1.75507, 1.86221, 1.75793, 1.86241, 1.86008, 1.75365, 1.88599, 1.84762, 1.85378, 1.7525, 1.85043, 1.84813, 1.88243, 1.88447, 1.74786, 1.74969, 1.74796, 1.74715, 1.7505, 1.74945, 1.74889, 1.74678, 1.74846, 1.74823, 1.88196, 1.74822, 1.74498, 1.74725, 1.87645, 1.87532, 1.87237, 1.86976, 1.79745, 1.84002, 1.74533, 1.74567, 1.79985, 1.74781, 1.74759, 1.74498, 1.85095, 1.74748, 1.86517, 1.74519
1.76863, 1.76515, 1.7663, 2.05222, 1.76618, 1.76799, 1.76786, 1.76349, 2.01959, 2.04459, 1.76072, 1.76214, 1.76471, 1.76326, 1.94096, 1.76169, 1.76285, 1.75857, 1.75881, 1.75835, 1.85514, 1.75909, 2.04149, 1.85973, 1.84554, 2.01404, 1.75739, 1.75453, 1.75405, 1.75483, 1.75452, 1.75453, 1.75749, 1.85175, 1.85536, 1.75234, 1.85111, 1.751, 1.75167, 1.75076, 1.75133, 1.86308, 1.74871, 1.75241, 1.75199, 1.74801, 1.74849, 1.84503, 1.75143, 1.74855, 1.74852, 1.75013, 1.75121, 1.75052, 1.75013, 1.75077, 1.75295, 1.75168, 1.82049, 1.89882, 1.8199, 1.89425, 1.81875, 1.81926, 1.81782, 1.90033, 1.90051, 1.89805, 1.89574, 1.89472, 1.8976, 1.89405, 1.8903, 1.88743, 1.89692, 1.88984, 1.88831, 1.88905, 1.90036, 1.88992, 1.88796, 1.88622, 1.90206, 1.8816, 1.80761, 1.99222, 1.90353, 1.98234, 1.88622, 1.87949, 1.88281, 1.88351, 1.88367, 1.87949, 1.98272, 1.80587, 1.80613, 1.884, 1.88403, 1.90957, 1.88455, 1.88656, 1.9999, 1.81181, 2.01085, 1.89922, 1.8994, 1.89814, 1.90508, 1.98639, 1.99367, 1.88191, 1.96365, 1.96498, 1.95839, 1.88378, 1.96378, 1.96125, 1.95737, 1.96265, 1.88324, 1.96239, 1.96346, 1.965, 1.9633, 1.96628, 1.88374, 1.88392, 1.9614, 1.98066, 1.98082, 1.97339, 1.97824, 1.88687, 1.88616, 1.97675, 1.95423, 1.88995, 1.98697, 1.984, 1.97415, 1.96949, 1.96974, 1.98452, 1.89113, 1.98002, 1.97068, 1.98247, 1.97292, 1.89621, 1.99001, 1.97213, 1.98985, 1.97559, 1.98366, 1.98551, 2.00357, 1.89937, 1.99019, 1.9758, 1.97456, 1.97405, 1.89941, 1.98875, 1.97739, 1.98204, 1.99323, 1.90056, 1.98749, 1.90061, 1.9805, 1.99653, 1.98546, 1.98935, 1.99601, 1.90037, 1.99694, 1.9776, 1.98453, 1.90108, 1.90171, 1.90318, 1.9001, 1.89933, 1.90094, 1.89947, 1.98384, 1.98219, 1.98343, 1.97922, 1.99948, 2.01373, 1.84222, 1.84079, 2.01419, 2.02153, 1.84131, 1.84101, 1.89026, 1.93448, 2.03881, 1.84039, 1.84282, 1.84186, 1.84103, 1.84043, 1.83916, 2.04221, 1.84398, 1.84536, 1.8438, 1.84457, 1.84618, 1.84604, 2.03879, 2.03845, 2.03565, 1.84656, 1.9352, 1.84509, 1.84796, 1.84571, 1.84602, 1.84463, 1.84537, 2.01445, 1.84749, 1.84783, 2.0183, 2.01742, 1.84377, 2.0145, 1.84205, 2.03524, 1.84236, 1.8434, 1.84453, 1.84169, 1.84553, 1.84372, 2.02381, 2.02151, 1.84368, 1.84209, 1.77062, 1.77145, 1.76892, 1.77018, 1.76552, 1.92463, 1.76845, 1.76501, 1.93468, 1.76474, 1.87528, 1.75864, 1.75673, 1.86284, 1.80754, 1.7538, 1.75708, 1.75426, 1.80374, 1.75246, 1.80447, 1.75473, 1.75318, 1.75321, 1.88349, 1.74967, 1.88275, 1.88464, 1.74844, 1.88229, 1.74956, 1.87733, 1.8825, 1.88108, 1.88029, 1.74806, 1.74763, 1.74443, 1.87444, 1.74802, 1.87808, 1.74626, 1.74676, 1.74797, 1.79731, 1.7481, 1.74797, 1.74751, 1.74774, 1.869, 1.86889, 1.74725, 1.74388, 1.86808, 1.79671, 1.79744
1.77018, 1.76882, 1.76357, 1.7667, 1.76787, 1.76707, 1.7677, 1.8613, 1.76499, 1.76461, 1.76481, 2.0398, 2.0335, 2.01772, 1.86527, 1.93894, 1.76126, 1.76089, 1.75936, 1.75918, 1.75977, 1.75739, 1.86147, 1.75833, 1.75874, 1.75798, 1.7579, 1.75375, 1.75504, 1.7574, 1.75267, 1.75454, 1.75532, 1.75305, 1.75332, 1.85491, 1.75437, 1.75465, 1.93565, 1.75266, 1.75122, 1.80242, 1.80161, 1.75231, 1.80154, 1.80057, 1.84141, 1.74922, 1.7479, 1.74834, 1.85193, 1.75235, 1.75206, 1.75081, 1.93264, 1.75234, 1.75206, 1.75437, 1.7542, 1.89964, 1.89961, 1.89874, 1.89532, 1.89993, 1.89358, 1.89335, 1.8933, 1.97638, 1.97674, 1.89382, 1.99739, 1.97367, 1.81341, 1.88922, 1.89161, 1.88937, 1.89953, 1.90162, 1.88649, 1.88813, 1.90458, 1.88496, 1.90448, 1.90358, 1.88567, 1.88274, 1.90386, 1.88368, 1.90589, 1.88231, 1.88066, 1.88141, 1.90674, 2.00308, 1.98659, 1.90513, 1.88083, 1.80619, 1.98429, 1.90952, 1.90868, 1.90859, 1.81208, 1.81336, 1.88876, 1.81658, 1.8955, 1.89327, 1.91011, 1.90973, 1.98373, 1.99324, 1.98659, 1.88425, 1.88431, 1.95914, 1.96014, 1.88236, 1.95925, 1.88358, 1.88437, 1.96498, 1.96459, 1.96596, 1.96474, 1.96561, 1.96563, 1.96533, 1.96148, 1.96165, 1.96195, 1.96354, 1.88694, 1.88731, 1.88739, 1.88772, 1.98949, 1.88882, 1.8895, 1.96482, 1.96347, 1.96414, 1.98508, 1.98237, 1.89306, 1.89409, 1.98046, 1.89595, 1.89442, 1.97317, 1.99505, 1.97329, 1.97297, 1.99642, 1.99546, 1.97859, 1.97835, 1.99322, 1.98916, 1.99697, 1.89893, 1.99307, 1.90059, 1.90096, 1.9858, 1.98049, 1.97345, 1.98747, 1.98641, 1.99381, 1.90142, 1.97428, 2.00348, 1.97604, 1.90132, 1.9754, 1.97327, 1.98359, 1.97624, 1.97981, 1.97664, 1.9007, 1.90163, 1.90031, 1.9001, 1.90181, 1.90266, 1.98335, 2.00082, 1.98107, 1.99806, 1.99674, 1.84082, 1.84404, 1.84297, 1.84092, 1.89256, 1.84058, 1.9482, 1.94502, 1.83813, 1.84336, 1.84182, 1.84373, 1.84138, 1.8396, 1.84419, 1.84302, 1.9415, 1.84538, 1.84498, 1.84738, 1.84544, 1.84479, 1.84752, 1.84705, 1.93232, 1.8463, 1.84742, 1.84798, 1.84757, 1.84565, 1.84669, 1.84536, 1.84639, 2.0203, 1.84584, 2.03883, 1.8448, 1.84458, 1.84377, 2.02465, 1.84065, 1.84438, 1.84711, 1.84295, 1.84085, 1.84079, 1.84162, 1.84186, 1.84248, 2.02359, 1.84142, 1.84126, 1.77244, 1.7705, 1.77137, 1.76962, 1.87583, 1.87361, 1.87813, 1.76377, 1.76309, 1.76122, 1.7606, 1.75866, 1.8093, 1.80894, 1.75733, 1.75499, 1.75473, 1.75312, 1.87825, 1.75274, 1.75239, 1.7507, 1.87236, 1.74939, 1.88285, 1.74988, 1.74989, 1.75116, 1.8846, 1.74509, 1.74812, 1.74859, 1.74649, 1.88002, 1.74816, 1.88173, 1.74755, 1.74669, 1.7478, 1.74543, 1.88226, 1.87539, 1.7995, 1.74728, 1.79908, 1.79726, 1.74927, 1.74915, 1.8688, 1.87173, 1.75101, 1.74826, 1.74857, 1.92007, 1.87047, 1.74695
1.77112, 1.87401, 1.8202, 1.76866, 1.77065, 1.88036, 1.76962, 1.86321, 1.76602, 1.76701, 2.04408, 1.76338, 1.76678, 1.76535, 1.86124, 1.76195, 1.76211, 1.86058, 1.86123, 1.85483, 1.93593, 1.75936, 1.85837, 1.75993, 1.76111, 1.76046, 1.7604, 1.80659, 1.75576, 1.85982, 1.85511, 2.03553, 1.75578, 1.75531, 1.75498, 1.8633, 1.85649, 1.75435, 2.03786, 1.81056, 1.803, 1.75451, 1.75449, 1.75396, 1.80303, 1.80111, 1.80069, 1.75053, 1.75146, 1.7511, 1.75068, 1.75102, 1.75245, 1.75174, 1.75254, 1.75327, 1.75379, 1.75441, 1.75423, 1.89698, 1.90019, 1.89802, 1.89927, 1.89516, 1.89982, 1.89572, 1.89829, 1.98054, 1.8932, 1.90013, 1.89818, 1.8915, 1.89458, 1.88952, 1.89422, 1.89015, 1.90143, 1.90015, 1.88646, 1.88947, 1.80947, 1.88535, 1.90343, 1.80471, 1.80799, 1.88349, 1.88345, 1.88362, 1.90735, 1.90984, 1.88246, 1.90642, 1.88228, 1.80745, 1.90983, 1.80598, 1.88521, 1.88559, 1.99128, 1.90729, 1.88594, 1.88636, 1.88644, 1.88955, 1.89102, 1.892, 1.89324, 1.9076, 1.90066, 1.90934, 1.98647, 2.01135, 1.96283, 1.96163, 1.97976, 1.97379, 1.97146, 1.88311, 1.9596, 1.95973, 1.88557, 1.88384, 1.96526, 1.96369, 1.96595, 1.96733, 1.96797, 1.9621, 1.96206, 1.88557, 1.96331, 1.97997, 2.00085, 1.88798, 1.88751, 1.97303, 1.88948, 1.88962, 1.89023, 1.89036, 1.88952, 1.98726, 1.9895, 2.00516, 1.9617, 1.8946, 1.8952, 1.97375, 1.89575, 1.97249, 2.00737, 1.89938, 1.98914, 1.99646, 1.97511, 1.9758, 1.98674, 1.90001, 1.89982, 1.99727, 1.9769, 1.99605, 2.00045, 1.98996, 1.90209, 1.99064, 1.97642, 1.97688, 1.90064, 1.99295, 1.97776, 1.97653, 1.98934, 1.99689, 1.98296, 1.90061, 1.98685, 1.98032, 1.9773, 1.97637, 1.9011, 1.97696, 1.90191, 1.90371, 1.90074, 1.90177, 1.90072, 2.01392, 2.00677, 1.9819, 1.97892, 1.8446, 1.84486, 1.84275, 1.89229, 1.89443, 1.89406, 1.89046, 1.8895, 1.94057, 1.83977, 1.83865, 2.01492, 1.84129, 1.84066, 1.84134, 1.84376, 1.84539, 1.8408, 1.84277, 1.94138, 1.84513, 1.84778, 1.84609, 1.84766, 1.84634, 1.84769, 1.89669, 1.89556, 2.0295, 1.84808, 1.84759, 1.84622, 2.03513, 1.91989, 1.84586, 1.84518, 1.84418, 2.03741, 1.84293, 1.84096, 1.8439, 1.84256, 1.84337, 1.8417, 1.84411, 1.84208, 1.94697, 1.84288, 1.8441, 1.89097, 1.84025, 1.84111, 1.82458, 1.82275, 1.82114, 1.76854, 1.76826, 1.76779, 1.76365, 1.76178, 1.76118, 1.76294, 1.76456, 1.85426, 1.75649, 1.75745, 1.87217, 1.95153, 1.75813, 1.88183, 1.88154, 1.88232, 1.85789, 1.75049, 1.87989, 1.75246, 1.74981, 1.75118, 1.74957, 1.75013, 1.87944, 1.84722, 1.74747, 1.74792, 1.75019, 1.8803, 1.7484, 1.88091, 1.79832, 1.79951, 1.79795, 1.79778, 1.79891, 1.74821, 1.87833, 1.876, 1.87365, 1.86864, 1.74935, 1.87323, 1.80277, 1.85909, 1.86768, 1.749, 1.74771, 1.74467, 1.86839, 1.74793, 1.86315
1.82311, 1.77036, 1.77, 1.82049, 1.77086, 1.76947, 1.81995, 1.76846, 1.86179, 1.76639, 1.76684, 1.76652, 1.76802, 1.86503, 1.76657, 1.76564, 1.76183, 1.76268, 1.75861, 1.76102, 1.76294, 1.76168, 1.76216, 1.75563, 1.75849, 1.76135, 1.76061, 1.8073, 1.80708, 1.75734, 1.86182, 1.86093, 1.75636, 1.75696, 1.75463, 1.75422, 1.75267, 1.75499, 1.75519, 1.80483, 1.75605, 1.80363, 1.7528, 1.75467, 1.75331, 1.75238, 1.84176, 1.75219, 1.75171, 1.93723, 1.93288, 1.75086, 1.75145, 1.75382, 1.86486, 1.75365, 2.02098, 1.75616, 1.75797, 1.98217, 1.82285, 1.89658, 1.89688, 1.90237, 1.89598, 1.90006, 1.89994, 1.89582, 1.90097, 1.89984, 1.81811, 1.893, 1.90229, 1.88986, 1.90337, 1.89079, 1.80967, 1.97928, 1.90275, 1.88671, 1.90313, 1.88237, 1.90443, 1.90586, 1.99427, 1.90618, 1.88326, 1.88358, 1.99359, 1.80753, 1.88231, 1.98328, 1.88222, 1.88186, 1.8834, 1.80719, 1.91037, 1.88433, 1.88357, 1.81073, 1.81017, 1.88746, 1.88896, 1.8136, 1.81581, 1.81862, 1.81924, 1.82335, 1.98566, 2.00809, 1.84272, 1.84295, 1.99624, 1.96683, 1.88411, 1.96823, 1.96315, 1.88447, 1.96276, 1.96276, 1.88411, 1.88536, 1.88345, 1.9657, 1.96453, 1.96643, 1.88605, 1.88481, 1.96203, 1.96931, 1.96946, 1.97262, 1.97309, 1.95965, 1.97394, 1.98385, 1.98729, 1.88886, 1.98044, 1.97625, 1.97552, 1.99708, 1.97276, 1.96976, 1.89333, 1.99908, 1.98561, 1.89668, 1.9938, 1.97379, 1.97297, 1.9918, 1.9937, 1.99135, 1.97584, 1.97703, 1.97761, 1.97688, 1.97677, 1.97603, 1.99568, 1.98342, 1.9833, 1.90014, 1.98523, 1.99999, 1.9894, 1.98038, 1.97642, 1.99325, 1.99312, 1.97856, 1.97663, 1.97608, 1.99731, 1.90146, 1.98241, 1.97786, 1.99364, 1.97917, 1.9769, 1.90404, 1.90097, 1.90494, 1.90004, 1.90191, 1.98078, 2.00414, 2.01035, 2.00774, 2.00688, 1.84525, 1.84393, 2.03481, 1.94707, 1.84053, 1.84099, 1.94576, 1.84253, 1.93808, 1.84009, 1.94112, 1.84085, 1.84209, 1.9443, 1.84334, 1.84162, 1.84344, 2.02629, 2.03743, 1.84437, 1.84406, 1.8448, 1.84641, 1.84296, 1.94196, 1.84873, 1.84769, 1.84846, 2.034, 2.0342, 1.84404, 1.89745, 1.89629, 1.92194, 1.92036, 1.84457, 1.84232, 2.02744, 2.03706, 2.01892, 1.84599, 1.84287, 2.03708, 1.84389, 1.84322, 1.84375, 1.84327, 1.84287, 1.89085, 1.89273, 1.84317, 1.88951, 1.82559, 1.77176, 1.76998, 1.76575, 1.76616, 2.07321, 1.76491, 1.88462, 1.88285, 1.81098, 1.75923, 1.87309, 1.87966, 1.75764, 1.75638, 1.75716, 1.86454, 1.75388, 1.87958, 1.75123, 1.80127, 1.75309, 1.80273, 1.86593, 1.86528, 1.84829, 1.7501, 1.87903, 1.8801, 1.75113, 1.74923, 1.87366, 1.75041, 1.74858, 1.74627, 1.74787, 1.74808, 1.79608, 1.74742, 1.86498, 1.74771, 1.79667, 1.7511, 1.74912, 1.87796, 1.74839, 1.74563, 1.80713, 1.80419, 1.80543, 1.80364, 1.751, 1.8616, 1.74753, 1.90353, 1.8439, 1.7478
1.7746, 1.77262, 1.76859, 1.76985, 1.77205, 1.77161, 1.85905, 1.76858, 1.76858, 1.7682, 1.76898, 1.76814, 1.86071, 1.76524, 1.86495, 1.76498, 1.76423, 1.76526, 1.7593, 1.76291, 1.7621, 1.76392, 1.76243, 1.86537, 2.0326, 1.75758, 1.75785, 1.76152, 1.85467, 1.75894, 1.75886, 1.86, 1.75795, 1.75763, 1.75715, 1.83288, 1.85473, 1.85142, 1.75444, 1.80666, 1.75227, 1.75461, 1.75429, 1.75309, 1.75428, 1.80279, 1.80308, 1.80385, 1.75383, 1.9361, 1.75157, 1.75365, 1.75431, 1.75557, 1.75603, 2.01, 2.01089, 1.85462, 1.7577, 1.82288, 1.82312, 1.90092, 1.81967, 1.82028, 1.90332, 1.89768, 1.90309, 1.89908, 1.97883, 1.89245, 1.90129, 1.98678, 1.90164, 1.89144, 1.89319, 1.81532, 1.9034, 1.99217, 1.90529, 1.90448, 1.90398, 1.88536, 1.88289, 1.88432, 1.88594, 1.88325, 1.88486, 1.80792, 1.90812, 1.98576, 1.91021, 1.90963, 1.90752, 1.88391, 1.88421, 1.88374, 1.91224, 1.80447, 1.88269, 1.88352, 1.88635, 1.91132, 1.88954, 1.91078, 1.81585, 2.00063, 1.89882, 1.90831, 1.90989, 1.90678, 1.99059, 1.84345, 1.96477, 1.97642, 1.96895, 1.96711, 1.96152, 1.9616, 1.97112, 1.88565, 1.96297, 1.88451, 1.88396, 1.88588, 1.96378, 1.96612, 1.96871, 1.96372, 1.96541, 1.96087, 1.98744, 1.98088, 1.95919, 1.99013, 1.96481, 1.97895, 1.9963, 1.95773, 1.95692, 1.89194, 1.99671, 1.96903, 1.97151, 1.97128, 1.98015, 1.98345, 1.98619, 1.98036, 1.99875, 1.98773, 1.98466, 1.97663, 1.99026, 1.89668, 1.9917, 1.99685, 1.99672, 1.99411, 1.99372, 1.97531, 1.97559, 1.98352, 1.99721, 1.99924, 1.99289, 1.99048, 1.90291, 1.9026, 1.99015, 1.97932, 2.0016, 1.98832, 1.97614, 1.97736, 1.97837, 1.99185, 1.98752, 1.98658, 1.98203, 1.97609, 1.97472, 1.90197, 1.90133, 1.90421, 1.90289, 1.98107, 1.98218, 1.90288, 2.00504, 1.98299, 2.00423, 2.00307, 1.84607, 1.84192, 1.84118, 1.93182, 1.8429, 1.90943, 1.84126, 1.84282, 1.84175, 1.94258, 1.84395, 1.8404, 1.83872, 1.84497, 1.89788, 1.8988, 1.94009, 1.94131, 2.0166, 1.84336, 1.84447, 1.84536, 2.02189, 2.02753, 2.0263, 1.84773, 1.84714, 1.8469, 1.84509, 1.84347, 2.02372, 2.00376, 1.92401, 1.92331, 1.84505, 2.03521, 1.8428, 1.84736, 1.89379, 1.8452, 1.84256, 2.01561, 2.02515, 2.01409, 1.84529, 1.84418, 1.84299, 1.84131, 1.83919, 1.89291, 1.83936, 2.0046, 1.85696, 1.85878, 1.86101, 1.76775, 1.76684, 1.76547, 1.76271, 1.7617, 1.81108, 1.8098, 1.76153, 1.80739, 1.76111, 1.75962, 1.87367, 1.87584, 1.87531, 1.7529, 1.75235, 1.80389, 1.80412, 1.80257, 1.80522, 1.80358, 1.74893, 1.74898, 1.74825, 1.75042, 1.74771, 1.74593, 1.8817, 1.87749, 1.7513, 1.74892, 1.74765, 1.75041, 1.79864, 1.74845, 1.86318, 1.74842, 1.7968, 1.79729, 1.87563, 1.74889, 1.87406, 1.74751, 1.74914, 1.80568, 1.80701, 1.85643, 1.74926, 1.7483, 1.868, 1.74618, 1.86564, 1.74765
1.7747, 1.86839, 1.94447, 1.94465, 1.77011, 1.77152, 1.76899, 1.77135, 1.86862, 1.76734, 1.7691, 1.76883, 1.76778, 1.76618, 1.86951, 1.8706, 1.76604, 1.76413, 1.81302, 1.76146, 1.86569, 1.86535, 1.76189, 1.76224, 1.76111, 1.86457, 1.76067, 1.80963, 1.76165, 1.93854, 1.76035, 1.75935, 1.76032, 1.75909, 1.75805, 1.83229, 1.75816, 1.75422, 1.75603, 1.80511, 1.80556, 1.805, 1.80602, 1.80447, 1.75432, 1.755, 1.80439, 1.80586, 1.84929, 1.85755, 1.75499, 1.75545, 1.75501, 1.93558, 1.75514, 1.75795, 1.85407, 1.85576, 1.97538, 1.97972, 1.89686, 1.89956, 1.8997, 1.82145, 1.82018, 1.90334, 1.9024, 1.81796, 1.97862, 1.90025, 1.81695, 1.9027, 1.81669, 1.90291, 1.88901, 1.88817, 1.88796, 1.88939, 1.88779, 1.88947, 1.8901, 1.99092, 1.88584, 1.90982, 1.88552, 1.9064, 1.90702, 1.88551, 1.88607, 1.98708, 1.80668, 1.91011, 1.88288, 1.88607, 1.88415, 1.885, 1.90975, 1.91177, 1.99634, 1.8096, 1.88657, 1.91008, 1.81379, 1.89097, 1.81464, 1.91038, 1.89894, 1.90739, 1.82441, 2.00034, 2.01005, 1.97575, 1.88572, 1.8858, 1.88619, 1.96291, 1.96146, 1.96193, 1.96472, 1.96561, 1.96448, 1.88477, 1.88617, 1.88562, 1.96233, 1.96204, 1.96405, 1.96316, 1.97901, 1.96118, 1.88696, 1.98273, 1.99421, 1.96201, 1.88717, 1.98122, 1.96648, 1.96506, 1.96493, 1.97142, 1.97243, 1.89299, 1.98024, 1.98622, 1.98523, 1.98599, 1.89391, 1.97619, 1.99219, 1.99066, 1.99726, 1.9732, 1.89908, 1.99175, 1.9928, 1.97993, 1.99242, 1.97957, 1.9006, 1.98297, 1.97828, 1.98983, 1.98474, 1.97226, 1.9932, 1.90084, 1.9009, 2.00146, 1.98739, 1.97688, 1.98977, 1.98941, 1.98609, 1.90151, 1.97657, 1.97653, 1.97588, 1.97914, 1.97882, 1.98084, 1.97761, 1.90336, 1.90316, 1.90296, 1.902, 1.98418, 1.90256, 1.90093, 1.90121, 1.97863, 1.90489, 1.98043, 1.84718, 1.84389, 2.0276, 1.83805, 2.01047, 1.91149, 1.84139, 2.01323, 2.01136, 1.94159, 2.02502, 1.83868, 1.84176, 1.84073, 1.84245, 1.89973, 1.84423, 1.84298, 1.84339, 1.84516, 1.84508, 1.84596, 1.84584, 1.8452, 1.84477, 1.84344, 1.84186, 1.84653, 1.85111, 1.92872, 1.84439, 1.84426, 1.89749, 2.03669, 2.03751, 2.03134, 1.89552, 1.89581, 1.89489, 1.89583, 1.89234, 2.01527, 1.84106, 2.02505, 1.84433, 1.84257, 1.89251, 1.89037, 2.00381, 1.84003, 1.84167, 1.8911, 1.90872, 1.76997, 1.86106, 1.82498, 1.82468, 1.86295, 1.75955, 1.87196, 1.81305, 1.76189, 1.75846, 1.80949, 1.80595, 1.75571, 1.87502, 1.75419, 1.80767, 1.75498, 1.86938, 1.75131, 1.75079, 1.86303, 1.85972, 1.80523, 1.75149, 1.75076, 1.74896, 1.74962, 1.74812, 1.748, 1.88273, 1.87684, 1.87773, 1.74585, 1.74536, 1.97126, 1.79921, 1.79606, 1.74761, 1.86185, 1.79695, 1.74739, 1.74614, 1.74768, 1.74687, 1.74579, 1.74756, 1.80694, 1.8053, 1.87295, 1.87185, 1.74884, 1.87099, 1.74407, 1.79631, 1.86127
1.82369, 1.77466, 1.77482, 1.77403, 1.77218, 1.87075, 1.76883, 1.77002, 1.77192, 1.76898, 1.76883, 1.76806, 1.76817, 1.76845, 1.76503, 1.765, 1.86812, 1.86864, 1.8147, 1.8166, 1.76555, 1.81372, 1.76131, 1.76302, 1.7636, 1.76183, 1.76297, 1.76021, 1.75928, 1.75934, 1.76115, 1.75972, 1.75882, 1.75983, 1.86238, 1.75633, 1.75824, 1.7564, 1.75642, 1.75809, 1.75868, 1.80709, 1.80616, 1.80677, 1.75628, 1.80492, 1.80529, 1.75387, 1.85099, 1.75475, 1.75436, 1.7542, 1.75525, 1.75563, 1.75623, 1.75753, 1.75739, 1.91381, 1.81184, 1.9832, 1.98165, 1.97637, 1.90412, 1.89641, 1.89749, 1.90233, 1.8972, 1.89831, 1.89604, 1.90451, 1.81725, 1.81638, 1.81601, 1.90381, 1.89226, 1.81315, 1.99579, 1.88988, 1.88966, 1.9082, 1.88767, 1.99484, 1.88701, 1.88867, 1.80915, 1.88357, 1.88537, 1.90989, 1.88232, 1.90725, 1.88338, 1.88074, 1.88188, 1.98972, 1.87804, 1.80687, 1.80623, 1.80687, 1.91283, 1.88862, 1.88855, 1.81165, 1.81412, 1.89211, 1.89211, 1.91059, 2.0054, 1.91063, 1.91244, 1.98979, 1.9961, 1.84523, 1.97714, 1.95984, 1.88561, 1.88625, 1.96249, 1.96388, 1.96112, 1.88596, 1.88582, 1.96054, 1.88617, 1.96476, 1.96735, 1.9667, 1.96909, 1.97719, 1.98595, 1.88652, 1.88709, 1.96729, 1.96354, 1.88849, 1.96588, 1.97248, 1.96452, 1.96571, 1.9673, 1.96547, 1.97547, 1.98323, 1.97938, 1.89332, 1.98614, 1.97979, 1.98003, 2.00664, 1.89579, 1.99097, 1.98263, 1.97945, 1.9916, 1.9865, 1.98307, 1.98234, 1.99577, 1.97687, 1.89994, 1.89923, 1.97714, 1.97662, 1.98679, 1.90088, 1.98618, 1.99862, 2.01113, 1.99479, 1.98308, 1.99201, 1.98121, 1.98911, 1.98048, 1.97953, 1.97867, 1.97784, 1.99085, 1.99106, 1.98556, 1.98275, 1.97939, 1.97918, 1.97984, 1.90259, 1.98078, 1.90265, 1.98645, 1.98105, 1.99999, 2.00063, 1.98292, 1.99607, 1.94231, 1.94097, 1.84175, 1.84325, 1.83963, 1.84178, 1.84215, 1.84126, 1.93793, 1.93741, 1.84095, 1.83986, 1.83889, 1.83979, 1.94112, 1.83995, 1.89971, 1.89702, 1.89538, 1.89579, 2.00312, 1.84449, 1.84496, 1.84518, 2.02736, 1.84727, 1.84448, 1.84553, 1.84521, 1.84587, 1.89625, 1.89547, 1.89593, 1.844, 2.03571, 2.0278, 1.84137, 1.89607, 2.01653, 1.84071, 1.84534, 1.8438, 2.03551, 1.84172, 1.84149, 1.83941, 1.8412, 1.84107, 1.88901, 1.88962, 1.89171, 1.82373, 1.81964, 1.85802, 1.76714, 1.81639, 1.83482, 1.83318, 1.76264, 1.87565, 1.75893, 1.866, 1.86413, 1.80844, 1.80805, 1.80422, 1.75454, 1.80394, 1.80947, 1.80714, 1.87479, 1.75223, 1.75256, 1.80255, 1.80075, 1.7515, 1.8041, 1.75013, 1.75118, 1.88211, 1.74795, 1.74745, 1.88187, 1.87659, 1.74517, 1.74728, 1.88347, 2.06344, 1.74526, 1.79852, 1.79706, 1.79925, 1.74602, 1.74501, 1.74555, 1.87188, 1.74722, 1.7464, 1.74482, 1.74653, 1.86893, 1.74781, 1.87244, 1.85089, 1.84842, 1.74646, 1.74577, 1.86389
1.82777, 1.82573, 1.82674, 1.77572, 1.77398, 1.77492, 1.77006, 1.76985, 1.76915, 1.77081, 1.7693, 1.77009, 1.7714, 1.76946, 1.76694, 1.76915, 1.76665, 1.86669, 1.81626, 1.76797, 1.81646, 1.81733, 1.86173, 1.76456, 1.76459, 1.76466, 1.76242, 1.81261, 1.76213, 1.76476, 1.76242, 1.81079, 1.76065, 1.86488, 1.75539, 1.75712, 1.85077, 1.75853, 1.75928, 1.75748, 1.75847, 1.75603, 1.75579, 1.7542, 1.75551, 1.75773, 1.8458, 1.75578, 1.75429, 1.75773, 1.75845, 1.75698, 1.75733, 1.84045, 1.75696, 1.75653, 1.75687, 1.76056, 1.90406, 1.89974, 1.97936, 1.98282, 1.90307, 1.89714, 1.90372, 1.90286, 1.89821, 1.90016, 1.90369, 1.82123, 1.89381, 1.893, 1.89273, 1.90692, 1.9024, 1.90579, 1.90667, 1.90684, 1.90685, 1.88918, 1.90813, 1.9081, 1.88994, 1.81049, 1.91022, 1.90947, 1.88546, 1.88537, 1.88354, 1.88308, 1.80722, 1.88204, 1.91053, 1.88115, 1.91174, 1.91351, 1.91166, 2.00002, 1.80835, 1.88809, 1.88757, 1.81364, 1.89048, 1.91429, 1.91222, 1.91275, 1.897, 1.82448, 1.99669, 1.99668, 1.98813, 1.98894, 1.9698, 1.97634, 1.96486, 1.9696, 1.97846, 1.96948, 1.98446, 1.96319, 1.9609, 1.88675, 1.88831, 1.96304, 1.96501, 1.96793, 1.96533, 1.96332, 1.96871, 1.96358, 1.97757, 1.98371, 1.96383, 1.9631, 1.96972, 1.96599, 1.99458, 1.96571, 1.97937, 1.96843, 1.98029, 1.96909, 1.98021, 1.99346, 1.98217, 1.9695, 1.97965, 1.97907, 1.98855, 1.98975, 1.98696, 1.98694, 1.97711, 1.97601, 1.99573, 1.89738, 1.89768, 1.982, 1.99211, 1.98058, 1.99711, 1.99813, 1.97548, 1.90298, 1.98462, 1.99336, 1.9023, 2.00069, 1.98662, 1.9777, 1.90183, 1.90116, 1.99497, 1.98381, 1.99625, 1.97887, 1.97951, 1.99659, 1.99086, 1.98004, 1.98024, 1.97837, 1.90276, 1.98133, 1.98314, 1.9807, 1.98326, 1.98041, 2.00083, 1.98246, 2.00622, 1.84498, 1.92755, 1.84513, 1.84369, 1.84283, 2.01675, 1.84079, 2.02507, 1.84229, 1.84136, 1.84095, 1.84025, 1.84279, 1.84439, 1.93958, 1.94432, 1.84149, 1.90046, 1.89967, 1.8926, 1.92693, 1.92745, 1.8457, 1.92707, 1.92594, 2.03425, 2.03152, 1.84289, 1.84529, 2.03528, 1.84752, 2.03432, 1.84158, 1.84685, 2.03631, 1.84216, 1.84335, 1.84397, 1.894, 1.89465, 1.89347, 1.84204, 1.8414, 1.84133, 1.84017, 1.84019, 2.02104, 1.84443, 1.89041, 1.89153, 1.8896, 1.83791, 1.76909, 1.76731, 1.85819, 1.8577, 1.76472, 1.76453, 1.76228, 1.87074, 1.86731, 1.87345, 1.75936, 1.87131, 1.86575, 1.80676, 1.75666, 1.80376, 1.75443, 1.7543, 1.87264, 1.8723, 1.75148, 1.75035, 1.83465, 1.80246, 1.74876, 1.7493, 1.75027, 1.74948, 1.74842, 1.74804, 1.74777, 1.87939, 1.74738, 1.74601, 1.88412, 1.88588, 1.74771, 1.74702, 1.87621, 1.74597, 1.74647, 1.74685, 1.74527, 1.8788, 1.74851, 1.87301, 1.86652, 1.86475, 1.86651, 1.86401, 1.75126, 1.74774, 1.74766, 1.74602, 1.74886, 1.74684, 1.74681
1.83747, 1.83815, 1.77807, 1.77546, 1.77675, 1.77281, 1.77304, 1.77328, 1.82286, 1.76964, 1.77162, 1.76921, 1.76893, 1.77067, 1.76843, 1.76851, 1.76778, 1.87239, 1.76826, 1.76527, 1.86656, 1.7627, 1.76639, 1.76809, 1.76533, 1.76715, 1.7651, 1.76472, 1.76452, 1.76206, 1.84843, 1.76254, 1.76153, 1.75948, 1.75941, 1.75963, 1.75977, 1.76036, 1.7599, 1.7565, 1.94499, 1.86169, 1.75709, 1.85485, 1.75633, 1.75803, 1.75778, 1.75681, 1.75579, 1.75802, 1.75573, 1.8584, 1.83875, 1.83695, 1.87369, 1.75898, 1.76009, 1.93772, 1.82441, 1.90323, 1.90048, 1.90298, 1.89935, 1.82107, 1.89966, 1.90552, 1.9827, 1.89976, 1.82009, 1.81967, 1.89335, 1.89582, 1.89312, 1.89341, 1.90397, 1.98581, 1.98618, 1.90806, 1.81378, 1.90831, 1.9105, 1.80769, 1.98662, 1.88569, 1.90984, 1.90927, 2.0075, 1.9867, 1.98689, 2.00127, 1.88434, 1.88359, 1.88011, 1.91142, 1.91205, 1.9114, 1.8093, 1.88665, 1.80949, 1.88873, 1.81139, 1.89, 1.89225, 1.89201, 1.82005, 1.81969, 1.8996, 1.89998, 1.82673, 1.99551, 1.99052, 1.97591, 1.96557, 1.984, 1.88615, 1.97344, 1.97571, 1.97325, 1.96395, 1.96621, 1.96534, 1.88675, 1.96267, 1.96451, 1.96384, 1.96779, 1.96753, 1.8888, 1.88703, 1.96798, 1.98651, 1.88627, 1.96492, 1.98953, 1.98231, 1.97337, 1.97277, 1.96936, 1.88948, 1.98329, 1.8932, 1.89445, 1.9832, 1.89377, 1.97039, 1.89529, 1.97294, 1.99431, 1.98311, 1.89736, 1.99664, 1.98258, 1.89899, 1.90082, 1.98133, 1.99092, 2.00033, 1.97677, 1.97644, 1.99367, 1.99408, 2.00341, 1.99768, 1.89966, 1.97908, 1.97812, 1.99363, 1.99147, 1.98123, 1.98763, 1.98711, 1.98638, 1.99572, 1.97669, 1.98739, 1.99631, 1.97995, 2.00736, 1.98017, 1.97907, 1.97981, 1.98096, 1.90347, 1.97951, 1.98386, 1.98261, 1.98396, 1.99241, 2.00004, 1.99256, 1.9803, 2.0151, 1.84564, 1.84541, 1.84639, 1.84478, 1.8438, 1.84032, 1.89435, 1.9271, 1.89458, 2.01861, 1.93947, 1.84263, 1.84267, 1.84114, 1.84008, 1.84229, 1.84311, 1.84269, 1.89429, 1.84508, 2.01624, 1.89532, 1.84838, 1.84697, 1.84148, 1.8453, 2.02895, 1.84643, 1.84719, 1.84718, 1.84492, 1.84295, 1.8447, 1.84559, 2.0302, 2.02813, 1.89581, 1.89398, 1.89295, 1.89223, 1.84074, 1.8927, 1.84288, 1.8422, 1.84002, 2.03084, 1.83943, 1.83959, 1.89215, 1.8899, 1.83978, 1.76948, 1.76771, 1.76705, 1.76463, 1.76586, 1.76456, 1.76228, 1.76171, 1.76078, 1.7592, 1.75592, 1.8707, 1.86464, 1.75744, 1.80467, 1.80663, 1.80465, 1.75393, 1.75108, 1.87284, 1.75432, 1.83715, 1.80408, 1.80178, 1.87358, 1.87599, 1.86542, 1.75039, 1.79983, 1.80021, 1.74847, 1.8815, 1.74839, 1.74449, 1.8805, 1.7474, 1.74558, 1.74416, 1.7452, 1.87824, 1.74664, 1.74897, 1.74678, 1.74806, 1.87318, 1.74643, 1.74495, 1.74777, 1.86884, 1.866, 1.75099, 1.86949, 1.74548, 1.87181, 1.7478, 1.74756, 1.86503
1.77605, 1.77691, 1.77665, 1.77561, 1.77703, 1.77541, 1.82465, 1.7751, 1.82257, 1.77504, 1.77259, 1.77025, 1.87048, 1.76978, 1.76904, 1.82087, 1.7689, 1.87549, 1.87008, 1.86385, 1.76812, 1.76875, 1.86443, 1.76632, 1.7675, 1.76826, 1.76838, 1.76138, 1.76509, 1.76565, 1.86855, 1.76393, 1.76437, 1.76165, 1.76192, 1.76204, 1.76167, 1.76102, 1.86312, 1.75838, 1.75922, 1.76027, 1.86337, 1.7588, 1.76158, 2.01863, 1.76116, 1.75734, 1.86269, 1.75701, 1.76024, 1.75754, 1.85548, 1.75843, 1.76114, 1.76098, 1.76094, 1.93448, 1.82576, 1.8261, 1.90078, 1.90108, 1.90119, 1.90381, 1.89733, 1.9039, 1.90211, 1.89799, 1.90423, 1.90492, 1.89533, 1.98268, 1.89267, 2.01491, 1.89674, 1.89365, 1.8906, 1.90848, 1.89052, 1.89004, 1.90989, 1.99726, 1.99943, 1.98943, 1.88607, 1.91059, 1.88416, 1.88454, 1.91161, 1.88582, 1.88318, 1.88425, 1.88446, 1.91336, 1.91317, 1.88298, 1.91374, 1.9136, 1.80954, 1.88892, 1.89274, 1.8884, 1.89262, 1.91613, 1.91187, 1.91442, 1.90148, 1.9023, 1.90799, 1.91458, 1.84728, 1.84738, 1.88768, 1.98958, 1.96389, 1.97734, 1.88756, 1.97219, 1.88646, 1.97506, 1.88638, 1.88638, 1.88638, 1.96414, 1.96626, 1.96713, 1.97575, 1.96768, 1.96676, 1.97648, 1.96505, 1.98245, 1.96578, 1.96702, 1.97306, 1.96554, 1.98064, 1.89105, 1.96903, 1.97938, 1.97952, 1.97954, 1.89365, 1.97213, 1.89525, 1.98205, 1.97258, 1.97332, 1.97573, 1.98739, 1.89887, 1.98887, 1.99578, 1.98043, 1.98356, 1.97839, 1.99351, 1.98332, 1.98411, 1.97832, 1.98485, 2.00568, 1.98693, 1.90066, 1.97954, 1.97946, 1.99339, 1.9912, 1.98205, 1.98977, 1.99243, 1.9892, 1.98184, 1.97712, 1.99947, 1.99025, 1.90283, 1.9835, 1.9892, 1.97905, 1.97924, 1.97971, 1.98255, 1.97988, 1.98204, 1.98424, 1.98561, 1.99091, 2.00497, 2.00099, 1.98068, 1.98225, 2.01974, 1.84357, 1.84158, 1.84194, 1.84046, 1.83864, 1.8945, 1.89372, 1.89587, 1.84126, 1.84205, 1.84137, 2.03577, 1.84165, 1.84296, 1.83871, 1.84624, 1.84425, 1.84393, 1.84214, 1.89573, 1.92665, 1.89686, 1.89594, 1.84226, 1.84277, 2.0208, 2.01776, 1.84466, 1.84298, 1.84891, 1.84471, 2.02845, 1.84455, 1.84477, 1.84484, 1.84278, 1.84143, 1.84246, 2.03752, 1.84513, 1.84218, 1.93225, 1.84372, 1.83676, 2.02279, 2.02803, 1.83962, 2.01313, 1.83616, 1.83837, 1.83641, 1.76838, 1.87576, 1.87147, 1.7623, 1.76343, 1.76029, 1.76181, 1.76159, 1.75949, 1.75821, 2.0475, 1.75464, 1.8662, 1.75633, 1.75218, 1.82014, 1.7545, 1.75245, 1.754, 1.75249, 1.75129, 1.75022, 1.82746, 1.75255, 1.75096, 1.86812, 1.925, 1.80035, 1.74525, 1.87621, 1.74722, 1.74439, 1.74807, 1.74864, 1.87761, 1.87524, 1.74567, 1.74445, 1.74793, 1.74764, 1.87306, 1.74556, 1.74739, 1.74833, 1.74869, 1.74829, 1.85872, 1.79785, 1.79674, 1.86651, 1.74828, 1.74643, 1.74723, 1.74585, 1.86909, 1.74392
1.77837, 1.77835, 1.77552, 1.77631, 1.82645, 1.83358, 1.77645, 1.8244, 1.82518, 1.77521, 1.77227, 1.94729, 1.77511, 1.77134, 1.77027, 1.77115, 1.76705, 1.77207, 1.76803, 1.76879, 1.88004, 1.87036, 1.76438, 2.03426, 1.76816, 1.76816, 1.76821, 2.06905, 1.76611, 1.86141, 1.86555, 1.76459, 1.86786, 1.76126, 1.868, 1.76193, 1.76443, 1.86368, 1.75876, 1.85865, 1.85464, 1.75999, 1.76017, 1.76231, 1.75669, 1.75846, 1.85999, 1.86223, 1.75909, 1.75924, 1.75933, 1.75747, 1.76082, 1.76069, 1.76112, 1.93391, 1.76206, 1.76268, 1.9012, 1.98609, 1.98412, 1.98229, 1.90375, 1.90327, 1.89829, 1.9866, 1.98929, 1.89592, 1.90447, 1.89564, 1.89618, 1.89748, 1.90761, 1.90704, 1.90817, 1.8912, 1.8913, 1.81333, 1.81256, 1.81314, 1.91025, 1.81157, 1.88658, 1.88572, 1.91034, 1.88985, 1.911, 1.88615, 1.8851, 1.88385, 1.88418, 1.88523, 1.88584, 1.88351, 1.99694, 1.99673, 1.80921, 1.88595, 1.81158, 1.88908, 1.88773, 1.91484, 1.89002, 1.91342, 1.89372, 1.91702, 1.82106, 1.91271, 1.91051, 1.9046, 2.00331, 1.98068, 1.96501, 1.98589, 1.88891, 1.96585, 1.96505, 1.88615, 1.88646, 1.88703, 1.96344, 1.88853, 1.88837, 1.96566, 1.88762, 1.96794, 1.96853, 1.96213, 1.96198, 1.97808, 1.9795, 1.96624, 1.97675, 1.96626, 1.97996, 1.88988, 1.96872, 1.97043, 1.97866, 1.89214, 1.983, 1.9829, 1.98773, 1.98009, 1.9725, 1.89722, 1.89546, 1.97253, 1.97135, 1.98712, 1.98736, 1.90152, 1.97722, 1.98421, 1.97649, 1.89964, 2.00141, 1.98962, 1.98086, 1.98074, 1.9857, 2.00334, 1.98709, 1.98389, 1.97823, 1.98716, 1.90332, 1.99388, 1.90355, 1.9794, 1.97978, 1.98158, 1.99103, 2.02062, 1.98912, 1.9872, 1.9036, 1.98523, 1.99381, 1.90275, 1.903, 1.97946, 1.97943, 1.98306, 1.97984, 1.98443, 1.98103, 1.98209, 1.98964, 1.9821, 1.98216, 1.90561, 1.8437, 1.84208, 1.84485, 1.84199, 1.84125, 1.84054, 1.93037, 1.83786, 1.89741, 1.84089, 1.84063, 1.84079, 2.01782, 2.01652, 1.84481, 1.8409, 1.93444, 1.90037, 1.84192, 1.94022, 1.84386, 1.84424, 1.84628, 1.84729, 1.84649, 2.04439, 2.02411, 2.01932, 2.02393, 1.84565, 1.84463, 1.84429, 1.84743, 1.84261, 1.90614, 1.84391, 2.01507, 1.8433, 1.8421, 1.84167, 1.84117, 1.84098, 1.84079, 2.0222, 2.01914, 1.83882, 1.83715, 1.83706, 1.83612, 1.83678, 1.83646, 1.7644, 1.76348, 1.76722, 1.76328, 1.76485, 1.76051, 1.76061, 1.76159, 1.87212, 1.75931, 1.75895, 1.75765, 1.75527, 1.75517, 1.75495, 1.75255, 1.75281, 1.87118, 1.75137, 1.84862, 1.75158, 1.75394, 1.75096, 1.74941, 1.79853, 1.75168, 1.74943, 1.74925, 1.74968, 1.74858, 1.74787, 1.74703, 1.79546, 1.74841, 1.74801, 1.74524, 1.74757, 1.74657, 1.74701, 1.74756, 1.87396, 1.84817, 1.7474, 1.85677, 1.74485, 1.87165, 1.74585, 1.79945, 1.79914, 1.79866, 1.74788, 1.86724, 1.74696, 1.74692, 1.86636, 1.74626, 1.85498
1.77969, 1.7813, 1.77938, 1.77977, 1.7785, 1.77851, 1.82737, 1.8582, 1.82685, 1.77551, 1.77461, 1.77383, 1.77194, 1.77552, 1.77164, 2.05681, 1.77047, 1.87241, 2.04207, 2.04582, 1.81822, 1.76949, 1.77043, 1.76712, 1.76859, 1.7681, 1.76941, 1.76683, 1.76726, 1.76761, 1.76343, 1.76194, 1.76249, 1.76208, 1.76137, 1.76186, 1.85394, 1.86498, 1.86579, 1.86319, 1.86228, 1.76116, 1.76163, 1.8617, 1.7598, 1.87038, 1.87171, 1.80908, 1.86489, 1.87288, 1.87394, 1.75944, 1.76179, 1.76133, 1.76154, 1.75937, 1.76176, 1.76193, 1.90655, 1.90782, 1.98749, 1.82387, 1.90654, 1.90561, 1.90668, 1.89814, 1.98411, 2.01018, 1.91054, 1.89632, 1.98614, 1.91339, 1.81546, 1.89116, 1.90972, 2.00149, 1.81552, 1.8905, 1.81477, 1.91091, 1.90804, 1.89012, 1.91308, 2.00309, 1.88838, 1.88694, 1.88592, 1.80889, 1.88281, 1.88743, 1.88583, 1.88335, 1.80676, 1.88572, 1.88301, 1.91474, 1.80972, 1.81015, 1.88683, 1.91543, 1.91586, 1.91507, 1.99359, 1.99411, 1.8976, 1.89637, 1.89937, 1.82604, 1.91445, 2.01765, 1.99098, 1.97877, 1.88913, 1.96485, 1.96531, 1.99375, 1.97207, 1.88647, 1.96691, 1.97564, 1.96734, 1.96838, 1.96632, 1.88753, 1.8862, 1.88663, 1.88705, 1.96714, 1.96693, 1.96935, 1.9879, 1.9716, 1.9857, 1.96752, 1.96936, 1.96915, 1.97349, 1.98676, 1.98318, 1.98281, 1.98156, 1.98377, 2.00032, 1.98225, 1.98581, 1.8973, 1.97562, 1.97302, 1.97238, 1.97203, 1.89906, 1.89917, 1.99296, 1.99332, 1.97773, 1.97905, 1.90079, 1.99087, 1.99639, 1.99223, 1.90243, 2.01683, 1.9834, 1.98886, 2.00678, 1.99255, 2.00072, 1.99561, 1.9913, 1.98028, 1.90482, 1.90375, 2.01448, 1.9984, 1.99247, 1.97904, 1.9033, 1.98717, 1.99989, 1.90398, 1.90357, 1.98016, 1.98315, 1.98207, 1.90442, 1.98438, 1.98427, 1.98592, 1.90581, 1.90455, 2.00286, 1.98306, 1.93402, 2.01067, 2.00832, 1.84404, 1.84293, 1.84182, 1.84166, 1.89849, 1.90011, 1.84166, 1.8389, 1.83923, 1.84091, 1.83948, 1.93443, 1.93239, 1.93025, 1.84564, 1.90092, 1.90044, 1.84739, 1.84481, 2.02838, 2.02178, 1.84762, 2.03196, 2.02069, 1.84499, 1.84439, 1.84444, 1.84722, 2.03842, 1.84546, 1.89351, 1.84511, 2.01376, 1.84191, 2.01434, 2.02519, 1.84068, 2.02813, 1.92544, 1.84093, 1.8413, 1.83866, 1.83758, 1.83775, 1.83845, 1.83831, 1.83697, 1.83529, 1.76644, 1.76676, 1.76301, 1.86286, 1.76134, 1.76098, 1.87005, 1.75951, 1.80778, 1.75987, 1.75648, 1.75777, 1.75748, 1.86956, 1.75397, 1.75411, 1.94747, 1.75248, 1.75178, 1.87192, 1.87204, 1.74967, 1.74706, 1.75108, 1.75034, 1.7987, 1.7484, 1.74957, 1.74882, 1.87515, 1.79913, 1.74743, 1.74639, 1.86528, 1.74516, 1.87614, 1.87628, 1.74544, 1.74602, 1.74587, 1.74561, 1.74405, 1.74536, 1.74717, 1.87315, 1.87361, 1.74763, 1.85473, 1.80001, 1.85577, 1.7975, 1.87219, 1.86858, 1.86654, 1.84266, 1.74775, 1.74532
1.84703, 1.84782, 1.78104, 1.78231, 1.86125, 1.84719, 1.77824, 1.78009, 1.86128, 1.77565, 1.82622, 1.77349, 1.77531, 1.77339, 1.87383, 1.77133, 1.77186, 1.87213, 1.76956, 1.77184, 1.77262, 1.81903, 1.7698, 1.77015, 1.76848, 1.76898, 1.8651, 1.867, 1.81792, 1.7665, 1.76432, 1.85817, 1.76552, 1.86535, 1.76257, 1.85179, 1.86582, 1.75874, 1.7598, 1.76246, 1.76241, 1.76463, 1.76286, 1.872, 1.75947, 1.87193, 1.87372, 1.81049, 1.76208, 1.76135, 1.76256, 2.02081, 1.75905, 1.93896, 1.7623, 1.76481, 1.76177, 1.76093, 1.98589, 1.98643, 1.98743, 1.91051, 1.90672, 1.90309, 1.90663, 1.90705, 1.90003, 1.90002, 1.89932, 1.9098, 1.91094, 1.81871, 1.81786, 1.90874, 1.89547, 1.89615, 1.91047, 1.91092, 1.81489, 1.89093, 1.91062, 1.91104, 1.91382, 1.91125, 1.91322, 1.91289, 1.88598, 1.91346, 1.88573, 1.81036, 2.00973, 1.80853, 2.00715, 1.80921, 1.80951, 1.91424, 1.91492, 1.91431, 1.91311, 1.89024, 1.89005, 1.8907, 1.89083, 1.81797, 1.9157, 2.01404, 1.82285, 1.90127, 1.82793, 2.01834, 1.9903, 1.98767, 1.9786, 1.97974, 1.96812, 1.9672, 1.96494, 1.98086, 1.96926, 1.88874, 1.8898, 1.9686, 1.89044, 1.96502, 1.8891, 1.96922, 1.88632, 1.96564, 1.97245, 1.97742, 1.88961, 1.96715, 1.89021, 1.89063, 1.98625, 1.89036, 1.97614, 1.98331, 1.98245, 2.0008, 1.97874, 1.89249, 1.89432, 1.99904, 1.98365, 1.89944, 1.97996, 1.97602, 1.99157, 1.97173, 1.98922, 1.98654, 1.99083, 1.99439, 1.99211, 1.97799, 1.98289, 1.9033, 1.90273, 1.98298, 1.98746, 1.98251, 1.98656, 1.98611, 1.97763, 1.98774, 1.99727, 2.00212, 1.99658, 1.97958, 1.98698, 1.90432, 2.00922, 2.00071, 1.98225, 1.98105, 1.9047, 1.90383, 1.98314, 1.98564, 1.981, 1.97976, 1.90528, 1.90462, 1.98535, 1.98257, 1.97949, 1.9829, 1.99012, 1.99662, 1.99845, 1.99804, 1.84555, 1.93278, 1.93076, 1.84475, 1.84123, 2.01815, 1.84106, 1.841, 1.88937, 1.84456, 1.83884, 1.93897, 1.83935, 1.83985, 1.84143, 1.94107, 1.90058, 1.89834, 1.90037, 1.90073, 1.84501, 1.84438, 1.84474, 2.04277, 1.89884, 1.84506, 1.84412, 1.93976, 2.02417, 1.84459, 1.84318, 1.84491, 1.94041, 1.93915, 1.89303, 1.84298, 1.84505, 1.84237, 1.8413, 1.84048, 1.93045, 1.92798, 1.84109, 1.93026, 1.83697, 1.83932, 1.8402, 1.83941, 1.83773, 1.93813, 1.83373, 1.76954, 1.7664, 1.76423, 1.76348, 1.86964, 1.7621, 1.75912, 1.80879, 1.75904, 1.75668, 1.75501, 1.8757, 1.75589, 1.86622, 1.86336, 1.75429, 1.75528, 1.75376, 1.75435, 1.75405, 1.87122, 1.86859, 1.75076, 1.751, 1.74803, 1.75111, 1.75118, 1.7488, 1.87242, 1.8757, 1.87282, 1.87617, 1.74526, 1.74761, 1.74594, 1.74555, 1.92599, 1.74788, 1.74586, 1.74449, 1.7416, 1.86906, 1.92905, 1.74595, 1.74719, 1.74639, 1.7989, 1.85525, 1.79775, 1.85796, 1.74989, 1.74453, 1.87245, 1.86965, 1.74676, 1.74783, 1.86567
1.84717, 1.84842, 1.78052, 1.77991, 1.78199, 1.84903, 1.77971, 1.78199, 1.8391, 1.77588, 1.86174, 1.7733, 1.77451, 1.87493, 1.77245, 1.77289, 1.77276, 1.77171, 1.77158, 1.87619, 1.76807, 1.87209, 1.76859, 1.76871, 1.77059, 1.76831, 1.81725, 1.76968, 1.83386, 1.76482, 1.76697, 1.76652, 1.87231, 1.85546, 1.86154, 1.76445, 1.76331, 1.81418, 1.81499, 1.81573, 1.86159, 1.76272, 1.76275, 1.8596, 1.81326, 1.76154, 1.76236, 1.76431, 1.76321, 1.76322, 1.86671, 1.76251, 1.7613, 1.76166, 1.94026, 2.02057, 1.76304, 1.76273, 1.98678, 1.98792, 1.98478, 1.90809, 1.90405, 1.91022, 1.90475, 1.9078, 1.9068, 1.89995, 1.90789, 1.90679, 1.90833, 2.00196, 1.91094, 1.98787, 1.99987, 1.91021, 1.89202, 1.81338, 1.9128, 1.81277, 1.89157, 1.81328, 1.81259, 1.91083, 1.91414, 1.88725, 1.88674, 1.81102, 1.91329, 1.8857, 1.91423, 1.91517, 1.91455, 1.80941, 2.00482, 1.91351, 1.8855, 1.91558, 1.88764, 1.813, 1.81388, 1.91619, 1.91515, 1.91526, 1.89665, 1.91596, 1.90367, 1.91697, 1.83071, 1.83109, 2.00937, 1.84905, 1.98619, 1.88985, 1.89002, 1.96804, 1.96493, 1.97253, 1.96371, 1.8889, 1.96732, 1.96874, 1.97255, 1.96626, 1.88794, 1.96941, 1.96943, 1.88948, 1.96566, 1.96288, 1.96602, 1.89, 1.99334, 1.98666, 1.98566, 1.97901, 1.98218, 1.99123, 1.99272, 1.98266, 1.96244, 1.97946, 1.97101, 1.97821, 1.89816, 1.97285, 1.98986, 1.89929, 1.97501, 1.8997, 1.98666, 1.981, 1.98387, 1.90097, 2.00107, 1.89672, 1.98787, 1.9763, 2.00008, 1.99218, 1.98689, 1.98595, 1.98319, 1.90355, 1.97966, 1.984, 1.97627, 2.00139, 2.00137, 1.9803, 1.98039, 1.90445, 1.98056, 1.90361, 1.99565, 1.99555, 1.99549, 1.98042, 1.98223, 1.98585, 1.98431, 1.98339, 1.98244, 1.98386, 1.9857, 1.90444, 1.98604, 1.90506, 1.98155, 1.98701, 1.99809, 2.00119, 1.84766, 1.84466, 2.01417, 1.84325, 1.94072, 1.93928, 1.8441, 1.84207, 1.89103, 1.88994, 1.84083, 1.83957, 1.93944, 1.83912, 1.83902, 1.84151, 1.8409, 1.89973, 1.90062, 1.90113, 1.90061, 1.84442, 1.84726, 2.03616, 1.84546, 1.84433, 1.84569, 2.02738, 1.84426, 1.84652, 2.0282, 2.02088, 1.84548, 1.92674, 1.89396, 1.89368, 1.84224, 2.02214, 1.84138, 2.02855, 1.83905, 1.88963, 1.8385, 1.8381, 2.02913, 1.83664, 1.83565, 2.02247, 1.83794, 1.83675, 1.83475, 1.7676, 1.86959, 1.86183, 1.8633, 1.76213, 1.76206, 1.86433, 1.80825, 1.75773, 1.80656, 1.86443, 1.8308, 1.80569, 1.86871, 1.75711, 1.86663, 1.75607, 1.75385, 1.74866, 1.7526, 1.7533, 1.74931, 1.80099, 1.86937, 1.86655, 1.86847, 1.86962, 1.7486, 1.84418, 1.87281, 1.74494, 1.94474, 1.74578, 1.74754, 1.87216, 1.74738, 1.92801, 1.87555, 1.87574, 1.85433, 1.87587, 1.74777, 1.74777, 1.74597, 1.74734, 1.79683, 1.85639, 1.7969, 1.74804, 1.74712, 1.7507, 1.79652, 1.74594, 1.74685, 1.7479, 1.74706, 1.86431
1.78249, 1.7815, 1.78348, 1.78399, 1.78252, 1.77998, 1.77948, 1.77935, 1.83098, 1.77651, 1.77697, 1.77841, 1.77606, 1.77638, 1.77542, 1.77527, 1.77604, 1.77153, 1.77163, 2.02925, 2.03089, 1.77173, 1.87428, 1.76986, 1.77036, 1.86587, 1.77126, 1.85787, 1.87923, 1.88077, 1.76895, 1.76598, 1.76685, 1.7659, 1.76587, 1.76589, 1.87198, 1.76661, 1.82342, 1.82453, 1.76489, 1.76488, 1.76474, 2.0197, 1.76483, 1.762, 1.81359, 1.76485, 1.7649, 1.86422, 1.76363, 1.76308, 1.86179, 1.81348, 1.76385, 1.76443, 1.76644, 1.76727, 1.90668, 1.99542, 1.82879, 1.99347, 1.99348, 1.9928, 1.9928, 1.99416, 1.90857, 1.90737, 1.82286, 1.90732, 1.89573, 1.98614, 1.89911, 1.98988, 1.89389, 1.81841, 1.81467, 1.81426, 1.81463, 1.9132, 1.914, 1.81346, 1.8136, 1.91375, 1.91563, 1.88922, 1.88673, 1.80975, 1.91936, 1.88744, 1.8866, 1.9171, 1.88629, 1.80993, 1.91423, 1.88533, 1.88701, 1.8874, 1.99551, 1.91758, 1.89279, 2.00935, 1.89278, 1.91739, 1.9924, 1.82064, 1.82312, 2.00048, 2.00353, 1.99381, 1.9935, 1.89176, 1.89039, 1.97161, 1.88942, 1.99966, 2.00733, 1.96501, 1.96676, 1.9697, 1.96832, 1.96763, 1.88935, 1.88926, 1.88928, 1.88957, 1.8907, 1.96867, 1.88852, 1.96701, 1.97992, 1.98056, 1.89003, 1.98221, 1.97921, 1.96913, 1.96992, 1.96994, 1.8931, 1.99106, 1.89454, 1.98246, 1.97353, 1.97998, 1.97204, 1.98657, 1.98984, 1.9826, 1.97735, 1.97408, 1.98958, 1.99342, 1.99337, 1.99412, 1.99251, 1.98908, 1.9811, 1.90387, 1.99273, 1.98754, 1.98682, 1.99406, 1.98826, 1.99298, 1.90356, 1.90291, 1.98697, 1.98362, 1.99718, 1.99368, 1.98278, 1.98242, 1.99748, 1.90369, 1.99443, 1.99982, 1.98067, 1.98288, 2.00507, 1.98566, 1.98549, 1.98531, 1.98718, 1.98412, 1.98625, 1.98341, 1.98532, 1.99255, 2.00023, 1.99261, 1.99682, 2.00425, 1.84486, 1.84431, 1.84446, 1.84425, 1.94377, 1.84117, 1.83923, 1.83941, 1.84022, 1.83839, 1.83945, 1.84113, 1.84119, 1.84103, 1.8401, 1.84003, 1.84106, 1.84212, 1.84174, 1.84253, 1.8448, 1.8437, 1.84506, 1.84557, 2.03892, 1.93165, 1.84273, 1.84551, 1.84446, 1.8464, 1.84622, 1.84468, 1.84435, 1.84426, 1.84472, 1.84283, 1.84322, 1.84137, 1.89264, 1.89147, 1.93123, 1.89166, 1.83961, 1.84006, 1.83933, 1.83853, 1.83693, 1.84031, 1.83737, 1.83749, 1.83554, 1.86222, 1.76619, 1.7659, 1.76377, 1.76184, 1.75897, 1.75859, 1.80744, 1.80758, 1.80773, 1.84913, 1.83287, 1.83072, 1.80477, 1.80371, 1.80546, 1.80331, 1.80246, 1.80218, 1.75205, 1.75116, 1.75198, 1.75077, 1.87169, 1.74737, 1.74415, 1.87169, 1.84142, 1.74778, 1.8472, 1.87086, 1.84387, 1.74815, 1.74676, 1.74669, 1.748, 1.74773, 1.74623, 1.74627, 1.74511, 1.87571, 1.74819, 1.86516, 1.86101, 1.74742, 1.85763, 1.79677, 1.79932, 1.74912, 1.7452, 1.74776, 1.7491, 1.74825, 1.74698, 1.74334, 1.86874, 1.86638
2.03442, 1.78179, 1.78366, 1.78395, 1.78479, 1.78036, 1.77915, 1.7797, 1.77897, 1.77954, 1.77856, 1.77951, 1.77719, 1.77262, 1.77403, 2.05454, 1.87538, 1.77477, 1.77508, 1.77493, 1.77145, 1.77188, 1.76907, 1.77044, 1.77201, 1.77234, 1.82053, 1.76974, 1.76945, 1.77086, 1.76925, 1.77001, 1.76863, 1.76652, 1.76639, 1.76738, 1.86829, 1.7677, 1.7675, 1.76491, 1.76424, 1.81684, 1.76691, 1.86433, 1.86439, 1.76487, 1.76146, 1.76233, 1.86151, 1.76467, 1.76437, 1.76516, 1.86367, 1.86222, 1.94428, 1.81443, 1.81541, 1.92347, 1.83073, 1.91123, 1.9859, 1.9102, 1.99367, 1.99435, 1.90352, 1.91294, 1.99045, 1.9011, 1.90106, 1.9033, 1.91083, 1.89777, 1.82053, 1.91158, 1.98951, 1.8949, 1.91385, 1.98932, 1.91672, 1.89309, 1.81588, 1.89018, 1.91671, 1.91613, 1.91465, 1.91378, 1.81174, 1.91685, 1.91685, 1.81349, 1.8871, 1.8866, 1.91754, 1.91786, 1.91702, 1.88547, 1.99319, 1.8879, 1.81287, 1.99639, 1.81449, 1.89568, 1.89459, 1.89603, 1.89629, 1.9007, 1.91566, 1.91746, 1.91751, 1.91644, 2.00654, 2.00732, 1.96938, 1.98122, 1.98864, 1.89091, 1.89062, 1.99294, 1.9792, 1.97201, 1.97205, 1.97219, 1.9701, 1.88985, 1.89196, 1.8894, 1.97926, 1.96888, 1.98088, 1.89005, 1.9873, 1.98002, 1.98176, 1.97843, 1.96451, 1.98487, 1.98769, 1.89323, 1.89213, 1.89376, 1.98402, 1.99353, 1.9721, 1.98117, 1.97865, 1.99547, 1.9787, 1.97589, 1.90051, 1.98223, 1.97381, 1.99021, 1.99718, 1.99052, 1.99385, 1.98331, 1.98129, 1.97951, 1.97933, 1.99872, 1.98023, 1.99029, 1.99712, 1.99574, 1.99239, 1.90351, 1.90347, 1.98598, 1.9967, 1.99593, 1.90296, 2.0035, 1.98375, 2.00365, 1.98426, 1.98299, 1.99241, 2.00039, 1.98068, 1.98137, 1.98601, 1.98253, 1.98671, 1.98607, 1.98588, 1.98642, 1.98293, 1.99585, 1.99242, 1.98277, 1.98271, 1.84541, 1.84431, 2.0155, 1.84185, 1.8409, 1.84084, 1.84208, 1.84147, 2.0128, 1.84, 1.84101, 1.84029, 1.83991, 1.83974, 1.84136, 1.94087, 1.8402, 1.84156, 1.84059, 2.01708, 1.84004, 1.84095, 1.84177, 1.84131, 1.84681, 1.84606, 1.93692, 1.93498, 1.89565, 1.8461, 2.01591, 2.0154, 2.03577, 1.8447, 2.03288, 1.84559, 1.84445, 1.84419, 1.84199, 1.93051, 1.84037, 1.8383, 1.84093, 1.84091, 1.8403, 1.88764, 1.83806, 2.03739, 1.83815, 1.83728, 1.83803, 1.83716, 1.8171, 1.81637, 1.81377, 1.76227, 1.76143, 1.7581, 1.7579, 1.80958, 1.87116, 1.868, 1.75611, 1.85144, 1.75494, 1.86221, 1.80459, 1.80553, 1.80454, 1.80256, 1.80245, 1.75106, 1.75112, 1.75321, 1.75052, 1.74888, 1.84425, 1.84063, 1.92385, 1.84488, 1.84295, 1.84093, 1.74809, 1.84713, 1.74422, 1.79973, 1.74346, 1.86985, 1.74713, 1.79959, 1.74391, 1.74461, 1.74303, 1.74639, 1.74761, 1.79959, 1.79788, 1.79947, 1.79888, 1.79783, 1.74772, 1.85637, 1.74824, 1.85563, 1.74932, 1.74636, 1.8691, 1.74694, 1.74981
1.78457, 2.06643, 1.78466, 1.78489, 1.95817, 1.78156, 1.78221, 1.78201, 1.77949, 1.7817, 1.7789, 1.87663, 1.77911, 1.77605, 1.77692, 1.95861, 1.77584, 1.77551, 1.87506, 1.86844, 1.87506, 1.87635, 1.77277, 1.77339, 1.77381, 1.82068, 1.77163, 1.82227, 1.77184, 1.8748, 1.87612, 1.7686, 1.77117, 2.02662, 1.76673, 1.76843, 1.85785, 1.76649, 1.76584, 1.86726, 1.76549, 1.85623, 1.76778, 1.7658, 1.88359, 1.86252, 1.76626, 1.76629, 1.81648, 1.76488, 1.76528, 1.81479, 1.76808, 1.84814, 1.84881, 1.92665, 1.81694, 1.76331, 1.91006, 1.91324, 1.91097, 1.91049, 1.90496, 1.91018, 1.90123, 1.9121, 1.99696, 1.82364, 1.89724, 1.89903, 1.89592, 1.89616, 1.89764, 1.89563, 1.89675, 2.00685, 1.81488, 1.89478, 1.89285, 1.89071, 1.88983, 2.00958, 1.99198, 1.91885, 1.99253, 1.99477, 1.81264, 1.92034, 1.81118, 1.9954, 1.88734, 1.91676, 1.88613, 1.81, 1.80988, 1.80965, 1.88893, 1.88812, 1.91865, 2.00105, 1.89364, 2.00879, 1.89453, 1.92007, 1.91987, 1.9197, 1.91668, 1.99768, 1.83107, 2.02134, 2.01543, 1.89357, 1.8932, 1.98614, 1.96831, 1.98663, 1.96832, 1.99308, 1.98659, 1.97328, 1.97585, 1.97274, 1.89187, 1.89036, 1.88809, 1.88989, 1.97162, 1.97629, 1.98827, 1.88999, 1.9684, 1.89233, 1.89285, 1.99765, 1.89338, 1.89344, 1.8943, 1.89295, 1.98903, 1.98372, 1.98548, 1.89681, 1.99506, 1.98353, 1.89754, 1.98514, 2.00524, 1.99081, 1.99137, 1.90259, 1.97884, 1.97628, 1.99758, 1.98375, 1.99248, 1.99117, 1.90363, 1.90375, 1.99366, 1.9033, 1.97946, 1.98134, 1.99062, 2.00393, 1.98208, 1.98603, 1.90524, 1.9853, 1.90528, 2.00405, 2.00693, 1.99004, 1.99637, 1.98045, 1.98233, 1.99662, 1.99254, 1.98117, 2.00761, 1.98308, 1.98197, 1.9873, 1.98811, 1.9037, 1.98805, 1.98915, 1.99022, 1.99637, 1.90848, 1.98387, 1.98341, 1.98299, 1.84313, 1.84397, 1.84339, 1.89071, 1.84034, 1.84442, 1.84169, 1.84301, 1.83729, 2.02485, 1.84115, 1.94094, 1.84084, 1.83991, 1.839, 1.83823, 1.84141, 1.84285, 2.02072, 2.01936, 1.84111, 1.84462, 1.84414, 2.03088, 1.84462, 1.84562, 1.93733, 1.89833, 1.84464, 1.84413, 1.84798, 1.84578, 1.8477, 1.84654, 2.03829, 1.84277, 1.93366, 1.84417, 1.84458, 1.84063, 1.84202, 1.84071, 1.8375, 1.88996, 1.84062, 1.83676, 2.04114, 1.83426, 1.83206, 1.83454, 1.83478, 1.85121, 1.82713, 1.85417, 1.85351, 1.76164, 1.75845, 1.86226, 1.80786, 1.75842, 1.75665, 1.75764, 1.85359, 1.85237, 1.84818, 1.84881, 1.85049, 1.75257, 1.80271, 1.8029, 1.80389, 1.86532, 1.75071, 1.86527, 1.80955, 1.81617, 1.74914, 1.7497, 1.74958, 1.84479, 1.74648, 1.74514, 1.74846, 1.86948, 1.86658, 1.74431, 1.74465, 1.8722, 1.74746, 1.745, 1.98092, 1.7442, 1.74624, 1.74754, 1.87234, 1.8722, 1.87202, 1.7508, 1.74756, 1.749, 1.79769, 1.74764, 1.86644, 1.86182, 1.7461, 1.74801, 1.74738, 1.74565
1.78649, 2.06343, 1.78428, 1.7861, 1.7869, 1.78509, 1.78563, 1.7835, 2.05563, 1.83, 1.77971, 1.78045, 1.77922, 1.77993, 1.77727, 1.77658, 1.77852, 1.77661, 1.77378, 1.77523, 1.87613, 1.77364, 2.05659, 2.06835, 1.87239, 1.77283, 1.77251, 1.77281, 1.86724, 1.7693, 1.85734, 1.76965, 1.76982, 1.772, 1.76919, 1.82064, 1.76953, 1.76974, 1.76911, 1.81737, 1.81891, 1.81837, 1.81662, 1.76798, 1.88592, 1.76668, 1.81743, 1.81684, 1.76611, 1.76522, 1.76423, 1.76621, 1.768, 1.85075, 1.85092, 1.76528, 1.81812, 1.76481, 1.83071, 1.90812, 1.90582, 1.90928, 1.90557, 1.90338, 1.90304, 1.90218, 1.90287, 1.8226, 1.89946, 1.91483, 1.91628, 1.89803, 1.89837, 1.89608, 1.89604, 1.91545, 1.91752, 1.8169, 1.8938, 1.9142, 1.9152, 1.89238, 1.88989, 1.88966, 2.01032, 1.91799, 1.91444, 1.88733, 1.91633, 1.81192, 1.91717, 1.88825, 1.91841, 1.88901, 1.88961, 1.88976, 1.91798, 1.88962, 1.89194, 1.92012, 1.89154, 1.92119, 1.89187, 1.92208, 1.92312, 1.90037, 1.99662, 1.90532, 1.91069, 2.01442, 2.0389, 1.85162, 1.99726, 1.98713, 1.9684, 1.98733, 1.88981, 1.96943, 1.98397, 1.97632, 1.89287, 1.89067, 1.88942, 1.88918, 1.88982, 1.96709, 1.96588, 1.96899, 1.89251, 1.97549, 1.96805, 1.89019, 1.89272, 1.98345, 1.89242, 1.97821, 1.98977, 1.99003, 1.98835, 1.89629, 2.00856, 2.00983, 1.98224, 2.00717, 1.89944, 1.99143, 1.8994, 1.89982, 1.97845, 1.99677, 2.0034, 1.97888, 2.00253, 1.98722, 2.01084, 1.99043, 1.99227, 1.90404, 1.99461, 1.97756, 2.00557, 1.98176, 1.90658, 1.90535, 1.99257, 1.98361, 1.90684, 1.98287, 1.99094, 1.98208, 1.90349, 1.98264, 1.98583, 1.98169, 1.98305, 1.98345, 1.99374, 1.98064, 1.9818, 1.99457, 1.98276, 1.99041, 1.98288, 1.98978, 1.98983, 1.98759, 1.98962, 1.98214, 1.90565, 1.98224, 1.90669, 1.84449, 1.84228, 1.84334, 1.84498, 1.84255, 1.84156, 1.89136, 1.84268, 1.8889, 1.83904, 1.83752, 1.83858, 1.94129, 1.94081, 1.84028, 2.02436, 1.83819, 1.83708, 1.8405, 1.84118, 1.84078, 1.94056, 1.84244, 1.89645, 1.89579, 1.84601, 1.84503, 1.8455, 2.03722, 2.02508, 1.89641, 1.84474, 1.89637, 1.84575, 1.84681, 1.84519, 1.84626, 1.84383, 1.84364, 2.04506, 2.04227, 1.8412, 1.83899, 1.8394, 1.83826, 1.83812, 1.83815, 1.83481, 1.83344, 1.83758, 1.83578, 1.83361, 1.85123, 1.81586, 1.89909, 1.85768, 1.85771, 1.76152, 1.75523, 1.75758, 1.86175, 1.75611, 1.85283, 1.85167, 1.82506, 1.8513, 1.74957, 1.84525, 1.8041, 1.75182, 1.80234, 1.80086, 1.74876, 1.86117, 1.75123, 1.75079, 1.74989, 1.75012, 1.74985, 1.7991, 1.7972, 1.74747, 1.79583, 1.74641, 1.74467, 1.74487, 1.74632, 1.74613, 1.87377, 1.81721, 1.74738, 1.7465, 1.74372, 1.74413, 1.80538, 1.74631, 1.87332, 1.74717, 1.74795, 1.74443, 1.87079, 1.8714, 1.74898, 1.74598, 1.74775, 1.86502, 1.74793, 1.74533, 1.85811
1.78921, 1.78894, 1.7886, 1.78893, 1.7864, 1.78549, 1.78257, 1.78459, 1.87603, 1.78166, 1.78202, 1.88234, 2.06257, 1.77933, 1.782, 1.96225, 2.03467, 1.77755, 1.77405, 1.77322, 1.77371, 1.87834, 1.77305, 1.87548, 1.77469, 1.7755, 1.77519, 1.77545, 1.86874, 1.87223, 1.77271, 1.87399, 1.76979, 1.82074, 1.76905, 1.7686, 1.82076, 1.82031, 1.81798, 1.76843, 1.76814, 1.86893, 1.76831, 1.85771, 1.76788, 1.76805, 1.7682, 1.76712, 1.76641, 1.94577, 1.76459, 1.86787, 1.94152, 1.76603, 1.81707, 1.76844, 1.76918, 1.93897, 1.91002, 1.91168, 1.98913, 1.99314, 1.90558, 1.90766, 1.82626, 1.99335, 1.99632, 1.82089, 1.82356, 1.90583, 1.89684, 1.82372, 1.89727, 1.8201, 1.89803, 1.8968, 1.82023, 1.91713, 1.99365, 1.89368, 1.89385, 1.89274, 1.91661, 1.91683, 1.99737, 1.81341, 1.91718, 1.91717, 1.81065, 1.91807, 1.9186, 1.88884, 1.92043, 1.88654, 1.91996, 1.92112, 1.89048, 1.99431, 1.8904, 1.92169, 1.81645, 1.92326, 1.91868, 1.92098, 1.89987, 1.92075, 1.9026, 1.82954, 1.92183, 1.92163, 2.025, 1.97251, 1.89509, 1.89562, 1.89481, 1.99609, 1.98074, 1.89088, 1.89112, 1.96485, 1.97105, 1.88953, 1.88971, 1.89062, 1.89144, 1.89092, 1.9677, 1.89263, 1.97537, 1.89392, 1.96948, 1.99313, 1.98017, 1.98592, 1.98806, 1.89293, 1.89376, 1.98196, 1.96482, 1.99016, 1.99026, 1.97433, 2.00117, 1.97459, 1.90015, 1.90072, 1.97746, 2.0019, 1.9771, 1.99708, 2.00067, 1.97948, 1.99353, 1.97692, 1.97655, 1.99892, 2.003, 1.9793, 2.00041, 1.98105, 1.98295, 1.98294, 1.98238, 2.00327, 1.90347, 1.99284, 2.01062, 1.99555, 1.99577, 1.99033, 1.99236, 2.00792, 1.90452, 2.00834, 1.90632, 1.98907, 1.98096, 1.99139, 1.98266, 2.00471, 1.9891, 1.98735, 1.99131, 1.9919, 1.98891, 1.98977, 1.99125, 1.98338, 1.98289, 1.98377, 2.00753, 1.98347, 1.84444, 2.0353, 2.0318, 1.84426, 1.88998, 1.84168, 1.84145, 1.88891, 1.8409, 1.83865, 1.84025, 1.83925, 1.84059, 1.83957, 1.88877, 1.83948, 1.83739, 1.8405, 1.9346, 1.84042, 1.84379, 1.84088, 1.89599, 1.89593, 1.89542, 1.84684, 1.84761, 1.84662, 1.84577, 1.84644, 1.84656, 1.91057, 1.89574, 1.89555, 1.8424, 1.84688, 2.01201, 1.84208, 1.8412, 1.84058, 1.89112, 1.83935, 1.88869, 1.8357, 1.83868, 1.83748, 1.83661, 1.83575, 1.83378, 1.83528, 1.83451, 1.81725, 1.82694, 1.81626, 1.76333, 1.76115, 1.7608, 1.75814, 2.04761, 1.86129, 1.75807, 1.75833, 1.85313, 1.75407, 1.7545, 1.86348, 1.75153, 1.75542, 1.75378, 1.85889, 1.75457, 1.75308, 1.75129, 1.75147, 1.75247, 1.85926, 1.7995, 1.79717, 1.79765, 1.74704, 1.74674, 1.79678, 1.85551, 1.74682, 1.74521, 1.74442, 1.74493, 1.74439, 1.86835, 1.86415, 1.86104, 1.8573, 1.85518, 1.85279, 1.74448, 1.74634, 2.05069, 2.05981, 1.87528, 1.74834, 1.74745, 1.83937, 1.74727, 1.92009, 1.86807, 1.86235, 1.86235, 1.79591
1.79242, 1.8395, 1.78885, 1.78949, 1.78782, 1.78768, 1.78478, 1.78733, 1.78594, 2.05599, 1.77911, 1.78018, 2.03728, 2.05627, 1.78019, 1.7835, 1.77887, 1.78013, 1.77701, 1.77818, 1.77601, 1.7762, 1.77581, 1.77821, 1.9548, 1.77543, 1.77485, 1.77116, 1.77195, 1.77247, 1.77476, 1.7738, 1.77053, 1.77319, 1.7751, 1.92985, 1.85889, 1.82103, 1.86397, 1.86469, 1.76842, 1.77012, 1.85493, 1.81958, 1.86852, 1.76875, 1.76909, 1.76821, 1.76909, 1.9451, 1.86558, 1.76918, 1.76642, 1.81785, 1.76987, 1.77162, 1.94272, 1.7689, 1.99127, 1.91379, 1.99237, 1.99105, 1.91201, 1.91396, 1.91361, 1.82794, 1.90483, 1.91705, 1.90331, 1.90694, 1.90374, 1.824, 1.8978, 1.82113, 1.91579, 1.9165, 1.89474, 1.91681, 1.89371, 1.92019, 1.89601, 1.8912, 1.88982, 1.89009, 2.005, 1.89149, 1.88953, 1.88929, 1.88888, 1.89122, 1.88767, 1.88729, 1.92168, 1.88852, 2.01724, 1.92004, 1.88986, 1.88912, 1.89063, 2.00476, 1.92047, 1.89371, 1.91863, 1.89639, 1.82261, 2.01301, 1.92206, 1.92133, 1.92067, 1.99962, 1.99615, 1.99539, 1.97288, 1.97228, 1.99898, 1.96644, 1.99042, 1.97037, 1.97995, 1.96746, 1.97022, 1.89118, 1.89055, 1.89053, 1.89281, 1.9655, 1.97139, 1.99765, 1.96952, 1.97542, 1.97402, 1.98228, 1.89338, 1.99613, 1.8958, 1.98075, 1.97944, 1.99279, 1.96608, 1.96536, 1.97665, 1.97628, 1.99097, 1.97675, 1.97641, 2.00133, 1.97706, 2.00038, 1.90322, 1.99981, 1.99654, 2.01468, 1.9804, 2.00298, 1.99444, 1.97879, 2.00309, 1.9975, 2.00687, 2.00357, 1.98026, 2.0018, 1.9825, 2.00022, 1.98806, 1.99105, 1.99008, 1.90737, 1.90702, 1.99788, 1.98977, 2.00391, 1.99821, 1.98236, 1.99565, 1.99317, 1.90627, 1.99361, 1.90659, 1.98483, 1.98928, 1.98768, 1.99106, 1.98338, 1.98965, 1.9896, 1.98406, 1.98422, 2.00179, 1.98491, 1.90873, 1.8451, 1.84409, 1.84214, 1.89248, 1.89155, 1.84003, 1.84027, 1.89194, 1.89062, 1.83693, 1.84011, 1.83832, 1.83904, 1.83538, 1.83999, 1.838, 2.02077, 1.83929, 1.84014, 1.93545, 1.84082, 2.03423, 1.84455, 1.84381, 1.84374, 2.02431, 1.84412, 2.04103, 1.84652, 1.94085, 1.93909, 1.84732, 1.9132, 1.89704, 2.03057, 2.045, 2.02547, 2.01483, 1.84406, 1.84186, 1.89303, 1.89208, 1.89024, 1.89006, 1.88906, 1.88685, 1.83883, 1.83568, 1.92073, 1.88451, 1.83193, 1.83153, 1.76689, 1.8165, 1.91424, 1.91272, 1.76187, 1.85687, 1.75932, 1.75679, 1.75782, 1.85963, 1.75576, 1.85094, 1.75534, 1.85234, 1.85587, 1.85444, 1.75325, 1.75169, 1.85858, 1.85599, 1.75133, 1.74949, 1.74827, 1.7514, 1.84252, 1.80068, 1.74757, 1.79731, 1.74788, 1.85265, 1.853, 1.7967, 1.96976, 1.87492, 1.74462, 1.87517, 1.74637, 1.74592, 1.86619, 1.84668, 1.74638, 1.79834, 1.74431, 1.74384, 1.74329, 1.74727, 1.74548, 1.74374, 1.74728, 1.74763, 1.86575, 1.74849, 1.74726, 1.86168, 1.84074, 1.74588, 1.74456
1.84366, 1.78847, 1.84006, 1.78778, 1.78535, 1.7835, 1.78828, 1.78574, 1.87881, 1.78409, 1.78448, 1.87588, 1.78218, 1.83171, 1.83094, 1.8327, 1.78091, 1.78108, 1.7794, 1.777, 1.77812, 1.77855, 1.96171, 1.77643, 1.77653, 1.77566, 1.95282, 1.77655, 2.03146, 1.77307, 2.03294, 1.77142, 1.77516, 1.77307, 1.7725, 1.77318, 1.82249, 1.82243, 1.86631, 1.86765, 1.77063, 1.77119, 1.77199, 1.86913, 1.86985, 1.85745, 1.76663, 1.86213, 1.77086, 1.76985, 1.77028, 1.77024, 1.76919, 1.77003, 1.77095, 2.04814, 1.94193, 1.77008, 1.90642, 1.99333, 1.91367, 1.90609, 1.90688, 1.91061, 1.9132, 1.91636, 1.90448, 1.90446, 1.90098, 1.90168, 1.89928, 2.00034, 1.89894, 1.89808, 1.8982, 1.81969, 1.81939, 1.91805, 1.91857, 1.89466, 1.81604, 1.89526, 1.89283, 1.89266, 1.92145, 1.89001, 1.89251, 1.81269, 1.88956, 1.88967, 1.92056, 1.81177, 1.81295, 1.88881, 1.88898, 1.92134, 1.89118, 1.92438, 1.89347, 1.81749, 1.81788, 1.89253, 2.00106, 1.89612, 1.89962, 1.99789, 1.90367, 1.99617, 1.99776, 2.00036, 2.03058, 2.00198, 1.97551, 1.97535, 1.9939, 1.98927, 1.99362, 1.98362, 1.97053, 1.89293, 1.97425, 1.97394, 1.9726, 1.89202, 1.89146, 1.89211, 1.98012, 1.97987, 1.8935, 1.98231, 1.97242, 1.97349, 1.97947, 1.89367, 1.89674, 1.99331, 1.99354, 1.89559, 1.99295, 2.00807, 1.89732, 1.98598, 1.99125, 1.98606, 1.99708, 1.97908, 2.00679, 2.00541, 1.98187, 2.01103, 1.98018, 2.01359, 2.00474, 1.90356, 2.00412, 2.00228, 1.98265, 1.99705, 2.00649, 1.98195, 1.98289, 1.98933, 2.00861, 1.99311, 1.98274, 1.98347, 1.98643, 1.90777, 1.99487, 1.99417, 1.90092, 2.00024, 1.99794, 1.98374, 1.99303, 2.00099, 2.00004, 1.99738, 1.99217, 1.98569, 1.99043, 1.98232, 1.9902, 1.98919, 1.98947, 1.99099, 1.99036, 1.98343, 1.98533, 1.9846, 2.00039, 1.84309, 1.84489, 1.9373, 1.89306, 1.89076, 1.92708, 1.92568, 1.93047, 1.96086, 1.83853, 1.84054, 1.84024, 1.8376, 1.83739, 1.84045, 1.83882, 1.8408, 1.84109, 1.93852, 1.84114, 1.84372, 1.84284, 1.84126, 2.04225, 2.01701, 1.84299, 1.84599, 1.8442, 1.84561, 1.84597, 1.94119, 1.89904, 1.84707, 2.02564, 2.02492, 1.84596, 1.84495, 1.84249, 2.0374, 1.8425, 1.83993, 1.84161, 1.84048, 1.88955, 1.8891, 1.88613, 1.88654, 1.83414, 1.83481, 1.88581, 1.83241, 1.86229, 1.76826, 1.97601, 1.76262, 1.8614, 1.86152, 1.85732, 1.75767, 1.75791, 1.75839, 1.75715, 1.75571, 1.75567, 1.75766, 1.75643, 1.85025, 1.84155, 1.83779, 1.85544, 1.85353, 1.75105, 1.85979, 1.74998, 1.8584, 1.74914, 1.83166, 1.8129, 1.81037, 1.74842, 1.85009, 1.84906, 1.79615, 1.74374, 1.7442, 1.74681, 1.74687, 1.74473, 1.79736, 1.74654, 1.74564, 1.87034, 1.7448, 1.74539, 1.79728, 1.85485, 1.85147, 1.74275, 1.87174, 1.85173, 1.86821, 1.86628, 1.74729, 1.74497, 1.74341, 1.75006, 1.74659, 1.79683, 1.74765
1.78989, 1.84112, 1.84053, 1.84163, 1.78599, 1.78776, 1.88051, 1.87958, 1.78557, 2.04058, 1.78565, 1.7839, 1.7821, 1.78129, 1.83372, 1.86807, 1.78114, 1.78132, 1.77987, 1.87665, 1.77869, 1.78053, 1.77623, 2.03904, 1.77908, 1.77861, 1.77711, 1.77662, 1.77677, 1.7756, 1.77204, 1.88039, 1.77299, 1.94914, 1.87423, 1.77267, 1.77049, 1.77232, 1.86907, 1.77063, 1.87186, 1.87032, 1.76866, 1.76918, 1.77174, 1.82098, 1.86584, 1.76998, 1.86979, 1.86354, 1.77192, 1.76879, 1.94513, 1.77143, 1.94065, 1.77282, 1.94322, 1.94277, 1.99357, 1.90692, 1.91618, 1.91722, 1.82923, 1.90613, 1.91449, 1.90369, 1.90441, 1.91716, 1.82485, 2.01675, 1.92135, 1.90051, 1.92058, 1.91616, 1.89825, 1.82025, 1.89964, 2.02042, 1.91954, 1.89584, 1.92005, 1.89199, 1.92109, 2.01131, 1.89595, 1.89072, 1.92272, 1.81386, 1.89004, 1.92138, 1.92257, 1.81194, 1.81295, 1.81299, 1.81333, 1.88974, 1.89326, 2.00995, 1.81567, 1.8948, 1.99987, 1.89607, 1.92383, 1.90099, 1.82447, 1.82547, 1.92329, 1.99994, 1.83402, 2.02866, 2.0269, 1.97349, 1.99279, 1.9944, 1.973, 1.99816, 1.9961, 2.00437, 1.97164, 1.97634, 1.89387, 1.97258, 1.89585, 1.89346, 1.96887, 1.97405, 1.97194, 1.97591, 1.97057, 1.99328, 1.97205, 1.96995, 1.9693, 1.99051, 1.98582, 2.00401, 1.89709, 1.89688, 1.98059, 1.99033, 1.89775, 1.99616, 1.99471, 1.98732, 1.89982, 1.90101, 1.98716, 2.00201, 1.99688, 2.0065, 1.97946, 2.00351, 1.98072, 1.90446, 1.90405, 1.9956, 2.00982, 1.98352, 2.00204, 1.98302, 1.98203, 1.9068, 1.99483, 2.00785, 1.99009, 1.98244, 1.9848, 1.98758, 1.99747, 1.98915, 1.90431, 1.99654, 1.98358, 2.00317, 2.00635, 1.90791, 1.98409, 1.98425, 1.98307, 1.98324, 1.98291, 1.99051, 1.98572, 1.99149, 1.99186, 1.99007, 1.98533, 1.98583, 1.90731, 1.90639, 2.00424, 1.93773, 1.89446, 1.89345, 1.92063, 1.92424, 1.89151, 1.89106, 1.93103, 1.96214, 1.89013, 1.88828, 1.83762, 1.84056, 1.83822, 1.84049, 2.03506, 1.84073, 1.94252, 1.83948, 1.83911, 1.84292, 1.84279, 1.84192, 1.94413, 1.84398, 2.01833, 1.8449, 1.84434, 1.95183, 1.95004, 1.89738, 1.84857, 1.84768, 1.84719, 2.03827, 1.84592, 1.84677, 1.84456, 1.84206, 1.84319, 1.8392, 1.84172, 1.83845, 1.89047, 1.88947, 1.83771, 1.83672, 2.02475, 1.83539, 1.83387, 1.83292, 1.83025, 1.82244, 1.85541, 1.8498, 1.76162, 1.7624, 1.76155, 1.85561, 1.76017, 1.75894, 1.75745, 1.75545, 1.85459, 1.75556, 1.75522, 1.84923, 1.84855, 1.83972, 1.75258, 1.75105, 1.84848, 1.75099, 1.74978, 1.86073, 1.82908, 1.74751, 1.80049, 1.799, 1.86172, 1.79847, 1.74723, 1.84819, 1.74773, 1.87283, 1.74927, 1.7471, 1.7472, 1.745, 1.74435, 1.74545, 1.74549, 1.74409, 1.74296, 1.79732, 1.74594, 1.79683, 1.85179, 1.84924, 1.86894, 1.74642, 1.74704, 1.85967, 1.74667, 1.7966, 1.79663, 1.74811, 1.74531, 1.74432
1.87407, 1.8743, 1.78997, 1.79046, 1.78988, 1.78894, 1.78938, 1.78952, 1.79145, 1.78538, 1.83537, 1.78282, 1.78301, 1.7831, 1.87032, 1.78353, 1.7813, 1.78234, 1.77921, 1.9632, 1.89699, 1.89794, 1.89895, 1.77897, 1.86526, 1.77607, 1.77851, 1.77844, 1.77788, 1.87663, 1.7763, 1.77626, 1.77528, 1.7734, 1.8753, 1.77476, 1.77353, 1.86402, 1.76971, 1.87097, 1.77131, 1.87269, 1.86627, 1.76961, 1.77013, 1.8206, 1.82051, 1.77209, 1.76995, 1.82071, 1.82209, 1.76922, 1.77165, 1.9447, 1.9425, 1.77249, 1.94807, 1.77178, 1.91057, 1.99385, 1.91429, 1.91155, 1.91494, 1.83081, 1.9061, 1.82939, 1.91708, 1.83006, 1.90423, 1.90497, 1.92091, 1.90026, 1.91719, 1.92093, 1.89879, 1.89817, 2.01426, 2.00721, 1.89624, 1.89575, 1.92217, 1.92052, 2.01552, 1.8912, 1.81523, 1.92393, 1.88993, 1.92339, 1.88942, 1.92418, 1.8907, 1.8888, 1.9209, 1.88658, 1.88811, 1.92518, 1.92408, 1.92416, 1.89098, 1.89385, 1.89465, 1.9234, 1.8972, 2.0013, 1.92477, 1.90297, 2.02047, 2.00138, 1.83753, 1.92151, 2.02113, 2.00915, 1.97491, 1.99633, 1.97202, 1.97147, 2.00133, 1.99748, 1.89426, 1.89507, 1.89581, 1.89332, 1.89124, 1.89361, 1.89389, 1.97439, 1.97295, 1.97673, 1.97094, 1.97206, 1.98984, 1.99633, 1.99803, 1.98905, 1.99219, 1.97631, 1.8972, 1.98648, 1.98836, 1.89924, 1.89876, 1.9974, 1.9956, 1.99387, 1.98746, 1.90078, 1.99141, 1.9797, 1.97748, 1.90431, 1.98069, 1.90299, 1.98581, 1.90528, 1.90603, 1.98252, 1.98259, 1.98199, 1.98352, 1.90591, 1.98321, 2.00308, 1.9833, 1.90747, 1.99293, 1.98227, 1.98656, 1.98226, 1.9063, 1.98321, 1.99787, 1.98381, 1.98373, 2.00838, 1.98452, 2.00449, 1.99424, 1.99604, 1.9844, 1.9866, 1.98822, 1.98873, 1.99097, 1.99081, 1.98904, 1.98963, 1.98864, 1.90697, 1.9973, 1.98855, 1.9836, 1.99093, 1.84476, 1.84323, 1.84169, 1.89302, 1.89048, 1.84015, 1.93177, 1.83759, 1.91397, 1.84045, 1.84032, 1.83742, 1.83892, 1.8373, 1.83525, 1.83754, 1.83987, 1.94167, 1.83793, 1.84143, 1.84198, 1.8417, 1.8426, 1.8433, 1.84442, 1.84509, 1.84473, 1.84528, 2.03411, 1.89893, 1.89733, 1.89596, 1.9045, 1.84638, 1.89641, 1.89706, 1.84324, 1.84235, 1.84142, 2.03709, 1.83813, 2.02699, 1.83907, 1.88856, 1.88744, 1.83757, 2.03428, 1.83508, 1.83388, 1.82869, 1.82512, 1.82475, 1.76804, 1.83053, 1.76531, 1.76199, 1.76175, 1.80947, 1.759, 1.85201, 1.75819, 1.80759, 1.8383, 1.80513, 1.7562, 1.75505, 1.83802, 1.75431, 1.85086, 1.84967, 1.75056, 1.75122, 1.74866, 1.75037, 1.75051, 1.79961, 1.79773, 1.74744, 1.86472, 1.86878, 1.79939, 1.74478, 1.87012, 1.74647, 1.85812, 1.86868, 1.74711, 1.8722, 1.8713, 1.74423, 1.74254, 1.7441, 1.87114, 1.74718, 1.85784, 1.85617, 1.74439, 1.74498, 1.74509, 1.74389, 1.86658, 1.85498, 1.74793, 1.79697, 1.84844, 1.74493, 1.74371, 1.74855
1.87606, 1.84368, 1.78876, 1.79272, 1.78785, 1.7893, 2.05876, 1.78902, 1.8379, 1.83684, 1.83764, 1.83738, 1.7863, 1.78521, 1.88545, 1.78253, 1.78422, 1.88136, 1.78358, 1.78196, 1.78302, 1.89948, 1.78196, 1.86626, 1.83061, 1.77754, 1.77863, 1.77534, 1.77651, 1.8821, 1.87526, 1.87837, 1.7763, 1.87598, 1.77753, 1.77647, 1.77476, 1.87929, 1.8753, 1.87254, 1.95058, 1.77254, 1.77511, 1.77192, 1.77117, 1.77327, 1.77292, 1.77262, 1.77166, 1.82215, 1.77171, 1.77241, 1.77186, 1.94429, 1.77114, 1.8235, 1.82334, 1.82223, 1.83518, 1.91781, 1.91006, 1.9197, 1.83153, 1.91752, 1.90748, 1.91785, 1.90565, 1.99622, 1.82674, 1.91936, 1.9196, 1.92046, 1.92008, 1.92014, 1.89775, 1.89752, 1.82083, 1.89311, 1.89631, 1.89677, 1.89902, 1.89721, 1.89525, 1.8908, 1.81615, 2.01759, 1.89074, 1.89162, 1.89031, 1.92616, 1.81317, 1.89062, 1.89002, 1.92386, 1.88992, 2.00217, 1.81626, 1.8907, 1.89209, 1.81645, 1.92425, 1.82069, 1.8982, 1.89846, 1.90337, 1.92479, 1.92417, 1.92371, 2.01763, 2.01102, 2.0035, 1.85508, 1.89627, 1.9722, 1.99053, 1.98733, 1.97461, 1.98502, 1.97434, 1.89253, 1.89558, 1.97236, 1.89411, 1.89408, 1.89364, 1.89581, 1.97669, 1.98558, 1.98719, 1.89265, 1.98582, 1.9863, 1.97304, 1.97323, 1.98251, 2.00359, 1.89985, 1.89903, 1.98221, 1.97984, 1.98295, 2.00336, 1.99922, 1.9884, 1.99013, 1.90213, 1.98952, 2.00111, 1.90467, 1.90368, 2.00415, 1.98044, 1.99085, 1.98733, 1.90538, 2.00286, 1.98215, 1.9826, 1.98323, 1.90735, 2.00058, 1.98362, 1.99839, 2.00116, 1.99733, 2.00708, 1.9974, 1.99916, 1.99383, 1.90746, 1.98315, 1.99222, 2.02118, 1.9939, 1.99245, 2.00626, 1.90501, 2.00145, 1.90691, 1.98512, 1.98893, 1.98991, 1.98928, 1.99006, 1.99106, 1.99307, 1.98867, 1.98382, 2.00307, 1.99993, 1.98534, 1.98896, 1.84143, 1.84455, 1.84288, 1.89269, 1.89193, 1.93248, 1.83743, 1.88802, 1.88714, 1.83822, 1.93523, 1.83874, 1.84055, 1.83823, 1.83789, 1.83818, 1.90473, 1.83825, 1.83924, 1.89104, 1.89095, 1.89219, 1.84708, 1.84445, 1.84365, 1.84253, 1.8459, 1.84598, 1.84658, 1.84745, 1.84784, 1.84708, 1.90484, 1.90013, 1.84528, 1.93802, 1.84712, 1.84455, 1.84071, 2.03507, 1.84106, 2.00987, 1.83787, 1.83773, 2.02664, 2.02399, 2.02956, 1.83433, 1.83706, 1.9219, 1.76965, 1.76965, 1.86639, 1.76572, 1.75933, 1.76145, 1.81126, 1.80819, 1.80672, 1.85083, 1.75615, 1.83623, 1.80614, 1.80732, 1.75417, 1.75464, 1.84598, 1.75505, 1.75459, 1.75156, 1.84616, 1.80151, 1.74773, 1.74842, 1.83383, 1.80058, 1.74908, 1.74752, 1.85737, 1.87025, 1.74567, 1.86322, 1.74534, 1.74454, 1.74418, 1.74393, 1.87046, 1.86939, 1.87342, 1.74449, 1.79445, 1.74411, 1.796, 1.87207, 1.86236, 1.85876, 1.74826, 1.87209, 1.79705, 1.79657, 1.74676, 1.86674, 1.8631, 1.86092, 1.7445, 1.74801, 1.86593, 1.85847
