1.80524, 1.75111, 1.75118, 1.75026, 1.75138, 1.75427, 1.75183, 1.83079, 1.80198, 1.80138, 1.75122, 1.75132, 1.75286, 1.80218, 1.7493, 1.74897, 2.02532, 1.75128, 1.80131, 1.75069, 1.75458, 1.75045, 1.74955, 1.84672, 1.80241, 1.75144, 1.80108, 2.00713, 1.75121, 1.75454, 1.75287, 1.81835, 1.81465, 1.8188, 1.82028, 1.97187, 1.97337, 1.97952, 1.9823, 1.9829, 1.82434, 1.98573, 1.983, 1.82549, 1.9823, 1.89661, 1.90692, 1.82571, 1.90638, 1.90989, 1.9009, 1.82709, 1.82763, 1.91449, 1.83389, 1.8364, 2.01029, 1.89152, 1.9838, 1.97783, 1.89385, 1.89568, 1.89803, 1.8987, 1.97501, 1.97199, 1.90134, 1.89997, 2.00658, 1.9055, 1.99304, 1.90544, 1.90736, 1.91111, 1.91009, 1.98709, 1.91397, 1.99772, 2.00777, 1.91604, 2.00791, 1.91697, 1.91713, 1.99532, 1.99448, 1.91683, 2.00857, 1.91777, 2.01719, 1.92073, 2.01317, 1.92111, 1.92363, 1.92176, 2.00113, 2.01702, 2.01044, 1.8627, 1.86408, 1.86412, 1.85894, 1.94825, 1.90885, 1.86015, 1.85906, 1.861, 2.03688, 1.86006, 1.86268, 1.86461, 1.91334, 2.05886, 1.86339, 1.86539, 1.86396, 1.86527, 1.86275, 1.86532, 1.86315, 1.86119, 1.91217, 1.86309, 1.86262, 1.86017, 1.83361, 1.83043, 1.77597, 1.89685, 1.82698, 1.77382, 1.86988, 1.89959, 1.86759, 1.89308, 1.76901, 1.89357, 1.81795, 1.81812, 1.87936, 1.87687, 1.76827, 1.76548, 1.76462, 1.76698, 1.89059, 1.76361, 1.76329, 1.76474, 1.86702, 1.76314
1.75326, 1.75183, 1.75341, 1.75267, 1.75295, 1.75086, 1.74871, 1.75448, 1.84247, 1.85641, 1.74932, 1.74961, 1.74878, 1.74938, 1.75234, 1.75408, 1.75162, 1.74883, 1.7504, 1.8247, 1.8285, 1.80265, 1.74982, 1.74929, 1.79958, 1.75201, 1.75372, 1.74975, 1.8008, 1.80196, 1.80342, 1.81618, 1.81865, 1.8208, 1.82047, 1.98186, 1.97971, 1.98302, 1.97704, 1.98334, 1.98278, 1.97766, 1.8264, 1.90071, 1.9805, 1.82622, 1.90349, 1.90752, 1.90719, 1.90746, 1.82545, 1.90959, 1.9138, 1.91325, 1.91404, 1.91336, 1.99797, 1.89256, 1.89287, 1.99424, 1.97201, 1.97216, 1.97021, 1.97622, 1.97592, 1.98014, 1.97592, 1.89949, 1.90423, 1.90416, 1.90466, 1.90727, 1.90717, 1.9998, 1.91016, 1.91036, 2.01085, 1.98775, 1.91549, 1.91414, 1.91659, 1.91491, 1.91867, 1.99604, 1.91831, 2.00648, 1.92013, 2.00767, 1.92065, 1.92241, 2.01688, 1.92094, 1.92377, 1.92497, 2.0022, 2.02394, 2.02582, 1.86308, 1.86524, 1.9103, 1.9105, 1.94645, 1.85987, 1.8604, 1.85793, 1.85966, 1.86131, 1.86261, 1.86267, 1.91255, 1.86553, 1.86557, 1.86472, 1.86518, 1.86546, 1.86541, 1.86375, 1.9196, 1.86284, 1.91427, 1.86528, 1.86236, 1.86357, 1.86238, 1.8619, 1.78009, 1.87844, 1.7785, 1.77405, 1.77519, 1.76951, 1.88689, 1.7719, 1.86189, 1.8612, 1.94353, 1.76949, 1.82018, 1.88674, 1.76537, 1.76695, 1.76348, 1.7667, 1.88124, 1.76333, 1.76257, 1.76646, 1.87139, 1.86998, 1.76125
1.75443, 1.75219, 1.81209, 1.74891, 1.80265, 1.74932, 1.75132, 1.74847, 1.74827, 1.74687, 1.75216, 1.75055, 1.74741, 1.74784, 2.02548, 1.74709, 1.75044, 1.7497, 1.75107, 1.85342, 1.80228, 1.80247, 1.75449, 1.7531, 1.80045, 1.75174, 1.75144, 1.75152, 1.80025, 1.80299, 1.80481, 1.89969, 1.82123, 1.82029, 1.82032, 1.97979, 1.99587, 1.82326, 1.9018, 1.97723, 1.8237, 1.97933, 1.90395, 1.82357, 2.00859, 1.82468, 1.89609, 1.90682, 1.90731, 1.90126, 1.91363, 1.82768, 1.82638, 1.90735, 1.90788, 2.00646, 2.01089, 1.96768, 1.99035, 1.89232, 1.89429, 1.97284, 1.97318, 1.97299, 1.97722, 1.9789, 1.97618, 1.90309, 1.90278, 1.98009, 1.90454, 1.98292, 1.98246, 1.90441, 2.0029, 1.90961, 2.01672, 2.01412, 1.91409, 1.99859, 2.01068, 2.00475, 1.99414, 2.00018, 1.99547, 1.99214, 1.91748, 1.91699, 1.92004, 2.01789, 2.02634, 1.92158, 1.92289, 1.92487, 2.00626, 2.00534, 2.00695, 1.86241, 2.05891, 1.91324, 1.91054, 1.9119, 1.85923, 1.86012, 1.86193, 1.86088, 1.8566, 1.86268, 1.8622, 1.91434, 1.86168, 1.91738, 1.8644, 1.86181, 1.86461, 1.8647, 1.86494, 1.86228, 1.86419, 1.86046, 1.91478, 1.86557, 1.9136, 1.8616, 1.8806, 1.87973, 1.82939, 1.89477, 1.7736, 1.77174, 1.86919, 1.77339, 1.77257, 1.77158, 1.76769, 1.7689, 1.8176, 1.76849, 1.89388, 1.89225, 1.89306, 1.89276, 1.89685, 1.88979, 1.8869, 1.81514, 1.84092, 1.81363, 1.76482, 1.76428
1.75324, 1.75072, 1.75117, 1.74929, 1.74762, 1.84711, 1.75033, 1.75052, 1.74647, 1.84736, 1.74841, 1.7515, 1.7488, 1.74794, 1.74868, 2.02101, 1.74786, 1.75078, 1.75149, 1.7509, 1.80113, 1.80075, 1.74711, 1.8512, 1.8045, 1.80109, 1.80067, 1.84272, 1.8025, 1.75091, 1.75237, 1.82001, 1.82019, 1.81801, 1.82169, 2.00146, 1.82182, 1.99395, 1.82319, 1.82374, 1.9922, 1.98407, 1.90354, 1.82453, 1.82354, 1.99441, 1.90286, 1.90738, 1.90593, 1.90753, 1.8215, 1.90958, 1.90704, 1.9113, 1.9101, 1.98862, 1.97375, 1.97978, 1.98009, 1.89275, 1.97635, 1.97528, 1.97318, 1.97721, 1.97629, 1.97688, 1.98598, 1.9972, 1.90303, 1.97693, 1.9767, 2.00076, 1.90594, 1.99788, 1.99258, 1.99966, 1.98537, 2.00487, 2.01076, 1.99724, 1.98973, 1.91362, 1.99595, 2.01574, 2.01142, 1.99672, 1.9901, 1.91914, 1.99619, 2.01781, 2.00661, 1.99786, 1.92297, 1.92349, 2.00738, 2.00347, 2.00013, 1.9133, 1.8618, 1.91043, 1.94487, 1.91265, 1.85718, 2.05326, 1.86219, 1.85944, 1.86078, 1.86267, 1.863, 1.85925, 1.86159, 1.8605, 1.8621, 1.86288, 1.91277, 1.86242, 2.06383, 1.863, 1.8645, 2.05194, 2.05987, 1.86211, 1.95219, 1.86251, 1.8338, 1.78145, 1.77707, 1.89163, 1.88591, 1.89428, 1.87358, 1.772, 1.76954, 1.89752, 1.77085, 1.76636, 1.76828, 1.76581, 1.76737, 1.76646, 1.76436, 1.76295, 1.76521, 1.89246, 1.88935, 1.76429, 1.81633, 1.76259, 1.76358, 1.89037
1.75158, 1.74982, 1.92802, 1.74784, 1.74795, 1.74804, 1.74745, 1.75075, 1.7478, 1.74608, 1.7476, 1.74693, 1.74723, 1.75008, 1.74658, 1.75132, 1.7497, 1.75383, 1.75026, 1.75086, 1.81829, 1.80222, 1.74837, 1.7502, 1.74927, 1.80358, 1.75127, 1.83188, 1.83404, 1.75154, 1.80138, 1.81919, 1.82002, 1.81998, 1.97485, 1.97539, 1.98963, 1.97719, 1.89733, 1.97593, 2.00048, 1.97987, 1.99929, 1.90152, 1.98119, 1.90482, 1.98798, 1.90684, 1.90096, 1.90777, 2.00733, 1.91388, 1.9084, 1.91307, 1.914, 2.00424, 1.97737, 1.96953, 1.9701, 1.96766, 1.98366, 1.89684, 1.89601, 1.97363, 1.97457, 1.99372, 2.01036, 1.97609, 1.99171, 1.98361, 1.97742, 1.98584, 1.98141, 1.99623, 1.99765, 1.99661, 1.98754, 1.98946, 1.99764, 1.99281, 1.99536, 1.99638, 1.9937, 2.0136, 2.00906, 2.01453, 1.99281, 2.00196, 1.99665, 2.01063, 1.92179, 1.99674, 1.92166, 2.00278, 2.00415, 2.01959, 2.00315, 1.86469, 1.8658, 1.86109, 1.85949, 1.85855, 1.86104, 2.05557, 1.86095, 1.85984, 1.91414, 1.86174, 2.0498, 2.04603, 1.86066, 1.86097, 1.86034, 1.86316, 1.86154, 1.85928, 1.8649, 1.86225, 1.86281, 2.03747, 2.03468, 1.86247, 1.86212, 1.86557, 1.78246, 1.83085, 1.77839, 1.77652, 1.77547, 1.89617, 1.77243, 1.77379, 1.7717, 1.77087, 1.76744, 1.77103, 1.76875, 1.89142, 1.82156, 1.82111, 1.76743, 1.88223, 1.76514, 1.76183, 1.89282, 1.8741, 1.81639, 1.81195, 1.81252, 1.76174
1.75103, 1.80022, 1.75019, 1.74928, 1.748, 1.74561, 1.74762, 2.00983, 1.74528, 1.74436, 1.74669, 1.74813, 1.80595, 1.7492, 1.74906, 1.751, 1.74869, 1.75218, 1.75155, 2.00182, 1.75173, 1.75076, 1.75081, 1.74968, 1.74874, 1.74849, 1.75036, 1.75154, 1.75188, 1.75139, 1.80421, 1.81839, 1.81804, 1.97457, 1.97546, 1.9745, 1.99695, 1.9751, 1.97728, 1.97671, 1.97746, 1.82335, 1.82266, 1.90048, 1.82558, 1.90106, 1.99699, 1.89804, 1.90781, 1.90422, 1.90066, 1.90931, 1.98696, 1.91377, 1.91055, 1.99655, 1.98911, 1.89079, 1.98425, 1.96875, 1.89315, 1.89076, 1.89316, 1.97585, 1.89758, 1.97726, 2.00275, 1.98959, 1.99684, 1.98496, 1.98259, 1.99182, 2.00126, 1.99359, 1.90746, 2.003, 1.99607, 1.98896, 2.00038, 1.99787, 2.0013, 1.99325, 2.01403, 1.99333, 2.00136, 1.99483, 2.01232, 1.9947, 2.00138, 1.91917, 2.00459, 1.99967, 1.92341, 2.00406, 2.00368, 2.0014, 1.92701, 1.86393, 1.86083, 1.8614, 1.85936, 1.85994, 1.8603, 1.8612, 1.85652, 1.86042, 1.91117, 1.8621, 2.03811, 1.86143, 1.86159, 1.86391, 1.91489, 1.912, 1.86252, 1.86104, 1.86273, 2.05453, 2.03501, 2.03867, 2.04741, 1.86003, 1.86192, 1.86134, 1.78669, 1.78202, 1.89371, 1.77691, 1.89567, 1.77352, 1.82342, 1.7714, 1.77258, 1.7714, 1.81992, 1.772, 1.7675, 1.76871, 1.76935, 1.76674, 1.76607, 1.76493, 1.89044, 1.8147, 1.88998, 1.76269, 1.76368, 1.81411, 1.81358, 1.76101
1.75444, 1.80274, 1.75063, 1.75119, 1.7473, 1.74861, 1.74773, 1.74464, 1.85071, 1.7463, 2.01478, 1.74607, 1.83406, 1.79711, 1.74574, 1.85108, 1.7497, 1.75069, 1.74938, 1.74832, 1.75245, 1.74907, 1.74925, 1.74684, 1.74811, 1.74729, 1.84072, 1.801, 1.75119, 1.75153, 1.80391, 1.81592, 1.81945, 1.97625, 1.82084, 1.82058, 1.9962, 2.00182, 1.98727, 2.00355, 1.89704, 1.90323, 1.99679, 1.89681, 1.8268, 1.89747, 1.90243, 1.98, 1.91002, 1.98601, 1.90013, 1.91153, 1.91045, 1.91396, 1.83219, 1.98956, 1.99588, 1.97323, 1.96929, 1.97015, 1.89377, 1.89318, 1.89045, 1.97675, 1.98112, 1.99002, 1.97874, 1.99216, 1.97917, 1.9947, 1.99418, 1.98649, 1.99655, 2.00656, 2.00241, 2.00164, 2.00002, 1.99503, 2.00439, 1.98669, 2.01141, 1.99398, 1.99594, 2.00324, 2.00423, 2.0138, 2.01319, 2.00006, 1.99296, 1.91945, 1.9993, 1.99979, 2.00056, 2.00315, 2.00092, 1.92556, 2.00941, 1.86209, 1.86211, 1.85995, 1.85821, 1.85821, 1.85876, 1.96061, 1.8589, 1.86149, 1.91381, 1.95851, 2.0387, 1.85991, 1.86465, 1.91304, 1.86161, 1.91344, 1.93386, 1.91333, 2.04814, 1.86475, 1.86271, 1.86034, 1.86205, 1.86158, 1.86253, 1.86196, 1.78356, 1.7802, 1.89628, 1.89384, 1.77622, 1.77521, 1.76931, 1.77549, 1.88666, 1.7692, 1.76784, 1.76983, 1.76877, 1.89114, 1.88961, 1.76703, 1.76616, 1.76377, 1.89065, 1.83969, 1.76257, 1.89425, 1.75899, 1.89089, 1.75981, 1.76187
1.752, 1.74908, 1.7542, 1.74595, 1.74886, 1.74563, 1.85209, 1.7958, 1.85459, 1.79687, 1.75108, 1.74725, 1.85168, 1.75234, 1.7488, 1.7501, 1.75127, 1.75137, 1.84181, 1.75122, 1.79882, 1.75086, 1.74638, 1.74751, 1.84091, 1.74899, 1.74973, 1.74903, 1.753, 1.75343, 1.75139, 1.81806, 1.81796, 1.97504, 1.98188, 1.8201, 1.82122, 1.89655, 1.99361, 1.99357, 1.90068, 1.90013, 1.89785, 1.9009, 1.82008, 1.90045, 1.89801, 1.89787, 1.82052, 1.9842, 1.99757, 1.91334, 1.91124, 1.91044, 1.90743, 2.01097, 1.98469, 1.97598, 1.9798, 1.96699, 1.89314, 1.9712, 1.89362, 1.97534, 1.97234, 1.97597, 1.89637, 2.00396, 1.97904, 1.90501, 1.98016, 1.98243, 1.9075, 1.98683, 1.99384, 1.98461, 1.91104, 2.001, 2.00771, 1.99756, 1.99915, 1.99015, 2.00761, 2.00938, 2.00715, 1.99468, 1.91663, 1.91719, 1.91817, 2.01051, 1.99753, 1.92392, 1.92171, 2.00454, 2.00167, 2.00208, 2.0272, 1.85953, 1.86378, 1.86167, 1.86045, 1.85772, 1.86046, 1.86079, 1.86129, 1.86042, 2.05738, 1.85903, 1.85861, 1.86037, 1.91025, 1.91061, 1.86564, 1.91769, 1.86216, 1.86306, 1.86036, 1.86281, 1.91153, 1.91421, 1.86337, 1.86214, 1.86252, 1.86413, 1.78538, 1.78163, 1.896, 1.89937, 1.88968, 1.7741, 1.87617, 1.77449, 1.89718, 1.77166, 1.88322, 1.87816, 1.77112, 1.89431, 1.89243, 1.87576, 1.76457, 1.7646, 1.8925, 1.76267, 1.8136, 1.76479, 1.76028, 1.76228, 1.76072, 1.89087
1.75107, 1.75077, 1.75193, 1.7492, 1.7506, 1.74708, 1.74458, 1.79571, 1.79575, 1.79666, 1.80005, 1.74996, 1.74959, 1.74825, 1.74818, 2.00325, 2.00498, 1.74922, 1.74968, 1.75131, 1.75061, 1.74761, 1.74566, 1.84856, 1.74991, 1.75098, 1.84363, 1.75006, 2.01364, 1.7517, 1.75522, 1.81924, 1.81967, 1.97804, 1.97418, 1.82095, 1.99728, 1.89397, 1.97399, 1.97661, 1.97656, 1.89904, 1.89855, 1.90375, 1.97855, 1.82039, 1.90454, 1.90559, 1.90013, 1.98895, 1.91253, 1.91004, 2.00815, 1.91337, 1.91356, 2.02015, 2.01044, 1.98324, 1.96977, 1.96875, 1.98697, 1.89443, 1.89636, 1.89667, 1.97905, 1.97229, 1.9897, 1.90261, 1.97941, 1.98341, 1.99322, 1.99556, 1.99082, 1.90851, 1.90771, 1.99309, 2.01061, 2.00243, 2.00399, 1.99147, 2.00143, 1.91457, 2.0038, 2.00126, 2.01092, 2.00678, 2.00994, 1.99764, 1.995, 2.0007, 2.00026, 1.92098, 1.92283, 1.92459, 2.00011, 1.92434, 1.92562, 1.86205, 1.91061, 1.90927, 1.85814, 1.8597, 1.85925, 1.86121, 2.03853, 1.8613, 2.05122, 1.86184, 1.85994, 1.86156, 1.86293, 1.86165, 2.03926, 1.86145, 2.04935, 2.05634, 1.86237, 1.9133, 1.94801, 1.86063, 1.86121, 1.86534, 1.86309, 1.86283, 1.78248, 1.89459, 1.89688, 1.88999, 1.77612, 1.8925, 1.8243, 1.87499, 1.7753, 1.77185, 1.81978, 1.8818, 1.76819, 1.8178, 1.81963, 1.83954, 1.76571, 1.76555, 1.76481, 1.8132, 1.81659, 1.87499, 1.89725, 1.75859, 1.75804, 1.76069
1.75129, 1.80071, 1.74634, 1.7483, 2.01519, 1.74473, 1.74249, 1.74585, 1.74507, 1.85662, 1.74837, 1.74575, 1.74749, 1.85077, 1.7488, 1.74941, 1.74872, 1.75114, 1.74983, 1.84834, 1.7483, 1.74884, 1.74847, 1.74876, 1.79892, 1.74845, 1.74965, 1.74899, 1.74907, 2.01372, 1.75452, 1.82053, 1.81833, 1.97951, 1.82042, 1.97532, 1.82096, 1.97568, 1.97827, 1.8212, 1.89975, 1.89918, 1.90023, 1.90313, 1.89989, 1.89596, 1.89567, 1.89713, 1.90605, 1.82207, 1.9078, 1.89643, 1.9893, 1.90639, 1.90707, 1.99962, 1.99935, 1.89341, 1.89135, 1.97875, 1.89071, 1.89624, 1.89278, 1.97369, 1.97328, 1.89717, 1.97381, 1.98322, 1.9924, 1.97934, 2.00011, 2.00306, 1.97697, 1.9868, 1.90832, 2.00294, 2.00051, 1.99417, 2.01083, 1.91307, 2.00619, 2.00153, 2.00453, 2.00686, 1.91588, 2.00435, 1.99257, 2.01688, 1.99648, 1.99567, 2.00412, 2.00256, 1.99924, 1.92348, 2.00706, 1.92449, 2.01955, 2.03468, 1.91136, 1.91277, 1.85853, 1.85931, 2.04994, 1.86141, 1.86166, 1.85937, 1.85838, 2.04459, 1.86544, 1.86251, 1.86195, 1.86221, 1.85984, 1.8611, 1.86022, 2.04621, 1.86118, 1.94972, 1.91226, 2.05655, 1.86148, 1.86149, 1.86525, 1.86315, 1.78681, 1.78324, 1.98677, 1.77888, 1.91433, 1.88684, 1.82423, 1.87914, 1.77338, 1.77282, 1.77027, 1.89435, 1.76998, 1.8207, 1.81809, 1.76499, 1.7683, 1.88612, 1.76094, 1.81362, 1.81331, 1.85943, 1.75937, 1.75859, 1.75927, 1.88916
1.80289, 1.8026, 1.7494, 1.92849, 1.74706, 1.74511, 1.85465, 1.74802, 1.74663, 1.74721, 1.74569, 1.74854, 1.75032, 1.92567, 1.74971, 1.75051, 1.75208, 1.75095, 1.7518, 1.7448, 2.02662, 1.74797, 1.74838, 1.79833, 1.74923, 1.75098, 1.74905, 1.74897, 1.74915, 1.75274, 1.8209, 1.82273, 1.82061, 1.82036, 1.97377, 1.81571, 1.97794, 1.82046, 1.99906, 1.99894, 1.82225, 1.82259, 1.90283, 1.90386, 1.90023, 1.82073, 1.89438, 1.9065, 1.89942, 1.9001, 1.82135, 1.91003, 1.82468, 1.90157, 1.91407, 1.99089, 1.97532, 1.98464, 1.97214, 1.987, 1.96901, 1.89358, 1.89547, 1.97351, 1.89676, 1.99687, 1.97767, 1.98651, 1.90071, 1.99563, 1.9012, 1.98665, 1.98076, 1.98048, 1.98615, 1.9863, 2.00273, 2.00421, 2.00004, 1.98921, 1.99116, 2.00771, 2.0054, 2.00416, 1.99294, 2.00407, 1.99605, 2.00722, 2.0074, 1.99744, 1.99662, 1.99932, 1.99931, 1.99949, 1.92444, 2.01573, 2.00478, 1.85989, 1.91346, 1.85907, 1.85858, 1.85882, 2.03927, 1.86266, 1.85775, 2.04452, 1.86123, 2.04064, 1.86175, 1.86325, 1.86204, 1.86233, 1.86217, 1.91799, 1.86136, 1.86237, 2.06754, 1.95198, 1.94933, 1.86475, 2.03783, 1.86243, 1.86491, 1.86513, 1.89638, 1.90124, 1.89218, 1.77842, 1.77707, 1.88937, 1.77587, 1.77231, 1.89395, 1.77005, 1.77173, 1.89984, 1.76883, 1.76646, 1.81615, 1.87724, 1.76522, 1.88299, 1.89366, 1.76121, 1.81406, 1.8801, 1.87846, 1.75826, 1.75902, 1.7581
1.75215, 2.00319, 1.75056, 2.00979, 1.74655, 1.7441, 1.74424, 1.74303, 1.74341, 1.74452, 1.85217, 1.74818, 1.7509, 1.75142, 1.75113, 1.85131, 1.74765, 1.74776, 1.74885, 1.75054, 1.84285, 1.74963, 1.74479, 1.74881, 1.74759, 1.75092, 1.74555, 1.75101, 1.74789, 1.74961, 1.82033, 1.81978, 1.81852, 1.8203, 1.97673, 1.98649, 1.99691, 1.82173, 1.97842, 1.98097, 1.8994, 1.99932, 1.97893, 1.81919, 1.89329, 1.89428, 1.89688, 1.89458, 1.90561, 1.90972, 1.90759, 1.91105, 1.90264, 1.9107, 2.00429, 1.99566, 1.98966, 1.96415, 1.9728, 1.97625, 1.97242, 1.89137, 1.96642, 1.89601, 1.98225, 1.97384, 1.99013, 1.98095, 1.98222, 1.99383, 2.00054, 1.98362, 1.90539, 1.98184, 1.99091, 1.9899, 1.99822, 1.98729, 2.00576, 1.98974, 1.99423, 1.99041, 1.99795, 1.99699, 1.99257, 1.91538, 2.01207, 2.00246, 1.91859, 1.99639, 1.92037, 1.99735, 1.99872, 1.99789, 1.99693, 2.0205, 2.00153, 1.86159, 2.04539, 2.03398, 1.86075, 1.85747, 1.8604, 1.85866, 1.86032, 1.95385, 1.85557, 1.86163, 1.8591, 1.86137, 1.86203, 2.04837, 2.04863, 1.92104, 1.86179, 1.86108, 2.03538, 1.91303, 1.85945, 1.86195, 2.05938, 1.86301, 1.86133, 2.03419, 1.78092, 1.77984, 1.8956, 1.77621, 1.88107, 1.89267, 1.77625, 1.77375, 1.77175, 1.77271, 1.77207, 1.76939, 1.89812, 1.76744, 1.81707, 1.76645, 1.7636, 1.89226, 1.76414, 1.76385, 1.7624, 1.7609, 1.89081, 1.88722, 1.75457, 1.75854
1.7528, 1.75101, 1.74792, 2.01401, 1.74766, 1.74454, 1.74587, 1.74735, 1.84926, 1.7476, 1.74567, 2.03547, 1.74834, 1.7516, 1.75045, 1.85214, 1.85498, 1.92878, 1.74814, 1.79911, 1.80092, 1.74854, 1.74758, 1.74598, 1.84987, 1.7513, 1.79795, 1.79933, 1.80037, 1.75234, 1.82004, 1.81785, 1.82048, 1.89919, 1.81776, 1.82109, 2.00441, 1.82142, 1.90159, 1.82437, 1.99336, 1.82068, 1.99356, 1.89462, 1.8198, 1.90715, 1.8951, 1.89472, 1.89804, 1.98805, 1.91268, 1.8222, 2.00743, 1.91056, 1.91265, 1.99015, 1.9731, 1.97568, 1.98295, 1.97896, 1.97047, 1.89281, 1.89223, 1.89857, 1.9731, 1.97589, 1.99066, 1.89951, 2.00313, 1.98448, 1.90323, 1.98995, 2.00084, 2.00891, 1.99814, 1.98581, 1.98904, 1.98938, 1.91272, 1.9923, 2.00709, 1.99237, 1.99406, 2.00433, 1.99524, 2.0175, 2.00056, 1.99362, 2.02426, 2.01134, 1.99506, 1.99958, 1.92144, 1.99916, 2.00375, 2.00998, 2.0034, 1.86405, 1.86137, 1.86146, 1.85839, 1.86003, 1.86182, 1.85857, 1.8596, 1.91057, 1.8581, 1.86487, 1.86197, 1.86451, 1.86061, 1.86324, 2.05754, 2.05186, 2.04711, 1.8619, 1.85905, 1.91381, 1.85994, 2.06852, 1.86021, 1.86341, 2.03782, 2.03802, 1.89538, 1.89397, 1.89763, 1.77754, 1.77877, 1.89463, 1.77306, 1.89717, 1.77305, 1.77227, 1.89343, 1.7704, 1.76614, 1.76831, 1.87966, 1.7666, 1.76437, 1.76421, 1.76433, 1.89265, 1.94171, 1.76144, 1.75961, 1.75921, 1.75682, 1.75832
1.75314, 1.7489, 1.74789, 2.03521, 1.74559, 1.75145, 1.74199, 1.74731, 1.74597, 1.74788, 1.74713, 1.79639, 1.74949, 1.92848, 1.75119, 1.85569, 1.85863, 1.75226, 1.74995, 1.74809, 1.75175, 1.84081, 1.751, 1.74745, 1.74712, 1.79982, 1.74795, 1.74586, 1.74911, 1.75118, 1.75044, 1.81874, 1.81962, 1.82086, 1.81961, 1.98976, 1.9753, 1.82112, 1.89431, 1.99637, 1.99401, 1.89805, 1.89959, 1.90228, 1.89321, 1.89358, 1.90375, 1.90406, 1.89552, 1.89498, 1.90653, 1.89722, 1.823, 1.91143, 2.00769, 2.01106, 1.99317, 1.98221, 1.98315, 1.89278, 1.96876, 1.89523, 1.89251, 1.89585, 1.98316, 1.97575, 1.89965, 1.98631, 1.99764, 1.98421, 1.98591, 1.98949, 1.99558, 1.98717, 2.00696, 1.98771, 1.98695, 1.99331, 1.99075, 1.9116, 1.99727, 1.99161, 2.00046, 2.02071, 2.00096, 1.91479, 1.91773, 1.99495, 1.99298, 2.00446, 1.99699, 2.00114, 1.99985, 2.00035, 1.92126, 2.00097, 2.01625, 1.8615, 1.85791, 1.85596, 1.85845, 1.85914, 1.85671, 1.85829, 1.91054, 1.91097, 1.91316, 1.86263, 1.86155, 1.86146, 1.86502, 1.86107, 1.86057, 1.91053, 1.86363, 1.91021, 1.95652, 1.86031, 1.86105, 1.86202, 1.86004, 1.86036, 1.86116, 2.04204, 1.78661, 1.89471, 1.8966, 1.77981, 1.77626, 1.8728, 1.89568, 1.8718, 1.77203, 1.8945, 1.89306, 1.77146, 1.77159, 1.76803, 1.76464, 1.76489, 1.81364, 1.88914, 1.89075, 1.88594, 1.76201, 1.86455, 1.75891, 1.75857, 1.7554, 1.75559
1.75456, 1.75217, 1.75048, 1.74846, 1.74665, 1.74506, 1.74462, 1.74417, 1.74805, 1.84667, 1.74628, 1.79967, 1.74791, 1.74826, 1.74925, 1.75158, 1.74889, 1.75138, 1.75049, 1.75172, 1.74933, 1.84082, 1.74565, 1.85355, 1.74741, 1.79762, 1.79713, 1.74766, 1.79916, 1.74893, 1.75069, 1.89747, 1.8194, 1.82319, 1.81948, 1.97312, 1.82022, 1.89625, 1.97587, 1.82094, 1.82109, 1.9008, 1.89955, 1.89211, 1.81986, 1.82007, 1.89617, 1.89682, 1.89679, 1.89622, 1.89799, 1.98718, 1.90036, 1.91412, 1.91329, 1.99238, 1.97363, 1.9752, 1.96832, 1.97237, 1.89288, 1.89254, 1.89369, 1.89449, 1.97237, 1.97309, 1.99106, 1.98788, 1.99397, 1.99125, 1.99015, 2.00172, 2.01215, 1.90701, 1.98604, 2.01588, 2.00366, 1.99449, 1.91352, 2.00342, 1.99129, 2.00751, 1.91532, 2.00361, 1.99643, 1.9181, 1.99672, 1.99934, 2.00748, 2.01359, 2.01449, 2.00031, 1.99984, 1.92032, 1.92247, 2.00798, 2.00705, 1.85878, 2.04722, 1.95881, 1.95823, 2.04497, 1.90925, 1.85835, 1.91158, 1.94492, 1.91309, 1.85874, 1.86031, 1.86463, 1.86134, 1.86201, 1.91208, 1.91266, 1.86042, 1.86016, 1.85757, 2.0522, 1.90937, 1.86145, 1.91025, 2.0339, 2.03824, 1.85928, 1.7848, 1.83277, 1.89945, 1.91632, 1.77847, 1.77334, 1.89683, 1.77209, 1.77317, 1.82112, 1.89737, 1.76917, 1.86681, 1.76543, 1.89418, 1.7665, 1.76426, 1.76215, 1.8592, 1.76195, 1.89536, 1.8666, 1.75851, 1.75806, 1.80751, 1.80815
1.75691, 1.75086, 1.7488, 1.74794, 2.03317, 1.74471, 1.74834, 1.75074, 1.74772, 1.74859, 1.79966, 1.74864, 1.75078, 1.75134, 1.74969, 1.75135, 1.74859, 1.74978, 1.74995, 1.75113, 2.00835, 1.74812, 1.85062, 1.79761, 1.74745, 1.74626, 1.79581, 1.83663, 1.79948, 1.7499, 1.97249, 1.82076, 1.82173, 1.82002, 1.97428, 1.9818, 1.9725, 1.97166, 1.82206, 1.82071, 1.82062, 1.82156, 1.89479, 1.89405, 1.81926, 1.82099, 1.90318, 1.89425, 1.89589, 1.9068, 1.90249, 1.82341, 1.98721, 1.91495, 1.90849, 1.99025, 2.00373, 1.9689, 1.98569, 1.89031, 1.89247, 1.97012, 1.89619, 1.97129, 1.96897, 1.99401, 1.98331, 1.97022, 1.99066, 1.97284, 1.99714, 1.90425, 2.00162, 1.90607, 2.0135, 1.99511, 1.98645, 1.98623, 1.99671, 1.99925, 1.98364, 2.00483, 2.00341, 2.01478, 2.00419, 1.99274, 1.99339, 1.91729, 2.01905, 1.99664, 2.0151, 2.00347, 1.99659, 1.99862, 1.99728, 1.92446, 1.99851, 1.8594, 1.85751, 1.85656, 1.95374, 1.85877, 1.9102, 1.85905, 1.91173, 1.8615, 1.91326, 1.86139, 2.04095, 1.86002, 1.86248, 1.86102, 1.91294, 1.91175, 2.04903, 2.05603, 1.85985, 1.85816, 1.85856, 1.94711, 1.91091, 1.86057, 2.04327, 1.86222, 1.78755, 1.7849, 1.90255, 1.77895, 1.77547, 1.7727, 1.77444, 1.77509, 1.82314, 1.82271, 1.90027, 1.76954, 1.81973, 1.76883, 1.76506, 1.90005, 1.76511, 1.76313, 1.76056, 1.89288, 1.76427, 1.8853, 1.88189, 1.75497, 1.75514, 1.80128
1.75467, 1.75412, 1.75254, 1.75082, 1.74603, 1.74754, 1.74929, 1.74687, 2.02069, 1.74754, 1.83615, 1.75072, 1.75048, 1.74833, 1.75193, 1.74898, 1.75169, 1.7484, 1.74908, 1.74588, 1.74788, 1.75119, 1.79683, 1.79731, 1.74622, 1.74771, 1.83528, 1.79705, 1.74901, 1.74843, 1.98028, 1.97959, 1.82015, 1.97779, 1.81955, 2.00293, 1.97613, 1.82047, 1.97533, 1.97885, 1.82347, 1.98296, 1.82062, 1.81769, 1.89392, 1.99022, 1.982, 1.90541, 1.99974, 1.89874, 1.89823, 1.90737, 1.89819, 1.9112, 1.90541, 1.90706, 2.00114, 1.96844, 1.98323, 1.89283, 1.98071, 1.89243, 1.96849, 1.97264, 1.97418, 1.97757, 1.99426, 1.96887, 1.99416, 1.99366, 2.00409, 1.90515, 1.99401, 1.9889, 2.00155, 1.9945, 1.98723, 1.99657, 1.9998, 1.99995, 1.98621, 1.91401, 1.99828, 2.01101, 2.01525, 1.99377, 1.99467, 2.01533, 2.01397, 1.99744, 1.92142, 1.99366, 1.99664, 1.99984, 2.00134, 2.00616, 2.00728, 1.86124, 2.03966, 1.85816, 1.85612, 1.8574, 1.85498, 1.85722, 1.85944, 1.90985, 1.94449, 1.91115, 1.86025, 1.95558, 2.04622, 1.86289, 1.86193, 1.86017, 1.86072, 2.06106, 1.85914, 2.04278, 1.91008, 1.85804, 1.94451, 1.91011, 1.85976, 1.8654, 1.88193, 1.78405, 1.7808, 1.89657, 1.77551, 1.77226, 1.77384, 1.77098, 1.82427, 1.82391, 1.86862, 1.76743, 1.81737, 1.76698, 1.7675, 1.76522, 1.76502, 1.76738, 1.76409, 1.89643, 1.75811, 1.88173, 1.8076, 1.75461, 1.80272, 1.8021
1.75693, 1.75136, 1.85092, 1.74991, 1.79969, 1.79738, 1.79746, 1.74739, 1.74905, 1.74809, 1.83876, 1.80044, 1.75048, 1.75162, 1.74991, 1.75106, 1.79937, 1.80024, 1.75225, 1.80012, 1.74831, 1.7511, 1.74741, 1.79605, 1.74584, 1.74494, 1.74735, 1.74727, 1.74884, 1.75044, 1.75121, 1.98367, 1.82115, 1.97862, 1.82154, 1.8196, 1.98349, 1.98395, 1.9959, 1.82142, 1.82101, 1.89495, 1.99339, 1.89831, 1.89434, 1.89342, 1.99452, 1.90621, 1.89382, 1.89293, 1.81842, 1.98789, 1.90097, 1.9047, 1.90497, 1.83734, 1.96879, 1.97296, 1.97605, 1.97171, 1.89144, 1.97528, 1.96979, 1.97115, 1.97593, 1.99983, 1.96695, 1.99635, 1.98586, 1.9925, 1.99091, 1.98034, 1.90327, 1.9938, 2.00304, 2.0034, 1.9869, 2.00242, 2.00937, 2.00725, 1.99733, 1.98931, 2.01083, 2.0214, 2.01398, 2.02808, 2.02755, 2.01869, 1.99542, 2.01843, 2.00071, 1.99504, 1.9981, 1.9972, 1.9957, 2.00652, 2.00029, 1.85894, 2.03999, 1.85823, 1.85808, 1.85576, 1.85571, 1.85476, 1.86074, 2.05684, 1.95406, 1.93858, 1.86046, 2.04061, 1.86231, 1.86504, 1.91097, 1.85859, 1.86209, 2.06059, 1.85981, 2.06388, 1.91015, 1.90806, 1.94469, 1.85947, 1.85854, 1.86187, 1.89382, 1.89581, 1.78027, 1.77809, 1.77914, 1.77329, 1.77535, 1.82464, 1.82169, 1.82075, 1.87554, 1.76818, 1.76511, 1.76661, 1.76484, 1.76529, 1.76546, 1.76582, 1.76397, 1.76254, 1.8737, 1.8851, 1.80739, 1.75486, 1.74903, 1.74914
1.75489, 1.75422, 1.75262, 1.80209, 1.74874, 1.74795, 1.74834, 1.74783, 1.75123, 1.75029, 1.83744, 1.80032, 1.75153, 1.75418, 1.85185, 1.93093, 1.75179, 1.75249, 1.75085, 1.85083, 1.74817, 1.7489, 1.85185, 1.84486, 1.74541, 1.74551, 1.74565, 1.74737, 1.74745, 1.74807, 1.97953, 1.98298, 1.97666, 1.97841, 1.97596, 1.82062, 1.90058, 1.98917, 1.97706, 1.99313, 1.9788, 1.89812, 1.9975, 1.8204, 1.81839, 1.90383, 1.90392, 1.90982, 1.89591, 1.89355, 1.89821, 1.89691, 1.91277, 1.90091, 1.98977, 1.99119, 1.9802, 1.88838, 1.99132, 1.98022, 1.98672, 1.97283, 1.97508, 1.97247, 1.97401, 1.98344, 1.89673, 1.97584, 1.97748, 1.97906, 1.99483, 1.90459, 1.90582, 1.90597, 1.99453, 2.00076, 1.98565, 1.91056, 1.91153, 2.00199, 1.91347, 1.99966, 2.01332, 1.9926, 2.01683, 2.01113, 2.02034, 1.99542, 1.99292, 2.01793, 2.01247, 1.99743, 2.00066, 2.00002, 2.00026, 1.99704, 2.01846, 1.85861, 1.85716, 1.85458, 1.85528, 1.85769, 2.0548, 1.85458, 1.85629, 2.05914, 1.97361, 1.95315, 1.86121, 2.05557, 1.85938, 2.04907, 1.86193, 1.85996, 2.04696, 1.85934, 2.04581, 1.85618, 1.85436, 1.85517, 1.85858, 1.85811, 1.86098, 1.86324, 1.78575, 1.78645, 1.78233, 1.77926, 1.89271, 1.77612, 1.77517, 1.82549, 1.82129, 1.77145, 1.82019, 1.76932, 1.86531, 1.76589, 1.76514, 1.76347, 1.76453, 1.76606, 1.76427, 1.88682, 1.76203, 1.7576, 1.80503, 1.75321, 1.74758, 1.75102
1.75508, 1.75335, 1.75007, 1.80301, 1.79946, 1.79933, 2.00068, 1.75095, 1.74901, 1.74769, 1.84356, 1.74988, 1.80013, 1.75133, 1.7517, 1.74958, 1.85082, 1.79994, 1.75122, 1.8553, 1.74738, 1.75013, 1.74524, 1.84652, 1.7458, 1.74576, 1.74581, 1.74637, 1.74696, 1.74867, 1.97478, 1.97894, 1.97364, 1.97392, 1.97429, 1.82052, 1.89705, 1.97606, 1.89767, 1.89319, 1.82142, 1.82041, 1.89369, 1.89311, 1.81707, 1.90115, 1.81848, 1.89376, 1.89272, 1.91074, 2.00729, 1.89704, 1.82212, 1.9136, 1.91241, 1.99358, 1.99808, 1.97178, 1.96836, 1.97647, 1.97058, 1.97283, 1.97372, 1.9752, 1.97424, 1.97669, 1.89693, 1.98342, 2.00201, 2.00297, 1.97917, 1.9969, 1.99985, 1.98667, 1.98041, 1.98737, 1.91031, 1.98654, 1.91328, 1.98801, 1.98863, 2.01431, 2.00121, 2.00854, 1.99147, 2.00445, 2.02495, 2.0181, 1.91683, 1.99379, 1.99505, 1.99932, 2.00032, 1.99786, 1.92084, 2.00793, 2.01349, 1.85934, 1.85745, 2.05202, 2.0534, 1.8553, 2.04104, 2.03876, 1.85838, 1.8604, 1.86195, 1.86168, 2.03878, 2.05602, 1.86198, 1.86047, 1.85901, 1.85908, 1.85895, 2.05315, 2.0553, 1.85809, 1.85837, 1.85707, 1.85869, 1.85953, 1.86081, 1.85994, 1.78474, 1.78537, 1.78148, 1.77696, 1.77894, 1.77456, 1.77292, 1.76996, 1.83191, 1.77285, 1.81883, 1.77001, 1.7667, 1.76574, 1.76685, 1.76185, 1.76424, 1.76322, 1.76422, 1.75955, 1.76122, 1.75777, 1.82032, 1.75059, 1.74977, 1.74795
1.75618, 1.756, 1.75394, 1.75169, 1.75245, 1.74928, 2.02184, 1.74971, 1.75189, 1.75201, 1.75144, 2.00712, 1.84561, 1.75134, 1.84764, 1.74995, 1.75176, 1.74967, 1.74778, 1.74777, 1.7483, 1.74777, 1.74722, 1.7953, 1.74727, 1.74488, 2.02493, 1.74485, 1.74632, 1.74842, 1.97547, 1.97402, 1.89932, 1.98182, 1.97385, 1.97355, 1.99705, 1.82132, 1.90016, 1.99937, 1.8988, 1.81958, 1.98037, 1.88981, 1.81887, 1.8903, 1.89587, 1.90725, 1.8929, 1.89691, 1.91184, 1.91052, 2.00377, 1.90495, 1.90485, 2.00379, 1.99652, 1.97467, 1.96956, 1.98698, 1.9748, 1.9764, 1.97329, 1.97315, 1.89592, 1.98185, 1.97292, 1.98265, 1.98605, 1.90155, 1.90172, 1.99738, 1.90628, 2.0072, 1.9831, 1.98687, 1.99002, 1.98647, 1.99266, 1.99476, 1.99336, 2.00087, 1.99054, 1.99689, 1.9167, 1.99654, 2.01472, 1.99467, 1.99308, 2.01828, 1.99702, 1.99469, 2.00319, 1.99696, 1.92078, 2.00069, 2.01885, 1.85523, 1.90629, 1.8542, 2.04849, 1.96002, 1.85638, 1.85871, 1.85648, 1.85867, 1.90991, 1.86115, 1.86236, 1.86427, 1.86193, 1.86296, 2.05161, 1.85969, 1.86057, 1.85908, 1.85881, 2.05975, 1.85808, 1.85623, 2.0388, 1.8588, 1.85828, 1.95269, 1.89275, 1.83426, 1.83404, 1.77931, 1.77753, 1.89657, 1.8991, 1.89636, 1.83304, 1.83452, 1.77047, 1.76992, 1.76594, 1.76503, 1.76293, 1.7643, 1.89772, 1.76491, 1.76144, 1.76254, 1.8935, 1.75868, 1.75859, 1.90179, 1.89916, 1.74607
1.75787, 1.75487, 1.75663, 1.75411, 1.75442, 1.75198, 1.75294, 1.75275, 1.75133, 1.74844, 1.84811, 1.84578, 1.75109, 1.80042, 1.80294, 1.74825, 1.75174, 1.84842, 1.81928, 1.74765, 1.74959, 1.74785, 1.79723, 1.74596, 1.74504, 1.74513, 1.84609, 1.74528, 1.74526, 1.74442, 1.98381, 1.9738, 1.97949, 1.97765, 1.97659, 1.82085, 1.82118, 1.97914, 1.99727, 1.82115, 1.8943, 1.89891, 1.98346, 1.89979, 1.90281, 1.89267, 1.90515, 1.81838, 1.99982, 1.89438, 1.9935, 1.91043, 1.82168, 1.91374, 1.91309, 2.0011, 1.99962, 1.98491, 1.96881, 1.89224, 1.89274, 1.972, 1.97263, 1.97203, 1.89658, 1.97028, 1.97218, 1.98646, 1.99668, 2.01474, 1.99993, 2.00302, 1.9058, 1.99016, 1.98689, 1.90973, 1.99061, 2.00799, 1.98974, 1.98774, 1.991, 1.91219, 1.91391, 1.99257, 2.0079, 2.00234, 2.03083, 1.91739, 1.99166, 1.99628, 1.99577, 2.00005, 2.0001, 1.99991, 2.00042, 2.00743, 2.00075, 1.85835, 1.85461, 1.90598, 1.85406, 1.85444, 1.95884, 1.85624, 1.85655, 1.85971, 1.93695, 1.91031, 1.8624, 1.86284, 1.91314, 1.91173, 1.86256, 1.85906, 1.85828, 1.85966, 1.85637, 1.85617, 2.03727, 1.85752, 1.85498, 1.86134, 1.85697, 1.85895, 1.89, 1.89089, 1.83372, 1.89565, 1.77656, 1.7753, 1.77516, 1.89672, 1.77163, 1.76951, 1.89794, 1.76884, 1.76761, 1.81654, 1.81581, 1.81419, 1.76567, 1.76115, 1.76479, 1.76001, 1.76144, 1.89491, 1.89567, 1.75135, 1.74827, 1.74786
1.75704, 1.75602, 1.75775, 1.75793, 1.8554, 1.75328, 1.75383, 1.75147, 1.75043, 1.85704, 1.75197, 1.7519, 1.75242, 1.84904, 1.75112, 1.75156, 1.92909, 1.75094, 1.75026, 1.75113, 1.79779, 1.79921, 1.79665, 1.84912, 1.74509, 1.74452, 1.74449, 1.74568, 1.74584, 1.74564, 1.8222, 1.82094, 1.82327, 1.97975, 1.82126, 1.97402, 1.97458, 1.82291, 1.99838, 2.01366, 1.89713, 1.82174, 1.81865, 1.81885, 1.89312, 1.90437, 1.90707, 1.90622, 1.81747, 1.90875, 1.99678, 1.91153, 1.91255, 1.90361, 2.01124, 1.91131, 1.997, 1.97757, 1.97758, 1.96939, 1.97989, 1.97376, 1.97197, 1.97193, 1.97382, 1.97298, 1.97331, 1.98987, 1.99652, 1.97968, 1.98372, 1.99733, 1.98025, 1.98965, 1.99058, 1.907, 2.00323, 2.00667, 2.01053, 1.98904, 1.99773, 2.0032, 2.00279, 1.99281, 1.99606, 1.91343, 1.91432, 1.99603, 2.00446, 2.01037, 1.99687, 1.99801, 1.99804, 2.00163, 1.92139, 2.00135, 2.02663, 1.90507, 1.90636, 1.85432, 1.85384, 2.04702, 1.85349, 2.05642, 1.8589, 1.96185, 1.8616, 1.9133, 1.91322, 2.0385, 1.91316, 1.91153, 1.85952, 1.85946, 1.85821, 1.85824, 1.85836, 1.85636, 1.8557, 1.85795, 1.86075, 1.85731, 1.8582, 1.90948, 1.78747, 1.78431, 1.78276, 1.87399, 1.77602, 1.77608, 1.88717, 1.77421, 1.76924, 1.89542, 1.76856, 1.77143, 1.89467, 1.81505, 1.76443, 1.81414, 1.89411, 1.76183, 1.76134, 1.76393, 1.76001, 1.75505, 1.89781, 1.75097, 1.74452, 1.74298
1.759, 1.7554, 1.75537, 1.75706, 1.75259, 1.85145, 1.75828, 1.75418, 1.75399, 1.86048, 1.75523, 1.7529, 1.75062, 1.75237, 1.75151, 1.75008, 1.74984, 1.74758, 1.75128, 1.74811, 1.74754, 1.7484, 1.8564, 1.79546, 1.79499, 1.74225, 1.74399, 1.74094, 1.74255, 1.86146, 1.74495, 1.90023, 1.82329, 1.9795, 1.82332, 1.82161, 1.97742, 1.97518, 1.82156, 1.82, 1.89361, 1.89583, 1.8202, 1.82037, 1.89814, 1.81728, 1.89364, 1.89475, 1.89547, 1.81635, 1.90998, 1.8199, 1.90074, 1.9039, 1.91075, 1.90983, 1.98313, 1.89115, 1.96923, 1.98492, 1.98244, 1.97551, 1.96957, 1.97222, 1.89606, 1.97608, 1.99457, 1.89914, 1.98536, 1.96923, 1.98662, 1.98059, 1.99131, 1.99744, 1.99367, 1.98584, 2.00328, 1.91037, 1.91024, 1.99111, 2.00407, 1.99391, 1.91335, 1.98929, 2.00801, 1.98846, 2.0078, 2.01561, 2.01823, 1.99344, 2.01766, 1.99674, 1.99808, 2.00046, 1.92127, 2.02012, 2.00052, 1.9062, 1.85501, 1.8496, 2.04808, 1.85369, 1.85427, 1.85582, 1.85711, 1.85612, 1.90919, 2.03828, 1.86238, 1.91082, 1.91294, 1.86292, 1.9109, 1.86156, 1.85742, 1.85609, 1.85829, 2.05442, 1.85277, 2.05876, 1.85465, 1.85413, 1.85543, 1.85666, 1.83975, 1.78521, 1.89339, 1.89533, 1.77701, 1.77259, 1.77241, 1.7703, 1.77064, 1.89623, 1.89584, 1.89953, 1.76798, 1.76605, 1.81529, 1.81429, 1.88348, 1.86953, 1.89248, 1.75875, 1.75949, 1.75803, 1.75253, 1.74824, 1.74467, 1.74376
2.03123, 1.75715, 1.75586, 1.75655, 1.75725, 1.75558, 1.75326, 1.75505, 1.75497, 1.75229, 1.7494, 1.85683, 1.75393, 1.75389, 1.75332, 1.7506, 1.75092, 1.7504, 1.74913, 1.74856, 1.74847, 1.74838, 1.74368, 1.79459, 1.74413, 1.74141, 1.74231, 1.74277, 1.7424, 1.79319, 1.82338, 1.82255, 1.82429, 1.82255, 1.82185, 1.99683, 1.99787, 1.90032, 1.8995, 1.82143, 1.8206, 1.82018, 1.89221, 1.89329, 1.89256, 1.89329, 1.89397, 1.89281, 1.8173, 1.8937, 1.89656, 1.89693, 1.98956, 1.98969, 1.91339, 1.98913, 1.99703, 1.96617, 1.968, 1.96947, 1.99296, 1.8927, 1.97474, 1.9735, 1.97353, 1.89546, 1.97304, 1.97247, 1.99459, 1.90114, 1.99257, 1.99316, 1.9878, 2.00677, 1.98365, 1.98479, 2.00765, 2.00476, 1.98768, 1.98883, 2.01479, 1.99124, 1.91342, 1.99243, 2.01703, 1.99654, 2.01009, 2.01169, 1.99145, 2.01672, 1.99303, 2.00332, 2.00307, 1.91913, 1.99914, 2.01131, 2.01841, 1.90606, 2.06456, 1.95667, 1.85259, 1.85356, 1.85458, 1.85672, 1.90755, 1.90999, 1.86011, 1.85971, 1.86001, 1.91326, 1.91226, 1.91166, 1.91303, 1.86173, 1.85914, 1.85604, 1.85705, 1.85553, 2.05994, 2.06931, 1.85713, 1.85542, 1.85656, 1.85545, 1.83771, 1.7848, 1.7803, 1.77901, 1.77868, 1.7746, 1.7722, 1.8979, 1.77125, 1.86548, 1.76835, 1.76667, 1.76645, 1.9004, 1.76272, 1.8929, 1.89042, 1.76324, 1.76227, 1.76034, 1.7564, 1.75681, 1.75468, 1.8672, 1.74581, 1.74408
1.76069, 1.75886, 1.75886, 1.75805, 1.75724, 1.75558, 1.7557, 1.75109, 1.75411, 1.75568, 1.75092, 1.75415, 1.75217, 1.75202, 1.75364, 1.75234, 1.75075, 1.8562, 1.85502, 1.79885, 1.74748, 1.74576, 1.74674, 1.74264, 1.74228, 1.74036, 1.85492, 1.74255, 1.74536, 1.74338, 1.82693, 1.82725, 1.8208, 1.82039, 1.99766, 1.98579, 1.82142, 1.82088, 1.89647, 1.97718, 1.90266, 1.89713, 1.89447, 1.90723, 1.90329, 1.81819, 1.90102, 1.89295, 1.89304, 1.90975, 1.89945, 1.91336, 1.91363, 2.01048, 1.99349, 1.91171, 2.0012, 1.97036, 1.97283, 1.98993, 1.96853, 1.97568, 1.97621, 1.97533, 1.97493, 1.98368, 1.99133, 1.97583, 1.97421, 1.99917, 2.00053, 1.99603, 2.0029, 2.00051, 1.98425, 1.98828, 1.98562, 2.0093, 1.91088, 1.99772, 1.91492, 1.98876, 1.98843, 2.00524, 1.91418, 1.99137, 2.00756, 1.99333, 1.99373, 1.9172, 2.0008, 1.92066, 1.91668, 1.91874, 1.92163, 2.01566, 2.02252, 1.85086, 1.85232, 1.85374, 1.85323, 1.85349, 1.90295, 1.8559, 1.95426, 1.90859, 1.90973, 1.86022, 1.86239, 1.86159, 1.91435, 1.85931, 1.91353, 1.85818, 1.85929, 1.85794, 1.85499, 1.8554, 2.05902, 2.04162, 1.852, 1.85482, 1.8577, 1.85673, 1.7869, 1.78394, 1.78149, 1.89678, 1.82784, 1.88804, 1.88836, 1.77086, 1.89649, 1.76812, 1.76847, 1.76646, 1.89994, 1.76824, 1.76461, 1.76482, 1.76466, 1.76495, 1.89402, 1.84329, 1.75669, 1.75518, 1.75495, 1.89371, 1.74861, 1.74528
1.76066, 1.76256, 1.75813, 1.75912, 1.75829, 1.75176, 2.00946, 1.75112, 1.75243, 1.80422, 1.75359, 1.75273, 1.85785, 1.75162, 2.00997, 1.74955, 1.75039, 1.75007, 1.75075, 1.74832, 1.85185, 1.85773, 1.74469, 1.85607, 1.74189, 1.74144, 1.74367, 1.74485, 1.74327, 1.74444, 1.82275, 1.82186, 1.90013, 1.97719, 1.82415, 1.82166, 1.82306, 2.00413, 1.82077, 1.82012, 1.90108, 1.89982, 1.89825, 1.89619, 2.00308, 1.90047, 1.90777, 1.8934, 1.81701, 1.89301, 1.81783, 1.89677, 1.82477, 1.90112, 1.91238, 1.913, 2.00079, 2.00328, 1.89127, 1.89341, 1.89246, 1.96933, 1.974, 1.9788, 1.97339, 1.9722, 1.99827, 1.97406, 1.99987, 1.90073, 1.97816, 1.99786, 2.00228, 2.00757, 1.98379, 1.98725, 2.01415, 1.98724, 1.98768, 2.0063, 2.01333, 1.98945, 1.98988, 2.00655, 1.91714, 1.99769, 1.99098, 2.01005, 2.00801, 1.99445, 1.99567, 1.99733, 1.91887, 1.91955, 1.92084, 2.0012, 2.01182, 1.85346, 1.85196, 1.85221, 2.03662, 1.85488, 1.90331, 1.96242, 1.85497, 1.92892, 1.8587, 1.85933, 1.86148, 1.86124, 2.04543, 2.0561, 1.86016, 1.90951, 1.85809, 1.8614, 1.85607, 1.85564, 1.85264, 1.85293, 1.85483, 1.85509, 1.85663, 1.79015, 1.88741, 1.78518, 1.78031, 1.77936, 1.82994, 1.77457, 1.98884, 1.88233, 1.76955, 1.76896, 1.89923, 1.81821, 1.76631, 1.76511, 1.76485, 1.76441, 1.76385, 1.89539, 1.76098, 1.87894, 1.76024, 1.75403, 1.89302, 1.74964, 1.74767, 1.74213
1.76414, 1.76187, 1.75862, 1.75798, 1.75667, 1.75806, 1.75597, 1.75481, 1.75405, 1.75061, 1.75233, 1.75198, 1.75409, 1.75148, 1.75065, 1.75292, 1.93029, 1.80112, 1.74926, 1.79939, 1.84812, 1.74717, 1.74566, 1.74373, 1.93546, 1.79205, 1.79201, 1.85738, 1.74069, 1.74219, 1.82237, 1.82058, 1.8232, 1.82308, 1.89981, 1.82334, 1.82328, 1.97711, 1.89481, 1.89962, 1.97983, 1.89438, 1.90395, 1.90178, 1.8936, 1.8959, 1.90374, 1.8928, 1.89276, 1.89547, 1.9909, 1.91195, 1.9125, 1.90657, 1.9042, 1.91393, 1.99004, 1.98296, 1.98235, 1.9833, 1.97343, 1.97384, 1.97427, 1.97552, 1.97485, 1.98942, 1.8968, 1.98878, 1.9872, 2.01609, 1.98091, 1.90377, 2.01018, 1.98391, 1.98542, 2.00238, 1.98478, 1.99744, 1.99138, 2.004, 2.00151, 1.99258, 2.00731, 2.00152, 1.98949, 2.00304, 2.00125, 2.02049, 1.91674, 1.99513, 1.99919, 2.00007, 1.92061, 1.91783, 2.01631, 2.00688, 1.92145, 1.90382, 1.85075, 1.85441, 1.84984, 1.90347, 1.85208, 1.85789, 1.85618, 1.85897, 1.85806, 1.8606, 1.86049, 1.86252, 1.86193, 1.86175, 1.86114, 1.91039, 1.86123, 1.85618, 1.85809, 1.8563, 1.85179, 1.85338, 1.85143, 1.85747, 1.8553, 1.94195, 1.78908, 1.88905, 1.8888, 1.88654, 1.77744, 1.77633, 1.77486, 1.77093, 1.76937, 1.86494, 1.81836, 1.88544, 1.76652, 1.76459, 1.8998, 1.89979, 1.89554, 1.76149, 1.76097, 1.94564, 1.80992, 1.75569, 1.75401, 1.75328, 1.74958, 1.74341
1.76457, 1.76147, 1.76063, 1.76009, 1.75824, 1.75868, 2.03757, 2.03764, 1.75287, 1.75437, 1.75257, 1.75169, 1.7514, 1.75285, 1.75199, 1.75196, 1.75294, 1.75065, 1.75001, 1.86997, 1.87442, 1.85083, 1.74423, 1.92642, 1.73949, 1.74106, 1.7403, 1.74157, 1.74254, 1.74452, 1.91741, 1.82382, 1.82459, 1.979, 2.00019, 1.99335, 1.82258, 1.97626, 1.90263, 1.9036, 1.82068, 1.89797, 1.90262, 1.90319, 1.8934, 1.90714, 1.88914, 1.8929, 1.81686, 1.91075, 1.81972, 1.91314, 1.91341, 1.90295, 1.90966, 1.9924, 1.98908, 1.96573, 1.97516, 1.98977, 1.89256, 1.89555, 1.97424, 1.89349, 1.97201, 1.97353, 1.97545, 1.99729, 1.99962, 1.99657, 1.99735, 2.01387, 2.012, 1.98552, 2.01066, 1.90794, 1.98659, 2.00783, 2.00311, 1.98803, 2.00051, 2.00351, 1.91451, 2.01508, 2.00843, 1.91532, 1.91438, 1.91626, 1.99059, 1.9159, 1.99743, 1.99666, 1.91608, 1.91884, 2.01437, 2.0157, 1.99847, 1.93958, 1.84833, 1.85367, 1.90332, 1.85207, 1.90557, 1.85516, 1.85467, 1.86137, 1.85967, 2.05125, 1.86152, 2.05156, 2.05424, 2.05467, 2.06234, 1.91334, 1.85747, 2.04457, 1.85822, 1.85518, 2.05541, 2.0479, 1.85761, 1.85572, 1.85795, 1.90732, 1.88235, 1.97233, 1.78106, 1.89409, 1.77742, 1.77103, 1.77301, 1.77329, 1.77208, 1.76891, 1.76881, 1.76704, 1.81535, 1.76401, 1.90042, 1.76224, 1.76157, 1.76022, 1.81259, 1.89157, 1.75718, 1.8844, 1.87527, 1.74986, 1.75128, 1.88878
2.03484, 1.76131, 1.75987, 1.76015, 1.76025, 2.02514, 1.75763, 1.75747, 1.75544, 1.75685, 1.75558, 1.75277, 1.75422, 1.93732, 1.75032, 1.75105, 1.80386, 1.75388, 1.75083, 1.87314, 1.74691, 1.74827, 1.74789, 1.74322, 1.86543, 1.73798, 1.73921, 1.73769, 1.74292, 1.80966, 1.82629, 1.82429, 1.82493, 1.98045, 1.97637, 1.82305, 1.82385, 1.89787, 1.82367, 1.8214, 1.82081, 1.98185, 1.98443, 1.89282, 1.89401, 1.89555, 1.81659, 1.9858, 1.81784, 1.89507, 1.91321, 1.91361, 1.90003, 1.82718, 1.91357, 1.9174, 1.99117, 1.96916, 1.98545, 1.96959, 1.9725, 1.89157, 1.8927, 1.97184, 1.97806, 1.9758, 1.97269, 2.00032, 1.99513, 1.90014, 2.0033, 1.98283, 2.00257, 1.98534, 1.98624, 2.00128, 1.99454, 1.98792, 1.99083, 1.99745, 1.98983, 1.91435, 1.98763, 1.99901, 2.00747, 1.9997, 1.99303, 2.01028, 1.99256, 2.01691, 1.99583, 1.99472, 1.91843, 1.91817, 1.91727, 1.92108, 2.00316, 1.85003, 2.04851, 1.85106, 1.90427, 2.03027, 1.90461, 1.96012, 1.95564, 1.85557, 1.86044, 1.86204, 1.86154, 1.86373, 2.05954, 1.8629, 1.86179, 1.86134, 1.86002, 1.85718, 1.85683, 1.85611, 1.85468, 1.85295, 1.85503, 1.8554, 1.85405, 1.79021, 1.88454, 1.78889, 1.89395, 1.89157, 1.89632, 1.77498, 1.9467, 1.76981, 1.89426, 1.76699, 1.81763, 1.8828, 1.81632, 1.76187, 1.7619, 1.76342, 1.76166, 1.76161, 1.80856, 1.75542, 1.75844, 1.75802, 1.87446, 1.90086, 1.75077, 1.88705
1.76279, 1.76208, 1.76102, 1.76197, 1.76114, 1.76196, 1.75627, 1.7557, 1.75528, 1.75598, 1.75475, 1.75182, 1.75359, 1.75398, 1.75456, 1.75403, 1.75166, 1.75351, 1.86129, 1.80039, 1.79807, 1.74397, 1.74405, 1.74097, 1.74374, 1.74089, 1.73925, 2.04476, 1.74104, 1.74335, 1.82703, 1.82591, 1.90244, 1.82428, 1.97769, 1.99758, 2.00993, 1.8222, 1.90348, 1.98219, 1.98044, 1.89392, 1.89279, 1.81827, 1.90731, 1.89341, 1.98539, 1.81582, 1.89226, 1.89443, 2.00421, 2.01452, 1.91303, 1.99843, 1.91298, 2.01836, 2.01319, 1.8919, 1.97449, 1.97389, 1.89319, 1.89123, 1.89454, 1.89489, 1.97371, 1.89617, 1.97553, 2.00235, 1.99145, 1.99474, 1.99698, 1.98183, 1.98257, 1.99533, 1.99513, 1.9913, 1.99333, 1.99792, 1.91104, 1.99145, 2.00284, 2.00437, 1.99921, 2.00208, 1.98852, 2.00034, 1.91726, 2.01584, 1.9943, 1.99172, 1.99372, 1.91725, 1.91928, 1.92065, 1.92346, 1.99681, 1.92056, 1.84971, 1.8492, 1.84856, 1.90875, 1.85342, 2.05181, 1.85258, 1.9069, 1.85808, 1.86096, 1.91278, 1.86113, 1.86329, 1.86183, 1.86341, 1.86094, 1.95598, 1.86126, 1.86078, 1.85872, 2.05829, 1.85566, 1.85508, 1.92214, 1.85594, 1.85569, 1.7924, 1.78735, 1.78147, 1.78209, 1.94429, 1.7753, 1.77428, 1.94727, 1.77043, 1.76709, 1.81956, 1.81853, 1.76477, 1.81617, 1.76481, 1.76653, 1.88143, 1.76109, 1.76144, 1.86568, 1.89115, 1.75767, 1.75846, 1.75795, 1.75243, 1.75227, 1.75463
1.76044, 1.76464, 1.76073, 1.75939, 1.76223, 1.75997, 1.75803, 1.75832, 1.75635, 1.7545, 1.75556, 1.75209, 1.75165, 1.75192, 1.75218, 1.75441, 1.75164, 1.75085, 1.75184, 1.74804, 1.74723, 1.85294, 1.85445, 1.74134, 1.73965, 1.74007, 1.73929, 1.73847, 1.74132, 1.74402, 1.98058, 1.98142, 1.82407, 1.9794, 1.97788, 1.82561, 2.0073, 1.90203, 1.89773, 1.90407, 1.90383, 1.9027, 1.90131, 1.90661, 1.89652, 1.98623, 1.98796, 1.89391, 1.91155, 1.89366, 1.89501, 1.82014, 1.90121, 1.89997, 1.91416, 1.90884, 2.01735, 1.99696, 1.96855, 1.96958, 1.97025, 1.89282, 1.89327, 1.89645, 1.89709, 1.9725, 1.97448, 1.97743, 1.97513, 1.99551, 1.9999, 1.98227, 1.98194, 1.99715, 1.98745, 1.9099, 1.99751, 1.99807, 1.90954, 1.99818, 1.99331, 2.00653, 1.91304, 1.91385, 1.99068, 2.01055, 2.01466, 2.01295, 1.9998, 2.01387, 2.0141, 1.99392, 1.99299, 1.91699, 1.91966, 1.99627, 2.00462, 1.85101, 1.84925, 1.84949, 1.8487, 2.04913, 1.85213, 1.85205, 1.85384, 1.85831, 1.85911, 1.9521, 1.95344, 1.85935, 1.86336, 1.86245, 1.86234, 1.86055, 1.8597, 1.91017, 1.85785, 1.85576, 1.85576, 1.85481, 1.90769, 1.85541, 1.85648, 1.85534, 1.78561, 1.89194, 1.78249, 1.89491, 1.89549, 1.89981, 1.77521, 1.89606, 1.76965, 1.76578, 1.76817, 1.76616, 1.81638, 1.7634, 1.76424, 1.7626, 1.76235, 1.76106, 1.89422, 1.75928, 1.75902, 1.75882, 1.75703, 1.75348, 1.87101, 1.87398
1.76418, 1.76332, 1.76375, 1.76237, 1.76118, 1.76164, 2.03875, 1.75458, 1.75571, 1.75795, 1.80689, 1.75563, 1.75579, 1.75495, 1.75418, 1.7529, 1.75471, 1.75135, 1.85258, 1.74901, 1.74722, 1.74569, 1.74236, 1.73951, 2.02268, 1.74117, 1.73989, 1.73981, 1.74257, 1.79228, 1.82608, 1.97971, 1.82316, 1.98238, 1.90084, 1.8247, 1.98008, 1.90225, 1.90322, 1.90291, 1.90333, 1.89636, 1.81792, 1.90637, 1.8946, 1.91018, 1.89312, 1.81695, 1.91073, 1.9128, 1.91393, 1.91412, 1.91374, 1.9169, 1.90672, 1.91588, 1.99266, 1.98079, 1.9769, 1.98409, 1.89331, 1.89522, 1.89101, 1.97702, 1.97465, 1.97941, 1.97472, 1.89552, 1.97455, 1.99634, 1.9783, 1.98548, 1.98928, 1.98354, 1.90706, 2.00072, 1.99132, 1.99458, 1.98662, 1.91316, 1.91376, 1.91335, 1.91573, 1.91601, 1.98835, 1.91449, 1.98969, 1.99336, 1.99612, 1.99382, 2.01099, 1.99485, 1.99334, 1.99474, 1.99395, 2.00459, 2.00104, 1.85042, 1.84803, 1.8466, 1.85012, 1.84905, 1.85112, 1.85015, 1.85476, 1.85844, 1.85917, 1.85959, 1.86044, 1.86125, 1.8653, 1.86225, 1.9115, 1.86195, 1.94621, 1.90937, 1.85855, 1.85564, 1.85733, 1.85523, 1.90716, 1.85479, 1.85764, 1.78791, 1.88951, 1.87619, 1.77852, 1.82763, 1.77522, 1.77231, 1.77269, 1.77325, 1.89991, 1.76632, 1.76533, 1.9338, 1.89868, 1.89759, 1.89404, 1.7629, 1.89406, 1.89289, 1.76122, 1.89304, 1.89424, 1.75729, 1.75556, 1.89291, 1.75339, 1.75251
1.76508, 1.76538, 1.76648, 1.76031, 1.85568, 1.759, 1.75906, 1.75878, 1.75904, 1.75893, 1.75235, 1.75526, 1.85442, 1.75544, 1.75693, 1.75297, 1.80212, 1.75177, 1.75057, 1.74715, 1.74921, 1.7478, 1.74539, 1.74465, 1.74032, 1.74031, 1.73903, 1.74119, 1.86029, 1.79439, 1.97803, 1.98316, 1.978, 1.98587, 1.97908, 1.90378, 1.90071, 1.89838, 1.82292, 2.01023, 1.82068, 1.90223, 1.89462, 2.00438, 1.81929, 1.81727, 1.81782, 1.89333, 1.99443, 1.91558, 1.91283, 1.89678, 1.89909, 2.00374, 1.90543, 1.91001, 2.01079, 1.9704, 1.99191, 1.98912, 1.99398, 1.89258, 1.89456, 1.89494, 1.97446, 1.98, 2.00352, 1.97574, 1.89927, 1.98504, 1.97639, 1.97931, 1.98592, 1.90554, 2.00488, 1.98437, 2.00744, 1.99508, 1.9965, 1.99346, 1.9133, 1.99647, 2.00134, 1.99242, 1.9928, 2.00186, 1.99243, 1.99307, 1.91594, 2.00128, 2.00974, 1.99353, 1.99355, 1.99458, 1.99916, 2.00433, 2.0177, 1.84921, 1.85084, 1.84879, 1.84965, 2.03482, 1.85327, 1.85246, 2.03856, 1.85804, 1.93158, 1.91083, 1.86125, 1.86263, 1.91231, 1.91392, 1.86135, 1.86039, 1.86198, 1.86209, 1.85501, 1.8584, 1.92322, 1.90625, 1.85703, 1.85706, 1.85821, 1.85595, 1.89311, 1.7815, 1.83202, 1.82777, 1.87655, 1.89673, 1.77084, 1.82075, 1.76891, 1.76821, 1.76705, 1.76739, 1.76746, 1.76443, 1.76237, 1.76512, 1.82481, 1.89539, 1.75999, 1.76083, 1.7584, 1.75897, 1.75681, 1.89324, 1.7534, 1.75465
1.81492, 1.76533, 1.76337, 1.84819, 1.76111, 1.76158, 1.75912, 1.75994, 1.75787, 1.75898, 1.75667, 1.755, 1.75741, 1.75604, 1.75315, 1.80602, 1.75574, 1.75264, 1.85437, 1.74959, 1.75068, 1.79613, 1.74356, 1.74226, 1.94074, 1.74387, 1.73962, 1.74019, 1.74179, 1.7439, 1.98211, 1.98286, 1.98259, 1.82522, 1.99389, 1.82505, 2.00657, 1.90063, 1.89888, 1.82117, 1.89688, 1.9048, 1.8968, 1.89474, 1.90757, 1.89308, 1.81712, 1.91003, 1.91003, 1.91293, 1.89622, 1.81792, 1.90047, 1.9015, 1.99313, 2.01021, 2.01842, 1.96925, 1.98264, 1.98138, 1.98628, 1.89428, 1.89657, 1.97297, 2.00105, 1.99333, 1.89711, 1.99288, 1.97537, 1.90265, 2.00005, 1.98051, 2.00043, 1.98361, 1.90688, 1.98663, 1.99679, 1.99417, 2.0143, 1.99817, 2.00661, 1.99155, 2.00125, 2.00046, 1.91389, 1.9908, 1.98979, 2.0115, 1.91542, 1.99267, 1.91505, 1.99619, 1.99746, 1.99388, 2.00009, 1.99954, 2.00454, 1.85193, 1.85086, 1.8501, 1.84778, 1.85149, 2.04698, 1.85423, 1.85229, 1.85665, 1.93427, 1.85926, 1.85968, 1.86444, 1.91348, 1.86182, 1.86305, 1.91278, 1.9529, 1.85996, 1.85921, 1.8585, 1.85767, 1.90722, 2.04807, 1.85655, 1.85837, 1.78812, 1.78501, 1.78052, 1.88166, 1.7786, 1.7752, 1.89652, 1.77127, 1.77043, 1.76929, 1.76868, 1.76617, 1.76329, 1.89477, 1.76246, 1.76272, 1.75883, 1.76041, 1.81177, 1.75895, 1.7599, 1.75939, 1.80809, 1.75881, 1.8863, 1.88066, 1.88038
1.76779, 1.81724, 1.85504, 1.76432, 1.76156, 1.76139, 2.03791, 1.76111, 1.75977, 1.76055, 1.75984, 2.03137, 1.75707, 1.75792, 1.80611, 1.80607, 1.84285, 1.80413, 1.75268, 1.75111, 1.7522, 1.86863, 1.74533, 1.74464, 1.74406, 1.74406, 1.74395, 1.74348, 1.74396, 1.74582, 1.98037, 1.82665, 1.98183, 1.90586, 1.82791, 1.82103, 1.82101, 1.9996, 1.90404, 1.90814, 1.90737, 1.90525, 1.98227, 1.8968, 1.89588, 1.89389, 1.91273, 1.81756, 1.8912, 1.89314, 1.91334, 1.82145, 1.82306, 1.91757, 2.00299, 1.91645, 2.02052, 1.89226, 1.97005, 1.9829, 1.96975, 1.89123, 1.96692, 1.9765, 1.97516, 1.97869, 1.99024, 1.9925, 1.97525, 1.99728, 1.97926, 1.98161, 1.98871, 1.98251, 1.99403, 1.99826, 2.00377, 1.91077, 1.9111, 2.00056, 2.01102, 1.99903, 2.00185, 1.99973, 1.9913, 2.00788, 2.01974, 1.99095, 1.99223, 2.01427, 1.99523, 1.99729, 1.9969, 1.99553, 2.00172, 1.9182, 2.01489, 1.85037, 1.84902, 1.85164, 1.94772, 1.85099, 1.85178, 1.85254, 1.85394, 1.85501, 1.85597, 1.85715, 1.8627, 1.8631, 1.94336, 2.03617, 1.86213, 1.91299, 1.95536, 1.86183, 1.86087, 1.85668, 1.85872, 1.85685, 1.858, 1.8585, 1.85761, 1.79083, 1.7864, 1.83442, 1.7802, 1.83077, 1.77669, 1.77308, 1.77133, 1.77004, 1.8991, 1.76545, 1.76617, 1.76426, 1.81409, 1.86736, 1.86463, 1.75956, 1.76093, 1.76227, 1.75921, 1.76065, 1.75904, 1.75826, 1.88695, 1.75613, 1.75461, 1.75389
1.76662, 1.84858, 1.76761, 1.76489, 1.7636, 1.76258, 1.75894, 1.76135, 1.76016, 1.86714, 1.75869, 1.75594, 1.75874, 1.85675, 1.75677, 1.80795, 1.80484, 1.75241, 1.75452, 1.75208, 1.75067, 1.74814, 1.86142, 1.74471, 1.74328, 1.74501, 2.02791, 1.74505, 1.79403, 1.74593, 1.8277, 1.82881, 1.9068, 1.90354, 1.82486, 1.82382, 1.82459, 1.90121, 1.90598, 1.89841, 1.90696, 1.89647, 1.90631, 1.9097, 1.89539, 1.91014, 1.89342, 1.91297, 1.89439, 1.8931, 1.91483, 1.91322, 1.91584, 1.90355, 1.90834, 1.91335, 1.99591, 1.96722, 1.8939, 1.97013, 1.97052, 1.89267, 1.96809, 1.89487, 1.972, 2.00204, 1.89795, 1.97084, 1.97917, 1.97805, 1.97858, 1.98051, 1.90363, 1.90731, 1.98393, 1.99524, 1.97974, 1.99958, 1.98567, 1.99289, 1.98972, 1.99711, 1.98927, 2.00449, 1.99134, 2.00005, 1.99542, 2.00993, 1.9925, 1.99273, 1.99134, 1.99344, 1.99678, 2.00345, 1.99487, 1.99519, 1.9955, 1.89973, 1.85074, 1.8998, 1.89972, 1.85235, 1.85074, 1.85424, 1.85427, 1.85786, 1.85774, 1.85698, 2.05018, 2.05412, 1.9175, 1.91321, 1.86343, 1.86137, 1.91345, 1.91087, 1.91044, 1.86079, 1.8609, 2.03554, 2.04221, 1.85783, 1.85635, 1.78915, 1.78596, 1.7851, 1.8294, 1.82899, 1.77377, 1.86489, 1.89784, 1.77125, 1.76734, 1.76674, 1.89693, 1.89663, 1.87875, 1.87052, 1.86805, 1.75997, 1.7588, 1.76138, 1.76156, 1.81802, 1.75844, 1.8721, 1.88954, 1.75459, 1.75627, 1.75434
1.76699, 1.81728, 1.76636, 1.76638, 1.76382, 1.76657, 1.76266, 1.76159, 1.76131, 1.75906, 1.76078, 1.75784, 1.75646, 1.75747, 1.75771, 1.75717, 1.80606, 1.75396, 1.75402, 1.74903, 1.75054, 1.74973, 1.86519, 1.74528, 1.86188, 1.74345, 1.74432, 1.844, 1.79625, 1.74687, 1.82666, 1.82706, 1.90127, 1.98309, 1.98433, 1.97939, 1.82489, 1.90123, 1.90055, 1.90355, 1.90549, 1.90336, 1.89741, 2.00765, 1.91288, 1.81833, 1.91203, 1.89522, 1.91168, 1.89569, 1.89272, 1.82041, 1.90332, 1.82446, 2.00487, 1.91869, 2.00522, 1.99375, 1.96981, 1.97212, 1.98572, 1.97499, 1.97224, 1.97079, 1.97298, 1.97239, 1.97224, 1.89881, 2.00558, 1.97686, 1.9793, 2.01107, 1.97815, 1.98254, 2.00125, 1.97949, 1.99995, 1.90993, 1.98831, 1.99242, 1.9973, 1.99306, 2.01514, 1.99123, 2.00412, 1.99843, 1.91656, 1.91439, 1.99263, 2.01157, 1.91443, 1.99011, 2.00009, 1.99752, 1.99303, 2.00186, 1.99791, 1.90275, 1.85083, 1.90023, 1.90239, 1.90337, 1.85257, 1.93119, 1.94055, 1.85701, 1.85964, 1.86084, 1.95205, 1.86021, 1.91805, 1.91435, 2.05194, 1.91246, 1.91276, 1.91228, 1.8594, 1.95567, 1.85829, 1.86158, 1.86137, 2.03315, 1.86009, 1.79066, 1.89147, 1.78448, 1.78074, 1.82818, 1.87476, 1.86761, 1.77168, 1.89602, 1.7692, 1.76526, 1.76482, 1.76459, 1.81465, 1.81637, 1.86477, 1.76227, 1.89241, 1.7631, 1.75787, 1.81078, 1.81039, 1.75693, 1.75963, 1.75729, 1.756, 1.75494
1.76841, 1.76581, 1.7685, 1.76791, 1.76623, 1.76181, 1.76146, 1.76144, 1.75898, 1.75885, 1.75896, 1.76145, 1.75802, 1.75725, 1.8602, 1.75725, 1.80703, 1.80479, 1.75467, 1.75372, 1.74993, 1.74868, 1.74808, 1.864, 1.74412, 1.74712, 1.74641, 1.79576, 1.74708, 1.79736, 1.98137, 1.82794, 1.82828, 1.98287, 2.00107, 1.90036, 1.90117, 1.9034, 1.99569, 1.90379, 1.89913, 1.89779, 1.81932, 1.82019, 1.89474, 1.89565, 1.89423, 1.91229, 1.91299, 1.81673, 1.9143, 2.00407, 1.89921, 1.91849, 1.91695, 1.91645, 2.00112, 1.96991, 1.97024, 1.97619, 1.97958, 1.89583, 1.9726, 1.97773, 1.9786, 1.89632, 1.97496, 1.97657, 1.97581, 2.00751, 1.90308, 1.98004, 1.98182, 1.90601, 2.00319, 1.9857, 1.90834, 1.91307, 1.9131, 1.99669, 1.99801, 1.99997, 2.00783, 1.99032, 2.00111, 1.99743, 1.99358, 1.99816, 2.01034, 1.99258, 1.99294, 1.9973, 2.00056, 1.99869, 1.99094, 1.91866, 2.00704, 1.85087, 1.85058, 1.90202, 1.96561, 1.9463, 1.8517, 1.85335, 1.90682, 1.9081, 1.96262, 1.85953, 1.95577, 1.86245, 1.86274, 1.86232, 1.86058, 1.86123, 1.86105, 1.86174, 1.86142, 1.95975, 1.85973, 1.86029, 1.86112, 1.86007, 1.85876, 1.7901, 1.88984, 1.78247, 1.78143, 1.77754, 1.77681, 1.77156, 1.77038, 1.86582, 1.76661, 1.89645, 1.76489, 1.76416, 1.76239, 1.76475, 1.76275, 1.76005, 1.76172, 1.75851, 1.76029, 1.75989, 1.80856, 1.75831, 1.88534, 1.76066, 1.75495, 1.88116
1.76778, 1.76805, 2.03566, 1.76841, 1.81664, 1.76389, 1.76328, 1.7642, 1.76034, 1.76494, 1.75896, 1.75941, 1.75868, 1.75614, 1.86476, 1.75841, 2.03023, 1.7563, 1.75813, 1.87468, 1.75071, 1.7507, 1.74934, 1.7487, 1.86341, 1.74891, 1.74743, 1.79831, 1.79904, 1.79978, 1.99289, 1.97908, 1.90441, 1.90353, 1.82669, 1.98387, 1.90316, 1.90798, 1.90708, 1.90329, 1.90922, 1.8965, 1.98572, 1.89351, 1.8169, 1.99734, 1.9919, 1.89075, 1.91379, 1.8955, 1.8949, 1.91682, 1.91897, 1.90346, 1.83098, 1.91696, 1.9957, 1.98732, 1.98609, 1.89272, 1.98284, 1.89158, 1.89372, 1.97231, 1.96916, 1.97612, 1.9758, 1.97675, 1.97715, 1.97929, 1.97905, 1.98333, 2.0036, 2.00255, 1.99503, 1.98598, 1.91035, 1.90912, 2.0014, 1.99319, 1.91368, 1.99826, 2.00017, 2.00777, 1.99379, 1.91409, 1.99778, 1.91671, 1.99059, 1.99348, 1.9171, 1.99171, 1.99381, 1.9144, 1.99372, 1.99973, 1.99526, 1.85219, 1.85262, 1.85247, 1.85278, 1.85112, 1.85247, 1.85301, 1.95546, 1.8579, 1.90856, 1.95369, 1.86216, 1.86348, 1.85941, 1.86243, 1.86185, 2.03459, 1.86151, 1.86306, 1.91021, 1.95211, 1.85783, 1.86138, 1.86023, 1.86045, 1.8594, 1.78871, 1.89045, 1.78319, 1.78062, 1.77808, 1.88972, 1.7753, 1.77195, 1.77055, 1.76771, 1.89934, 1.76485, 1.8168, 1.76488, 1.88944, 1.76289, 1.76001, 1.75823, 1.8969, 1.76034, 1.76006, 1.76113, 1.81248, 1.7591, 1.7582, 1.75622, 1.88207
1.7689, 1.7719, 1.77045, 1.76608, 1.86679, 1.76748, 1.76572, 1.76389, 1.76222, 1.82081, 1.76116, 1.75972, 1.76146, 1.75641, 1.75651, 1.75867, 1.93779, 1.75802, 1.87496, 1.8761, 1.80697, 1.75275, 1.86598, 1.75085, 1.86659, 1.74731, 1.81826, 1.80004, 1.74957, 1.75211, 1.98111, 1.9039, 1.90094, 1.90436, 1.98647, 1.90646, 1.98458, 1.90624, 1.90615, 1.82186, 2.01001, 1.89599, 1.81998, 1.89589, 1.89419, 1.89238, 1.99585, 1.89011, 1.89579, 1.89325, 1.89692, 1.8212, 1.9937, 1.90332, 1.90726, 2.00694, 1.99419, 1.96951, 1.97965, 1.96793, 1.96972, 1.89423, 1.8941, 1.97878, 1.97303, 1.97512, 2.00399, 1.89794, 1.99031, 1.99385, 1.98007, 2.01263, 1.90587, 1.90668, 1.90932, 1.9863, 1.98649, 1.91191, 2.01132, 1.91335, 1.99647, 2.01033, 1.99663, 2.00787, 2.00413, 2.00608, 2.00394, 2.00088, 1.99333, 1.91491, 2.02171, 1.99716, 1.99484, 1.912, 1.91838, 1.99415, 2.00169, 2.03982, 1.85428, 1.85192, 1.85396, 1.94673, 1.85367, 1.85814, 1.95809, 1.85621, 1.85876, 1.85957, 2.03199, 1.86142, 1.86173, 1.91251, 1.86336, 1.86435, 1.86418, 1.85946, 1.91148, 1.8617, 1.85935, 1.85785, 1.85906, 1.86132, 1.85849, 1.84014, 1.78448, 1.8895, 1.89358, 1.77903, 1.89072, 1.77255, 1.7693, 1.89496, 1.89375, 1.76591, 1.76348, 1.81482, 1.76398, 1.76235, 1.76211, 1.76158, 1.76148, 1.75975, 1.76235, 1.76173, 1.88051, 1.81376, 1.75888, 1.75795, 1.75799, 1.75655
1.76928, 1.77046, 1.76913, 1.76717, 1.9459, 1.76673, 1.76275, 1.76523, 1.82337, 1.76237, 1.76098, 1.75924, 1.75839, 1.75902, 1.7575, 1.75889, 1.7563, 1.75565, 1.75535, 1.7554, 1.75485, 1.85857, 1.75127, 1.75184, 1.86801, 1.75072, 1.85101, 1.83841, 1.74991, 1.75316, 1.98402, 1.98636, 1.82934, 1.90391, 1.9066, 1.90503, 1.90052, 1.90134, 1.8997, 1.90671, 1.90756, 1.8969, 1.82013, 1.89715, 1.81608, 1.89486, 1.89117, 1.91297, 1.91614, 1.91946, 1.99187, 1.8963, 1.82324, 1.90423, 2.00071, 1.91748, 2.00136, 1.97194, 1.97698, 1.97225, 1.97385, 1.89553, 1.89442, 1.97629, 1.97384, 1.97518, 1.97555, 1.89932, 1.99441, 1.97723, 1.97973, 1.90341, 1.90579, 1.99417, 1.99343, 1.98782, 1.99284, 1.98747, 1.91242, 2.01505, 1.99887, 1.99334, 1.99194, 1.99098, 1.99641, 1.98933, 1.99156, 1.91358, 1.91462, 1.99352, 1.99978, 1.99355, 1.91553, 1.91507, 1.91756, 2.01618, 1.9955, 2.05663, 1.85402, 1.8522, 1.85265, 1.85315, 1.85423, 1.8554, 1.95888, 2.03654, 1.85779, 1.85935, 1.91098, 1.86222, 1.86089, 1.9135, 1.86152, 1.86278, 1.86547, 1.86184, 1.86072, 1.86163, 1.85942, 1.86008, 1.85973, 1.86019, 1.8602, 1.79241, 1.90925, 1.78443, 1.89077, 1.77891, 1.8243, 1.88571, 1.8944, 1.89406, 1.76852, 1.81728, 1.81619, 1.86432, 1.85869, 1.76172, 1.87746, 1.75977, 1.7622, 1.76181, 1.88989, 1.75753, 1.76195, 1.96889, 1.75739, 1.88672, 1.87352, 1.88253
1.82236, 1.76985, 1.77162, 1.77007, 1.76601, 1.76492, 1.76613, 1.76509, 1.76319, 1.76253, 1.7623, 1.76175, 1.76176, 1.75987, 1.75926, 1.85672, 1.75911, 1.8552, 1.7567, 1.75745, 1.75501, 1.75306, 1.86933, 1.75287, 1.87125, 1.84877, 1.85782, 1.75142, 1.7514, 1.75245, 1.83006, 1.9898, 1.98264, 1.82996, 1.9019, 1.9843, 1.98292, 1.90107, 1.89984, 1.98744, 1.90949, 1.9078, 1.82176, 1.91085, 1.81892, 1.89436, 1.91508, 1.91422, 1.91473, 1.89311, 1.89725, 1.89953, 1.89976, 1.90284, 1.9083, 1.9137, 2.00074, 1.97339, 1.97215, 1.97189, 1.97324, 1.89439, 1.89373, 1.9762, 1.97363, 1.97309, 1.97593, 1.99042, 1.89942, 1.9767, 1.9015, 2.00471, 1.98997, 2.00288, 1.99667, 1.90675, 1.99683, 1.99135, 1.99803, 1.91258, 1.99782, 1.91395, 1.99265, 1.99266, 2.01359, 1.99241, 2.00365, 2.00785, 2.00295, 1.99011, 1.99022, 1.99615, 1.91365, 1.91641, 2.01796, 2.02063, 1.99866, 1.8552, 2.04833, 1.85272, 1.904, 1.90443, 1.9576, 1.85239, 1.85467, 1.8595, 1.85921, 1.86004, 1.86235, 1.86418, 2.03469, 1.86249, 1.86277, 1.86149, 1.86209, 1.91037, 2.04921, 1.86217, 1.86037, 1.91285, 1.86006, 1.85983, 1.92692, 1.78736, 1.89095, 1.7831, 1.82809, 1.77539, 1.87454, 1.77306, 1.76972, 1.77152, 1.81861, 1.8805, 1.76404, 1.86688, 1.76382, 1.76305, 1.81334, 1.76394, 1.76182, 1.76021, 1.89144, 1.76048, 1.76063, 1.76057, 1.75967, 1.88205, 1.87606, 1.87985
1.77322, 1.77232, 1.76992, 1.76717, 1.76878, 1.76718, 1.76739, 1.76599, 1.76515, 1.76436, 1.76285, 1.76218, 1.94338, 1.76201, 1.76204, 1.75888, 1.86371, 1.75922, 1.75817, 1.75676, 1.8061, 1.80623, 1.8043, 1.8029, 1.87373, 1.85171, 1.75352, 1.75384, 1.75387, 1.75123, 1.98612, 1.83025, 1.82762, 1.82829, 1.98338, 1.9018, 1.90677, 1.90153, 1.9034, 1.90105, 1.98603, 1.81987, 1.89643, 1.91248, 1.89745, 1.91294, 1.89388, 1.81732, 1.91462, 1.81794, 1.91828, 1.91805, 1.90405, 1.90386, 1.90968, 2.00828, 1.99381, 1.97115, 1.97048, 1.97526, 1.9799, 1.89535, 1.89476, 1.89688, 1.97908, 1.89584, 2.00211, 1.98739, 1.90025, 1.97742, 2.01344, 2.01339, 1.90563, 1.90646, 1.99812, 1.98965, 2.00088, 1.91117, 2.00387, 1.99674, 1.99665, 1.91488, 1.91621, 1.99222, 2.00125, 2.01106, 1.99529, 1.99701, 2.00481, 2.00715, 2.00092, 1.91531, 1.91489, 1.91685, 1.99664, 1.99477, 2.0104, 1.85839, 1.85238, 1.85362, 1.91448, 1.85505, 1.95546, 1.85594, 1.85679, 1.858, 1.85794, 1.85998, 1.90931, 2.03576, 1.86499, 1.86196, 1.86176, 1.94958, 1.86285, 1.91185, 1.86079, 1.86191, 1.86157, 1.85898, 1.86231, 1.86179, 1.85931, 1.78966, 1.83671, 1.7834, 1.83062, 1.77504, 1.77569, 1.77298, 1.77233, 1.76953, 1.8967, 1.88111, 1.88179, 1.76524, 1.86558, 1.76492, 1.87814, 1.76253, 1.76272, 1.76309, 1.7591, 1.76084, 1.75856, 1.88519, 1.76102, 1.76087, 1.88923, 1.88292
1.82299, 1.87278, 1.77158, 1.77139, 1.7685, 2.02449, 1.76801, 1.76524, 1.81831, 1.7649, 1.76465, 1.76352, 1.76191, 1.7646, 1.81625, 1.76207, 1.76178, 1.75988, 1.75765, 1.76074, 1.75747, 1.75705, 1.7581, 1.75492, 1.75469, 1.75318, 1.7528, 1.85957, 1.7552, 1.75557, 1.83236, 1.82898, 1.82846, 1.90575, 1.90507, 1.90144, 1.90939, 1.90231, 1.82533, 1.90403, 1.89863, 1.91173, 1.98918, 1.89616, 1.91442, 1.89622, 1.81829, 1.89331, 1.89276, 1.89584, 1.91822, 1.91756, 2.00695, 1.92042, 1.90684, 2.01515, 2.01395, 1.97126, 1.97151, 1.97019, 1.99386, 1.89544, 1.89406, 1.89687, 1.97346, 1.89717, 1.9753, 1.90316, 2.00999, 1.97937, 1.98154, 1.97982, 2.0213, 1.97447, 2.00488, 1.9937, 1.99633, 1.99887, 1.91469, 1.91488, 2.00823, 1.9134, 1.98942, 2.00297, 1.99929, 1.99738, 1.99714, 1.99759, 1.99056, 1.99094, 1.99278, 1.99419, 1.91513, 1.91559, 1.9935, 2.0066, 2.00918, 1.94512, 1.85474, 1.85524, 1.85514, 1.85573, 1.85485, 1.90843, 1.90721, 1.9245, 1.95341, 1.86151, 1.94564, 1.86293, 1.86013, 1.92047, 1.95102, 1.86351, 1.86083, 1.85991, 1.86279, 1.86101, 1.85979, 1.8586, 2.04775, 1.85894, 1.92137, 1.78891, 1.78258, 1.78271, 1.8305, 1.77648, 1.89247, 1.77278, 1.8209, 1.76696, 1.76668, 1.7661, 1.81509, 1.76423, 1.76464, 1.89107, 1.89533, 1.7622, 1.75978, 1.75839, 1.81092, 1.76122, 1.88609, 1.88898, 1.75928, 1.88259, 1.75777, 1.7612
1.77298, 1.77272, 1.77261, 1.77051, 1.86919, 1.76922, 1.76891, 1.76576, 1.81748, 1.81795, 1.76305, 1.76546, 1.76268, 1.76093, 1.76207, 1.76208, 1.76322, 1.75983, 1.7618, 1.75905, 1.75852, 1.75544, 1.87263, 1.85829, 1.75469, 1.85842, 1.85989, 1.86499, 1.75506, 1.75663, 2.00679, 1.8297, 1.98712, 1.986, 1.9067, 1.90953, 1.90933, 1.90085, 1.90126, 1.91009, 1.89883, 1.91132, 1.91449, 1.98999, 1.81732, 1.91403, 1.91302, 1.91773, 1.89541, 1.89328, 1.91673, 1.90034, 1.82415, 1.92111, 1.90702, 2.01106, 1.99612, 1.9728, 1.97226, 1.89647, 1.972, 1.89591, 1.97183, 1.97033, 1.8997, 1.99091, 1.9942, 1.97799, 1.97866, 2.0002, 1.98359, 1.98294, 1.9967, 1.9927, 1.90855, 1.90778, 1.9933, 2.00844, 1.98649, 1.98714, 1.99027, 1.98997, 2.00931, 1.99228, 2.02124, 1.99979, 2.00916, 2.00002, 2.01525, 2.01177, 2.02174, 1.91563, 1.91702, 1.91925, 1.91737, 1.99581, 2.02112, 1.85418, 1.85479, 1.85457, 1.85154, 1.85543, 1.85559, 1.85724, 1.85655, 1.92523, 1.95199, 1.86017, 1.91225, 1.91214, 1.8656, 1.86246, 1.86198, 1.91358, 1.85988, 1.91197, 2.0497, 2.04919, 1.86048, 1.86066, 1.9342, 1.86104, 1.85956, 1.79028, 1.88999, 1.77929, 1.78041, 1.87726, 1.77371, 1.77495, 1.76952, 1.77069, 1.87164, 1.81829, 1.76658, 1.76579, 1.76259, 1.76273, 1.85522, 1.89552, 1.89226, 1.87959, 1.81167, 1.81084, 1.75957, 1.88629, 1.76118, 1.81075, 1.75864, 1.88035
1.87033, 1.77497, 1.77344, 1.77265, 1.77312, 1.9477, 1.77064, 1.7685, 1.76898, 1.76406, 1.76445, 1.7642, 1.76524, 1.76206, 1.7621, 1.76224, 1.76232, 1.7611, 1.76215, 1.76104, 1.85535, 1.86205, 1.75964, 1.86169, 1.75779, 1.86159, 1.75708, 1.75456, 1.75801, 1.75963, 1.82778, 1.90557, 1.99043, 1.91016, 1.90458, 1.82723, 1.907, 1.89972, 1.9104, 1.91312, 1.91216, 1.8971, 1.89633, 1.89631, 1.99266, 1.89343, 1.89489, 1.9929, 1.89277, 1.8949, 1.89724, 1.90255, 1.82446, 1.99614, 1.83209, 2.00452, 2.01125, 1.89554, 1.89737, 1.98907, 1.89568, 1.97348, 1.97422, 1.97328, 1.98686, 2.00106, 1.97521, 1.97628, 1.97959, 1.97917, 1.98279, 1.99142, 1.99067, 1.99274, 1.98606, 1.99974, 1.99597, 2.00693, 2.007, 1.98881, 1.99244, 2.0148, 1.99649, 2.00991, 1.99404, 2.02369, 2.00433, 1.99451, 1.91507, 1.99369, 2.00762, 1.91633, 1.9165, 1.91626, 1.99616, 2.00473, 1.99432, 1.85449, 1.9054, 1.85489, 1.85343, 1.85483, 2.03381, 1.90661, 1.9065, 1.9074, 1.9108, 1.86183, 1.91039, 1.86263, 1.8626, 1.94145, 1.86431, 1.86125, 1.86164, 1.91174, 1.86035, 2.04626, 1.85877, 1.85903, 1.90803, 1.85655, 1.85778, 1.93901, 1.78557, 1.783, 1.77752, 1.77911, 1.77486, 1.77297, 1.8938, 1.87184, 1.8918, 1.765, 1.76485, 1.76314, 1.76418, 1.76435, 1.76251, 1.89801, 1.75784, 1.76093, 1.81147, 1.7607, 1.76135, 1.76002, 1.76047, 1.81177, 1.87403, 1.88164
1.77544, 1.77663, 1.775, 1.77445, 1.773, 1.77203, 1.77118, 1.85488, 1.76841, 1.85419, 1.76631, 1.76448, 1.765, 2.0238, 1.81477, 1.76161, 1.81274, 1.76325, 1.75858, 1.76137, 1.7585, 1.76088, 1.76093, 1.86507, 1.86578, 1.75759, 1.89617, 1.75766, 1.75974, 1.76071, 1.82905, 1.90772, 1.90744, 1.83046, 1.82929, 1.90691, 1.90462, 1.90607, 1.91448, 1.82332, 1.91224, 1.91666, 1.91397, 1.91671, 1.91452, 1.89279, 1.89301, 1.89411, 1.81766, 1.91952, 1.92026, 1.89817, 1.82335, 1.99804, 1.90907, 1.83751, 1.99234, 1.98708, 1.89846, 1.97476, 1.97321, 1.97216, 1.97393, 1.89612, 1.97203, 1.99405, 2.00258, 1.97716, 1.99259, 1.98255, 1.98408, 1.99657, 1.90444, 1.99472, 1.90832, 1.99588, 1.98561, 1.9105, 2.00658, 1.99129, 2.00329, 2.01054, 2.00384, 2.02064, 1.99307, 1.99464, 1.99773, 2.00083, 1.91296, 1.99767, 1.99325, 1.91423, 1.91656, 1.91706, 2.00826, 2.01733, 1.9941, 1.85452, 1.85413, 1.85104, 1.85477, 1.9581, 1.85503, 1.90665, 1.92077, 1.91171, 1.85883, 2.03466, 1.85983, 1.91357, 1.86247, 1.86229, 2.06904, 1.86089, 1.86183, 1.85913, 1.85869, 1.85698, 2.03435, 1.86144, 1.85869, 1.85889, 1.85518, 1.7868, 1.78528, 1.78158, 1.77642, 1.77715, 1.88912, 1.88996, 1.77065, 1.89722, 1.76687, 1.76621, 1.76573, 1.76255, 1.76224, 1.76152, 1.76308, 1.76266, 1.85505, 1.76055, 1.8855, 1.76017, 1.75969, 1.8852, 1.75787, 1.86515, 1.76009, 1.88558
1.77626, 1.77632, 1.77519, 1.77481, 1.77593, 2.03203, 1.77245, 1.77178, 1.81993, 1.81823, 1.7685, 1.94961, 1.76748, 1.76592, 1.87237, 1.76312, 1.76464, 1.85588, 1.76102, 1.76329, 1.7621, 1.76118, 1.86857, 1.75874, 1.75824, 1.75522, 1.75576, 1.80929, 1.76023, 1.75939, 1.8308, 1.91037, 1.9871, 1.90697, 1.82918, 1.90396, 1.90341, 1.90191, 1.91045, 1.89966, 1.90066, 1.91685, 1.89694, 1.81869, 1.89679, 1.8168, 1.89414, 2.01025, 2.00316, 1.91855, 1.81995, 1.82085, 1.82371, 1.92098, 1.92088, 1.9208, 1.85482, 1.98786, 1.97634, 1.97566, 1.98443, 1.97181, 1.97436, 1.89731, 1.89938, 1.98729, 1.89965, 1.99462, 2.00471, 2.00682, 1.98047, 2.00351, 1.9949, 2.0022, 1.99958, 2.0037, 2.00791, 2.01768, 1.99299, 2.00324, 1.99418, 1.99401, 2.00048, 2.00479, 2.01409, 2.00638, 2.00057, 1.9156, 2.01652, 1.99753, 1.99616, 1.91743, 1.91603, 1.91833, 1.99718, 1.99677, 2.01287, 1.9521, 1.85467, 1.95495, 1.85791, 1.95982, 1.85427, 1.90675, 1.92121, 1.85648, 1.85751, 1.85892, 1.86201, 1.86128, 1.86163, 1.86196, 2.04146, 1.86167, 1.86182, 1.86011, 1.85867, 1.90963, 1.86054, 1.86158, 1.85987, 1.85926, 1.86027, 1.79148, 1.89013, 1.78178, 1.77851, 1.77648, 1.89028, 1.77279, 1.89112, 1.89239, 1.89366, 1.76741, 1.76466, 1.76503, 1.81229, 1.76069, 1.8859, 1.76319, 1.89043, 1.8923, 1.75989, 1.76127, 1.88929, 1.88903, 1.87698, 1.76064, 1.75818, 1.75714
1.77983, 1.77648, 1.77652, 1.77794, 1.77356, 1.77237, 1.76938, 1.77039, 1.7696, 1.76911, 1.86911, 1.9485, 1.76527, 1.7657, 1.86808, 1.76548, 1.81412, 1.81491, 1.76244, 1.76382, 1.76061, 1.76129, 1.86972, 1.75859, 1.7578, 1.75747, 1.8679, 1.76102, 1.76204, 1.76187, 1.83133, 1.83113, 1.90788, 1.82947, 1.90737, 1.90615, 1.90966, 1.82561, 1.91385, 1.91363, 1.89997, 1.89664, 1.91659, 2.0036, 1.89845, 1.89331, 1.9192, 1.91749, 1.81713, 1.89535, 1.81996, 1.89983, 1.90138, 1.92024, 1.91108, 1.91457, 1.85531, 1.98997, 1.97333, 1.97487, 1.97846, 1.89938, 1.97927, 1.89651, 1.97828, 1.89999, 1.97592, 1.98779, 1.98522, 1.99039, 2.00601, 1.98241, 1.97807, 2.01314, 1.98276, 1.99594, 1.98755, 1.99504, 1.91411, 1.99614, 1.99335, 2.00644, 2.00701, 2.00416, 2.00787, 1.91452, 2.00603, 2.00394, 2.00818, 1.9154, 1.91531, 1.9147, 1.91571, 1.91615, 1.91741, 1.99351, 2.02125, 1.85507, 1.85738, 2.03153, 1.85516, 1.90502, 1.85593, 1.8561, 2.04841, 1.85902, 1.86123, 1.85902, 1.86124, 1.86244, 1.86184, 1.86003, 1.85958, 1.86203, 1.91169, 1.85678, 1.85838, 1.94562, 1.86115, 1.90984, 1.86001, 1.85947, 1.8558, 1.78685, 1.78327, 1.88693, 1.78028, 1.77529, 1.89243, 1.89001, 1.77016, 1.76885, 1.89677, 1.89355, 1.76423, 1.76399, 1.8134, 1.81335, 1.7602, 1.76, 1.86558, 1.76177, 1.75927, 1.88804, 1.75877, 1.88577, 1.75831, 1.80968, 1.75772, 1.80924
1.77955, 1.77846, 1.77499, 1.77581, 1.7761, 2.02977, 1.77112, 1.77194, 1.76979, 1.76991, 1.76943, 1.76884, 1.76763, 1.76848, 1.76631, 1.86972, 1.87113, 1.86515, 1.76233, 1.76492, 1.75976, 1.76178, 1.7619, 1.86795, 1.76091, 1.76113, 1.7593, 1.94712, 1.76204, 1.76455, 1.83128, 1.90903, 1.90944, 1.83174, 1.90536, 1.90754, 1.90376, 1.90997, 1.89953, 1.90187, 1.91484, 2.00446, 1.91637, 1.89918, 1.89472, 1.91807, 1.89524, 1.89436, 1.89592, 1.89554, 1.92256, 1.8223, 1.82451, 1.90613, 2.0038, 1.92305, 2.01386, 1.9779, 1.97493, 1.97653, 1.97445, 1.98288, 1.97565, 1.97666, 1.98941, 1.97667, 1.97909, 1.90153, 1.99013, 2.00582, 1.98269, 1.98192, 1.98225, 1.98744, 1.98543, 1.98641, 2.00609, 2.00632, 1.99597, 1.91412, 1.9977, 2.00062, 1.99734, 2.00308, 2.00501, 2.02023, 2.02036, 1.9929, 1.91524, 2.0004, 1.99513, 1.9147, 1.91391, 1.91679, 2.01007, 1.99362, 1.99337, 1.85597, 1.85721, 1.85577, 1.90607, 1.85541, 1.85504, 2.03801, 2.03254, 1.85972, 1.85934, 1.86185, 1.86077, 2.03826, 1.86296, 1.8617, 2.0398, 1.8648, 2.0424, 1.86111, 1.85881, 1.85967, 1.85812, 1.85668, 2.02848, 2.03401, 1.85634, 1.78618, 1.78287, 1.8883, 1.77883, 1.7776, 1.94439, 1.76721, 1.77138, 1.8733, 1.89937, 1.76565, 1.86204, 1.8969, 1.89573, 1.76036, 1.76224, 1.76001, 1.7614, 1.76027, 1.75851, 1.88938, 1.88523, 1.85205, 1.75711, 1.81176, 1.75812, 1.75867
1.78172, 1.77931, 1.77765, 1.77836, 1.77863, 1.77548, 1.77181, 1.77483, 1.95224, 1.77222, 1.77001, 1.76956, 1.76968, 2.02559, 1.76835, 1.76578, 1.76554, 1.76838, 1.76461, 1.76324, 1.76257, 1.87523, 1.76414, 1.76196, 1.76098, 1.76161, 1.76199, 1.76264, 2.02331, 1.76436, 1.83394, 1.91416, 1.83271, 1.83175, 1.90744, 1.90737, 1.90837, 1.91146, 1.90273, 1.90094, 1.90256, 1.89975, 1.89445, 1.91743, 1.91772, 1.92108, 1.89682, 1.89913, 1.82002, 1.8972, 1.89847, 1.89954, 1.82668, 1.92265, 1.91207, 1.99989, 2.00698, 1.98178, 1.89809, 1.97756, 1.89721, 1.97561, 1.97848, 1.97715, 1.89864, 1.99573, 1.99406, 1.99066, 1.99404, 1.96848, 2.00301, 1.98771, 1.99821, 1.99534, 1.98554, 1.98801, 2.02453, 1.91331, 1.99978, 1.91422, 1.99013, 1.98965, 1.9152, 1.99646, 2.00432, 2.01723, 2.00598, 1.9963, 2.00469, 1.99933, 1.99036, 1.9174, 1.91524, 1.91468, 1.99795, 1.99443, 2.02888, 1.85681, 2.03461, 1.85616, 1.85588, 1.85507, 1.85752, 1.85547, 1.85391, 1.85942, 1.85871, 1.86101, 2.05434, 1.86159, 1.94901, 1.86275, 1.85832, 1.86064, 1.86205, 2.03206, 2.0314, 2.05078, 2.05925, 1.85723, 1.85701, 2.03665, 1.85748, 1.78409, 1.7827, 1.89136, 1.78044, 1.77832, 1.88879, 1.76995, 1.81977, 1.76799, 1.8165, 1.82014, 1.76729, 1.89751, 1.89612, 1.89625, 1.76195, 1.89491, 1.89359, 1.89592, 1.75932, 1.89052, 1.75893, 1.76125, 1.75927, 1.88273, 1.88109, 1.75638
1.78164, 1.77902, 1.7765, 1.7783, 1.7781, 1.77612, 1.77513, 2.04589, 1.77323, 1.7726, 1.77041, 1.77075, 2.04752, 1.76991, 1.76592, 1.76721, 1.76483, 1.76494, 1.87185, 1.76635, 1.76465, 1.81408, 1.81434, 1.81296, 1.76154, 1.76075, 1.76335, 1.76355, 1.76504, 1.76624, 1.83349, 1.90967, 1.91247, 1.90703, 1.91057, 1.99115, 1.91355, 1.82579, 1.90329, 1.91496, 1.9004, 1.9003, 1.91749, 1.99815, 1.81739, 1.89534, 1.89405, 1.92022, 1.91844, 1.81973, 1.92281, 1.89955, 1.82696, 1.90324, 1.91023, 1.92391, 2.0175, 1.99102, 1.98117, 1.97412, 1.89814, 1.97759, 1.97939, 1.97929, 1.98199, 1.97613, 1.97794, 1.99839, 1.90253, 1.90244, 1.98397, 2.00474, 1.99998, 1.9091, 1.91036, 1.98793, 1.98944, 1.98842, 1.99014, 2.00469, 2.01005, 2.00756, 1.99403, 1.91516, 2.00242, 2.00125, 1.91664, 2.01803, 1.99098, 1.99278, 1.99235, 1.91603, 1.91535, 1.91617, 1.91698, 2.01087, 2.01231, 1.85913, 1.85679, 1.90584, 1.96171, 1.95151, 1.85886, 1.85521, 1.85857, 1.86102, 1.86227, 1.8587, 1.86168, 1.85894, 1.8618, 1.86133, 1.86079, 1.86078, 2.06606, 1.85958, 1.85874, 1.85637, 1.85871, 1.85508, 1.85653, 1.85811, 2.03447, 1.78592, 1.78537, 1.88866, 1.7768, 1.77545, 1.7736, 1.8219, 1.76893, 1.76753, 1.76614, 1.76412, 1.88677, 1.76255, 1.76354, 1.97318, 1.75969, 1.89317, 1.8953, 1.75977, 1.75873, 1.8898, 1.75528, 1.81004, 1.76153, 1.88413, 1.75907, 1.75852
1.78377, 1.78192, 1.77919, 1.77977, 1.78113, 1.77766, 2.05415, 1.77679, 1.77409, 1.77295, 1.872, 1.94745, 1.7714, 1.772, 1.77073, 1.87098, 1.86901, 1.76688, 1.8716, 1.76487, 1.82196, 1.85439, 1.76577, 1.81391, 1.76221, 1.76462, 1.76206, 1.76342, 1.76499, 1.7664, 1.91045, 1.91071, 1.90836, 1.9098, 1.90679, 1.90589, 1.90411, 1.91313, 1.9041, 1.91362, 1.90296, 2.0045, 1.91824, 1.89655, 1.89729, 1.92146, 1.91992, 1.89441, 1.81952, 1.89928, 1.92107, 1.89938, 1.90107, 1.90618, 1.92201, 2.00026, 2.03146, 1.97665, 1.98587, 1.97526, 1.90021, 1.97705, 1.97839, 1.98184, 1.97668, 1.90086, 1.99083, 2.00009, 1.98887, 1.90406, 2.00214, 1.99292, 1.90767, 1.9099, 2.00718, 1.98624, 1.98909, 2.0105, 1.9912, 2.00172, 2.01105, 2.01806, 2.01473, 1.91694, 1.99112, 2.01006, 1.99282, 2.00725, 1.99022, 1.99727, 1.99113, 1.91603, 1.9177, 1.91743, 1.99367, 1.99664, 1.99513, 1.85703, 1.90872, 1.90742, 1.85547, 1.85435, 2.03835, 1.85496, 1.85902, 1.85751, 1.85978, 1.86232, 1.86205, 1.8615, 1.86177, 1.86256, 1.86301, 1.8614, 1.85865, 1.85824, 1.85788, 1.85779, 1.85868, 1.96261, 1.85724, 1.90558, 1.85462, 1.83598, 1.78233, 1.77929, 1.77501, 1.77712, 1.88943, 1.76926, 1.9653, 1.89436, 1.89549, 1.76396, 1.76432, 1.76232, 1.76258, 1.89356, 1.75985, 1.89279, 1.89421, 1.76083, 1.80978, 1.7608, 1.88873, 1.88242, 1.75895, 1.88168, 1.76003, 1.7563
1.86311, 1.78155, 1.83159, 1.87043, 1.8303, 2.03183, 1.77879, 1.77626, 1.77589, 1.77355, 1.77237, 1.77373, 1.77279, 1.77082, 1.8197, 1.81937, 1.87229, 1.76909, 1.76659, 1.76529, 1.81623, 1.81648, 1.76602, 1.76486, 1.76508, 1.94512, 1.76335, 1.76652, 1.76688, 1.76822, 1.99542, 1.83507, 1.9134, 1.91306, 1.90762, 1.91341, 1.91276, 1.90333, 1.90404, 1.9146, 1.90007, 1.89526, 1.91897, 1.89758, 1.89646, 1.82043, 1.99643, 1.89566, 1.82019, 1.89842, 1.8961, 1.82407, 1.90242, 2.01004, 1.92506, 2.02233, 1.85772, 1.97882, 1.97939, 1.97934, 1.97717, 1.89842, 1.97713, 1.97855, 1.89991, 1.97666, 1.98572, 1.90021, 1.99715, 1.9036, 2.00462, 2.00491, 1.98708, 1.90729, 2.00036, 1.98773, 1.98789, 2.00388, 1.99173, 1.99252, 1.99171, 2.0117, 1.91535, 2.00009, 1.99985, 2.00746, 1.99293, 2.01434, 1.91512, 1.99344, 1.91675, 1.99418, 1.91799, 1.91561, 1.99418, 1.99742, 2.02079, 1.85848, 1.90796, 1.96247, 1.85683, 2.04162, 1.85615, 1.85823, 1.85668, 2.04077, 1.85857, 1.85901, 1.8616, 1.86261, 1.8627, 1.85854, 1.91104, 1.93575, 1.85874, 1.8568, 1.85683, 2.0519, 1.85705, 1.85663, 1.85839, 1.90616, 1.85508, 1.78472, 1.77979, 1.77906, 1.89709, 1.82462, 1.89269, 1.77022, 1.76934, 1.76701, 1.81423, 1.76303, 1.87845, 1.76279, 1.75983, 1.76235, 1.76129, 1.75966, 1.76109, 1.80804, 1.87766, 1.80693, 1.89032, 1.76157, 1.81631, 1.81744, 1.7596, 1.75811
1.78401, 1.78595, 1.78018, 1.78197, 1.77912, 1.77944, 1.78008, 1.8717, 1.77563, 1.77556, 1.77507, 1.77413, 1.77341, 1.77505, 1.76929, 1.77051, 1.87107, 1.76922, 1.86593, 1.76545, 1.76577, 1.76518, 1.76525, 1.76792, 1.85421, 1.94839, 1.76493, 1.76711, 1.76897, 1.77014, 1.83534, 1.9937, 1.83244, 1.91028, 1.91223, 1.83122, 1.99396, 1.90359, 1.91454, 1.89966, 1.91743, 1.89811, 1.89671, 1.89679, 1.82095, 2.01476, 1.8966, 1.89627, 1.89687, 1.81907, 1.89706, 2.00773, 1.92434, 2.00023, 1.91311, 1.9256, 1.85791, 1.99186, 1.97776, 1.97671, 1.89941, 1.97601, 1.89998, 1.98178, 1.97848, 1.98634, 1.99711, 1.97873, 1.97769, 2.01325, 1.97188, 1.99296, 1.98561, 1.90948, 1.91071, 2.0101, 1.99025, 1.99021, 2.01724, 1.99321, 1.98966, 1.98999, 2.01114, 2.00605, 1.91759, 2.00696, 2.01672, 1.99199, 1.9946, 2.00283, 1.99627, 1.91688, 1.91741, 1.99572, 1.9171, 2.02207, 2.01768, 1.86118, 1.85739, 1.85798, 1.85762, 1.85575, 1.85848, 1.85963, 1.91316, 1.95561, 2.03191, 1.85994, 1.85862, 2.03848, 1.86087, 1.85884, 1.858, 1.93838, 1.85949, 1.90726, 1.85791, 1.85598, 2.02755, 1.85915, 1.85658, 1.90638, 1.85405, 1.872, 1.87459, 1.7799, 1.77845, 1.82453, 1.77435, 1.77224, 1.8876, 1.76667, 1.76508, 1.81685, 1.81675, 1.76158, 1.76178, 1.76047, 1.89258, 1.7625, 1.7592, 1.80986, 1.8756, 1.80946, 1.75495, 1.88624, 1.81788, 1.8183, 1.76102, 1.75917
1.78518, 1.78511, 1.95534, 1.8808, 1.78067, 1.77979, 1.77969, 1.77829, 1.88012, 1.77689, 1.77352, 1.87762, 1.77277, 1.7721, 1.77247, 1.94988, 1.77161, 1.77202, 1.84572, 1.76585, 1.76847, 1.81683, 1.81673, 1.76681, 1.81724, 1.8692, 1.87294, 1.76678, 1.77011, 1.76934, 1.99119, 1.91319, 1.91396, 1.83297, 1.83196, 1.83406, 2.00643, 1.91625, 1.90091, 1.901, 1.90185, 1.8239, 1.92345, 1.91871, 1.92026, 2.00254, 1.8197, 1.89798, 1.89796, 1.89702, 1.89928, 1.90141, 1.90445, 2.00005, 1.91619, 2.01242, 2.0232, 1.90024, 1.97687, 1.97883, 1.9771, 1.97889, 1.9005, 1.98061, 1.97712, 1.97597, 1.90295, 1.97709, 1.90194, 1.97992, 1.99377, 1.98552, 1.99781, 1.99914, 2.00083, 1.99461, 1.9888, 2.00702, 2.00968, 1.99135, 2.00051, 2.00593, 2.00041, 1.99506, 2.01592, 1.9941, 2.00733, 2.0013, 1.9915, 1.99666, 1.9955, 1.99291, 1.91775, 1.91702, 1.91675, 1.99334, 1.99635, 1.8601, 2.04892, 1.85925, 2.0266, 2.02637, 1.85403, 1.8558, 1.91514, 1.85729, 1.85894, 1.86061, 1.86124, 1.85914, 1.85812, 1.86033, 1.85919, 1.91013, 2.03799, 1.90968, 1.91024, 2.04115, 2.04357, 1.85812, 1.90639, 2.01717, 1.90525, 1.92192, 1.78033, 1.77585, 1.77439, 1.82672, 1.77216, 1.76936, 1.76929, 1.76632, 1.76494, 1.87881, 1.87433, 1.76394, 1.76183, 1.761, 1.89601, 1.88993, 1.89395, 1.81009, 1.80919, 1.8095, 1.75868, 1.75923, 1.81973, 1.81629, 1.88514, 1.75623
1.78349, 1.83511, 1.78561, 1.78243, 1.78069, 1.78245, 1.77945, 1.77963, 1.77589, 1.87939, 1.82693, 1.77681, 1.7729, 1.77475, 1.77518, 1.82411, 1.77254, 1.77031, 1.76904, 1.7688, 1.76912, 1.81944, 1.81802, 1.81694, 1.76578, 1.76667, 1.76692, 1.76794, 1.76964, 1.77012, 1.91532, 1.99139, 1.90984, 1.91452, 1.91552, 1.91819, 1.82899, 1.91626, 1.9065, 2.01145, 1.90149, 2.00772, 1.90127, 1.82289, 1.92229, 1.92076, 1.89431, 1.81986, 1.82068, 1.82032, 1.90144, 1.82465, 1.82817, 1.90739, 1.92426, 2.01082, 2.01909, 1.99048, 1.90042, 1.97642, 1.90095, 1.98245, 1.89989, 1.97982, 1.98434, 1.99995, 1.99301, 1.9903, 1.98021, 1.98066, 1.982, 1.98636, 1.99108, 2.00082, 1.99343, 2.00705, 1.99701, 2.00125, 1.91356, 1.99239, 1.91472, 2.00043, 1.98901, 1.99953, 1.91965, 2.0049, 2.00394, 1.99682, 1.99286, 2.00639, 1.99695, 1.91669, 1.99604, 1.91778, 2.00065, 2.01697, 1.99749, 1.95657, 1.8574, 1.85823, 1.85746, 1.95196, 1.85588, 1.85435, 1.95501, 1.86101, 1.91026, 1.90979, 1.85926, 2.04397, 1.86025, 1.86234, 1.91033, 1.91036, 2.0494, 1.9113, 1.90786, 1.85904, 2.03102, 1.8566, 1.85522, 1.90343, 1.9055, 1.83385, 1.83156, 1.848, 1.87779, 1.88008, 1.76999, 1.81957, 1.76821, 1.82228, 1.89087, 1.81508, 1.81356, 1.76242, 1.76482, 1.7617, 1.89575, 1.75904, 1.89657, 1.75747, 1.81003, 1.75854, 1.75784, 1.75883, 1.75741, 1.88027, 1.8603, 1.8607
2.02233, 1.8371, 1.78646, 1.78568, 1.78181, 1.77994, 1.78204, 1.78163, 1.77915, 1.77975, 1.82713, 1.82752, 1.87294, 1.77599, 1.87737, 1.77482, 1.77457, 1.95126, 1.76963, 1.77124, 1.77018, 1.76718, 1.76618, 1.76926, 1.76781, 1.76888, 1.86305, 1.7693, 1.76906, 1.7722, 1.91464, 1.99117, 1.91014, 1.91304, 1.91068, 1.91688, 1.90631, 1.90629, 1.90548, 1.92061, 1.90132, 1.92131, 1.90274, 1.92317, 1.89808, 1.89647, 1.82087, 1.92448, 1.92474, 1.92662, 1.92608, 1.90162, 1.90403, 1.90895, 1.83751, 2.00828, 2.00292, 1.99294, 1.98247, 1.99294, 1.97897, 1.90164, 1.9018, 1.98245, 1.97831, 1.98052, 1.99904, 1.97941, 1.98947, 1.9796, 1.99208, 1.99659, 1.99658, 1.99731, 1.99395, 2.00445, 2.00051, 2.00408, 2.00032, 1.99704, 2.00681, 2.011, 1.91763, 2.00371, 1.9174, 2.00049, 1.91664, 1.99895, 2.01054, 2.02144, 2.00001, 1.99422, 1.99408, 1.99704, 1.99554, 2.01444, 1.99896, 1.85919, 1.85859, 2.05533, 1.85633, 1.85626, 1.85597, 1.85824, 1.85631, 1.9149, 1.9086, 1.94227, 1.94145, 2.04776, 1.85958, 2.04995, 1.85597, 1.85685, 1.85708, 1.90821, 1.90856, 1.85629, 1.85506, 1.85182, 1.85762, 1.90441, 1.90492, 1.78129, 1.77907, 1.77704, 1.88093, 1.7725, 1.77082, 1.81991, 1.81727, 1.76729, 1.76462, 1.76363, 1.81554, 1.76304, 1.762, 1.76106, 1.893, 1.75913, 1.89905, 1.75913, 1.75823, 1.76115, 1.7613, 1.75744, 1.75896, 1.87598, 1.7583, 1.759
1.8475, 1.84882, 1.78821, 1.78621, 1.78391, 1.83374, 1.78295, 1.78045, 1.77941, 1.77999, 1.78194, 1.87693, 1.7788, 1.77782, 1.77669, 1.77633, 1.77451, 1.77202, 1.77066, 1.77195, 1.77217, 1.95511, 1.7693, 1.76942, 1.76912, 1.76935, 1.86688, 1.85048, 1.76987, 1.7724, 1.83751, 1.91333, 1.83505, 1.91612, 1.91327, 1.90689, 1.90658, 1.91458, 1.90454, 2.00205, 1.92086, 1.82155, 1.82474, 1.9007, 2.00756, 1.89622, 1.89649, 1.89987, 1.92571, 1.89958, 1.9025, 1.92868, 1.90595, 1.83365, 1.91383, 2.01348, 2.00557, 1.98113, 1.98368, 1.89983, 1.98003, 1.90087, 1.97694, 1.98188, 1.9025, 1.97993, 1.97861, 2.00101, 1.99712, 1.98275, 1.98421, 1.90759, 2.00666, 1.98432, 1.9867, 1.91372, 1.99692, 1.91413, 2.00653, 1.99094, 1.91711, 2.00869, 1.91508, 1.99358, 2.0085, 2.00366, 2.00394, 2.00335, 2.01019, 2.00121, 1.99451, 1.99591, 1.99584, 1.99695, 2.00047, 1.99638, 1.9992, 1.86132, 1.86017, 1.85512, 1.90926, 2.033, 1.85743, 1.85702, 1.85505, 1.85729, 1.90899, 1.90997, 1.91016, 1.86024, 2.04418, 1.86126, 1.85857, 1.85836, 2.04388, 1.85669, 1.9065, 1.90765, 1.85685, 1.85426, 1.85427, 1.90545, 1.85411, 1.78177, 1.77933, 1.77795, 1.77499, 1.77444, 1.88502, 1.76969, 1.81935, 1.76521, 1.89183, 1.84878, 1.81391, 1.89016, 1.76236, 1.81297, 1.89408, 1.75775, 1.75912, 1.75747, 1.75671, 1.75931, 1.76009, 1.75682, 1.7589, 1.87813, 1.88211, 1.75957
1.78974, 1.78872, 1.78649, 1.78715, 1.83567, 1.83448, 1.78199, 1.88154, 1.77939, 1.7795, 2.05657, 1.77828, 1.87567, 1.77936, 1.77888, 1.7768, 1.77574, 1.77356, 1.77392, 1.77265, 1.771, 1.77196, 1.77163, 1.77336, 1.76932, 1.76904, 1.87406, 1.77025, 1.77332, 1.7749, 1.83814, 1.91323, 1.90926, 1.91009, 1.91527, 1.91961, 1.90819, 1.90579, 1.90484, 1.90317, 1.90267, 2.00867, 1.92335, 1.92483, 1.89677, 1.8993, 1.89641, 1.89693, 1.92729, 1.92676, 1.82339, 1.90187, 1.90512, 1.92734, 1.9149, 1.92453, 1.86144, 2.00342, 1.97791, 1.98668, 1.98962, 1.90034, 1.90218, 1.98271, 1.97885, 1.99365, 1.97939, 1.99081, 1.97998, 1.90599, 1.99231, 2.00579, 2.00865, 1.91001, 1.98822, 2.01148, 2.00321, 1.99622, 1.99868, 1.99694, 1.99253, 2.01932, 2.02081, 1.99595, 1.917, 2.00455, 2.00551, 1.99269, 2.005, 2.00412, 1.99463, 1.99388, 1.9974, 1.99976, 1.99521, 2.01947, 1.99635, 2.02731, 1.85737, 1.85381, 1.90926, 1.85505, 1.85746, 2.04195, 1.85691, 1.85963, 1.8582, 1.91079, 1.91161, 1.85819, 2.03504, 1.85855, 1.86031, 1.86022, 1.85884, 1.85697, 1.85623, 1.85703, 1.85465, 1.84971, 1.85409, 1.85132, 1.85234, 1.78135, 1.88679, 1.77655, 1.77593, 1.77218, 2.06162, 1.87962, 1.76526, 1.76668, 1.76566, 1.76366, 1.83957, 1.88087, 1.87718, 1.88957, 1.75827, 1.76065, 1.88889, 1.75805, 1.75973, 1.75853, 1.7608, 1.76118, 1.76237, 1.87922, 1.76022, 1.85496
1.79083, 1.78942, 1.78643, 1.83742, 1.83612, 1.83606, 1.7827, 1.78339, 1.78151, 1.88167, 1.77912, 1.78212, 1.77743, 1.77907, 1.77847, 1.87538, 1.77537, 1.8795, 1.87398, 1.77482, 1.87741, 1.87291, 1.77304, 1.77003, 1.87238, 1.7718, 1.77046, 1.77217, 1.77415, 1.77487, 1.91356, 1.91871, 1.91752, 1.91775, 1.91722, 1.91887, 1.91807, 1.92096, 1.90405, 1.82595, 1.82575, 1.92357, 1.89889, 1.9027, 1.92479, 1.89758, 1.89773, 1.89761, 2.00922, 1.82284, 1.82543, 1.90277, 1.82872, 1.9074, 1.91955, 1.92383, 1.99565, 1.97975, 1.97962, 1.97967, 1.97904, 1.90309, 1.90233, 1.903, 1.98271, 1.99109, 1.98047, 1.98061, 1.90376, 2.00727, 1.9922, 1.99671, 2.00412, 1.91172, 1.98873, 1.98637, 2.00282, 1.99333, 1.99768, 2.01561, 1.99711, 1.9947, 2.0009, 1.99323, 1.91801, 1.99473, 1.99707, 2.00666, 2.00309, 1.91735, 1.99728, 1.99419, 2.00009, 1.99546, 1.99628, 1.99669, 1.9972, 1.8577, 1.86131, 1.85584, 1.91051, 1.91279, 1.95405, 1.95571, 1.95128, 1.85824, 1.95467, 1.91092, 1.8602, 1.86203, 2.03758, 1.85845, 1.85825, 1.8592, 1.85884, 1.85666, 1.85702, 1.85538, 2.03626, 2.03229, 1.85079, 1.8512, 1.85076, 1.78, 1.77645, 1.7737, 1.88569, 1.81963, 1.77154, 1.76899, 1.88286, 1.76515, 1.76801, 1.88636, 1.76233, 1.76302, 1.76265, 1.7606, 1.75958, 1.76112, 1.76104, 1.75786, 1.75899, 1.86023, 1.75784, 1.75869, 1.87247, 1.76194, 1.88019, 1.88102
1.7919, 1.79097, 1.78923, 1.789, 1.83752, 1.78612, 1.78532, 1.7827, 1.78296, 1.77836, 2.05513, 1.78178, 1.78087, 1.77996, 1.77964, 1.77888, 1.77382, 1.77427, 1.77254, 1.86533, 1.87618, 1.77319, 1.77314, 1.88205, 1.77221, 1.77273, 1.77226, 1.77288, 1.77296, 1.77524, 1.92019, 1.91443, 1.92035, 1.92009, 1.91734, 1.83355, 1.92738, 1.90436, 1.92243, 1.90267, 1.82785, 1.90324, 1.89972, 1.90005, 1.82154, 1.89955, 1.89729, 1.89915, 1.92867, 1.9276, 1.90094, 1.92908, 1.92872, 1.91053, 1.91522, 1.92803, 2.01046, 1.98651, 1.90344, 1.90087, 1.98133, 1.98268, 1.90197, 1.90092, 1.98658, 1.98214, 1.98202, 1.99325, 1.98347, 1.98669, 1.99766, 1.91001, 1.99696, 2.00087, 1.98812, 1.98717, 1.9138, 1.99452, 1.99289, 1.91572, 2.01002, 1.91727, 1.91744, 2.00635, 1.99359, 2.01001, 1.92017, 2.01371, 1.99573, 2.00012, 2.01074, 1.99407, 1.99725, 1.99789, 1.99971, 1.92011, 2.00645, 1.94843, 2.02374, 1.85798, 1.91398, 1.91427, 1.85464, 1.85453, 1.94811, 1.91411, 1.91552, 1.85908, 2.03529, 1.86133, 1.85985, 1.85842, 1.8611, 1.85874, 2.02844, 1.85805, 1.85535, 1.9409, 1.85414, 1.85323, 1.85215, 1.85232, 1.85369, 1.78036, 1.77559, 1.88502, 1.77306, 1.77346, 1.77141, 1.88265, 1.76822, 1.76554, 1.88607, 1.76108, 1.76371, 1.81061, 1.76107, 1.76066, 1.75946, 1.75775, 1.88905, 1.75863, 1.75787, 1.75522, 1.75805, 1.88636, 1.81299, 1.80946, 1.88271, 1.87942
1.79281, 1.85804, 1.79323, 1.7913, 1.78953, 1.7865, 1.83712, 1.78693, 1.88429, 1.78331, 1.78188, 1.78347, 1.78221, 1.78048, 1.8787, 1.84522, 1.77609, 1.7755, 1.87179, 1.86562, 1.77416, 1.77457, 1.8694, 1.88491, 1.88568, 1.7742, 1.77525, 1.94972, 1.7755, 1.77458, 1.99831, 1.83862, 1.91517, 1.9137, 1.91286, 1.92324, 1.8331, 2.00465, 1.90888, 1.9223, 1.92329, 1.92438, 1.90122, 1.92591, 1.89902, 1.90253, 2.02259, 1.90073, 1.92818, 1.92832, 1.90162, 1.90419, 1.83168, 1.93024, 1.91587, 1.92209, 2.00357, 2.01322, 1.98982, 1.98344, 1.98265, 1.97944, 1.90381, 1.90199, 1.9029, 1.98662, 1.98032, 1.90495, 2.00088, 1.98522, 1.90726, 1.99415, 2.01087, 1.98655, 1.99112, 2.00633, 2.00998, 2.01053, 2.0062, 1.91722, 2.01456, 2.00066, 2.00036, 1.99347, 2.01802, 2.00157, 1.99437, 2.01555, 1.995, 1.99986, 1.99707, 1.99453, 1.99697, 1.99944, 1.99475, 1.99795, 2.0137, 1.94778, 1.85959, 2.04621, 1.85617, 1.85847, 1.95496, 1.85414, 1.85847, 1.91441, 1.91502, 1.85937, 1.85908, 1.85956, 1.95565, 2.03849, 1.85852, 1.85825, 1.9063, 1.85522, 1.85554, 1.94383, 1.85414, 1.85154, 1.85436, 1.85164, 1.84793, 1.77921, 1.88353, 1.77629, 1.8221, 1.76971, 1.77095, 1.87927, 1.76853, 1.76741, 1.88533, 1.76381, 1.762, 1.76003, 1.76133, 1.88761, 1.75954, 1.7593, 1.76164, 1.76004, 1.75398, 1.75817, 1.7585, 1.80982, 1.759, 1.8696, 1.88413, 1.88154
1.8836, 1.85828, 1.79046, 1.79289, 1.79211, 1.78701, 1.87214, 1.78622, 1.78299, 1.78301, 1.78292, 1.78037, 1.77985, 1.78103, 1.83002, 1.84601, 1.77831, 1.88555, 1.77592, 1.7757, 1.82761, 1.77285, 1.77526, 1.77489, 1.77575, 1.77538, 1.77489, 1.7739, 2.03235, 1.77527, 2, 1.92064, 1.92074, 1.92224, 1.92005, 1.92115, 1.83268, 2.00025, 1.92321, 1.90439, 1.90518, 1.90375, 1.92452, 1.90031, 1.92524, 1.92797, 1.92806, 1.92795, 1.92777, 1.8993, 1.8268, 1.82535, 1.92886, 1.93116, 1.91813, 1.84506, 2.00949, 2.0038, 1.90414, 1.98704, 1.90284, 1.98347, 1.90274, 1.90146, 1.97959, 1.97911, 1.97994, 1.99581, 1.99317, 1.99565, 1.99713, 1.99476, 1.98532, 1.91388, 1.91395, 2.00809, 2.00107, 1.99473, 2.00574, 2.00096, 2.00686, 1.99829, 1.91867, 2.00056, 1.99009, 1.99638, 1.99554, 1.91875, 2.01021, 1.99628, 1.99857, 1.99941, 1.99742, 2.00058, 2.00295, 1.99627, 2.01658, 1.86164, 1.8589, 1.95522, 1.85867, 1.9056, 1.85525, 1.85571, 1.85546, 1.85486, 1.915, 1.86008, 1.85975, 1.85892, 1.85931, 1.85964, 2.03655, 1.85846, 1.90853, 1.85764, 1.85544, 1.8544, 1.85419, 1.85146, 2.03507, 1.85183, 1.84905, 1.88334, 1.77626, 1.77578, 1.82123, 1.8204, 1.87653, 1.8827, 1.88043, 1.76773, 1.766, 1.76315, 1.88147, 1.88266, 1.85704, 1.88587, 1.95795, 1.88522, 1.94122, 1.88913, 1.86596, 1.75883, 1.75761, 1.8098, 1.76123, 1.76093, 1.7596, 1.76061
1.79405, 1.79277, 1.79482, 1.79308, 1.78924, 1.8416, 1.78908, 1.78714, 1.78555, 1.78708, 1.78309, 2.04126, 1.78186, 1.78217, 1.83121, 1.89225, 1.77816, 1.77814, 1.77771, 1.7783, 1.83531, 1.77704, 2.03181, 1.77403, 1.82499, 1.77747, 1.77634, 1.82606, 1.77672, 1.77846, 1.84108, 2.00697, 2.00521, 2.00716, 1.92486, 1.83512, 1.99982, 1.91366, 1.83143, 1.82704, 1.92708, 1.82672, 1.92705, 1.90256, 1.9008, 1.89987, 1.82159, 1.8231, 1.92819, 1.90029, 1.93134, 1.90651, 1.8318, 1.83418, 1.8376, 2.01811, 2.02207, 1.90453, 1.9969, 2.00672, 1.9859, 1.98254, 1.90328, 1.90407, 1.98231, 1.98222, 1.99643, 2.00956, 1.98396, 1.98399, 1.90962, 1.99575, 1.9953, 1.98715, 1.99265, 1.98895, 2.00725, 1.91691, 2.00395, 1.99522, 2.00615, 2.00008, 1.91957, 1.9183, 2.00156, 2.00259, 1.99766, 2.01201, 2.01054, 2.00059, 2.00038, 2.00021, 2.00087, 1.99995, 1.99718, 2.00685, 2.01187, 1.8602, 1.85978, 1.95832, 1.85451, 1.85423, 1.8554, 1.85594, 1.85543, 1.85769, 1.8576, 1.85881, 1.86019, 1.85781, 1.86015, 2.0516, 1.85978, 1.85859, 1.85845, 1.85678, 1.90681, 1.90644, 1.85374, 1.85361, 1.8513, 1.85389, 1.85163, 1.78049, 1.77802, 1.77291, 1.82173, 1.82102, 1.84506, 1.81803, 1.81678, 1.7645, 1.76504, 1.76523, 1.88547, 1.88516, 1.76021, 1.88398, 1.76119, 1.75876, 1.75964, 1.7587, 1.75865, 1.75725, 1.87292, 1.80961, 1.76103, 1.86766, 1.7598, 1.75584
1.79774, 1.79332, 1.79455, 1.79584, 1.79085, 1.78946, 1.79257, 1.78869, 1.78496, 1.78534, 1.78598, 1.78269, 1.78091, 1.78315, 1.83241, 1.78163, 1.78222, 1.77927, 1.77897, 1.88548, 1.77785, 1.77595, 1.77872, 1.87609, 1.77424, 1.77731, 1.77684, 1.87513, 1.82684, 1.93608, 1.92323, 1.9992, 2.00512, 2.00765, 1.91432, 1.91443, 1.92689, 1.83181, 1.90704, 2.0024, 1.92948, 1.90361, 1.92886, 1.92765, 1.9007, 1.82576, 1.90039, 1.931, 1.8989, 1.90138, 2.00934, 1.82786, 2.01138, 1.91191, 1.93146, 1.92909, 2.02043, 1.98108, 1.98228, 2.00687, 1.98551, 1.98609, 1.90352, 1.90687, 1.98282, 1.99439, 1.99667, 1.99229, 1.97882, 1.90756, 1.90781, 2.00754, 1.98704, 1.99132, 1.99425, 1.99011, 1.98917, 2.01761, 1.99712, 2.01082, 1.91706, 2.00442, 2.01072, 1.99578, 2.0007, 2.0105, 2.01763, 2.01864, 1.99756, 2.00819, 1.99565, 1.99692, 2.00032, 2.00029, 2.00321, 2.01695, 1.99757, 2.0293, 1.85637, 1.85677, 2.03614, 1.85595, 1.85492, 1.85603, 1.85434, 1.85523, 2.0325, 1.85603, 1.85739, 1.86102, 1.91061, 2.03139, 2.04859, 1.85937, 1.85973, 1.8578, 1.85498, 1.85277, 1.85524, 1.85132, 2.05035, 1.85226, 1.85056, 1.82901, 1.77567, 1.772, 1.82325, 1.82081, 1.76898, 1.86243, 1.81858, 1.81585, 1.76463, 1.76541, 1.76188, 1.93775, 1.85601, 1.76155, 1.88638, 1.81202, 1.75854, 1.76112, 1.75721, 1.75745, 1.88256, 1.81096, 1.80934, 1.80953, 1.86971, 1.75893
1.79702, 1.79486, 1.79539, 1.79268, 1.79276, 1.79212, 1.79125, 1.78816, 1.78809, 1.78865, 1.88656, 1.88585, 1.78488, 1.78576, 1.83373, 1.78281, 1.7806, 1.77974, 1.77925, 1.87, 1.87932, 1.77837, 1.77851, 1.87888, 1.77832, 1.77796, 1.82728, 1.86074, 1.86144, 1.83019, 1.92374, 1.92072, 1.91694, 2.00627, 2.00899, 1.90986, 1.90938, 1.9085, 1.90969, 1.90518, 1.90997, 1.90285, 2.00458, 2.00677, 1.82409, 1.82419, 1.89991, 1.82296, 1.9003, 1.90187, 2.01364, 1.93212, 1.90843, 1.93393, 1.93133, 2.01439, 1.90761, 1.90643, 1.98284, 1.98205, 1.99725, 1.98327, 1.90509, 1.90337, 1.99073, 2.00299, 1.90623, 1.90758, 1.90759, 1.90844, 1.992, 2.00028, 1.99694, 1.91234, 2.02006, 1.99392, 2.00954, 1.997, 2.00653, 1.91851, 2.00629, 1.9952, 2.01389, 1.92053, 1.91961, 1.92004, 1.99857, 2.0111, 1.99811, 2.00665, 1.99754, 2.0022, 2.0032, 2.00353, 2.00387, 1.92176, 1.9211, 1.85882, 1.85818, 1.85545, 1.85674, 1.85212, 1.95474, 1.85492, 1.85259, 1.85594, 2.0337, 1.85741, 1.85778, 1.85929, 1.85985, 1.85885, 1.86148, 1.86179, 1.85782, 1.85816, 1.85809, 1.85516, 1.85113, 1.85036, 1.8506, 1.84751, 1.84854, 1.86817, 1.776, 1.77143, 1.82082, 1.77092, 1.86709, 1.86295, 1.86282, 1.81616, 1.76566, 1.87916, 1.76256, 1.76244, 1.76206, 1.75873, 1.7598, 1.8792, 1.75657, 1.75816, 1.75827, 1.75902, 1.88536, 1.88615, 1.76003, 1.76124, 1.87551, 1.75857
1.79858, 1.79767, 1.7942, 1.79586, 1.79572, 1.79189, 1.79124, 1.79019, 1.78935, 1.78899, 1.88702, 1.88659, 1.78598, 1.78685, 1.78381, 1.87849, 1.78293, 1.78232, 1.77985, 1.78149, 1.78169, 1.83061, 1.77957, 1.89822, 1.82959, 1.77711, 1.77835, 1.86365, 1.77769, 1.83095, 1.92066, 1.924, 1.91737, 1.92792, 1.83521, 1.92705, 1.91029, 1.90864, 1.92812, 1.82903, 1.90625, 1.92841, 1.90187, 2.0246, 1.92825, 1.90288, 1.90117, 1.9027, 1.90283, 1.93285, 1.93422, 1.90598, 1.93504, 1.91465, 2.01057, 1.84839, 1.86605, 2.00303, 2.00177, 1.98312, 2.00314, 1.90662, 1.90341, 1.98205, 1.98487, 1.9825, 1.9907, 1.90695, 1.90745, 1.99691, 1.91046, 2.02433, 1.99373, 2.0069, 1.91458, 1.91708, 2.01772, 2.01761, 2.00613, 2.00445, 2.00824, 2.01787, 1.92103, 1.99817, 2.01801, 1.92001, 2.01008, 1.99716, 1.99733, 2.0169, 2.01052, 1.92024, 2.00395, 2.00398, 2.00357, 1.92086, 2.02477, 1.85821, 1.86007, 1.85591, 1.85736, 1.85385, 1.95558, 1.95499, 1.85746, 2.03423, 1.8554, 1.95563, 1.91058, 1.86027, 1.8594, 1.85938, 1.86096, 1.86102, 1.85998, 1.85805, 2.05825, 1.85367, 1.85423, 1.85317, 1.84911, 1.85122, 1.84754, 1.83071, 1.8724, 1.77289, 1.76966, 1.76991, 1.86567, 1.86458, 1.81732, 1.81563, 1.76267, 1.76537, 1.76374, 1.76302, 1.81091, 1.76063, 1.75848, 1.75837, 1.75772, 1.82897, 1.75869, 1.81828, 1.75903, 1.88673, 1.88405, 1.76031, 1.75953, 1.76068
1.79784, 1.79936, 1.80003, 1.7967, 1.7943, 1.88732, 1.89288, 1.78999, 1.79301, 2.04562, 1.7866, 1.78515, 1.78594, 1.78568, 1.78687, 1.88574, 1.785, 2.04802, 1.78029, 1.83178, 1.77996, 1.78203, 1.86845, 1.78, 1.77952, 1.77845, 1.95521, 1.77965, 1.7796, 1.78161, 1.92242, 2.00491, 1.91843, 1.91685, 2.01793, 1.83704, 1.83561, 1.92764, 1.91062, 1.90768, 2.00719, 1.90539, 1.93003, 2.00865, 1.9302, 1.93125, 1.90127, 1.82477, 1.93385, 1.90216, 1.93506, 1.83029, 1.93399, 1.91437, 1.84323, 1.93577, 2.00725, 1.90938, 2.00452, 1.99475, 1.90664, 1.9834, 1.90408, 1.90534, 1.90739, 1.90763, 1.98317, 2.00062, 2.00102, 2.00324, 1.9871, 2.00442, 2.01705, 1.91514, 2.01612, 2.00433, 1.99308, 1.99341, 2.01297, 2.01789, 2.01641, 1.99804, 2.01026, 2.00771, 1.92003, 2.0141, 2.00224, 1.92031, 1.99796, 2.00443, 2.00042, 2.0028, 2.00734, 2.00439, 1.99963, 1.99971, 1.9997, 1.85907, 1.85874, 1.90683, 1.90448, 1.85448, 1.85447, 1.85504, 1.85444, 1.85544, 1.85447, 1.85788, 1.91075, 1.86126, 1.86224, 1.86078, 1.92478, 1.91011, 1.85692, 1.85769, 1.855, 1.85619, 1.85436, 1.85344, 1.85036, 1.85064, 1.83249, 1.9142, 1.77618, 1.7744, 1.7695, 1.77155, 1.76889, 1.76823, 1.76388, 1.76792, 1.76622, 1.7645, 1.7653, 1.81172, 1.80972, 1.7586, 1.75842, 1.75663, 1.75739, 1.88017, 1.87331, 1.86784, 1.75721, 1.76035, 1.75849, 1.76082, 1.75871, 1.87846
1.79816, 1.80195, 1.80057, 1.79798, 1.79569, 1.79582, 1.79097, 2.07183, 1.79112, 1.78945, 1.78952, 1.78775, 1.78755, 1.96618, 1.78625, 1.78379, 1.78589, 1.7844, 1.78445, 1.87036, 1.87588, 1.78154, 1.83087, 1.78153, 1.78012, 1.95877, 1.78282, 1.8301, 1.78273, 1.78048, 1.92481, 2.00426, 1.92654, 1.91752, 1.91591, 1.9278, 1.83662, 1.91027, 1.92868, 2.00722, 1.90588, 1.90453, 1.90299, 1.90409, 1.90294, 1.90265, 1.90041, 1.90156, 1.90065, 1.90293, 2.01851, 1.9069, 1.91037, 1.83729, 2.01164, 1.93575, 2.00967, 1.98686, 1.97991, 1.90631, 1.98271, 1.98883, 1.90552, 1.98268, 1.98396, 1.98435, 1.99643, 1.90838, 2.00074, 2.0009, 1.98024, 1.99122, 1.99088, 1.99154, 1.99275, 2.01346, 1.99484, 2.01764, 1.99342, 2.01822, 1.99549, 2.0002, 2.01024, 2.00488, 1.92154, 2.00285, 2.00492, 1.99709, 2.00804, 2.01016, 1.99976, 1.99598, 2.00556, 2.00626, 1.9221, 2.02949, 1.92317, 1.85872, 1.90681, 1.85492, 1.90581, 1.85475, 1.85192, 1.85696, 1.85334, 1.85394, 1.85513, 1.85892, 1.85877, 2.04889, 1.8604, 1.95398, 1.91303, 1.91139, 2.04484, 2.02912, 1.90688, 1.90594, 1.90365, 1.85475, 1.84968, 1.94555, 1.78215, 1.77908, 1.77651, 1.77347, 1.77146, 1.88274, 1.76874, 1.86802, 1.76627, 1.76478, 1.76497, 1.76235, 1.76503, 1.76077, 1.76131, 1.86619, 1.80858, 1.75808, 1.75806, 1.87991, 1.85794, 1.75579, 1.75537, 1.75864, 1.7559, 1.75797, 1.76085, 1.8521
