1.89624, 1.84322, 1.93478, 1.84206, 1.94475, 1.9598, 1.93088, 1.88784, 1.83553, 1.83477, 1.83385, 1.83315, 1.92016, 1.82882, 1.82465, 1.93734, 1.87183, 1.82071, 1.81897, 1.8675, 1.81956, 1.90953, 1.90645, 1.86281, 1.81033, 1.80919, 1.81173, 1.81042, 1.81228, 1.95132, 1.95437, 1.94815, 1.97243, 1.86935, 1.94281, 2.05069, 1.97249, 1.86171, 1.93508, 1.93353, 1.93213, 1.85299, 1.97133, 1.92708, 1.92466, 1.92679, 1.84818, 1.84878, 1.84894, 1.93042, 1.85197, 1.85478, 1.93401, 1.94184, 1.96848, 1.96961, 1.89336, 2.01804, 2.03513, 2.04484, 2.02028, 1.93501, 1.93563, 1.93746, 2.01222, 2.03458, 2.01201, 2.01353, 2.02783, 2.01978, 1.93578, 2.03858, 1.9377, 2.02373, 2.02263, 2.02094, 2.0218, 1.93711, 2.03139, 2.03166, 1.93816, 2.03121, 2.02895, 2.02854, 1.93598, 2.01414, 2.0223, 2.0339, 2.02181, 2.02771, 2.00813, 2.00982, 1.9308, 1.93244, 2.01756, 2.02088, 2.02203, 1.86108, 2.06495, 1.85533, 1.85522, 1.85473, 1.96368, 1.85392, 1.95996, 1.95915, 1.85762, 1.85799, 1.91678, 1.85646, 1.86004, 1.85817, 1.85864, 1.8576, 1.85545, 1.85687, 1.8564, 1.85653, 1.85608, 1.85637, 1.85471, 2.03308, 1.83292, 1.88338, 1.77524, 1.82037, 1.84418, 1.81671, 1.76243, 1.75912, 1.75932, 1.75765, 1.75756, 1.88585, 1.87042, 1.75829, 1.86867, 1.85561, 1.85483, 1.88413, 1.75597, 1.7562, 1.86834, 1.80692, 1.80708, 1.87588, 1.7586, 1.88241, 1.75285, 1.806
1.89674, 1.94496, 1.84617, 1.8438, 2.02696, 1.84427, 1.89063, 1.83986, 1.88935, 1.88649, 1.93453, 1.83358, 1.93803, 1.92067, 1.82857, 1.82635, 1.82437, 1.82365, 1.91406, 1.86944, 1.8182, 1.94171, 1.86554, 1.81288, 1.86222, 1.81094, 1.81089, 1.81091, 1.86214, 1.81445, 1.87696, 1.94989, 1.94918, 1.94738, 1.97557, 1.94275, 1.97397, 1.93777, 1.97278, 1.935, 1.93135, 1.93121, 1.93086, 1.93034, 1.92575, 1.97025, 1.97109, 1.84946, 2.057, 1.92983, 1.97218, 1.97262, 1.97025, 1.97116, 1.94763, 1.87575, 2.0542, 2.04474, 2.0478, 1.93964, 2.0295, 1.93611, 2.01207, 1.93738, 1.93542, 2.01357, 2.0295, 2.03049, 2.01071, 2.01431, 2.0258, 2.03147, 2.02811, 1.9374, 1.93754, 2.02369, 2.03567, 2.02843, 2.02609, 2.03196, 2.03424, 2.03954, 2.02085, 1.9373, 2.02952, 1.9346, 2.03795, 2.01887, 2.01297, 2.02349, 2.02734, 1.93157, 1.93151, 1.93126, 2.01289, 2.01796, 1.86361, 1.86215, 1.90932, 1.85774, 1.85632, 1.85616, 1.8547, 2.04558, 1.96387, 1.85595, 1.96319, 1.95888, 1.85797, 1.85909, 1.85826, 1.85723, 1.8574, 1.90748, 1.90683, 1.90572, 1.85571, 1.85577, 1.85555, 1.85533, 1.85528, 1.85412, 1.78104, 1.77579, 1.88647, 1.76922, 1.8456, 1.76256, 1.76164, 1.76094, 1.8899, 1.75748, 1.88933, 1.89219, 1.80618, 1.75749, 1.75525, 1.88558, 1.88117, 1.75681, 1.75723, 1.88306, 1.75452, 1.88045, 1.80758, 1.75691, 1.88215, 1.75805, 1.75315, 1.75307
1.80703, 1.84514, 1.9526, 1.842, 1.84387, 1.84232, 1.89106, 1.8421, 1.83804, 1.83744, 1.83454, 2.01821, 1.83364, 1.94092, 1.93319, 1.82882, 1.87415, 1.87498, 1.82231, 1.93047, 2.00522, 1.81647, 2.0003, 1.90922, 1.81257, 1.8115, 1.81338, 1.90906, 1.97638, 1.81381, 1.97586, 2.05541, 1.94903, 1.97334, 1.87014, 1.94075, 1.86518, 1.93887, 1.93727, 1.93739, 1.93302, 1.85787, 1.85335, 1.85235, 1.92724, 2.06197, 1.92678, 1.85116, 1.92916, 1.93089, 1.92861, 2.06212, 1.93801, 1.94485, 1.9458, 1.87499, 1.94145, 2.03047, 2.03215, 2.03165, 2.03042, 1.93723, 1.93725, 2.01368, 2.01421, 2.0385, 2.01557, 2.01313, 2.01473, 2.01307, 2.03385, 2.02699, 2.03849, 1.93836, 1.93775, 2.02902, 2.01768, 2.02583, 1.93867, 2.0178, 2.02441, 1.93819, 1.93828, 2.02916, 2.02941, 2.02871, 1.93686, 2.01173, 2.01392, 1.93328, 2.03434, 1.93212, 1.93145, 1.93163, 1.93029, 2.018, 2.01202, 1.86223, 1.90963, 1.8574, 1.85611, 1.85634, 1.85589, 1.85468, 2.059, 2.04903, 1.8555, 1.85822, 1.85827, 1.85893, 1.85701, 1.85811, 1.95214, 1.95106, 1.85582, 1.85686, 1.85661, 1.85532, 1.85412, 1.90703, 2.02373, 1.85535, 1.78111, 1.77489, 1.77041, 1.88745, 1.76805, 1.76489, 1.76186, 1.76006, 1.75766, 1.75835, 1.75765, 1.89287, 1.75716, 1.80608, 1.86803, 1.75446, 1.75573, 1.88056, 1.7534, 1.8833, 1.75731, 1.75766, 1.87417, 1.75733, 1.75596, 1.75592, 1.7556, 1.75477
1.8504, 1.84843, 1.8513, 1.84668, 1.84606, 1.84291, 1.84414, 1.89283, 1.94564, 1.94548, 1.83754, 1.88675, 1.83471, 1.83386, 1.9375, 1.93656, 1.8264, 1.87522, 1.82359, 1.82351, 1.81777, 1.81768, 1.81708, 1.86557, 1.86593, 1.86553, 1.81479, 1.81639, 1.90252, 1.9099, 1.95453, 1.95344, 1.95174, 1.87227, 1.87166, 1.8679, 2.05895, 1.86264, 1.97682, 1.93748, 1.85806, 1.85476, 1.9312, 1.85301, 2.05928, 1.92964, 1.92775, 1.92945, 1.85269, 2.06227, 1.93335, 1.93368, 1.97404, 1.97255, 1.87255, 1.97233, 2.07275, 2.03202, 2.03751, 2.03912, 2.03097, 1.93811, 1.9382, 2.021, 2.02062, 2.03602, 2.01492, 2.01432, 2.0151, 2.01408, 1.93879, 2.02858, 2.02832, 2.02349, 2.01437, 2.03787, 1.94042, 2.0219, 2.01837, 1.93889, 2.01694, 1.93835, 1.93855, 2.02457, 2.03038, 2.03209, 2.03109, 2.03851, 2.03111, 2.02754, 1.93424, 1.93336, 1.93676, 2.0108, 2.01079, 1.9315, 1.8657, 1.86416, 1.95651, 1.85805, 1.96545, 1.90452, 1.85573, 1.85329, 1.96212, 2.05485, 1.85536, 2.04748, 1.85787, 1.94539, 1.95669, 1.85779, 1.85848, 1.90728, 1.85738, 1.8549, 1.85386, 1.85402, 1.85512, 2.03898, 1.85671, 1.8554, 1.77897, 1.89027, 1.77163, 1.88902, 1.76649, 1.88758, 1.76298, 1.86696, 1.75936, 1.75831, 1.88653, 1.75843, 1.80706, 1.75609, 1.75421, 1.87661, 1.84963, 1.80577, 1.88002, 1.86429, 1.86899, 1.80637, 1.87612, 1.87826, 1.75614, 1.7553, 1.75483, 1.7541
1.81023, 1.85203, 1.84889, 1.84856, 1.84499, 1.95457, 2.02879, 1.8442, 1.94739, 1.83891, 1.94755, 1.84028, 1.83824, 1.88535, 1.92611, 2.01636, 1.83043, 2.02051, 1.93283, 1.82163, 1.82192, 1.93044, 1.81815, 1.86633, 1.86681, 1.86798, 1.91986, 1.81652, 1.81836, 2.05971, 1.98004, 1.98058, 1.98043, 1.95132, 1.97984, 1.97699, 1.97615, 1.97726, 2.05654, 1.94008, 1.93247, 1.97749, 1.93098, 1.92885, 1.92813, 1.97537, 1.92816, 1.92769, 1.92973, 2.05531, 1.93204, 1.97907, 1.86314, 2.06556, 1.94684, 1.97261, 2.06899, 2.02735, 2.05607, 2.03158, 1.94072, 1.93798, 1.93958, 2.02243, 2.02031, 2.03227, 2.03062, 1.93861, 2.02938, 1.93856, 2.03079, 1.9391, 2.03534, 2.02441, 2.03205, 1.9408, 1.94123, 2.04045, 2.04794, 2.0369, 2.03563, 2.0272, 2.04029, 1.93809, 2.01801, 2.01457, 1.93798, 2.03238, 2.02956, 2.02211, 1.93433, 1.93714, 1.93416, 2.01425, 2.01114, 2.01042, 2.02378, 1.8593, 1.85951, 1.86162, 1.85714, 1.85433, 1.854, 1.85298, 1.85748, 1.85387, 1.95199, 1.85629, 1.96214, 1.85741, 1.95708, 1.85699, 1.8562, 1.85427, 1.85464, 1.85409, 1.85403, 1.85693, 1.94971, 1.95126, 1.85653, 1.78153, 1.88915, 1.77367, 1.7721, 1.81853, 1.88008, 1.88843, 1.81146, 1.76142, 1.75819, 1.87881, 1.88537, 1.75515, 1.87255, 1.75588, 1.75763, 1.7572, 1.88252, 1.87946, 1.75754, 1.75804, 1.87362, 1.75409, 1.75398, 1.75521, 1.81001, 1.80958, 1.75577, 1.75266
1.95811, 1.85199, 1.84864, 1.84943, 1.84799, 1.847, 1.84584, 2.03023, 1.94906, 1.84369, 1.8388, 1.84103, 2.02182, 1.88582, 1.83606, 1.83422, 2.01397, 1.82833, 1.82746, 2.01498, 1.82375, 1.82166, 1.81976, 1.81848, 1.92828, 1.81648, 1.81491, 1.92201, 1.81885, 1.97865, 1.87806, 1.98064, 1.95223, 1.9507, 1.9483, 1.97963, 1.94378, 1.97805, 1.9387, 1.86187, 1.93482, 2.06152, 1.97555, 1.93109, 1.97854, 1.85246, 1.93147, 1.97583, 1.93021, 1.9306, 1.97613, 1.93502, 1.97539, 1.94759, 1.97484, 1.95565, 2.07292, 2.04154, 2.03258, 2.01917, 2.02935, 1.9409, 1.94012, 2.01752, 2.01728, 1.93946, 2.03246, 2.02554, 2.03305, 2.03211, 2.01514, 2.01794, 2.03162, 2.03594, 2.03767, 1.94128, 2.02733, 2.03869, 2.03467, 1.94081, 2.02717, 1.93799, 2.02947, 2.03796, 2.03796, 2.02223, 1.93722, 2.0281, 2.02056, 2.01478, 2.02321, 1.93249, 2.01806, 2.01524, 2.01174, 2.01389, 1.86518, 1.86018, 1.85955, 1.85823, 1.85577, 1.85564, 1.85432, 1.85327, 1.85452, 1.85448, 1.85429, 1.90416, 1.8569, 1.95467, 1.85749, 1.95921, 1.8555, 1.85755, 1.85468, 2.04607, 1.85456, 1.85467, 1.85742, 1.85492, 1.85561, 1.87727, 1.77662, 1.77184, 1.76992, 1.76607, 1.76449, 1.76289, 1.75975, 1.8461, 1.8884, 1.75766, 1.88509, 1.88605, 1.75787, 1.75781, 1.75504, 1.88358, 1.75347, 1.75219, 1.88259, 1.88085, 1.7541, 1.75385, 1.75368, 1.88243, 1.81007, 1.80929, 1.75499, 1.75292
1.90352, 1.85321, 1.85399, 1.84933, 1.90015, 1.85099, 1.84861, 1.84433, 1.84417, 1.93534, 1.89121, 1.84131, 1.83945, 1.83775, 1.9412, 1.88355, 1.83142, 1.94013, 1.93888, 1.82642, 1.82536, 1.82348, 1.82024, 1.81955, 1.93126, 1.81831, 1.81875, 1.81949, 1.81879, 1.95918, 1.88167, 1.95719, 1.95516, 1.98268, 1.87311, 2.06545, 1.94618, 1.86494, 1.97923, 1.93974, 1.97976, 1.93403, 1.93138, 1.93144, 1.85343, 1.93123, 1.92879, 1.85564, 1.97833, 1.93291, 1.93541, 1.9376, 1.97934, 1.94766, 2.06897, 1.97427, 1.9002, 2.03846, 2.01939, 2.04926, 1.94236, 1.94259, 1.94162, 1.94058, 2.01727, 2.03902, 2.02735, 1.94074, 2.03924, 2.03705, 2.01801, 2.03661, 2.01888, 1.94248, 2.02105, 2.03526, 2.02223, 2.03383, 2.03708, 2.02784, 2.02735, 2.037, 1.94055, 1.94121, 2.03669, 2.03778, 2.03378, 2.02899, 2.02804, 2.01397, 1.93429, 1.93778, 2.01472, 1.93371, 2.01082, 1.93258, 2.05463, 1.8614, 1.86015, 1.96938, 2.05912, 1.8539, 1.85331, 2.0636, 1.85475, 1.85503, 1.85513, 1.90613, 1.96273, 1.90656, 1.90645, 1.85791, 1.85665, 1.85566, 2.0455, 2.03815, 1.85461, 1.85519, 1.85501, 1.85498, 1.93739, 1.77756, 1.77626, 1.77251, 1.82022, 1.76664, 1.76518, 1.76214, 1.76126, 1.75863, 1.80914, 1.88866, 1.75746, 1.75748, 1.75745, 1.7579, 1.88574, 1.88487, 1.80505, 1.75329, 1.7526, 1.75406, 1.75357, 1.87842, 1.75473, 1.75251, 1.80806, 1.8091, 1.87585, 1.92772
1.85574, 1.85808, 1.852, 1.85272, 1.96609, 1.90082, 1.84608, 1.95615, 1.84371, 1.92386, 1.8931, 1.89354, 1.8409, 1.83832, 1.94654, 1.94387, 1.83222, 1.92957, 1.82603, 1.82548, 1.8751, 1.87573, 1.93428, 1.82054, 1.82059, 1.82232, 1.81998, 1.81965, 1.82025, 1.82293, 2.063, 1.88192, 1.95593, 1.98416, 1.98245, 1.8717, 1.86873, 1.9426, 1.94116, 1.86263, 1.93557, 2.05802, 1.93441, 1.97981, 1.85645, 1.93114, 1.9782, 1.93267, 1.85625, 1.93489, 1.93462, 1.93799, 1.94063, 1.9771, 2.06762, 1.97549, 1.94769, 1.94584, 2.02772, 2.03967, 2.02139, 1.94128, 2.02005, 2.02258, 2.01969, 2.02395, 2.03111, 1.94154, 2.02543, 2.03873, 2.0187, 2.0389, 2.03466, 2.02952, 2.03155, 2.02068, 2.02577, 1.94232, 2.02194, 1.94093, 2.04624, 2.02473, 2.02605, 2.03374, 2.03013, 1.93837, 1.93893, 2.01392, 1.93833, 1.93513, 2.03504, 1.93479, 1.93426, 2.01401, 2.01294, 2.01099, 1.86594, 1.86322, 1.86129, 1.85607, 1.85557, 1.8545, 1.85226, 1.85491, 1.8512, 1.85397, 1.85459, 1.96329, 1.85479, 1.96187, 1.9766, 1.85527, 1.90618, 1.8559, 2.05226, 1.85474, 2.03797, 1.85444, 2.05249, 1.90681, 1.85516, 1.8898, 1.77381, 1.77182, 1.76705, 1.88971, 1.76437, 1.88921, 1.76069, 1.81067, 1.80906, 1.75876, 1.75746, 1.75803, 1.75522, 1.88361, 1.88411, 1.88202, 1.8699, 1.88225, 1.8805, 1.87692, 1.75181, 1.84878, 1.75152, 1.88111, 1.80716, 1.80911, 1.87557, 1.87625
1.85769, 1.85659, 2.03974, 1.85445, 1.96552, 1.85212, 1.8499, 1.84947, 1.84826, 1.84762, 1.95145, 1.84435, 1.84135, 1.8406, 1.83957, 1.8366, 1.83349, 1.88204, 1.88094, 1.82835, 1.90424, 1.87866, 2.02795, 1.92605, 1.82252, 1.82307, 1.82219, 1.82155, 1.82281, 1.90298, 1.98635, 1.9867, 1.95691, 1.95538, 1.95237, 1.94855, 1.98355, 1.98597, 1.944, 1.94124, 1.93954, 1.93596, 1.93483, 1.98258, 1.93362, 1.93255, 1.93081, 1.93165, 1.93274, 1.93391, 1.93748, 1.97863, 1.94155, 1.86927, 1.95185, 1.97648, 2.06572, 1.94822, 2.03164, 2.04401, 2.02177, 2.02339, 2.02122, 2.02137, 1.94235, 2.04103, 1.94153, 2.01911, 2.03384, 2.0373, 2.01926, 2.02129, 1.9446, 2.03347, 2.02454, 2.03175, 2.01777, 2.02703, 1.94216, 1.94177, 2.04401, 2.02418, 2.03141, 2.03029, 1.94113, 1.93769, 1.93906, 2.01493, 2.03301, 2.02433, 2.02162, 1.93576, 1.93492, 1.93448, 2.01048, 2.0215, 1.86268, 1.9867, 1.85792, 1.85701, 1.85667, 1.85156, 1.9665, 1.85169, 1.85211, 1.95526, 1.85317, 1.8549, 1.85395, 1.85462, 1.85521, 1.85776, 1.95348, 1.85382, 1.85471, 2.04702, 1.85579, 1.85579, 1.85441, 1.85538, 2.04937, 1.77959, 1.88983, 1.88658, 1.76871, 1.76365, 1.76183, 1.89021, 1.88826, 1.88306, 1.75847, 1.75781, 1.75743, 1.7577, 1.87364, 1.75611, 1.75478, 1.75364, 1.75502, 1.75257, 1.75303, 1.75435, 1.80408, 1.75202, 1.75123, 1.75198, 1.87716, 1.75177, 1.75135, 1.74958
1.85742, 1.85913, 1.85636, 1.85522, 1.85277, 1.85415, 1.91075, 1.91133, 2.02517, 1.8451, 1.84751, 1.84237, 1.89244, 1.84057, 1.94766, 1.93429, 1.94504, 1.94484, 1.92805, 1.82961, 2.01665, 1.82566, 1.93532, 1.82357, 1.82331, 1.82192, 1.82349, 1.87237, 1.99616, 1.96281, 1.98717, 1.88391, 1.95885, 1.9879, 1.95352, 1.95065, 1.94817, 1.94485, 1.94265, 1.94213, 1.86454, 1.93753, 1.9347, 1.93615, 1.93561, 1.98259, 1.93232, 1.93427, 1.93452, 1.93451, 1.85986, 1.86346, 1.94437, 1.97992, 2.06641, 1.97557, 2.07061, 1.94655, 2.03799, 2.0451, 2.02356, 2.02056, 1.94482, 1.94378, 1.94239, 2.04142, 1.94216, 2.02145, 2.01996, 2.03791, 2.0312, 2.02932, 2.04899, 1.9451, 2.02735, 2.02594, 2.0357, 2.02833, 1.94317, 1.94376, 2.03043, 1.94138, 2.02538, 1.94231, 2.04912, 1.94018, 2.03451, 2.03202, 2.02444, 2.01046, 1.93711, 1.93774, 1.93385, 1.93276, 1.93391, 2.01046, 1.86522, 1.9722, 1.97157, 1.85803, 1.8546, 1.85171, 1.98596, 1.85095, 1.84889, 1.85117, 1.95596, 1.85233, 1.85548, 1.85549, 1.95851, 1.85586, 1.85586, 1.90624, 1.85476, 1.8534, 1.85487, 1.85584, 1.90623, 1.85585, 1.85572, 1.7773, 1.77562, 1.76917, 1.76909, 1.76468, 1.76148, 1.89124, 1.83352, 1.86072, 1.75831, 1.75868, 1.88396, 1.75485, 1.75391, 1.88208, 1.75638, 1.75434, 1.75161, 1.75397, 1.7524, 1.87591, 1.80145, 1.75165, 1.75226, 1.88223, 1.75142, 1.75166, 1.87847, 1.87509
1.85839, 1.86073, 2.04457, 1.85524, 1.85555, 1.85548, 1.85297, 1.95007, 1.90081, 2.04268, 1.84932, 1.93855, 1.84411, 1.84298, 1.84135, 1.83861, 1.83653, 1.94187, 1.83222, 1.83045, 1.82808, 1.93916, 2.01348, 1.82369, 1.82351, 1.82434, 1.82442, 1.87417, 1.90981, 1.89018, 1.98947, 1.96155, 1.882, 1.88108, 1.95461, 1.98714, 1.87255, 1.94166, 1.94471, 1.94463, 1.94155, 1.86222, 1.93522, 2.0703, 1.93499, 1.85718, 1.93496, 1.93497, 1.85903, 2.05983, 1.86176, 1.93934, 1.94512, 1.87281, 1.95272, 1.96112, 1.97913, 1.94993, 2.02469, 2.03517, 2.02485, 1.94506, 1.94334, 1.94258, 2.02125, 2.04074, 2.02935, 2.02057, 2.04443, 1.94451, 1.94435, 2.04457, 1.94628, 2.03888, 2.03871, 1.94536, 2.02894, 2.02882, 2.03319, 2.02502, 2.02356, 2.02821, 1.94074, 2.04274, 2.02338, 2.02702, 1.9413, 1.94149, 2.0238, 2.03346, 2.03097, 1.93565, 1.93329, 1.93393, 2.01301, 2.01233, 1.86356, 1.86265, 1.96844, 1.96884, 1.8544, 1.96348, 1.85072, 1.95979, 1.8481, 1.85125, 1.85123, 1.85205, 1.85174, 1.85465, 1.94401, 1.85451, 1.85494, 1.96611, 1.85468, 1.85425, 1.85589, 1.85516, 2.03501, 1.85655, 1.85654, 1.87505, 1.76985, 1.89092, 1.76708, 1.76489, 1.89091, 1.76097, 1.75935, 1.75798, 1.75881, 1.75562, 1.88741, 1.75568, 1.75212, 1.75587, 1.88168, 1.75463, 1.91805, 1.86704, 1.75242, 1.75194, 1.75029, 1.88217, 1.87986, 1.74918, 1.80016, 1.75018, 1.74974, 1.8764
1.87882, 1.86143, 1.97177, 1.85838, 1.8566, 1.85434, 1.85254, 1.8543, 1.85339, 1.85038, 1.85052, 1.84829, 1.84817, 1.84404, 1.84336, 1.8386, 1.83941, 1.88619, 1.83491, 1.83396, 1.82887, 1.9421, 1.94408, 1.92721, 1.9176, 1.82453, 1.93127, 1.82608, 1.87535, 1.96533, 1.96586, 1.96247, 1.96135, 1.95931, 1.95346, 1.9527, 1.95117, 1.94797, 1.98777, 1.99006, 1.94259, 1.863, 1.93747, 1.93864, 2.07767, 1.93463, 1.93488, 1.93553, 1.93542, 1.98107, 1.93827, 1.94201, 1.98078, 1.95026, 1.98064, 1.97859, 1.97963, 1.94926, 2.02803, 1.94853, 2.02442, 2.02739, 1.94487, 2.02376, 2.02376, 2.02208, 2.02098, 2.02135, 2.03986, 2.03528, 2.04067, 2.03825, 2.03848, 2.03601, 2.0429, 2.03214, 2.02697, 2.0279, 2.03184, 2.03259, 2.04282, 2.02256, 2.02347, 2.01407, 2.02834, 1.94168, 1.94075, 2.03831, 2.0322, 2.01693, 1.93797, 2.01516, 1.93705, 1.93529, 1.93673, 2.01795, 1.86483, 1.86185, 1.96817, 1.97195, 1.85356, 1.84951, 1.85111, 1.8508, 1.84837, 1.84945, 1.84944, 1.85049, 1.9664, 1.90352, 1.90385, 1.94549, 2.03747, 1.95977, 1.8548, 1.85349, 1.95771, 1.85507, 1.90497, 1.90466, 2.02842, 1.77556, 1.94657, 1.7685, 1.76399, 1.7623, 1.89313, 1.76095, 1.75911, 1.75867, 1.75636, 1.88574, 1.75675, 1.88198, 1.75372, 1.75299, 1.75449, 1.7524, 1.80435, 1.7533, 1.75254, 1.87254, 1.75052, 1.74919, 1.74864, 1.87282, 1.80041, 1.79967, 1.74881, 1.75021
1.93767, 1.97245, 1.96171, 1.85944, 1.85639, 1.85737, 1.85577, 1.85497, 1.85669, 1.84933, 1.95545, 1.84821, 2.04321, 1.84546, 1.84193, 1.95174, 1.83847, 1.83758, 1.9492, 1.83516, 1.832, 1.83359, 1.82925, 1.82769, 1.8764, 1.87578, 1.82827, 1.82754, 1.82781, 1.9684, 1.8886, 1.88925, 1.96248, 1.88239, 1.9559, 1.87671, 1.95149, 1.87194, 1.94657, 1.98762, 1.86661, 1.94062, 1.98576, 1.98935, 1.9354, 1.93519, 1.98559, 1.98472, 1.86254, 1.93916, 1.94184, 1.86559, 1.94769, 1.87368, 1.9564, 1.97917, 2.07736, 1.95172, 1.9513, 2.0345, 2.02412, 2.02588, 1.94738, 1.94555, 1.94557, 1.94406, 1.94609, 2.03175, 1.9458, 1.94565, 2.0388, 1.94651, 2.03491, 2.03218, 1.94589, 2.02343, 2.03583, 1.94531, 2.0204, 2.04244, 2.03771, 1.94257, 2.02081, 2.03585, 1.94282, 1.94132, 1.94152, 1.93847, 2.03216, 2.0149, 2.02481, 1.93428, 2.01426, 1.93447, 2.01128, 1.93396, 1.97593, 1.96788, 1.85884, 1.85486, 1.96939, 1.85417, 1.84877, 1.84711, 1.8484, 1.96863, 1.84874, 1.84843, 2.05335, 1.85171, 1.95816, 1.84884, 1.96273, 1.96061, 1.85124, 1.85491, 1.85516, 1.85486, 1.95197, 1.85188, 1.85815, 1.87214, 1.87336, 1.76929, 1.89197, 1.76378, 1.76065, 1.75958, 1.88203, 1.85667, 1.88628, 1.88328, 1.88367, 1.75508, 1.75431, 1.88513, 1.75301, 1.88277, 1.88202, 1.87949, 1.87166, 1.87887, 1.87617, 1.88349, 1.86249, 1.87748, 1.7496, 1.7489, 1.74901, 1.74919
2.00274, 1.86547, 1.86178, 1.86263, 1.86041, 1.85527, 1.96809, 2.04848, 2.05117, 2.04095, 1.84958, 1.85011, 1.95873, 2.04105, 1.89387, 1.84346, 1.84154, 1.9456, 1.83874, 1.88725, 1.94283, 1.94265, 1.8302, 1.82984, 1.87808, 1.82821, 1.82762, 1.87852, 1.83053, 1.89241, 1.99587, 1.96278, 1.88519, 1.88278, 1.95829, 1.87821, 1.95248, 1.99145, 1.99057, 1.94437, 1.86621, 1.94005, 1.93874, 1.86081, 1.94165, 1.93676, 1.93507, 1.93766, 1.93979, 2.06411, 1.86411, 1.9425, 1.9452, 1.94992, 1.95576, 1.95975, 2.07299, 2.03464, 1.9525, 2.03928, 2.03747, 1.94833, 1.94857, 1.94665, 2.03772, 2.03174, 2.04387, 1.94728, 2.04972, 2.05924, 2.0359, 2.04147, 2.03642, 2.03266, 2.04578, 2.02559, 2.02495, 2.02842, 2.02814, 1.94429, 1.94546, 2.04544, 2.024, 2.04623, 2.02102, 2.03849, 2.03198, 1.94145, 1.93987, 1.93817, 2.02137, 1.9371, 1.93784, 1.93715, 1.93542, 2.01247, 1.97531, 1.86184, 1.85866, 1.85578, 2.059, 2.05913, 1.84956, 1.95327, 1.95074, 1.84837, 1.8995, 1.89936, 2.04667, 1.85318, 1.9034, 1.8517, 1.9541, 1.85089, 1.90767, 1.85444, 1.85696, 1.85465, 1.85757, 1.91449, 1.90584, 1.87379, 1.82054, 1.84148, 1.76503, 1.88231, 1.76071, 1.76009, 1.75968, 1.88615, 1.75843, 1.88545, 1.88599, 1.75243, 1.7554, 1.8852, 1.75272, 1.88082, 1.75122, 1.75197, 1.75103, 1.7511, 1.74836, 1.75075, 1.75104, 1.74911, 1.74875, 1.75061, 1.79773, 1.74849
1.96879, 1.91643, 1.8646, 1.91405, 1.86216, 1.90838, 1.85797, 1.859, 1.85644, 1.97195, 1.85258, 1.85061, 1.84876, 1.8457, 1.84572, 1.89294, 1.84266, 1.83915, 1.88863, 1.88602, 1.83475, 1.92432, 1.83044, 1.82995, 1.83014, 1.82939, 1.82879, 1.87957, 2.00486, 1.96851, 1.96898, 1.99269, 1.96375, 1.88635, 1.88265, 1.87929, 1.95195, 1.95128, 1.94831, 1.86972, 1.86806, 2.07427, 1.94187, 1.94441, 1.86227, 1.86236, 1.86191, 1.98754, 1.86338, 1.8625, 1.94407, 1.94512, 1.9842, 1.95382, 2.05908, 1.88552, 2.06675, 2.04558, 2.04155, 1.95185, 1.95096, 2.02745, 1.94835, 1.94724, 2.0453, 2.02487, 2.03041, 2.04859, 2.03782, 2.03266, 1.94688, 1.94863, 1.94826, 1.94759, 1.94827, 2.03831, 2.03741, 2.03757, 2.03061, 2.03489, 1.94584, 2.04194, 2.03741, 2.03561, 2.04557, 2.04169, 2.02817, 2.01473, 2.04424, 1.93881, 1.93669, 1.9362, 1.9379, 1.93803, 1.93475, 2.01495, 2.02394, 1.861, 1.96533, 1.97171, 1.85397, 1.84821, 1.85097, 1.84561, 1.9492, 1.95671, 1.89939, 1.849, 2.05338, 2.03815, 1.85249, 1.85061, 1.95616, 1.90272, 1.90494, 1.90295, 1.9541, 1.85271, 1.8555, 1.85492, 1.855, 1.82399, 1.82016, 1.8757, 1.88397, 1.76154, 1.75862, 1.81042, 1.80681, 1.88329, 1.75809, 1.75731, 1.8874, 1.88391, 1.7555, 1.75177, 1.75387, 1.85071, 1.8618, 1.75181, 1.87734, 1.7509, 1.74889, 1.8781, 1.74948, 1.8792, 1.74715, 1.74769, 1.74708, 1.74688
1.97056, 1.97256, 1.95052, 1.91526, 1.86289, 1.86162, 1.8563, 1.86053, 1.85728, 1.85306, 1.85467, 1.90389, 1.84889, 1.84996, 1.93831, 1.84565, 1.95458, 1.84152, 1.88877, 1.93693, 1.83768, 1.94461, 1.94074, 1.83251, 1.83021, 1.82858, 1.83077, 1.82872, 1.9301, 1.97182, 1.96922, 1.96733, 1.9658, 1.96549, 1.95854, 1.95733, 2.0928, 1.95428, 1.99391, 1.87142, 1.94681, 1.94208, 1.94062, 1.9408, 1.99089, 1.93914, 2.08357, 1.93825, 1.98607, 1.98799, 1.94261, 1.86945, 1.98551, 1.98558, 1.87949, 1.98335, 2.0777, 1.95533, 1.95286, 1.95179, 2.0527, 1.95144, 1.95143, 1.94725, 1.94782, 2.02426, 2.04135, 2.04121, 2.0558, 2.04876, 2.03881, 2.0516, 2.03794, 2.03307, 1.94788, 2.03969, 1.94922, 1.94766, 2.04226, 2.03505, 2.03184, 2.03882, 1.94544, 2.02992, 2.02915, 2.0382, 2.03541, 1.94175, 2.0375, 1.9407, 2.02226, 2.01844, 1.93718, 1.93739, 1.93775, 1.93529, 1.97505, 1.859, 1.9704, 1.85254, 1.97247, 1.85078, 1.84766, 2.06917, 1.96638, 1.96651, 1.84772, 1.96673, 1.96457, 1.96152, 1.85091, 2.0666, 1.85243, 1.85433, 1.85228, 2.02129, 1.85415, 1.85557, 1.85535, 1.85565, 1.8553, 1.76973, 1.76494, 1.76491, 1.76482, 1.88061, 1.75931, 1.75804, 1.87313, 1.86833, 1.85207, 1.7547, 1.7559, 1.8045, 1.80304, 1.75303, 1.75321, 1.75092, 1.75086, 1.88376, 1.88145, 1.80162, 1.87474, 1.74708, 1.88045, 1.8825, 1.84881, 1.74755, 1.74748, 1.87553
1.97764, 1.97885, 2.00566, 1.91586, 1.86576, 1.91288, 1.91169, 1.91036, 1.85971, 1.85622, 1.90636, 1.97212, 1.8513, 1.95811, 1.84732, 2.04466, 1.84207, 1.84353, 1.84109, 1.93469, 1.88593, 1.88513, 1.94394, 1.94314, 1.83182, 1.83336, 1.93627, 1.83054, 1.83365, 1.89687, 1.97042, 1.96838, 1.9996, 1.96246, 1.96129, 1.9965, 1.95667, 1.99409, 1.99369, 1.87144, 1.99544, 1.99281, 1.94448, 2.08472, 1.99267, 1.98954, 2.0668, 1.93867, 1.98841, 1.94155, 1.94306, 2.08332, 1.87331, 2.06537, 1.98751, 1.88583, 2.07045, 2.04202, 2.03225, 2.04458, 2.03733, 1.95062, 1.94925, 1.94803, 1.94924, 1.94843, 2.0434, 2.04165, 1.94964, 2.02142, 2.05227, 2.04295, 2.04072, 2.04169, 2.04459, 2.02846, 2.03165, 2.03105, 2.03943, 2.0383, 1.94626, 2.0323, 2.03715, 2.04563, 2.02247, 2.03474, 2.02116, 2.02077, 2.0425, 2.0183, 1.93912, 2.01755, 1.93862, 1.9369, 2.04693, 1.9374, 1.86284, 1.85829, 1.85487, 1.85223, 1.85129, 1.84918, 1.97299, 1.84749, 1.96678, 1.84592, 1.84509, 2.04575, 1.84813, 1.84966, 1.84824, 1.85174, 1.85327, 1.95483, 1.85265, 1.85272, 1.85516, 1.85337, 1.95491, 1.85473, 2.02957, 1.7691, 1.89348, 1.765, 1.76485, 1.76119, 1.76033, 1.75673, 1.75521, 1.88659, 1.85466, 1.75568, 1.8063, 1.80356, 1.8038, 1.75092, 1.74895, 1.88331, 1.88139, 1.88064, 1.75051, 1.74822, 1.74866, 1.74883, 1.87906, 1.84711, 1.87617, 1.74753, 1.74601, 1.87889
2.00454, 1.92061, 1.86981, 1.86753, 1.86801, 1.91705, 1.86249, 1.86202, 1.95825, 1.95582, 1.96828, 1.85501, 1.85297, 1.851, 1.84859, 1.8446, 1.84507, 1.957, 1.88898, 1.88989, 1.93583, 1.88614, 1.83406, 1.83424, 1.83236, 1.83272, 2.12549, 1.83437, 1.83455, 1.97342, 2.00006, 2.07936, 1.96531, 1.9635, 2.0723, 1.88574, 1.95718, 1.87822, 1.95187, 1.99254, 2.08305, 1.94767, 1.94509, 1.94161, 1.99441, 2.09088, 1.99234, 1.86492, 1.94223, 1.99144, 1.94452, 1.94512, 1.95122, 1.95505, 1.98495, 2.07615, 2.07195, 2.06777, 2.05278, 2.03175, 2.03204, 1.95192, 1.95115, 1.94971, 1.94851, 2.03842, 2.04269, 2.04136, 2.03914, 1.95019, 1.94975, 1.95162, 1.9512, 2.04123, 2.03652, 2.04171, 2.033, 1.94908, 2.03512, 2.04272, 2.04842, 2.0459, 2.0357, 2.03811, 2.02093, 2.04556, 1.94556, 2.02105, 2.02043, 2.02875, 1.93922, 2.01438, 1.93564, 1.93736, 1.93784, 1.93661, 1.86336, 1.85821, 1.85603, 1.97205, 1.85085, 1.97368, 2.06205, 2.06326, 1.84742, 1.84674, 1.84532, 1.84599, 1.84839, 1.84927, 1.84939, 1.85052, 1.95875, 1.91474, 1.91178, 1.85313, 1.85489, 1.85311, 1.90377, 1.85501, 1.85493, 1.7688, 1.76651, 1.76579, 1.76457, 1.75801, 2.06139, 1.75946, 1.88716, 1.75682, 1.7555, 1.80456, 1.80383, 1.86884, 1.75199, 1.75186, 1.75109, 1.75143, 1.80051, 1.75089, 1.85425, 1.9554, 1.74729, 1.86863, 1.95793, 1.74491, 1.74521, 1.74703, 1.87555, 1.74534
1.89406, 1.87309, 1.872, 1.87121, 1.86663, 1.86354, 1.91333, 1.86204, 1.86044, 1.97228, 1.95561, 1.97193, 1.90356, 1.96326, 1.84955, 1.84804, 2.03428, 1.93117, 1.84361, 1.89012, 1.83872, 1.88673, 1.83697, 1.83452, 1.83231, 1.8843, 1.835, 1.83675, 1.83701, 1.8973, 1.97571, 2.07604, 1.89279, 1.8906, 1.99917, 1.8859, 1.99754, 1.99696, 1.95364, 1.87595, 2.07369, 1.94535, 1.94443, 1.8668, 1.94228, 1.86315, 2.07209, 1.99299, 1.94152, 1.94213, 1.94468, 2.06613, 1.87356, 1.9548, 1.88382, 2.07171, 2.07931, 2.04615, 1.95557, 2.04212, 2.04547, 2.03097, 1.95175, 1.94955, 1.95209, 1.95128, 2.02868, 2.05505, 1.95073, 2.04257, 1.95154, 1.95237, 1.95114, 1.95239, 2.04165, 1.95194, 2.04078, 2.02824, 2.04625, 2.02708, 2.04144, 2.03109, 2.03454, 2.03316, 2.03329, 1.94459, 2.03768, 1.94357, 2.03095, 2.03208, 2.03084, 1.94131, 1.9392, 1.93787, 1.93806, 2.02611, 1.86154, 1.90802, 1.85467, 1.9722, 1.97515, 1.84863, 1.84727, 1.84515, 1.84614, 1.84436, 1.8962, 1.84796, 1.84858, 1.84757, 1.84958, 1.85052, 2.03829, 1.95136, 1.91312, 1.85257, 1.8522, 1.85503, 1.90388, 1.85362, 1.85383, 2.07379, 1.76727, 1.76465, 1.76172, 1.75914, 1.76092, 1.75901, 1.75312, 1.75664, 1.87496, 1.75439, 1.80428, 1.80292, 1.8042, 1.75224, 1.88266, 1.75078, 1.79945, 1.74806, 1.75061, 1.7504, 1.7482, 1.74569, 1.7467, 1.74689, 1.79577, 1.74813, 1.74578, 1.747
1.89622, 1.87382, 1.87396, 1.98405, 1.86785, 1.86599, 1.8646, 1.86531, 1.86463, 1.97401, 1.97381, 1.96982, 1.96859, 1.96957, 1.9552, 1.84978, 1.84546, 1.84573, 2.03113, 1.84406, 1.89761, 1.83584, 1.83743, 1.88581, 1.83466, 1.83571, 1.83554, 1.83723, 1.83733, 1.9002, 1.97846, 1.89455, 2.00326, 1.9985, 2.00018, 1.99992, 1.96062, 1.9565, 2.08177, 1.95095, 1.87191, 1.94829, 1.99787, 1.94788, 1.9451, 1.94319, 1.94336, 1.94084, 1.94158, 1.944, 1.94654, 1.94919, 1.95191, 1.98954, 1.9862, 1.98558, 2.06631, 1.95921, 2.03107, 1.95676, 2.0308, 1.95444, 1.95277, 1.95217, 2.02848, 2.05187, 2.05647, 2.0312, 2.04974, 2.02823, 2.04105, 2.04903, 1.95264, 2.04513, 1.9521, 1.95117, 1.9515, 2.02865, 2.04634, 1.94916, 1.94878, 2.03725, 2.03213, 2.03264, 2.03799, 1.94627, 2.0216, 2.03743, 2.04461, 2.02591, 1.94284, 1.94102, 1.93967, 1.93835, 1.93783, 2.01523, 1.90963, 1.90768, 1.85513, 1.85068, 1.89952, 1.84657, 1.84695, 1.97148, 1.97244, 1.84694, 1.84481, 1.84527, 1.84699, 2.05591, 1.85111, 1.89764, 1.85046, 1.85201, 1.85328, 1.95278, 1.958, 1.84959, 1.85391, 1.85452, 1.85186, 1.76891, 1.76617, 1.8915, 1.76269, 1.88572, 1.88593, 1.75754, 1.75802, 1.75771, 1.7545, 1.85762, 1.88621, 1.75396, 1.75384, 1.80374, 1.75088, 1.80045, 1.75161, 1.75009, 1.74798, 1.8797, 1.74871, 1.87921, 1.87839, 1.83389, 1.74799, 1.74681, 1.87607, 1.79602
1.89986, 1.87224, 1.87398, 1.87195, 1.97911, 1.86885, 1.93524, 1.86651, 1.91678, 1.97666, 1.86085, 1.90938, 1.85522, 1.85419, 1.96618, 1.96791, 1.84502, 1.84455, 1.84269, 1.84087, 1.84114, 2.05252, 1.83764, 1.83573, 1.83509, 1.83488, 1.94451, 1.83733, 1.83838, 1.97658, 1.97496, 1.89605, 1.97215, 2.08229, 2.0796, 2.07653, 1.88228, 1.88213, 1.95667, 1.95281, 1.95004, 1.9503, 1.87091, 1.99783, 1.9434, 1.94226, 1.86838, 1.94261, 1.94287, 1.94702, 2.06637, 1.94924, 1.99153, 1.99088, 1.98969, 1.98611, 2.0701, 2.05457, 2.04924, 2.04154, 2.05655, 2.03281, 2.03178, 2.0301, 2.03193, 2.03166, 2.03055, 1.95213, 2.03076, 2.05085, 1.95293, 2.03852, 2.04742, 2.04339, 2.048, 2.03762, 2.0464, 2.03859, 2.03493, 2.04261, 2.05157, 2.03196, 2.03512, 2.03204, 2.03631, 1.94718, 2.02778, 2.04159, 1.94466, 2.03467, 2.0185, 2.02329, 1.93916, 1.93853, 1.93855, 2.02892, 1.90997, 1.85756, 2.05445, 2.06494, 1.89943, 1.92063, 1.84444, 1.84573, 1.84211, 1.9737, 1.84506, 1.84366, 1.84508, 1.89663, 1.89796, 1.94821, 1.84847, 1.90036, 1.90062, 1.95817, 1.85229, 1.85155, 1.85349, 1.85242, 1.85247, 1.77194, 1.7661, 1.76441, 1.81299, 1.76133, 1.75898, 1.75731, 1.75609, 1.86237, 1.75317, 1.75341, 1.88641, 1.75213, 1.88246, 1.7512, 1.74938, 1.88015, 1.88568, 1.75009, 1.74726, 1.74924, 1.74611, 1.87638, 1.74598, 1.83394, 1.74422, 1.74656, 1.74724, 1.79772
1.87513, 1.87482, 1.98568, 1.875, 1.87267, 1.98447, 1.86706, 1.97888, 1.97545, 1.96962, 1.97506, 1.85742, 1.90512, 1.9054, 1.85166, 1.96769, 1.84412, 1.8469, 2.03417, 1.84232, 1.90024, 1.84032, 1.83771, 1.88775, 1.88713, 1.94921, 1.89935, 1.89004, 1.93774, 2.08276, 1.97244, 1.97308, 1.97422, 1.89302, 1.96853, 1.96566, 1.96042, 1.95945, 1.95783, 1.87746, 2.09323, 1.94924, 1.99874, 1.94627, 1.94398, 1.99715, 1.94439, 1.94193, 1.94253, 2.07731, 1.94752, 1.87226, 1.95619, 1.9902, 1.96208, 1.89335, 1.98726, 1.96163, 2.03922, 2.04622, 2.03443, 2.03484, 1.95202, 1.95477, 2.0542, 2.0291, 2.05039, 2.04436, 2.03163, 2.05254, 1.95396, 1.95405, 2.04769, 1.95287, 2.03621, 1.95449, 2.02813, 2.03657, 2.03094, 2.05333, 1.95053, 2.03094, 1.94924, 1.94856, 2.04266, 2.04641, 2.02135, 1.94478, 1.94429, 2.03046, 2.02961, 2.02142, 2.01855, 2.02078, 2.0174, 2.0321, 1.85793, 1.85834, 1.85291, 1.85013, 1.85137, 1.84741, 1.84772, 1.8437, 1.84524, 1.845, 1.89357, 1.96911, 1.97173, 1.84414, 1.89735, 1.84763, 1.84761, 1.8484, 1.85138, 1.90481, 1.90087, 1.85088, 1.85257, 1.85331, 1.85473, 1.77004, 1.7668, 1.88389, 1.76202, 1.76035, 1.80779, 1.75753, 1.75497, 1.88513, 1.75228, 1.88478, 1.75192, 1.75104, 1.88577, 1.8824, 1.74768, 1.74939, 1.75028, 1.74893, 1.85766, 1.74723, 1.74578, 1.7484, 1.79662, 1.74753, 1.74408, 1.74299, 1.79647, 1.7956
1.87684, 1.87666, 1.8767, 1.8763, 1.92305, 1.98278, 1.9828, 1.98071, 1.86567, 1.97062, 1.8602, 1.86079, 1.8583, 1.85628, 1.85464, 1.85143, 1.84912, 1.84854, 1.89689, 1.8994, 1.84417, 1.88976, 1.83846, 1.83572, 1.83744, 1.96548, 1.83963, 1.88898, 1.84375, 1.90459, 1.98299, 2.08648, 2.08301, 2.08627, 1.96966, 1.88705, 1.9646, 1.95958, 1.95824, 1.95578, 1.95257, 1.95028, 1.87284, 1.87061, 1.946, 1.8685, 1.94332, 1.94444, 1.99553, 1.86984, 1.94808, 1.95225, 1.95475, 1.99227, 1.99061, 1.97004, 1.97619, 2.0425, 2.05524, 2.05313, 2.04794, 2.03409, 1.95546, 2.03469, 2.03194, 2.04518, 2.03215, 2.03293, 2.04248, 1.9555, 1.95465, 2.03645, 2.04671, 2.04806, 2.04503, 2.04117, 1.95208, 2.0414, 2.02995, 1.95114, 2.0376, 2.06917, 2.03567, 1.94998, 2.04165, 1.94838, 2.03184, 2.0326, 1.94506, 2.02066, 2.02572, 2.02066, 2.02028, 2.02118, 2.02126, 2.02384, 1.85878, 1.85725, 1.90441, 1.85131, 1.85068, 1.84854, 1.84562, 1.84604, 1.84338, 1.84414, 1.89416, 1.96669, 1.84557, 1.84592, 2.06657, 1.94856, 1.84636, 1.84533, 1.96227, 1.84902, 1.94909, 1.85098, 1.84979, 1.85124, 1.85066, 1.76863, 1.81684, 1.81576, 1.75931, 1.75874, 1.75861, 1.80649, 1.8791, 1.75405, 1.74989, 1.75221, 1.85018, 1.88312, 1.7473, 1.79949, 1.7499, 1.84835, 1.74873, 1.74824, 1.7472, 1.7454, 1.79648, 1.74777, 1.87207, 1.74504, 1.74515, 1.746, 1.82541, 1.7434
1.99935, 1.87982, 1.87957, 1.87552, 1.87664, 1.87214, 1.96878, 1.86784, 1.91693, 1.86579, 1.86366, 2.05623, 1.97863, 2.0557, 1.85525, 1.85242, 1.85111, 1.84743, 1.9649, 1.8451, 1.89255, 1.8415, 1.84127, 2.03395, 1.83869, 1.83875, 1.83712, 1.84101, 1.8417, 1.98229, 1.97971, 2.00617, 2.08674, 1.89645, 1.9684, 2.08361, 1.88669, 2.08092, 2.00208, 1.95554, 1.95426, 1.87632, 2.00037, 1.87185, 1.94747, 1.94575, 1.9454, 1.86735, 1.94791, 1.9463, 1.94839, 1.95008, 1.9549, 1.99329, 1.99273, 1.99113, 2.0656, 2.05634, 2.03641, 1.95917, 1.95804, 1.9565, 1.95779, 1.95493, 1.95556, 2.03097, 2.0486, 2.03608, 2.05127, 2.04686, 2.04898, 2.04854, 2.05646, 1.95554, 1.95534, 2.04747, 1.95353, 2.05021, 2.03634, 2.03875, 1.95217, 2.02922, 2.03491, 2.03593, 2.03845, 2.03989, 2.03037, 2.03306, 1.94537, 2.03515, 2.03636, 1.94188, 1.94186, 1.94035, 2.01891, 2.02025, 1.86108, 1.85602, 1.9057, 1.97251, 1.97844, 2.0622, 1.84684, 1.84664, 1.84393, 1.89337, 1.9722, 1.84368, 1.84394, 1.84372, 2.0557, 1.84504, 1.84603, 1.84467, 1.84942, 1.84571, 1.84947, 1.84928, 1.90117, 1.90143, 1.85104, 1.89404, 1.86918, 1.76519, 1.88791, 1.75659, 1.75826, 1.75705, 1.75462, 1.75286, 1.88453, 1.75248, 1.88893, 1.74993, 1.80007, 1.79953, 1.75022, 1.74818, 1.93177, 1.88111, 1.87933, 1.74659, 1.74781, 1.86094, 1.87863, 1.74381, 1.74779, 1.85335, 1.87457, 1.7947
1.90108, 1.88274, 1.88089, 1.98424, 1.98612, 1.98477, 1.87259, 1.86889, 1.91773, 1.91459, 1.8646, 1.86206, 1.85985, 2.05717, 1.85597, 1.85197, 1.85013, 1.85082, 1.84715, 1.8462, 1.89357, 1.9543, 1.84067, 1.83735, 1.84063, 1.95183, 1.94743, 1.91914, 1.90558, 1.90558, 2.01085, 1.97527, 2.08653, 1.89672, 2.00678, 1.89016, 1.96166, 2.08365, 1.88236, 1.88015, 2.0802, 1.9528, 1.94844, 2.09059, 1.87184, 1.94745, 1.94804, 1.99978, 1.94859, 1.94743, 1.99656, 1.9517, 1.99635, 1.88569, 1.9948, 1.89477, 2.08664, 1.96246, 1.96201, 2.04878, 2.05379, 1.95853, 1.95795, 1.95652, 1.95534, 2.05359, 2.05259, 1.95501, 1.95611, 2.05113, 1.95704, 2.04269, 2.04264, 2.05558, 2.04328, 2.0269, 2.03888, 2.04228, 1.95275, 2.03732, 2.04908, 2.02919, 2.03039, 1.95142, 1.9493, 2.04408, 2.05348, 1.94794, 2.03542, 2.03787, 2.03233, 1.94169, 1.94066, 1.94054, 1.94156, 2.03056, 1.85924, 1.97158, 1.85432, 1.9727, 1.8477, 1.8473, 2.06619, 1.84529, 1.84244, 1.84242, 1.843, 1.8411, 1.84426, 1.844, 1.84134, 1.84508, 1.84488, 1.96238, 1.84613, 1.84831, 2.05611, 2.0696, 1.90005, 1.90044, 1.85143, 1.88925, 1.76569, 1.88228, 1.75939, 1.75843, 1.75825, 1.93272, 1.75179, 1.75308, 1.88331, 1.88722, 1.74813, 1.88524, 1.79983, 1.79857, 1.7472, 1.88033, 1.7471, 1.8789, 1.93173, 1.87996, 1.87671, 1.87629, 1.74457, 1.74682, 1.74388, 1.87676, 1.74498, 1.7465
1.90988, 1.88338, 1.88255, 1.87985, 1.98469, 1.87759, 1.87302, 1.95876, 1.91878, 1.86858, 1.86699, 2.06664, 1.86144, 1.85971, 1.94985, 1.95176, 2.0483, 1.94916, 1.84836, 1.84873, 1.95417, 1.84399, 1.95769, 2.05846, 1.83884, 1.84058, 2.02751, 1.84057, 1.90646, 2.01208, 1.97947, 1.97672, 1.97703, 1.97315, 1.97192, 1.8941, 2.00702, 1.88671, 1.88573, 1.95891, 2.00476, 1.87732, 1.95108, 1.87371, 2.00358, 1.94951, 2.07695, 1.94692, 1.94776, 1.87144, 2.00339, 1.95232, 1.87923, 1.95653, 1.88695, 1.99163, 2.07368, 1.96405, 2.04804, 2.03953, 1.95868, 1.95959, 1.95906, 1.95651, 2.03808, 2.03305, 2.06261, 2.05324, 2.06114, 1.95686, 2.05988, 2.0405, 2.04303, 2.04465, 2.04004, 2.03873, 1.95464, 2.04537, 1.95483, 2.0557, 2.03889, 2.05173, 2.05208, 1.95189, 2.04518, 1.95151, 2.04347, 2.04626, 2.03737, 1.94743, 2.0278, 1.94366, 1.94083, 1.94167, 1.94181, 2.04202, 1.85887, 1.97572, 1.85229, 1.90329, 1.84602, 1.9711, 1.8967, 1.84483, 1.84409, 1.84286, 1.84373, 1.84346, 1.84369, 1.94133, 2.06682, 1.97034, 1.84372, 1.84482, 1.89646, 1.84791, 1.84714, 1.8488, 1.89888, 1.85123, 1.84775, 1.88395, 1.76523, 1.88362, 1.75993, 1.75944, 1.7583, 1.75498, 1.75393, 1.86715, 1.80035, 1.74973, 1.74893, 1.74834, 1.74722, 1.7461, 1.74682, 1.74723, 1.74706, 1.74469, 1.87716, 1.85272, 1.87708, 1.74647, 1.7451, 1.74607, 1.74516, 1.74446, 1.74267, 1.74418
2.00772, 1.88344, 1.88352, 1.88196, 1.98965, 1.92689, 1.98275, 1.96486, 1.98163, 1.86818, 1.86652, 1.86259, 1.86132, 1.85996, 1.93097, 1.85526, 1.85279, 1.85216, 1.963, 1.84915, 1.84463, 1.96131, 1.84256, 1.84147, 2.15074, 1.84224, 2.0272, 1.84453, 1.90648, 1.90777, 1.98333, 1.97899, 1.90055, 2.00698, 1.97207, 1.97057, 1.96541, 1.96517, 2.00864, 1.95606, 1.95574, 2.09515, 1.87614, 1.95235, 1.87454, 1.94953, 1.9467, 2.07692, 1.94864, 1.94744, 2.00001, 1.95532, 1.87999, 1.88907, 1.88904, 1.97153, 2.0801, 1.96607, 2.06584, 2.0483, 1.96151, 1.96166, 1.95842, 1.95825, 2.05297, 2.04454, 2.05803, 2.04407, 2.04129, 2.05747, 2.05418, 2.04533, 2.04245, 2.05224, 2.03915, 2.04781, 1.95531, 1.95609, 2.03511, 2.03955, 1.95453, 2.06277, 2.04656, 1.95164, 2.04326, 1.9489, 2.0359, 2.04963, 2.04111, 1.94481, 2.01878, 1.94418, 1.94466, 1.94448, 1.94245, 2.02542, 1.86003, 2.06895, 1.96815, 1.8499, 1.84893, 1.84799, 1.89707, 1.84486, 1.84507, 2.06642, 1.84315, 1.84055, 1.84096, 1.84212, 1.84159, 1.84428, 1.89332, 1.933, 1.89588, 1.84488, 1.8472, 1.95837, 1.84891, 1.84816, 1.94264, 1.77173, 2.06521, 1.88371, 1.88019, 1.86567, 1.75523, 1.75438, 1.75293, 1.75135, 1.80237, 1.80056, 1.88197, 1.74786, 1.86923, 1.80291, 1.74523, 1.7468, 1.74528, 1.74544, 1.74596, 1.74301, 1.88147, 1.74769, 1.84921, 1.74529, 1.87132, 1.74365, 1.74433, 1.7425
1.91404, 1.88507, 1.88397, 1.88412, 1.88263, 1.92793, 1.92692, 1.87313, 1.87095, 1.98527, 1.8685, 1.91518, 1.86283, 1.96178, 1.90967, 1.85645, 1.97277, 1.85182, 1.84962, 1.84928, 2.04024, 1.84611, 1.95827, 1.84393, 1.84402, 1.84401, 1.84428, 1.84515, 1.84806, 1.90948, 1.90685, 2.00983, 1.9797, 1.97588, 1.89657, 1.96897, 2.00902, 1.96513, 1.96195, 1.96019, 1.88057, 1.95567, 1.95426, 1.87608, 1.95162, 1.87268, 1.87317, 1.94817, 1.94857, 1.95065, 2.07324, 1.95459, 1.95826, 1.99825, 1.89055, 1.99429, 2.08304, 2.0523, 2.04924, 2.04893, 1.96168, 1.96017, 1.95985, 1.9599, 2.04458, 2.03499, 2.04952, 1.959, 2.04285, 2.04898, 2.05356, 1.95761, 2.04966, 2.04925, 2.04525, 1.95685, 2.04238, 1.95577, 2.05815, 1.9561, 1.95462, 2.04309, 2.04088, 2.05176, 2.04456, 2.05187, 1.95197, 2.02725, 2.02536, 2.04135, 2.02859, 1.94539, 1.94396, 1.9434, 2.03111, 2.03578, 1.86035, 1.98088, 1.9066, 1.91558, 2.07421, 1.84773, 1.8472, 1.84502, 1.84351, 2.06228, 1.8408, 1.84108, 1.84109, 1.83847, 1.84111, 1.84368, 1.84222, 1.84439, 1.89375, 1.84486, 1.84582, 1.84549, 1.94085, 1.84736, 1.94626, 1.76926, 1.76713, 1.87703, 1.87613, 1.87542, 1.85872, 1.88164, 1.75105, 1.74954, 1.80009, 1.79966, 1.74866, 1.7455, 1.88138, 1.74565, 1.88156, 1.81038, 1.7965, 1.79671, 1.74657, 1.87547, 1.87373, 1.74456, 1.74478, 1.74583, 1.7435, 1.74388, 1.87486, 1.74378
2.02117, 1.88613, 1.88388, 1.88232, 1.87958, 1.87973, 1.92722, 1.87368, 1.87212, 1.92208, 1.86816, 1.91539, 1.8626, 1.8596, 1.85981, 1.97972, 1.85418, 1.85122, 1.94174, 1.96864, 1.84821, 1.84554, 1.84603, 1.96369, 1.84476, 1.84461, 1.84752, 2.02751, 1.84601, 2.01503, 2.01193, 1.90607, 1.9797, 1.9011, 1.97207, 2.01025, 1.96993, 1.96715, 1.96277, 1.96118, 1.959, 1.95595, 1.95456, 1.95209, 1.87561, 1.87411, 1.95089, 1.87243, 2.00186, 1.95115, 2.00062, 1.95589, 1.95698, 1.99827, 1.99738, 1.97382, 1.99412, 2.05363, 1.96562, 2.06927, 1.96279, 1.96184, 1.9612, 1.95944, 2.04983, 2.0457, 1.95807, 2.05288, 2.04231, 2.04163, 2.04521, 1.95859, 2.05785, 2.05471, 2.04625, 1.95766, 1.95652, 1.95678, 2.04474, 2.04842, 2.0596, 2.05115, 1.95317, 1.95228, 2.04056, 2.03983, 1.95183, 2.05189, 2.04204, 2.02859, 1.94574, 1.94446, 1.9431, 1.94243, 2.03798, 2.03539, 1.86178, 1.85787, 1.90528, 1.9634, 1.85208, 1.84703, 1.96894, 1.84441, 1.94615, 1.84211, 1.84206, 1.84197, 1.84128, 1.83754, 1.96665, 1.96545, 1.84074, 1.84191, 1.84407, 1.89645, 1.84423, 1.8445, 1.846, 1.84529, 1.89751, 1.77009, 1.76528, 1.8772, 1.87611, 1.80932, 1.87834, 1.75082, 1.87571, 1.75124, 1.74935, 1.74807, 1.74841, 1.88167, 1.74535, 1.744, 1.74701, 1.74743, 1.74582, 1.74404, 1.79519, 1.74433, 1.74411, 1.74467, 1.74291, 1.74397, 1.74461, 1.83898, 1.87488, 1.74149
2.02474, 1.88891, 1.88691, 1.88255, 1.88212, 1.92961, 1.87685, 1.87747, 1.92597, 1.9883, 1.92675, 1.91729, 1.91719, 1.91288, 1.9112, 1.97997, 1.85601, 1.85787, 2.06037, 1.95495, 1.84842, 1.95132, 1.84771, 1.84541, 1.95104, 1.84759, 1.84733, 2.02766, 1.85094, 2.0176, 1.9872, 1.98251, 1.97746, 1.97592, 1.97439, 1.97224, 1.97153, 2.01121, 2.09382, 1.9608, 1.88242, 1.95806, 1.95528, 1.87737, 1.87452, 1.95072, 1.94928, 1.87536, 1.94866, 2.0035, 1.95241, 1.95475, 2.00054, 2.07672, 1.99797, 1.89988, 1.99559, 2.05459, 2.04591, 2.05987, 2.03792, 2.0412, 1.96194, 1.96454, 2.0582, 2.04954, 2.03521, 2.03739, 1.95902, 1.95992, 1.95903, 2.04014, 1.95982, 2.05849, 2.04738, 2.05465, 2.05634, 2.03453, 2.04179, 1.95527, 2.04865, 2.03567, 2.03777, 2.04342, 2.04478, 2.04416, 2.03672, 2.0484, 2.02533, 2.04197, 2.03789, 1.94602, 1.94452, 1.94398, 1.94286, 1.94214, 1.97684, 1.97214, 1.8559, 1.85227, 1.85199, 1.8971, 1.84607, 1.84566, 1.94722, 1.89082, 1.83926, 1.83798, 1.84122, 1.83939, 1.84193, 1.8398, 1.96507, 1.84133, 1.83933, 1.96274, 1.84286, 1.94437, 1.84375, 1.8464, 1.89682, 1.87827, 1.88082, 1.76466, 1.76011, 1.80959, 1.80621, 1.75437, 1.75006, 1.87827, 1.74844, 1.74583, 1.74533, 1.79701, 1.74417, 1.7455, 1.87369, 1.74383, 1.74313, 1.79393, 1.8039, 1.74158, 1.74202, 1.74146, 1.79334, 1.74375, 1.74043, 1.74344, 1.74441, 1.74364
1.90812, 1.889, 1.8862, 1.88661, 1.88187, 1.88231, 1.87698, 1.97235, 1.87534, 1.99048, 1.86773, 1.9813, 1.9803, 1.9826, 1.86189, 1.85947, 2.05112, 1.85421, 1.85189, 1.85221, 1.95953, 1.84938, 1.96345, 1.96679, 1.96569, 1.84779, 1.84793, 1.84768, 1.85006, 1.98921, 2.01737, 1.90802, 2.0136, 1.90114, 1.97752, 1.97247, 1.96905, 1.96617, 1.96352, 1.88505, 2.01128, 1.95834, 1.87936, 1.95461, 2.09853, 1.95226, 1.87514, 1.95131, 1.87576, 1.95204, 1.87881, 1.9556, 1.9572, 1.99989, 1.96899, 1.99808, 2.09658, 1.96984, 2.05124, 2.05616, 2.04158, 2.04052, 1.96241, 1.96237, 1.96037, 2.04865, 2.04878, 2.04551, 2.06683, 2.04766, 2.0496, 1.95986, 1.95904, 2.04056, 2.05002, 1.95982, 2.04617, 2.03556, 2.04191, 2.04144, 1.95781, 2.05533, 1.95513, 2.04, 1.95156, 2.03801, 2.03191, 2.04654, 2.0379, 1.94815, 1.94802, 1.94604, 1.94698, 1.94432, 1.94288, 2.03607, 1.86082, 1.8584, 1.85359, 1.97092, 1.84934, 1.97514, 1.84738, 1.89266, 2.0517, 1.84179, 1.89128, 1.83808, 1.83996, 1.84074, 1.83823, 1.84071, 1.96837, 1.84033, 1.83991, 1.96302, 1.84348, 1.84409, 1.95638, 2.0419, 1.89617, 1.76932, 1.76707, 1.76267, 1.81245, 1.80866, 1.86009, 1.84956, 1.75077, 1.7513, 1.87688, 1.74567, 1.87464, 1.85499, 1.86073, 1.74458, 1.74309, 1.74343, 1.79568, 1.79644, 1.74308, 1.74388, 1.85908, 1.74372, 1.79409, 1.74403, 1.74265, 1.74176, 1.7419, 1.86934
1.91391, 1.99168, 1.88718, 1.88604, 1.88431, 1.88393, 1.88294, 1.87882, 1.87796, 1.86952, 1.87008, 1.8681, 1.98636, 1.96226, 2.05884, 1.91011, 1.85701, 1.90652, 1.90621, 1.85459, 1.96513, 2.04494, 1.96518, 1.89819, 1.90077, 1.84868, 1.89924, 1.84978, 1.85304, 1.91517, 1.91193, 1.98237, 1.9043, 1.97941, 1.97925, 2.09091, 1.9685, 1.96793, 1.9631, 1.96321, 1.96142, 1.95869, 1.95627, 1.95218, 2.0099, 1.95187, 1.94871, 1.94993, 1.95174, 1.87566, 1.87955, 1.95746, 2.00259, 2.09401, 1.96882, 1.97331, 1.99736, 1.96999, 2.04463, 1.96722, 2.04381, 2.04176, 1.96461, 2.04154, 2.0389, 2.05494, 1.96038, 1.96115, 1.96003, 2.05975, 2.03707, 2.04866, 2.04412, 2.03885, 1.95899, 2.0443, 2.04589, 2.04952, 1.95849, 1.95773, 2.04373, 2.05229, 1.95721, 2.04049, 2.03904, 2.04149, 2.03443, 2.03626, 1.95066, 2.04839, 2.03675, 1.94628, 1.94504, 1.94433, 2.0202, 2.01748, 1.91402, 1.85803, 2.06213, 1.85045, 1.90003, 1.84907, 1.89381, 1.84223, 1.84328, 1.9695, 1.83864, 1.96647, 1.84062, 1.841, 1.84, 1.84012, 1.83879, 1.84089, 1.84126, 1.96018, 1.84445, 2.03773, 1.84364, 2.03318, 1.91795, 1.76957, 1.76888, 1.76327, 1.81049, 1.75727, 1.86498, 1.75199, 1.87627, 1.75008, 1.99044, 1.74793, 1.74473, 1.79629, 1.74506, 1.74299, 1.74209, 1.74372, 1.74318, 1.74159, 1.74167, 1.74332, 1.86655, 1.74065, 1.86191, 1.74075, 1.74393, 1.73997, 1.74002, 1.73899
1.9139, 1.88753, 1.88776, 1.88639, 2.00088, 1.88323, 1.88037, 1.87908, 1.87736, 1.87214, 1.87122, 1.87075, 1.86885, 1.8668, 1.86193, 1.91151, 1.86044, 1.90738, 2.06436, 1.85191, 2.0485, 1.85265, 1.85085, 1.90013, 1.84999, 1.95821, 1.85032, 1.85197, 1.85205, 1.98919, 2.10014, 1.98652, 1.90716, 1.97645, 1.89978, 1.89837, 1.9718, 1.97117, 1.96505, 1.88969, 1.8853, 2.01357, 1.95879, 2.01292, 1.8764, 1.95334, 1.95146, 1.95261, 1.95316, 1.95316, 1.8791, 1.95606, 1.95993, 1.8897, 1.97201, 1.97458, 2.08959, 1.9705, 1.96838, 2.05526, 1.967, 1.96513, 1.96367, 1.96405, 2.04083, 2.05413, 2.0355, 1.9625, 2.04632, 2.05189, 2.0619, 2.05011, 1.96185, 1.95912, 2.06159, 1.95936, 1.96101, 2.05016, 1.95957, 2.05516, 2.04859, 2.04192, 2.05287, 2.04275, 2.04807, 2.05008, 2.03617, 2.03606, 2.03786, 1.94757, 1.9488, 1.94672, 1.94582, 1.94533, 2.0307, 2.03992, 1.91364, 1.85722, 1.85603, 1.85166, 1.89959, 1.972, 1.84698, 2.0632, 1.84164, 1.83593, 1.83834, 1.83733, 2.04342, 1.83697, 1.96495, 1.96529, 1.83995, 1.84079, 1.84117, 1.89087, 1.9617, 1.84312, 2.0399, 1.84329, 1.86576, 1.76941, 1.87258, 1.86943, 1.75844, 1.7606, 1.81942, 1.75249, 1.75054, 1.85152, 1.87275, 1.87528, 1.74589, 1.745, 1.74265, 1.87706, 1.74228, 1.74225, 1.85135, 1.87258, 1.84251, 1.74311, 1.86753, 1.8766, 1.74451, 1.74191, 1.79058, 1.73921, 1.79138, 1.74094
1.91699, 1.93954, 1.88755, 2.08636, 2.00072, 1.99678, 1.88118, 1.99607, 1.87857, 1.8758, 1.87235, 1.87078, 1.86814, 1.86669, 1.98575, 1.86257, 1.86203, 1.97936, 1.85538, 1.8551, 1.90432, 1.97172, 1.85114, 1.8512, 1.85154, 1.85125, 1.85169, 1.85294, 1.94478, 1.91681, 1.98876, 1.98659, 1.98197, 1.98223, 1.97661, 1.89847, 1.97351, 2.01698, 2.01747, 1.965, 1.96229, 1.95877, 1.95863, 1.95516, 1.95433, 1.87813, 2.08674, 1.95207, 1.95601, 1.95479, 1.95618, 2.004, 2.00441, 1.89121, 2.00051, 1.99721, 2.09415, 2.05543, 1.97004, 2.06614, 2.05557, 1.96486, 1.96278, 1.96492, 1.96351, 2.05953, 1.96284, 2.06408, 2.0527, 2.05141, 1.96052, 2.05389, 2.04787, 2.05443, 2.04942, 1.96102, 1.95953, 2.04654, 2.05555, 2.04495, 2.04772, 2.0619, 2.05487, 2.05217, 2.05517, 2.04836, 2.05498, 2.04626, 2.03718, 1.94754, 2.02801, 1.9464, 1.94286, 1.94495, 2.02025, 2.03805, 1.85933, 1.85739, 1.85526, 1.85134, 1.84886, 1.94868, 1.84494, 1.84148, 1.84069, 1.83929, 1.83729, 2.05816, 1.83719, 1.83757, 1.83691, 1.83816, 1.839, 1.83596, 1.84078, 1.83908, 1.96145, 1.84379, 1.8406, 1.84082, 1.8674, 1.77125, 1.98422, 1.76406, 1.86945, 1.81978, 1.81871, 1.75121, 1.87536, 1.74593, 1.74768, 1.87257, 1.74437, 1.74384, 1.7443, 1.74374, 1.74457, 1.74369, 1.86981, 1.87022, 1.74318, 1.74042, 1.74132, 1.73909, 1.74111, 1.8606, 1.7415, 1.7417, 1.79262, 1.79022
1.90384, 1.89351, 1.8897, 2.08386, 1.88569, 1.93549, 1.88416, 1.8813, 1.99983, 1.87746, 1.87203, 1.92024, 1.86657, 1.86827, 1.86624, 1.86425, 1.98173, 1.97991, 1.85767, 1.85757, 1.85493, 1.91119, 1.96891, 1.8492, 1.95005, 1.95344, 1.85157, 1.85476, 1.85377, 1.99232, 1.99107, 1.98685, 2.0208, 1.98046, 1.97962, 1.97923, 1.9731, 1.97343, 1.96565, 1.89043, 1.88591, 1.95895, 2.01342, 2.01383, 1.95364, 2.01108, 1.95473, 1.95217, 1.95428, 1.95541, 1.95809, 1.95951, 1.96278, 1.96589, 1.9715, 1.97601, 2.09259, 1.97232, 2.05878, 2.06178, 1.96649, 2.04792, 1.96588, 1.96523, 1.96361, 2.04892, 2.05851, 1.96242, 2.05094, 2.04627, 2.06155, 2.03582, 2.0584, 1.9616, 2.05249, 1.96008, 2.04947, 2.05223, 2.06581, 2.05101, 2.05327, 1.9569, 2.03723, 2.05248, 1.95481, 2.04222, 1.95357, 2.0317, 2.03773, 1.94772, 2.02759, 1.94453, 1.94786, 1.94517, 2.0462, 2.02836, 1.86203, 1.85761, 1.97611, 2.06246, 1.84857, 1.8451, 1.8446, 1.8913, 1.83929, 1.84083, 1.83722, 2.05612, 1.83716, 1.83847, 1.83627, 1.96956, 1.83812, 1.96488, 1.83894, 1.88944, 1.83847, 1.88953, 1.94025, 1.9342, 1.77062, 1.76658, 1.76573, 1.76058, 1.87176, 1.75701, 1.75429, 1.75065, 1.74645, 1.74433, 1.74553, 1.74407, 1.74466, 1.74385, 1.87529, 1.74121, 1.7446, 1.84388, 1.74087, 1.74219, 1.83814, 1.872, 1.86881, 1.87534, 1.87007, 1.74028, 1.86998, 1.74163, 1.73972, 1.79193
1.9045, 1.89257, 1.89234, 1.88895, 1.886, 1.93546, 1.88418, 1.88261, 1.93143, 1.99629, 1.92364, 1.92362, 1.86997, 1.97264, 1.97323, 1.86538, 1.86521, 1.86115, 1.85821, 1.90665, 1.85406, 1.90456, 1.85071, 1.85128, 1.85264, 1.9608, 1.85168, 1.85464, 1.856, 1.99588, 1.98986, 1.98572, 1.98527, 1.98237, 1.90367, 2.0186, 1.89779, 1.97177, 2.0969, 1.96542, 1.88701, 2.0173, 1.96007, 1.95591, 1.95402, 2.01351, 1.9542, 1.95249, 1.95283, 1.95709, 2.00823, 2.00497, 1.96261, 1.89059, 2.00044, 2.00084, 2.10323, 2.05871, 2.04883, 2.04507, 2.04456, 2.04352, 2.04462, 1.96541, 2.0662, 2.05982, 2.05068, 2.06298, 2.03812, 1.96326, 2.04959, 2.03842, 2.05105, 2.05152, 2.04987, 2.06224, 2.04897, 2.04976, 2.05533, 2.05183, 2.05873, 2.05219, 2.04206, 2.02854, 1.95559, 2.05187, 2.04521, 2.0318, 2.04055, 2.04103, 2.0234, 2.0176, 1.94578, 1.94478, 1.94345, 1.94345, 1.86283, 1.90702, 1.85494, 1.85186, 1.97507, 2.07186, 1.8398, 1.89148, 1.84043, 1.83911, 1.83741, 1.83714, 1.83715, 1.83693, 1.94381, 1.94323, 1.83734, 1.83944, 1.83782, 1.83844, 1.83919, 1.95118, 1.83985, 1.84028, 1.77219, 1.76808, 1.76459, 1.7599, 1.86749, 1.7568, 1.74976, 1.75015, 1.749, 1.86879, 1.86653, 1.86344, 1.74745, 1.86498, 1.74342, 1.74234, 1.87275, 1.87258, 1.87034, 1.74038, 1.87394, 1.86936, 1.73752, 1.87125, 1.74019, 1.73955, 1.74306, 1.74139, 1.73979, 1.79124
1.91749, 1.8962, 1.88944, 1.8898, 1.88633, 1.88684, 1.88643, 1.99063, 1.93072, 1.99659, 1.87602, 1.99699, 1.86881, 1.86843, 1.86787, 1.91708, 1.86442, 1.8627, 1.85931, 1.85445, 1.90644, 1.85466, 1.85163, 1.85437, 1.96605, 2.04005, 2.03442, 1.85533, 1.85746, 2.02512, 1.9924, 2.10293, 1.98398, 1.98248, 1.97972, 1.97744, 1.89935, 1.97028, 1.9688, 1.96674, 1.96853, 1.9632, 1.8825, 1.88344, 1.95635, 1.87915, 2.01413, 1.87897, 2.10686, 1.95551, 2.0084, 1.88486, 1.88638, 1.96835, 1.89745, 2.00312, 2.07916, 2.0736, 1.97229, 2.06924, 2.0479, 2.04603, 2.04431, 1.96505, 1.96487, 1.966, 2.04822, 2.07478, 2.051, 2.04103, 1.96341, 2.03818, 2.06848, 2.04176, 1.962, 1.96214, 2.04886, 1.96143, 1.96158, 2.04642, 2.04768, 2.04793, 2.04812, 2.03089, 2.0464, 2.04242, 2.04759, 2.05186, 2.03309, 1.94823, 1.94762, 1.94507, 1.9448, 1.9446, 1.94378, 1.94236, 1.9696, 1.85846, 1.85072, 1.84755, 1.84714, 1.84441, 1.83923, 1.83961, 1.83947, 1.83704, 1.83611, 1.83583, 1.83573, 1.90939, 1.83734, 1.90112, 1.88797, 1.83468, 1.83893, 1.83844, 1.96236, 1.83798, 1.88961, 1.84024, 1.86804, 1.86529, 1.76168, 1.8685, 1.75787, 1.80302, 1.80283, 1.75158, 1.74766, 1.74494, 1.86626, 1.74504, 1.74247, 1.74393, 1.74152, 1.74362, 1.74054, 1.74236, 1.87003, 1.73974, 1.87244, 1.87005, 1.74035, 1.73926, 1.74151, 1.74009, 1.86794, 1.74031, 1.74036, 1.73871
1.92082, 1.99607, 2.00998, 1.88966, 1.89009, 1.93616, 1.93395, 1.99054, 1.88061, 1.87896, 1.87845, 1.87171, 1.86999, 1.99023, 1.91736, 1.86507, 1.91424, 1.97012, 1.91416, 1.97922, 1.85415, 1.85682, 1.97426, 1.85437, 1.85215, 1.85396, 1.855, 1.85294, 1.85677, 1.91732, 1.91668, 1.91386, 2.02236, 2.10297, 1.97986, 1.90348, 1.9754, 1.89902, 1.89444, 1.96873, 1.963, 1.96215, 1.9593, 1.95907, 1.95906, 1.9586, 1.88006, 1.95483, 1.9555, 2.01106, 1.95822, 1.88493, 2.08509, 2.09323, 1.97232, 1.90398, 2.09764, 2.07145, 2.06589, 2.04885, 2.05237, 2.05249, 2.0477, 2.04797, 2.04187, 2.07642, 1.96504, 2.03782, 2.04156, 2.06479, 2.04891, 2.03846, 2.05703, 1.96393, 2.05786, 2.05185, 2.05196, 2.04898, 2.05632, 2.05289, 2.04921, 2.05135, 2.03625, 2.04139, 2.05189, 2.0503, 2.04919, 1.95286, 2.04407, 2.04793, 2.04142, 1.94719, 1.94589, 1.94098, 2.01801, 2.02145, 1.86152, 1.8565, 1.8525, 1.85019, 1.84837, 1.8448, 1.84279, 1.84053, 1.90314, 1.8368, 1.97267, 1.83675, 1.83256, 1.83385, 1.83456, 1.97002, 1.83731, 1.83725, 1.83601, 1.83712, 1.83678, 1.83677, 1.88923, 1.83663, 1.77188, 1.81744, 1.76152, 1.87052, 1.75544, 1.75601, 1.80246, 1.79954, 1.74647, 1.74413, 1.86468, 1.74359, 1.74293, 1.74439, 1.74245, 1.7429, 1.87546, 1.79212, 1.79077, 1.86789, 1.73897, 1.73854, 1.74015, 1.74026, 1.80107, 1.73937, 1.73848, 1.74143, 1.8713, 1.74197
1.92066, 1.89349, 1.8921, 1.88883, 1.88677, 1.93728, 1.88495, 1.88441, 2.00337, 1.88069, 1.87746, 1.928, 1.87157, 1.99346, 1.86894, 1.86789, 1.86417, 1.91731, 1.91485, 1.85798, 1.97999, 1.97368, 1.97279, 1.85567, 1.85434, 1.85442, 1.85565, 1.85393, 1.85767, 2.02743, 1.99401, 2.02799, 1.9136, 2.02394, 2.0226, 1.97926, 1.97652, 2.09638, 1.97154, 1.96797, 1.89008, 2.0965, 2.09468, 2.01712, 1.95804, 1.95564, 1.95605, 1.95554, 1.95714, 1.95782, 2.08946, 2.09423, 1.88809, 2.0051, 1.97247, 1.97941, 2.07903, 2.06979, 2.05841, 2.04746, 2.05896, 1.97025, 1.97125, 2.04627, 1.96727, 2.04269, 2.06502, 2.05356, 1.96629, 2.05642, 2.05502, 2.05237, 2.05471, 2.0593, 2.05135, 1.96315, 2.04828, 2.05093, 1.9618, 2.04114, 1.95809, 2.05017, 2.04269, 2.04201, 2.0402, 2.05076, 2.03794, 2.03903, 2.03838, 2.04406, 1.9455, 1.94627, 1.94449, 1.9428, 2.02155, 2.03428, 1.85936, 1.85751, 1.95955, 1.85024, 1.84708, 2.07342, 1.8415, 1.97218, 1.83723, 1.88726, 1.8369, 1.83561, 1.8358, 1.83517, 1.83558, 1.96734, 1.83448, 1.88561, 1.83921, 1.83778, 1.88583, 1.8356, 1.83732, 1.95886, 1.96688, 1.76815, 1.76239, 1.86802, 1.8666, 1.75314, 1.84831, 1.749, 1.74805, 1.7446, 1.74413, 1.74469, 1.86529, 1.86624, 1.74189, 1.86744, 1.73911, 1.79179, 1.79228, 1.78984, 1.74067, 1.73741, 1.73826, 1.73924, 1.78773, 1.80209, 1.86207, 1.7389, 1.73811, 1.87286
1.92086, 1.89543, 1.8909, 1.89199, 1.88911, 2.01302, 1.8861, 2.00315, 1.87998, 1.98684, 1.99087, 1.87524, 1.87326, 1.92094, 1.86709, 1.99023, 1.98859, 1.97411, 1.86395, 2.05902, 1.85872, 1.97328, 1.97384, 1.85315, 1.91713, 1.8555, 1.85323, 1.85757, 1.85936, 2.02841, 1.99551, 2.02446, 1.99053, 1.98534, 1.907, 1.97997, 1.9009, 2.02127, 2.02216, 1.96876, 1.96658, 1.88948, 2.11422, 1.96208, 1.95864, 1.96133, 1.88066, 1.95506, 2.01333, 1.95611, 1.88344, 1.96271, 1.96509, 1.96762, 2.09434, 1.9765, 2.00369, 2.07209, 2.06006, 2.05207, 1.97186, 1.97133, 1.96965, 1.96891, 1.96684, 2.05266, 2.06648, 2.06018, 1.96584, 2.06324, 2.0543, 2.0529, 2.04519, 2.0608, 1.96344, 2.05158, 2.04507, 2.05225, 1.96205, 2.04573, 2.0441, 1.95807, 2.04384, 2.04479, 2.04528, 1.95591, 1.95419, 1.95111, 2.04936, 2.04295, 1.94607, 1.9466, 1.94425, 1.94373, 2.0254, 1.94155, 1.86027, 1.85696, 1.90467, 1.85019, 1.84607, 1.84387, 1.84092, 1.83869, 1.90608, 1.83421, 1.83239, 1.83491, 1.83609, 1.83602, 1.8356, 1.96839, 1.83604, 1.8373, 1.835, 1.83648, 1.83667, 1.8377, 1.94207, 1.83557, 1.86343, 1.76859, 1.75984, 1.86885, 1.75496, 1.80302, 1.80027, 1.80058, 1.74455, 1.74338, 1.85852, 1.85702, 1.74227, 1.86559, 1.85874, 1.8618, 1.79195, 1.85251, 1.79013, 1.73918, 1.73887, 1.73782, 1.7382, 1.86716, 1.73973, 1.73719, 1.73926, 1.74091, 1.86073, 1.74215
1.92178, 1.89354, 1.89019, 1.89094, 1.88668, 1.88697, 1.88312, 1.88683, 1.93442, 1.882, 1.97861, 1.87646, 1.86992, 1.92042, 1.86922, 1.96559, 1.9894, 1.96642, 1.86207, 2.00054, 1.85866, 1.97042, 1.85573, 1.85488, 1.85549, 1.97004, 1.97169, 1.85811, 1.85907, 2.11086, 1.99789, 1.91813, 1.91188, 1.98796, 2.02388, 1.97648, 1.97622, 2.02019, 1.89582, 1.89396, 1.96667, 2.11459, 1.95887, 1.95954, 1.88318, 1.95708, 2.01385, 1.88258, 1.95632, 2.01404, 1.95963, 2.01189, 1.96487, 1.89333, 1.89946, 2.09452, 2.00647, 1.97524, 2.06979, 2.07954, 2.06599, 1.97087, 1.96873, 1.9681, 2.0651, 2.05911, 2.0733, 1.96855, 1.96618, 2.05283, 2.06324, 2.04481, 1.96475, 2.04782, 2.05626, 1.96312, 1.96249, 1.9626, 2.04336, 2.05156, 2.04807, 1.9592, 2.04206, 1.95788, 2.04446, 2.04249, 2.03855, 1.95145, 2.03436, 2.04512, 2.03404, 1.94754, 1.94483, 1.9444, 1.94345, 2.03868, 1.9171, 1.97806, 1.85182, 1.90657, 1.8466, 1.84442, 1.84138, 1.83669, 1.91437, 1.83588, 1.83461, 2.05677, 1.83293, 1.97559, 1.83499, 1.83473, 1.83571, 1.94564, 1.93661, 1.8354, 1.88791, 1.88554, 1.92113, 1.83554, 1.91745, 1.76538, 1.86879, 1.75887, 1.75313, 1.75135, 1.75092, 1.74786, 1.84793, 1.74667, 1.86068, 1.7411, 1.74241, 1.85562, 1.74395, 1.74119, 1.79018, 1.73823, 1.78894, 1.73743, 1.87288, 1.87237, 1.73548, 1.73801, 1.73876, 1.8642, 1.79227, 1.73919, 1.86577, 1.86612
1.90737, 1.89527, 1.89289, 1.89299, 1.89025, 1.88903, 1.8902, 1.88662, 1.88559, 1.93074, 1.87848, 2.07958, 2.00026, 1.87264, 1.86922, 1.86847, 1.86564, 1.86487, 1.94112, 1.86139, 1.85812, 1.85828, 1.85821, 1.85874, 1.91062, 1.85541, 1.85617, 1.85802, 1.8609, 1.92331, 1.99682, 1.99256, 1.91322, 1.9856, 1.91067, 1.9824, 1.97593, 1.97388, 2.11069, 1.89318, 1.89253, 1.96512, 2.02108, 1.88669, 1.88273, 1.95787, 2.01651, 1.88149, 1.88259, 1.88349, 1.96126, 1.96373, 1.88965, 1.96924, 2.00744, 2.09718, 2.00618, 2.06589, 1.9742, 2.06086, 2.07184, 1.971, 1.97006, 1.97038, 1.96933, 2.05588, 2.06675, 2.05812, 2.04406, 2.06118, 2.04824, 2.03906, 2.05299, 2.05309, 2.04624, 2.05659, 2.0624, 2.04623, 2.04327, 1.96129, 2.0426, 1.95954, 2.04609, 2.04183, 1.95567, 2.04569, 2.04404, 2.0457, 2.04136, 2.03128, 2.03893, 1.94805, 1.94523, 1.94247, 2.03858, 2.0442, 1.91712, 1.85768, 1.85278, 1.90677, 1.97155, 1.89334, 1.89101, 1.83944, 1.83573, 1.83384, 1.83402, 1.97057, 1.83365, 1.92718, 1.83352, 1.83397, 1.83242, 1.83444, 1.83428, 1.88924, 1.92832, 1.91956, 1.8366, 1.93122, 1.76603, 1.7623, 1.75897, 1.75589, 1.75375, 1.74843, 1.74984, 1.79802, 1.8618, 1.74488, 1.8597, 1.74214, 1.74035, 1.7427, 1.98545, 1.7408, 1.79073, 1.74062, 1.79042, 1.83758, 1.7373, 1.73727, 1.73584, 1.73702, 1.73492, 1.7352, 1.7372, 1.73723, 1.73788, 1.74064
1.91886, 1.89727, 1.89341, 1.89273, 1.94327, 2.01277, 1.88864, 1.98667, 1.88536, 1.8822, 1.88069, 1.87554, 1.87429, 1.87263, 1.86854, 1.86623, 1.86633, 1.98967, 1.98911, 1.86295, 1.86038, 1.85972, 1.96524, 1.9763, 1.91268, 1.96834, 1.85737, 1.85817, 1.86001, 1.99846, 1.99679, 2.02962, 2.02891, 1.9863, 1.90789, 1.98107, 1.97986, 2.11147, 2.11098, 1.89698, 1.96531, 1.96503, 1.96222, 2.02157, 1.96245, 1.96119, 1.95917, 1.95846, 1.95734, 1.8842, 1.88641, 2.011, 1.96722, 1.9721, 1.90012, 2.09931, 1.98673, 2.07399, 1.97637, 2.07258, 2.05157, 1.97294, 1.9704, 1.97034, 1.96884, 2.05921, 1.96855, 1.96871, 1.96849, 2.05318, 2.05847, 2.04066, 2.05193, 2.04853, 2.04185, 2.05218, 1.96158, 2.05213, 1.96133, 2.04573, 2.045, 1.95973, 1.95858, 2.04987, 2.04638, 2.0449, 2.04844, 2.03749, 1.95118, 2.02454, 2.03243, 1.94494, 1.94496, 1.94437, 2.03901, 1.94109, 1.86197, 1.85991, 1.85273, 1.85074, 1.9076, 1.96805, 1.88967, 1.84027, 2.04941, 1.83573, 1.83583, 1.83577, 1.88374, 1.83353, 1.83388, 1.83309, 1.83239, 1.83546, 1.83358, 1.83319, 1.9262, 1.83378, 1.93726, 1.95535, 1.95606, 1.98889, 1.76116, 1.75592, 1.75259, 1.75052, 1.7479, 1.74484, 1.74241, 1.74168, 1.74104, 1.7407, 1.74128, 1.7395, 1.98397, 1.79172, 1.8036, 1.79624, 1.78936, 1.73796, 1.73721, 1.73828, 1.73751, 1.73772, 1.79197, 1.73762, 1.86739, 1.73915, 1.73832, 1.91403
1.91002, 1.89654, 1.89956, 1.94502, 1.89365, 2.01297, 1.8888, 1.9872, 1.9818, 2.0871, 2.00516, 2.00904, 2.08599, 1.96613, 1.87017, 1.91893, 1.86704, 1.86518, 1.91484, 1.86369, 1.86145, 1.86178, 1.97907, 1.85558, 1.91496, 1.85819, 1.85843, 1.85759, 2.03473, 2.00184, 1.9969, 2.03099, 1.99308, 2.0274, 1.91074, 2.0273, 1.98185, 2.02434, 2.02423, 1.97247, 1.96956, 1.96889, 1.96406, 1.9639, 1.88545, 1.95908, 1.95951, 1.95814, 2.11707, 1.95916, 1.88536, 1.96506, 1.88949, 2.09368, 1.97357, 2.00837, 2.00703, 2.06699, 2.06741, 2.08647, 2.05189, 2.0462, 1.97197, 1.97182, 1.96901, 2.0637, 2.04253, 2.06607, 2.05821, 1.96839, 1.96714, 1.96592, 2.04122, 1.96526, 2.05521, 2.06127, 2.05001, 2.03915, 2.0376, 2.06475, 2.05522, 1.96098, 2.04387, 1.95832, 2.05554, 2.05178, 2.04688, 1.95069, 2.03908, 2.03161, 2.02032, 1.94433, 1.94257, 1.94236, 2.02863, 2.02776, 1.97579, 1.85893, 1.85431, 1.85079, 1.84734, 1.84355, 1.84076, 1.84019, 2.07268, 1.83475, 1.83521, 1.9244, 1.88298, 1.83399, 1.83383, 1.93628, 1.92894, 1.83523, 1.83547, 1.83185, 1.83464, 1.95614, 1.93027, 1.9547, 1.76664, 1.81329, 1.81049, 1.75437, 1.75205, 1.74974, 1.86423, 1.74451, 1.74326, 1.86546, 1.86423, 1.79199, 1.74062, 1.85556, 1.73888, 1.74011, 1.73936, 1.78984, 1.73717, 1.8723, 1.73582, 1.73788, 1.86508, 1.73733, 1.73781, 1.85137, 1.83738, 1.73758, 1.83827, 1.73978
1.91337, 1.89823, 2.00353, 1.94416, 1.89418, 1.89258, 1.8929, 1.88782, 1.88597, 1.883, 1.88382, 1.8775, 1.87512, 2.08439, 2.0001, 1.86952, 1.86706, 1.86618, 1.86486, 1.91457, 1.86195, 1.86091, 1.86149, 1.85943, 1.85947, 1.86005, 1.85899, 2.04187, 1.86085, 2.00291, 2.03498, 1.92014, 2.02924, 1.98973, 1.98575, 1.90974, 2.02738, 1.90206, 1.97565, 2.02353, 2.02544, 1.89251, 1.96378, 2.11821, 2.02085, 1.8839, 1.95811, 2.10195, 1.96047, 1.95757, 2.01651, 1.96287, 2.01313, 2.00852, 1.97558, 1.98382, 2.00714, 1.98035, 2.07293, 2.05369, 1.97493, 1.97323, 1.97094, 1.97238, 2.05088, 2.04468, 2.0553, 2.05996, 2.05706, 1.96814, 1.96805, 2.05218, 2.05898, 2.04812, 2.06785, 1.96323, 1.96394, 2.05325, 2.05745, 2.05579, 2.05725, 1.95917, 2.05548, 2.03219, 2.0317, 2.04478, 2.04219, 2.03488, 2.03548, 1.94881, 1.94546, 1.94486, 1.94407, 1.9435, 1.94215, 2.02094, 1.91522, 1.85765, 1.97178, 1.85158, 1.97304, 1.84456, 2.07979, 1.83878, 1.83772, 1.83495, 1.88549, 1.83139, 1.83375, 1.8341, 1.83522, 1.83326, 1.83216, 1.83137, 1.83419, 1.96122, 1.83283, 1.83046, 1.83192, 1.83188, 1.76484, 1.76156, 1.83761, 1.86894, 1.86653, 1.74743, 1.74583, 1.74658, 1.74131, 1.86852, 1.79203, 1.79008, 1.86017, 1.85235, 1.73943, 1.73854, 1.86482, 1.73691, 1.73776, 1.84745, 1.73678, 1.78878, 1.73672, 1.73539, 1.73886, 1.86929, 1.86499, 1.73479, 1.73778, 1.74097
1.97595, 1.90135, 1.8988, 1.95227, 1.89647, 1.89023, 1.88904, 1.88838, 1.88982, 1.88373, 2.06838, 2.00746, 2.00419, 1.87332, 1.92191, 1.92033, 1.99658, 1.86828, 1.91771, 1.86208, 1.86454, 1.85962, 1.86013, 1.86098, 1.90974, 1.85986, 1.8609, 1.86226, 1.86253, 2.00267, 1.92355, 2.03207, 1.91746, 1.98908, 2.03155, 2.10725, 2.02709, 2.02809, 2.12873, 2.02744, 1.96923, 2.02418, 1.89028, 1.96211, 1.96188, 1.88272, 1.88543, 1.88557, 2.01846, 2.01574, 2.01539, 2.10164, 2.09178, 1.9703, 1.9006, 2.00863, 2.00659, 2.07245, 2.07601, 2.05358, 1.97545, 2.05154, 1.97068, 1.97301, 1.97136, 2.05237, 2.06455, 2.0664, 2.05523, 1.96847, 2.05344, 2.05824, 2.05661, 1.96676, 2.05531, 2.07228, 2.04838, 2.04483, 2.05204, 2.05785, 2.04876, 2.0393, 2.0429, 2.05619, 2.05124, 2.03872, 2.04467, 2.04993, 2.03887, 2.03904, 2.02953, 2.01974, 1.94179, 1.94074, 2.02921, 2.03677, 1.96723, 1.95904, 1.85243, 1.85069, 1.84597, 1.84393, 1.84169, 1.83877, 1.83567, 1.88699, 1.83465, 1.83256, 1.83264, 1.83297, 1.8335, 1.83251, 1.96587, 1.83183, 1.96573, 1.92857, 1.83054, 1.83261, 1.83434, 1.88207, 1.76552, 1.7607, 1.85926, 1.75434, 1.75077, 1.74726, 1.74651, 1.7429, 1.85396, 1.74105, 1.74085, 1.73809, 1.85924, 1.73905, 1.73811, 1.73783, 1.73754, 1.73726, 1.86477, 1.73802, 1.73857, 1.86904, 1.8656, 1.86896, 1.73661, 1.86612, 1.7388, 1.73658, 1.78672, 1.78856
2.04185, 1.95088, 1.89472, 1.89762, 1.89337, 1.8927, 2.01719, 1.88972, 2.01364, 1.93483, 1.88206, 1.87981, 1.87838, 1.87351, 1.99759, 1.92169, 2.07282, 1.86815, 1.86544, 1.98261, 2.06291, 1.86344, 1.86319, 1.9772, 1.97199, 2.04807, 1.85989, 1.86267, 2.16579, 2.00143, 2.00076, 1.99804, 1.99212, 1.9905, 1.98637, 1.98607, 1.9822, 1.97773, 2.10668, 2.11816, 1.97172, 1.96942, 1.88946, 2.02498, 1.88665, 1.88602, 1.96212, 1.88545, 2.02027, 1.88572, 1.96904, 1.96719, 1.96955, 1.97016, 2.01171, 1.98236, 2.00678, 1.98021, 2.07912, 2.07158, 2.0733, 1.9733, 1.973, 1.97165, 2.04805, 2.05668, 2.05652, 2.05672, 1.96924, 1.97041, 1.96868, 1.96809, 2.06267, 1.96588, 2.05527, 2.03942, 2.04119, 2.04056, 2.05076, 1.96146, 2.05478, 1.95874, 2.04868, 2.04895, 2.0423, 2.04861, 2.03612, 2.0321, 2.03432, 2.03825, 1.94587, 1.94539, 1.94177, 1.94063, 1.94159, 1.94156, 1.86031, 1.85737, 1.90446, 1.84918, 1.89899, 1.84376, 1.84173, 1.84018, 1.97423, 1.83571, 1.83422, 1.83446, 1.83213, 1.92595, 1.83335, 2.06034, 1.83119, 1.83148, 1.83115, 1.83357, 1.83229, 1.95564, 1.95698, 2.02498, 1.76158, 1.75922, 1.86121, 1.8609, 1.74847, 1.85452, 1.79904, 1.87217, 1.87048, 1.73896, 1.73851, 1.73839, 1.74031, 1.73836, 1.74117, 1.73793, 1.73913, 1.73777, 1.73643, 1.73734, 1.7349, 1.86832, 1.73553, 1.7367, 1.73674, 1.867, 1.73707, 1.73674, 1.86234, 1.73722
1.93067, 2.00295, 2.02075, 1.89801, 1.89545, 1.89334, 1.89301, 2.01233, 1.93721, 1.88654, 1.88278, 2.07549, 1.92901, 1.87382, 1.99744, 1.86888, 1.92132, 1.918, 1.91717, 1.86529, 2.06203, 1.86154, 1.85967, 1.86049, 1.8615, 1.86154, 1.8601, 1.96667, 1.96213, 2.00178, 1.99827, 2.12099, 2.11385, 1.99226, 1.99069, 2.10759, 1.98248, 1.90349, 2.02879, 2.0271, 2.11025, 1.96966, 1.96595, 1.96656, 1.96455, 1.9637, 2.02196, 1.96235, 1.88584, 1.96077, 1.88924, 1.96679, 1.96883, 1.97504, 1.97775, 1.91055, 2.09405, 2.06702, 2.06608, 2.0635, 2.06902, 1.97296, 1.97283, 1.97326, 1.97246, 2.04493, 1.97042, 2.06437, 2.05342, 1.97056, 2.07086, 1.96826, 2.06135, 2.05961, 2.04058, 2.05514, 1.96181, 2.06179, 2.05112, 2.05505, 2.03653, 2.05474, 2.04937, 2.0487, 2.04802, 1.95162, 2.04832, 2.03901, 2.04513, 2.03525, 2.02456, 2.02185, 1.94216, 1.94077, 1.9413, 2.02754, 1.86345, 1.85883, 1.85817, 1.85047, 1.89804, 1.84249, 1.84176, 1.89096, 1.83565, 1.83583, 1.83469, 1.83544, 1.96463, 1.8326, 2.05783, 1.83204, 1.96338, 1.9267, 1.87973, 1.88064, 1.83176, 1.96173, 1.8302, 1.8305, 1.8344, 1.84847, 1.75464, 1.75063, 1.74793, 1.745, 1.74515, 1.87098, 1.74147, 1.74019, 1.86806, 1.73827, 1.86186, 1.73936, 1.73865, 1.73738, 1.83791, 1.86586, 1.737, 1.86812, 1.7355, 1.73506, 1.86672, 1.73625, 1.73654, 1.73605, 1.73553, 1.86446, 1.85838, 1.74033
1.91286, 2.00365, 1.90185, 2.10072, 1.8969, 1.89666, 1.89316, 1.94127, 1.88888, 1.8864, 1.88538, 1.9345, 1.9281, 1.87677, 1.87306, 1.92225, 1.86975, 1.91782, 1.91745, 1.86646, 1.86349, 1.86339, 1.8638, 1.86269, 1.86236, 1.86136, 1.86198, 2.0448, 1.8651, 2.038, 2.00029, 2.11505, 1.91772, 2.03357, 2.03312, 1.90917, 1.90716, 2.02907, 1.97359, 1.89991, 1.9697, 1.97025, 1.97081, 1.96794, 1.88941, 2.10664, 2.0204, 1.96125, 1.96137, 1.9636, 1.96315, 1.96796, 2.01443, 1.97223, 1.90354, 2.00867, 2.0097, 2.0843, 2.06344, 2.08461, 2.05943, 1.97446, 1.97509, 1.97328, 1.9728, 1.97219, 2.05477, 2.06502, 2.07564, 1.96926, 1.97025, 2.06644, 2.04524, 2.05263, 2.05971, 2.0589, 1.96399, 2.05862, 1.96161, 1.95976, 2.05019, 2.05778, 2.04676, 2.04357, 1.95599, 1.95366, 2.04459, 2.02591, 2.0389, 2.03231, 1.94609, 1.94469, 1.94221, 1.94119, 2.01492, 2.02569, 1.86267, 1.97389, 1.97363, 1.85256, 1.848, 1.89603, 1.84196, 1.89021, 1.83848, 1.83636, 1.83487, 1.83452, 1.83373, 2.05731, 1.83223, 1.83188, 1.83009, 1.93026, 1.83074, 1.946, 1.88032, 1.83026, 1.95227, 1.82999, 1.85823, 1.85106, 1.86073, 1.75219, 1.74912, 1.85841, 1.86775, 1.8676, 1.7408, 1.73921, 1.73809, 1.73891, 1.85682, 1.73638, 1.73802, 1.73484, 1.73743, 1.73554, 1.867, 1.86533, 1.73182, 1.73548, 1.86814, 1.78643, 1.73348, 1.73445, 1.73528, 1.73694, 1.85637, 1.8493
1.91696, 1.90316, 1.90188, 2.02503, 1.89897, 1.8955, 1.89354, 1.95223, 1.88924, 1.88528, 2.08987, 2.00742, 1.8798, 1.87778, 1.87437, 1.87419, 1.86909, 1.86932, 1.96213, 1.9712, 1.86302, 1.91441, 1.95509, 1.86118, 1.86257, 1.86321, 1.86411, 1.96479, 1.86552, 2.0368, 2.03832, 1.99492, 1.99585, 1.99367, 1.91535, 1.98722, 1.90853, 2.0311, 1.97696, 1.97513, 1.97315, 1.97002, 1.89308, 2.02489, 2.11104, 1.96318, 1.96181, 2.10717, 1.96226, 1.9646, 2.02065, 1.96866, 1.97166, 2.11054, 1.90541, 1.9829, 2.01084, 2.07261, 2.07201, 2.0672, 2.07278, 1.97664, 1.97556, 1.97164, 1.97372, 2.05598, 2.06733, 1.97168, 2.0567, 1.96949, 1.97058, 2.05478, 2.04522, 2.05646, 1.96538, 2.04885, 2.05008, 2.06544, 1.96215, 1.95978, 1.95806, 2.0425, 2.05508, 2.04855, 1.95575, 1.95259, 1.95145, 2.03537, 1.94885, 1.94552, 2.02003, 1.9443, 1.94399, 1.94198, 2.02339, 1.94113, 1.91319, 1.90942, 1.85579, 1.85202, 1.89984, 1.89598, 1.84209, 1.84105, 1.84012, 1.83713, 1.83732, 1.83417, 1.83448, 2.06459, 1.83077, 1.83108, 1.96318, 1.83095, 1.82746, 1.82855, 1.87934, 1.83113, 1.93391, 1.82984, 1.81192, 1.75737, 1.75536, 1.7492, 1.86556, 1.74227, 1.83517, 1.86575, 1.73902, 1.86467, 1.73672, 1.78719, 1.73755, 1.73818, 1.73589, 1.86654, 1.73446, 1.73717, 1.73548, 1.73508, 1.73483, 1.7337, 1.86666, 1.73449, 1.84621, 1.73466, 1.87618, 1.73708, 1.73413, 1.73491
1.92986, 2.00376, 2.00627, 2.0259, 1.90059, 2.02312, 2.01831, 1.94264, 1.89052, 1.88929, 2.01443, 1.88286, 1.87907, 2.0042, 1.87665, 1.87307, 1.86997, 1.86917, 1.86681, 1.97177, 1.93205, 1.86444, 1.91381, 1.86265, 1.9132, 1.86452, 1.86552, 1.86461, 2.04166, 2.0412, 1.99963, 1.99779, 2.03524, 1.99372, 1.99182, 1.98946, 1.90709, 2.11052, 1.90056, 1.97391, 1.97288, 1.9739, 1.97287, 2.02757, 1.88966, 1.96201, 2.1108, 1.88684, 1.96561, 1.96313, 1.88959, 2.01707, 1.97099, 2.01647, 1.97625, 2.01088, 2.09312, 2.07302, 2.07196, 2.07586, 2.06918, 1.97831, 1.97448, 1.9737, 2.06256, 1.97169, 2.05934, 2.07181, 2.06584, 1.97095, 2.06332, 2.05273, 2.05241, 2.05576, 2.06592, 2.05336, 2.05379, 2.06561, 2.0584, 2.04754, 2.04759, 2.05267, 1.95792, 2.04232, 2.03656, 1.95203, 2.05167, 2.03945, 1.94797, 2.03803, 2.04197, 1.94424, 1.94406, 1.94171, 1.94224, 1.94035, 1.86239, 1.8599, 1.85833, 1.85192, 1.96974, 1.84491, 1.84174, 1.84037, 1.83925, 1.8377, 1.83674, 1.93269, 1.8833, 1.83153, 1.96506, 1.83094, 1.8318, 1.82987, 1.94642, 1.82849, 1.87913, 2.03982, 1.83001, 1.87856, 1.81135, 1.75586, 1.80112, 1.74873, 1.86551, 1.74402, 1.74139, 1.73861, 1.73911, 1.73788, 1.86357, 1.86184, 1.87122, 1.73566, 1.73426, 1.73387, 1.73563, 1.86231, 1.7856, 1.73516, 1.73593, 1.73456, 1.73304, 1.73401, 1.73514, 1.73491, 1.73412, 1.86107, 1.8486, 1.7834
1.93483, 1.90548, 1.90327, 1.90128, 1.89921, 1.89822, 2.10138, 2.0187, 2.01553, 1.88939, 1.88671, 2.00956, 1.88121, 1.87957, 1.87491, 1.92378, 1.87193, 1.87158, 1.86876, 1.98943, 1.86688, 1.86636, 1.86597, 1.86586, 1.8646, 1.8641, 1.866, 1.86471, 1.86711, 2.03873, 2.03954, 1.99856, 1.99706, 1.99392, 1.91726, 1.987, 1.98425, 1.98086, 2.03202, 1.9764, 2.0309, 1.9715, 2.02911, 1.89067, 1.89069, 1.96628, 1.96298, 1.96302, 1.96524, 1.96714, 2.01738, 1.9677, 1.972, 1.97272, 1.90382, 1.90634, 2.11497, 2.07852, 2.07417, 1.98004, 1.97906, 1.97636, 1.97627, 1.97555, 1.97388, 2.06613, 2.0617, 1.97354, 2.05668, 2.06654, 2.0662, 2.0623, 2.05906, 2.0556, 1.96686, 2.06576, 2.05868, 2.05868, 2.05118, 2.05457, 1.95962, 2.04313, 2.04201, 2.03744, 2.03829, 2.03442, 2.04345, 2.04418, 1.94896, 2.02392, 2.02012, 2.02231, 1.94259, 1.94457, 2.03773, 2.02567, 1.95896, 1.8603, 1.85692, 1.8514, 1.94121, 1.84641, 1.97111, 1.84065, 1.83871, 1.83763, 1.83472, 1.83307, 1.83359, 1.83046, 1.92483, 1.96323, 1.92888, 1.9269, 1.82852, 1.87751, 1.82594, 1.82785, 1.82839, 1.82728, 1.75834, 1.87556, 1.74894, 1.86277, 1.96611, 1.74282, 1.74167, 1.86902, 1.73812, 1.73578, 1.73617, 1.73505, 1.87063, 1.73239, 1.78518, 1.73472, 1.73486, 1.73474, 1.78426, 1.78406, 1.86474, 1.82847, 1.73209, 1.73644, 1.7338, 1.78527, 1.73146, 1.85914, 1.73408, 1.73405
1.91681, 1.9058, 1.95366, 1.96123, 1.89846, 1.89678, 1.89522, 1.89366, 1.89213, 1.88767, 1.93762, 1.88462, 2.0044, 1.87899, 2.0643, 1.92421, 2.06523, 1.92094, 1.86702, 1.86804, 1.86634, 2.06183, 1.86677, 1.86343, 1.86427, 1.86572, 1.86562, 1.86481, 1.86516, 2.00477, 2.12378, 2.00145, 2.03757, 2.03748, 2.03718, 1.98829, 1.98494, 1.98137, 1.90439, 1.97735, 1.97176, 2.03004, 1.9705, 1.89333, 1.96531, 2.12163, 1.96377, 1.96532, 1.96469, 2.02166, 1.96597, 1.89258, 1.97096, 1.97249, 1.90288, 1.91071, 2.11736, 2.05826, 2.07708, 1.98088, 1.98005, 2.05336, 1.9757, 1.97815, 1.97391, 1.97323, 2.05869, 2.06989, 2.08271, 2.06483, 2.06935, 2.04659, 1.96909, 1.96804, 2.06206, 2.05117, 2.05601, 1.96207, 2.05107, 2.04735, 2.04222, 2.04465, 2.04634, 2.04445, 1.95395, 1.95182, 1.95096, 2.03201, 2.03479, 2.03168, 2.03115, 2.01815, 1.94096, 1.94201, 1.94093, 2.02193, 1.91683, 1.86112, 1.85779, 1.85445, 1.84958, 1.84677, 1.84515, 1.89408, 2.0491, 2.04948, 1.83552, 1.83575, 1.83395, 1.83032, 1.96458, 1.82944, 1.83019, 1.82738, 1.83106, 1.96274, 1.95859, 2.05004, 1.82521, 1.94856, 1.75595, 1.75438, 1.79953, 1.85388, 1.74394, 1.86738, 1.7408, 1.73771, 1.85866, 1.78537, 1.85801, 1.73584, 1.73421, 1.73281, 1.73098, 1.73236, 1.7928, 1.78946, 1.78235, 1.7829, 1.73399, 1.7342, 1.78383, 1.84907, 1.73148, 1.73126, 1.73134, 1.86467, 1.86852, 1.86055
1.93183, 1.90509, 1.99994, 1.90283, 2.01774, 2.10037, 1.94513, 1.9446, 1.94134, 1.89194, 1.93743, 2.01012, 1.88302, 2.08991, 1.92854, 1.87596, 1.92268, 1.87036, 2.07158, 1.86886, 1.86831, 2.08432, 1.86703, 1.86679, 2.08203, 1.86503, 1.91522, 1.86818, 1.96553, 2.00941, 1.9272, 1.99934, 1.92077, 1.91963, 1.91758, 2.03651, 1.98576, 2.1254, 1.97884, 2.03353, 2.11547, 2.11028, 1.96855, 1.96932, 2.10419, 2.0279, 1.96397, 1.96589, 1.96328, 1.96416, 2.09809, 1.89358, 1.97293, 1.97573, 1.9052, 2.01057, 2.01172, 2.08655, 2.09038, 2.06887, 1.97888, 2.05535, 1.97548, 1.97565, 1.97416, 2.05859, 2.07648, 1.97363, 2.05906, 1.9727, 2.07209, 2.04608, 2.0622, 2.07284, 2.04531, 1.96524, 2.05752, 2.06602, 2.04902, 2.0528, 1.96002, 2.04947, 2.04394, 2.04774, 2.0436, 2.03779, 2.03282, 2.03943, 2.0241, 1.94533, 1.94441, 2.01829, 2.02211, 2.02041, 1.94052, 1.93878, 1.96982, 1.91161, 1.85785, 1.855, 1.84871, 1.84728, 1.89416, 1.89107, 1.83997, 1.84019, 1.83502, 1.833, 1.83238, 1.8334, 2.05458, 1.92391, 1.8294, 1.82801, 1.82785, 1.82796, 1.82669, 1.8263, 1.82649, 1.8273, 1.7578, 1.75224, 1.7504, 1.74776, 1.74332, 1.8687, 1.84838, 1.86104, 1.73596, 1.73462, 1.73391, 1.8637, 1.83397, 1.85884, 1.72899, 1.86281, 1.79144, 1.73121, 1.7334, 1.7318, 1.73122, 1.85345, 1.73082, 1.73101, 1.84814, 1.73065, 1.86199, 1.84932, 1.7319, 1.85888
1.93546, 1.90627, 1.90375, 1.95275, 2.0165, 2.03484, 2.01806, 1.89307, 1.89254, 1.89015, 1.88965, 1.88803, 1.88258, 1.88004, 1.87845, 1.87515, 1.92413, 2.07597, 1.87123, 1.86906, 1.86926, 1.86904, 1.86594, 1.91703, 1.86726, 1.97432, 1.95486, 1.91792, 1.86988, 2.04481, 2.00434, 2.00634, 1.99962, 1.99701, 1.99375, 1.98998, 2.13498, 2.03552, 2.11057, 1.97883, 2.12448, 1.97403, 2.10734, 1.96933, 2.02956, 1.96638, 1.96718, 1.96404, 1.96278, 2.02036, 1.9655, 1.89459, 1.97286, 1.90208, 1.90458, 1.98168, 2.11427, 2.08021, 1.98268, 2.07391, 1.98031, 1.97797, 1.97756, 1.97598, 2.07761, 1.97552, 2.06327, 2.07347, 2.04667, 2.06681, 2.06334, 2.05581, 2.05592, 2.05243, 2.05322, 2.05617, 2.05038, 2.04853, 2.05253, 2.05197, 2.05274, 1.958, 2.03961, 2.04526, 2.04557, 2.04028, 2.04496, 2.04086, 2.04213, 2.02306, 1.94475, 1.94292, 1.94149, 1.94049, 2.035, 2.02203, 1.97062, 1.97207, 1.85812, 1.96861, 1.91666, 1.84913, 1.95434, 1.89219, 1.88936, 1.93454, 1.83695, 1.8346, 1.83172, 1.8338, 2.04923, 1.8291, 1.83001, 2.0419, 1.82768, 1.92062, 1.82686, 1.95752, 1.82755, 1.82639, 1.91159, 1.91552, 1.74841, 1.74383, 1.74386, 1.7392, 1.73794, 1.73576, 1.73182, 1.86258, 1.73366, 1.7328, 1.73422, 1.86179, 1.72846, 1.73137, 1.7294, 1.73047, 1.84745, 1.7823, 1.8424, 1.86036, 1.73042, 1.73335, 1.86483, 1.73087, 1.85889, 1.86529, 1.73028, 1.86107
1.98177, 1.97527, 1.90363, 2.00621, 1.9031, 1.94959, 1.94828, 1.94761, 1.89306, 2.08997, 1.88933, 2.08719, 2.01056, 1.8825, 1.94179, 1.99558, 1.87532, 1.87452, 2.0762, 1.86934, 1.86886, 2.06359, 1.91792, 1.9169, 1.91664, 1.86691, 1.96988, 1.86835, 1.9196, 2.04689, 1.92821, 2.0399, 2.00114, 1.99633, 1.99437, 1.99212, 2.03651, 2.11393, 1.98071, 1.98038, 2.03136, 1.97259, 1.97003, 1.96916, 2.03087, 2.10774, 2.02801, 1.887, 1.96903, 1.88941, 2.02223, 1.9699, 1.97338, 1.97458, 2.01692, 2.10445, 2.01378, 2.0865, 2.06, 2.07089, 2.06698, 1.97744, 1.97664, 1.97561, 1.97368, 2.05938, 2.04924, 2.05574, 2.04731, 2.06205, 2.06576, 2.06909, 2.06199, 1.96846, 2.05483, 2.05286, 2.06557, 2.05589, 2.04597, 2.04391, 2.05498, 2.04499, 2.04564, 2.04275, 2.03803, 2.03647, 2.04196, 1.94632, 1.94462, 2.02185, 2.02109, 1.94226, 1.94207, 1.94117, 1.93898, 2.02866, 1.86727, 1.86244, 1.85672, 1.85484, 1.85156, 1.84749, 1.95506, 1.95441, 1.8405, 1.88871, 1.83756, 1.83488, 1.88275, 1.83175, 1.83036, 1.96369, 1.82901, 1.82855, 1.82916, 1.82699, 1.82685, 1.9592, 2.02178, 1.82564, 1.75631, 1.86022, 1.7486, 1.74444, 1.79242, 1.7896, 1.81948, 1.73468, 1.73628, 1.73406, 1.73368, 1.73198, 1.73075, 1.72994, 1.73056, 1.73067, 1.86451, 1.73212, 1.86037, 1.72931, 1.7324, 1.73143, 1.73143, 1.86305, 1.86275, 1.73239, 1.73107, 1.72756, 1.72971, 1.73369
1.93185, 1.90727, 1.90312, 1.9017, 2.01159, 1.94983, 2.02686, 2.00713, 1.94474, 1.94124, 1.88958, 1.88972, 2.10311, 1.8822, 1.87795, 1.87702, 2.08032, 1.87117, 1.87063, 1.87009, 1.86766, 1.99015, 1.91844, 1.86876, 1.9166, 1.97421, 1.95917, 1.95793, 1.87004, 1.93373, 2.008, 1.92621, 2.00359, 1.92125, 1.99423, 2.03889, 2.03843, 1.98472, 2.03536, 1.98077, 2.03358, 1.97267, 1.97248, 2.03007, 1.96711, 1.96549, 2.11816, 1.96589, 1.96824, 1.88902, 1.96614, 1.89254, 1.89597, 1.90307, 1.90661, 2.0143, 1.99094, 2.08967, 2.07346, 2.08232, 2.05604, 1.97896, 1.97726, 1.97854, 2.0686, 2.06061, 2.05048, 2.08622, 2.04705, 2.081, 1.97263, 2.0546, 1.97019, 1.96915, 2.04252, 2.06156, 2.04125, 2.0492, 1.96214, 2.04352, 2.05177, 2.04483, 2.03647, 2.04033, 1.95474, 2.03794, 1.95123, 2.03774, 2.04216, 1.94503, 1.94312, 1.943, 1.94204, 1.94154, 1.93986, 2.01755, 1.86814, 1.86283, 1.85698, 1.85535, 1.90154, 1.85096, 1.96836, 1.84134, 1.84063, 1.83951, 1.83694, 1.83422, 1.88514, 1.88231, 1.83047, 1.82829, 1.82728, 1.82726, 1.82681, 2.05252, 1.82739, 1.826, 1.93076, 1.82701, 1.75469, 1.8031, 1.74706, 1.74614, 1.79256, 1.73938, 1.73729, 1.73275, 1.73329, 1.83714, 1.72999, 1.73106, 1.86289, 1.7282, 1.72876, 1.72961, 1.73037, 1.86475, 1.72842, 1.73096, 1.83719, 1.73209, 1.73025, 1.73097, 1.86174, 1.72752, 1.73051, 1.73176, 1.72763, 1.73087
1.92075, 1.90652, 2.10284, 2.03167, 2.02182, 1.95089, 1.89723, 1.89608, 1.94459, 1.89247, 1.93869, 1.88676, 1.88352, 1.8829, 1.88289, 1.87887, 2.00237, 2.00223, 1.87059, 1.87185, 1.86803, 1.86982, 1.91734, 1.9176, 1.86798, 2.06194, 1.86803, 1.95747, 1.96604, 2.0087, 2.01081, 1.92582, 2.11812, 1.99605, 1.99295, 1.99387, 1.9882, 1.98426, 1.90728, 1.97959, 2.03444, 1.97344, 1.89687, 2.03063, 2.03095, 1.96909, 2.03039, 1.96509, 1.96563, 1.88895, 1.89251, 1.96998, 1.97239, 1.97602, 1.98121, 1.9866, 2.11064, 2.0844, 2.08289, 2.07816, 2.05502, 1.97854, 1.9787, 1.97685, 1.97553, 1.97565, 2.06318, 2.06997, 2.06208, 2.06128, 2.05482, 2.06673, 2.0425, 2.05485, 2.05395, 2.05908, 2.04104, 2.03913, 1.96372, 1.96212, 1.95968, 2.05518, 2.05269, 2.04387, 2.04002, 1.95329, 1.9506, 2.03281, 2.03574, 2.03493, 2.04792, 1.94244, 1.9414, 1.93813, 2.02767, 2.01347, 1.86581, 1.86018, 1.91562, 1.90437, 1.84882, 1.84712, 1.84493, 1.84179, 1.84063, 1.83869, 1.96901, 1.83141, 1.83077, 1.83274, 1.83104, 1.90379, 1.82665, 1.96035, 1.82755, 1.82828, 1.82702, 1.8758, 1.8762, 1.83001, 1.80737, 1.86318, 1.74576, 1.74193, 1.73987, 1.7394, 1.91394, 1.91337, 1.73466, 1.86122, 1.73166, 1.72993, 1.73025, 1.72874, 1.8624, 1.728, 1.86672, 1.72794, 1.72704, 1.72934, 1.72713, 1.72533, 1.73023, 1.7292, 1.86265, 1.86362, 1.72968, 1.72782, 1.8611, 1.72722
1.93361, 1.90859, 1.90587, 2.03082, 1.9011, 1.90257, 1.95035, 2.00433, 1.98349, 1.89032, 1.93938, 2.08967, 2.01349, 1.88344, 2.01015, 1.98679, 1.98756, 2.00007, 1.87251, 1.872, 1.86917, 1.8684, 1.86764, 1.9174, 1.98011, 1.86981, 1.86736, 1.87089, 1.8707, 1.93441, 1.92842, 2.04446, 2.00142, 2.00077, 1.99301, 1.91497, 2.03875, 1.98518, 2.13256, 1.97998, 2.13177, 1.97329, 2.03439, 1.96881, 1.96689, 1.96818, 1.96582, 1.96601, 2.10132, 2.10668, 1.96819, 1.96965, 1.89636, 1.89963, 1.90347, 2.1014, 2.1069, 2.06421, 2.06372, 2.05896, 2.05618, 2.05787, 1.97701, 1.97573, 1.97412, 2.05213, 1.97519, 2.06221, 2.07082, 2.05965, 2.06971, 2.04598, 1.97113, 1.9695, 2.0573, 2.06216, 1.96534, 2.04628, 2.06295, 2.04466, 2.04465, 1.95988, 2.03949, 2.03925, 2.04, 1.95346, 2.0339, 2.04491, 2.03936, 2.02904, 2.02548, 1.94256, 1.94107, 1.94076, 2.03165, 2.03431, 1.86516, 1.86163, 1.97272, 1.85586, 1.84955, 1.97027, 2.06192, 1.84185, 1.96944, 1.96208, 1.8371, 1.83499, 1.96392, 1.83298, 1.83081, 1.82681, 1.87853, 1.82639, 1.8267, 1.82431, 1.93611, 1.87478, 1.87555, 1.82316, 1.75191, 1.74833, 1.85987, 1.74359, 1.74102, 1.85941, 1.73432, 1.73456, 1.73104, 1.85863, 1.72998, 1.85355, 1.72783, 1.72758, 1.72792, 1.72852, 1.86228, 1.72667, 1.72829, 1.72655, 1.863, 1.86244, 1.72794, 1.72843, 1.72839, 1.72696, 1.72424, 1.86829, 1.72873, 1.72821
1.91922, 1.90835, 1.90657, 1.90321, 1.90621, 1.9514, 1.90023, 2.00395, 2.00592, 2.00158, 1.8878, 1.88808, 1.88643, 1.88465, 1.88346, 1.99251, 1.87676, 1.87294, 1.86977, 1.99649, 1.86886, 1.867, 1.98116, 1.9189, 1.86967, 1.86945, 1.8679, 1.87154, 1.86933, 2.01343, 2.00788, 2.00777, 2.00199, 2.04374, 1.99546, 1.99301, 2.03946, 1.98654, 2.04127, 1.90481, 2.11124, 1.89812, 1.89834, 1.89328, 1.89455, 1.96682, 1.96633, 1.88954, 1.88976, 1.96678, 1.892, 1.97204, 1.97341, 1.97797, 2.01742, 2.01518, 2.01415, 2.06408, 2.05987, 2.08604, 2.07285, 2.05662, 1.97666, 1.97697, 1.97678, 2.0603, 2.07146, 2.062, 2.07074, 2.06035, 2.0563, 2.04578, 2.06552, 2.05587, 2.05618, 1.96655, 2.05821, 2.03892, 1.96329, 1.96174, 2.04509, 2.05202, 2.04817, 2.04073, 2.0493, 2.0381, 2.03836, 2.03195, 2.04354, 2.03562, 2.03187, 1.94282, 1.94148, 1.93971, 2.02045, 2.04895, 1.8646, 1.86238, 1.96932, 1.8548, 1.84919, 1.96858, 1.84495, 2.0545, 1.83936, 1.83786, 1.88657, 1.88548, 1.83315, 1.92131, 1.95893, 1.82876, 1.87866, 1.87649, 1.96173, 1.82621, 1.82353, 1.95825, 1.93068, 1.82392, 1.7537, 1.79937, 1.74503, 1.84501, 1.85738, 1.739, 1.73525, 1.84081, 1.84819, 1.78068, 1.72853, 1.85829, 1.72836, 1.72701, 1.72592, 1.72895, 1.72558, 1.72754, 1.86576, 1.84488, 1.72502, 1.77865, 1.84791, 1.77842, 1.83167, 1.72724, 1.72607, 1.72675, 1.72687, 1.72894
1.93378, 1.90888, 2.03063, 2.03211, 2.10839, 1.90152, 2.10669, 1.9479, 1.94585, 1.94329, 1.89272, 1.88882, 1.88734, 1.97357, 1.93453, 1.87933, 1.92728, 1.92464, 1.92338, 1.8717, 1.92066, 1.86888, 1.99306, 1.9209, 1.98287, 1.86855, 1.87018, 1.86864, 1.87227, 2.01122, 2.00741, 2.0456, 2.0462, 2.00347, 1.99453, 2.13931, 2.04079, 1.91088, 1.98324, 2.11737, 1.97588, 1.97565, 2.03508, 2.03413, 1.89312, 2.03127, 1.89163, 1.96488, 1.89031, 1.96676, 2.02506, 1.96841, 1.9731, 1.97587, 2.01872, 2.11769, 1.99026, 2.07661, 2.06963, 2.07173, 1.98209, 1.9792, 2.05663, 1.97701, 1.9759, 2.06704, 1.97512, 2.06711, 2.07456, 2.06877, 2.06909, 2.06215, 2.05624, 2.05867, 2.0521, 2.04248, 2.05336, 1.96523, 1.96472, 2.0507, 1.95981, 2.0483, 2.04314, 2.04872, 2.0521, 2.05225, 1.95177, 2.04127, 2.03542, 2.04202, 2.0177, 1.94189, 1.94044, 1.93929, 2.01749, 2.02924, 1.86599, 1.86112, 1.8585, 1.85314, 2.06624, 1.84567, 2.05874, 1.84213, 1.83763, 1.83582, 1.94545, 1.83348, 1.83141, 1.83083, 1.8299, 1.82857, 1.82638, 1.8244, 1.82514, 1.82379, 1.8235, 1.82323, 2.05529, 1.9233, 1.85099, 1.87092, 1.74425, 1.74175, 1.85838, 1.85876, 1.78355, 1.84238, 1.73028, 1.77934, 1.72694, 1.72653, 1.86129, 1.72523, 1.77578, 1.77503, 1.79336, 1.86142, 1.72386, 1.72788, 1.72723, 1.72496, 1.77788, 1.84725, 1.72565, 1.72682, 1.85982, 1.72862, 1.7274, 1.72584
1.934, 2.03203, 1.90831, 1.9558, 2.03038, 1.89936, 1.94951, 1.89661, 1.89546, 1.89361, 1.8916, 2.01606, 1.9397, 1.88544, 1.88448, 1.93117, 1.92843, 1.96272, 1.92385, 1.87199, 1.9213, 1.869, 1.87059, 1.92064, 2.06593, 2.06027, 1.96517, 1.92241, 1.87192, 2.01157, 1.93077, 2.00632, 2.00315, 1.92355, 1.99803, 2.04482, 2.04101, 1.98746, 1.98084, 1.90522, 1.90298, 2.03605, 1.89781, 1.97277, 1.97164, 1.96871, 2.02851, 1.96616, 1.96648, 1.96814, 1.96845, 1.9688, 1.89722, 2.02029, 1.98545, 2.02027, 2.10738, 2.08997, 2.06239, 2.06887, 1.98207, 1.97956, 1.97773, 1.97612, 1.97654, 1.97599, 2.0715, 2.06555, 2.06326, 2.06789, 2.05879, 2.06528, 2.04503, 1.97074, 2.04804, 2.07349, 1.96658, 2.05753, 2.05226, 2.05754, 2.04948, 2.05459, 2.05575, 2.06266, 1.95595, 2.0518, 2.0452, 2.03871, 2.02251, 2.04168, 2.02142, 1.94311, 2.0172, 1.94107, 2.01651, 2.02793, 1.91511, 1.8615, 1.85884, 1.85207, 1.84768, 1.84765, 1.84303, 1.94101, 1.83984, 1.83649, 1.94543, 1.83241, 1.83253, 1.82986, 1.82963, 2.03981, 1.93458, 1.82695, 1.87557, 1.82723, 1.82375, 1.87193, 1.87398, 1.87302, 1.80068, 1.74493, 1.79505, 1.74041, 1.86461, 1.90958, 1.73406, 1.7301, 1.86231, 1.86506, 1.86317, 1.72471, 1.72443, 1.77571, 1.77655, 1.77624, 1.77299, 1.79488, 1.86005, 1.86168, 1.82727, 1.78899, 1.72409, 1.72664, 1.72441, 1.72604, 1.72202, 1.85791, 1.73032, 1.72733
1.93526, 1.95923, 1.95673, 1.9568, 1.95484, 1.99493, 1.99294, 1.89752, 1.89682, 1.89407, 1.89025, 2.01481, 1.93773, 1.88696, 2.00596, 1.88024, 1.87896, 1.87628, 1.92502, 1.92174, 1.9216, 1.97747, 1.87076, 1.97063, 1.87065, 1.8689, 1.87048, 1.87204, 1.87114, 2.01208, 2.01066, 1.92795, 2.04632, 1.92168, 2.0454, 1.99339, 1.98917, 1.91091, 1.98478, 1.98255, 1.97984, 2.03619, 1.97434, 2.03394, 1.9718, 1.96846, 1.96582, 1.9669, 1.96597, 2.02554, 2.02328, 1.97262, 1.97325, 1.97636, 1.9863, 2.01645, 2.01328, 2.0767, 2.08628, 2.07276, 2.07246, 2.05606, 1.97994, 1.974, 2.06353, 2.05962, 2.05872, 2.06815, 2.06229, 2.08296, 1.97335, 2.05991, 2.04545, 2.06575, 2.06379, 1.96551, 1.96632, 1.96552, 2.05077, 1.96187, 1.962, 2.06079, 2.03908, 2.04319, 2.04205, 1.95477, 1.95147, 2.0274, 2.03126, 2.02048, 2.02159, 2.02457, 2.01502, 1.94157, 1.94021, 1.93937, 1.95678, 1.86069, 1.85822, 1.85429, 1.85152, 1.84741, 1.89433, 1.89301, 1.9474, 1.8872, 1.83795, 1.8318, 1.83106, 1.82897, 1.82802, 1.82901, 1.82682, 1.82197, 1.82365, 1.82564, 1.87309, 1.82188, 1.82319, 1.80236, 1.79917, 1.85556, 1.85775, 1.85898, 1.737, 1.73389, 1.73048, 1.72796, 1.85772, 1.86505, 1.86135, 1.72364, 1.72488, 1.72361, 1.72413, 1.72386, 1.72366, 1.72336, 1.86004, 1.72158, 1.72425, 1.72396, 1.84211, 1.84097, 1.77503, 1.83049, 1.72581, 1.72668, 1.85833, 1.72822
1.93253, 1.96067, 1.90858, 1.90668, 1.95514, 1.90437, 1.94959, 1.8969, 1.89699, 1.89557, 2.01343, 2.01513, 1.88972, 1.88869, 1.88399, 1.8836, 1.88052, 1.87876, 2.00018, 1.98265, 1.92096, 1.92274, 1.98716, 1.86921, 1.92213, 1.86828, 2.05221, 1.92108, 1.87265, 2.12855, 2.00915, 2.00708, 2.00575, 2.12453, 2.04583, 1.99565, 1.98995, 2.13824, 1.98657, 1.98025, 2.03812, 1.90102, 2.03801, 1.96968, 1.96984, 1.96917, 1.97117, 1.89149, 1.89191, 1.96893, 1.96892, 1.89358, 2.10483, 1.90347, 2.01824, 2.01866, 2.01883, 2.07277, 1.98441, 2.07346, 2.06191, 1.98035, 1.97915, 1.9774, 2.06214, 2.07597, 1.9758, 2.07125, 2.06557, 2.05714, 2.05814, 2.05418, 2.05904, 1.97104, 1.96934, 2.06123, 1.96651, 2.04582, 2.05282, 1.96287, 2.04834, 1.95887, 1.95978, 2.04425, 1.95711, 1.95408, 2.04142, 2.02712, 2.03917, 2.02405, 2.01758, 2.02277, 2.02133, 1.941, 1.93962, 2.0133, 1.91351, 1.85898, 1.96986, 1.8521, 1.97387, 1.84641, 1.89448, 1.84035, 1.94674, 1.83709, 1.88536, 1.83366, 1.90046, 1.83046, 1.82797, 1.82662, 1.82774, 1.82412, 1.95962, 1.8237, 1.9576, 1.82055, 1.91449, 1.95233, 1.855, 1.90953, 1.7392, 1.85714, 1.73472, 1.73267, 1.7301, 1.85947, 1.85761, 1.72424, 1.86126, 1.84545, 1.85904, 1.86147, 1.72307, 1.72237, 1.85987, 1.72207, 1.85831, 1.86094, 1.72392, 1.72285, 1.72342, 1.77522, 1.77515, 1.72429, 1.72734, 1.725, 1.72375, 1.7266
2.03436, 1.90878, 1.90673, 1.9082, 1.95542, 1.90237, 1.94988, 1.94812, 1.94777, 1.94525, 1.94461, 1.89288, 1.8902, 1.88707, 2.00763, 1.88259, 1.88167, 1.87835, 1.87383, 1.87273, 1.87041, 2.07195, 1.92198, 1.87027, 1.87165, 1.87114, 1.97959, 1.87152, 1.87336, 2.01354, 2.05566, 1.93137, 2.00399, 2.00204, 1.99754, 1.99477, 1.99238, 1.99035, 2.12555, 1.90684, 1.97974, 1.97961, 1.977, 1.9694, 1.96936, 1.89384, 1.96853, 1.89205, 1.96721, 1.96882, 1.96943, 1.96933, 1.97225, 1.90256, 1.90735, 2.01817, 2.11498, 1.98711, 1.98593, 2.07072, 2.06158, 1.97917, 1.97879, 1.97676, 1.97581, 2.0664, 2.04869, 2.0668, 2.06596, 2.06, 1.97267, 2.07978, 1.97029, 2.05551, 1.9688, 2.06159, 2.05904, 2.05425, 2.05973, 2.04488, 2.05183, 2.04215, 2.04557, 2.04188, 2.04967, 2.04863, 2.02782, 2.03368, 2.02208, 2.04447, 2.01763, 1.94339, 1.94374, 1.94157, 1.93981, 2.03226, 1.99335, 1.85995, 1.9667, 1.90345, 1.84865, 1.84699, 1.84448, 1.84155, 1.83862, 2.05516, 1.83641, 1.83093, 1.82964, 1.82876, 1.83027, 1.82567, 1.82528, 1.93147, 1.92911, 1.82335, 1.82269, 1.95893, 1.82052, 1.82215, 1.85544, 1.74376, 1.73951, 1.84005, 1.73705, 1.7324, 1.72858, 1.72769, 1.72788, 1.85571, 1.72422, 1.72229, 1.85296, 1.72321, 1.72016, 1.72099, 1.72002, 1.72076, 1.7201, 1.72032, 1.72281, 1.72344, 1.85911, 1.72719, 1.72406, 1.72545, 1.72385, 1.85185, 1.72701, 1.72634
1.92137, 1.96207, 1.95933, 1.90525, 1.95635, 1.90147, 1.90197, 1.94957, 2.09023, 1.94453, 1.89314, 1.94254, 1.9793, 1.88927, 2.00667, 2.00674, 2.00965, 1.92846, 1.87491, 1.87292, 1.99745, 1.87259, 1.92116, 1.87035, 1.87039, 1.98116, 1.8722, 1.96333, 1.87343, 2.14211, 2.12998, 2.00506, 2.00611, 2.04801, 1.99407, 1.99343, 2.04326, 1.99269, 2.04114, 1.98193, 1.97942, 1.90043, 1.89917, 1.97211, 2.03282, 2.03179, 1.89266, 2.02965, 2.12437, 1.89233, 1.96884, 1.9694, 2.02167, 2.02311, 1.98303, 1.91393, 2.11, 2.06321, 2.08689, 2.06551, 2.07477, 1.9816, 1.97818, 1.97654, 2.06385, 1.97676, 2.05234, 1.9759, 2.04845, 1.97544, 1.97436, 1.97342, 1.97222, 1.97033, 1.9684, 2.0545, 2.05186, 2.0515, 2.05521, 1.9621, 2.05353, 2.05092, 2.04359, 2.03592, 2.04237, 2.04558, 1.95216, 2.0417, 1.94803, 2.03136, 1.94447, 1.94317, 1.94069, 2.0176, 2.02825, 1.94066, 1.86326, 1.85839, 1.85676, 1.90276, 1.90938, 1.84524, 1.84411, 1.96687, 1.96829, 1.93398, 1.83384, 1.83263, 1.83075, 1.83062, 1.92774, 1.87615, 1.82717, 1.82562, 1.9591, 1.82333, 1.82017, 1.82309, 1.82081, 1.93088, 1.74602, 1.83478, 1.73793, 1.73697, 1.85937, 1.73163, 1.72843, 1.85496, 1.83753, 1.86082, 1.8588, 1.77438, 1.82798, 1.86136, 1.86165, 1.71841, 1.85959, 1.72103, 1.72209, 1.72149, 1.85818, 1.7201, 1.72309, 1.85569, 1.85532, 1.85368, 1.83818, 1.72578, 1.72544, 1.72878
1.93628, 1.90965, 1.90678, 1.90837, 2.02993, 1.90499, 1.89809, 1.90003, 2.01764, 1.89573, 1.94392, 1.89268, 1.99961, 1.97022, 2.00725, 1.8844, 1.87989, 1.92859, 1.92602, 1.87295, 1.87296, 1.92099, 1.9834, 1.98267, 1.97752, 1.92151, 1.86918, 1.87221, 1.8735, 1.93885, 2.01015, 2.0522, 1.92904, 2.00407, 2.04568, 1.99608, 1.99134, 1.91213, 1.98491, 1.98326, 1.97953, 1.9786, 1.97562, 2.03515, 1.97275, 2.03014, 1.96961, 1.96639, 1.9696, 1.97011, 1.96968, 1.96983, 1.97629, 1.97808, 1.90392, 1.98939, 2.01733, 1.9897, 2.06408, 2.07239, 2.05613, 1.97812, 1.977, 1.97686, 2.06262, 1.97668, 2.0669, 2.06818, 2.06224, 1.97568, 2.05819, 2.06627, 1.97194, 2.06765, 2.0635, 2.06539, 2.04945, 2.05854, 2.05193, 2.05567, 2.04852, 2.05226, 2.03707, 2.03087, 1.95602, 2.03809, 2.03452, 2.03787, 2.03483, 2.04102, 1.9448, 1.94121, 1.94106, 1.94077, 2.01818, 2.02515, 1.91357, 1.85777, 1.90567, 1.90279, 1.89951, 1.89609, 1.84168, 1.84046, 1.83747, 1.83456, 1.83185, 1.83111, 1.82963, 1.83004, 1.82569, 1.87684, 1.82596, 1.82404, 1.82417, 1.82107, 1.95625, 1.95954, 1.82195, 1.74772, 1.74455, 1.74098, 1.73713, 1.85765, 1.73146, 1.72944, 1.77796, 1.8593, 1.72444, 1.72379, 1.72391, 1.72176, 1.85327, 1.85935, 1.72069, 1.86594, 1.8315, 1.862, 1.7213, 1.85816, 1.72048, 1.72085, 1.82191, 1.72268, 1.72177, 1.72562, 1.72202, 1.72571, 1.8342, 1.72937
1.91918, 1.91127, 1.90975, 1.90826, 1.90585, 2.02584, 1.9028, 1.90277, 1.89774, 2.01798, 2.017, 2.01718, 1.89161, 1.89046, 1.88739, 1.88723, 1.88189, 1.88144, 1.92681, 1.87058, 1.87322, 1.87191, 1.87057, 1.8694, 1.92165, 1.92111, 1.87326, 1.97411, 1.87186, 2.0158, 2.13058, 2.12952, 2.04995, 2.00609, 1.99975, 1.99519, 1.99118, 2.13763, 2.04132, 1.98417, 2.11725, 1.97918, 1.97705, 1.97356, 1.9731, 1.96908, 1.89101, 2.02766, 1.96828, 1.89368, 2.0274, 1.89413, 1.89868, 2.02317, 2.10883, 1.98896, 2.00874, 1.98895, 2.06958, 2.0868, 2.05816, 2.05745, 1.97829, 1.97687, 2.06608, 2.05286, 2.04943, 2.07392, 2.07021, 2.06586, 1.97332, 2.07731, 1.97054, 2.05913, 1.96836, 2.05253, 2.05962, 2.05884, 2.04289, 2.04259, 2.04837, 2.05556, 2.04907, 2.03212, 2.05502, 2.03078, 2.04919, 2.04974, 2.0357, 2.03282, 1.94389, 1.94165, 1.94092, 2.01984, 2.02612, 2.01496, 2.04811, 1.85778, 1.8548, 1.90307, 1.84983, 1.84231, 1.84199, 1.96838, 1.92729, 1.88584, 1.83336, 1.8317, 1.83065, 1.82959, 1.87769, 1.82388, 1.87491, 1.96026, 1.87266, 1.87271, 1.82138, 1.95483, 1.82377, 1.74736, 1.74446, 1.74242, 1.73826, 1.84588, 1.72893, 1.78032, 1.77829, 1.84395, 1.86219, 1.8201, 1.71959, 1.71886, 1.72065, 1.85892, 1.72117, 1.85797, 1.85797, 1.71963, 1.84411, 1.86198, 1.72044, 1.72, 1.72019, 1.85231, 1.72153, 1.72116, 1.85464, 1.85055, 1.72332, 1.85049
1.92035, 1.91081, 2.11102, 2.10554, 2.03294, 1.90339, 1.90268, 1.9013, 1.89841, 1.89811, 1.89683, 1.8931, 2.01611, 1.88896, 2.00073, 1.93737, 1.8854, 1.87994, 1.97926, 1.98692, 1.99947, 1.87035, 1.9212, 1.92312, 1.87032, 1.87085, 1.87145, 1.87259, 1.87206, 2.01684, 2.01375, 2.05217, 2.00708, 2.04896, 1.99811, 1.99905, 2.0452, 2.13561, 2.0443, 1.90755, 1.98072, 2.11953, 1.97463, 1.89935, 1.97112, 1.96989, 1.89274, 1.89302, 1.96569, 1.89256, 1.89308, 1.89551, 1.97911, 2.02147, 2.10887, 2.01666, 2.01763, 1.98878, 2.07706, 1.98247, 1.97971, 1.98023, 1.97866, 1.9793, 2.07266, 2.05214, 1.97616, 2.07248, 1.97483, 2.05985, 2.05576, 2.05151, 2.05852, 1.96979, 2.06617, 2.0633, 1.96764, 2.04984, 2.0664, 2.0596, 2.04695, 2.05101, 2.048, 2.0459, 2.04106, 2.04823, 1.95213, 1.94941, 2.03672, 2.04042, 1.94359, 1.94196, 1.94129, 1.93986, 1.93956, 2.01553, 1.86334, 1.85914, 1.8578, 1.8537, 1.84827, 1.84552, 1.84245, 1.84021, 1.83547, 1.83541, 1.83332, 1.96785, 1.8304, 1.87663, 1.87608, 1.94449, 1.87523, 1.82115, 1.8198, 1.82151, 1.81979, 1.87058, 1.8189, 1.74683, 1.74407, 1.85791, 1.73816, 1.73184, 1.85764, 1.72845, 1.77633, 1.72459, 1.8618, 1.72279, 1.91186, 1.71943, 1.82376, 1.7186, 1.71968, 1.71811, 1.71776, 1.86163, 1.7168, 1.71639, 1.96681, 1.72047, 1.85514, 1.8519, 1.85107, 1.72027, 1.72337, 1.84867, 1.72694, 1.7252
1.93481, 2.03216, 1.90686, 2.02785, 1.90742, 1.90182, 1.95162, 1.90081, 1.94871, 2.10261, 1.89554, 2.0996, 1.89323, 1.8925, 1.93949, 1.93634, 1.88365, 1.88074, 2.00244, 1.87501, 1.97648, 1.87151, 1.87169, 1.87252, 1.98342, 1.86888, 1.87192, 1.87234, 1.87234, 2.05682, 2.13077, 2.13057, 2.04987, 1.92716, 2.04806, 1.91911, 2.0454, 1.98985, 1.91077, 1.91122, 1.90294, 1.90298, 1.97613, 1.89687, 1.97094, 2.03153, 1.96979, 1.97091, 1.88971, 1.96772, 2.025, 1.89705, 2.02232, 2.0211, 2.01923, 1.99194, 1.99364, 2.09065, 1.98583, 1.98278, 2.06161, 1.98009, 1.97749, 1.97867, 2.05565, 2.05204, 2.05888, 2.05866, 2.05816, 2.06971, 1.97302, 2.06241, 2.05258, 1.97041, 2.05584, 2.06916, 2.05187, 2.04911, 2.05608, 2.04463, 1.96028, 1.95915, 2.04906, 2.0383, 1.95483, 2.03959, 2.03934, 2.03696, 1.94819, 2.03578, 2.02766, 1.94089, 1.93992, 1.9401, 2.03061, 2.02591, 1.8648, 1.85622, 1.85454, 1.85155, 2.04545, 1.84275, 1.84307, 1.84, 1.83638, 1.88579, 1.83102, 1.82809, 2.05903, 1.82493, 1.87565, 1.8243, 1.87248, 1.82247, 1.81988, 1.95821, 1.82022, 1.82142, 1.82196, 1.74748, 1.74435, 1.7375, 1.73777, 1.86215, 1.85678, 1.77916, 1.77589, 1.72322, 1.8579, 1.85889, 1.85923, 1.85796, 1.94477, 1.71525, 1.72003, 1.71846, 1.85794, 1.90753, 1.71648, 1.71791, 1.71781, 1.71875, 1.7175, 1.71927, 1.8494, 1.7232, 1.72276, 1.84783, 1.72673, 1.72459
1.93243, 1.90823, 1.91037, 1.90812, 1.90416, 1.90286, 1.89948, 1.90085, 2.02124, 1.89911, 1.89586, 1.89984, 1.89114, 1.94433, 1.89067, 1.93784, 2.08497, 2.00711, 1.87902, 2.08253, 1.87222, 1.87026, 1.87017, 1.87194, 1.87161, 1.98658, 1.87358, 1.87293, 1.92318, 1.93977, 2.05356, 2.00667, 2.00667, 2.04955, 2.00005, 2.04554, 2.13101, 1.99097, 1.98669, 1.98328, 2.13173, 1.97925, 1.89988, 1.97246, 1.97167, 1.89586, 1.89291, 1.96935, 1.96934, 1.97285, 1.9695, 1.96909, 2.02209, 2.02157, 1.98326, 2.10285, 2.10372, 2.06494, 2.08381, 2.0798, 2.06923, 1.98224, 1.97913, 1.97898, 2.08377, 2.05822, 2.05988, 1.97596, 2.05861, 2.05969, 2.06356, 2.06188, 2.05559, 2.05208, 2.05695, 2.04771, 2.05491, 2.04879, 1.96177, 1.96227, 2.04821, 2.05269, 2.04519, 2.04163, 2.04691, 2.0468, 2.04137, 2.04304, 2.03671, 2.02877, 1.94242, 1.94218, 1.93952, 1.9417, 2.03964, 2.02459, 1.86202, 1.96264, 1.90432, 1.92547, 1.84972, 1.97096, 2.06266, 1.83854, 1.94608, 1.88418, 1.92967, 1.83159, 1.82864, 1.82683, 1.87498, 1.82693, 1.8744, 2.04609, 1.82371, 1.81898, 1.819, 1.8185, 1.82079, 1.89992, 1.74101, 1.73881, 1.84844, 1.73241, 1.73052, 1.72463, 1.79283, 1.85816, 1.72203, 1.85517, 1.71767, 1.7164, 1.85792, 1.71665, 1.71972, 1.85784, 1.7172, 1.81635, 1.85481, 1.71869, 1.71703, 1.71626, 1.71976, 1.84777, 1.84976, 1.72096, 1.84523, 1.7214, 1.72344, 1.72356
