1.81924394003536,1.82211745888426,1.90332310155438,1.73808618934606,1.80954102472221,1.73767431831105,1.82190673416868,1.89655117546712,1.8174719367452,1.8201922012555,1.81955044871257,1.81933972399699,1.90899351208289,1.90778663416635,1.89757606385656,1.88968346541823,1.80532653041048,1.80369820306277,1.80437826919034,1.88841911712471,1.80360241910114,1.80389934938219,1.80399513334382,1.80837246039033,1.80594912616108,1.80635141879993,1.88368738942018,1.88367781102402,1.88269123621922,1.88317015602738,1.80867896906754,1.88401305488972,1.90890730651742,1.81261568989055,1.88574674459523,1.92208717963774,1.90695331370016,1.88858194985948,1.90603378766851,1.89213553483596,1.89295927690599,1.91223100998599,1.8858329501607,1.89673316499422,1.8939650085031,1.89359145105274,1.82100636492935,1.89589984452803,1.9113210623505,1.89619677480909,1.90307406325414,1.89554544387,1.91114865121957,1.82472278264061,1.8239469325514,1.90317942561193,1.91328463356392,1.91249920507855,1.91217353960901,1.90967357821046,1.91242257790925,1.91409879723778,1.82793154535522,1.91307390884833,1.82667677545786,1.91946269908907,1.90276755457692,1.90218327241098,1.90204917486469,1.92312164642335,1.91394554289917,1.90385949173951,1.91436699233034,1.90450124428243,1.90350509108147,1.90447250909394,1.90611041483782,1.83364026946838,1.90603378766851,1.90610083644165,1.8349812449312,1.83333376079116,1.91515242081571,1.90998008688768,1.83545058634319,1.92681890734227,1.92793957969335,1.94211560601462,1.77735761361446,1.82407145170152,1.8243109116056,1.82428217641711,1.77594001098233,1.77263546430609,1.77367950948786,1.95274762575558,1.95702916884045,1.77673501786386,1.77492470098905,1.95869580977281,1.77596874617082,1.77577717824756,1.94954844143713,1.77308564892575,1.77340173599913,1.94586075891436,1.95260394981313,1.77449367316171,1.77837292360774,1.77684995861782,1.77627525484803,1.82384157019361,1.77623694126338,1.77562392390895,1.77437873240776,1.83075717222331,1.77542277758953,1.77491512259288,1.77343047118762,1.77359330392239,1.95178978613927,1.95537210630425,1.77580591343605,1.86179117579151,1.85921458722365,1.82421512764397,1.77527910164708,1.77597832456698,1.94412706920886,1.77589211900151,1.7778652686111,1.77550898315499,1.77947443916648,1.77811430691133,1.77810472851517,1.77707026172957,1.70457138117164,1.7017840678882,1.69985881025943,1.69801017979997,1.89567954141628,1.69769409272659,1.69673625311029,1.82673424583484,1.80797016775148,1.69162138955923,1.6918895846518,1.74044247480216,1.79303744813333,1.80330548882009,1.69149687040911,1.68921721212232,1.69045282522734,1.69063481475444,1.68932257448011,1.8076540806781,1.80655256511935,1.68989727824989,1.68632453648108,1.73646744039451,1.73446555559644,1.79033634041535,1.76053794995219,1.75721424648362,1.6846100035679,1.68832642127915,1.68541458884559,1.80926325123349,1.68036677406768,1.68686092666621,1.78851644514438,1.73075871628135,1.73090239222379,1.79074821145036,1.77505879853533,1.77235769081736
1.80751998313182,1.81224213244019,1.73732949604918,1.73813408132688,1.82027840682096,1.82352548312023,1.73996355499401,1.81661945948669,1.81421528204977,1.82714611686985,1.82048913153655,1.74982930304193,1.91682864014424,1.92224043397635,1.88428124998229,1.89791130772227,1.80136107439899,1.88641723232664,1.88343835111994,1.89741323112179,1.89577532537791,1.87719323682165,1.80886095859464,1.80500086494094,1.80924409444116,1.80716558247378,1.88658964345757,1.88268165782306,1.88624482119571,1.90723108718889,1.88579463657604,1.88630229157268,1.88833291155924,1.88590957733,1.90137868713328,1.90177140137597,1.8133532263951,1.90473112579034,1.90558360304885,1.81328617762196,1.90465449862104,1.88969304381439,1.89665653782491,1.88968346541823,1.88982714136068,1.90603378766851,1.89541134632372,1.90336141513903,1.89659906744793,1.90898393368672,1.9115030518776,1.89693431131364,1.9128248705481,1.90973104858744,1.89872547139613,1.89821781639948,1.8980070916839,1.9025664082575,1.82728021441613,1.92891657610198,1.91293981130205,1.90411810843591,1.9130834872445,1.9010626000599,1.90196296929923,1.90645523709969,1.92221169878786,1.90364876702392,1.90563149502966,1.91522904798501,1.91001840047233,1.91549724307758,1.91317927120613,1.90565065182199,1.92924224157152,1.90550697587955,1.90833260274764,1.90549739748338,1.90798778048577,1.90869658180183,1.90727897916971,1.90539203512559,1.83429160040747,1.91148389508527,1.92508521763677,1.91089003452316,1.83691608095614,1.94201024365683,1.77966600708974,1.82496224254468,1.84364969345874,1.77323890326436,1.77354541194157,1.77300902175644,1.77289408100249,1.77367950948786,1.7735645687339,1.94570750457576,1.77760665191469,1.77612200050943,1.95901189684619,1.86201147890326,1.95135875831194,1.77361246071471,1.95683760091719,1.94829367153977,1.94590865089518,1.9561862699781,1.77727140804899,1.88038284274394,1.83028783081132,1.77613157890559,1.77511626891231,1.77670628267537,1.775039641743,1.77639019560199,1.8306039178847,1.77689785059863,1.77771201427249,1.9439355012856,1.77697447776793,1.97336991269457,1.96665545698429,1.82327644481999,1.8624137715421,1.85971266382413,1.77902425454682,1.77531741523173,1.95251774424766,1.94317880798872,1.77689785059863,1.77479060344277,1.77523120966626,1.77752044634923,1.94225928195707,1.7800395645401,1.81031687481142,1.80799890293997,1.81433980119989,1.80805637331695,1.80506791371408,1.81153333112412,1.69647763641389,1.69453322199279,1.80744335596251,1.80316181287764,1.69471521151989,1.6946864763314,1.69298152181438,1.69236850445995,1.69011758136164,1.80646635955388,1.69044324683118,1.69071144192375,1.68988769985373,1.81174405583971,1.81168658546273,1.68823063731752,1.68731111128587,1.68627664450027,1.73434103644632,1.8424428155422,1.73427398767318,1.73242535721371,1.73361307833793,1.68667893713911,1.79824809564601,1.6820717285847,1.80752956152798,1.68395867262882,1.68055834199094,1.68039550925617,1.7320134861787,1.7300978069461,1.72782772705546,1.79330564322589
1.82050828832888,1.80976132783396,1.822807103408,1.82058491549818,1.82179179341472,1.81521143525072,1.81590107977446,1.82313276887754,1.8195696055049,1.74367997270527,1.82299867133126,1.81960791908955,1.90700120568098,1.91516199921187,1.88754748307388,1.88971220060672,1.88631186996885,1.88387895734344,1.89799751328774,1.88591915572616,1.892489935494,1.80487634579082,1.80494339456396,1.80523074644885,1.80701232813518,1.87924301360054,1.80877475302917,1.8860915668571,1.8808330273636,1.89120643040815,1.88345750791227,1.89538261113523,1.81180152621669,1.8919439669127,1.89196312370503,1.90494185050593,1.91882094654615,1.81288388498311,1.90410853003974,1.90855290585939,1.91483633374233,1.90647439389201,1.89964499742778,1.91824624277637,1.89118727361583,1.90708741124644,1.89959710544696,1.9007273561942,1.8992235479966,1.91056436905362,1.90504721286372,1.89591900132036,1.89732702555632,1.82335307198929,1.89938638073137,1.92294923529241,1.90240357552273,1.82577640621854,1.91611026043201,1.89957794865463,1.90856248425555,1.90722150879273,1.90665638341911,1.90219285080714,1.92889741930965,1.91239384272076,1.90362003183543,1.91749912787565,1.92070789059026,1.91012376283012,1.90991303811454,1.83065180986552,1.90941496151406,1.90906056085603,1.9269146913039,1.83282610579452,1.90621577719561,1.90835175953996,1.90707783285028,1.83525901841993,1.90827513237066,1.90677132417306,1.9055452894642,1.83605402530146,1.92887826251732,1.90979809736058,1.91573670298165,1.77537488560871,1.77493427938521,1.77168720308595,1.94213476280695,1.94060221942086,1.87731775597177,1.77410095891903,1.77361246071471,1.77068147148883,1.77521205287394,1.77345920637611,1.7733825792068,1.86936768715646,1.77637103880966,1.86538307435264,1.86338118955457,1.77749171116074,1.95772839176035,1.77753960314155,1.77539404240104,1.77386149901495,1.77406264533438,1.77661049871374,1.83329544720651,1.77711815371038,1.77457987872718,1.953829984522,1.77579633503988,1.95495065687307,1.83362111267606,1.77647640116746,1.77100713695837,1.76981941583416,1.94418453958583,1.94254663384196,1.96285283370757,1.82550821112597,1.82529748641039,1.77754918153772,1.9585712906227,1.7765434499406,1.9656688821795,1.77707984012573,1.7762848332442,1.776802066637,1.77671586107153,1.94504659524051,1.94233590912637,1.94171331337577,1.70099863940283,1.80782649180903,1.69571136472084,1.80961765189152,1.69808680696927,1.69388189105371,1.79513511689303,1.69751210319949,1.69237808285611,1.69456195718128,1.80792227577066,1.69161181116307,1.6920715741789,1.69132445927818,1.69070186352758,1.69102752899713,1.69333592247241,1.69342212803788,1.80744335596251,1.68850841080625,1.68847967561776,1.77679248824084,1.81154290952029,1.68760804156693,1.68647779081969,1.73480079946214,1.79594928056688,1.68703333779715,1.68498356101826,1.73241577881755,1.75387138622272,1.68601802780387,1.68375752630939,1.68466747394488,1.8060736453112,1.68245486443122,1.68076906670653,1.68022309812524,1.68028056850221,1.68094147783746
1.90384033494718,1.73608430454799,1.8259679741418,1.82344885595092,1.82316150406603,1.81030729641526,1.73788504302664,1.89989403572801,1.74152483356859,1.82392777575908,1.82366915906267,1.899482164693,1.91303559526368,1.90021970119756,1.88159929905664,1.88298816650028,1.88481764016742,1.8803924211401,1.87944415991996,1.88962599504125,1.87572774220871,1.87865873143459,1.8051158056949,1.80453152352895,1.80728052322774,1.87655148427873,1.87892692652716,1.80831499001335,1.88259545225759,1.89235583794771,1.88263376584225,1.90239399712656,1.8927485521904,1.81236665159031,1.90541119191792,1.81350648073371,1.81620758845168,1.89343819671414,1.81653325392122,1.90743223350831,1.89959710544696,1.89045931550744,1.8901049148494,1.89918523441195,1.89384048935298,1.9170968352368,1.92762349261997,1.90798778048577,1.8944056147266,1.82060407229051,1.9080835644474,1.91301643847136,1.90115838402153,1.8959094229242,1.91017165481094,1.90285376014239,1.89999939808581,1.89815076762634,1.89673316499422,1.90430009796301,1.90253767306901,1.90377328617404,1.90952032387185,1.9096639998143,1.90692457851167,1.82675340262717,1.91420415959557,1.92142627030249,1.90920423679847,1.92136879992551,1.90304532806565,1.83113072967367,1.93216365240124,1.83085295618494,1.90314111202728,1.90559318144501,1.90849543548241,1.90918508000615,1.90880194415963,1.90866784661334,1.91050689867664,1.90600505248002,1.90952990226802,1.91932860154279,1.92529594235235,1.90900309047905,1.92012360842432,1.94190488129903,1.94885879691339,1.77157226233199,1.77676375305235,1.82157149030297,1.82007726050154,1.7727599834562,1.86658995226918,1.77255883713678,1.77236726921352,1.96557309821787,1.82181095020705,1.77498217136603,1.8207860618176,1.82259637869242,1.82447374434037,1.85721270242558,1.82115961926796,1.77393812618426,1.95104267123856,1.77550898315499,1.77439788920008,1.77878479464275,1.7745224083502,1.77661049871374,1.95605217243182,1.95814984119152,1.77508753372382,1.96303482323466,1.77336342241448,1.95929924873108,1.7760262165478,1.95223997075894,1.77649555795978,1.93978805574701,1.77346878477227,1.77253010194829,1.77626567645187,1.77626567645187,1.77681164503316,1.77906256813147,1.96518996237134,1.77562392390895,1.77696489937177,1.77804725813819,1.7751450041008,1.94527647674842,1.94582244532971,1.70439897004071,1.81029771801909,1.80883222340615,1.74773163428222,1.69759830876496,1.80650467313854,1.69718643772995,1.69483973067001,1.80583418540712,1.80855444991742,1.69403514539232,1.80896632095243,1.81315208007567,1.78442646998277,1.85897512731958,1.69255049398705,1.69115204814725,1.80877475302917,1.81020193405746,1.80957933830687,1.80619816446132,1.68934173127243,1.81238580838263,1.9881014859933,1.68402572140196,1.80579587182247,1.68683219147772,1.79308534011414,1.68647779081969,1.6818131118883,1.68377668310172,1.68417897574056,1.77964685029742,1.68364258555544,1.80161011269923,1.67798175342309,1.79670597386376,1.80822878444788,1.68031888208687,1.80079594902537,1.67982080548639
1.8073954639817,1.80745293435868,1.80871728265219,1.80896632095243,1.81126513603156,1.73805745415757,1.81194520215913,1.82283583859649,1.81805621891114,1.91749912787565,1.90248978108819,1.74710903853163,1.90578474936827,1.93576512935854,1.88078513538278,1.87862041784994,1.87714534484083,1.88353413508157,1.87549786070079,1.88937695674101,1.88702067128491,1.88478890497893,1.87820854681493,1.87622581880918,1.87450170749984,1.80693570096587,1.80602575333038,1.80751040473565,1.88550728469115,1.88297858810411,1.90894562010207,1.8115141743318,1.89134052795443,1.89382133256066,1.90173308779131,1.8142344388421,1.90395527570114,1.813171236868,1.81670566505216,1.89265276822877,1.81823820843824,1.81825736523057,1.89026774758418,1.90357213985462,1.81974201663583,1.82003894691689,1.91211606923203,1.89677147857887,1.90455871465941,1.8962446667899,1.82252932991927,1.91833244834183,1.9159570060934,1.90545908389873,1.91014291962245,1.91528651836199,1.82417681405931,1.9129014977174,1.91024828198024,1.90681921615388,1.91903167126173,1.90644565870352,1.90891688491358,1.90049747468628,1.91174251178167,1.89883083375392,1.82751009592405,1.91832286994567,1.90279628976541,1.93991257489713,1.82943535355281,1.90244188910738,1.92302586246172,1.83080506420413,1.90432883315149,1.90609125804549,1.91211606923203,1.91042069311118,1.90964484302197,1.90742265511215,1.9104398499035,1.83379352380699,1.83395635654176,1.92473081697873,1.91700105127517,1.91432867874569,1.83802717491105,1.83641800435566,1.7744457811809,1.77065273630034,1.95051585944959,1.8676723110356,1.86564169104904,1.77113165610849,1.77327721684901,1.77370824467634,1.81997189814375,1.77405306693821,1.77567181588976,1.82436838198257,1.82300824972743,1.82327644481999,1.82253890831544,1.82421512764397,1.82288373057731,1.77437873240776,1.94565961259494,1.77407222373054,1.77669670427921,1.77607410852861,1.83835284038059,1.77486723061207,1.77549940475883,1.77510669051615,1.7795223311473,1.82332433680081,1.77300902175644,1.77597832456698,1.77449367316171,1.77671586107153,1.77603579494396,1.86807460367445,1.77349751996076,1.77623694126338,1.82119793285261,1.77531741523173,1.7744457811809,1.77416800769217,1.77603579494396,1.77589211900151,1.77405306693821,1.77361246071471,1.94497954646737,1.77619862767873,1.94946223587166,1.70710007775868,1.75175456067069,1.80863107708673,1.78373682545903,1.8122133972517,1.8094165055721,1.74648644278103,1.74534661363763,1.69403514539232,1.79616958367863,1.78835361240961,1.69386273426138,1.80970385745699,1.78716589128539,1.78350694395112,1.80846824435196,1.69176506550168,1.68965781834581,1.80895674255627,1.80662919228866,1.68833599967532,1.68883407627579,1.68977275909977,1.77965642869358,1.686966289024,1.80823836284404,1.68490693384895,1.68631495808492,1.68452379800243,1.80430164202104,1.73118016571252,1.80622689964981,1.80388977098603,1.80693570096587,1.68058707717943,1.79689754178702,1.81086284339271,1.80626521323446,1.78074836585617,1.67744536323796,1.80785522699752
1.80728052322774,1.82249101633462,1.82101594332552,1.80994331736106,1.82372662943965,1.81455052591548,1.81279767941764,1.82372662943965,1.82650436432693,1.82539327037202,1.81886080418884,1.81933972399699,1.90354340466613,1.90586137653758,1.88193454292235,1.88244219791899,1.80404302532464,1.87840969313435,1.87993265812427,1.8836299190432,1.89875420658461,1.88061272425185,1.87765299983747,1.87880240737704,1.87846716351133,1.80674413304261,1.8799518149166,1.80804679492078,1.88687699534247,1.88443450432089,1.88303605848109,1.89554544387,1.8922313187976,1.89501863208104,1.88724097439666,1.9049226937136,1.81429190921907,1.90988430292605,1.81584360939748,1.81637999958261,1.89891703931939,1.90703951926563,1.91695315929436,1.81741446636822,1.81778802381858,1.89757606385656,1.92598558687609,1.92276724576531,1.82093931615621,1.89976951657789,1.89376386218368,1.89578490377408,1.92250862906891,1.82649478593077,1.90611041483782,1.89937680233521,1.90905098245986,1.91278655696344,1.91653170986319,1.90340930711984,1.90501847767523,1.90589969012223,1.90543034871024,1.91618688760132,1.90785368293949,1.90059325864791,1.89987487893569,1.92543003989863,1.92252778586124,1.91272908658647,1.82934914798735,1.82885107138687,1.92628251715714,1.92617715479935,1.92398370207802,1.93080352014609,1.91218311800517,1.90962568622965,1.90483648814813,1.90888814972509,1.90857206265171,1.9064265019112,1.83461726587701,1.91498958808094,1.92663691781518,1.91278655696344,1.83626475001705,1.77169678148211,1.77249178836364,1.77288450260632,1.77299944336028,1.87033510516892,1.86890792414063,1.86976997979531,1.77051863875406,1.85613034365916,1.82244312435381,1.77144774318187,1.77296112977563,1.86568958302986,1.82353506151639,1.82175347983007,1.95193346208172,1.77383276382646,1.82486645858305,1.77316227609505,1.94554467184098,1.77616989249024,1.77499174976219,1.77662965550607,1.77751086795306,1.77576759985139,1.77629441164036,1.77535572881638,1.77466608429265,1.82683002979647,1.82650436432693,1.85622612762079,1.77615073569791,1.77652429314827,1.77177340865141,1.77305691373726,1.7730473353411,1.77441704599241,1.95904063203468,1.82369789425116,1.82209830209194,1.77720435927585,1.82272089784253,1.82314234727371,1.82230902680752,1.77399559656123,1.77399559656123,1.94763276220452,1.94480713533643,1.70481084107572,1.70610392455772,1.70301010259707,1.79354510312997,1.81614053967854,1.81318081526416,1.8301633116612,1.6941692429386,1.69553895358991,1.69162138955923,1.69270374832566,1.6924068180446,1.69293362983357,1.69299110021055,1.81282641460613,1.69123825371271,1.73972409508994,1.73840227641944,1.68790497184798,1.80372693825126,1.68574025431514,1.68728237609738,1.73480079946214,1.78324832725472,1.81025940443444,1.68460042517174,1.80865023387905,1.81274978743683,1.68748352241681,1.68403529979812,1.80259668750402,1.68427475970219,1.68060623397176,1.80652382993086,1.79286503700239,1.80596828295341,1.68120967293003,1.68412150536359,1.80588207738794,1.7965144059405,1.68075948831037
1.80839161718265,1.90829428916299,1.80889927217929,1.91659875863633,1.81909068569675,1.82314234727371,1.90583264134909,1.81274020904066,1.74118958970288,1.81442600676536,1.81597770694377,1.8184297763615,1.90538245672943,1.76362219351668,1.76398617257088,1.88563180384127,1.89389795972996,1.87628328918616,1.80365031108196,1.87961657105089,1.88015296123602,1.80590123418027,1.88257629546527,1.88229852197654,1.87875451539622,1.88000928529358,1.88228894358038,1.88336172395064,1.81051802113084,1.89728871197167,1.88610114525326,1.90487480173279,1.90284418174623,1.90248978108819,1.89173324219712,1.88231767876887,1.90607210125316,1.88384064375879,1.88221231641107,1.92050674427084,1.81624590203633,1.81637999958261,1.88979840617219,1.90211622363784,1.90996093009535,1.8940703708609,1.89383091095682,1.91050689867664,1.8959094229242,1.9007273561942,1.89957794865463,1.9017618229798,1.90358171825078,1.8243109116056,1.92016192200897,1.90869658180183,1.89407994925706,1.90869658180183,1.91047816348815,1.82586261178401,1.90581348455676,1.82592966055715,1.82679171621182,1.82787407497824,1.90068904260955,1.9008039833635,1.90153194147189,1.82955029430677,1.90277713297308,1.90559318144501,1.90273881938843,1.92170404379122,1.91914661201569,1.90387864853183,1.90388822692799,1.83027825241516,1.90898393368672,1.90488438012895,1.90566023021815,1.90541119191792,1.90655102106132,1.91039195792269,1.91055479065746,1.90855290585939,1.83657125869427,1.90717361681191,1.92038222512072,1.77378487184565,1.772865345814,1.94961549021027,1.77487680900823,1.86674320660779,1.77340173599913,1.77310480571807,1.76939796640298,1.76772174707445,1.77230022044038,1.76797078537469,1.77289408100249,1.77383276382646,1.77479060344277,1.82248143793846,1.77484807381974,1.8603161027824,1.82432049000176,1.85807475808025,1.77434999721927,1.77361246071471,1.77538446400487,1.77650513635595,1.77588254060535,1.96613822359148,1.95898316165771,1.77634230362118,1.77572928626674,1.93532452313504,1.82297951453894,1.77335384401831,1.77677333144851,1.77619862767873,1.97200978043942,1.77437873240776,1.95593723167786,1.77381360703414,1.9483894555014,1.82086268898691,1.82249101633462,1.822807103408,1.82274963303102,1.77303775694493,1.82342012076244,1.77719478087968,1.77457987872718,1.94888753210188,1.94646419787263,1.77787484700726,1.70302925938939,1.70443728362536,1.7009028554412,1.74645770759254,1.81073832424259,1.6967841450911,1.6972247513146,1.69621901971748,1.69200452540575,1.81269231705985,1.80794143256299,1.81017319886897,1.7940814933151,1.74058615074461,1.74058615074461,1.74056699395228,1.73726244727604,1.78691685298515,1.78388050140147,1.68809653977124,1.69017505173862,1.68747394402064,1.68685134827005,1.77265462109841,1.8086119202944,1.68550079441106,1.81257737630589,1.68466747394488,1.68397782942114,1.73391958701514,1.68443759243697,1.68335523367054,1.68159280877655,1.68118093774154,1.80958891670303,1.80681118181575,1.80622689964981,1.79580560462444,1.80102583053329,1.79825767404217
1.82068069945981,1.80675371143877,1.81074790263876,1.81919604805454,1.90275797618076,1.81259653309822,1.82457910669816,1.8126540034752,1.81626505882866,1.8184297763615,1.8220312533188,1.74701325457,1.82769208545114,1.90691500011551,1.89631171556304,1.88335214555447,1.8989649313002,1.88254756027678,1.87868746662308,1.87908018086576,1.89723124159469,1.87701124729455,1.87972193340869,1.88235599235352,1.87978898218183,1.87911849445042,1.87999012850125,1.88610114525326,1.88128321198326,1.89001870928394,1.89180986936642,1.9039648540973,1.88205906207246,1.89702051687911,1.89568911981245,1.88460691545183,1.90020054440523,1.81370762705313,1.9029016521232,1.90634987474189,1.88961641664509,1.81755814231067,1.81959834069339,1.81626505882866,1.90156067666038,1.90068904260955,1.91156052225458,1.91040153631885,1.82318066085836,1.90359129664694,1.91544935109676,1.89946300790068,1.89725039838702,1.90195339090306,1.90101470807909,1.91281529215193,1.82374578623198,1.90618704200712,1.92608137083772,1.91884968173464,1.89581363896257,1.89539218953139,1.82734726318927,1.89876378498078,1.89934806714672,1.9009859728906,1.90533456474861,1.93536283671969,1.91377313176823,1.91657002344784,1.93611953001657,1.92622504678017,1.90260472184215,1.90693415690784,1.9170202080675,1.90861995463253,1.90867742500951,1.9076429582239,1.90626366917642,1.90864868982102,1.90337099353519,1.90325605278124,1.9151811560042,1.83401382691874,1.91395512129533,1.91538230232362,1.91184787413947,1.77366993109169,1.94484544892108,1.94886837530955,1.77131364563559,1.7721661228941,1.77074852026197,1.8731894672255,1.86667615783465,1.94039149470528,1.77019297328451,1.76980983743799,1.87226994119385,1.87014353724566,1.77373697986483,1.77299944336028,1.82320939604685,1.8649520465253,1.85622612762079,1.84898486012154,1.77512584730847,1.77644766597897,1.77438831080392,1.94545846627552,1.77378487184565,1.9516269534045,1.77679248824084,1.7762848332442,1.82299867133126,1.94070758177866,1.82115961926796,1.77353583354541,1.96912668319435,1.9678431781085,1.96705774962313,1.77331553043366,1.77323890326436,1.95218250038196,1.77375613665716,1.82321897444301,1.82081479700609,1.77363161750704,1.82186842058403,1.82209830209194,1.77258757232527,1.77738634880295,1.77697447776793,1.7748863874044,1.7754802479665,1.70669778511983,1.80412923089011,1.7970603745218,1.70419782372128,1.69966724233617,1.69958103677071,1.81240496517496,1.79539373358943,1.69581672707864,1.69387231265754,1.69054860918897,1.81034560999991,1.69217693653669,1.69171717352086,1.73985819263622,1.84296962733117,1.79788411659181,1.73742528001081,1.73672605709091,1.78922524646044,1.68775171750937,1.8089758993486,1.77663923390223,1.68373836951707,1.68573067591897,1.68661188836597,1.68432265168301,1.68560615676885,1.68386288866718,1.68159280877655,1.68508892337605,1.74195586139592,1.73946547839354,1.68520386413001,1.77692658578712,1.68033803887919,1.78929229523358,1.80129402562585,1.79980937422058,1.79719447206808,1.72677410347753
1.80746251275484,1.89498031849638,1.80675371143877,1.81076705943108,1.7372720256722,1.90740349831982,1.9074609686968,1.82582429819935,1.81282641460613,1.74136200083381,1.89909902884648,1.81984737899363,1.93519042558876,1.91705852165215,1.88997081730312,1.80070016506374,1.88764326703551,1.90529625116396,1.89073708899616,1.80390892777836,1.90154151986805,1.89281560096354,1.8831893128197,1.88288280414248,1.88236557074968,1.88050736189405,1.88188665094153,1.88181960216839,1.88467396422497,1.88482721856358,1.80953144632605,1.80995289575722,1.89581363896257,1.9049226937136,1.8974898582911,1.89837107073809,1.88724097439666,1.88703982807724,1.91451066827279,1.88777736458179,1.81624590203633,1.81628421562098,1.81712711448333,1.81626505882866,1.90207791005318,1.90338057193135,1.89839022753042,1.89541134632372,1.90249935948436,1.91604321165887,1.91013334122629,1.8932657855832,1.9086007978402,1.91339957431788,1.90972147019128,1.91623477958213,1.82440669556723,1.92249905067275,1.90044000430931,1.89911818563881,1.89874462818845,1.89859137384984,1.89968331101243,1.82701201932357,1.92466376820559,1.91686695372889,1.91851443786893,1.93311191362138,1.90358171825078,1.94102366885204,1.90259514344599,1.90277713297308,1.90164688222585,1.90357213985462,1.83036445798063,1.91891673050778,1.91161799263155,1.9087827873673,1.90557402465269,1.90695331370016,1.90677132417306,1.8335827990914,1.90819850520136,1.90377328617404,1.90600505248002,1.90741307671599,1.90829428916299,1.7731239625104,1.77083472582744,1.77019297328451,1.94314049440406,1.95148327746206,1.93988383970864,1.95883948571526,1.94307344563092,1.77098798016605,1.77003971894591,1.95923219995794,1.77459903551951,1.77044201158475,1.77015465969986,1.77527910164708,1.96748877745047,1.8836299190432,1.77351667675308,1.83382225899548,1.82614038527273,1.77646682277129,1.77683080182549,1.96141607428311,1.94907910002514,1.95026682114935,1.95360968141025,1.77560476711662,1.77495343617754,1.77365077429937,1.77480976023509,1.77376571505332,1.77681164503316,1.95140665029275,1.77234811242119,1.95348516226013,1.77553771834348,1.77073894186581,1.95737399110232,1.96927993753296,1.82410976528617,1.8217726366224,1.7727599834562,1.77377529344949,1.87142704233151,1.77153394874734,1.77587296220919,1.77457987872718,1.77805683653436,1.70408288296733,1.7037284823093,1.70399667740186,1.70375721749778,1.69995459422106,1.69786650385752,1.745250829676,1.74483895864099,1.80450278834046,1.75839238921167,1.69445659482349,1.81137049838935,1.69359453916882,1.74221447809232,1.74182176384964,1.73880456905829,1.73660153794079,1.73843101160793,1.68726321930506,1.73714750652208,1.68765593354774,1.68847967561776,1.6854912160149,1.77942654718567,1.68485904186814,1.81276894422915,1.80917704566802,1.68703333779715,1.80919620246035,1.6831349305588,1.68250275641204,1.68379583989404,1.68395867262882,1.68387246706335,1.73768389670721,1.68217709094249,1.68156407358806,1.68047213642547,1.67887254426625,1.80285530420042,1.72400594698642
1.81002952292653,1.8088705369908,1.82263469227707,1.82365000227035,1.91648381788237,1.81015404207665,1.73816281651536,1.81370762705313,1.82576682782238,1.82270174105021,1.74422594128656,1.82564230867226,1.90026759317837,1.90660849143829,1.88867773382111,1.88245177631515,1.8812736335871,1.89557417905849,1.89294012011366,1.89850516828438,1.89905113686567,1.8799518149166,1.88245177631515,1.88252840348445,1.88492300252521,1.88093838972139,1.88038284274394,1.88376401658948,1.88942484872183,1.88895550730984,1.88594789091465,1.80951228953373,1.88446323950938,1.88371612460867,1.81060422669631,1.91066015301525,1.91047816348815,1.90332310155438,1.88902255608298,1.81598728533993,1.90505679125988,1.81479956421571,1.8165907242982,1.9087827873673,1.89557417905849,1.88997081730312,1.92245115869193,1.89529640556976,1.91172335498935,1.91541103751211,1.82222282124206,1.91235552913611,1.82275921142719,1.82537411357969,1.82498139933701,1.89673316499422,1.91631140675144,1.92564076461422,1.89685768414434,1.91233637234378,1.90993219490686,1.91002797886849,1.89971204620092,1.91967342380466,1.90078482657118,1.92116765360609,1.91486506893082,1.90198212609155,1.90893604170591,1.90906056085603,1.92538214791782,1.82835299478639,1.90292080891553,1.92526720716386,1.90376370777788,1.90281544655774,1.90612957163014,1.90656059945748,1.90847627869008,1.90672343219225,1.90613915002631,1.90430967635917,1.91304517365985,1.91566965420851,1.91366776941044,1.9090414040637,1.91975962937012,1.77328679524517,1.77209907412096,1.76889031140634,1.77115081290082,1.77240558279817,1.77041327639626,1.95580313413158,1.76934049602601,1.82044123955574,1.76815277490179,1.96137776069846,1.86428155879389,1.86213599805338,1.7726067291176,1.77077725545046,1.77635188201734,1.86278732899246,1.7763614604135,1.77427337004996,1.77661049871374,1.94599485646065,1.77538446400487,1.77451282995404,1.77639019560199,1.77521205287394,1.77445535957706,1.94613853240309,1.95552536064285,1.77599748135931,1.77248220996748,1.77302817854877,1.77280787543702,1.95910768080782,1.96011341240494,1.96143523107544,1.82015388767084,1.77315269769889,1.77267377789074,1.77345920637611,1.95905978882701,1.76941712319531,1.77390939099577,1.77291323779481,1.77430210523845,1.77324848166052,1.77321016807587,1.77447451636939,1.7752216312701,1.70596024861528,1.70451391079466,1.70086454185655,1.74816266210956,1.7473484984357,1.69930326328198,1.8076540806781,1.6949450930278,1.69736842725705,1.6956443159477,1.74432172524819,1.69279953228729,1.80992416056874,1.69036661966188,1.7390344505662,1.69046240362351,1.74725271447407,1.68920763372615,1.69092216663933,1.73702298737196,1.68771340392472,1.68955245598802,1.68721532732424,1.68559657837269,1.68651610440434,1.81326702082963,1.6868130346854,1.68457168998325,1.68096063462979,1.68502187460291,1.68346059602834,1.68356595838613,1.68053918519862,1.68455253319092,1.79657187631748,1.67900664181253,1.6837287911209,1.68167901434202,1.67718674654156,1.67694728663748,1.73828733566548
1.80735715039705,1.73619924530194,1.80903336972557,1.80899505614092,1.82332433680081,1.81207929970542,1.81076705943108,1.8296460782684,1.82263469227707,1.81805621891114,1.82772082063963,1.82366915906267,1.91145515989678,1.90597631729153,1.87447297231135,1.88152267188734,1.88379275177797,1.89627340197839,1.8971258792369,1.80428248522871,1.80609280210353,1.88393642772042,1.88537318714487,1.8857275878029,1.88438661234008,1.88307437206575,1.88596704770698,1.88056483227103,1.80895674255627,1.87762426464898,1.80997205254955,1.88497089450602,1.88260503065376,1.89333283435634,1.89754732866807,1.89172366380096,1.89061256984604,1.81393750856104,1.91262372422867,1.81429190921907,1.81318081526416,1.90327520957356,1.81846808994615,1.90986514613372,1.90204917486469,1.88465480743264,1.90430967635917,1.89657033225945,1.91854317305742,1.89868715781147,1.90591884691456,1.89612014763978,1.89453013387672,1.89307421765994,1.90740349831982,1.9158037517548,1.90270050580378,1.90268134901145,1.89735576074481,1.92288218651927,1.89956837025847,1.89864884422682,1.92572697017969,1.91788226372217,1.82879360100989,1.90683837294621,1.90601463087619,1.90476943937499,1.9005453666671,1.90060283704408,1.90505679125988,1.91958721823919,1.90350509108147,1.9321732307974,1.90320816080042,1.90561233823734,1.90293996570786,1.90757590945076,1.910880456127,1.90788241812798,1.91186703093179,1.90548781908722,1.83222266683625,1.91007587084931,1.91734587353704,1.90825597557833,1.92697216168088,1.7706623146965,1.93846623707651,1.76692674019292,1.81831483560754,1.76981941583416,1.86267238823851,1.76693631858909,1.87008606686869,1.76932133923368,1.86786387895886,1.77197455497084,1.77326763845284,1.7736411959032,1.77071020667732,1.77328679524517,1.77291323779481,1.77118912648547,1.82230902680752,1.77585380541686,1.95405028763375,1.77650513635595,1.77976179105137,1.77503006334684,1.9422497035609,1.82531664320271,1.77713731050271,1.77666796909072,1.77441704599241,1.77440746759624,1.77394770458042,1.772865345814,1.7761794708864,1.77341131439529,1.77343047118762,1.77422547806915,1.77326763845284,1.96855197942457,1.7741871644845,1.77308564892575,1.77081556903511,1.77036538441545,1.77232895562887,1.97524727834252,1.77087303941209,1.77186919261304,1.77118912648547,1.77383276382646,1.86317046483898,1.70524186890305,1.80422501485174,1.70529933928003,1.75027948766159,1.74824886767503,1.697483368011,1.69701402659902,1.80921535925267,1.80668666266563,1.69642974443307,1.81039350198072,1.69447575161581,1.81306587451021,1.80930156481814,1.69186084946331,1.74923544247982,1.74934080483761,1.69060607956595,1.68925552570697,1.68925552570697,1.69045282522734,1.68798159901728,1.81108314650446,1.73466670191586,1.68494524743361,1.7333353048492,1.73375675428037,1.68403529979812,1.68272305952378,1.81175363423587,1.68237823726192,1.68364258555544,1.68407361338277,1.68045297963315,1.68057749878327,1.68124798651468,1.80149517194527,1.80744335596251,1.67861392756985,1.67581703589025,1.6713726600706
1.8215906470953,1.90973104858744,1.80925367283732,1.90287291693471,1.91195323649726,1.90937664792941,1.73724329048371,1.8151922784584,1.82481856660224,1.74254972195803,1.8265905698924,1.82571893584156,1.90208748844935,1.91465434421523,1.88937695674101,1.88999955249161,1.80388977098603,1.88669500581537,1.80516369767571,1.89488453453475,1.88706856326573,1.87909933765809,1.88225062999573,1.88249966829596,1.8808330273636,1.88303605848109,1.8801338044437,1.88094796811755,1.8801338044437,1.87966446303171,1.87897481850797,1.88307437206575,1.88326593998901,1.81117893046609,1.9001813876129,1.90281544655774,1.899482164693,1.81443558516152,1.90633071794957,1.90034422034768,1.90061241544024,1.8905455210729,1.90558360304885,1.91366776941044,1.89943427271219,1.91154136546225,1.89444392831125,1.91369650459893,1.82077648342144,1.8225484867116,1.9106218394306,1.9154397727006,1.90971189179511,1.89620635320525,1.90281544655774,1.8972025064062,1.89695346810597,1.89835191394577,1.82453121471735,1.8240522949092,1.92630167394947,1.90524835918314,1.90045916110163,1.82599670933029,1.92975947496432,1.91225974517448,1.91058352584595,1.90181929335678,1.82789323177057,1.91572712458549,1.9092233935908,1.82980891100317,1.83046024194226,1.90327520957356,1.90522920239082,1.94001793725492,1.90258556504982,1.90839965152078,1.90848585708625,1.90692457851167,1.90999924368,1.90819850520136,1.83308472249093,1.90743223350831,1.91618688760132,1.90443419550929,1.90810272123973,1.76976194545718,1.86078544419439,1.81755814231067,1.76685969141978,1.81865965786941,1.81646620514808,1.7691872416874,1.7672428272663,1.76919682008356,1.86870677782121,1.94410791241653,1.77100713695837,1.77226190685573,1.77127533205094,1.94200066526067,1.82240481076915,1.77390939099577,1.84787376616663,1.82328602321615,1.8230657201044,1.7763614604135,1.77859322671949,1.77660092031758,1.77634230362118,1.8262265908382,1.82548905433365,1.82337222878162,1.82259637869242,1.7754036207972,1.96213445399534,1.77425421325764,1.77314311930273,1.77397643976891,1.96918415357133,1.7731239625104,1.77024086526533,1.77055695233871,1.77105502893919,1.77254925874062,1.77158184072815,1.77214696610177,1.77046116837708,1.76878494904855,1.76995351338044,1.77658176352525,1.77121786167396,1.77302817854877,1.77454156514253,1.80310434250066,1.70631464927331,1.80673455464645,1.70276106429683,1.75062430992346,1.69900633300092,1.80907168331023,1.69680330188343,1.80986669019176,1.69461942755826,1.69337423605707,1.69552937519375,1.69187042785947,1.69040493324653,1.80622689964981,1.68917889853766,1.80661003549633,1.80687823058889,1.81301798252939,1.81110230329679,1.68843178363695,1.68825937250601,1.68656399638516,1.6859318222384,1.68127672170317,1.73340235362234,1.73348855918781,1.73230083806359,1.68201425820772,1.67989743265569,1.68440885724848,1.68027099010605,1.68160238717271,1.68373836951707,1.67904495539718,1.72776067828232,1.67678445390271,1.67810627257321,1.80815215727858,1.67374810231903,1.80973259264548
1.8089758993486,1.81124597923923,1.91249920507855,1.80675371143877,1.73469543710435,1.82382241340128,1.81276894422915,1.82271131944637,1.74092139461031,1.81557541430492,1.91861980022672,1.91879221135766,1.90950116707953,1.92045885229003,1.90582306295293,1.8879306189204,1.88481764016742,1.87667600342885,1.8937063918067,1.89881167696159,1.90518131041,1.87592888852813,1.88909918325229,1.88321804800819,1.88157056386815,1.80635141879993,1.87980813897415,1.88074682179813,1.88385980055111,1.89667569461724,1.8966852730134,1.88244219791899,1.88303605848109,1.89690557612515,1.81003910132269,1.89360102944891,1.89894577450787,1.81442600676536,1.8999227709165,1.81491450496967,1.88604367487628,1.88955894626811,1.88854363627483,1.91612941722434,1.88941527032567,1.90314111202728,1.82057533710202,1.89259529785179,1.92322700878114,1.81991442776677,1.89970246780475,1.91268119460565,1.89496116170406,1.90873489538648,1.9113210623505,1.89867757941531,1.90693415690784,1.9064265019112,1.8250101345255,1.82637026678065,1.90630198276108,1.82385114858977,1.9057272789913,1.90640734511887,1.91257583224786,1.91275782177495,1.91022912518792,1.92329405755428,1.82782618299743,1.82884149299071,1.91715430561378,1.90014307402825,1.92855259704778,1.9188592601308,1.91608152524352,1.90596673889537,1.90729813596203,1.90551655427571,1.83055602590389,1.91629224995911,1.83107325929669,1.91152220866992,1.83303683051011,1.93038207071492,1.915698389397,1.92606221404539,1.93314064880987,1.94158879422565,1.81728036882194,1.85232772038244,1.76796120697853,1.81670566505216,1.7683826564097,1.76994393498428,1.76692674019292,1.768047412544,1.76780795263992,1.96196204286441,1.77110292092,1.77132322403175,1.77052821715022,1.7735645687339,1.77360288231855,1.77489596580056,1.86395589332435,1.77504922013917,1.8243109116056,1.82527832961806,1.82335307198929,1.82205998850729,1.82399482453222,1.82694497055043,1.77535572881638,1.82562315187993,1.82270174105021,1.7738231854303,1.77252052355213,1.86388884455121,1.86884087536749,1.77459903551951,1.77280787543702,1.77280787543702,1.77208949572479,1.7703270708308,1.9663681050994,1.7709209313929,1.77120828327779,1.94653124664577,1.965228275956,1.76957995593008,1.77086346101593,1.77142858638954,1.77095924497756,1.82365000227035,1.82196420454566,1.70583572946516,1.70506945777212,1.70461927315246,1.70327829768963,1.8063322620076,1.69947567441291,1.78861222910601,1.69576883509782,1.69437038925802,1.74487727222564,1.80913873208337,1.69224398530983,1.80155264232225,1.79977106063593,1.69364243114963,1.68928426089546,1.80815215727858,1.80758703190496,1.8079126973745,1.68755057118995,1.68792412864031,1.80985711179559,1.68841262684462,1.80933987840279,1.73594062860554,1.79684007141005,1.79718489367191,1.7326360819293,1.72979129826888,1.80717516086995,1.67928441530126,1.80828625482486,1.68101810500677,1.68095105623363,1.68430349489068,1.68046255802931,1.68138208406096,1.67924610171661,1.67706222739144,1.67483046108545,1.81275936583299
1.8105563347155,1.82323813123534,1.73538508162809,1.80918662406418,1.73512646493169,1.90297827929251,1.81437811478454,1.81334364799893,1.82379367821279,1.90234610514575,1.82320939604685,1.821925890961,1.82319023925452,1.90406063805893,1.89083287295779,1.88369696781634,1.87677178739048,1.88009549085904,1.87861083945378,1.87926217039286,1.87857252586912,1.80562346069154,1.88340003753529,1.88443450432089,1.88200159169549,1.88208779726095,1.88305521527342,1.88325636159284,1.88191538613002,1.88128321198326,1.8831126856504,1.80991458217257,1.9001047604436,1.8801338044437,1.81283599300229,1.81282641460613,1.813171236868,1.87923343520437,1.81248159234426,1.89661822424026,1.88728886637748,1.81700259533321,1.81636084279029,1.89128305757746,1.91023870358408,1.92231706114565,1.8909861272964,1.8931891584139,1.89170450700863,1.82100636492935,1.91402217006847,1.89494200491173,1.89524851358895,1.90305490646181,1.90112964883304,1.89901282328102,1.89640749952467,1.82404271651303,1.89636918594002,1.91190534451645,1.82580514140703,1.8999227709165,1.89978867337022,1.8996641542201,1.92277682416148,1.89794962130692,1.92541088310631,1.82947366713747,1.92082283134422,1.9220967580339,1.92693384809623,1.92304501925404,1.93511379841945,1.82855414110582,1.82947366713747,1.90316984721577,1.90941496151406,1.91074635858072,1.90837091633229,1.90919465840231,1.90911803123301,1.90916592321382,1.91270992979414,1.90700120568098,1.90763337982774,1.91347620148718,1.9092233935908,1.76542293199533,1.7695224855531,1.76819108848644,1.7690052521603,1.76467581709461,1.76685011302362,1.76798994216702,1.76976194545718,1.85991381014355,1.76767385509364,1.77007803253056,1.7715435271435,1.77005887573823,1.76790373660155,1.77204160374398,1.77185961421688,1.77005887573823,1.94565003419878,1.77463734910416,1.94638757070333,1.86398462851284,1.82343927755476,1.82557525989912,1.85295031613304,1.82447374434037,1.7769840561641,1.82371705104349,1.82300824972743,1.82307529850057,1.7754036207972,1.7736411959032,1.77140942959722,1.7726833562869,1.81934930239315,1.77396686137275,1.77229064204422,1.76784626622457,1.76845928357901,1.96149270145242,1.76948417196845,1.7703270708308,1.94745077267743,1.77031749243463,1.77063357950801,1.7696278479109,1.77182130063223,1.94315007280023,1.77292281619098,1.80297024495438,1.70680314747763,1.70254076118508,1.70223425250786,1.8065142515347,1.69938946884745,1.69751210319949,1.69798144461148,1.69454280038896,1.69366158794196,1.85875482420783,1.6905677659813,1.68915016334917,1.68912142816068,1.6907497555084,1.6916309679554,1.81033603160375,1.8101923556613,1.81047012915003,1.81043181556538,1.80815215727858,1.68472494432186,1.77328679524517,1.6870716513818,1.81328617762196,1.73319162890676,1.68411192696742,1.7324540924022,1.73160161514369,1.78591112138804,1.79837261479613,1.68413108375975,1.67918863133963,1.8060736453112,1.80885138019848,1.68011773576744,1.67882465228543,1.67753156880343,1.67651625881015,1.67440901165428,1.67364273996124
1.89362018624123,1.80782649180903,1.82249101633462,1.8996641542201,1.81139923357784,1.81187815338599,1.81172489904738,1.81374594063778,1.81421528204977,1.82722274403916,1.82632237479983,1.90014307402825,1.89772931819517,1.91457771704593,1.8866088002499,1.87777751898759,1.87748058870654,1.90193423411074,1.87938668954298,1.87984645255881,1.80440700437883,1.80448363154814,1.87625455399767,1.88522951120243,1.88549770629499,1.88490384573288,1.88556475506813,1.88269123621922,1.88378317338181,1.90900309047905,1.88299774489644,1.88369696781634,1.899482164693,1.88213568924177,1.88247093310747,1.88265292263457,1.88246135471131,1.88315099923505,1.89838064913426,1.90863911142485,1.90568896540664,1.89082329456163,1.90608167964933,1.91645508269388,1.90292080891553,1.90473112579034,1.90807398605124,1.9127195081903,1.89428109557648,1.89209722125131,1.90741307671599,1.90698204888865,1.91420415959557,1.89656075386328,1.91302601686752,1.89979825176638,1.92143584869865,1.91087087773084,1.82587219018017,1.90229821316493,1.9022024292033,1.82658099149623,1.91331336875241,1.91563134062386,1.91661791542865,1.8998461437472,1.91902209286557,1.82588176857633,1.9023844187304,1.82694497055043,1.82828594601325,1.90179055816829,1.90363918862776,1.90302617127332,1.90328478796972,1.90402232447428,1.90875405217881,1.9045874498479,1.90526751597547,1.83215561806311,1.83004837090725,1.90959695104116,1.92401243726651,1.82976101902236,1.92356225264685,1.91289191932124,1.9189358873001,1.85550774790856,1.81906195050826,1.76688842660827,1.7676068063205,1.76417774049414,1.86612061085719,1.76701294575839,1.7678654230169,1.76939796640298,1.77017381649219,1.94221138997625,1.77332510882982,1.7715435271435,1.81735699599124,1.82020177965166,1.82314234727371,1.82233776199601,1.82069985625214,1.77474271146195,1.77571970787058,1.77657218512909,1.82564230867226,1.83215561806311,1.8244641659442,1.82618827725355,1.82550821112597,1.77409138052286,1.77366993109169,1.7727599834562,1.77116996969314,1.96176089654498,1.77506837693149,1.77163931110513,1.77307607052958,1.77387107741112,1.76976194545718,1.76972363187253,1.76871790027541,1.9646056802054,1.76957995593008,1.76780795263992,1.76971405347636,1.94486460571341,1.77027917884998,1.81989527097444,1.77186919261304,1.77173509506676,1.77074852026197,1.70709049936252,1.70535680965701,1.70359438476301,1.70203310618844,1.8037173598551,1.99346538784459,1.81066169707329,1.69724390810693,1.79366962228008,1.74251140837338,1.80244343316541,1.80095878176015,1.69198536861343,1.69046240362351,1.68886281146428,1.80896632095243,1.68858503797556,1.81280725781381,1.81113103848528,1.68693755383552,1.68563489195734,1.68719617053192,1.81251032753275,1.68757930637844,1.68685134827005,1.68535711846862,1.68350848800915,1.68334565527438,1.68287631386239,1.80698359294669,1.80465604267907,1.68347975282066,1.68414066215591,1.9826609569727,1.80310434250066,1.67994532463651,1.67885338747392,1.81342027516824,1.80964638708001,1.80705064171983,1.67720590333388
1.80929198642198,1.82404271651303,1.8237649430243,1.82601586612261,1.73431230125783,1.89877336337694,1.82592966055715,1.74019343650193,1.82579556301087,1.8255273679183,1.81558499270108,1.91597616288573,1.91337083912939,1.91118696480422,1.91350493667567,1.80414838768243,1.91024828198024,1.88720266081201,1.88669500581537,1.88036368595161,1.88807429486284,1.88041157793242,1.88232725716503,1.88070850821348,1.8847697481866,1.8806510378365,1.88621608600722,1.88594789091465,1.88949189749497,1.9023844187304,1.89951089988149,1.90400316768195,1.88558391186046,1.88287322574632,1.81047970754619,1.88363949743936,1.88312226404656,1.90991303811454,1.88637891874199,1.88641723232664,1.90660849143829,1.9044820874901,1.81956002710874,1.89019112041487,1.91658918024016,1.89048805069593,1.90995135169919,1.91887841692313,1.91697231608668,1.91930944475046,1.92328447915812,1.89527724877744,1.89569869820861,1.89615846122444,1.90740349831982,1.90918508000615,1.90181929335678,1.90050705308245,1.82418639245548,1.89906071526183,1.82576682782238,1.91186703093179,1.91805467485311,1.90935749113708,1.91667538580563,1.90136910873712,1.82741431196242,1.89860095224601,1.89931933195823,1.9000281332743,1.9077195853932,1.91609110363969,1.92656029064587,1.90143615751026,1.90991303811454,1.90591884691456,1.90274839778459,1.90521004559849,1.82914800166792,1.82884149299071,1.83221308844009,1.83137976797391,1.83263453787126,1.90843796510543,1.92846639148231,1.91345704469486,1.91958721823919,1.96906921281737,1.82220366444973,1.76621793887686,1.76684053462746,1.86694435292721,1.76528883444905,1.94272862336905,1.94151216705635,1.76975236706102,1.81626505882866,1.81626505882866,1.87149409110465,1.770221708473,1.82042208276341,1.77371782307251,1.83931067999689,1.8546169570654,1.82400440292838,1.77278871864469,1.77366035269553,1.77461819231183,1.77925413605473,1.77685953701398,1.94453894024387,1.77399559656123,1.96480682652482,1.77701279135259,1.77689785059863,1.77637103880966,1.77302817854877,1.86757652707397,1.77337300081064,1.7724247395905,1.77004929734207,1.77054737394255,1.76983857262648,1.77090177460058,1.76811446131714,1.96513249199437,1.96407886841643,1.76765469830131,1.96595623406439,1.94723046956568,1.94548720146401,1.9501518803954,1.77280787543702,1.77124659686245,1.77264504270225,1.8028361474081,1.79383245501486,1.70163081354959,1.70183195986902,1.70057718997166,1.80306602891601,1.69778029829206,1.69507919057409,1.69410219416546,1.69248344521391,1.80653340832703,1.80489550258315,1.89662780263642,1.69247386681774,1.68983980787291,1.98903059042111,1.68794328543263,1.81333406960277,1.85745216232966,1.68862335156021,1.73558622794751,1.73363223513025,1.73223378929045,1.68667893713911,1.68422686772138,1.68602760620003,1.81274978743683,1.68560615676885,1.68341270404752,1.68393951583649,1.80836288199416,1.68173648471899,1.80735715039705,1.68094147783746,1.6800506869943,1.79311407530263,1.72628560527322,1.7236994383092,1.67680361069504,1.81650451873273,1.67413123816555
1.80948355434524,1.80947397594907,1.73254987636383,1.82458868509432,1.81001994453037,1.81129387122005,1.81472293704641,1.81514438647758,1.8157095118512,1.81752940712218,1.91972131578547,1.82633195319599,1.82532622159888,1.92477870895955,1.8765323274864,1.89099570569257,1.8916853502163,1.89110106805036,1.8825667170691,1.87949205190077,1.88089049774058,1.80662919228866,1.88369696781634,1.88262418744608,1.88989419013382,1.88246135471131,1.88209737565712,1.88630229157268,1.88325636159284,1.80958891670303,1.88053609708254,1.80991458217257,1.88537318714487,1.90499932088291,1.89532514075825,1.88644596751513,1.90199170448772,1.9229013433116,1.9065031290805,1.8893290647602,1.89210679964748,1.91103371046561,1.91591869250875,1.9128248705481,1.89149378229304,1.89205890766666,1.89614888282827,1.91118696480422,1.9272786703581,1.8932657855832,1.91039195792269,1.90895519849823,1.89683852735201,1.89935764554288,1.89602436367815,1.91243215630541,1.90777705577018,1.91198197168575,1.90957779424883,1.91209691243971,1.90602420927235,1.82397566773989,1.91322716318694,1.91514284241955,1.90959695104116,1.92245115869193,1.82680129460798,1.92917519279838,1.90204917486469,1.91907956324255,1.92690511290774,1.91846654588812,1.91728840316006,1.91006629245315,1.9224607370881,1.90644565870352,1.90488438012895,1.82720358724683,1.83117862165448,1.82891812016001,1.83286441937918,1.83115946486216,1.83653294510961,1.92194350369529,1.83214603966695,1.92293007850009,1.92413695641663,1.81644704835575,1.85474147621552,1.76371797747831,1.94159837262182,1.76482907143322,1.81414823327663,1.76337315521644,1.82961734307991,1.81630337241331,1.81569035505888,1.81728036882194,1.87534460636219,1.95615753478961,1.76965658309939,1.77103587214686,1.84250028591918,1.77281745383318,1.77270251307923,1.77562392390895,1.7732005896797,1.95283383132104,1.95601385884717,1.95885864250759,1.95393534687979,1.77509711211998,1.77476186825428,1.77586338381302,1.77396686137275,1.77375613665716,1.82310403368906,1.82167685266077,1.77392854778809,1.94546804467168,1.77292281619098,1.77039411960394,1.77323890326436,1.77116996969314,1.76776963905527,1.99040030107242,1.76816235329795,1.76756849273585,1.7664669771771,1.95182809972393,1.76974278866485,1.77071978507348,1.77001098375742,1.76850717555982,1.76961826951473,1.8011790848719,1.70519397692224,1.70396794221337,1.80014461808629,1.70016531893665,1.80696443615436,1.79900478894289,1.69757915197263,1.69446617321965,1.69658299877168,1.69342212803788,1.6925888075717,1.69065397154677,1.79833430121148,1.69054860918897,1.68995474862687,1.78348778715879,1.77867943228495,1.7772426728605,1.68496440422593,1.73558622794751,1.73331614805687,1.68720574892808,1.73055756996192,1.68682261308156,1.68431307328685,1.81334364799893,1.8103743451884,1.8108149514119,1.80799890293997,1.68079780189502,1.77126575365477,1.67983038388255,1.68133419208015,1.68072117472571,1.67786681266913,1.75648628837523,1.72558638235331,1.67372894552671,1.6775890391804,1.67564462475931
1.82296035774661,1.8966852730134,1.73480079946214,1.73417820371155,1.73428356606934,1.82437796037874,1.82378409981663,1.82709822488904,1.81453136912315,1.8164087347711,1.82288373057731,1.90249935948436,1.82732810639695,1.92586106772597,1.87966446303171,1.87916638643123,1.89994192770883,1.87686757135211,1.87649401390175,1.88334256715831,1.8047518266407,1.88015296123602,1.88243261952282,1.80557556871072,1.88440576913241,1.88129279037942,1.80495297296013,1.87927174878902,1.88006675567056,1.88054567547871,1.88314142083889,1.88259545225759,1.90748012548913,1.90033464195151,1.81091073537353,1.90463534182871,1.90244188910738,1.90268134901145,1.89389795972996,1.89507610245801,1.88901297768682,1.8890704480638,1.89037310994197,1.89304548247145,1.91970215899315,1.89368723501437,1.91619646599748,1.90639776672271,1.81981864380514,1.8952102000043,1.91786310692985,1.89477917217696,1.89535387594674,1.91980752135094,1.82521128084492,1.8966852730134,1.89671400820189,1.89644581310933,1.90241315391889,1.91315053601764,1.82644689394995,1.82592008216098,1.92247989388042,1.91034406594187,1.82618827725355,1.90336141513903,1.91369650459893,1.93889726490385,1.90907971764835,1.9241177996243,1.82741431196242,1.91155094385841,1.91615815241283,1.82795070214755,1.90565065182199,1.90349551268531,1.90874447378265,1.90432883315149,1.82709822488904,1.82915758006409,1.82919589364874,1.83028783081132,1.83206941249765,1.91590911411259,1.83261538107894,1.90707783285028,1.9223553747303,1.8549809361196,1.76543251039149,1.76409153492867,1.96563056859484,1.76667770189268,1.81573824703969,1.8378068717993,1.81531679760852,1.76644782038477,1.93865780499977,1.83374563182617,1.76981941583416,1.76781753103608,1.77007803253056,1.77016423809603,1.77298986496412,1.77573886466291,1.77305691373726,1.77266419949457,1.95535294951192,1.77572928626674,1.97165537978139,1.94530521193691,1.95882032892293,1.95868623137665,1.96303482323466,1.77641893079048,1.77730014323748,1.95844677147258,1.82477067462142,1.82422470604013,1.77045158998092,1.94986452851051,1.77301860015261,1.94334164072349,1.77145732157803,1.7698864646073,1.96447158265912,1.96147354466009,1.9610042032481,1.76940754479915,1.95516138158866,1.77080599063895,1.76793247179004,1.77109334252384,1.77316227609505,1.77038454120777,1.81998147653991,1.70390089344023,1.80298940174671,1.7052035553184,1.70379553108244,1.69903506818941,1.8067728682311,1.8046751994714,1.80871728265219,1.69811554215776,1.80596828295341,1.6928474242681,1.69158307597458,1.69154476238993,1.691372351259,1.68839347005229,1.69033788447339,1.68728237609738,1.68920763372615,1.68955245598802,1.68718659213575,1.68517512894152,1.6868896618547,1.79646651395969,1.73139089042811,1.68264643235448,1.68390120225184,1.68253149160052,1.81310418809486,1.68239739405424,1.68472494432186,1.68134377047631,1.77366993109169,1.73047136439646,1.79297997775635,1.80846824435196,1.80396639815533,1.67458142278521,1.67764650955738,1.67753156880343,1.67789554785762,1.67450479561591
1.89600520688583,1.80761576709345,1.80657172191168,1.82507718329864,1.80688780898506,1.82539327037202,1.8127306306445,1.81257737630589,1.82928209921421,1.81443558516152,1.82460784188665,1.82696412734275,1.82932041279886,1.89941511591986,1.8935244022796,1.8788119857732,1.878448006719,1.89367765661821,1.87807444926865,1.88029663717847,1.87988476614346,1.88108206566384,1.80456025871744,1.80495297296013,1.80513496248722,1.88592873412233,1.88165676943362,1.88218358122258,1.80924409444116,1.80610238049969,1.80987626858792,1.88016253963219,1.88246135471131,1.91028659556489,1.8840705252667,1.90329436636589,1.81346816714905,1.81264442507903,1.90751843907378,1.81799874853416,1.89024859079185,1.89147462550072,1.90372539419322,1.91873474098068,1.90905098245986,1.89232710275923,1.89534429755058,1.91029617396106,1.90675216738074,1.90272924099227,1.90249935948436,1.89645539150549,1.9146639226114,1.90042084751698,1.89822739479565,1.89700136008678,1.89645539150549,1.89806456206088,1.82586261178401,1.82538369197586,1.82348716953558,1.8960626772628,1.90640734511887,1.91849528107661,1.91314095762148,1.90902224727138,1.82439711717106,1.90221200759947,1.90092850251362,1.91938607191977,1.91712557042529,1.9019438125069,1.89942469431603,1.92401243726651,1.91064099622293,1.90328478796972,1.90195339090306,1.82819016205162,1.82909053129095,1.8322897156094,1.82971312704154,1.8270311761159,1.83454063870771,1.83228013721323,1.9256982349912,1.91307390884833,1.90511426163686,1.76502063935648,1.76411069172099,1.95591807488554,1.94259452582277,1.76434057322891,1.8185064035308,1.81593939335911,1.81385130299557,1.93716357519834,1.81655241071355,1.81668650825983,1.76651486915791,1.8689941297061,1.81951213512792,1.86938684394878,1.77564308070127,1.77419674288066,1.7738231854303,1.77460861391567,1.77612200050943,1.96456736662075,1.77565265909744,1.9620674052222,1.94220181158009,1.95373420056037,1.77792273898807,1.77710857531422,1.77777906304563,1.77468524108497,1.77669670427921,1.7733059520375,1.77389023420344,1.98566857336789,1.77151479195501,1.77298028656795,1.77077725545046,1.7704036980001,1.76977152385334,1.77007803253056,1.76692674019292,1.76687884821211,1.76993435658811,1.76912019291426,1.76829645084424,1.77074852026197,1.76939796640298,1.76809530452481,1.81993358455909,1.7059027782383,1.79955075752418,1.70630507087715,1.70008869176735,1.69727264329542,1.80656214351551,1.69757915197263,1.80506791371408,1.809234516045,1.69390104784603,1.69303899219136,1.7486703171062,1.85741384874501,1.68660230996981,1.68815401014822,1.80715600407762,1.68846051882544,1.68554868639188,1.68378626149788,1.73507857295087,1.68485904186814,1.7959971725477,1.73396747899596,1.73238704362906,1.68148744641876,1.67886296587009,1.80952186792989,1.73108438175089,1.79079610343118,1.68438970045615,1.68063496916025,1.68006026539046,1.68255064839285,1.72653464357345,1.80959849509919,1.80780733501671,1.81006783651118,1.67901622020869,1.67750283361494,1.67688023786434,1.67457184438905
1.80592039097259,1.90343804230833,1.80587249899178,1.73322036409524,1.80764450228194,1.82606375810343,1.82621701244204,1.81471335865025,1.73907276415085,1.82307529850057,1.8249047721677,1.81978990861665,1.82687792177729,1.92021939238595,1.91627309316678,1.8892524375909,1.80488592418699,1.88349582149692,1.88430040677461,1.89359145105274,1.88743254231992,1.8069548577582,1.80365988947812,1.80429206362488,1.80714642568146,1.8067728682311,1.80718473926611,1.88118742802163,1.88190580773386,1.89974078138941,1.80762534548961,1.88453986667869,1.88386937894728,1.90318900400809,1.81241454357112,1.89979825176638,1.90257598665366,1.90143615751026,1.90204917486469,1.81663861627901,1.90483648814813,1.8900282876801,1.89000913088777,1.89562207103931,1.81790296457253,1.90221200759947,1.90317942561193,1.89807414045704,1.91301643847136,1.91420415959557,1.91311222243299,1.90962568622965,1.90577517097211,1.90704909766179,1.90994177330303,1.89809329724937,1.82295077935045,1.91376355337207,1.82313276887754,1.9151811560042,1.90978851896442,1.90684795134237,1.90850501387857,1.91868684899987,1.89749943668726,1.89871589299996,1.89646496990165,1.82677255941949,1.90419473560521,1.89860095224601,1.90245146750354,1.91211606923203,1.82750051752788,1.9006219938364,1.90241315391889,1.90203959646853,1.90549739748338,1.82893727695234,1.9019438125069,1.83014415486888,1.83232802919405,1.8332475552257,1.90589011172607,1.9055452894642,1.83272074343673,1.91927113116581,1.83221308844009,1.76659149632722,1.7657677542572,1.7642639460596,1.76182145503803,1.9546058346112,1.76490569860253,1.7648099146409,1.76702252415455,1.76824855886342,1.95628205393973,1.76345936078191,1.87029679158427,1.76932133923368,1.81910984248907,1.76948417196845,1.77383276382646,1.77214696610177,1.82433006839792,1.82491435056387,1.94868638578246,1.77534615042022,1.77350709835692,1.77649555795978,1.776802066637,1.95562114460448,1.7752216312701,1.7769840561641,1.96529532472914,1.77446493797322,1.865756631803,1.86553632869125,1.77465650589648,1.77507795532766,1.77428294844613,1.77345920637611,1.96280494172675,1.96473019935552,1.76913934970658,1.76956079913776,1.77061442271569,1.76929260404519,1.83515365606214,1.83245254834417,1.76693631858909,1.77079641224278,1.77099755856221,1.77093050978907,1.76977152385334,1.70589319984214,1.70407330457116,1.69871898111603,1.80608322370736,1.85633148997858,1.69939904724361,1.85516292564669,1.85660926346731,1.69389146944987,1.69142982163597,1.80470393465989,1.69168843833237,1.85768204383757,1.68967697513814,1.81263484668287,1.68545290243025,1.86068966023276,1.69054860918897,1.73636207803672,1.79672513065609,1.73464754512353,1.73635249964055,1.75306680094503,1.73282764985256,1.68415981894824,1.68378626149788,1.68506018818756,1.73044262920797,1.73083534345065,1.68070201793339,1.68006026539046,1.68337439046287,1.796073799717,1.72936027044155,1.78013534850173,1.8051158056949,1.67715801135307,1.67744536323796,1.67785723427297,1.67833615408112,1.80274994184263
1.82537411357969,1.80734757200088,1.8239469325514,1.8236116886857,1.80718473926611,1.82668635385403,1.82660972668472,1.82614038527273,1.74004018216332,1.82591050376482,1.81818073806126,1.82533579999504,1.82087226738307,1.92625378196865,1.87576605579336,1.89587110933954,1.88851490108634,1.87799782209934,1.89527724877744,1.88742296392376,1.90140742232177,1.80716558247378,1.80690696577738,1.80693570096587,1.80544147116444,1.80716558247378,1.80843950916347,1.88208779726095,1.80789354058217,1.88477932658276,1.80937819198744,1.80977090623013,1.9080835644474,1.90555486786036,1.8888884585367,1.88526782478708,1.88635976194966,1.90609125804549,1.90664680502295,1.89567954141628,1.89102444088105,1.89049762909209,1.91346662309102,1.88998997409545,1.81739530957589,1.90470239060185,1.89401290048392,1.90735560633901,1.82253890831544,1.89737491753714,1.90418515720905,1.82092015936389,1.82087226738307,1.82257722190009,1.82344885595092,1.91390722931452,1.82313276887754,1.82458868509432,1.90953948066418,1.91741292231018,1.82454079311351,1.91410837563394,1.9134187311102,1.82575724942621,1.82623616923436,1.9189358873001,1.92604305725307,1.91721177599076,1.90609125804549,1.91748954947949,1.92143584869865,1.90049747468628,1.91591869250875,1.90952990226802,1.91733629514088,1.90213538043016,1.90509510484454,1.90187676373376,1.83018246845353,1.82925336402572,1.82899474732932,1.8295694510991,1.83113072967367,1.90450124428243,1.90245146750354,1.83220351004393,1.90584221974525,1.76538461841068,1.76524094246823,1.76437888681356,1.76381376143994,1.76526967765672,1.76344020398958,1.76387123181692,1.76360303672435,1.95353305424095,1.76667770189268,1.95498897045772,1.9456691909911,1.76931176083752,1.76787500141306,1.87298832090608,1.77360288231855,1.94406959883188,1.77373697986483,1.8617145486222,1.77384234222263,1.86406125568214,1.95299666405582,1.95272846896325,1.9561862699781,1.95935671910806,1.77749171116074,1.77530783683557,1.96137776069846,1.77629441164036,1.7761028437171,1.77574844305907,1.77412969410752,1.77344962797994,1.92851428346313,1.77116996969314,1.77276956185237,1.7708443042236,1.77209907412096,1.77011634611521,1.81735699599124,1.93729767274462,1.81996231974758,1.81978033022049,1.76934049602601,1.77182130063223,1.77053779554638,1.77110292092,1.77079641224278,1.70637211965029,1.70383384466709,1.80350663513951,1.80349705674335,1.80549894154142,1.80602575333038,1.80856402831359,1.78748197835877,1.80976132783396,1.69127656729736,1.81360226469534,1.68811569656357,1.69136277286283,1.69054860918897,1.8088705369908,1.6876655119439,1.8099337389649,1.68472494432186,1.68392993744033,1.68787623665949,1.75011665492682,1.73379506786503,1.73367054871491,1.79653356273283,1.68451421960627,1.80995289575722,1.68477283630267,1.68356595838613,1.68076906670653,1.80621732125365,1.68166943594585,1.67938019926289,1.6806732827449,1.80810426529776,1.80680160341959,1.80681118181575,1.67847983002357,1.80574797984166,1.67931315048975,1.67871928992764,1.67689939465667
1.82592008216098,1.82603502291494,1.82335307198929,1.89998024129348,1.89968331101243,1.806590878704,1.81114061688144,1.81076705943108,1.82765377186649,1.82697370573892,1.81923436163919,1.82003894691689,1.83000047892643,1.90237484033424,1.89798793489157,1.87754763747968,1.80320970485846,1.89112022484268,1.89725997678318,1.89268150341726,1.8853923439372,1.80737630718937,1.8055564119184,1.80878433142534,1.80678244662726,1.80585334219945,1.88033495076312,1.88669500581537,1.886790789777,1.89545923830453,1.88405136847437,1.90526751597547,1.88462607224416,1.80921535925267,1.80991458217257,1.88387895734344,1.88632144836501,1.88637891874199,1.88750916948922,1.9001047604436,1.88789230533575,1.9138593373337,1.90829428916299,1.89954921346615,1.81752940712218,1.91629224995911,1.90065072902489,1.90976936217209,1.89996108450116,1.9068671081347,1.90918508000615,1.89412784123787,1.82258680029625,1.82239523237299,1.90376370777788,1.89999939808581,1.90754717426227,1.91307390884833,1.82553694631446,1.824569528302,1.91539188071979,1.91142642470829,1.91633056354376,1.89913734243114,1.89749943668726,1.82636068838448,1.90884025774428,1.92304501925404,1.826743824231,1.82725147922764,1.90369665900473,1.9049226937136,1.92207760124158,1.90244188910738,1.90196296929923,1.8282476324286,1.90314111202728,1.90345719910066,1.90395527570114,1.90271966259611,1.9033422583467,1.9044054603208,1.90214495882632,1.90413726522823,1.90358171825078,1.92597600847993,1.90533456474861,1.95537210630425,1.76459918992531,1.76365092870517,1.76158199513396,1.76031764684044,1.76495359058334,1.81922478324303,1.94048727866691,1.94157921582949,1.76721409207781,1.94601401325297,1.96169384777184,1.77035580601929,1.77036538441545,1.7700684541344,1.77289408100249,1.77147647837036,1.77278871864469,1.82215577246892,1.7751450041008,1.82304656331208,1.77405306693821,1.77600705975547,1.77521205287394,1.77324848166052,1.82337222878162,1.77971389907056,1.77395728297658,1.77800894455354,1.77633272522501,1.77620820607489,1.77456072193485,1.82319981765069,1.97521854315403,1.76902440895263,1.76732903283177,1.77077725545046,1.81973243823967,1.81933014560082,1.77234811242119,1.81865007947325,1.83802717491105,1.76855506754064,1.77085388261976,1.77118912648547,1.77276956185237,1.77129448884326,1.70539512324166,1.75356487754551,1.80320012646229,1.80432079881337,1.79072905465804,1.75446524678483,1.69673625311029,1.74465696911389,1.74155356875707,1.69377652869591,1.81128429282388,1.69017505173862,1.69090300984701,1.68976318070361,1.69390104784603,1.69064439315061,1.68659273157365,1.68710996496645,1.68684176987389,1.68602760620003,1.81053717792317,1.73391000861898,1.68694713223168,1.68555826478804,1.81300840413323,1.68239739405424,1.67921736652812,1.68208130698086,1.68575941110746,1.68275179471227,1.68211004216935,1.68101810500677,1.67912158256649,1.68123840811852,1.68389162385567,1.80592996936875,1.68076906670653,1.67926525850893,1.80764450228194,1.67864266275834,1.7970603745218,1.67709096257993
1.91013334122629,1.73373759748805,1.80727094483158,1.80911957529104,1.81053717792317,1.92277682416148,1.81070001065794,1.81188773178216,1.81156206631261,1.74390985421318,1.8297227054377,1.83237592117486,1.82370747264733,1.9172021975946,1.90583264134909,1.89594773650885,1.80542231437211,1.89783468055296,1.89959710544696,1.896426656317,1.87993265812427,1.88658964345757,1.8042345932479,1.80917704566802,1.80898547774476,1.87921427841205,1.88104375207918,1.88501878648684,1.80777859982822,1.88276786338853,1.88164719103745,1.88415673083217,1.88590957733,1.89331367756402,1.81270189545601,1.81231875960949,1.88866815542495,1.90311237683879,1.89875420658461,1.90229821316493,1.91642634750539,1.88693446571944,1.89003786607626,1.90783452614716,1.90698204888865,1.89172366380096,1.89272939539807,1.89214511323213,1.91079425056153,1.90793031010879,1.90611041483782,1.92357183104301,1.82325728802766,1.91836118353032,1.90266219221913,1.9119436581011,1.90456829305557,1.90093808090978,1.90317942561193,1.90298785768867,1.90292080891553,1.91696273769052,1.92312164642335,1.92772885497776,1.89842854111507,1.91057394744979,1.90675216738074,1.90240357552273,1.90242273231505,1.91596658448957,1.90203001807237,1.82805606450534,1.92302586246172,1.90822724038984,1.90780579095867,1.9139646996915,1.9065031290805,1.90044000430931,1.90110091364456,1.90751843907378,1.90568896540664,1.90443419550929,1.90283460335006,1.91534398873897,1.90525793757931,1.9035242478738,1.83296978173697,1.7656623918994,1.76586353821883,1.76469497388694,1.94211560601462,1.94903120804432,1.76461834671763,1.81580529581283,1.76718535688933,1.94475924335562,1.94420369637816,1.76696505377758,1.76810488292098,1.76763554150899,1.95246027387069,1.96799643244711,1.77328679524517,1.77272166987155,1.84264396186162,1.77118912648547,1.94920361917526,1.77409138052286,1.82463657707514,1.82331475840464,1.77618904928257,1.82593923895331,1.82678213781566,1.77635188201734,1.77580591343605,1.82469404745212,1.77695532097561,1.82294120095428,1.77537488560871,1.77535572881638,1.94891626729037,1.77094008818523,1.77063357950801,1.86383137417423,1.81983780059746,1.8187937554157,1.85632191158242,1.77299944336028,1.77252052355213,1.77106460733535,1.93936660631583,1.94000835885876,1.77140942959722,1.77490554419672,1.70798129020568,1.75546139998578,1.7060847677654,1.7015254511918,1.75004002775751,1.79227117644028,1.79240527398657,1.74635234523475,1.69465774114291,1.69385315586522,1.69089343145084,1.81256779790973,1.69072102031991,1.80636099719609,1.73848848198491,1.68744520883216,1.68773256071705,1.69087427465852,1.80816173567474,1.68694713223168,1.68483030667965,1.80893758576394,1.80699317134285,1.80723263124693,1.80624605644213,1.68389162385567,1.68278052990076,1.6829529410317,1.81305629611404,1.68551037280722,1.74321063129328,1.74065319951775,1.72713808253172,1.68172690632283,1.67876718190846,1.67975375671325,1.6800506869943,1.80569050946468,1.77510669051615,1.77289408100249,1.67767524474587,1.80370778145893
1.8248281449984,1.80619816446132,1.80523074644885,1.81056591311166,1.82631279640367,1.91566965420851,1.73749232878395,1.81328617762196,1.90610083644165,1.8166673514675,1.81775928863009,1.82772082063963,1.82322855283917,1.91952974786221,1.87885987775401,1.9037062374009,1.87986560935113,1.89404163567241,1.8939650085031,1.88738465033911,1.88512414884463,1.80560430389921,1.88317973442354,1.80752956152798,1.804416582775,1.80675371143877,1.88064145944034,1.88103417368302,1.88291153933097,1.89907029365799,1.81095862735434,1.81036476679223,1.89905113686567,1.89739407432946,1.88312226404656,1.90869658180183,1.88403221168205,1.81363099988383,1.88654175147676,1.88919496721392,1.88895550730984,1.89232710275923,1.8957274333971,1.88929075117555,1.89219300521294,1.81987611418212,1.9089647768944,1.90473112579034,1.90281544655774,1.91690526731354,1.8193876159778,1.89385006774915,1.90438630352847,1.91567923260468,1.91444361949965,1.91597616288573,1.90007602525511,1.91097624008863,1.9158037517548,1.91237468592843,1.90257598665366,1.90888814972509,1.82572851423772,1.82657141310007,1.82617869885739,1.90146489269875,1.91787268532601,1.82497182094085,1.8996641542201,1.91684779693657,1.92522889357921,1.89862010903833,1.82962692147607,1.91972131578547,1.89901282328102,1.82729937120846,1.90511426163686,1.90421389239754,1.90579432776444,1.90381159975869,1.90908929604452,1.90861037623637,1.82944493194898,1.90850501387857,1.90707783285028,1.91581333015096,1.91345704469486,1.76201302296129,1.76427352445577,1.94460598901701,1.76637119321547,1.76421605407879,1.76370839908215,1.76353598795121,1.7628655002198,1.76772174707445,1.76614131170756,1.76410111332483,1.76927344725286,1.76745355198189,1.76721409207781,1.7727599834562,1.77388065580728,1.82018262285933,1.77666796909072,1.77447451636939,1.77612200050943,1.77583464862454,1.95748893185627,1.7762848332442,1.85330471679107,1.77650513635595,1.77670628267537,1.94206771403381,1.77640935239432,1.77616989249024,1.82455994990584,1.86573747501067,1.86306510248119,1.77455114353869,1.77414885089984,1.77466608429265,1.77371782307251,1.77350709835692,1.77244389638283,1.82084353219458,1.81948339993943,1.77083472582744,1.76950332876078,1.7729419729833,1.94201982205299,1.94470177297864,1.77644766597897,1.77295155137947,1.77319101128354,1.70614223814238,1.70273232910834,1.70233003646949,1.79332480001822,1.74663969711964,1.69692782103355,1.69618070613283,1.7428945442199,1.6942458701079,1.69278995389112,1.85889850015027,1.69097005862015,1.68892028184126,1.68931299608395,1.81256779790973,1.6898685430614,1.68847967561776,1.68526133450699,1.68300083301251,1.68338396885903,1.81236665159031,1.81044139396154,1.73101733297775,1.6870716513818,1.68376710470555,1.77935949841253,1.68186100386911,1.6835468015938,1.68142997604178,1.6811905161377,1.80440700437883,1.68113304576072,1.67990701105186,1.67726337371086,1.68127672170317,1.68033803887919,1.67832657568496,1.67967712954394,1.68132461368398,1.72563427433413,1.80295108816205
1.73326825607606,1.80718473926611,1.82397566773989,1.80780733501671,1.82728021441613,1.82688750017345,1.73997313339018,1.81237622998647,1.81503902411979,1.81683018420228,1.82712696007753,1.82328602321615,1.8230657201044,1.91708725684064,1.92265230501136,1.8039759765515,1.80591081257643,1.80577671503015,1.88051694029022,1.88527740318324,1.88607241006477,1.87966446303171,1.80500086494094,1.80582460701096,1.87834264436121,1.87643654352477,1.8797698253895,1.88543065752185,1.88066061623266,1.88092881132523,1.88540192233336,1.91203944206273,1.81072874584643,1.88661837864606,1.87972193340869,1.89252824907865,1.8966086458441,1.89860095224601,1.88820839240913,1.91250878347472,1.90522920239082,1.8894056919295,1.89231752436306,1.89363934303356,1.817989170138,1.81893743135814,1.89289222813284,1.82062322908283,1.89692473291748,1.88745169911225,1.91541103751211,1.91621562278981,1.90969273500279,1.89222174040143,1.89611056924362,1.90265261382296,1.89685768414434,1.90998966528384,1.91006629245315,1.89717377121772,1.91307390884833,1.89520062160813,1.91556429185072,1.91027701716873,1.9167615913711,1.91677116976726,1.89762395583738,1.90335183674287,1.91954890465454,1.90048789629012,1.90946285349487,1.89688641933282,1.91388807252219,1.91700105127517,1.92177109256436,1.82970354864538,1.82702159771973,1.82859245469047,1.90634987474189,1.90439588192464,1.91179040376249,1.90255682986133,1.83137018957775,1.82988553817248,1.9154397727006,1.90980767575674,1.90268134901145,1.76475244426392,1.76503979614881,1.76442677879437,1.93942407669281,1.86301721050037,1.86956883347588,1.81167700706657,1.76523136407207,1.76543251039149,1.96554436302938,1.95547746866204,1.76941712319531,1.76761638471666,1.76955122074159,1.77181172223607,1.77174467346292,1.77125617525861,1.77119870488163,1.77419674288066,1.95594681007403,1.95946208146586,1.95596596686635,1.95891611288456,1.77629441164036,1.82864034667128,1.77658176352525,1.94492207609039,1.77775032785714,1.77611242211326,1.77629441164036,1.82417681405931,1.82255806510776,1.77071020667732,1.77688827220247,1.95494107847691,1.77373697986483,1.82082437540226,1.77085388261976,1.77362203911088,1.77270251307923,1.77093050978907,1.94264241780359,1.772865345814,1.94677070654985,1.77159141912432,1.77606453013245,1.77174467346292,1.70693724502391,1.70470547871792,1.70234919326182,1.70332618967045,1.74934080483761,1.7477124774899,1.69716728093762,1.69366158794196,1.69223440691367,1.75691731620256,1.74194628299976,1.6929240514374,1.69092216663933,1.69002179740001,1.69048156041583,1.68634369327341,1.68423644611754,1.68527091290315,1.68720574892808,1.81057549150782,1.68396825102498,1.81024982603828,1.80800848133613,1.73324909928373,1.79060453550792,1.78593027818036,1.78255868273098,1.68046255802931,1.67892043624706,1.67852772200438,1.68131503528782,1.68153533839957,1.67897790662404,1.80483803220617,1.80605448851887,1.7301744341154,1.72809592214803,1.74008807414413,1.72682199545834,1.72544270641087,1.80280741221961,1.77275040506004
1.8974898582911,1.80746251275484,1.73409199814608,1.80732841520856,1.82820931884395,1.82553694631446,1.92700089686937,1.81371720544929,1.82969397024922,1.90429051956684,1.82587219018017,1.82704075451206,1.82745262554707,1.92483617933653,1.80725178803925,1.87916638643123,1.90051663147861,1.9066851186076,1.8797698253895,1.88979840617219,1.89404163567241,1.87950163029694,1.87910891605425,1.88210695405328,1.8782947523804,1.80760618869728,1.88101501689069,1.88915665362926,1.88251882508829,1.88045946991324,1.91566965420851,1.88095754651372,1.89771973979901,1.88195369971467,1.8817908669799,1.91359114224114,1.88853405787867,1.92547793187945,1.88765284543167,1.90523878078698,1.81370762705313,1.8923845731362,1.81585318779365,1.88657048666525,1.89261445464412,1.90944369670255,1.90167561741434,1.8200868388977,1.88794977571272,1.9087827873673,1.91964468861617,1.91634972033609,1.89608183405513,1.90402232447428,1.91978836455861,1.89354355907193,1.90560275984118,1.89934806714672,1.90075609138269,1.89898408809253,1.89828486517263,1.9023077915611,1.92014276521665,1.91618688760132,1.8991469208273,1.82643731555379,1.91574628137782,1.91624435797829,1.91430952195336,1.89908945045032,1.92609094923388,1.9001047604436,1.90570812219897,1.827625036678,1.92995104288758,1.82607333649959,1.89773889659133,1.89667569461724,1.83030698760365,1.90583264134909,1.90539203512559,1.82991427336097,1.82835299478639,1.906943735304,1.91574628137782,1.91152220866992,1.90631156115724,1.76662980991187,1.81327659922579,1.7653271480337,1.81383214620325,1.81264442507903,1.81517312166607,1.81390877337255,1.81453136912315,1.81452179072699,1.94661745221124,1.76675432906199,1.84153286790671,1.76905314414111,1.84948293672202,1.7698864646073,1.7721661228941,1.95914599439248,1.77254925874062,1.77326763845284,1.77616031409408,1.86269154503083,1.77601663815163,1.77331553043366,1.77347836316843,1.83045066354609,1.82641815876146,1.77445535957706,1.77679248824084,1.77541319919336,1.82467489065979,1.82422470604013,1.7744457811809,1.8243875387749,1.82359253189337,1.77464692750032,1.77511626891231,1.86992323413391,1.86754779188548,1.77230022044038,1.77130406723943,1.95273804735941,1.9561096428088,1.94087041451343,1.93845665868035,1.93822677717243,1.7730473353411,1.77207991732863,1.77119870488163,1.70659242276204,1.80660045710017,1.80473266984838,1.7012668344954,1.74761669352827,1.69997375101339,1.74681210825057,1.74389069742085,1.78823867165565,1.69110415616643,1.78215639009213,1.68959076957267,1.68985896466524,1.68915016334917,1.80766365907426,1.68615212535015,1.68584561667293,1.68531880488396,1.81225171083635,1.68527091290315,1.68357553678229,1.68154491679573,1.80730925841623,1.68211004216935,1.73156330155904,1.73165908552067,1.67925568011277,1.6793514640744,1.68132461368398,1.68185142547295,1.77881352983124,1.68279010829693,1.68182269028446,1.68202383660388,1.72722428809719,1.72776067828232,1.67982080548639,1.72821086290198,1.72721470970103,1.72704229857009,1.67562546796698
1.7330766881528,1.82613080687657,1.8087939098215,1.80813300048625,1.90573685738746,1.82637026678065,1.81258695470206,1.81220381885553,1.83035487958446,1.83025909562283,1.74510715373356,1.82817100525929,1.82923420723339,1.91942438550442,1.87928132718519,1.88038284274394,1.80632268361144,1.87931964076984,1.88047862670557,1.89059341305372,1.8830073232926,1.88859152825565,1.87754763747968,1.80846824435196,1.80937819198744,1.88159929905664,1.88560306865278,1.88074682179813,1.88901297768682,1.80848740114428,1.88547854950266,1.88363949743936,1.88334256715831,1.88578505817988,1.88408968205903,1.88426209318996,1.9036008750431,1.88726970958515,1.8148282994042,1.91546850788909,1.88918538881775,1.88943442711799,1.81762519108381,1.81756772070683,1.91664665061714,1.90247062429587,1.90999924368,1.82144697115285,1.89198228049736,1.90768127180855,1.89708756565225,1.82454079311351,1.91493211770396,1.82524001603341,1.90618704200712,1.82406187330536,1.90189592052609,1.906943735304,1.82641815876146,1.90685752973853,1.89820823800332,1.91356240705265,1.89911818563881,1.90087103213664,1.90717361681191,1.90416600041672,1.90585179814141,1.8247515178291,1.90118711921002,1.91248004828623,1.93544904228516,1.90244188910738,1.9151045288349,1.89997066289732,1.9203630683284,1.90016223082058,1.9015032062834,1.90066030742106,1.90456829305557,1.90831344595531,1.90647439389201,1.90438630352847,1.82965565666456,1.91702978646366,1.83029740920749,1.91007587084931,1.92325574396963,1.76503979614881,1.76600721416127,1.76564323510708,1.86611103246103,1.81420570365361,1.76578691104952,1.87474116740391,1.76732903283177,1.85625486280928,1.81700259533321,1.76634245802698,1.76702252415455,1.81503902411979,1.81820947324975,1.81942592956245,1.81886080418884,1.87826601719191,1.86962630385286,1.77411053731519,1.82344885595092,1.86508614407159,1.96587002849892,1.77587296220919,1.77834418841925,1.77678290984467,1.77641893079048,1.77587296220919,1.77693616418328,1.77529825843941,1.82384157019361,1.77553771834348,1.94956759822945,1.77530783683557,1.77456072193485,1.77578675664372,1.82741431196242,1.87015311564183,1.77378487184565,1.95195261887405,1.94242211469184,1.77442662438857,1.77281745383318,1.77407222373054,1.77173509506676,1.773746558261,1.77366993109169,1.77365077429937,1.70823990690208,1.80232849241146,1.70369974712081,1.70052929799085,1.80654298672319,1.69871898111603,1.69706191857983,1.7467546378736,1.6952037097242,1.69596998141725,1.69190874144412,1.69173633031319,1.69220567172518,1.68911184976452,1.89478875057312,1.78266404508877,1.68496440422593,1.80760618869728,1.68510808016838,1.68375752630939,1.81360226469534,1.68371921272474,1.6837287911209,1.81047970754619,1.73357476475328,1.68351806640532,1.68081695868734,1.80641846757307,1.73047136439646,1.68370005593241,1.80661003549633,1.80255837391937,1.77951275275114,1.67983996227871,1.67972502152476,1.68003153020198,1.6781350077617,1.72690820102381,1.78938807919521,1.67614270135979,1.67816374295019,1.67739747125714
1.90608167964933,1.80964638708001,1.80712726888913,1.82916715846025,1.81008699330351,1.82958860789142,1.81351605912987,1.82960776468375,1.81610222609389,1.74294243620071,1.74622782608463,1.90350509108147,1.82958860789142,1.91207775564738,1.80642804596923,1.80696443615436,1.8827487065962,1.89526767038127,1.92221169878786,1.8053744223913,1.89151293908537,1.88291153933097,1.80803721652462,1.80657172191168,1.80618858606516,1.88447281790555,1.88228894358038,1.87898439690413,1.87896524011181,1.88037326434777,1.92619631159168,1.91963511022001,1.90558360304885,1.88567011742592,1.90706825445412,1.88585210695302,1.88878309617891,1.90069862100571,1.88885014495205,1.88788272693958,1.89269108181342,1.8904688939036,1.89239415153237,1.91067930980758,1.81823820843824,1.90690542171935,1.90665638341911,1.89504736726952,1.89338072633716,1.82229944841136,1.90613915002631,1.82106383530633,1.90880194415963,1.89975035978557,1.92622504678017,1.90611041483782,1.90564107342583,1.82608291489576,1.90410853003974,1.90656059945748,1.82260595708858,1.91552597826607,1.89945342950452,1.90023885798988,1.90101470807909,1.91339957431788,1.8257093574454,1.90375412938171,1.90867742500951,1.82706948970055,1.90055494506326,1.91654128825935,1.90000897648197,1.90319858240426,1.9023077915611,1.82823805403244,1.82771124224347,1.90083271855199,1.90231736995726,1.82955987270293,1.82700244092741,1.90342846391217,1.82991427336097,1.90910845283684,1.91723093278309,1.90819850520136,1.76788457980923,1.76657233953489,1.76635203642314,1.76686926981595,1.76686926981595,1.76667770189268,1.76960869111857,1.76667770189268,1.7661029981229,1.81418654686128,1.7662083604807,1.76875621386006,1.76697463217374,1.81900448013128,1.8654980151066,1.81762519108381,1.7727599834562,1.77331553043366,1.86261491786153,1.86590030774544,1.77471397627346,1.77494385778137,1.77582507022837,1.7768786938063,1.77544193438185,1.77361246071471,1.77378487184565,1.77675417465619,1.77451282995404,1.93984552612398,1.77759707351853,1.9565502490323,1.77440746759624,1.9417324701681,1.7769840561641,1.82308487689673,1.82988553817248,1.77355499033774,1.86204021409175,1.77287492421016,1.7738998125996,1.77398601816507,1.77436915401159,1.77587296220919,1.77323890326436,1.77656260673292,1.77425421325764,1.77152437035117,1.70726291049345,1.70462885154862,1.80404302532464,1.70242582043112,1.70033773006759,1.70001206459804,1.69870940271987,1.69627649009446,1.78876548344462,1.80074805704456,1.69467689793524,1.69346044162253,1.69070186352758,1.69073059871607,1.68871913552184,1.68842220524078,1.68734942487053,1.80925367283732,1.81302756092556,1.68370005593241,1.68493566903744,1.73363223513025,1.68476325790651,1.68356595838613,1.68198552301923,1.6846100035679,1.80217523807285,1.68649694761202,1.79683049301388,1.68006984378663,1.80732841520856,1.80733799360472,1.80926325123349,1.80241469797693,1.68055834199094,1.67879591709695,1.73014569892691,1.68080738029118,1.67871928992764,1.7313142632588,1.72953268157248,1.68048171482164
1.82726105762381,1.73410157654224,1.80631310521528,1.82774955582812,1.81085326499655,1.8100103661342,1.90257598665366,1.81576698222818,1.81636084279029,1.83123609203146,1.90314111202728,1.81907152890442,1.82197378294182,1.90357213985462,1.76588269501115,1.87853421228447,1.88979840617219,1.88943442711799,1.88263376584225,1.88946316230648,1.87769131342213,1.89233668115539,1.80626521323446,1.80682076021192,1.80813300048625,1.88577547978372,1.88471227780962,1.8838885357396,1.80992416056874,1.88221231641107,1.88586168534918,1.91241299951309,1.88498047290219,1.81018277726514,1.81021151245363,1.88359160545855,1.8986296874345,1.9025664082575,1.88954936787195,1.88861068504797,1.81514438647758,1.90309322004646,1.90343804230833,1.89901282328102,1.81887996098116,1.91275782177495,1.90553571106803,1.92185729812983,1.89639792112851,1.89498989689255,1.8226251138809,1.82135118719122,1.90607210125316,1.91042069311118,1.91880178975382,1.90847627869008,1.90014307402825,1.91643592590156,1.92593769489527,1.91819835079555,1.91531525355048,1.90529625116396,1.91524820477734,1.91359114224114,1.91547808628525,1.90543034871024,1.82664804026937,1.90954905906034,1.82663846187321,1.90883067934811,1.90919465840231,1.90281544655774,1.90078482657118,1.82661930508089,1.82641815876146,1.89985572214336,1.89916607761962,1.90512384003302,1.90389780532416,1.82612122848041,1.8243109116056,1.82421512764397,1.83179163900892,1.8297227054377,1.83032614439598,1.90968315660662,1.90882110095195,1.76707041613537,1.94374393336234,1.94607148362995,1.76670643708117,1.76521220727974,1.76634245802698,1.76371797747831,1.86024905400926,1.85688703695604,1.76803783414783,1.76916808489507,1.77046116837708,1.76708957292769,1.86833322037085,1.77052821715022,1.94330332713884,1.77091135299674,1.77482891702742,1.77345920637611,1.94610021881844,1.95323612395989,1.77635188201734,1.77543235598569,1.77736719201062,1.77623694126338,1.82503886971399,1.82367873745884,1.77679248824084,1.77911046011229,1.77693616418328,1.97138718468882,1.77604537334012,1.77534615042022,1.7738231854303,1.82425344122862,1.822807103408,1.7747043978773,1.77646682277129,1.77282703222935,1.82156191190681,1.77113165610849,1.77321974647203,1.94911741360979,1.77544193438185,1.82329560161232,1.7721661228941,1.82296035774661,1.75539435121264,1.75530814564718,1.81936845918548,1.70347944400906,1.80269247146565,1.80935903519512,1.697483368011,1.6973301136724,1.69583588387096,1.80494339456396,1.69445659482349,1.69055818758514,1.80556599031456,1.68851798920241,1.80781691341287,1.81213677008239,1.80700274973901,1.68561573516502,1.68536669686478,1.68458126837941,1.68241655084657,1.68177479830365,1.73141004722043,1.6836521639516,1.68408319177893,1.80658130030784,1.68088400746048,1.68091274264897,1.78192650858422,1.68082653708351,1.68097021302595,1.68070201793339,1.67802006700774,1.68202383660388,1.68211962056551,1.74293285780455,1.68097021302595,1.67961965916697,1.79419643406905,1.79576729103979,1.73127594967415,1.67936104247056
1.83009626288806,1.82961734307991,1.80668666266563,1.90147447109491,1.80939734877977,1.91546850788909,1.81024982603828,1.73968578150529,1.81691638976774,1.82981848939934,1.90941496151406,1.81989527097444,1.82947366713747,1.93236479872066,1.88220273801491,1.88251882508829,1.80826709803253,1.80729968002007,1.89680021376736,1.88106290887151,1.88363949743936,1.89034437475348,1.88119700641779,1.80910041849872,1.80801805973229,1.80636099719609,1.88261460904992,1.8879306189204,1.88641723232664,1.89279644417121,1.88589999893384,1.88397474130507,1.88496131610986,1.81242412196728,1.89815076762634,1.81279767941764,1.81306587451021,1.88674289779618,1.81448347714233,1.90538245672943,1.90690542171935,1.81628421562098,1.90871573859416,1.91142642470829,1.90237484033424,1.82020177965166,1.82007726050154,1.90888814972509,1.90331352315821,1.90666596181527,1.90240357552273,1.8965032834863,1.89579448217024,1.82548905433365,1.82348716953558,1.90347635589298,1.91533441034281,1.90918508000615,1.90277713297308,1.93975932055852,1.899482164693,1.8998461437472,1.90021970119756,1.91072720178839,1.90859121944404,1.89931933195823,1.82747178233939,1.91855275145358,1.90008560365127,1.89946300790068,1.90399358928579,1.82652352111925,1.9048460665443,1.82755798790486,1.82637984517681,1.90276755457692,1.90165646062201,1.90191507731841,1.82751009592405,1.82728021441613,1.82644689394995,1.82846793554035,1.82955987270293,1.90048789629012,1.9062445123841,1.83240465636335,1.90365834542008,1.86280648578479,1.94598527806448,1.76670643708117,1.9525081658515,1.8389467009427,1.76686926981595,1.76555702954161,1.81478040742339,1.86711676405815,1.76977152385334,1.76950332876078,1.77030791403847,1.76868916508692,1.86908991366773,1.77015465969986,1.94265199619975,1.77381360703414,1.77271209147539,1.77279829704086,1.86336203276224,1.77355499033774,1.82314234727371,1.77707984012573,1.82403313811687,1.82458868509432,1.8250867616948,1.82491435056387,1.77649555795978,1.77627525484803,1.77702236974875,1.7772426728605,1.86936768715646,1.77903383294298,1.77615073569791,1.94560214221796,1.77568139428593,1.77449367316171,1.77542277758953,1.82458868509432,1.83679156180602,1.82327644481999,1.77402433174972,1.93886852971536,1.77651471475211,1.77372740146867,1.773746558261,1.77477144665044,1.71035673245411,1.70561542635341,1.821925890961,1.70309630816254,1.79436884519999,1.80106414411794,1.69668836112947,1.69691824263739,1.69449490840814,1.78577702384175,1.69356580398033,1.69230145568681,1.80462730749058,1.69073059871607,1.80041281317885,1.80675371143877,1.68727279770122,1.73312458013361,1.79165815908585,1.73389085182666,1.79263515549448,1.68097021302595,1.77924455765857,1.68237823726192,1.77361246071471,1.68126714330701,1.79377498463788,1.79093977937362,1.67947598322452,1.67867139794683,1.80733799360472,1.68188016066144,1.80702190653134,1.6822537181118,1.80320970485846,1.80329591042392,1.67696644342981,1.68128630009933,1.68150660321108,1.67931315048975,1.87976024699334,1.87802655728783
1.82583387659552,1.8081713140709,1.80743377756635,1.90930959915627,1.8136884702608,1.82936830477967,1.83018246845353,1.81311376649102,1.81485703459269,1.83056560430005,1.82299867133126,1.82406187330536,1.90437672513231,1.90394569730497,1.8963500291477,1.88247093310747,1.88868731221728,1.80801805973229,1.89995150610499,1.91076551537305,1.88117784962547,1.80789354058217,1.80694527936204,1.80829583322102,1.80740504237786,1.80843950916347,1.88578505817988,1.88605325327245,1.88309352885807,1.8826720794269,1.81061380509247,1.88289238253865,1.88665669223072,1.89661822424026,1.88524866799475,1.89611056924362,1.88584252855686,1.88676205458851,1.88748043430074,1.9127195081903,1.91907956324255,1.90216411561865,1.91892630890394,1.81937803758164,1.8931891584139,1.89582321735873,1.91611026043201,1.81962707588188,1.90986514613372,1.92243200189961,1.82218450765741,1.82131287360657,1.89946300790068,1.82318066085836,1.90243231071122,1.93627278435518,1.90698204888865,1.89973120299324,1.89778678857215,1.89929059676974,1.90589969012223,1.90947243189104,1.90163730382968,1.90039211232849,1.91151263027376,1.90151278467956,1.91234595073994,1.90854332746322,1.90108175685223,1.82593923895331,1.82554652471063,1.9029016521232,1.92593769489527,1.90099555128676,1.91384975893754,1.89934806714672,1.89883083375392,1.82702159771973,1.82614038527273,1.82691623536194,1.82828594601325,1.82836257318256,1.91175209017784,1.90417557881289,1.92224043397635,1.90611041483782,1.90687668653086,1.81534553279701,1.76994393498428,1.76914892810275,1.76660107472338,1.76713746490851,1.8243875387749,1.76626583085767,1.8196462326742,1.81637999958261,1.77030791403847,1.81829567881522,1.76802825575167,1.76669685868501,1.77096882337372,1.77038454120777,1.77313354090656,1.77237684760968,1.77253968034446,1.77450325155788,1.86066092504427,1.77492470098905,1.77306649213342,1.77744381917992,1.77771201427249,1.95965364938912,1.77803767974203,1.77668712588304,1.77721393767201,1.77650513635595,1.77759707351853,1.77641893079048,1.77557603192813,1.82407145170152,1.77637103880966,1.77379445024181,1.95332232952536,1.77684038022165,1.77612200050943,1.77441704599241,1.77596874617082,1.77161057591664,1.77587296220919,1.77668712588304,1.77648597956362,1.83757699029138,1.83862103547315,1.83755783349906,1.8103743451884,1.80742419917019,1.79473282425418,1.79098767135444,1.70029941648293,1.74635234523475,1.74609372853835,1.69395851822301,1.69730137848391,1.69269416992949,1.69335507926474,1.69221525012134,1.68823063731752,1.80370778145893,1.80559472550305,1.68847967561776,1.68750267920913,1.73459965314272,1.73621840209427,1.79349721114915,1.73255945476,1.68255064839285,1.68131503528782,1.79413896369207,1.68466747394488,1.68338396885903,1.73022232609622,1.79157195352038,1.80364073268579,1.68179395509597,1.80629394842295,1.68118093774154,1.68043382284082,1.67924610171661,1.6791694745473,1.677330422484,1.67754114719959,1.68255064839285,1.67947598322452,1.67915031775498,1.67642047484852,1.67987827586337
1.80648551634621,1.80640888917691,1.82742389035858,1.73688888982568,1.83044108514993,1.81167700706657,1.81044139396154,1.81650451873273,1.81613096128237,1.81763476947997,1.82016346606701,1.7486703171062,1.8306039178847,1.90894562010207,1.87754763747968,1.8082766764287,1.8794345815238,1.8788886129425,1.8776721566298,1.80894716416011,1.89408952765322,1.88360118385471,1.80697401455052,1.80957933830687,1.80772112945124,1.8097517494378,1.80894716416011,1.80924409444116,1.88262418744608,1.80939734877977,1.88288280414248,1.88336172395064,1.9015032062834,1.88466438582881,1.90908929604452,1.91171377659318,1.88728886637748,1.88683868175781,1.88866815542495,1.90889772812126,1.88714519043503,1.91681906174808,1.81654283231738,1.89595731490501,1.89593815811269,1.88549770629499,1.89304548247145,1.90166603901817,1.90410853003974,1.89795919970308,1.9054399271064,1.91813130202241,1.91272908658647,1.90496100729825,1.90894562010207,1.90973104858744,1.92144542709482,1.9037062374009,1.89584237415106,1.92738403271589,1.91494169610012,1.91184787413947,1.90095723770211,1.91656044505167,1.90117754081386,1.90052620987477,1.91483633374233,1.9087827873673,1.89586153094338,1.89622550999758,1.91584206533945,1.91596658448957,1.89759522064889,1.89771973979901,1.91255667545553,1.8258913469725,1.90314111202728,1.82717485205834,1.82657141310007,1.82671508904252,1.82941619676049,1.90202043967621,1.90546866229489,1.82935872638351,1.82634153159216,1.92467334660176,1.90318900400809,1.76613173331139,1.77067189309267,1.95496023526924,1.76851675395599,1.76667770189268,1.85834295317282,1.81621716684784,1.81547005194713,1.76896693857565,1.86598651331091,1.76837307801354,1.83243339155184,1.76960869111857,1.77011634611521,1.77095924497756,1.77164888950129,1.77277914024853,1.77139985120106,1.96259421701116,1.77404348854205,1.77449367316171,1.82175347983007,1.77673501786386,1.94339911110047,1.7765434499406,1.77678290984467,1.83091042656192,1.77644766597897,1.77692658578712,1.86133141277568,1.77793231738424,1.77721393767201,1.7770606833334,1.77288450260632,1.77551856155116,1.77474271146195,1.77451282995404,1.77362203911088,1.77650513635595,1.77459903551951,1.77346878477227,1.77317185449121,1.77395728297658,1.77616031409408,1.85450201631145,1.77315269769889,1.83595824133983,1.708881659445,1.70698513700472,1.75101702416614,1.75022201728461,1.79277883143692,1.74680252985441,1.69531865047816,1.69623817650981,1.69384357746906,1.69501214180094,1.69376695029975,1.79308534011414,1.69318266813381,1.69064439315061,1.69018463013478,1.68988769985373,1.81084368660039,1.73582568785159,1.73290427702186,1.7943401100115,1.73262650353314,1.80720389605844,1.68427475970219,1.68362342876311,1.78144758877607,1.8015909559069,1.79986684459756,1.68104684019526,1.80653340832703,1.68034761727536,1.68165027915353,1.68000279501349,1.77309522732191,1.68191847424609,1.67976333510941,1.68070201793339,1.80355452712033,1.67960050237464,1.79926340563929,1.68086485066816,1.77300902175644,1.68032846048303
