2.01797, 2.01059, 2.01894, 1.74297, 1.74333, 1.74255, 1.79283, 1.83117, 1.7909, 1.79056, 1.84677, 1.84793, 1.7424, 1.74247, 1.84875, 1.74114, 1.83199, 1.74097, 1.79242, 1.74259, 1.74307, 1.74377, 1.74423, 1.74437, 1.74272, 1.74399, 1.74063, 1.79141, 1.79268, 1.79278, 1.79106, 1.74516, 1.792, 1.79335, 1.8281, 1.74154, 1.74391, 1.73943, 1.74044, 1.7393, 1.78942, 1.78789, 1.73885, 1.73762, 1.7378, 1.73735, 1.74049, 1.79046, 1.79588, 1.7412, 1.74029, 1.74472, 1.74238, 1.96718, 1.96686, 1.96972, 1.96618, 1.96539, 1.97058, 1.81129, 1.81416, 1.97253, 1.81135, 1.81224, 1.97649, 1.96932, 1.96555, 1.98823, 1.98771, 1.98754, 1.81446, 1.89181, 1.81155, 1.88629, 1.96955, 1.81014, 1.88646, 1.89415, 1.80993, 1.8962, 1.89478, 1.98645, 1.97464, 1.8968, 1.80958, 1.88414, 1.88423, 1.88893, 1.81083, 1.80994, 1.8888, 1.99419, 1.89578, 1.893, 1.89416, 1.89397, 1.89695, 1.82309, 1.82806, 1.99845, 1.96075, 1.95836, 1.98029, 1.96939, 1.97575, 1.96249, 1.96498, 1.88328, 1.96245, 1.9655, 1.96131, 1.96202, 1.96253, 1.96725, 1.96586, 1.97217, 1.97093, 1.99347, 1.95829, 1.98637, 1.98638, 1.98304, 1.96668, 1.89311, 1.96851, 1.98108, 1.9716, 1.9896, 1.98654, 1.89376, 1.98761, 1.98567, 1.99397, 1.99451, 1.99259, 1.97956, 1.97825, 1.90213, 1.99356, 1.99704, 1.98352, 1.9997, 2.00437, 1.98074, 1.98001, 1.98027, 2.00169, 1.90389, 2.00048, 2.0003, 2.00421, 1.98413, 2.01921, 1.99645, 1.98578, 2.00702, 2.01032, 1.98646, 1.98543, 1.99057, 2.01095, 1.99263, 1.98511, 1.99015, 1.98869, 1.98816, 1.9871, 1.98788, 1.98611, 1.91323, 1.9966, 1.99495, 1.98988, 1.84877, 2.03529, 2.03089, 1.84654, 1.8485, 1.84905, 1.84527, 1.84816, 1.84524, 1.8457, 1.84737, 1.84517, 1.95134, 1.85097, 1.85058, 2.04808, 1.85186, 1.93844, 1.93019, 1.85197, 1.90332, 1.85103, 2.0306, 2.03143, 1.85252, 2.03433, 1.85466, 1.90345, 1.90121, 1.84964, 1.84741, 1.8514, 2.05165, 2.05765, 1.85108, 2.02775, 1.84836, 1.85211, 1.90291, 1.90059, 1.89916, 1.93788, 1.91856, 1.85053, 1.85481, 1.8544, 1.85496, 1.85378, 1.78189, 1.77879, 1.77542, 1.88705, 1.77194, 1.77414, 1.76897, 1.87436, 1.77061, 1.77002, 1.76336, 1.88723, 1.81716, 1.8151, 1.8735, 1.76342, 1.81361, 1.81236, 1.81348, 1.7622, 1.88016, 1.76017, 1.85507, 1.75729, 1.75891, 1.75819, 1.75679, 1.75528, 1.8867, 1.85265, 1.75831, 1.7577, 1.75792, 1.75752, 1.85518, 1.75418, 1.86768, 1.75242, 1.87896, 1.87631, 1.803, 1.79866, 1.79706, 1.74795, 2.04374, 1.7408, 1.74242, 1.74565, 1.7439
1.746, 1.74587, 1.74465, 1.74667, 1.79545, 1.79335, 1.74272, 1.83031, 1.74025, 1.74083, 1.74107, 1.74099, 1.74328, 1.74395, 1.74394, 1.74309, 1.7923, 1.8305, 1.79324, 1.79364, 1.74376, 1.74475, 1.85565, 1.74779, 1.74183, 1.8462, 2.01368, 1.74422, 1.79333, 1.79337, 1.74494, 1.74298, 1.84348, 1.84221, 1.74127, 1.83143, 1.73894, 1.74083, 2.01466, 1.84363, 1.83686, 1.79019, 1.73824, 1.73703, 1.7376, 1.74062, 1.73686, 1.73862, 2.02817, 1.73776, 1.74159, 1.74387, 1.74068, 1.81375, 1.97245, 1.96749, 1.975, 1.96855, 1.97041, 1.97022, 1.81428, 1.96847, 1.96935, 1.81384, 1.89253, 1.97994, 1.96713, 1.9676, 1.88435, 1.98468, 1.97201, 1.89255, 1.8114, 1.88987, 1.81341, 1.89334, 1.81241, 1.88491, 1.81124, 1.89521, 1.89686, 1.89577, 1.99338, 1.88568, 1.89974, 1.88777, 1.88595, 1.97736, 1.88591, 1.81066, 1.90007, 1.88912, 1.90428, 1.9049, 1.89283, 1.98129, 1.90639, 1.89858, 1.98031, 1.99834, 1.9627, 1.8792, 1.96948, 1.98588, 1.97354, 1.96972, 1.96218, 1.97783, 1.96344, 1.96629, 1.96587, 1.96254, 1.96479, 1.96518, 1.96616, 1.96626, 1.97417, 1.88745, 1.88793, 1.88797, 1.88911, 1.98222, 1.96971, 1.9704, 1.9838, 1.99945, 1.98582, 1.89571, 1.89692, 1.89637, 1.99357, 1.8961, 1.98592, 1.99268, 1.97592, 1.976, 1.99066, 1.97566, 1.99, 1.90301, 1.9023, 1.98692, 1.99655, 1.98113, 1.9998, 1.98259, 1.98909, 2.00395, 1.98297, 1.9068, 2.00786, 2.00084, 2.00204, 1.98231, 2.0113, 1.98561, 1.90754, 1.98538, 1.98366, 2.00125, 2.00513, 2.00296, 1.99203, 1.98964, 1.98972, 1.99032, 1.98758, 1.99308, 1.99169, 1.98728, 1.9875, 1.91407, 1.99235, 1.85063, 1.84821, 1.84841, 2.02603, 2.03747, 1.84613, 2.04242, 2.02785, 1.84823, 1.84585, 2.04239, 1.94222, 1.84818, 1.8473, 1.85163, 2.04813, 1.96569, 1.85138, 1.94484, 1.94439, 1.85184, 1.85241, 2.04638, 2.03594, 1.85075, 2.03925, 1.8549, 1.85351, 1.84901, 1.85427, 1.85111, 2.03926, 2.03767, 1.8504, 2.03782, 2.02974, 1.84766, 2.04029, 2.05546, 1.9036, 1.901, 1.85034, 1.85024, 1.95335, 1.8487, 1.8538, 1.85131, 1.85513, 1.7791, 1.77706, 1.77836, 1.77774, 1.77483, 1.77204, 1.8213, 1.77216, 1.76962, 1.83524, 1.76813, 1.89032, 1.76796, 1.81738, 1.81756, 1.81414, 1.76448, 1.76405, 1.76118, 1.81208, 1.76138, 1.76162, 1.7645, 1.8902, 1.75845, 1.89069, 1.88922, 1.89207, 1.88788, 1.75722, 1.75595, 1.75833, 1.75816, 1.75609, 1.81354, 1.75854, 1.75605, 1.8851, 1.75211, 1.74942, 1.79948, 1.79648, 1.79595, 1.74505, 1.73948, 1.74319, 1.89346, 1.74338, 1.74428
1.80416, 1.74305, 1.74495, 1.74424, 1.79616, 1.79412, 1.79277, 1.7412, 1.74175, 1.79358, 1.74309, 1.74402, 1.74431, 1.74135, 1.74124, 1.84271, 1.74473, 1.83738, 1.74368, 1.74396, 1.79305, 1.79352, 1.74171, 1.74522, 1.74369, 1.74256, 1.74225, 1.74374, 1.84389, 1.79215, 1.74433, 1.74269, 1.74355, 1.84759, 1.86927, 1.74347, 1.74383, 1.73776, 1.73861, 1.73831, 1.84465, 1.84357, 1.73871, 1.73741, 1.73823, 1.84138, 2.02263, 1.92535, 1.73737, 1.73745, 1.73873, 1.74359, 1.74443, 1.96558, 1.96926, 1.96479, 1.88688, 1.966, 1.96648, 1.96653, 1.813, 1.99761, 1.81241, 1.88828, 1.96586, 1.81412, 1.98621, 1.88904, 1.88968, 1.88444, 1.8925, 1.97165, 1.99699, 1.81225, 1.88506, 1.88638, 1.88515, 1.81019, 1.80904, 1.80915, 1.81079, 1.89635, 1.81009, 1.88654, 1.89785, 1.89876, 1.97543, 1.88712, 1.90221, 1.90295, 1.99993, 1.88905, 1.81389, 1.89337, 1.90453, 1.90176, 1.82007, 1.90301, 1.98408, 1.99196, 1.97731, 1.97204, 1.9629, 1.88254, 1.97589, 1.97672, 1.96815, 1.96167, 1.96528, 1.96456, 1.96241, 1.96286, 1.96202, 1.96548, 1.97125, 1.97403, 1.96706, 1.88834, 1.96698, 1.96533, 1.88912, 1.88982, 1.99437, 1.99377, 1.98417, 1.89488, 1.98824, 1.8941, 1.89643, 1.99146, 1.98716, 1.96326, 1.98628, 1.97756, 1.99428, 2.00029, 1.90073, 1.97684, 1.90227, 1.90522, 1.9049, 1.97915, 1.99991, 1.97921, 1.97961, 1.9937, 1.99319, 1.99488, 1.98221, 1.97996, 1.98282, 1.99036, 1.98646, 1.9839, 1.98164, 2.00338, 1.9821, 1.90759, 1.98552, 1.98578, 1.98604, 2.01042, 1.98963, 1.98928, 1.9927, 1.99207, 1.98912, 1.98725, 1.91057, 1.99992, 2.00061, 1.99284, 2.00405, 1.85117, 1.84859, 1.84747, 1.8481, 1.84949, 1.84834, 1.84712, 1.84627, 1.89944, 1.84474, 2.04597, 1.9556, 1.84712, 1.8496, 1.84905, 1.84935, 1.94412, 1.85432, 1.85133, 1.85403, 1.85176, 1.85309, 1.85128, 1.85445, 1.85218, 1.85167, 1.85174, 1.85002, 1.85127, 1.84981, 2.0439, 1.84977, 1.84901, 1.84772, 2.04645, 1.84899, 1.84947, 1.84874, 1.84935, 2.059, 1.84654, 1.85225, 1.84926, 1.85085, 1.84971, 1.85067, 1.85183, 1.85152, 1.77984, 1.77777, 1.77559, 1.8236, 1.82328, 1.77318, 1.88662, 1.76825, 1.772, 1.76849, 1.88614, 1.767, 1.85928, 1.76448, 1.76195, 1.87596, 1.82368, 1.76269, 1.75925, 1.76149, 1.76082, 1.7631, 1.759, 1.75885, 1.75885, 1.89253, 1.76021, 1.75816, 1.75454, 1.75797, 1.75617, 1.75739, 1.75384, 1.75774, 1.87473, 1.75262, 1.75428, 1.75061, 1.74905, 1.74907, 1.814, 1.81145, 1.7429, 1.74289, 1.74203, 1.74082, 1.74099, 1.74064, 1.74074
1.74982, 1.74772, 1.74689, 1.74772, 1.84046, 1.74443, 1.74542, 1.79563, 1.74293, 1.79577, 1.74561, 1.74326, 1.74258, 1.74515, 1.84627, 1.83395, 1.74395, 1.84086, 2.00037, 1.74364, 1.83784, 1.74416, 1.74499, 1.79629, 1.8411, 1.73883, 1.74241, 1.74674, 1.74326, 1.84466, 1.74134, 1.74086, 1.74064, 1.74065, 1.73892, 1.74054, 1.73954, 1.74054, 1.73752, 1.74058, 1.73944, 1.73937, 1.84292, 1.73785, 1.73743, 1.7374, 1.73552, 1.73715, 1.73868, 1.73752, 1.73928, 1.73845, 1.74001, 1.96659, 1.96876, 1.97208, 1.97259, 1.89007, 1.97198, 1.97515, 1.88919, 1.97299, 1.96573, 1.98928, 1.81043, 1.99398, 1.81306, 1.9828, 1.8919, 1.81245, 1.9858, 1.89254, 1.88658, 1.811, 1.97156, 1.98279, 1.88144, 1.88666, 1.81038, 1.88586, 1.89558, 1.88641, 1.88697, 1.88452, 1.89717, 1.98628, 1.88599, 1.8112, 1.88706, 1.88714, 1.90261, 1.88999, 1.88921, 1.90762, 1.90227, 1.89684, 1.90635, 1.90312, 1.99357, 1.98893, 1.95595, 1.96291, 1.97222, 1.97886, 1.9813, 1.8824, 1.88415, 1.9657, 1.96644, 1.96749, 1.96664, 1.96516, 1.96833, 1.96238, 1.88712, 1.97583, 1.88855, 1.96397, 1.96458, 1.97553, 1.98085, 1.97486, 1.97323, 1.89277, 1.99448, 1.89279, 1.89212, 1.98556, 1.897, 1.99381, 1.98457, 1.9665, 1.98657, 1.90029, 2.00194, 1.98055, 1.98745, 1.97832, 1.97637, 1.98279, 1.991, 1.99797, 1.98383, 1.98461, 1.98107, 2.00518, 1.98211, 2.0039, 2.00776, 1.99838, 1.90759, 1.99462, 1.98837, 1.98779, 1.98296, 1.98352, 1.98685, 2.00285, 1.98537, 1.90841, 1.98552, 1.98646, 1.98523, 1.99055, 1.99302, 1.99067, 1.99, 1.9883, 1.91107, 1.99304, 2.0008, 1.91416, 1.99968, 2.05274, 2.02237, 1.84348, 1.89679, 1.84645, 1.84521, 1.84308, 1.95127, 1.84545, 1.94853, 1.85091, 1.84946, 1.85104, 1.84765, 1.84989, 1.84979, 1.84817, 1.90099, 1.8527, 2.03853, 1.85376, 1.85542, 1.85241, 2.02694, 1.904, 1.85406, 2.04559, 1.85123, 1.85147, 1.85085, 1.84944, 1.85378, 1.85018, 1.84996, 1.85169, 1.84979, 2.04963, 1.85138, 1.85045, 1.84865, 1.84711, 1.85091, 2.05193, 1.84807, 1.84871, 1.84875, 1.85066, 1.9442, 1.77886, 1.88251, 1.77909, 1.82598, 1.82422, 1.77042, 1.7702, 1.88903, 1.88498, 1.76714, 1.88887, 1.76803, 1.89246, 1.8878, 1.76543, 1.82489, 1.82533, 1.76453, 1.76191, 1.76227, 1.76314, 1.76056, 1.88957, 1.8098, 1.75818, 1.80933, 1.80937, 1.75728, 1.75554, 1.89032, 1.7554, 1.88362, 1.75756, 1.75305, 1.80404, 1.75411, 1.88006, 1.88639, 1.75153, 1.74858, 1.7446, 1.89302, 1.73814, 1.893, 1.89011, 1.73762, 1.73882, 1.73837, 1.73528
1.74802, 1.74864, 1.75087, 1.74729, 1.74739, 1.74746, 1.9233, 1.74493, 1.74588, 1.74563, 1.74561, 2.00499, 2.02417, 1.74484, 1.84861, 1.74108, 1.74272, 1.84136, 1.74431, 1.74059, 1.74144, 1.74448, 1.79295, 1.74148, 1.74196, 1.74327, 1.74094, 1.74409, 1.74465, 1.74213, 1.74272, 1.73878, 1.74069, 1.73925, 1.84729, 1.74217, 1.74149, 1.84024, 1.79062, 1.78933, 1.73863, 1.73822, 1.73979, 1.73547, 1.73764, 1.7339, 1.73395, 1.73438, 1.73732, 1.73556, 1.73751, 1.73601, 1.7384, 1.97726, 1.81363, 1.81111, 1.97072, 1.97152, 1.97295, 1.97007, 1.89233, 1.9684, 1.97694, 1.81282, 1.99504, 1.81275, 1.97074, 1.98307, 1.81311, 1.81319, 1.8865, 1.88657, 1.88695, 1.81142, 1.97502, 1.88579, 1.88668, 1.89112, 1.89604, 1.99062, 1.88386, 1.89657, 1.89292, 1.81, 1.80994, 1.99117, 1.90048, 1.88651, 1.88693, 1.89962, 1.99452, 1.8857, 1.8132, 1.89324, 1.90359, 1.81759, 1.9048, 1.90375, 1.98399, 1.99487, 1.97056, 1.97646, 1.88111, 1.96074, 1.88336, 1.97534, 1.97066, 1.95918, 1.96319, 1.96315, 1.96298, 1.96502, 1.96157, 1.96253, 1.88717, 1.9613, 1.96147, 1.96422, 1.97727, 1.97765, 1.99757, 1.98636, 1.97618, 2.00706, 1.99008, 1.98353, 1.97276, 1.97234, 1.9723, 1.89608, 1.98114, 1.97503, 1.98502, 1.97532, 1.97893, 1.99576, 1.99256, 1.99801, 1.99243, 1.97921, 1.9849, 1.97948, 1.98569, 1.97986, 1.9029, 1.90278, 2.01086, 1.98397, 1.98332, 1.90516, 1.99343, 1.99668, 1.99343, 1.99566, 1.90693, 1.99796, 1.90747, 2.01095, 2.00256, 1.98567, 1.98693, 2.00661, 1.98541, 1.9893, 1.99082, 1.9891, 1.9917, 1.99035, 1.91329, 1.99035, 1.91237, 1.98716, 1.99078, 1.91066, 1.94122, 1.84511, 1.8973, 1.89684, 1.89492, 1.84463, 1.84414, 1.84563, 1.94945, 2.04924, 1.84756, 1.8485, 1.8478, 1.97248, 1.90058, 1.85074, 1.92739, 1.8527, 1.90274, 1.85257, 1.85559, 1.85296, 2.02944, 1.9047, 1.90325, 1.90189, 1.90143, 1.85157, 2.04437, 1.85112, 1.84908, 2.03402, 2.06227, 1.84847, 2.05605, 1.84745, 1.848, 1.84598, 2.02773, 1.84859, 1.84696, 1.84517, 1.84776, 1.85213, 1.84744, 1.84983, 1.85132, 1.88035, 1.77884, 1.88338, 1.776, 1.82669, 1.82408, 1.88645, 1.76948, 1.88736, 1.76821, 1.76678, 1.76848, 1.76646, 1.88879, 1.76565, 1.88597, 1.76348, 1.76208, 1.89119, 1.88915, 1.76122, 1.76132, 1.75987, 1.75918, 1.75441, 1.80814, 1.80817, 1.80727, 1.7551, 1.76142, 1.75818, 1.75269, 1.75357, 1.75535, 1.75215, 1.80265, 1.8792, 1.75324, 1.88631, 1.74507, 1.8869, 1.89324, 1.74275, 1.74453, 1.74068, 1.73968, 1.74082, 1.73956, 2.07956
1.74987, 1.74875, 1.75058, 1.75064, 1.75109, 1.74436, 1.74792, 1.74809, 1.74675, 1.74786, 1.74496, 1.74528, 1.74433, 1.74312, 1.84797, 1.8515, 1.84226, 1.74562, 1.74595, 1.74295, 1.74485, 1.74564, 1.74156, 1.74335, 1.84493, 1.84763, 1.74378, 1.74147, 1.92088, 1.74405, 1.74379, 1.74254, 1.74222, 1.74418, 1.74149, 1.73823, 1.79075, 1.73831, 1.78963, 1.78861, 1.84022, 1.84972, 1.78758, 1.78596, 1.78649, 1.73757, 1.73657, 1.73603, 1.73785, 1.73733, 1.73749, 1.73625, 1.73882, 1.81093, 1.81295, 1.814, 1.81587, 1.81459, 1.97205, 1.97171, 1.96609, 1.81372, 1.96616, 1.9652, 1.99305, 1.99723, 1.89288, 1.81179, 1.81404, 1.81412, 1.88779, 1.8904, 1.8894, 1.81305, 1.81071, 1.8101, 1.81124, 1.81001, 1.88527, 1.88452, 1.8852, 1.88381, 1.97494, 1.89762, 1.88538, 1.80745, 1.80977, 1.9953, 1.99368, 1.81035, 1.90082, 1.814, 1.90407, 1.90355, 1.817, 1.82026, 2.00107, 2.00324, 1.99317, 1.99186, 1.96829, 1.96899, 1.96327, 1.96612, 1.963, 1.96678, 1.9799, 1.95719, 1.96583, 1.96553, 1.96318, 1.96203, 1.9609, 1.96494, 1.96546, 1.96317, 1.97945, 1.96362, 1.96401, 1.98189, 1.88815, 1.99026, 1.98091, 1.8933, 1.97421, 1.97472, 1.98873, 1.98933, 1.96985, 2.00096, 1.99457, 1.97956, 1.89908, 1.974, 1.89714, 1.99346, 1.99392, 1.99482, 1.97674, 1.9923, 1.99953, 1.97952, 1.97993, 1.98868, 1.9039, 1.99618, 1.9937, 1.99729, 1.98315, 1.98338, 1.98709, 1.90449, 1.90441, 2.00605, 1.90612, 1.90785, 1.98421, 1.98322, 1.9832, 2.00809, 2.00859, 1.98759, 1.98762, 1.99344, 1.98689, 1.99241, 1.9938, 1.99327, 1.91118, 2.01384, 1.99152, 2.00773, 2.01738, 1.84846, 1.89577, 1.89661, 1.84466, 1.89571, 1.89666, 1.84463, 1.84214, 1.84438, 1.84395, 2.04784, 2.0468, 2.04466, 2.02693, 1.84943, 1.95226, 1.85134, 1.85443, 1.90471, 1.9028, 1.90333, 2.03072, 2.03158, 1.90376, 1.85424, 1.85191, 1.85193, 1.85002, 1.89968, 1.84944, 1.94432, 1.84925, 1.84875, 1.84895, 1.84888, 1.8507, 1.84761, 2.05296, 1.84797, 1.84935, 2.03051, 2.03064, 1.84618, 1.84639, 1.85109, 1.84805, 1.90125, 1.89997, 1.77977, 1.78136, 1.77735, 1.77618, 1.88378, 1.77276, 1.86544, 1.76897, 1.76842, 1.81954, 1.7687, 1.88536, 1.87864, 1.76496, 1.76621, 1.76205, 1.89014, 1.88629, 1.7614, 2.07301, 1.76392, 1.75939, 1.88645, 1.76154, 1.80985, 1.87555, 1.87525, 1.80698, 1.80525, 1.75553, 1.88618, 1.75465, 1.85866, 1.75302, 1.75732, 1.80619, 1.75433, 1.75242, 1.75149, 1.74806, 1.8906, 1.89186, 1.74126, 1.74269, 1.7412, 1.73685, 1.73709, 1.73802, 1.73811
2.01777, 1.74875, 1.74992, 1.74785, 1.74964, 1.74669, 1.84548, 1.84255, 1.8452, 1.74433, 1.74919, 1.74722, 1.74628, 1.74601, 1.74633, 1.85341, 1.74526, 1.74742, 1.74719, 1.74555, 1.74108, 1.74496, 1.74349, 1.74478, 1.74404, 1.74139, 1.74301, 1.74791, 1.74335, 1.73958, 2.00764, 1.74435, 1.73995, 1.87619, 1.74078, 1.73918, 1.74066, 1.74056, 1.84764, 1.84905, 1.78789, 1.78739, 1.78658, 1.78674, 1.73281, 1.73704, 1.73584, 1.7362, 1.73386, 1.73385, 1.73888, 2.03424, 1.73737, 1.73705, 1.81208, 1.89249, 1.81457, 1.81456, 1.81633, 1.97171, 1.81482, 1.96982, 1.99349, 1.81431, 1.9696, 1.81371, 1.96627, 1.88991, 1.81116, 1.99312, 1.88704, 1.81066, 1.89286, 1.88346, 1.81089, 1.8934, 1.81088, 1.81074, 1.88405, 1.98613, 1.89621, 1.89928, 1.88552, 1.88575, 1.88629, 1.89956, 1.88722, 1.8087, 1.80801, 1.88701, 1.90349, 1.98404, 1.89207, 1.89276, 1.90268, 1.89654, 1.89503, 1.90113, 1.90099, 1.99569, 1.97338, 1.88114, 1.88285, 1.96107, 1.88239, 1.97401, 1.97549, 1.8824, 1.96542, 1.96503, 1.96501, 1.96206, 1.96234, 1.88694, 1.88626, 1.98729, 1.96753, 1.88679, 1.88606, 1.8896, 1.98185, 1.97564, 1.89099, 1.95934, 1.98387, 1.97771, 1.98019, 1.97343, 1.89456, 1.97349, 1.97369, 1.89649, 1.9923, 1.97599, 1.98924, 1.9911, 1.99676, 1.98909, 1.9768, 1.90198, 1.90145, 1.98223, 1.98394, 1.97934, 2.00162, 1.9904, 1.90384, 1.9038, 1.97999, 1.99493, 1.98709, 1.98015, 1.97876, 1.99716, 1.9981, 2.00663, 2.00695, 2.00787, 1.98602, 2.00374, 1.90858, 1.9899, 1.98821, 1.98669, 1.98772, 1.99051, 1.91015, 1.99045, 1.91053, 1.91302, 2.01036, 2.00498, 1.99207, 1.89731, 1.84223, 1.84703, 1.84528, 1.84015, 1.84326, 1.84542, 1.84408, 1.84495, 1.84288, 1.84656, 2.03376, 2.05966, 2.02719, 1.84782, 1.84582, 1.8998, 2.02901, 1.85276, 2.02953, 1.85358, 1.90294, 1.90313, 1.93198, 1.90283, 1.85377, 2.03262, 1.90186, 1.90159, 1.8527, 1.85416, 1.84924, 1.84731, 2.04558, 1.85142, 1.84533, 1.844, 2.0448, 1.84526, 1.84594, 2.04983, 2.04942, 1.84638, 2.02763, 1.84471, 1.84794, 1.84718, 1.8488, 1.77926, 1.82983, 1.77916, 1.77671, 1.77517, 1.77008, 1.88637, 1.76898, 1.76806, 1.81801, 1.88993, 1.88732, 1.76436, 1.87927, 1.76386, 1.7626, 1.76226, 1.88686, 1.7597, 1.88862, 1.88726, 1.89071, 1.75477, 1.86889, 1.75826, 1.80728, 1.80715, 1.80662, 1.80619, 1.86196, 1.87589, 1.75478, 1.86119, 1.88359, 1.88194, 1.7518, 1.75018, 1.75237, 1.74924, 1.75136, 1.74555, 1.74244, 1.74012, 1.74094, 1.73734, 1.73482, 1.73733, 1.73765, 1.73837
1.75215, 2.00506, 1.74902, 1.74969, 1.74955, 1.74864, 1.75086, 1.74783, 1.74796, 1.7468, 1.7465, 1.74809, 1.74433, 1.7472, 1.74616, 1.74534, 1.74194, 1.7429, 1.84609, 1.84162, 1.74751, 1.74547, 1.74563, 1.74613, 1.74548, 1.7471, 1.7438, 1.74287, 1.74366, 1.74319, 1.92402, 1.74252, 1.73864, 1.74058, 1.73921, 1.74203, 1.74095, 1.84785, 1.84756, 1.73656, 1.73672, 1.78761, 1.93175, 1.84933, 1.73566, 1.73327, 1.73559, 1.73663, 1.73396, 1.73438, 1.7349, 1.7367, 1.73634, 1.81498, 1.81384, 1.81406, 1.81618, 1.81317, 1.96948, 1.81374, 1.98271, 1.81363, 1.98824, 1.99047, 1.81392, 1.99453, 1.96942, 1.89078, 1.89354, 1.81283, 1.81312, 1.88698, 1.89279, 1.8861, 1.89296, 1.88402, 1.89302, 1.88576, 1.88402, 1.88374, 1.8973, 1.89633, 1.88559, 1.899, 1.88414, 1.90114, 1.80907, 1.88611, 1.88754, 1.88919, 1.9034, 1.88936, 1.98123, 1.81435, 1.98079, 1.9804, 1.90535, 1.82416, 1.97906, 1.99039, 1.96518, 1.95826, 1.95777, 1.96935, 1.95921, 1.96004, 1.97707, 1.97636, 1.95982, 1.88347, 1.96614, 1.96526, 1.96523, 1.96421, 1.9902, 1.8878, 1.96402, 1.9646, 1.98139, 1.96403, 1.98315, 1.98521, 1.89054, 1.89343, 1.98085, 1.97977, 1.97052, 1.98816, 1.89662, 1.99619, 2.00412, 1.97391, 1.97396, 1.99042, 1.97558, 1.99866, 1.97928, 1.97964, 1.97841, 1.97912, 1.99607, 1.97932, 1.98001, 2.004, 1.98032, 1.99853, 1.98659, 1.98283, 2.00195, 1.90539, 1.90644, 2.0077, 2.00093, 1.99696, 2.00264, 1.90636, 2.0013, 1.98207, 1.9854, 1.90853, 2.01395, 1.98998, 1.98943, 1.99309, 1.99266, 1.99285, 1.90985, 1.91024, 2.00769, 1.90758, 2.00108, 1.91337, 2.00837, 1.93404, 1.89637, 2.0544, 1.84451, 1.94829, 2.04828, 1.84318, 1.84485, 2.02851, 1.84483, 1.84429, 1.84774, 2.0382, 1.89784, 1.89879, 1.90178, 1.89924, 1.85056, 1.85067, 1.85036, 1.85034, 1.85112, 1.91073, 1.90268, 1.90338, 1.9029, 1.90345, 1.90386, 1.90308, 1.85208, 1.85081, 1.85094, 1.84659, 1.8989, 1.84817, 1.84742, 1.84643, 1.84665, 2.04479, 1.84762, 2.05918, 2.05461, 2.03045, 1.84747, 1.84743, 1.84713, 1.8483, 1.84735, 1.77871, 1.77999, 1.77836, 1.77567, 1.77323, 1.77173, 1.76935, 1.77106, 1.77025, 1.81754, 1.8828, 1.88961, 1.76443, 1.76205, 1.8894, 1.76248, 1.75951, 1.85858, 1.8895, 1.75984, 1.88534, 1.76074, 1.75798, 1.75888, 1.89204, 1.85145, 1.76149, 1.75498, 1.75794, 1.88349, 1.88189, 1.7553, 1.88613, 1.75485, 1.88047, 1.75137, 1.75171, 1.7503, 1.74961, 1.8853, 1.74818, 1.88654, 1.86038, 1.89377, 1.73814, 1.73786, 1.7374, 1.73676, 1.73558
1.7536, 1.75203, 1.75132, 1.75258, 1.75115, 1.74867, 1.75005, 1.75056, 1.74776, 1.7465, 1.74836, 1.74251, 1.74442, 1.7466, 1.85939, 1.7477, 1.74264, 1.74419, 1.74726, 1.74406, 1.74422, 1.74492, 1.74502, 1.74698, 1.74401, 1.85777, 1.74403, 1.74447, 1.74131, 1.74282, 1.8426, 1.84753, 1.74153, 1.74157, 1.74065, 1.74074, 1.73868, 1.7373, 1.73552, 1.7378, 1.83827, 1.73476, 1.73094, 1.73608, 1.73223, 1.73176, 1.73496, 1.73395, 1.7351, 1.73785, 1.73489, 1.73533, 1.73754, 1.81697, 1.81385, 1.81546, 1.81358, 1.81062, 1.96966, 1.97589, 1.81357, 1.97602, 1.98, 1.81379, 1.8135, 1.99399, 1.88677, 1.9657, 1.96802, 1.96907, 1.8135, 1.89059, 1.8133, 1.8885, 1.89249, 1.8861, 1.89952, 1.97135, 1.88718, 1.80969, 1.89703, 1.88606, 1.97553, 1.98718, 1.8849, 1.90315, 1.9761, 1.90093, 1.88732, 1.88991, 1.90633, 2.00601, 1.90384, 1.89078, 1.9933, 1.98008, 1.8972, 1.98524, 1.90072, 1.99383, 1.96928, 1.96243, 1.88192, 1.96519, 1.96573, 1.9802, 1.88355, 1.95992, 1.96606, 1.96626, 1.96864, 1.96548, 1.9683, 1.96666, 1.96714, 1.9781, 1.88699, 1.98562, 1.98164, 1.9669, 1.96559, 1.98572, 1.96498, 1.9658, 1.9942, 1.97158, 1.98953, 1.89586, 1.89705, 1.9943, 1.97228, 1.97325, 1.97625, 1.99427, 1.97643, 1.97583, 1.9761, 1.9775, 1.99332, 1.90157, 1.99944, 1.98364, 1.99528, 1.99987, 1.98998, 1.97955, 1.97925, 1.99583, 1.99487, 1.99054, 1.90536, 1.90503, 1.98532, 1.98232, 2.01088, 1.9827, 1.98991, 1.99669, 1.98439, 1.90743, 1.99041, 1.99065, 1.98806, 1.91016, 1.90741, 1.9087, 1.90941, 1.91381, 1.91116, 1.99134, 2.00639, 1.91185, 2.01232, 1.8407, 1.89927, 1.84446, 1.84144, 1.84308, 2.03113, 1.84315, 1.84476, 1.84393, 1.8945, 1.89411, 1.95114, 1.84731, 1.8971, 1.94467, 1.90071, 1.90031, 1.85105, 1.85075, 1.85331, 2.03551, 1.85359, 1.85313, 1.85031, 2.03949, 1.85111, 1.85413, 1.85253, 1.8493, 1.84877, 2.04856, 1.85053, 1.84888, 1.89939, 1.84843, 1.8452, 1.84735, 1.84613, 2.05926, 2.04798, 2.04799, 1.843, 2.02926, 1.84721, 2.03131, 1.8483, 1.84831, 1.84687, 1.7767, 1.78208, 1.77924, 1.77496, 1.7748, 1.77177, 1.86949, 1.82068, 1.81952, 1.81992, 1.88517, 1.88057, 1.87869, 1.88961, 1.76187, 1.76138, 1.76331, 1.75938, 1.76084, 1.76121, 1.75976, 1.75757, 1.89325, 1.86149, 1.85836, 1.75741, 1.89093, 1.75669, 1.75615, 1.75771, 1.75877, 1.75764, 1.75491, 1.75503, 1.75533, 1.83542, 1.7514, 1.89407, 1.89017, 1.74797, 1.74623, 1.74502, 1.88501, 1.74415, 1.7421, 1.73975, 1.73814, 1.73723, 2.07076
1.75488, 1.85865, 1.75082, 1.75127, 1.75289, 1.85127, 1.75142, 1.75047, 1.7449, 1.7466, 1.74586, 1.74478, 1.74326, 1.74596, 1.74394, 1.7969, 1.74493, 1.7481, 1.74538, 1.74404, 1.74421, 2.01529, 2.01507, 2.01167, 1.74489, 1.74189, 1.7457, 1.74122, 1.74269, 1.74233, 1.92368, 1.92502, 1.73906, 1.79059, 1.74134, 1.84386, 1.84467, 1.84977, 1.80324, 1.73729, 1.73462, 1.73607, 1.73485, 1.84835, 1.73315, 1.73219, 1.73535, 1.73691, 1.84872, 1.73446, 1.73406, 1.73621, 1.74013, 1.81846, 1.81566, 1.81356, 1.89235, 1.81264, 1.97029, 1.96995, 1.98391, 1.81433, 1.81299, 1.81444, 1.9696, 1.99603, 1.81242, 1.81182, 1.99645, 1.81132, 1.8132, 1.89035, 1.89284, 1.88685, 1.96998, 1.89408, 1.88971, 1.88936, 1.88311, 1.89255, 1.88927, 1.88513, 1.8992, 1.88591, 1.90041, 1.80761, 1.80791, 1.88535, 1.98457, 1.80983, 1.90018, 1.8889, 1.81546, 1.89231, 1.89227, 1.81909, 1.99697, 1.90366, 1.9036, 1.9942, 1.973, 1.97988, 1.88183, 1.88223, 1.96156, 1.96107, 1.88367, 1.8823, 1.9687, 1.95951, 1.96527, 1.88344, 1.96867, 1.96933, 1.96712, 1.98831, 1.96236, 1.96378, 1.96713, 1.96517, 1.88887, 1.96566, 1.98982, 1.99047, 1.89204, 1.96898, 1.9892, 1.98749, 1.99387, 1.99234, 1.9983, 1.97239, 1.97412, 1.99109, 1.97833, 2.00691, 2.00492, 1.97867, 1.99618, 1.90255, 1.97933, 1.99657, 1.99715, 2.00275, 1.9892, 1.98042, 1.98728, 1.98298, 2.0057, 1.97985, 1.90653, 1.90697, 1.98883, 1.98078, 1.98355, 1.98379, 2.00083, 2.0005, 1.98669, 1.98469, 1.99772, 1.98841, 1.98738, 1.98803, 1.90953, 1.90972, 1.9084, 1.91031, 1.91104, 1.99604, 1.9935, 2.00954, 2.00244, 1.84419, 1.84404, 1.89957, 1.84342, 1.8428, 1.84398, 2.02776, 1.89447, 1.89332, 1.84458, 1.89465, 1.95386, 1.84755, 1.84702, 1.94801, 1.92011, 1.85034, 1.84985, 1.84999, 1.85121, 1.85162, 1.85464, 1.95554, 1.85083, 2.03498, 2.03817, 2.04787, 1.85097, 1.85498, 1.90124, 1.85003, 1.85045, 1.8488, 2.02869, 1.84673, 1.8479, 1.84737, 1.84699, 1.84797, 1.84454, 1.84463, 2.03134, 1.8461, 1.84438, 1.84961, 1.84705, 1.84832, 1.94364, 1.87232, 1.87928, 1.77684, 1.77515, 1.77229, 1.7725, 1.77226, 1.77009, 1.82044, 1.76628, 1.76861, 1.76353, 1.76338, 1.82685, 1.76485, 1.76074, 1.85866, 1.76111, 1.89153, 1.8873, 1.75934, 1.8126, 1.87663, 1.75957, 1.75821, 1.75697, 1.75709, 1.75677, 1.75605, 1.7564, 1.88944, 2.06759, 1.88634, 1.75373, 1.7529, 1.87237, 1.75288, 1.75423, 1.89876, 1.74766, 1.74801, 1.88493, 1.74453, 1.74084, 1.74032, 1.73824, 1.73736, 1.73252, 1.74141
1.75396, 1.75437, 1.74865, 1.8475, 1.84916, 1.75082, 1.74887, 1.75022, 1.7512, 1.75214, 1.74786, 1.74753, 1.74665, 1.74482, 1.79652, 1.74315, 1.74607, 1.74361, 1.74404, 1.84765, 1.7462, 1.74575, 1.92413, 2.01354, 1.74424, 1.74497, 1.92362, 1.74414, 1.79435, 1.79546, 1.7919, 1.74399, 1.74159, 1.79106, 1.73848, 1.83302, 1.83372, 1.73842, 1.73844, 1.73741, 1.73629, 1.73449, 1.92765, 1.78347, 1.78448, 1.78387, 1.78448, 1.73259, 1.84954, 1.73329, 1.84362, 1.73443, 1.73488, 1.81888, 1.89439, 1.81245, 1.81663, 1.81521, 1.81462, 1.81419, 1.8919, 1.96578, 1.96698, 1.8895, 1.81474, 1.81484, 1.96868, 1.88729, 1.88685, 1.89236, 1.89215, 1.9725, 1.8863, 1.98321, 1.97309, 1.89616, 1.9942, 1.88585, 1.81003, 1.80648, 1.88703, 1.98398, 1.88978, 1.88561, 1.9034, 1.88457, 1.88479, 1.88371, 1.9823, 1.90118, 1.90229, 1.90315, 1.90263, 1.9832, 1.89631, 1.89528, 1.82057, 1.82108, 1.90427, 1.9827, 1.97949, 1.97601, 1.97977, 1.95647, 1.97319, 1.88294, 1.96687, 1.9653, 1.96409, 1.96564, 1.96461, 1.96649, 1.96648, 1.96753, 1.96592, 1.9796, 1.96296, 1.99248, 1.98295, 1.99659, 1.97597, 1.96865, 1.99954, 2.0061, 1.96944, 1.97055, 1.97206, 1.99216, 2.00126, 2.00098, 1.89723, 1.97816, 1.99653, 1.97608, 2.01508, 1.9763, 1.97529, 1.99388, 1.99038, 1.98582, 1.97962, 1.99592, 1.99225, 1.90381, 1.97951, 1.98277, 2.0028, 1.9041, 2.00913, 1.9909, 1.90348, 2.00399, 1.99361, 1.90577, 1.99104, 1.98256, 2.01132, 1.98279, 1.90796, 1.99447, 1.98711, 1.987, 1.98958, 1.98702, 1.90963, 1.90787, 1.90811, 1.90977, 1.91118, 1.99056, 1.99415, 1.91251, 2.00613, 1.84384, 1.89383, 1.84143, 1.84181, 1.84345, 1.84166, 1.93423, 1.90989, 1.84396, 1.84299, 1.8965, 1.84727, 2.04146, 1.84625, 1.84829, 1.94437, 1.84974, 1.90264, 1.85221, 1.85068, 1.85048, 1.85341, 2.02761, 1.85425, 1.85233, 1.85207, 1.85305, 1.85198, 1.85132, 1.90157, 1.90144, 2.03777, 1.85113, 1.84825, 1.84743, 1.84855, 1.84918, 1.84598, 1.84292, 2.03071, 1.84417, 1.8423, 1.8476, 2.027, 1.84802, 1.84738, 1.84736, 1.84768, 1.8801, 1.77985, 1.77955, 1.88048, 1.87629, 1.88677, 1.87864, 1.77267, 1.76855, 1.76842, 1.7694, 1.7668, 1.76489, 1.76277, 1.76233, 1.76201, 1.86219, 1.85678, 1.76173, 1.81069, 1.80984, 1.87582, 1.87463, 1.80647, 1.80665, 1.75807, 1.89242, 1.89011, 1.89226, 1.88632, 1.7524, 1.84896, 1.75313, 1.75472, 1.75314, 1.87689, 1.83345, 1.80217, 1.75075, 1.74852, 1.74671, 1.7954, 1.74493, 1.74429, 1.74399, 1.74049, 1.73698, 1.73733, 1.7435
1.75437, 1.93143, 1.74883, 1.75199, 1.75308, 1.75131, 1.74986, 1.75154, 1.75161, 1.92476, 2.03013, 2.0229, 1.74765, 1.74467, 1.74829, 1.74666, 1.74753, 1.74192, 1.74622, 1.74397, 2.01944, 1.74485, 1.74779, 1.74456, 1.84373, 1.7466, 1.74368, 1.74481, 1.79556, 1.74341, 1.74427, 1.74162, 1.74199, 1.86247, 1.8639, 1.73869, 1.79242, 1.9206, 1.86508, 1.73664, 1.91869, 1.73356, 1.73213, 1.73066, 1.7334, 1.73051, 1.73346, 1.73409, 1.73366, 1.73287, 1.73603, 1.73471, 1.80128, 1.81644, 1.89638, 1.81699, 1.81635, 1.81709, 1.97116, 1.9718, 1.89603, 1.96725, 1.99039, 1.81378, 1.88871, 1.96995, 1.88591, 1.88798, 1.88801, 1.89576, 1.8133, 1.99061, 1.89575, 1.88986, 1.89006, 1.89351, 1.88609, 1.88571, 1.81175, 1.89687, 1.81361, 1.9835, 1.88134, 1.88532, 1.87869, 1.9941, 1.80931, 1.90134, 1.8115, 1.8098, 1.81031, 1.90283, 1.90442, 1.90624, 1.89307, 1.89644, 1.89911, 1.89924, 1.98314, 2.00132, 1.96057, 1.96153, 1.95626, 1.95854, 1.95813, 1.97959, 1.88359, 1.88249, 1.96348, 1.96907, 1.96477, 1.96343, 1.88337, 1.96854, 1.88574, 1.96299, 1.96521, 1.96577, 1.99576, 1.88881, 1.96497, 1.98922, 1.98737, 1.98654, 1.98198, 1.89344, 1.9891, 1.96957, 1.99237, 1.98844, 2.00539, 1.97592, 1.99996, 1.89913, 1.89861, 1.97813, 2.00123, 1.98244, 1.97901, 1.9807, 1.99915, 2.00365, 1.97943, 1.97969, 1.98674, 1.99691, 1.99593, 1.90541, 2.00633, 1.90374, 1.99851, 1.98669, 1.99695, 1.90411, 1.98326, 1.9062, 2.01095, 1.99398, 1.98019, 1.90696, 1.99029, 1.98713, 1.98257, 1.98743, 1.90742, 1.90745, 1.90855, 1.91056, 1.9106, 1.91051, 2.00675, 2.00396, 1.91077, 1.93399, 1.84159, 1.83902, 1.83866, 1.84277, 1.8941, 1.91779, 1.89433, 2.01459, 2.02223, 1.91354, 1.84756, 1.84447, 1.84597, 1.84945, 1.85054, 1.85153, 1.85006, 1.85014, 2.04072, 1.85254, 1.85088, 2.02949, 1.85494, 2.045, 2.0485, 2.04427, 1.85187, 2.04851, 1.90472, 1.90327, 1.8485, 2.03516, 1.85035, 2.02863, 1.84883, 1.8469, 2.05095, 2.04827, 2.03085, 1.8455, 1.84602, 1.84246, 1.84554, 1.84724, 1.84935, 1.84791, 1.93551, 1.78245, 1.87501, 1.88332, 1.88619, 1.77301, 1.77189, 1.88501, 1.76854, 1.77233, 1.88444, 1.76277, 1.82412, 1.88684, 1.76672, 1.76257, 1.88612, 1.76254, 1.75997, 1.7636, 1.76106, 1.75917, 1.76007, 1.80766, 1.80683, 1.75655, 1.75796, 1.756, 1.89248, 1.75536, 1.75296, 1.75401, 1.754, 1.75286, 1.80334, 1.88845, 1.88308, 1.74765, 1.75117, 1.80021, 1.8763, 1.86562, 1.86808, 1.74239, 1.74286, 1.74418, 1.87846, 1.88121, 1.89223, 1.88905
1.75431, 1.75426, 1.75332, 1.75257, 1.75346, 1.75339, 1.75372, 1.75176, 1.75104, 1.7498, 1.75045, 1.74901, 1.75001, 1.74733, 1.74903, 1.74692, 1.74785, 1.84601, 1.74544, 1.74502, 1.7458, 1.92444, 1.74737, 1.74383, 1.74278, 1.74339, 1.74368, 1.83721, 1.79716, 1.74457, 1.74558, 1.81835, 1.86353, 1.86542, 1.79152, 1.83485, 1.74103, 1.73512, 1.74021, 1.84103, 1.73397, 1.73258, 1.85198, 1.7337, 1.72965, 1.73368, 1.73192, 1.73327, 1.72832, 1.73487, 2.02785, 1.73345, 1.8024, 1.8172, 1.81651, 1.81693, 1.81715, 1.8164, 1.9722, 1.9699, 1.9687, 1.98573, 1.81562, 1.97341, 1.81334, 1.88912, 1.89464, 1.81508, 1.8155, 1.81268, 1.88709, 1.81309, 1.81193, 1.81051, 1.89415, 1.97658, 1.98703, 1.88668, 1.97529, 1.98591, 1.88708, 1.97357, 1.80765, 1.98611, 1.90016, 1.8096, 1.80794, 1.88613, 1.88513, 1.90417, 1.90356, 1.90499, 1.90287, 1.89073, 1.89305, 1.98209, 1.90493, 1.90702, 1.90929, 2.01069, 1.96257, 1.96088, 1.95961, 1.97711, 1.95965, 1.96583, 1.96219, 1.88264, 1.88264, 1.88317, 1.88352, 1.96776, 1.96325, 1.96264, 2.00077, 1.99331, 1.88821, 1.96174, 1.96407, 1.9918, 1.96578, 1.98622, 1.98603, 1.9932, 1.99061, 1.99322, 1.97264, 1.97312, 1.97185, 1.99278, 1.97397, 1.97514, 1.97824, 1.98014, 1.98997, 1.9843, 1.98591, 1.97862, 1.99751, 1.98334, 1.97976, 1.90238, 1.99427, 1.98007, 1.90523, 1.90466, 1.90299, 1.97908, 1.98887, 1.99842, 2.00172, 1.99693, 1.90338, 1.9844, 1.98343, 1.99844, 2.00023, 1.98404, 1.98298, 2.00832, 1.98293, 1.98623, 1.98537, 1.98504, 1.90685, 1.91101, 1.90968, 1.90647, 1.91411, 1.91093, 1.91193, 1.99668, 1.9888, 1.93283, 1.84064, 1.83823, 2.04854, 1.84073, 1.89739, 1.89449, 1.89267, 2.02195, 1.84397, 1.89589, 1.95093, 1.84223, 1.94631, 1.95147, 1.8506, 1.85132, 1.85111, 1.85158, 1.85326, 2.04927, 1.85296, 2.03581, 2.02724, 2.03949, 1.85503, 1.85442, 1.85505, 1.85156, 1.85364, 1.8506, 1.85135, 1.85126, 1.84785, 1.84872, 1.84796, 1.84694, 1.84716, 1.84593, 1.8438, 1.84374, 1.8473, 1.84608, 1.84443, 1.84793, 1.8454, 1.84447, 1.89904, 1.78019, 1.87688, 1.77933, 1.7732, 1.93606, 1.88605, 1.88259, 1.88212, 1.88767, 1.76662, 1.76622, 1.82432, 1.93737, 1.7593, 1.76218, 1.88583, 1.75867, 1.76014, 1.75752, 1.80997, 1.75687, 1.87492, 1.8095, 1.8076, 1.75506, 1.75291, 1.86962, 1.8064, 1.86913, 1.88275, 1.75308, 1.75302, 1.75565, 1.8012, 1.94176, 1.88538, 1.88953, 1.75116, 1.75043, 1.74921, 1.74808, 1.86508, 1.74497, 1.8938, 1.96864, 1.88082, 1.87877, 1.74117, 1.7423
2.02544, 1.7548, 1.75515, 1.75234, 1.7553, 1.75447, 1.7552, 1.75528, 1.74828, 1.74846, 1.74921, 1.74939, 1.74778, 1.74792, 1.74762, 1.74893, 1.74817, 1.74709, 1.74429, 1.74442, 1.74536, 1.74701, 1.74661, 1.74491, 1.74714, 1.74472, 1.74503, 1.74421, 1.74426, 1.74539, 2.00635, 1.85437, 1.74341, 1.83452, 1.79269, 1.79065, 1.7885, 1.73569, 1.73675, 1.73543, 1.73661, 1.73311, 1.73732, 1.73353, 1.72936, 1.73007, 1.73132, 1.73124, 2.0364, 1.73345, 2.01019, 1.73482, 1.73572, 1.81839, 1.96886, 1.81815, 1.89269, 1.89313, 1.81746, 1.975, 1.96849, 1.99984, 1.96892, 2.0006, 1.81364, 1.81367, 1.81358, 1.89537, 1.89604, 1.81374, 1.81399, 2.00691, 1.97402, 1.88539, 1.89607, 1.81227, 1.80985, 1.8098, 1.98614, 1.88498, 1.80658, 1.98319, 1.90276, 1.8857, 1.80728, 1.88267, 1.88399, 1.98652, 1.98673, 1.99435, 1.88597, 1.90593, 1.90454, 1.89322, 1.81408, 1.90366, 1.90037, 1.90752, 1.90632, 2.00722, 2.00094, 1.97177, 1.88294, 1.96541, 1.96682, 1.97556, 1.98054, 1.88546, 1.8819, 1.88279, 1.88552, 1.88469, 1.88585, 1.96337, 1.96329, 1.98272, 1.88562, 1.96596, 1.96567, 1.98516, 1.99027, 1.98216, 1.98569, 1.98371, 1.98395, 1.89564, 1.98677, 1.9721, 1.9708, 1.97967, 1.89635, 1.99413, 1.98648, 1.98017, 1.99609, 1.99639, 1.98379, 1.99303, 1.98712, 1.99039, 1.98347, 1.98023, 1.98278, 2.00337, 2.00166, 1.99909, 1.99338, 1.99016, 1.98807, 2.00093, 1.97954, 1.98153, 1.90402, 2.00767, 1.90744, 2.00359, 1.98474, 1.99489, 1.90678, 1.98329, 1.98438, 1.98369, 1.98916, 1.90766, 1.98451, 1.90943, 1.9108, 1.91365, 1.91037, 1.9873, 1.91202, 2.00301, 1.99377, 1.83809, 1.83939, 1.8406, 1.83784, 2.03887, 1.84151, 1.84137, 1.84399, 1.84483, 2.04121, 1.83995, 1.95122, 1.84544, 1.89761, 1.84657, 1.85108, 1.84951, 1.90354, 1.90354, 2.03376, 1.85154, 1.85008, 1.85406, 1.85411, 2.04166, 1.8522, 1.854, 2.05113, 1.85165, 1.94699, 1.94612, 1.85143, 1.85151, 1.85144, 1.85077, 2.04861, 2.04872, 1.84566, 1.84629, 1.84749, 1.84583, 1.91442, 1.89684, 1.84381, 1.84785, 1.84801, 1.84784, 1.78344, 1.77997, 1.88027, 1.77234, 1.86944, 1.9369, 1.77268, 1.93546, 1.93737, 1.76732, 1.88924, 1.88319, 1.76477, 1.93793, 1.76264, 1.76098, 1.75889, 1.759, 1.76265, 1.81132, 1.81031, 1.80986, 1.81135, 1.80728, 1.80774, 1.75679, 1.75629, 1.7586, 1.80502, 1.80603, 1.75355, 1.75281, 1.83401, 1.87363, 1.80413, 1.85771, 1.88363, 1.74982, 1.75049, 1.7509, 1.75103, 1.88063, 1.74895, 1.74587, 1.74443, 1.83859, 1.74744, 1.79374, 1.86213, 1.7938
1.75699, 1.7561, 1.75297, 1.75412, 1.75209, 1.75488, 1.75497, 1.75039, 1.75316, 1.75522, 1.74971, 1.75187, 1.74868, 1.75195, 1.84469, 1.74636, 1.74741, 1.74889, 1.74411, 1.74767, 1.84313, 1.74438, 1.74736, 1.74474, 1.74537, 1.74685, 1.74113, 1.74264, 1.74472, 1.74164, 1.74342, 1.74422, 1.74171, 1.7406, 1.74081, 1.73975, 1.79, 1.84591, 1.84631, 1.73836, 1.73355, 1.73501, 1.73311, 1.73087, 1.73165, 1.73385, 1.72887, 1.73141, 2.01079, 1.73366, 1.73525, 1.7367, 1.73524, 1.97285, 1.9725, 1.97335, 1.88929, 1.81553, 1.96934, 1.81739, 1.8925, 1.99102, 1.97027, 1.81778, 1.8139, 2.00349, 1.81419, 1.89373, 1.88856, 1.89706, 1.88934, 1.89453, 1.8961, 1.89459, 1.88714, 1.89728, 1.89799, 1.88666, 1.99355, 1.97633, 1.88564, 1.97894, 1.97729, 1.809, 1.88406, 1.90294, 1.90466, 1.8867, 1.99731, 1.88604, 1.88571, 1.90451, 1.9057, 1.98437, 1.81389, 1.90399, 1.89668, 1.90437, 1.90111, 2.0074, 2.00825, 1.9876, 1.96924, 1.95955, 1.9598, 1.97611, 1.96101, 1.885, 1.88448, 1.88437, 1.88307, 1.88445, 1.88667, 1.96256, 1.97599, 2.00162, 1.96246, 1.88733, 1.96885, 1.96704, 1.97026, 1.96622, 1.96641, 1.98837, 1.98707, 1.97234, 1.97237, 1.97323, 1.99644, 1.97204, 1.9869, 1.98612, 1.97953, 1.98994, 1.90048, 1.98647, 1.98733, 1.98981, 1.8997, 1.90057, 1.90293, 1.99965, 1.98386, 1.90328, 1.99235, 2.00205, 1.90335, 1.99834, 2.01075, 1.90433, 1.99604, 1.98278, 1.98051, 1.99902, 1.98317, 2.00055, 2.00447, 2.02378, 1.99854, 2.01626, 2.00372, 2.00405, 1.98486, 1.98413, 1.91041, 1.90858, 1.90726, 1.90831, 1.90983, 1.9865, 1.99613, 1.9952, 1.99698, 1.84179, 1.84127, 1.84028, 1.84015, 1.8415, 2.02457, 1.83919, 1.83931, 2.03946, 2.03114, 1.84136, 1.84455, 1.84522, 1.84402, 1.84572, 1.8494, 1.85111, 1.84986, 1.94154, 2.04226, 1.94424, 1.85157, 2.02732, 2.05164, 1.85445, 1.85424, 1.85187, 2.0395, 1.85278, 1.85157, 1.8515, 1.85011, 1.84998, 2.01198, 1.84832, 1.84885, 1.84707, 1.89851, 1.89636, 2.01059, 2.02153, 1.89852, 1.89869, 1.84548, 1.84817, 1.84777, 1.84893, 1.84614, 1.77936, 1.7771, 1.77545, 1.88266, 1.87202, 1.77497, 1.88631, 1.86493, 1.88704, 1.76521, 1.89189, 1.76879, 1.7659, 1.88998, 1.8864, 1.76052, 1.76217, 1.75822, 1.75717, 1.76062, 1.82594, 1.80995, 1.80913, 1.80611, 1.75753, 1.88811, 1.75638, 1.75601, 1.75557, 1.88469, 1.75483, 1.8104, 1.75297, 1.8864, 1.886, 1.8853, 1.75115, 1.88311, 1.75114, 1.75089, 1.74976, 1.74427, 1.74449, 1.7463, 1.74509, 1.86228, 1.8677, 1.86443, 1.86192
1.75591, 1.75723, 1.75874, 1.75513, 1.75521, 1.75442, 1.75278, 1.75278, 1.75495, 1.75168, 1.75003, 1.74787, 1.8483, 1.74735, 1.75137, 1.74952, 1.74826, 1.7998, 1.84007, 1.74851, 1.75052, 1.7464, 1.74796, 1.74597, 1.74702, 1.74582, 1.79667, 1.79415, 1.74733, 1.74482, 1.74465, 1.74236, 1.84484, 1.79329, 1.74195, 1.73888, 1.74038, 1.84578, 1.73592, 1.73404, 1.73082, 1.7352, 2.0143, 1.73405, 1.73102, 1.73301, 1.73071, 2.03513, 1.73143, 1.73429, 1.73406, 1.78484, 1.73533, 1.97173, 1.97114, 1.81636, 1.81505, 1.97535, 1.9737, 1.97539, 1.89335, 1.89221, 1.8168, 1.97041, 1.97167, 2.01064, 1.89034, 1.89652, 1.89348, 1.89331, 1.89458, 1.89738, 1.88912, 1.89757, 1.89617, 1.89758, 1.89745, 1.97655, 1.88573, 1.88574, 1.90137, 1.8837, 1.88723, 1.80821, 1.88253, 1.98823, 1.80856, 1.90465, 1.90248, 1.9063, 1.88745, 1.90561, 1.89577, 1.8926, 1.89313, 1.89763, 1.89885, 1.89807, 1.90696, 1.98335, 1.97271, 1.95999, 1.97195, 1.97247, 1.98735, 1.97578, 1.96207, 1.88514, 1.88318, 1.88374, 1.8846, 1.8827, 1.88317, 1.96747, 1.96599, 1.96619, 1.97076, 1.96377, 1.96569, 1.88618, 1.98651, 1.96552, 1.96608, 1.98689, 1.96876, 1.96848, 1.97006, 1.97566, 1.99023, 1.98021, 1.99282, 1.89671, 1.98972, 1.9936, 1.98315, 1.89993, 1.98414, 1.99642, 1.99027, 1.90023, 1.98503, 1.90457, 1.98221, 1.9796, 1.90404, 1.90292, 1.99992, 1.90633, 2.0201, 1.98028, 1.97952, 2.00718, 1.99288, 2.00143, 1.98994, 1.9057, 1.9899, 1.98667, 1.98547, 1.98404, 2.00282, 1.90763, 1.98538, 1.98596, 1.98696, 1.98415, 1.98553, 1.98572, 1.98383, 1.99347, 1.99395, 1.99976, 1.99687, 2.03992, 1.8405, 1.8389, 1.83747, 1.83804, 1.84052, 1.89778, 2.03217, 2.02604, 1.84161, 1.84241, 2.04557, 2.0313, 1.84744, 2.02865, 1.84938, 1.84773, 1.85094, 1.85089, 1.85133, 1.85223, 1.85094, 1.85214, 1.85233, 1.85633, 1.85532, 1.85404, 1.94456, 1.90265, 1.9006, 1.85233, 1.90321, 1.90142, 1.85191, 2.05693, 1.85096, 1.84734, 1.89902, 1.84828, 2.0128, 2.01125, 1.9168, 1.84494, 1.84604, 2.02486, 1.85001, 1.84851, 1.7791, 1.7793, 1.88887, 1.77479, 1.86824, 1.77034, 1.76995, 1.81994, 1.8873, 1.7655, 1.88692, 1.76399, 1.76402, 1.76234, 1.76544, 1.88772, 1.75912, 1.75858, 1.88944, 1.889, 1.75817, 1.80799, 1.92531, 1.89301, 1.89098, 1.75673, 1.88693, 1.75478, 1.75832, 1.75646, 1.75497, 1.88559, 1.75185, 1.88289, 1.75465, 1.75179, 1.88589, 1.75162, 1.88536, 1.75025, 1.87654, 1.74851, 1.74725, 1.88548, 1.88241, 1.74605, 1.7457, 1.74369, 1.86716, 1.74524
1.75909, 1.75858, 1.85916, 1.75255, 1.83967, 1.7509, 1.75798, 1.75501, 1.75197, 1.75232, 1.7523, 1.75156, 1.85133, 1.85286, 1.7522, 1.74483, 1.74575, 1.74617, 1.74744, 1.74645, 1.74466, 1.74696, 1.84871, 1.74913, 1.74427, 1.74684, 1.80446, 1.79525, 1.79432, 1.74422, 1.74431, 1.74261, 1.74344, 1.74006, 1.7405, 1.74222, 1.74092, 1.84444, 1.73747, 1.73805, 1.73739, 1.73156, 1.73245, 1.73053, 1.73294, 1.73177, 1.73117, 1.73241, 1.7339, 1.85197, 1.7845, 1.78667, 1.78651, 1.97523, 1.97682, 1.89617, 1.96924, 1.8196, 1.81768, 1.97902, 1.97169, 1.96931, 1.89659, 1.99872, 1.89946, 1.89086, 1.89607, 1.81443, 1.97005, 1.89596, 1.88709, 1.81296, 1.89259, 1.89608, 1.99297, 1.89375, 1.8999, 1.98407, 1.80972, 1.80926, 1.80958, 1.88533, 1.80998, 1.81099, 1.88527, 1.98579, 1.90296, 1.90622, 1.88494, 1.90698, 1.8895, 1.88746, 1.8896, 1.90712, 1.90942, 1.99384, 1.90467, 1.89682, 1.99826, 2.00758, 1.99679, 1.96148, 1.96257, 1.98534, 1.98126, 1.96232, 1.96017, 1.98641, 1.88399, 1.88371, 1.8857, 1.88816, 1.88669, 1.88398, 1.97573, 1.96992, 1.88789, 1.88713, 1.9656, 1.98262, 1.96591, 1.8899, 1.9686, 1.9754, 1.99313, 1.96789, 1.9713, 1.98559, 1.97216, 1.98673, 1.89726, 1.99338, 1.99626, 1.97392, 1.97526, 1.98652, 1.98306, 1.98452, 1.99653, 2.00014, 1.98898, 2.00342, 1.9801, 1.9043, 1.97996, 1.98722, 1.98646, 1.98439, 2.00659, 1.98368, 1.90583, 1.98054, 2.00085, 1.98294, 2.00423, 1.99869, 1.98286, 1.90585, 1.90713, 1.99101, 1.98165, 1.90714, 1.9881, 1.98211, 1.98366, 1.98592, 1.98682, 1.9871, 1.9109, 1.99018, 1.99455, 1.90952, 1.91072, 1.84221, 1.84036, 1.84122, 2.02539, 1.83944, 1.83865, 1.89272, 1.84307, 2.03811, 1.84424, 2.03559, 1.84331, 1.8455, 2.0302, 2.02817, 1.84878, 1.84976, 1.93742, 1.90271, 2.02928, 1.85065, 1.90279, 1.85259, 1.85236, 1.90317, 1.90552, 2.04178, 1.85216, 1.90312, 1.85173, 1.95886, 1.85211, 2.02735, 1.85197, 1.84793, 1.84519, 1.85036, 1.91628, 1.9141, 1.89712, 1.93445, 1.84709, 1.84726, 2.02221, 1.84788, 1.84794, 1.85071, 1.84766, 1.8776, 1.8822, 1.88491, 1.82558, 1.77389, 1.82325, 1.82295, 1.87152, 1.86922, 1.76427, 1.88923, 1.88654, 1.76314, 1.81319, 1.75913, 1.7594, 1.7609, 1.76003, 1.76041, 1.75801, 1.88627, 1.75844, 1.88295, 1.7586, 2.07315, 1.75562, 1.75441, 1.89, 1.75884, 1.81719, 1.81637, 1.88871, 1.88541, 1.75304, 1.7519, 1.85128, 1.75206, 1.75029, 1.84858, 1.87548, 1.7492, 1.74909, 1.88588, 1.74625, 1.74668, 1.74657, 1.74709, 1.8896, 1.74528
1.75802, 1.75897, 1.83892, 1.75649, 1.84133, 1.82425, 1.754, 1.754, 1.75462, 2.01442, 1.75107, 1.75324, 1.75213, 1.75076, 1.75195, 1.85974, 1.74968, 1.74818, 1.74615, 1.74822, 1.75139, 1.74871, 1.74848, 1.74758, 1.74498, 1.79902, 1.74736, 1.74816, 1.7959, 1.74525, 1.85195, 1.85192, 1.74241, 1.74368, 1.74314, 1.84926, 1.84925, 1.78837, 1.78899, 1.73456, 1.85533, 1.73428, 1.93305, 1.7377, 1.73548, 1.73218, 2.03555, 2.01942, 1.73215, 1.73635, 1.78662, 1.73494, 1.7867, 1.81892, 1.97402, 1.81657, 1.97289, 1.97443, 1.97025, 1.97292, 2.00482, 1.81729, 1.81718, 1.97294, 1.89321, 1.89022, 1.8945, 1.8902, 1.97269, 1.81281, 1.89927, 1.88841, 1.88713, 1.8986, 1.88769, 1.89701, 1.89385, 1.99302, 1.89899, 1.886, 1.90354, 1.90462, 1.80946, 1.9017, 1.88236, 1.90106, 1.88426, 1.88392, 1.88932, 1.90373, 1.80958, 2.00114, 2.00346, 1.89189, 1.90654, 1.98639, 1.9058, 1.9062, 1.89849, 2.00188, 1.98642, 1.96178, 1.96006, 1.97466, 1.97515, 1.97266, 1.96261, 1.96097, 1.8867, 1.88515, 1.88593, 1.96272, 1.9636, 1.96229, 1.96147, 1.9964, 1.88648, 1.96631, 1.88798, 1.99383, 1.96664, 1.96629, 1.98318, 1.89347, 1.99257, 1.99029, 1.98915, 1.98524, 1.97472, 1.9903, 1.97399, 1.89772, 2.00332, 1.97547, 1.99397, 1.97934, 1.98666, 1.97495, 1.99124, 2.00468, 1.99744, 1.98958, 1.99334, 1.99646, 1.98023, 1.97915, 1.97701, 1.99089, 1.99377, 2.00438, 1.90439, 1.99908, 1.99013, 1.98898, 1.98006, 2.00108, 2.00334, 1.90662, 1.98107, 2.00764, 1.98198, 1.90589, 1.98584, 1.98827, 1.98878, 1.99184, 1.98342, 1.99253, 1.98775, 1.99092, 1.90985, 1.91003, 1.99598, 1.84319, 1.84144, 2.04402, 1.84098, 1.84042, 1.83979, 1.83821, 1.84172, 1.84218, 2.05531, 2.04136, 1.84297, 1.84345, 1.84237, 1.84797, 1.848, 1.84804, 1.85098, 1.84985, 1.85084, 1.85124, 1.84931, 1.85344, 1.90397, 1.90531, 1.85391, 2.04544, 1.85426, 1.90458, 1.90365, 1.90398, 1.90315, 1.84936, 1.85134, 2.06704, 1.84973, 1.8502, 1.84919, 1.89817, 1.89935, 1.89791, 2.03835, 2.03751, 2.02502, 1.84824, 1.85017, 1.84854, 1.77939, 1.77813, 1.77968, 1.77383, 1.82661, 1.87235, 1.87241, 1.77072, 1.76939, 1.76672, 1.88915, 1.76333, 1.76333, 1.88559, 1.76138, 1.88948, 1.76147, 1.76084, 1.76134, 1.88916, 1.75794, 1.75669, 1.85985, 1.88641, 1.88568, 2.07348, 1.75526, 1.75444, 1.84772, 1.88622, 1.75608, 1.7519, 1.80478, 1.75276, 1.75534, 1.75184, 1.75111, 1.88633, 1.75328, 1.80352, 1.80087, 1.7516, 1.86208, 1.85223, 1.74455, 1.7477, 1.87358, 1.87139, 1.74602, 1.74677
1.80954, 1.81001, 1.84856, 1.75927, 1.75597, 2.02486, 1.75481, 1.75472, 1.7539, 1.75171, 2.02504, 1.7535, 1.75361, 1.75268, 1.75304, 1.74888, 1.84801, 1.74935, 2.0245, 1.75087, 1.75017, 1.85194, 1.74897, 1.75039, 1.7981, 1.79867, 1.74334, 1.83523, 1.74815, 1.79661, 1.74626, 1.7421, 1.74424, 1.74249, 1.74419, 1.74492, 1.85887, 1.86141, 1.73759, 1.73676, 1.73778, 1.73364, 1.73487, 1.73722, 1.73444, 1.73359, 1.7358, 1.73492, 1.73518, 1.73463, 1.73726, 1.73804, 1.73808, 1.97924, 1.81751, 1.81888, 1.81853, 1.81752, 1.89708, 1.89904, 1.99591, 1.81976, 1.81369, 1.81155, 1.81349, 1.88922, 1.99271, 1.89706, 1.81025, 1.89954, 1.81272, 1.89942, 1.89657, 1.89485, 1.97437, 1.88687, 1.89715, 1.88893, 1.8866, 1.80963, 1.88579, 1.90431, 1.88449, 1.97895, 1.90119, 1.8817, 1.88448, 1.80915, 1.88339, 1.88371, 1.90683, 1.90661, 1.81319, 1.99295, 1.90971, 1.98241, 1.99334, 1.98469, 1.9078, 2.0085, 1.99301, 1.9867, 1.88331, 1.96085, 1.96189, 1.97155, 1.96006, 1.97614, 1.96576, 1.88227, 1.88366, 1.95818, 1.96906, 1.96644, 1.96186, 1.98955, 1.96951, 1.9686, 1.97341, 1.97751, 1.97602, 1.96597, 1.98311, 1.96959, 1.96988, 1.99351, 1.96979, 1.98601, 1.9792, 1.97897, 1.97287, 1.99196, 1.99208, 1.98661, 2.00137, 1.98574, 1.98335, 1.99313, 1.90163, 1.90248, 2.00382, 2.00021, 1.99029, 2.00083, 1.98863, 1.98924, 1.99242, 1.99051, 1.9898, 2.00153, 1.99126, 2.0008, 1.99967, 2.01089, 1.99029, 2.00097, 2.021, 1.90645, 2.00505, 1.99801, 1.98003, 1.98638, 1.98539, 1.98794, 1.90704, 1.98598, 1.98748, 1.98471, 1.99091, 1.99148, 1.90918, 1.99382, 2.00513, 1.83967, 1.8407, 1.83879, 1.84201, 1.8431, 1.93927, 1.84092, 1.84102, 1.8445, 2.04946, 1.84162, 1.84339, 1.84391, 1.84443, 1.84618, 1.84595, 1.84666, 1.84682, 1.84944, 1.85134, 1.85322, 1.8529, 1.85462, 1.9067, 1.93362, 1.85162, 2.02701, 1.85395, 1.85383, 1.9046, 1.90209, 1.94575, 1.85289, 1.85194, 1.85146, 1.84905, 1.84817, 1.8479, 1.84983, 2.0272, 2.02473, 1.84817, 2.03957, 1.85203, 1.84923, 1.84892, 1.84714, 1.84606, 1.77889, 1.77875, 1.77524, 1.82565, 1.77469, 1.76985, 1.82165, 1.82024, 1.76891, 1.76646, 1.76882, 1.88596, 1.76302, 1.76144, 1.89237, 1.89018, 1.75928, 1.75842, 1.75639, 1.7577, 1.85614, 1.75607, 1.80652, 1.75601, 1.86164, 1.85816, 1.75178, 1.75119, 1.88484, 1.75442, 1.75211, 1.755, 1.75462, 1.88479, 1.86866, 1.7536, 1.7519, 1.75379, 1.75144, 1.75082, 1.7491, 1.87914, 1.7485, 1.74853, 1.74782, 1.74765, 1.74592, 1.74723, 1.7478
1.76067, 1.84204, 1.76068, 1.76091, 1.75818, 1.75378, 1.75526, 1.75744, 1.75508, 1.75412, 1.75259, 1.75432, 1.75486, 1.75398, 1.85948, 1.75396, 1.75095, 1.84559, 1.74804, 1.74855, 2.02407, 1.84854, 1.84883, 1.74664, 1.75021, 1.79905, 1.80045, 1.79715, 1.799, 1.74507, 1.74544, 1.74754, 1.84942, 1.84217, 1.74256, 1.74386, 1.74028, 1.74126, 1.85431, 1.85501, 1.73717, 1.7373, 1.85487, 1.73368, 1.7367, 2.01361, 2.02129, 1.73558, 1.73739, 1.78595, 1.73464, 1.7376, 1.74066, 1.97315, 1.97306, 1.81976, 1.81862, 1.89687, 1.97654, 1.8967, 1.97046, 1.81615, 1.81609, 1.89613, 1.97618, 1.89666, 1.89285, 1.89495, 1.89747, 1.89742, 1.97563, 1.89654, 1.88839, 1.9936, 1.89732, 1.89709, 1.90073, 1.88677, 1.88661, 1.90033, 1.80872, 1.90064, 1.88356, 1.98367, 1.88565, 1.90371, 1.88578, 1.88465, 1.80845, 1.90541, 1.9053, 1.81153, 1.99487, 1.90707, 1.98422, 1.89534, 1.90002, 1.90347, 1.90401, 2.01661, 1.95564, 1.95817, 1.95875, 1.88543, 1.96207, 1.95952, 1.97527, 1.97877, 1.88345, 1.96178, 1.95867, 1.95901, 1.96851, 1.96372, 1.96248, 1.96189, 1.98748, 1.99256, 1.98524, 1.96169, 1.9622, 1.96927, 1.96886, 1.96828, 1.89249, 1.96866, 1.98934, 1.97217, 1.98299, 1.98886, 1.98362, 1.8973, 1.97426, 1.98447, 1.9858, 1.97152, 1.99933, 1.98945, 1.99069, 2.00684, 1.97666, 1.98617, 1.98275, 1.98168, 1.98095, 1.99586, 1.9797, 1.98845, 1.99533, 1.99493, 1.9825, 1.99105, 1.9819, 1.90625, 2.0023, 2.00042, 2.00475, 1.98293, 2.00069, 2.01663, 1.98267, 1.903, 1.98607, 1.90561, 1.9896, 1.98582, 1.99474, 1.90722, 1.98557, 1.99688, 1.98541, 1.99355, 1.98599, 1.84161, 1.84021, 1.84055, 1.84142, 1.83763, 1.89196, 2.01767, 1.84401, 1.84205, 1.84201, 1.84189, 1.84473, 1.84456, 1.84449, 1.8974, 1.84735, 1.84766, 1.8505, 1.84688, 1.8485, 2.04116, 1.85141, 2.04424, 1.85265, 1.90909, 1.85071, 1.90391, 1.85279, 1.85361, 1.852, 1.85225, 1.9028, 1.90291, 1.84804, 2.03978, 1.90091, 1.85173, 1.85044, 1.84816, 1.85163, 1.84764, 2.02647, 2.03446, 2.03227, 1.84898, 1.84889, 1.84823, 1.78234, 1.77942, 1.77882, 1.77711, 1.82433, 1.82197, 1.82037, 1.82089, 1.82034, 1.81995, 1.76462, 1.85559, 1.88988, 1.76412, 1.76286, 1.76145, 1.75787, 1.76069, 1.75801, 1.88966, 1.86845, 1.75727, 1.88755, 1.75606, 1.86936, 1.85064, 1.86112, 1.75459, 1.8876, 1.75233, 1.75353, 1.75398, 1.75221, 1.75417, 1.7546, 1.75292, 1.81064, 1.80108, 1.75092, 1.74983, 1.86383, 1.7487, 1.88162, 1.85308, 1.74715, 1.74835, 1.74771, 1.8559, 1.7476, 1.87076
1.75982, 1.75892, 1.76066, 1.75775, 1.75871, 1.75682, 1.75721, 1.75837, 1.75551, 1.75598, 1.85653, 1.75158, 1.75483, 1.75296, 1.75155, 1.74974, 1.75173, 1.74998, 1.75032, 1.93122, 1.74966, 1.74908, 1.74813, 1.75059, 1.74825, 1.74763, 1.79804, 1.79874, 1.79805, 1.74673, 2.00809, 1.74683, 1.74778, 1.74817, 1.7434, 1.93285, 1.74195, 1.7408, 1.85658, 1.73992, 1.73725, 1.73926, 1.73681, 1.74058, 1.73675, 1.73666, 1.73595, 1.73809, 1.83593, 1.73685, 1.73662, 1.73809, 1.73953, 1.81795, 1.97605, 1.81896, 1.89157, 1.97665, 1.97446, 1.81781, 1.97268, 1.97295, 1.97076, 1.89608, 1.89296, 1.89302, 1.89972, 1.89262, 1.89129, 1.89423, 1.89678, 1.89689, 1.89547, 1.89937, 1.9825, 1.81147, 1.89027, 1.90294, 1.90301, 1.97984, 1.81118, 1.90304, 1.90163, 1.90192, 1.88614, 1.90289, 1.90408, 1.99056, 1.88634, 1.88442, 1.81147, 1.81307, 1.89407, 1.89355, 1.90742, 1.89615, 1.82083, 1.90577, 1.9099, 1.99968, 1.88528, 1.97548, 1.98264, 1.88526, 1.96211, 1.98347, 1.96186, 1.96143, 1.88277, 1.96449, 1.96131, 1.96386, 1.96179, 1.97172, 1.96322, 1.88695, 1.96271, 1.96372, 1.97949, 1.88981, 1.88939, 1.99459, 1.89155, 2.00432, 1.96919, 1.97009, 1.99835, 1.97138, 2.01025, 1.96802, 1.96982, 1.97331, 1.99459, 1.99043, 1.8995, 1.99087, 2.00669, 1.97912, 1.97897, 1.97881, 1.98595, 1.98158, 1.98033, 2.00031, 1.98342, 1.98341, 1.9025, 2.00357, 1.98167, 1.98163, 1.99352, 1.99431, 1.98795, 1.97845, 1.90743, 1.99364, 2.00018, 1.98266, 1.98236, 1.99999, 1.98406, 1.98361, 1.98063, 1.98067, 1.98917, 1.98997, 1.9873, 1.98991, 1.90757, 1.98299, 2.01735, 1.98744, 1.98962, 1.83948, 1.89266, 1.84141, 1.89282, 1.89114, 1.89229, 1.84106, 1.90216, 1.89459, 1.84295, 1.90277, 1.92198, 1.93167, 1.93045, 1.84581, 1.84906, 2.04535, 1.85117, 1.85099, 1.89995, 1.90372, 1.8522, 1.851, 1.85091, 1.90964, 1.90701, 1.85252, 2.04321, 2.04185, 1.90399, 1.90365, 1.90339, 1.90339, 1.90294, 1.85148, 1.84864, 1.94731, 1.84928, 1.84989, 1.85037, 2.05287, 1.85151, 1.85101, 2.02437, 1.85202, 1.85207, 1.85031, 1.78109, 1.77914, 1.88146, 1.88128, 1.77564, 1.7725, 1.82351, 1.81991, 1.8202, 1.86666, 1.86259, 1.85823, 1.76281, 1.76388, 1.97632, 1.88675, 1.88236, 1.75948, 1.75865, 1.89109, 1.88992, 1.75632, 1.88972, 1.88793, 1.80637, 1.80788, 1.80774, 1.85838, 1.75152, 1.75546, 1.75509, 1.88307, 1.75597, 1.7547, 1.75359, 1.80346, 1.8031, 1.75198, 1.80279, 1.74919, 1.80311, 1.75083, 1.75257, 1.75158, 1.74991, 1.74962, 1.74768, 1.75149, 1.74576, 1.74273
1.86648, 1.76382, 1.76052, 1.76002, 1.76058, 1.80732, 1.75908, 1.76072, 1.75486, 1.75505, 1.7528, 1.75331, 1.75384, 1.75244, 1.75418, 1.75104, 1.75111, 1.75158, 1.75347, 1.74824, 1.7501, 1.75058, 1.74902, 1.85173, 1.85718, 1.74881, 1.75075, 1.74548, 1.79891, 1.79752, 1.74836, 1.74692, 1.74724, 1.74679, 1.74409, 1.74154, 1.74301, 1.74087, 1.73931, 1.74169, 1.74123, 1.85418, 1.85437, 1.7358, 1.73859, 1.73345, 1.78769, 1.78831, 1.73797, 1.73845, 1.73915, 1.78883, 1.74208, 1.97207, 1.81932, 1.81897, 1.82061, 1.81838, 1.89352, 1.89428, 1.97297, 1.89102, 1.89382, 1.8923, 1.89359, 1.89588, 1.89078, 1.98716, 1.89676, 1.89595, 1.90014, 1.89023, 1.89721, 1.89791, 1.81118, 1.88682, 1.81194, 1.88696, 1.88702, 1.98033, 1.8877, 1.88712, 1.88583, 1.90308, 1.90277, 1.90344, 1.98672, 1.88669, 1.88716, 1.90566, 1.98973, 1.98362, 1.88997, 1.8904, 1.90974, 1.91026, 1.82081, 1.90748, 1.90759, 1.99153, 1.96106, 1.96056, 1.88548, 1.96182, 1.96484, 1.96512, 1.9648, 1.97123, 1.88641, 1.88614, 1.88439, 1.96343, 1.96852, 1.96893, 1.97183, 1.88716, 1.8869, 1.96571, 1.88769, 1.96675, 1.96604, 1.96614, 1.98579, 2.00002, 1.89309, 1.99547, 1.99848, 1.97124, 1.973, 1.89619, 2.00045, 1.9869, 1.99343, 1.89999, 1.97385, 1.89971, 2.00163, 2.0033, 1.99352, 1.90396, 2.01032, 1.90368, 1.98469, 1.98864, 1.98664, 1.99002, 1.98926, 1.9808, 1.99925, 1.98351, 1.99066, 1.98967, 1.98657, 1.98091, 1.98669, 1.98899, 2.01449, 2.01427, 1.91, 1.98322, 1.98488, 1.98275, 1.98325, 1.98122, 1.98901, 1.99334, 1.98939, 1.98663, 1.98115, 1.98289, 1.91014, 1.99287, 2.00303, 1.84192, 2.04678, 1.84087, 1.84088, 1.8936, 1.84401, 1.95612, 1.84366, 1.84151, 1.89649, 1.84283, 1.84414, 1.89486, 1.89893, 1.8995, 1.89877, 1.84898, 1.95239, 1.85101, 1.9037, 1.9463, 1.85385, 1.85187, 1.85587, 1.85352, 1.85476, 1.85305, 2.05272, 1.85175, 1.90391, 1.85263, 1.85242, 1.85133, 1.85168, 1.85277, 1.90653, 1.95033, 1.84884, 1.85085, 1.84927, 1.84979, 1.85088, 1.85225, 2.02806, 1.85123, 1.84887, 1.89997, 1.78238, 1.88027, 1.88379, 1.88868, 1.7741, 1.77148, 1.77212, 1.87687, 1.76871, 1.76967, 2.0733, 1.76559, 1.76399, 1.76301, 1.97602, 1.8582, 1.75862, 1.88545, 1.88927, 1.75748, 1.89274, 1.75745, 1.75488, 1.75743, 1.80987, 1.75674, 1.75421, 1.75721, 1.80608, 1.75132, 1.75419, 1.88138, 1.75176, 1.75143, 1.75227, 1.75216, 1.75146, 1.80109, 1.75176, 1.80303, 1.75094, 1.87668, 1.75084, 1.75271, 1.75146, 1.74781, 1.87363, 1.87301, 1.87603, 1.7481
1.75957, 1.76123, 2.02921, 1.76138, 1.76145, 1.81102, 1.80844, 1.80928, 1.7557, 1.75544, 1.7573, 1.75763, 1.75548, 1.75271, 1.75239, 1.75121, 1.85054, 1.75101, 1.75175, 1.75038, 1.75144, 1.80224, 1.74759, 1.85698, 1.85818, 2.02732, 1.75161, 1.74801, 1.74584, 1.74792, 1.74841, 1.75102, 1.86653, 1.74459, 1.74409, 1.74401, 1.74423, 1.85553, 1.74226, 1.8588, 1.74056, 1.74098, 1.85605, 1.73719, 1.73943, 1.73975, 1.79963, 1.79113, 1.73833, 1.79113, 1.79168, 1.79241, 1.74487, 1.98591, 1.81934, 1.89699, 1.89613, 1.89613, 1.89431, 1.97613, 1.89708, 1.89617, 1.97543, 1.97591, 1.89048, 1.81457, 1.90016, 1.89962, 1.89923, 1.89085, 1.90036, 1.90007, 1.90021, 1.97845, 1.9772, 1.88603, 1.8862, 1.88582, 1.8895, 1.90164, 1.98917, 1.98314, 1.90625, 1.80861, 1.88292, 1.9049, 1.98962, 1.88735, 1.88584, 1.88641, 1.81291, 1.90952, 1.89245, 1.90936, 1.89559, 1.8179, 1.82159, 1.82345, 1.99687, 2.00916, 1.98782, 1.88577, 1.97831, 1.97706, 1.97288, 1.88369, 1.97415, 1.96546, 1.88578, 1.88398, 1.88511, 1.96492, 1.96418, 1.96008, 1.96025, 1.96184, 1.88704, 1.96562, 1.96847, 1.96671, 1.98925, 1.96683, 1.97118, 1.98274, 1.97066, 1.96917, 1.97501, 1.97278, 2.00348, 1.99426, 1.99316, 1.99241, 1.98681, 1.97729, 1.97577, 1.90111, 1.89974, 2.0038, 1.99146, 1.98213, 2.01042, 1.9041, 1.98769, 1.905, 1.99212, 1.98948, 1.90141, 1.99854, 1.98271, 1.98443, 1.98404, 1.99869, 1.90438, 1.98879, 1.99957, 1.99386, 1.98303, 2.0006, 1.98242, 1.98624, 2.00703, 1.90658, 1.90535, 1.98397, 1.98503, 1.90892, 1.90469, 1.98699, 1.90887, 1.98971, 2.00015, 1.91075, 1.84485, 1.84383, 1.84183, 1.84363, 1.84382, 1.84328, 1.84702, 1.84181, 1.84212, 1.8933, 1.84249, 1.84544, 1.84412, 1.8974, 1.94679, 1.89637, 1.84851, 1.89998, 1.89922, 1.94795, 1.85128, 1.85184, 1.8527, 1.85466, 1.85272, 1.85022, 1.84976, 1.85325, 1.85248, 2.0241, 2.02495, 2.04158, 1.85141, 2.02579, 1.85438, 1.90173, 1.90065, 1.8522, 1.94289, 1.8494, 1.851, 1.85167, 1.85124, 1.85161, 1.85085, 1.85419, 1.85156, 1.84836, 1.7793, 1.87281, 1.88233, 1.87969, 1.77347, 1.77038, 1.77232, 1.76973, 1.86548, 1.87903, 1.76812, 1.76679, 1.7647, 1.76387, 1.76171, 1.88579, 1.76091, 1.88798, 1.75829, 1.75716, 1.75798, 1.8092, 1.7565, 1.75622, 1.75496, 1.88293, 1.88125, 1.7571, 1.87515, 1.75314, 1.75183, 1.88811, 1.88814, 1.75108, 1.75371, 1.75226, 1.75176, 1.80355, 1.75125, 1.8067, 1.80487, 1.7542, 1.752, 1.75112, 1.85155, 1.74951, 1.75078, 1.87558, 1.84637, 1.87395
1.76457, 1.75977, 1.76355, 1.76164, 1.75961, 1.75776, 1.84299, 2.01099, 1.75975, 1.75883, 1.75872, 1.75647, 1.75633, 1.75535, 1.8426, 1.84506, 1.754, 1.75351, 1.75239, 1.75342, 1.74814, 1.74995, 1.74858, 1.85688, 1.74895, 1.7519, 1.75149, 1.85552, 1.93017, 1.7503, 1.79902, 1.79984, 1.86807, 1.86918, 1.79903, 1.74748, 1.74583, 1.74636, 1.85817, 1.859, 1.74234, 1.74221, 1.74137, 1.85604, 1.73983, 1.81104, 1.80126, 1.80232, 1.79256, 1.74119, 1.74238, 1.74345, 1.74288, 1.97279, 1.97902, 1.89652, 1.81836, 1.89386, 1.89599, 1.89524, 1.8168, 1.97691, 1.89677, 1.89644, 1.89675, 1.81681, 1.89744, 1.81307, 1.89008, 1.89062, 1.81377, 1.89029, 1.88901, 1.80983, 1.90236, 1.81178, 1.88646, 1.88668, 1.97872, 1.88573, 1.90363, 1.98668, 1.90424, 1.90255, 1.98375, 1.88677, 1.9066, 2.01159, 1.88441, 1.90675, 1.88913, 1.88878, 1.98529, 1.8939, 1.89493, 1.91039, 1.91006, 1.89788, 1.90028, 1.98712, 1.84197, 1.95969, 1.9724, 1.97003, 1.96534, 1.95906, 1.95884, 1.97378, 1.97389, 1.88443, 1.88607, 1.96716, 1.96643, 1.96497, 1.88796, 1.96304, 1.96744, 1.9963, 1.96628, 1.88888, 1.96936, 1.96537, 1.98248, 1.97266, 1.97179, 1.96988, 1.89361, 1.89674, 1.89567, 1.98073, 1.89713, 1.99579, 1.9889, 1.89787, 1.97761, 1.97663, 1.9012, 1.98332, 1.90336, 1.99312, 2.00132, 1.98736, 1.90379, 2.00044, 2.008, 1.99755, 1.99881, 1.98714, 1.99761, 2.01147, 2.00005, 1.98716, 1.90623, 1.99287, 1.90568, 1.99202, 1.99227, 1.98462, 1.98349, 1.90586, 1.90524, 1.98254, 1.98055, 1.98601, 1.98614, 1.90479, 1.90361, 1.90273, 1.91261, 1.99449, 1.90976, 1.9914, 1.99135, 1.84368, 2.03019, 1.84492, 1.843, 1.8417, 1.84332, 1.84051, 1.84231, 1.93805, 1.84441, 1.84541, 1.84754, 1.84368, 1.94917, 1.84657, 2.027, 1.84783, 1.85382, 1.85046, 1.85132, 2.02103, 1.85308, 1.85228, 1.85336, 1.85327, 1.90409, 1.90292, 1.85318, 1.85528, 1.85397, 2.04858, 1.8526, 1.85418, 1.85066, 1.90328, 1.85167, 1.85136, 2.04864, 1.84921, 1.90011, 1.84796, 1.84967, 2.03422, 1.8521, 1.90251, 1.84856, 1.90168, 1.83154, 1.83127, 1.87313, 1.77737, 1.88073, 1.88528, 1.77111, 1.77039, 1.76945, 1.8832, 1.76797, 1.76443, 1.88321, 1.76149, 1.88592, 1.8894, 1.88572, 1.75831, 1.76136, 1.75769, 1.75503, 1.75462, 1.80663, 1.75618, 1.75671, 1.75577, 1.754, 1.75305, 1.85895, 1.75415, 1.75403, 1.75447, 1.88784, 1.75477, 1.7552, 1.81798, 1.75433, 1.75238, 1.87225, 1.87323, 1.80665, 1.75211, 1.75203, 1.75008, 1.75108, 1.75087, 1.87181, 1.75438, 1.75066, 1.74989
1.76305, 1.76212, 1.76118, 1.75938, 1.76193, 1.75911, 1.75659, 1.76144, 2.04173, 1.75526, 1.75594, 2.01456, 1.75747, 1.81623, 1.81661, 1.75487, 1.75571, 1.75232, 1.7524, 1.75087, 1.75184, 1.75068, 1.7509, 1.7502, 1.7499, 1.85489, 1.75127, 1.74906, 1.74853, 1.74767, 1.79998, 1.74804, 1.74822, 1.74746, 1.84989, 1.74647, 1.85027, 1.85135, 1.83414, 1.8581, 1.74374, 1.74408, 1.86086, 1.74369, 1.84571, 1.85058, 1.84323, 1.83052, 1.79331, 1.7409, 1.74295, 1.74479, 1.74566, 1.82152, 1.97582, 1.97916, 1.82105, 1.8205, 1.82025, 1.89641, 1.81716, 1.8974, 1.89158, 1.81693, 1.89256, 1.89502, 1.89056, 1.98341, 1.89126, 1.89238, 1.88895, 1.89772, 1.90262, 1.81155, 1.97744, 1.88877, 1.9046, 1.88743, 1.80777, 1.98017, 1.90363, 1.88412, 1.88164, 1.88021, 1.81002, 1.90493, 1.90873, 1.91036, 1.8854, 1.88687, 1.90941, 1.99892, 1.88924, 1.81465, 1.89489, 1.89874, 1.90005, 1.89847, 1.82443, 2.01783, 1.96334, 1.96323, 1.88608, 1.88601, 1.97969, 1.96259, 1.96444, 1.97269, 1.88587, 1.88596, 1.88596, 1.88933, 1.96387, 1.96907, 1.96876, 1.98247, 1.96681, 1.96597, 1.96582, 1.89003, 1.98061, 1.89227, 1.96892, 1.9685, 1.96962, 1.98627, 1.99026, 1.89548, 1.89623, 1.89624, 1.98429, 1.98331, 1.89834, 1.89698, 1.89994, 1.99465, 1.98434, 1.97858, 1.97791, 1.90321, 2.00442, 1.98675, 1.99727, 1.9966, 1.98305, 1.98651, 1.98304, 1.98212, 1.99343, 1.99527, 1.98642, 1.98057, 1.97985, 1.98377, 1.98128, 2.00679, 1.98637, 1.9051, 2.0041, 1.98327, 1.99259, 1.98615, 1.98417, 1.98345, 1.90593, 1.90673, 1.90526, 1.90726, 1.90817, 2.00752, 1.9881, 2.00332, 1.98542, 1.84296, 2.03132, 2.04465, 1.84476, 2.02785, 1.8421, 1.84212, 1.84373, 1.84439, 1.8462, 1.846, 1.84648, 1.84485, 1.95005, 2.03498, 2.02703, 1.84932, 1.84862, 1.84925, 1.851, 1.85096, 1.90251, 1.85437, 1.90328, 1.85189, 1.90361, 1.90424, 1.8533, 1.85207, 1.90272, 1.85433, 1.85502, 1.85426, 1.85422, 2.02537, 1.85162, 1.85165, 1.85162, 1.9034, 1.85061, 1.84855, 1.85047, 1.8521, 1.85274, 1.85205, 1.93605, 1.85149, 1.78315, 1.77801, 1.90023, 1.77574, 1.87188, 1.88019, 1.77071, 1.77105, 1.76778, 1.86281, 1.81489, 1.76535, 1.88391, 1.76381, 1.88663, 1.89041, 1.76095, 1.80795, 1.80842, 1.80955, 1.86991, 1.85859, 1.85576, 1.75486, 1.85028, 1.75401, 1.87102, 1.86825, 1.75346, 1.88936, 1.88501, 1.75424, 1.8853, 1.75461, 1.88193, 1.88241, 1.75017, 1.75431, 1.75482, 1.92381, 1.96178, 1.95938, 1.74936, 1.87889, 1.85115, 1.86663, 1.87293, 1.87348, 1.87886, 1.74761
1.8187, 1.76462, 1.76419, 1.76466, 1.76261, 1.76185, 1.75807, 1.75772, 1.7586, 2.03016, 1.75837, 1.75795, 1.75813, 1.75603, 1.75344, 1.75589, 1.75697, 1.7535, 1.75207, 1.93208, 1.9351, 1.75392, 1.75386, 1.86228, 1.7494, 1.75159, 1.75194, 1.75046, 1.75269, 1.86002, 1.85599, 1.74825, 1.74773, 1.74848, 1.93704, 1.74629, 1.79646, 1.74606, 1.85965, 1.86282, 1.74442, 1.8685, 1.86402, 1.84079, 1.84121, 1.79353, 1.7413, 1.74357, 1.74271, 2.02759, 1.74421, 1.74454, 1.74702, 1.82237, 1.82155, 1.81415, 1.81928, 1.97519, 1.82112, 1.82103, 1.99633, 1.99928, 1.99757, 1.97619, 1.81809, 1.8994, 1.89324, 1.9031, 1.89098, 1.89761, 1.81437, 1.88675, 1.90016, 1.8908, 1.81266, 1.90192, 1.90154, 1.88546, 1.80978, 1.80685, 1.88666, 1.80778, 1.90607, 1.90507, 1.88235, 1.80844, 1.98692, 1.88424, 1.88662, 1.80972, 1.88992, 1.90771, 1.90867, 1.89169, 1.89377, 1.89664, 1.89981, 1.91024, 1.90518, 1.98633, 1.97815, 1.96868, 1.96888, 1.96336, 1.96248, 1.96282, 1.96372, 1.96561, 1.88571, 1.88583, 1.88526, 1.88504, 1.88885, 1.96863, 1.96276, 1.88704, 1.97204, 1.96482, 1.96662, 1.97925, 1.98038, 1.99293, 1.96771, 1.9673, 1.96904, 2.00997, 1.99577, 1.89617, 1.99036, 1.89668, 1.99306, 1.98655, 1.99751, 1.98652, 1.98123, 1.98631, 1.90046, 1.98208, 1.98098, 1.90166, 1.9867, 1.9803, 1.99032, 1.98925, 1.90475, 1.98662, 1.99503, 1.98375, 1.98326, 1.98107, 1.9061, 1.98316, 1.98195, 1.99109, 1.99356, 1.99677, 1.90312, 1.98623, 2.00992, 1.98692, 1.99409, 1.9808, 1.98015, 1.90376, 1.90644, 1.90654, 1.90986, 1.90748, 1.9866, 1.98557, 2.0054, 1.98476, 1.99707, 1.89278, 1.84537, 2.03891, 1.84396, 1.91976, 1.84268, 1.89467, 1.84236, 1.89713, 1.94869, 1.89606, 1.89588, 1.84286, 1.84446, 1.84825, 1.85106, 1.85477, 1.84869, 1.85136, 1.94059, 1.8516, 1.8528, 2.02769, 1.85435, 1.85308, 1.8543, 1.85287, 1.85265, 1.85293, 1.85431, 1.85226, 1.85218, 1.9409, 1.90099, 2.04027, 1.85272, 1.85447, 1.85272, 1.85185, 1.85132, 1.90398, 1.85182, 1.85125, 1.85177, 1.9167, 1.91689, 1.91745, 1.77939, 1.88451, 1.87225, 1.8688, 1.87586, 1.87508, 1.81866, 2.05878, 1.76561, 1.88058, 1.86285, 1.76548, 1.76128, 1.7623, 1.76323, 1.86538, 1.81067, 1.81007, 1.87226, 1.87182, 1.81471, 1.75512, 1.85871, 1.80696, 1.75691, 1.75751, 1.75426, 1.86888, 1.75538, 1.75557, 1.75426, 1.75438, 1.75444, 1.7522, 1.88329, 1.88083, 1.75146, 1.75381, 1.75324, 1.75272, 1.75301, 1.75317, 1.75234, 1.75106, 1.87335, 1.86974, 1.86617, 1.87345, 1.74844, 1.74836
1.7659, 2.0344, 1.7627, 1.76379, 1.765, 1.76098, 1.76184, 1.76169, 1.75922, 1.75793, 1.76029, 1.75809, 1.75649, 1.75791, 1.75797, 1.75564, 1.75677, 1.75477, 1.75407, 1.75476, 1.9351, 1.93437, 1.75451, 1.7544, 1.75407, 1.7545, 1.75207, 1.85738, 1.75099, 1.75136, 1.75191, 1.74845, 1.75068, 1.74922, 1.74887, 1.79913, 1.79845, 1.84176, 1.79775, 1.80367, 1.7453, 1.86598, 1.86647, 1.84363, 1.74414, 1.74524, 1.74484, 1.74548, 1.74609, 1.74666, 1.74124, 1.74363, 1.74451, 1.97839, 1.97891, 1.8228, 1.8197, 1.81876, 1.81876, 1.89993, 1.89683, 1.97611, 1.89549, 1.89712, 1.89653, 1.89975, 1.89278, 1.89431, 1.89061, 1.89301, 1.90342, 1.88747, 1.81183, 1.97894, 1.81201, 1.88913, 1.90223, 1.9034, 1.88944, 1.90359, 1.9046, 1.88665, 1.8858, 1.98213, 1.80958, 1.88253, 1.80808, 1.88418, 1.90722, 1.90912, 1.90915, 1.90959, 1.81491, 1.89459, 1.89532, 1.82152, 1.89894, 1.907, 1.91013, 1.99032, 1.95858, 1.96347, 1.9703, 1.95982, 1.96978, 1.88601, 1.97278, 1.96517, 1.8867, 1.88639, 1.88579, 1.88673, 1.88746, 1.96942, 1.96475, 1.88795, 1.98404, 1.9653, 1.98954, 1.98291, 1.96879, 1.99373, 1.89183, 1.9689, 2.00017, 2.00347, 1.89325, 2.00204, 1.97942, 1.99384, 1.89703, 1.97671, 1.97454, 1.98621, 1.90023, 1.99644, 1.98055, 1.9018, 1.99575, 1.98863, 1.97766, 1.97662, 1.99378, 1.90374, 1.99276, 1.90646, 2.00832, 1.99183, 1.98259, 1.98236, 1.99271, 1.98309, 1.98936, 1.9802, 1.9853, 2.00412, 1.98681, 1.99617, 1.99377, 1.97864, 1.99126, 1.99316, 1.98195, 1.90614, 1.90543, 1.90479, 1.90642, 1.90783, 1.98652, 1.99367, 1.98591, 1.98453, 1.9977, 1.89459, 1.8427, 2.03862, 1.84285, 1.94468, 1.84273, 1.84578, 1.8956, 1.84593, 1.94668, 1.84505, 1.84803, 1.89932, 1.8476, 1.84735, 1.8469, 1.84754, 2.03277, 1.85149, 1.85113, 1.85069, 1.94115, 2.02749, 2.02738, 1.85506, 1.85494, 1.85203, 1.85331, 1.8523, 1.94075, 2.03771, 1.85505, 1.85346, 1.90291, 1.85197, 1.851, 2.04816, 1.85282, 1.85183, 1.85084, 1.84995, 1.85516, 1.85443, 1.85278, 1.85419, 1.85056, 1.91658, 1.78132, 1.77966, 1.82703, 1.83374, 1.82397, 1.82234, 1.82042, 1.81922, 1.76502, 1.7682, 1.76665, 1.86909, 1.76348, 1.76474, 1.76325, 1.76186, 1.76092, 1.81266, 1.75837, 1.87367, 1.80789, 1.75802, 1.88669, 1.75726, 1.85785, 1.75665, 1.75658, 1.86931, 1.75162, 1.7546, 1.75367, 1.75517, 1.75465, 1.75259, 1.75131, 1.75263, 1.88159, 1.75286, 1.75142, 1.7515, 1.87656, 1.75456, 1.75031, 1.75196, 1.87202, 1.75433, 1.87922, 1.75139, 1.7481, 1.87525
1.86573, 1.76453, 2.01688, 1.76298, 1.76041, 1.75957, 1.85996, 2.01713, 1.76081, 1.76072, 1.761, 1.75825, 1.81031, 1.84301, 1.80824, 1.75839, 1.75704, 2.01999, 1.75615, 1.75596, 2.02939, 1.75577, 1.75787, 1.753, 1.80754, 1.75554, 1.75396, 1.75526, 1.75269, 1.75372, 1.75268, 1.75049, 1.75156, 1.75199, 1.75015, 1.75007, 1.74923, 1.74923, 1.86439, 1.74605, 1.74737, 1.83451, 1.84609, 1.84376, 1.74481, 1.851, 1.74547, 1.74536, 1.8527, 1.74779, 1.74459, 1.74748, 1.74907, 1.82308, 1.97745, 1.82195, 1.82009, 1.90348, 1.82121, 1.81989, 1.98711, 1.81626, 1.89893, 1.90012, 1.90061, 1.9002, 1.90101, 1.81705, 1.98272, 1.81616, 1.88769, 1.89428, 1.90401, 1.88979, 1.88828, 1.88889, 1.88761, 1.90451, 1.90592, 1.88564, 1.88509, 1.80985, 1.88529, 1.90707, 1.9828, 1.90703, 1.99698, 1.887, 1.80858, 1.91018, 1.90934, 1.90864, 1.91404, 1.89288, 1.91136, 1.911, 1.89726, 1.82549, 1.89976, 2.00559, 1.95923, 1.96269, 1.9827, 1.96269, 1.96048, 1.96549, 1.96116, 1.98612, 1.88598, 1.88567, 1.88546, 1.96205, 1.88763, 1.97164, 1.96581, 1.96426, 1.88836, 1.88911, 1.96496, 1.98579, 1.89374, 1.96876, 1.89284, 1.9701, 1.98759, 1.97281, 1.9719, 1.99991, 2.01165, 1.99598, 1.96523, 1.96671, 1.99526, 1.98272, 1.98416, 1.98581, 1.90136, 1.98475, 1.90273, 1.90445, 2.00741, 1.9061, 1.99364, 1.99847, 1.90371, 1.98636, 1.9805, 1.99715, 1.9896, 1.99463, 1.98933, 1.98871, 1.98723, 1.9871, 1.98081, 1.98881, 1.9861, 1.98193, 1.98244, 1.98153, 1.98229, 1.98277, 1.98455, 1.98495, 1.98395, 1.90696, 1.90594, 1.90564, 1.98434, 1.99683, 1.99979, 2.0193, 1.99914, 1.93581, 2.02753, 1.84426, 1.84466, 1.84354, 1.84389, 1.9449, 1.84504, 1.84735, 1.84564, 1.84645, 1.91167, 1.89768, 1.84767, 1.89905, 1.91433, 1.94439, 2.05142, 1.8508, 1.85213, 1.90253, 1.90085, 1.85308, 2.02373, 1.85166, 2.03761, 1.91137, 1.92783, 1.94131, 1.85408, 1.85098, 1.94856, 1.8516, 1.85019, 1.85473, 1.85266, 1.85154, 1.85129, 1.85172, 1.85017, 1.84825, 1.924, 1.85068, 1.85097, 1.85015, 1.85036, 1.91183, 1.77964, 1.77925, 1.77409, 1.77434, 1.87974, 1.82337, 1.82106, 1.7654, 1.76895, 1.7674, 1.88702, 1.76396, 1.81298, 1.88565, 1.76028, 1.75868, 1.85314, 1.81129, 1.80849, 1.7586, 1.80764, 1.75589, 1.7553, 1.75445, 1.75517, 1.88339, 1.88746, 1.88533, 1.75433, 1.7544, 1.88611, 1.75173, 1.75139, 1.75086, 1.80362, 1.88567, 1.88279, 1.75309, 1.87708, 1.8787, 1.85383, 1.75204, 1.74976, 1.87301, 1.74983, 1.87595, 1.74874, 1.87305, 1.87301, 1.74887
1.76597, 1.76572, 1.76587, 1.76246, 1.76355, 1.76462, 1.86191, 1.76221, 1.76197, 1.76172, 1.85951, 1.7591, 1.8119, 1.80995, 1.81144, 1.80797, 1.75507, 1.7559, 1.75773, 1.80563, 1.75651, 1.75563, 1.75325, 1.75431, 1.84848, 1.7554, 1.75425, 1.75451, 1.7558, 1.81403, 1.87741, 1.75223, 1.75329, 1.7523, 1.80245, 1.75038, 1.74877, 1.85146, 1.8657, 1.74811, 1.85069, 1.74571, 1.74673, 1.74779, 1.87361, 1.85187, 1.74751, 1.85389, 1.85767, 1.8591, 1.74756, 1.74819, 1.74926, 1.82562, 1.82287, 1.82173, 1.8187, 1.89593, 1.89981, 1.97751, 1.97635, 1.89972, 1.90216, 1.89824, 1.90019, 1.89237, 1.8171, 1.89489, 1.90155, 1.90274, 1.90088, 1.9005, 1.88896, 2.00173, 1.88726, 1.90747, 1.88961, 1.80851, 1.88573, 1.80962, 1.88331, 1.90411, 1.90426, 1.90748, 1.90833, 1.90748, 1.8866, 1.88482, 2.01186, 1.81087, 1.89147, 1.90743, 1.88903, 1.816, 1.9114, 1.8962, 1.89875, 1.9098, 1.98688, 1.98644, 1.98676, 1.96323, 1.97312, 1.96241, 1.98195, 1.96361, 1.96365, 1.96353, 1.88598, 1.88703, 1.96316, 1.96331, 1.96365, 1.9633, 1.97639, 1.98136, 1.98954, 1.96796, 1.98751, 1.98776, 2.01425, 1.96846, 1.98394, 1.99165, 1.89375, 1.97498, 1.97287, 1.97428, 2.00062, 1.89726, 1.98303, 1.99275, 1.99248, 1.89914, 1.9889, 1.97641, 1.98352, 1.98442, 1.99925, 1.97757, 1.97698, 1.97864, 1.9799, 1.98044, 1.98051, 2.00363, 1.99892, 2.00025, 1.98087, 1.99751, 1.98359, 1.99084, 2.00081, 2.00151, 1.99773, 1.98921, 1.99724, 2.0037, 1.98076, 2.0047, 2.00999, 1.98143, 1.90599, 1.9045, 1.90719, 1.90677, 1.90854, 1.90914, 1.98645, 1.98587, 1.99379, 2.01015, 2.01184, 1.94127, 2.03056, 1.84539, 1.8452, 1.84469, 1.84324, 1.94816, 2.02142, 1.8465, 2.02248, 1.84715, 1.84786, 1.84722, 1.8969, 1.89785, 1.91571, 1.94758, 1.94126, 1.85221, 1.85136, 1.9027, 1.93494, 1.90258, 1.90263, 1.8548, 1.93093, 1.85287, 1.85143, 1.85323, 1.85523, 1.90293, 1.85141, 1.90334, 1.95008, 1.85101, 2.042, 1.85236, 2.02738, 1.85126, 1.85186, 1.85228, 1.92639, 1.84912, 1.84988, 1.85197, 1.85171, 1.84835, 1.78218, 1.88275, 1.88043, 1.77152, 1.76981, 1.77262, 1.86954, 1.86873, 1.76595, 1.76527, 1.88283, 1.76635, 1.76521, 1.76253, 1.76291, 1.88214, 1.75906, 1.75618, 1.88343, 1.82135, 1.80614, 1.75665, 1.75633, 1.88768, 1.88555, 1.75455, 1.88537, 1.75373, 1.88661, 1.75479, 1.88653, 1.88538, 1.80469, 1.87007, 1.80427, 1.8033, 1.75377, 1.75372, 1.75217, 1.87881, 1.87488, 1.75473, 1.75204, 1.8035, 1.74841, 1.75144, 1.75114, 1.74631, 1.75132, 2.07285
1.76635, 1.76826, 1.7667, 1.76621, 1.76502, 1.76634, 1.76483, 1.76024, 1.94199, 1.76299, 1.76454, 1.84502, 1.76172, 1.80975, 1.75564, 1.75812, 1.75862, 1.75718, 2.02271, 1.7561, 1.758, 1.75727, 1.75661, 1.75482, 1.75465, 1.75452, 1.755, 1.75507, 1.75476, 1.75399, 1.75316, 1.75267, 1.75282, 1.80282, 1.80472, 1.75038, 1.85187, 1.85292, 1.75127, 1.75075, 1.85468, 1.74887, 1.85396, 1.7488, 1.74796, 1.85502, 1.74987, 1.85822, 1.74899, 1.75027, 1.74973, 1.85846, 1.75299, 1.8198, 1.89832, 1.89716, 1.89517, 1.98186, 1.90117, 1.89607, 1.89662, 1.97918, 1.81965, 1.90275, 1.89764, 1.89169, 1.89162, 1.89494, 1.89286, 1.89484, 1.90334, 1.90353, 1.88929, 1.88836, 1.88935, 1.98275, 1.88773, 1.88749, 1.88764, 1.90567, 1.8085, 1.90742, 1.88625, 1.90513, 1.88569, 1.8846, 2.0002, 1.88609, 1.88769, 1.88828, 1.81271, 1.8939, 1.81483, 1.89384, 1.98736, 1.98729, 1.90016, 1.91001, 1.83119, 2.02447, 1.97898, 1.88613, 1.88665, 1.88853, 1.97337, 1.9653, 1.96351, 1.88629, 1.88577, 1.96468, 1.96431, 1.96537, 1.96527, 1.96433, 1.96701, 1.96525, 1.88887, 1.96589, 1.96487, 1.96688, 1.9681, 1.97084, 1.96884, 1.97116, 1.89562, 1.98588, 1.98293, 1.98238, 1.97929, 1.89272, 1.98354, 1.97628, 1.99781, 2.00389, 1.99117, 1.97909, 1.98976, 1.99617, 2.0021, 1.90408, 1.97874, 1.97953, 1.99717, 1.99062, 1.99733, 1.99659, 1.98665, 1.90397, 1.90457, 1.999, 1.986, 1.98334, 1.90662, 1.9946, 1.98336, 1.98127, 1.98532, 1.9061, 1.90514, 1.9994, 1.99771, 1.98342, 1.98567, 1.90718, 1.9078, 1.90614, 1.90705, 1.98004, 1.9828, 1.90792, 1.9961, 1.98542, 1.90965, 1.84464, 1.89675, 1.89575, 1.89576, 1.84538, 2.02059, 1.84563, 1.94524, 1.8452, 2.02204, 2.0245, 1.89653, 1.8967, 1.84856, 1.9347, 1.89808, 1.90289, 1.85092, 1.84865, 1.8531, 1.90141, 1.90017, 1.90309, 1.9021, 1.85362, 1.93233, 1.85154, 1.85471, 1.8488, 1.85295, 1.85135, 1.85213, 1.90423, 1.85239, 1.851, 1.85193, 2.03817, 1.85124, 2.01932, 1.8543, 1.8513, 2.04469, 1.89978, 1.90041, 1.8471, 1.84856, 1.84739, 1.93049, 1.88547, 1.77626, 1.77512, 1.77273, 1.76942, 1.76829, 1.77281, 1.76565, 1.76664, 1.7651, 1.76453, 1.76429, 1.88601, 1.8644, 1.88473, 1.88393, 1.85431, 1.88508, 1.75861, 1.75531, 1.88271, 1.75369, 1.75819, 1.88565, 1.75524, 1.75489, 1.75251, 1.75576, 1.89044, 1.88912, 1.749, 1.80435, 1.7521, 1.80363, 1.75266, 1.75357, 1.80133, 1.75385, 1.7534, 1.75214, 1.75181, 1.80116, 1.80478, 1.75148, 1.86707, 1.87429, 1.87214, 1.79988, 1.86774
1.76831, 1.77138, 1.76788, 1.76875, 1.76768, 1.76696, 1.76573, 1.76464, 1.76389, 1.76353, 1.76451, 1.84741, 1.76259, 1.76124, 1.8107, 1.84664, 1.75791, 1.75824, 2.02165, 1.75871, 1.75776, 1.75593, 2.01665, 1.80723, 1.80732, 1.7546, 1.80706, 1.75443, 1.80509, 1.75649, 1.85415, 1.75237, 1.75139, 1.75369, 1.7544, 1.75163, 1.75316, 1.75405, 1.7513, 1.81739, 1.85616, 1.75126, 1.85657, 1.74909, 1.74877, 1.74912, 1.75098, 1.856, 1.75029, 1.75178, 1.7546, 1.75251, 1.75259, 1.82081, 1.82134, 1.89961, 1.82359, 1.9771, 1.98642, 1.8228, 1.82117, 1.97945, 1.89337, 1.89645, 1.89674, 1.89914, 1.89783, 1.9052, 1.89731, 1.81442, 1.90365, 1.98263, 1.90229, 1.90525, 1.88914, 1.90535, 1.90863, 1.90678, 1.80843, 1.88561, 1.88449, 1.88514, 1.9962, 1.90731, 1.88545, 1.80956, 1.91107, 1.90984, 1.91191, 1.91081, 1.90981, 1.8897, 1.81352, 1.8962, 1.98906, 2.00352, 1.90965, 1.82791, 1.82877, 2.01173, 1.98185, 1.97539, 1.98015, 1.88903, 1.96282, 1.96914, 1.97595, 1.96351, 1.96314, 1.96875, 1.96484, 1.96442, 1.96505, 1.96373, 1.96329, 1.97416, 1.98609, 1.98262, 1.9934, 1.96712, 1.96806, 2.00657, 1.98243, 1.98335, 1.97389, 1.9751, 1.98398, 1.896, 1.89541, 1.89478, 1.98428, 1.98805, 1.99884, 1.98716, 1.98885, 1.97661, 1.97568, 1.90163, 1.99023, 1.98253, 1.9827, 1.98197, 1.98219, 1.99991, 1.9967, 2.00322, 1.99145, 1.98319, 1.90541, 1.90611, 1.98382, 1.98369, 1.98696, 1.98712, 2.00338, 1.99277, 1.99707, 1.90307, 1.97962, 1.98648, 1.98304, 1.98322, 1.90511, 1.90477, 1.90555, 1.90682, 1.90956, 1.90705, 1.99803, 2.00785, 1.90757, 2.0071, 1.98574, 1.94129, 1.89653, 1.84351, 1.92772, 1.84279, 2.0283, 1.84526, 1.84447, 1.94835, 1.84561, 2.03892, 1.89795, 1.89652, 1.90957, 1.89943, 1.84863, 1.93513, 1.85005, 1.84837, 2.03663, 1.90309, 1.90412, 1.85213, 1.90332, 1.85321, 1.91365, 1.8526, 2.03427, 1.85413, 1.85138, 1.85157, 1.85195, 1.85224, 1.84862, 1.85056, 1.8496, 1.84787, 1.85116, 2.02403, 2.02445, 1.84784, 1.85136, 1.90035, 1.85094, 1.8507, 1.84742, 1.84523, 1.77895, 1.77825, 1.77537, 1.77491, 1.77207, 1.88157, 1.93476, 1.7682, 1.88167, 1.88035, 1.88497, 1.88004, 1.76289, 1.88884, 1.8845, 1.7605, 1.75837, 1.75872, 1.75843, 1.87956, 1.80688, 1.75615, 1.75431, 1.75428, 1.75382, 1.75344, 1.88633, 1.75507, 1.75567, 1.7546, 1.75119, 1.84888, 1.7499, 1.75303, 1.75462, 1.87671, 1.75178, 1.80472, 1.75342, 1.75093, 1.87531, 1.8753, 1.86009, 1.85745, 1.75271, 1.75252, 1.8802, 1.87474, 1.75147, 1.87172
1.76661, 1.77137, 1.94532, 1.76653, 1.76737, 1.76832, 1.76714, 1.76629, 2.01854, 1.75951, 1.76428, 1.7629, 1.84769, 1.81231, 1.81131, 1.81086, 1.76101, 1.94486, 1.75832, 1.94259, 1.93956, 1.85339, 2.01837, 1.86526, 1.86542, 1.75509, 1.7555, 1.75738, 1.80549, 1.84616, 1.85136, 1.75253, 1.75435, 1.75575, 1.7569, 1.75301, 1.75489, 1.74976, 1.75268, 1.86115, 1.75124, 1.75208, 1.7511, 1.74922, 1.7475, 1.74674, 1.87352, 1.75012, 1.80153, 1.75162, 1.75127, 1.75065, 1.75331, 1.82362, 1.82295, 1.90319, 1.89886, 1.82412, 1.89855, 1.97926, 1.82133, 1.89903, 1.89765, 1.89901, 1.89559, 1.82044, 1.90052, 1.89359, 1.89219, 1.89118, 1.89087, 1.89277, 1.89298, 1.90783, 1.90664, 1.88893, 1.81044, 1.99493, 1.99469, 1.88658, 1.9069, 1.90772, 1.88566, 1.88321, 2.00226, 1.9943, 1.80954, 1.91006, 1.81085, 1.811, 1.81313, 1.81277, 1.8148, 1.89479, 2.00661, 1.91129, 1.9128, 1.9126, 1.91114, 1.99753, 1.9801, 1.98959, 1.96994, 1.97299, 1.96588, 1.96606, 1.97234, 1.96314, 1.96505, 1.96867, 1.96616, 1.96731, 1.96676, 1.88921, 1.89021, 1.96501, 1.96963, 1.97872, 1.99739, 1.98674, 1.98249, 1.98015, 1.99341, 1.99845, 1.99803, 1.97142, 1.99279, 1.99694, 1.98355, 1.98687, 1.984, 1.99179, 1.97906, 1.98104, 1.994, 1.97662, 1.9999, 1.90175, 1.90275, 1.98321, 1.98232, 1.98688, 2.0144, 1.9846, 1.98425, 1.98657, 1.90389, 1.99115, 1.90636, 1.98306, 2.01503, 2.0039, 1.99809, 1.98834, 1.90603, 1.99314, 1.90651, 1.90456, 1.98305, 1.98238, 1.90645, 1.9866, 1.90445, 1.90787, 1.90618, 1.90593, 1.90726, 1.90786, 1.98728, 1.997, 1.98983, 1.9943, 2.00266, 1.94298, 1.84556, 1.89693, 1.84741, 1.84571, 1.84491, 1.84834, 1.84253, 1.95058, 1.84122, 1.84542, 1.89712, 1.89827, 1.913, 1.84772, 1.84749, 1.84604, 1.84884, 1.8498, 2.04225, 1.85159, 1.85336, 1.85239, 1.84997, 1.85194, 1.85257, 1.85273, 2.03241, 1.85421, 1.90132, 1.85279, 1.90206, 1.90307, 1.85033, 1.84977, 2.02876, 1.8512, 1.8999, 1.85199, 1.8522, 1.85131, 2.0408, 1.8524, 2.01997, 1.84911, 1.85071, 1.78323, 1.78152, 1.77676, 1.77759, 1.87877, 1.7717, 1.76973, 1.76956, 1.76861, 1.88255, 1.76629, 1.93147, 1.76361, 1.76394, 1.88219, 1.88278, 1.88223, 1.75555, 1.88363, 1.88585, 1.75831, 1.75735, 1.75442, 1.75665, 1.75523, 1.80359, 1.75218, 1.75337, 1.87259, 1.8768, 1.7556, 1.75503, 1.8828, 1.88528, 1.75279, 1.75096, 1.75504, 1.7532, 1.87745, 1.88526, 1.881, 1.74818, 1.86894, 1.87165, 1.75222, 1.74953, 1.75055, 1.75071, 1.87421, 1.80066, 1.74947
1.76885, 1.76918, 1.77209, 1.76864, 1.7659, 1.7653, 1.76637, 1.76518, 2.02103, 1.76191, 1.76343, 1.76664, 1.76127, 1.81141, 1.76205, 1.76174, 1.86565, 1.8516, 1.75847, 1.75991, 1.75854, 1.75758, 1.75812, 1.75946, 1.75663, 1.75746, 1.75813, 1.86062, 1.80597, 1.80711, 1.75522, 1.75485, 1.75496, 1.75578, 1.7564, 1.75249, 1.75417, 1.75402, 1.85448, 1.8619, 1.86509, 1.74902, 1.75038, 1.74872, 1.74934, 1.74936, 1.85748, 1.75285, 1.75225, 1.7523, 1.75425, 1.93766, 1.75445, 1.90213, 1.82341, 1.82362, 1.82271, 1.89964, 1.90081, 1.82173, 1.90001, 1.89776, 1.89764, 1.90342, 1.9013, 1.89452, 1.81718, 1.8161, 1.90609, 1.90629, 1.89261, 1.81432, 1.90413, 1.88865, 1.88836, 1.90687, 1.90568, 1.81093, 1.8899, 1.89002, 1.88361, 1.90973, 1.90991, 1.98699, 1.81036, 1.98581, 1.80881, 1.88869, 1.88748, 1.91144, 1.91116, 1.89149, 1.89243, 1.89442, 1.91153, 1.91111, 1.90062, 1.90403, 1.82762, 2.00815, 2.00969, 1.96621, 1.99044, 1.96362, 1.96499, 1.966, 1.96712, 1.88761, 1.8894, 1.96547, 1.96959, 1.96854, 1.96617, 1.96532, 1.965, 1.96952, 1.97226, 1.88953, 1.96643, 1.99365, 1.89142, 1.97449, 1.89343, 1.89457, 1.98871, 1.98482, 1.99401, 1.96701, 1.96861, 1.98269, 2.00281, 1.99792, 1.9752, 1.97589, 1.90151, 1.97767, 1.97785, 1.97842, 1.9836, 1.90526, 1.98741, 1.98625, 1.90364, 1.90615, 1.99667, 1.99602, 1.98895, 1.90612, 1.99322, 1.9074, 1.90664, 2.00217, 1.9058, 1.90132, 1.99349, 1.99495, 2.01359, 2.00385, 1.99683, 1.99377, 1.90552, 1.99258, 1.90822, 1.90536, 1.90501, 1.9065, 1.90659, 1.90688, 1.98567, 1.98329, 1.98342, 2.00349, 2.01205, 1.84597, 2.04231, 1.84798, 1.84752, 2.02396, 1.84588, 1.89594, 1.89629, 1.84512, 1.94615, 1.84669, 2.02434, 1.84715, 1.84854, 1.94843, 1.85074, 1.84826, 1.85088, 1.84916, 1.85248, 2.02289, 1.85337, 1.85276, 2.02658, 1.85311, 1.85007, 1.85092, 2.03932, 2.03206, 1.90224, 1.85215, 1.90289, 1.85155, 1.84787, 2.02313, 1.84992, 1.93146, 1.92834, 1.85289, 1.85039, 1.9009, 1.84769, 1.85057, 1.85038, 1.85024, 1.84707, 2.0237, 1.77852, 1.77757, 1.77898, 1.88003, 1.87012, 1.87142, 1.77165, 1.767, 1.88004, 1.98569, 1.93149, 1.76563, 1.76268, 1.76138, 1.76077, 1.88901, 1.88853, 1.88779, 1.88478, 1.8661, 1.75747, 1.75574, 1.75319, 1.80466, 1.80572, 1.80547, 1.75179, 1.75167, 1.75214, 1.75179, 1.88647, 1.85819, 1.87968, 1.74867, 1.75209, 1.88357, 1.75124, 1.87766, 1.75001, 1.87957, 1.75026, 1.75138, 1.87521, 1.75052, 1.80154, 1.74961, 1.80167, 1.74962, 1.75041, 1.74897
1.77124, 1.77211, 1.76793, 1.76842, 1.7691, 1.76829, 1.76684, 1.76553, 2.02227, 1.76356, 1.76483, 1.76542, 1.76284, 1.76278, 1.93889, 1.76276, 1.7621, 1.84547, 1.76122, 1.76143, 1.86188, 1.76005, 1.75961, 1.7582, 1.75863, 1.75819, 1.86185, 1.86335, 1.75711, 1.85775, 1.75565, 1.75459, 1.75616, 1.75779, 1.75325, 1.75122, 1.7544, 1.75436, 1.86013, 1.75359, 1.85895, 1.85806, 1.75189, 1.7527, 1.75246, 1.75073, 1.75139, 1.7541, 2.02217, 1.75184, 1.75468, 1.75565, 1.75806, 1.82216, 1.82451, 1.90139, 1.90024, 1.82285, 1.82334, 1.97883, 1.82167, 1.90304, 1.90098, 1.89401, 1.90338, 1.98708, 1.89964, 1.97974, 1.89114, 1.89375, 1.88971, 1.98323, 2.00408, 1.88988, 1.88989, 1.88962, 1.88996, 1.89124, 1.88604, 1.80508, 1.80947, 1.8886, 1.88689, 1.88716, 1.88434, 1.90999, 1.81063, 1.88633, 1.88767, 2.01136, 1.81278, 1.81353, 1.89324, 1.81751, 2.00269, 1.89668, 1.99315, 1.90952, 1.91424, 1.91318, 1.99953, 1.96876, 1.96768, 1.96558, 1.96549, 1.96939, 1.96599, 1.96636, 1.96664, 1.97219, 1.96651, 1.96644, 1.96734, 1.96859, 1.96785, 1.96509, 1.98717, 1.97611, 1.96888, 1.89097, 1.97867, 1.89076, 1.97925, 1.98439, 1.99493, 1.97332, 1.97205, 1.97934, 1.97214, 1.98265, 1.99001, 1.97701, 1.97668, 1.97682, 1.98037, 1.97779, 1.99684, 1.97998, 1.98669, 1.99188, 1.9048, 1.90466, 1.98508, 1.97965, 1.99291, 1.98919, 1.99325, 2.01053, 1.99372, 1.9043, 1.90712, 1.99375, 2.00964, 2.00502, 1.99037, 1.98423, 1.99272, 1.90501, 1.98359, 1.98444, 1.99048, 1.90563, 1.90635, 1.90403, 1.90378, 1.90768, 1.90622, 1.90722, 1.98702, 2.00077, 1.98457, 1.98425, 1.91025, 1.84606, 2.02061, 1.84771, 1.84489, 2.01982, 1.89584, 1.84573, 1.84546, 1.84462, 1.95081, 1.84642, 2.02759, 1.84685, 2.03898, 2.05451, 1.85045, 1.85003, 1.85015, 2.0241, 1.85216, 1.85074, 1.85258, 1.85088, 1.91158, 1.85431, 1.85328, 1.85264, 2.02129, 1.85207, 1.84864, 1.85208, 2.03196, 2.03409, 1.851, 1.8481, 1.85179, 2.03854, 2.03122, 1.84849, 1.92851, 1.8481, 2.02124, 1.84797, 1.8489, 1.85149, 1.8483, 1.84771, 1.77782, 1.77352, 1.77358, 1.88068, 1.77218, 1.87978, 1.77035, 1.76872, 1.76532, 1.93588, 1.76503, 1.75879, 1.76297, 1.88549, 1.86503, 1.75803, 1.89064, 1.85196, 1.75755, 1.75691, 1.85359, 1.88627, 1.88919, 1.75164, 1.75388, 1.75186, 1.75131, 1.75429, 1.75409, 1.75365, 1.75269, 1.75248, 1.88551, 1.75165, 1.75059, 1.75128, 1.88153, 1.8785, 1.75365, 1.80224, 1.84463, 1.75055, 1.74857, 1.80396, 1.75155, 1.75092, 1.8002, 1.8542, 1.8706, 1.86816
1.77245, 1.77599, 1.76997, 2.04796, 1.76929, 1.77266, 2.04851, 2.02324, 2.04805, 1.7644, 1.76506, 1.76826, 1.76771, 1.94475, 1.76562, 1.76232, 1.76321, 1.76142, 1.76061, 1.76323, 2.04523, 1.86381, 1.75903, 2.01768, 1.75947, 1.75853, 1.75771, 1.75928, 1.75834, 1.76126, 1.85655, 1.75711, 1.92983, 1.85535, 1.75507, 1.75495, 1.75504, 1.86785, 1.75338, 1.7568, 1.80404, 1.75244, 1.75264, 1.85053, 1.75329, 1.75245, 1.75382, 1.75533, 1.75448, 1.75479, 1.75532, 1.75695, 1.75584, 1.82492, 1.82507, 1.89884, 1.8235, 1.82682, 1.82304, 1.82335, 1.90431, 1.89985, 1.9004, 1.90118, 1.89911, 1.89419, 1.89216, 1.89342, 1.89379, 1.89238, 1.89299, 1.89478, 1.89247, 1.89067, 1.90593, 1.8856, 1.90958, 1.81066, 1.98656, 1.9113, 1.91135, 1.88724, 1.88875, 1.8893, 1.88905, 1.9875, 1.81061, 1.88889, 1.8892, 1.81337, 1.88948, 1.81537, 1.81741, 2.01582, 2.01591, 1.91333, 1.90389, 1.91133, 1.99114, 1.99806, 1.88724, 1.96882, 1.96862, 1.97557, 1.88875, 1.968, 1.96231, 1.8892, 1.88802, 1.96756, 1.96851, 1.96926, 1.96942, 1.8888, 1.88962, 1.96644, 1.9855, 1.98665, 1.97691, 1.98598, 1.89222, 1.89194, 1.97946, 1.95876, 2.0034, 1.9922, 1.98075, 1.97581, 1.9757, 1.98904, 1.89611, 1.97549, 1.97604, 1.97707, 2.0002, 1.90194, 1.99648, 1.90396, 1.99036, 1.99029, 1.99306, 1.98968, 1.99565, 1.98025, 1.9907, 1.97961, 1.90456, 1.98919, 1.98775, 1.98703, 1.90641, 1.99347, 1.90603, 2.00761, 1.99505, 1.99112, 1.99548, 2.00805, 1.90638, 2.00369, 1.99095, 1.98718, 1.90699, 1.90835, 1.9062, 1.90504, 1.90652, 1.98673, 1.98863, 1.98901, 1.98502, 1.98541, 2.01884, 1.8483, 2.04286, 1.84738, 1.84767, 1.84726, 1.89613, 1.94846, 2.03872, 1.8456, 1.84808, 1.84731, 1.84636, 1.84502, 2.05679, 1.84891, 1.84981, 1.84961, 1.85071, 2.03946, 1.85179, 2.04394, 2.04144, 1.85399, 1.91423, 1.9387, 1.85351, 1.85274, 1.85148, 1.84949, 1.85059, 1.85248, 1.8527, 1.85422, 2.02278, 2.02383, 1.84847, 1.84728, 2.04078, 1.84818, 1.84875, 1.84892, 1.84698, 1.85055, 2.03129, 2.02716, 1.84839, 1.84749, 1.77529, 1.77358, 1.77432, 1.77366, 1.8823, 1.88188, 1.76979, 1.76939, 1.76833, 1.87949, 1.76214, 1.81281, 1.86797, 1.80996, 1.76102, 1.75921, 1.80871, 1.75589, 1.80882, 1.83177, 1.75783, 1.88059, 1.75802, 1.88758, 1.8923, 1.8868, 1.75426, 1.88203, 1.85265, 1.88652, 1.88528, 1.75374, 1.75267, 1.8869, 1.87903, 1.75232, 1.88195, 1.75012, 1.75215, 1.80249, 1.75246, 1.75235, 1.75086, 1.75152, 1.8761, 1.87229, 1.75027, 1.87328, 1.87219, 1.80094
1.77406, 1.77251, 1.76835, 1.7706, 1.7713, 1.77122, 1.7718, 1.76908, 1.76853, 1.76783, 1.76589, 2.03766, 2.0213, 1.76551, 1.76579, 1.76418, 1.7648, 1.76191, 1.76418, 1.76213, 1.86536, 1.76129, 1.76185, 1.76543, 1.75807, 1.7579, 1.76085, 1.75786, 1.75827, 1.7583, 1.7565, 1.75661, 1.85861, 1.75887, 1.75764, 1.9405, 1.75564, 1.80641, 1.80633, 1.80656, 1.80575, 1.8046, 1.84645, 1.7524, 1.75287, 1.8561, 1.75722, 1.75578, 1.75556, 1.93673, 1.75683, 1.75758, 1.75868, 1.82507, 1.82539, 1.90108, 1.90009, 1.90338, 1.89877, 1.89759, 1.89833, 1.89658, 1.98226, 2.00301, 1.97864, 1.81771, 1.81821, 1.89578, 1.90394, 1.90447, 1.90648, 1.90742, 1.89374, 1.89021, 1.91026, 1.90838, 1.88859, 1.98744, 1.88908, 1.91114, 1.88738, 1.88662, 1.88598, 1.91187, 2.0074, 1.99044, 1.91049, 1.88625, 1.88903, 1.81264, 1.91363, 1.91372, 1.8169, 1.81845, 1.89394, 1.9142, 1.90027, 1.90624, 1.91385, 1.98908, 2.00425, 1.99229, 1.88973, 1.89012, 1.96508, 1.88871, 1.96483, 1.88837, 1.88958, 1.96928, 1.96952, 1.96994, 1.9699, 1.9718, 1.98011, 1.96737, 1.96606, 1.96835, 1.9691, 1.89254, 1.89283, 1.8932, 1.89253, 1.97909, 1.89492, 1.97281, 1.96917, 1.9703, 1.98931, 1.99201, 1.89887, 1.89947, 1.90165, 1.90024, 1.97923, 2.00035, 1.97908, 2.01559, 1.97937, 2.00061, 1.97993, 1.98336, 1.99498, 1.99367, 1.99882, 1.99796, 1.90594, 1.99185, 2.00116, 1.98641, 1.97912, 1.99149, 1.99915, 1.90676, 1.97957, 1.98991, 1.90624, 1.90729, 1.97954, 2.00324, 1.98267, 1.98201, 1.98288, 1.90632, 1.90583, 1.90655, 1.90667, 1.90806, 1.90709, 2.00693, 1.98663, 1.98604, 2.00256, 1.84667, 1.8493, 1.84797, 1.84751, 1.8464, 1.84603, 1.95151, 1.84361, 1.84653, 1.84842, 1.84897, 1.84526, 1.84598, 1.84874, 1.94791, 1.85175, 1.85027, 1.85166, 2.04769, 1.85013, 1.85278, 1.85176, 1.93744, 1.8525, 1.85136, 1.8533, 1.8513, 1.85191, 1.85167, 1.8516, 1.85143, 1.84861, 2.05542, 1.84927, 1.84909, 2.0497, 1.8458, 1.85051, 1.85078, 1.8479, 1.8466, 1.84638, 1.8478, 1.84784, 2.028, 1.84627, 1.84693, 1.77578, 1.7774, 1.77519, 1.77521, 1.87944, 1.88241, 1.76841, 1.88326, 1.76613, 1.76486, 1.76303, 1.81348, 1.81336, 1.76006, 1.76006, 1.75789, 1.88346, 1.7569, 1.7556, 1.75638, 1.87548, 1.75531, 1.75494, 1.75502, 1.75484, 1.88945, 1.74927, 1.75388, 1.75127, 1.88592, 1.7522, 1.88696, 1.75236, 1.7511, 1.75186, 1.74979, 1.75354, 1.75173, 1.74751, 1.75231, 1.80226, 1.75223, 1.75363, 1.87251, 1.87642, 1.75456, 1.75096, 1.75208, 1.92354, 1.75116
1.77418, 1.87788, 1.82376, 1.77185, 1.88333, 1.7724, 1.82147, 1.77136, 1.76968, 2.04797, 1.76682, 1.76844, 1.76929, 1.86517, 1.76623, 1.86506, 1.86452, 1.85816, 1.93972, 1.76792, 1.86286, 1.76447, 1.76482, 1.76481, 1.81057, 1.75983, 1.86351, 1.86163, 1.85193, 1.75947, 1.75985, 1.86529, 1.86177, 1.85729, 2.03383, 1.81467, 1.80717, 1.75852, 1.7588, 1.75827, 1.80651, 1.80516, 1.80567, 1.75518, 1.75652, 1.75473, 1.75598, 1.75721, 1.75544, 2.03046, 1.7576, 1.75836, 1.75862, 1.9011, 1.9041, 1.90261, 1.90158, 1.89963, 1.90288, 1.90318, 1.90314, 1.89726, 1.89826, 1.90343, 1.89584, 1.90298, 1.90474, 1.89862, 1.81645, 1.90671, 1.81598, 1.89445, 1.90705, 1.8897, 1.90795, 1.8097, 1.81337, 1.88851, 1.91001, 1.91198, 1.91292, 1.98694, 1.91153, 1.88645, 1.81256, 1.91615, 1.81054, 1.89013, 1.892, 1.913, 1.89081, 1.91433, 1.89223, 1.89378, 1.89686, 1.89784, 1.91374, 1.98966, 1.91483, 1.99333, 2.01157, 1.96859, 1.96689, 1.98632, 1.96582, 1.88962, 1.96618, 1.96571, 1.89054, 1.88912, 1.97036, 1.96974, 1.97043, 1.97212, 1.96697, 1.96696, 1.96735, 1.96879, 1.97379, 2.00654, 1.89396, 1.979, 1.97793, 1.89499, 1.89585, 1.99239, 1.98622, 1.99371, 1.99337, 2.01053, 1.89917, 1.90005, 1.90009, 1.97731, 1.97731, 2.01384, 1.90442, 2.02192, 2.00069, 1.98202, 1.97974, 1.99201, 1.98232, 1.90487, 2.00462, 1.98616, 2.00645, 1.99762, 1.90689, 2.00022, 1.98296, 1.98282, 1.98322, 1.98294, 1.98254, 1.99606, 2.00277, 1.90641, 1.90731, 1.98757, 1.99748, 1.98235, 1.9067, 1.98263, 1.90744, 1.91025, 1.90707, 1.90671, 1.90711, 2.01384, 1.98734, 1.98506, 1.98628, 1.84962, 1.85087, 1.89833, 1.89977, 1.89717, 1.89529, 1.94561, 1.84499, 1.84479, 2.0284, 1.84726, 1.84641, 1.84756, 1.85093, 1.85166, 1.84733, 1.94697, 1.85111, 1.85242, 1.85235, 1.85219, 1.85291, 1.85251, 1.90167, 2.03612, 2.03226, 1.85282, 1.85205, 1.89957, 1.92503, 1.85154, 1.8499, 2.02394, 1.84824, 1.84731, 1.84906, 1.84835, 1.84814, 1.84911, 1.84848, 1.95289, 1.84751, 1.84939, 1.89605, 1.84609, 2.02051, 1.82951, 1.82707, 1.82632, 1.77392, 1.773, 1.76931, 1.76671, 1.76559, 1.76808, 1.76837, 1.85871, 1.76119, 1.7617, 1.87672, 1.88341, 1.8868, 1.88581, 1.88646, 1.86222, 1.75497, 1.88495, 1.75658, 1.75318, 1.75474, 1.75459, 1.75456, 1.85133, 1.75258, 1.75234, 1.88652, 1.88439, 1.88626, 1.88489, 1.8033, 1.75201, 1.8023, 1.80263, 1.7529, 1.88235, 1.8808, 1.87312, 1.75342, 1.87816, 1.75106, 1.86338, 1.87228, 1.75321, 1.7507, 1.74813, 1.75135, 1.86852
1.82593, 1.77388, 1.82551, 1.82397, 1.7741, 1.86327, 1.77179, 1.77328, 2.04582, 1.77053, 1.77089, 1.77132, 1.76823, 1.77024, 1.86812, 1.76646, 1.76452, 1.76499, 1.76629, 1.76539, 1.76634, 1.86233, 1.76224, 1.76493, 1.76236, 1.81118, 1.81081, 1.7618, 1.86476, 1.76176, 1.75938, 1.75939, 1.75616, 1.8651, 1.75941, 1.7578, 1.80901, 1.80778, 1.75699, 1.75825, 1.75778, 1.75629, 1.80609, 1.75616, 1.75635, 1.93766, 1.75502, 1.75573, 1.80757, 1.76159, 1.75762, 1.75912, 1.7618, 1.98349, 1.82673, 1.90117, 1.9008, 1.82478, 1.90071, 1.90481, 1.90061, 1.89922, 1.90423, 1.8218, 1.89693, 1.90735, 1.89539, 1.89624, 1.89475, 1.81493, 1.98305, 1.89181, 1.89306, 1.8869, 1.90937, 1.91042, 1.89216, 1.90989, 1.88893, 1.88825, 1.81298, 1.88704, 1.98705, 1.88651, 1.88663, 1.88844, 1.8893, 1.91542, 1.88874, 1.88642, 1.8155, 1.89247, 1.89369, 1.81872, 1.91404, 1.82371, 1.82569, 1.99038, 2.0132, 2.01777, 1.84779, 1.96961, 1.96945, 1.97114, 1.96629, 1.89049, 1.96816, 1.96748, 1.88947, 1.89147, 1.88902, 1.97119, 1.96911, 1.97286, 1.89054, 1.96817, 1.96793, 1.97512, 1.97648, 1.89093, 1.99262, 1.97881, 1.98127, 1.89446, 1.98657, 1.98673, 1.98588, 1.9753, 1.98322, 1.98213, 1.99973, 2.00389, 1.99148, 2.00754, 1.97956, 1.97845, 1.99775, 2.00004, 1.99464, 1.98206, 1.98336, 1.98273, 1.98312, 1.98229, 1.98925, 1.9901, 1.90609, 1.98831, 1.99161, 2.00068, 1.9905, 1.98281, 1.98241, 1.99882, 1.98349, 1.98245, 2.00458, 1.98929, 1.9075, 1.98549, 1.98283, 1.98571, 1.98307, 1.90977, 1.90736, 1.90831, 1.90826, 1.98555, 1.98701, 2.01057, 1.90974, 2.01096, 1.85097, 1.84906, 2.04118, 1.95155, 1.8461, 1.95181, 1.84819, 1.94531, 1.84529, 2.03169, 1.84616, 1.84728, 1.84845, 1.84757, 1.84745, 1.84907, 2.03137, 1.84985, 1.84924, 1.85074, 1.85408, 1.84893, 1.94749, 1.85356, 1.85294, 1.8523, 2.03891, 1.90325, 1.90309, 1.90089, 1.92672, 1.92482, 1.84895, 2.03453, 1.84913, 2.02424, 1.85093, 1.84897, 1.84802, 1.84766, 1.84934, 2.04119, 1.84785, 1.89626, 1.89779, 1.89786, 1.89487, 1.82997, 1.7766, 1.77498, 1.7699, 1.77152, 2.05407, 1.76886, 1.88801, 1.81624, 1.8866, 1.8854, 1.76489, 1.76213, 1.76188, 1.76141, 1.75881, 1.88546, 1.75568, 1.80588, 1.75752, 1.80813, 1.86968, 1.86886, 1.75465, 1.75196, 1.85194, 1.75502, 1.75378, 1.75028, 1.75455, 1.75265, 1.75192, 1.75302, 1.80069, 1.75197, 1.86945, 1.75222, 1.79967, 1.75458, 1.88283, 1.75429, 1.75037, 1.74946, 1.80842, 1.80943, 1.80692, 1.75378, 1.75164, 1.75097, 1.90696, 1.75186
1.77838, 1.77641, 1.7726, 1.77345, 1.77465, 1.77484, 1.77219, 1.7723, 1.77194, 1.77271, 1.77219, 1.86465, 1.77137, 1.76803, 1.86562, 1.76798, 1.76894, 1.76556, 1.76669, 1.76761, 1.76623, 1.86913, 2.03655, 1.7613, 1.7632, 1.81404, 1.76299, 1.76235, 1.86403, 1.76158, 1.76126, 1.83708, 1.75794, 1.86144, 1.75817, 1.81037, 1.75642, 1.75808, 1.75806, 1.75759, 1.847, 1.80652, 1.84608, 1.75579, 1.94129, 1.75587, 1.75784, 1.75814, 1.75989, 1.76089, 2.01436, 1.85817, 1.76185, 1.82735, 1.98623, 1.90643, 1.8236, 1.90618, 1.90136, 1.9065, 1.90584, 1.98292, 1.90657, 1.90658, 1.89634, 1.90633, 1.89588, 1.90586, 1.90672, 1.99643, 1.90983, 1.90922, 1.9091, 1.88919, 1.90962, 1.88955, 1.88992, 1.889, 1.81252, 1.81121, 1.91332, 1.91558, 1.91455, 2.0002, 1.88899, 1.88884, 1.88952, 2.00744, 1.80899, 1.88785, 1.89153, 1.91671, 1.89478, 1.91648, 1.89984, 1.99264, 1.90398, 1.91478, 1.91622, 1.9964, 1.84831, 1.98316, 1.98223, 1.97122, 1.96781, 1.96643, 1.88962, 1.8903, 1.96759, 1.88975, 1.89002, 1.89151, 1.97188, 1.97154, 1.96873, 1.96968, 1.96605, 1.99343, 1.9871, 1.96481, 1.96898, 1.96931, 1.97287, 2.0105, 1.96246, 2.00072, 1.98375, 1.97435, 1.99693, 1.97645, 1.9, 1.98086, 1.99098, 1.90378, 2.00041, 1.99049, 1.98202, 2.00554, 1.99678, 2.00849, 2.00964, 2.00359, 1.99934, 1.97966, 1.98076, 2.00302, 2.00093, 1.90623, 1.99801, 1.90919, 1.90811, 1.99754, 1.98582, 2.00672, 1.99409, 1.98212, 1.98325, 1.98461, 1.99445, 1.99359, 1.98653, 1.98143, 1.98047, 1.90713, 1.90709, 1.91004, 1.90792, 1.98607, 1.90808, 2.01017, 1.98323, 1.98653, 2.0086, 1.85184, 1.8463, 1.84755, 1.93711, 1.84813, 1.91398, 1.84771, 1.84772, 2.02785, 1.84807, 1.84784, 1.85161, 1.9028, 1.90392, 1.90357, 1.94573, 2.022, 2.02144, 1.84996, 1.85084, 2.03429, 2.03473, 2.02936, 1.85246, 1.85159, 1.85105, 1.84877, 1.8485, 2.00995, 1.92966, 1.92774, 1.85107, 1.84865, 1.84884, 1.84752, 1.85073, 1.8483, 2.01974, 1.84685, 1.8492, 1.84937, 1.84837, 1.8474, 1.84443, 1.89817, 1.84468, 1.86231, 1.86204, 1.86583, 1.77339, 1.77224, 1.77078, 1.76945, 1.76523, 1.81622, 1.88975, 1.76414, 1.7647, 1.76459, 1.87892, 1.87986, 1.87967, 1.75754, 1.75701, 1.80825, 1.80826, 1.80497, 1.80953, 1.80721, 1.75371, 1.75295, 1.75429, 1.75207, 1.74955, 1.88451, 1.88152, 1.75521, 1.75214, 1.75132, 1.80314, 1.75292, 1.86768, 1.80237, 1.75133, 1.80132, 1.88073, 1.87883, 1.75195, 1.75269, 1.80971, 1.81088, 1.86112, 1.75327, 1.75401, 1.75106, 1.87103, 1.75203
