0.968313056071659,0.967347117322232,0.963469405503063,0.962842717660483,0.962725756765546,1.10798842394195,0.952286691740091,1.11016190960906,0.946536652765627,0.947204495068086,0.946122454562134,0.943882443910401,0.943262750574342,0.940918687640036,0.940969686047649,0.939954398164839,0.941198764130499,0.939074754987451,0.939487903843249,0.939151351723671,0.938818264682308,0.93765062750922,0.933676201655995,0.932683602670676,0.931312823269897,0.928230413194695,0.928079893214845,0.929420819212435,0.930852867978165,0.931063827799578,0.930299557974573,0.930709538385076,0.929983090616544,0.930093341491183,0.930190764249829,0.92915814495361,0.929482370162504,0.926261667506633,0.925634239084966,0.926364923086325,1.30081706143852,0.918424953201931,0.918456034650938,0.92009451082755,0.919878448741581,0.919437678911563,0.91719182212034,0.917138146314748,1.02281790162615,0.97179813554758,1.10169378363331,0.910511259331331,0.900689666972366,0.894357889942586,0.889786154005483,0.873039174248592,0.88732308182735,0.885914522918866,0.991626964006357,0.878455086294559,0.86609357879876,0.908976723767001,0.895374992708732,0.913783529185586,0.954951105977432,0.962452821196003,1.00485606486034,1.06626699803592,1.06622513350479,1.10539224698578,1.15183569117694,1.17953014894393,1.33076600030607,1.21982478770444,1.22126773761273,1.22234624427723,1.24896898475908,1.25086962439534,1.26557013852232,1.27850388690729,1.29594238448803,1.31538213378906,1.33616684838253,1.33073781756471,1.36139007708343,1.37648291263914,1.41001825561739,1.46224451867057,1.52885591171819,1.54678358558818,1.55406077963881,1.58014329753298,1.59417137360006,1.66754231069926,1.666781881181,1.66855826947571,1.67303554600477,1.71994634712406,1.67391129653591,1.6750418281538,1.67446583520428,1.64619495942252,1.66184160278803,1.78830827020287,1.73266631985489,1.7265928647827,1.72927752479567,1.75515813752592,1.82370383178576,1.82191284378542,1.82748152539329,1.82790558031139,1.82820096601707,1.83065509327009,1.77136026918784,1.76901351323942,1.806695523215,1.76599093059508,1.77519213132171,1.78412588914288,1.77747339509328,1.79381853183066,1.85368091182457,1.79483185185969,1.79843069041961,1.79433703308846,1.83336020305282,1.85948627736621,1.85771515989826,1.85935566846633,1.90631632185013,1.83629200201277,1.87071041434845,1.79898423127328,1.79999298762075,1.79844738424218,1.75195239147461,1.70858014178915,1.70775589632693,1.72786788205062,1.75205760324561,1.70551375134733,1.69214746800459,1.69379980772175,1.70836277896226,1.7260686355322,1.72630073879093,1.75978930659506,1.74385260975534,1.74221856280396,1.74098132849607,1.69636919247991,1.77974308839686,1.78116700297985,1.75020488633801,1.73604287350346,1.71344628471398,1.73868597832897,1.65523596775688,1.6571152446276,1.65187750644132,1.60600217982446,1.53033947032802,1.52453213851284,1.52443814436351,1.52266745592228,1.51755550167265,1.51527419981078,1.50272513749767,1.49045498951387
0.969131649547697,0.968033381306898,0.966639879435843,0.963838281386138,0.963024476444139,0.960874085157749,0.957032872665161,0.956475695895813,0.950166193367484,0.94942336707051,0.948173931960455,0.946425161655295,0.944418125899952,0.943487035632886,0.942350511023463,0.941752884379482,0.940391582110053,0.93959660539228,0.938891309634169,0.938330465113898,0.937750558825497,0.93574072473747,0.934501097033154,0.9330669866867,0.932128227803138,0.928458515386939,0.926903241226619,0.927840885739141,0.930324061107331,0.931796414536485,0.931534037754767,0.932474617989154,0.933171777944048,0.932738868717319,0.932223668136258,0.932120551307321,0.930521299343551,0.93016404154665,0.928189125712283,0.928830139499928,0.929277765496533,0.929104620305694,0.926889714083394,0.923979358897398,0.921413137240694,0.919869291126603,0.91920588329701,0.918935599225854,0.920759680368304,0.921927777638791,0.922200149985387,0.91310458671751,0.901472755013735,0.896569795083753,0.893105602945306,0.888393005812687,0.887826129294135,0.882584556155662,0.879123713063344,0.877455273568267,0.87651249838823,0.883050903180837,0.886714485097401,0.913947550443172,0.952237628010104,0.954640294983775,0.986973009256421,1.0553063480695,1.058303330728,1.08871174923092,1.11743953002302,1.15270160526888,1.18188147472976,1.19040181962351,1.20163548338059,1.21429855845087,1.22403962567534,1.23757624589791,1.25075068731125,1.26504504256845,1.28096054003745,1.29917937895838,1.31293010987314,1.32251352827904,1.34818423573844,1.36093112312532,1.39185285545909,1.47417867587554,1.49053309812833,1.50772323367839,1.52756065855841,1.56412227269548,1.57251152540404,1.59111427677634,1.60837987764658,1.62456130628446,1.63608166381776,1.64702172319731,1.65983393239748,1.66653711758181,1.67718594035109,1.68351019922393,1.68942279358991,1.69813354698974,1.71261634630539,1.72888907723798,1.72973376356427,1.74889728701393,1.74855400324633,1.74792275992029,1.74746886803836,1.74825426958487,1.75119445933099,1.75603964559667,1.76170947094915,1.76717581191192,1.7715064712895,1.77514123523515,1.78023967791249,1.78762821863975,1.79075080329145,1.79971937265943,1.80827323745964,1.80786894558341,1.8051234795713,1.80639895894389,1.83502874026548,1.83554945480263,1.83521961908206,1.83464962646464,1.83296029587728,1.83123952035744,1.8137670373467,1.80111708930155,1.78829515498746,1.77719465895415,1.76017132211517,1.70847585335494,1.70593993842869,1.70383501984639,1.70188797255684,1.69505898413524,1.69492890303879,1.69569605242071,1.69714429103643,1.69969203635147,1.70578517578852,1.71261286901674,1.71937065617893,1.72569191833704,1.73157785919709,1.71052978597547,1.71238434029387,1.71536795270112,1.72027107996775,1.72667202262738,1.71680475290967,1.71767603439013,1.67211384740214,1.65991988131328,1.66137220111418,1.62593563245082,1.52711206831271,1.51884691369677,1.51323909013046,1.50833807280884,1.50435748076282,1.50067658060266,1.49562404742433,1.48257465530946
0.968514549481979,0.970044401501869,0.96944720472403,0.961919262840164,0.962677599929108,0.960430523168197,0.95702996111871,0.955967262307631,0.951902274829181,0.951911213666458,0.950536804987108,0.948214525075638,0.945621992170629,0.945531071424096,0.943945015547704,0.943786077234422,0.939914165541712,0.939358483055868,0.938243943561827,0.937875045448646,0.935986009508238,0.935275091010443,0.933429447344788,1.14988682946416,0.934888861213394,0.926881315273384,0.923414715303362,0.924248571683444,0.930472572797886,0.934722339296758,0.939622775096232,0.938986208843305,0.935738172703465,0.935787850100582,0.934458739873042,0.933803694592588,0.934182333944916,0.931097064048461,0.930498792377556,0.929143120706082,0.930060182321522,0.928487873817524,0.928604452638771,0.926338220497242,0.921712503515565,0.919996433580381,0.918960745938896,0.918750927285016,0.919241889906059,0.920056228711087,0.919928868964482,0.918556428542149,0.939563512651486,0.939131337971052,0.896699204047218,0.889418748912028,0.894676991861717,0.874600820308142,0.874677177148332,0.875453638445016,0.874856851530009,0.880343192593423,0.880095173465699,0.913372640269768,0.945188049733722,0.932370848112228,0.945766665480469,1.04138225473776,1.05549327847784,1.05671327889048,1.05624018773307,1.13585795602768,1.17444132553942,1.17526371663721,1.17822962968802,1.18115780629038,1.20004573260226,1.20172932835597,1.22561031031074,1.24174104461821,1.25871133259441,1.28781995652495,1.2885600970795,1.31688608041332,1.33254490042677,1.34696484793827,1.34822039716022,1.48835896528004,1.472610101658,1.47298231880506,1.47394082858738,1.55187872928645,1.5392418855991,1.58251469141704,1.57620372497809,1.57112894836249,1.59400362212902,1.59349658596886,1.65235743619742,1.66038672152557,1.68038100979435,1.68895997547974,1.71288357994043,1.645414912139,1.69612701512701,1.73040220610323,1.73119917106888,1.74548210018089,1.74344218239369,1.74144031301317,1.73983556303095,1.73825424988231,1.73924512881006,1.74487456173868,1.74005055310846,1.73511134002881,1.73286406143306,1.80291616043392,1.7953540705922,1.78998587633279,1.79286686790356,1.80701865774987,1.80723438154936,1.8433761998439,1.80608078814177,1.80579961784776,1.83578617351761,1.83531965822311,1.83366949732084,1.83333029804192,1.831294985058,1.82789782532234,1.8011147519949,1.80103198769422,1.78433372215549,1.75604897624914,1.76905962516629,1.70991616158492,1.70288127101835,1.70246102016198,1.69921580045827,1.68680137383285,1.68548148591919,1.68200735591982,1.68042561766105,1.68073768813589,1.70009087888243,1.67246486850034,1.65873912660407,1.69277486872882,1.73870480123877,1.67054042736062,1.67227162988963,1.71018523593107,1.7195210356911,1.79072638545601,1.71976225707153,1.71982547048245,1.68476701314217,1.6625769877024,1.6659652134568,1.64274030003966,1.52141794881622,1.5081025015525,1.50018647149206,1.49723751322224,1.47525923565139,1.48913247036267,1.48866421430042,1.48103891616286
0.969748233034596,0.968990769847906,0.968769183379503,0.965762565326381,0.964778578420732,0.961754447817575,0.959724352273971,0.956686884260477,0.955176449396158,0.953266673630002,0.951725234853221,0.948965989324766,0.947253774942967,0.945863028886262,0.944656982741093,0.94347731554561,0.941440429160081,0.939780506404628,0.938616916797447,0.93715046396374,0.936294410140622,0.934543493794068,0.935267615646518,0.935695338326605,0.936374665123986,0.936201768414267,0.936252855309877,0.936269248347761,0.936014474986931,0.937273662556114,0.940178511942875,0.937488650172697,0.936837296093332,0.935696509857916,0.934844783304599,0.93450390342567,0.932525100880799,0.932419310534631,0.929662676721058,0.929498638550193,0.928023002012776,0.927527477591646,0.924966709735419,0.924035379773515,0.921726332556606,0.920876639940286,0.920006111727073,0.918755638990689,0.918477565566376,0.918287906238628,0.917430975848921,0.916658301879211,0.939872091755352,0.940663970262022,0.899845870549578,0.896655659671628,0.896220234093797,0.874094814396534,0.874179484924647,0.874135833831316,0.873865085021594,0.892870781490644,0.899731194555482,0.91093047310419,0.951313189070972,0.953992290580966,0.971887123581556,1.03486109997606,1.03804760097618,1.04197948301402,1.04601449153138,1.10299108662959,1.12888561528586,1.14149903670975,1.15617900038806,1.17123077132013,1.18441560005769,1.19713984632408,1.21138866268934,1.22710084502325,1.24379764180318,1.26937770674288,1.27902933102714,1.30533589886053,1.31850818419717,1.34951177383863,1.3486969723749,1.37637100974274,1.40277676696126,1.4287250032876,1.45519906434636,1.51328016529591,1.53287862849462,1.5453071158016,1.5612521916676,1.5835443326891,1.59387609692415,1.6053630611272,1.63356094365926,1.64300576383264,1.65221875022907,1.66778881522529,1.68284533004951,1.6687157776009,1.67990353331236,1.69262497348959,1.70950296294284,1.73256755273452,1.73421580461235,1.73483349286107,1.73471791799244,1.73470467320967,1.735654504088,1.73762438717101,1.73825723964043,1.73742712166651,1.73678888783766,1.74634076245868,1.7556246865452,1.76932843747363,1.78374019558276,1.79415617759867,1.80788416159393,1.8068610523666,1.80644689433986,1.80616900791162,1.81395148155908,1.83448047167576,1.83333875118118,1.83298581689853,1.83227481997388,1.82405444965947,1.79864686926308,1.79494222747168,1.78069195911132,1.77101367963674,1.77028612614777,1.73940705121128,1.70245422317617,1.70202821327476,1.69914962944673,1.69471582791802,1.68976599811764,1.68025030497173,1.67963546541116,1.67972631792907,1.6787894988427,1.67450472128054,1.66120362520623,1.66370891299325,1.6663309760617,1.66909511143729,1.67057361062588,1.68371890932049,1.70177924403501,1.71831531711986,1.70276809258035,1.68692896219937,1.67515691700885,1.6637360638661,1.66517107487232,1.61405896479704,1.52721599241915,1.50028417269823,1.49670704023377,1.49062936096279,1.48389629062661,1.48157332154776,1.47768334551512,1.47627979073294
0.968304679576534,0.971030284782413,0.966950940256493,0.968511451453111,0.966284472424601,1.11165794519811,0.959719349320863,0.958743532499722,0.955307296246202,0.954782864496663,0.952326861298433,0.949902921449148,0.947319125806246,0.946850105609225,0.9449355374575,0.944993790035361,0.941264382188795,0.941083568349447,0.937744601526274,0.936977499849549,0.933897720982833,0.935340885669679,0.933301133452081,0.936792014472402,0.936310230728209,0.936821288714779,0.938256015293096,0.943661826725499,0.937346595424035,0.939146621888078,0.942540738307203,0.938592148920326,0.935924982513862,0.936214467511968,0.935440369936069,0.933450363641635,0.934079148000131,0.930753925762287,0.930051251362757,0.928657385125881,0.927799106881199,0.925178778467274,0.923751375244322,0.920897976390243,0.920907601414027,0.921307329048859,0.921162102303824,0.917665918515639,0.917333807447588,0.916779633539844,0.915776783004044,0.913445486792499,0.937842746330456,0.94307124553267,0.904615094557381,0.896068336835,0.95549631013427,0.873264903887084,0.873202289507626,0.872839641858626,0.872457860680348,0.959561012680508,0.929823159860041,0.906308964210701,0.953615110474258,0.95657030593778,0.994804558095474,1.02799493405051,1.02688013553045,1.0345870250459,1.04341941617558,1.07487740349167,1.11594932324987,1.13143282899981,1.13501265148217,1.13843374213349,1.15417612750616,1.19260694042561,1.19267688116228,1.20020901596433,1.20680920234834,1.25998619141298,1.24772787701756,1.29075060690586,1.30301026139729,1.35381054186074,1.31912858856641,1.3198123139255,1.37389697580947,1.39057309141231,1.40733667991344,1.49434252790417,1.52186717002617,1.51056967888124,1.5360931763576,1.59388037846994,1.59357051531063,1.62216491755128,1.623504127297,1.62484557667645,1.62660541185745,1.5976473562671,1.71022235214363,1.63001490930123,1.64171569508115,1.66000960488731,1.65081443603586,1.72938880378432,1.70707251489487,1.71057804723778,1.67989013965906,1.71055666695307,1.6817464300444,1.73904379976744,1.72157247943696,1.70281509838169,1.72459327136198,1.73825935688,1.73955351884258,1.73932038622881,1.73914528815,1.73829308218025,1.80934567659585,1.80616179617191,1.78719454874292,1.76417674036533,1.78416851532222,1.83485516462119,1.83229634283466,1.83234818498286,1.83205557421328,1.82081567423242,1.79257234488856,1.79158134278274,1.77639815539309,1.77168050046675,1.77525812354597,1.77306198719512,1.70314739359257,1.7045745216824,1.71144416849205,1.71169635301829,1.7131119627517,1.68088192155877,1.67945745668569,1.6812571146086,1.67669305499069,1.6769718867873,1.6477650096389,1.63279046478664,1.61765272706964,1.61236556821409,1.62559943033616,1.64473588673565,1.67455236048708,1.7599682756554,1.65923030713147,1.65606159537645,1.66723043209995,1.66557223990602,1.66711105525674,1.5969846067999,1.53394326882667,1.48613661332186,1.49112230918723,1.48563311567572,1.49056130858596,1.4693536160101,1.46877620230019,1.46866797526702
0.968483814857845,0.966954560713219,0.967838961782062,0.965829387662054,0.965597904735731,0.963556737142511,0.961788482623225,0.959518043860218,0.958228067955961,0.955779218359251,0.952642785624171,0.949899403639486,0.948045133596249,0.945332670841212,0.944167451171345,0.942604158504122,0.940351933936638,0.938582632609688,0.937472060960407,0.936325348408703,0.935872368471282,0.93455192528428,0.936216033609778,0.936451326652768,0.937895561040291,0.938138336963613,0.940163734582479,0.941438773505575,0.939472426714298,0.939931994871316,0.940828906489526,0.938708223959697,0.938047819157718,0.93700703973585,0.936266367355921,0.935555486201472,0.933774930229361,0.932870958930844,0.930702683348037,0.930254436851369,0.928852478814664,0.927012675138194,0.924201609983818,0.919300794372856,0.91828365336395,0.918848031013593,0.919123318746992,0.918624158024614,0.916979634378528,0.916351061022182,0.91533513106732,0.91440428089292,0.923980843038209,0.916997811996982,0.911727267833022,0.904551625575935,0.899381115190813,0.874817390563342,0.871806357442963,0.871466469637972,0.871801744287989,0.899030436469403,0.913076926754709,0.942810083363585,0.961062001069934,0.972098505347892,0.989883547075634,0.999905740916707,1.01127767019581,1.02219639828135,1.0285627700047,1.05938992968259,1.0912516999743,1.10313640225965,1.11548514225034,1.12799954952567,1.14225573849005,1.16275054891389,1.19418113131106,1.19816759543024,1.20050983370052,1.22821922693529,1.23838672877119,1.26269771906778,1.27609329247313,1.3059487562095,1.31063629028801,1.31431220980236,1.31953348144779,1.32525833247357,1.33188859228122,1.3423787033584,1.35623171725039,1.37357309840358,1.39776563013078,1.42652970505728,1.57255145187587,1.58602373107719,1.58694937657972,1.58821452320068,1.59030987093128,1.59351125947694,1.6392245245534,1.63565406516381,1.63782032668245,1.64088118133372,1.64574533759465,1.71971176255867,1.71781991911141,1.71450387328484,1.71476993900076,1.71319781362516,1.69600341930174,1.70179475666252,1.70964121683634,1.71760796914531,1.72948899403894,1.73073346074614,1.73227331253344,1.73470567315488,1.73776485490084,1.73832659426417,1.78131104305702,1.79197940616794,1.78416400493894,1.764349345582,1.76844275644923,1.77177471323359,1.775448392506,1.77813621893902,1.77918233253906,1.78023633936667,1.78325059728923,1.7695849913522,1.75493434758216,1.74405777632963,1.73168124450803,1.71940881239032,1.70539364069648,1.7060951996427,1.70943973862688,1.71072917806907,1.71150865972416,1.69942256989036,1.69393324442089,1.6884563859057,1.67312342125277,1.66931523261609,1.63407878402553,1.6305353801301,1.61392116377346,1.61240986991189,1.61370956997354,1.6159071417655,1.61777295159426,1.61844683334206,1.61779847882116,1.61623583929017,1.61480316127772,1.6136473122163,1.6132073175331,1.58508330768111,1.53023992319869,1.50770570196559,1.50386881326961,1.5012013885428,1.49831982579073,1.47059298669557,1.46938696587157,1.4686875288236
0.964754479578641,0.968329813489778,0.963591120335108,0.965796194789916,0.963711341888627,0.963511650110277,0.961461121665783,0.961440449748375,0.959588881716603,0.957029726951404,0.952460373452804,0.949128068985125,0.947648484846365,0.943667556358618,0.943049687557661,0.941839667426881,0.937481137812744,0.93652971959781,0.935700830101314,0.93630665801676,0.934437590388343,0.936343876722668,0.934645640367518,0.938718248432997,0.938353925616539,0.939380862379811,0.941165348499887,0.941826710657541,0.940484597426608,0.940677415826903,0.940141119465738,0.940100599906676,0.938651562853081,0.938271049156309,0.937484450664472,0.936516322503141,0.936039436849732,0.932584243785892,0.932403009613453,0.931702348443761,0.931830184498252,0.932087958469142,0.942676018074906,0.914320457015215,0.915743692857965,0.915499401007039,0.919725137203502,0.919017445983288,0.916921828395,0.916591366331878,0.915844585160676,0.915890653985721,0.93568855034727,0.905883761386745,0.914691746935058,0.952955017439192,0.877242628022816,0.878616526656944,0.868146386320527,0.869577614411868,0.842888232107045,0.843223823732127,0.902368358036943,1.02435157327938,0.977922000798923,1.02465267330812,0.984690735729239,0.964851031460289,0.993725407808864,1.00786388458458,1.02368317207897,1.04751702261123,1.07680791547469,1.09252155662668,1.10028474484062,1.10826034288926,1.1086368049022,1.13798378361734,1.19380017358397,1.19222240159501,1.19106917800024,1.21609004746758,1.22824541857246,1.24240538310761,1.2597951877764,1.29799729095279,1.2390538004687,1.22919549224758,1.24103873972402,1.2502943122825,1.2717198294024,1.27159436744795,1.2526343962086,1.26435437242309,1.26888444706313,1.27212340587902,1.55514387520707,1.58495578344226,1.58546384038518,1.57774391522563,1.5697392351132,1.57216425716382,1.64113828067812,1.62231956223151,1.62327995288772,1.62501590023797,1.63514017762863,1.75429933090214,1.75439342256772,1.7151974146105,1.71557314108727,1.71373959868908,1.68318250591523,1.69408248200995,1.7045266694091,1.7348845648432,1.73259301006436,1.72552954737897,1.68212456195333,1.70830494359224,1.73881953608307,1.69680543641773,1.76811701292299,1.81214888490765,1.76264538986964,1.7326067869527,1.77142979556456,1.77169545803427,1.77533903629267,1.77202375097249,1.76842589383096,1.76660776167393,1.7885894087521,1.69387425687861,1.69387828673457,1.69384328073962,1.65597196654235,1.70877231915717,1.70707337639801,1.70457652936264,1.7012313276254,1.72260857882851,1.71184776712593,1.70519483269733,1.69895367194361,1.70479786957971,1.66577409449442,1.6656318383674,1.59815088553626,1.58133553789726,1.56055152719119,1.56081197702621,1.56481433832932,1.59398297598741,1.59427762307651,1.5948260237709,1.55684408267336,1.61594511266284,1.61498640578859,1.61395053411475,1.61390569406681,1.56861632364481,1.52577748311062,1.51194944251321,1.51094321054255,1.50947913946818,1.50818348345462,1.45301550655697,1.46603136161219,1.46721971049028
0.964630257140038,0.962544188030938,0.964105188487706,0.963537754073037,0.962727461988996,0.960967161541081,0.960419065403949,0.95994701424792,0.958690573105712,0.954919337193157,0.949833596155963,0.946822851563691,0.945431999028459,0.943821316216963,0.943461630122337,0.942832607890761,0.936543204695137,0.93632033826716,0.936390963166095,0.936369813570313,0.936748922997386,0.936385660381484,0.938213087530977,0.938446190713967,0.939683379478919,0.940795236277633,0.942082819841933,0.942601682336541,0.942069698867637,0.941636517941496,0.941505038654913,0.940941804724861,0.940532645876908,0.939547184741388,0.938694614968081,0.938014746197339,0.936694168014047,0.93374458748683,0.932804678258351,0.932775504815925,0.93308888130655,0.93270521314343,0.932966570864402,0.930173106901696,0.929121485439533,0.925475833192686,0.921198761721828,0.920371943928929,0.918699414920524,0.918144710277411,0.917598686394504,0.917173910435013,0.918683048938308,0.921888721649271,0.92300718856731,0.936560466268093,0.917399935851425,0.895030674379996,0.897834768933583,0.899613729569574,0.901091815164539,0.902969337225359,0.904334835258156,0.916752428209414,0.927988302739828,0.939725800721207,0.951964271042691,0.95930008562144,0.978233594666108,0.992432566129093,1.00850495578047,1.02870705164714,1.05174976255566,1.06600611912918,1.08074471088887,1.09614488183223,1.10147672439623,1.12169662878885,1.15390932204463,1.16445007437192,1.17914822042007,1.1941858108383,1.2086223658425,1.22679318260392,1.22761668356543,1.22866152829498,1.22920560718118,1.2287279298939,1.23945694495346,1.24365820408484,1.24828429849604,1.26051146869869,1.25857032925467,1.26150839622548,1.26387483367349,1.26551640074055,1.34856226807105,1.48946955582168,1.5059310583374,1.52022109618907,1.53443379057491,1.55215685289653,1.56638916001228,1.58026082120252,1.59483727449098,1.61074238623457,1.63700842837075,1.68721918985468,1.68641214232533,1.68460880768166,1.68200331483212,1.67927583628707,1.67738982876339,1.67721866952646,1.67902054558246,1.68212560972649,1.68523397235204,1.68717835637064,1.68744452023598,1.69151402993234,1.69353483451738,1.6936149944099,1.69862674934555,1.70390165262349,1.7053716365681,1.70687001701228,1.70955569145339,1.71270958135985,1.71545402614277,1.71933716113702,1.72534116956428,1.71389262385278,1.708286809553,1.68365623760181,1.67732594430135,1.67183569383942,1.662772368759,1.67020275443917,1.67750409772678,1.68253101458059,1.68439408174015,1.68468352634373,1.68715053484477,1.69677427420718,1.68977304338946,1.68364227537741,1.63646434410358,1.61206984054654,1.58358482245597,1.57246204200206,1.56089787955358,1.56144355628726,1.56253898280341,1.56379254601654,1.56471907851748,1.56464325869375,1.56306904023678,1.56605544975014,1.56693094473643,1.56879821161127,1.57457094143614,1.55719926830115,1.54387268628141,1.53746718254053,1.52499829992347,1.51705080827205,1.51022007607964,1.48140113967037,1.45082387925042,1.44378405730154
0.959444522658727,0.963265441551756,0.958179504441367,0.96544486401782,0.96041622276962,0.957864799097096,0.957334024747713,0.959381249231767,1.16911888445797,0.965111607243945,0.977517823865341,0.976401844123173,1.1901653330762,1.37483789149539,1.11051842265073,1.38733308182405,0.934714211138769,0.935971544398976,0.936186773296921,0.936950951832556,0.936331699449642,0.938953473165166,0.938693817361538,0.940367256933388,0.940282207125683,0.941985697223776,0.944531344381924,0.943466295769161,0.94441636781651,0.942392798789706,0.942931419583734,0.942496692918076,0.942156617604058,0.941351362620377,0.939705421672079,0.94057048578525,0.938763369786464,0.933562871262485,0.932633050063621,0.933821306932274,0.93458858488523,0.933286720153799,0.932977675799409,0.931093941735302,0.93134863940436,0.931113306268455,0.921532373794028,0.920444105753836,0.921336653339455,0.919532727733778,0.918899206565591,0.919070667543214,0.918348603941008,0.927981247700723,0.925056836034586,1.18405101326186,0.93801119061411,0.891189590842938,0.926913189679665,0.908867577178282,0.921748355833996,0.90396257946118,0.907924333567425,0.877357200348695,0.888466794295253,0.881416001022328,0.89395088227926,0.935067152924604,0.961763527027029,0.962700905296919,0.974408783532859,1.00808300005639,1.03951271838858,1.03769583038076,1.06495595053187,1.09231371045428,1.07817446395629,1.10981408161643,1.14323061431803,1.14941726059455,1.15408835923162,1.16112520170499,1.19236868416707,1.22567000240288,1.22670238697954,1.22652541531362,1.17703235177573,1.22195459038178,1.20530511595019,1.21621512376231,1.22514612180041,1.26031609553399,1.21015078822212,1.22346576479752,1.23750896878868,1.25207853968087,1.31385797330482,1.47470850373475,1.47325323769241,1.49772912160208,1.52459071989873,1.51426071232076,1.51381141593396,1.52996298937964,1.56334747060276,1.58225052760941,1.6386844473487,1.68732466176534,1.67043031866195,1.66969971926423,1.66929807578492,1.66910255323742,1.60950167212172,1.62809077754781,1.63863374960407,1.65511272571394,1.61744952273688,1.66993620315259,1.65936172859763,1.65849660719044,1.65860996910176,1.61371699142398,1.62047987687487,1.62192911818759,1.61705998416476,1.59184948283118,1.6478126336225,1.71149803241202,1.71358422654779,1.71593838423517,1.73209302170423,1.70051260423778,1.67207381777395,1.67213027227671,1.64832391511403,1.6316198921034,1.55924421090487,1.53897980937338,1.54104498045078,1.54720941279304,1.54879952043513,1.55739824427568,1.56655928610606,1.7121223043338,1.68356958053001,1.66762620557879,1.58134415778234,1.58048062940958,1.54635344076449,1.54833639632959,1.54994805719576,1.50486867395728,1.50173568491696,1.50147839201023,1.51987226665261,1.5438051890526,1.50251155237236,1.50141884324403,1.5301810332652,1.54613654799406,1.58396519516407,1.53082154703725,1.60200949382226,1.55078576084331,1.53463986836733,1.54388602702391,1.51321458976331,1.51662779199128,1.42709407936307,1.42443791309147
0.959050907296379,0.956841959555655,0.957878112768031,0.955890142330787,0.957311075736672,0.957223586496858,0.957351875813424,0.959379408169521,0.96186861775633,0.966366084946241,0.970136355974136,0.971524751977281,1.19635905748884,1.20559239602575,1.07780165203653,1.02495625736563,0.937591865014507,0.937327385946487,0.937340535799277,0.937315828850833,0.937938272221789,0.938166137941271,0.939304434996491,0.939278855655429,0.939771118449871,0.94148790952496,0.94208359964284,0.943002537985453,0.941960770785047,0.941677354590538,0.941654284683284,0.941785016742114,0.941432265778136,0.940621892215481,0.939442264343466,0.939192813126199,0.938320825948051,0.934839147357872,0.93515600211523,0.935261451552386,0.935674581882708,0.935302500307024,0.934390178432714,0.933191288525621,0.93215508768491,0.931231774241026,0.928026344314297,0.922964843688832,0.920777189975132,0.91982546981281,0.919210339793283,0.917964434761988,0.91852753538926,0.920110728961279,0.924384515393743,0.927847132726805,0.928814990479681,0.907050303936815,0.907908294708904,0.907375769156041,0.906291914078577,0.90553121697874,0.90714926746204,0.909561865673605,0.910907214387964,0.920341239550815,0.931130381915956,0.938881324666291,0.958217115437081,0.960020663032494,0.963013213398184,0.997012577975084,1.01658227284705,1.03221476665901,1.04778823363174,1.05976609208992,1.06829933754422,1.09134278491487,1.10434728171617,1.12125532949805,1.1371893457193,1.15011981989196,1.16500492954097,1.17867356107112,1.17836697219328,1.17655544826442,1.17564596085302,1.18234729412842,1.18757070460098,1.19325018190855,1.19925187638927,1.20466743946213,1.20609032741054,1.21579267080259,1.22945811342419,1.23626426254492,1.2828392584944,1.31977861743699,1.46656311353717,1.47257500389206,1.47955785035564,1.49480904855254,1.5051958727389,1.52977856401426,1.54346599167074,1.55935874342808,1.5804854121227,1.60041724395346,1.60225675987703,1.60552958166069,1.61226484155825,1.62282611495759,1.61667090086528,1.62621873134932,1.63760282046681,1.64099095820968,1.64233735250256,1.65246770059575,1.65211638436699,1.63552935825683,1.62791178184892,1.61462062357486,1.61381331324598,1.61193219439454,1.61113822856912,1.60363751343503,1.61673164968577,1.62924424102214,1.63917091292299,1.64628082506044,1.65689963770215,1.66884451774017,1.6573949794644,1.64614756477082,1.6156818629904,1.58607713523624,1.54631125570802,1.5399324991825,1.54136433565973,1.54450944758355,1.54565357211422,1.55611002810812,1.55829128976918,1.60347326591851,1.61416000519517,1.63372727107805,1.58199207252812,1.58118141594666,1.54494500652625,1.53995823533838,1.52358140516224,1.50401081146688,1.50317436625679,1.50327413015117,1.50442270568207,1.5042743452656,1.50309132521731,1.50220595400656,1.51512945577995,1.52289278627895,1.53270042706916,1.5319285011212,1.53279593144331,1.52620600296895,1.52041612748407,1.5095042375774,1.50226472095194,1.46475021406555,1.42958902582076,1.42226376531662
0.952442439347277,0.95778833347321,0.952783140945765,0.956281150597002,0.955087702101296,0.954988053470707,0.957000219879679,0.956158628699398,0.957975850059552,0.95708793790288,0.9556653340368,0.954198575204969,1.20294687248541,1.25866461787206,1.04580199592121,0.984723353370601,0.93951501377974,0.938543210697189,0.937927327055807,0.937706048100787,0.937927089451245,0.939376002280898,0.938837310141486,0.939858108848629,0.939147652610759,0.940489213140001,0.943043288558049,0.940843222211094,0.941450407403447,0.93997862399536,0.940438409345905,0.97402060033942,0.940622853799263,0.940693204400439,0.938792325428149,0.939719874977911,0.939602359305385,0.955922717168996,0.937910729998033,0.937138620010299,0.937759959884391,0.937489493963172,0.936566313613745,0.934458420410454,0.933010152625283,0.932937501804177,0.931032337197366,0.932313388298503,0.920570079898514,0.91983840029165,0.917676800352581,0.917743474575729,0.916306568487472,0.917145356828071,0.91774473367666,0.916785241005112,1.04722491555155,0.904970313992226,0.872710096656923,0.884891932096504,0.87541101066205,0.874739212913987,0.874966916367218,0.911896789664228,0.910203574034943,0.94497694317686,0.969881466063205,0.943008976983465,0.953785940018084,0.955264972344749,0.955873734876361,0.986499301607032,0.996995142077712,1.02569613548224,1.03489288719255,1.04414909512445,1.06394131111352,1.06313841334945,1.09092109148524,1.10241663479045,1.11273958471035,1.12823629736652,1.16021404251921,1.17673995068133,1.16540654320705,1.15633852258092,1.15674128359805,1.17453756535426,1.17585318310884,1.17499793685257,1.17405926431722,1.17369299914697,1.18927633865953,1.1927304127932,1.2123735485925,1.22321643577436,1.23737354496264,1.23773757877514,1.45039877058419,1.46362232782636,1.46777717417678,1.47497643154103,1.47558675447226,1.52975193115017,1.52914230106915,1.52839346057757,1.5567238216955,1.59632483145707,1.49379132570988,1.48967287019083,1.48511377662529,1.62778966722893,1.55742950236275,1.47476936433426,1.52250699919029,1.54161293288221,1.6553492110915,1.65010808471888,1.64894176361761,1.63361130911789,1.61632531400423,1.61660317928853,1.61360225851378,1.55637171536925,1.56261914854814,1.56833208247834,1.53422832559059,1.53699817615883,1.63281429697564,1.63256184686677,1.63221962603059,1.68858562146938,1.63457771375577,1.63451501263765,1.58488244408873,1.54896341172484,1.52589847921302,1.51239874567817,1.49324872930993,1.49054721420117,1.48928554177044,1.52090365328116,1.54594150110313,1.5889417142284,1.6050147656283,1.66428786171603,1.5835272514015,1.61473814289661,1.54327895597242,1.52141289953198,1.50331916122545,1.4606451649682,1.43149107728062,1.48283741442131,1.48182794850953,1.48080457686312,1.47850720823475,1.44846247833352,1.46934170625711,1.50068430044287,1.5339948607004,1.57146674659938,1.53420831423041,1.49413914256921,1.49345596652861,1.49242756909533,1.49133743078112,1.43366212917579,1.43210745570406,1.42174985249162
0.953468800147128,0.951796697299489,0.953144568773288,0.952020494369492,0.952861536529937,0.953448182928587,0.953818858260148,0.956056517811365,0.957188245765122,0.957625613283767,0.957359390156562,1.02462950061659,1.07973346581166,1.04682519964509,1.01437307705531,0.969346212169299,0.960523389393032,0.952528463144074,0.936868094961087,0.936752021011132,0.936890578578743,0.93678272670151,0.937539864745689,0.937394594063383,0.937463211539718,0.938973326009444,0.939698527585482,0.939775429564829,0.938286374195022,0.937850751952754,0.93708517910458,0.936246296749996,0.935918370679554,0.935398307627127,0.934793162604275,0.933498600851882,0.933234319303284,0.934109614323915,0.935379592421105,0.937033638389517,0.937831459659445,0.937389225835135,0.935929368784144,0.934067942540077,0.932639323605066,0.9325528969862,0.932308155003022,0.933317528618907,0.921583770502092,0.919351566515383,0.9189779116979,0.918914288470828,0.919055678860166,0.918031783812086,0.91786738641896,0.918107048071304,0.919130985664356,0.909820996869907,0.902923528880137,0.890717407280756,0.880608207450768,0.889075526140647,0.894657547717104,0.897138423976964,0.902071044549026,0.910088841267497,0.918604762532656,0.929013459287355,0.939318981964168,0.945316133746317,0.95522603079131,0.972140511297043,0.997870872351036,1.01024346670159,1.02005002403913,1.03169958253143,1.04189209683925,1.05266668256956,1.06498392254483,1.07822302972409,1.09220214577363,1.10139150587488,1.10751249412383,1.11356496402601,1.1214055633913,1.12957006912692,1.13772597445964,1.1460512247718,1.15353935846883,1.15996782313845,1.16555369739495,1.16968572353314,1.17639655511117,1.19373195252526,1.20479490957435,1.21038167222553,1.23254073151959,1.24852755685452,1.34884176745155,1.37205467155306,1.38754944982514,1.40264715617071,1.41666874384225,1.42879700076755,1.43551739270912,1.43859951257882,1.4433064182598,1.4496908146135,1.45665106274668,1.4632789895857,1.46295520250278,1.46428134698689,1.46719136418411,1.4709457098148,1.49592918609001,1.51450874607289,1.53783598586429,1.55990341514373,1.58230652418384,1.59735555292175,1.61291204686715,1.61360420161701,1.61431382067518,1.55103956514487,1.54672824756558,1.54288571731874,1.53389222597202,1.53512173160694,1.53571344716502,1.53793254105418,1.54149970285004,1.5457560861325,1.54885878085316,1.54815540224227,1.54770570377841,1.54796232133549,1.53754596751147,1.51540990551219,1.4910359466429,1.48984340297162,1.48907593652436,1.51082300425436,1.52255178579944,1.53481272938074,1.53922399848241,1.54597594761727,1.56672943692589,1.56564087253896,1.52597695610927,1.50438346493976,1.48901466705261,1.47497643663089,1.47490124699773,1.47434013455563,1.4720443333199,1.46725878374744,1.46077783931493,1.45424475128632,1.46397316639131,1.46767626804768,1.49027212517006,1.48570616945617,1.48341657586151,1.46287522426011,1.44115852722427,1.42060518166624,1.40234627675597,1.38389837343519,1.36516975268689,1.34670634315619
0.950426283248686,0.951419953957023,0.947874956932938,0.950757236033008,0.950013072027508,0.949997501061369,0.951937922244993,0.953828663441801,0.955726309105069,0.957800138554154,0.957132053438789,1.46422366568381,1.18854852744898,0.938672037735714,0.939978712155362,0.939379016323418,1.19616043340718,0.972186279000081,0.934940873604701,0.936003099709543,0.935208616995641,0.934942244714985,0.964207831213582,0.971917801576172,0.956883115624493,0.971275593433639,0.939899805493129,0.937412884869823,0.936151052494038,0.93565380000181,0.933899937618015,0.93266704661774,0.932206977349243,0.932031589873079,0.93229465665831,0.9306292698544,0.930007791976119,0.926461023096771,0.924658955323505,0.923172964780623,0.922857807180966,0.922817830266362,1.34638498821689,0.95624661477184,0.940635971873938,1.08664874487418,1.26534502262901,1.14321582478326,1.27771789558246,0.917777413470849,0.916778871676868,0.900534657051644,0.902659359636716,0.916467325830858,0.916476794092086,0.916475211618876,0.917538255683359,0.919458337406705,0.918336291221542,0.894182069940482,0.873523635441108,0.907173230079033,0.907275211152994,0.859650839001287,0.880013981458306,0.87817360125397,0.877915211234178,0.898862041520368,0.902495184146367,0.93555601767795,0.953540162393958,0.952609448251944,0.99881785365992,0.999318032477313,1.00375799188084,1.00874369939066,1.02017493812884,1.02837182225226,1.04588778243887,1.05241400793427,1.06696769169331,1.06638811729437,1.09072659330843,1.1008776144553,1.10183951749803,1.1018563020451,1.11225332476765,1.11899802063331,1.12518208320303,1.12607112815851,1.12548533618875,1.15743241352375,1.16502736918839,1.19425551396608,1.19682160853301,1.19734410556879,1.22635289472186,1.26857566624113,1.33097349453964,1.34685611632737,1.36101671083771,1.37811919095076,1.35517383138023,1.39480648630104,1.40056976070941,1.40580667576702,1.44040794679694,1.44817229956088,1.42748094289176,1.42698969187982,1.4091664822128,1.40805889546113,1.41610972504028,1.44213136767344,1.44889252809301,1.45493930387189,1.50441857955393,1.50027858280734,1.54905674071142,1.5808671701746,1.64310435675951,1.63211140426794,1.6181698184742,1.52954072242444,1.530439289637,1.51737255766246,1.50178919741722,1.49107460020816,1.48659357448115,1.48834669204863,1.4906540152494,1.54649684997014,1.55175719322935,1.54822106929284,1.54745095133699,1.54778601774728,1.54687653273686,1.51787129889386,1.47411502912686,1.47183124760864,1.46852484841004,1.46871593677195,1.469626016057,1.5285530579356,1.53253388486509,1.53706833424156,1.56489806542968,1.5616426258034,1.49584430013128,1.48891930569376,1.46176390587849,1.4761967477392,1.47464986308496,1.36248473108821,1.36409621898538,1.36416245397493,1.35224748152582,1.35442744467442,1.35900001825912,1.42340878426205,1.49397580490873,1.48211427579876,1.4809863609998,1.38651745146201,1.38705734500678,1.38760136943021,1.31691638539138,1.34217781545309,1.28718658099641,1.28977812770897
0.946009810481419,0.946103065789173,0.947010126815301,0.946538100377447,0.947767856805747,0.949934366416652,0.95178477227536,0.954145181842829,0.955900910978111,0.95764345073048,0.959240056202567,0.959347507981683,0.936525718998452,0.937150802670681,0.934702355994598,0.933306082868794,0.932254120822603,0.932125597752228,0.933014406580456,0.935298009655113,0.936097861493244,0.936194090080806,0.93668093421201,0.939777382464568,0.948498270092131,0.955055477199268,0.940310551975186,0.93886599819059,0.936800409512545,0.935288548963831,0.933477790747734,0.931287076721203,0.930975540529594,0.930844225824243,0.930333459734883,0.93003721207635,0.927366171754153,0.926646530464331,0.924269287903473,0.923151501551748,0.922491804918632,0.922169877788014,0.930430468568191,0.931605187233613,0.93515204735318,0.972120539017637,0.986512248502268,0.972229549968582,0.954301764509664,0.915262539438549,0.914331065350818,0.912587398104108,0.912132613745408,0.913291914080214,0.913352253165937,0.912910315926213,0.910498371070651,0.909907008404488,0.909617569735279,0.904024134363046,0.900003488730403,0.895497980107156,0.891282795186111,0.887076053436399,0.882756843155286,0.881368831289457,0.884597458489786,0.902612766661765,0.903597233605196,0.92300175898985,0.935644691086055,0.965053397055976,0.975913918429609,0.984970005162342,0.992846177838056,1.0027005634369,1.01239689621057,1.01953095184221,1.03363352354276,1.04458666388438,1.05724458361933,1.0601451224731,1.09067656358998,1.09461111689847,1.09701067997503,1.10015676597862,1.10359764986396,1.10776787360902,1.11255010851715,1.1164077944585,1.12053831435031,1.14001967892624,1.1702047503257,1.17795603314002,1.18358887240447,1.22510428148986,1.23220152875815,1.25974843159824,1.29546371294507,1.30932463360968,1.32380469812563,1.33498710708282,1.34938298476151,1.36192190714742,1.3740004790138,1.38964015364747,1.4020837346176,1.41786552901709,1.42713675517157,1.42670282077382,1.41813353751666,1.40914477832404,1.41153074976026,1.42989632765156,1.43361542853611,1.4436956498178,1.46718287503047,1.4880256523202,1.55353012500593,1.55684014563162,1.55765114162734,1.55677686377022,1.54449253305365,1.53138915445685,1.53079196527115,1.52502284352175,1.49413317759594,1.48947480782979,1.48788631313728,1.48859828801355,1.48943637899007,1.50261179758867,1.51899175838626,1.54776584091648,1.54748654933199,1.54772316033086,1.54687055209191,1.53461442248393,1.47383174562971,1.47229786633478,1.47014516032053,1.46929986148289,1.46927078951468,1.48459641506117,1.50145665233257,1.51771093691369,1.5524174689678,1.54516725725647,1.48924451440685,1.47892974735913,1.46009646815257,1.45012421923757,1.40446318762896,1.36201450530913,1.35996880734704,1.35653542543563,1.35249333024974,1.34857057963726,1.34481081206957,1.34111799578122,1.33747627161064,1.33413120015091,1.33137612970489,1.32937187807435,1.32819568807232,1.32768132190808,1.31011383362798,1.29459037536817,1.27730890164757,1.26574574268662
0.941831564115715,0.942048527481681,0.940826165153854,0.9424935062006,0.943463046037929,0.942456207123414,1.06396357789694,0.943313733781277,0.943041613784696,0.947690173497754,1.17215800078037,0.954956597452841,0.926766810964565,0.928418595892792,0.928978090887879,0.926713823183246,0.92674302487241,0.925215416006172,0.925074231438633,0.92213728779115,0.919736718676327,0.9210986140364,0.923889623309578,0.92308253940768,0.932250489092194,1.25812829749191,0.923867759125651,0.92577454034548,1.16900597611162,0.948532572858129,0.971861608277214,0.928915408491086,0.929737158764993,0.929606889746434,0.929525796282208,0.927835120589102,0.92854844960061,0.924038046079122,0.925812300231261,0.922736720369911,0.923461450159487,0.920701477025307,0.916464314503025,0.915018947440328,0.915313183060859,0.91382136639976,1.02104870137658,0.910639717721246,0.911824806406797,0.91262054136875,0.910621094629407,0.911774008123386,0.911315977322382,0.911508405767049,0.911324392650787,0.908903142195543,0.909478074080083,0.906953014789701,0.908949716599091,0.906689920497818,1.06347430839612,0.881595408522896,0.882261187223257,0.915633023760066,0.884872188264957,0.880307440315849,1.150344734731,1.15029455324373,0.894830674563867,0.897046994524601,0.906911038509797,1.05422523687381,0.942531161701188,0.966429985003501,0.977484456372825,0.968086191283375,1.00163869845263,1.01424846810103,1.01339176431859,1.03263552612876,1.05225920354402,1.05675535717841,1.08668972599619,1.08338692538287,1.0808138596426,1.06765110025955,1.09704313078571,1.09853727664714,1.09268490336008,1.09564152000604,1.09679620192501,1.11076781690743,1.17549495153585,1.15434421653203,1.17567789845309,1.3487560634901,1.23931731116757,1.25221868497346,1.27376344949021,1.27851603248813,1.29277426609301,1.31821479911345,1.31868045428289,1.31985830964756,1.33768029725767,1.35476686171642,1.35577701414962,1.41094929101292,1.42716322270702,1.42772960578311,1.42917450807848,1.37050119372918,1.36877746053541,1.36756775776772,1.37867340216991,1.39008390501884,1.40065747428247,1.47774497647,1.55588829143385,1.55722461843327,1.55843278317286,1.55446414460159,1.52381859374099,1.53292745894474,1.53063402774797,1.53050337541073,1.48692725558538,1.45922823908846,1.4448536272384,1.44444432755969,1.44394024029001,1.46370484507607,1.47219231019085,1.54916116625732,1.5483667366617,1.54981823067749,1.57494871789809,1.58720008612615,1.46476707238247,1.46354066263513,1.45589013084484,1.41506214072807,1.44791504062069,1.44810663509917,1.47728857008389,1.49223425387827,1.5577636070657,1.53101775759021,1.48462039895699,1.4694351389139,1.45951892795908,1.43224331943904,1.33883994066456,1.33912956468181,1.32490158468188,1.31184201193196,1.31520826392245,1.31159951861628,1.30431455866717,1.30507064312992,1.30613750410187,1.30077817728524,1.31369360038543,1.31298558724627,1.31980557284966,1.3271238732374,1.28798307566785,1.27028651933029,1.26163551167973,1.25390377520652
0.94241895780938,0.941948836860498,0.941738640508195,0.941281174068764,0.942087504801538,0.942103758103166,0.944372194882055,0.943931469853868,0.942801574480824,0.942112052098969,0.941075527913226,0.939060403529619,0.932076858879602,0.929647922962715,0.929273989207585,0.926890166708131,0.925500221557052,0.924879830065399,0.923631315521034,0.922164202694082,0.92039321535408,0.920475714614827,0.920732039917655,0.921058035046619,0.920800046905337,0.921448020004129,0.922284920022332,0.922759143113383,0.920655705715178,0.919978327456673,0.921728475262925,0.92577527668475,0.92768500274331,0.928182659541972,0.927787057586136,0.928226392929106,0.926174265283722,0.925764258263127,0.923284283015744,0.921953981947884,0.920756381701364,0.919992425664256,0.91725361690563,0.915961981840972,0.91531489361853,0.914441048614375,0.912542312991945,0.910751423858012,0.910912871438528,0.910927369555839,0.910820210286874,0.910185916040082,0.910546939658542,0.909914170568875,0.909702692873612,0.909859232120268,0.908356246963647,0.90931215109257,0.908423612778781,0.906579183720558,0.905005160513487,0.895208552653984,0.894079463684957,0.892161230567841,0.889234569204516,0.890314187039125,0.891694276597616,0.894816214895205,0.896230453485943,0.897431288914803,0.897478421031325,0.996967613702395,0.966381407819062,0.97253482356261,0.98565389235984,0.997798073812123,1.00627559863275,1.00726009038364,1.00887868326437,1.02644048731642,1.02862364079339,1.03502950845189,1.06300498544932,1.0803185529819,1.07900772557416,1.07417848141921,1.07523653307967,1.07926793974237,1.08352559392712,1.08796194802932,1.09425398537608,1.10906821468548,1.13213922920019,1.14396101975417,1.17121783441346,1.26082516768788,1.25768601222163,1.25391764317674,1.26873268211353,1.27560306838719,1.28556427093433,1.2943990012524,1.30475882459383,1.3170742423407,1.32709507853467,1.33655702784479,1.34376107775863,1.35533548450329,1.35589339001982,1.35873604014177,1.36255644614956,1.36377397967302,1.36428923720899,1.36480328099168,1.37625336892042,1.38274897915155,1.38890519264974,1.43559197612353,1.54582064909778,1.54980819013624,1.55499821761543,1.55193925174295,1.5444635209806,1.53999920246902,1.52148258693609,1.50834673113422,1.47540803937633,1.44994895630197,1.44417429728787,1.44446099060227,1.44462340854777,1.45873736154854,1.46334492966331,1.46402357116027,1.46800108468543,1.4928077059424,1.48938580592665,1.46855017506622,1.46313040689812,1.46149457469584,1.45772539088296,1.4291839643137,1.4386601833564,1.44322905273986,1.46046392813269,1.47401246076282,1.53283672080665,1.52884362873148,1.47893260817747,1.4538565232848,1.42526521752182,1.39510275296517,1.3501210862435,1.32419210336951,1.32103891055906,1.31076292997845,1.31099879874696,1.30881214693718,1.3058459771638,1.30239913673887,1.29611714106491,1.28776543869327,1.2778914298356,1.26743263397128,1.25783553973205,1.24936368587704,1.24139967574953,1.23270588506786,1.21783078022315,1.19781169414339
0.933739430693134,0.933559359322164,1.15368807712439,0.938771926390296,0.939610953287388,0.939046049493574,0.936363077021297,1.1668607175311,0.93979685333105,0.940567133483305,0.94153290095806,0.936827084771468,0.934937355938613,0.949007614535726,0.931928596346397,0.92545910224217,0.924675713547994,0.923711002157602,0.923396866090519,0.921893143849956,0.919905456206171,0.917877657243983,0.919129503254125,0.917298402425943,0.919719053559321,0.917733050438932,0.917739831311172,0.916903823639205,0.917405460966373,0.919154364485424,0.918250562761358,0.973876550539592,0.971486661673082,0.926982959619374,0.927019704569663,0.926991312250463,0.928391532483723,0.923817234147121,0.923741433654054,0.920038907288509,0.91966201689613,0.918694956680727,0.917996215145579,0.914337621796037,0.91384600228587,0.968518343241055,0.908248090488716,0.909147401871686,0.908721458846079,0.909699378764376,0.90914330077915,0.910369186210901,0.9088382894437,0.908892384037492,0.908749840904127,0.907974725929424,0.909341910717917,0.907848693252511,1.04113727387788,0.903331731676231,0.900852172677645,0.895825912796893,0.894594396172226,0.894156088587236,0.891445525955066,0.890168627601875,0.885013328898888,0.879656492120141,0.87922952581143,0.879170050154352,0.878778235419691,1.04977476817971,0.942126038558593,1.07316561247969,0.992871901992831,1.01053610594894,1.01020683148358,0.94947005840352,0.952172887890744,0.960266887419246,0.974223621382355,0.974424935028741,1.04580456231988,1.12736162507694,1.06716545592771,1.05936530220202,1.06849854007601,1.06909793296846,1.06920295497368,1.08242926189707,1.09155406667274,1.10594066755699,1.10597194762612,1.11889771313665,1.16544459675755,1.26263786348743,1.33630791874725,1.25236748906287,1.2355811137923,1.25181026137839,1.25002715639104,1.26252972072211,1.28468762069217,1.3150167973067,1.32018731860961,1.32478737407536,1.33834896644804,1.35201078850286,1.34930465635779,1.35245018340597,1.36213381786895,1.34696510944118,1.34985160970982,1.35038301757934,1.35080744191762,1.33991781543727,1.33968174628076,1.39163345146704,1.53098073252657,1.54644976885326,1.58277691823383,1.54549408310097,1.54760866559445,1.54716330199556,1.51368620214968,1.48882489357604,1.46116610547669,1.43669996372659,1.44380489303311,1.44476046338177,1.44526893794819,1.43326443336957,1.43226383748377,1.45633904229889,1.46666657859618,1.49074394015512,1.48209135371216,1.4494095468611,1.44680157622239,1.45791750288487,1.46897398469265,1.39934667607007,1.40264086270469,1.41646042693821,1.41713830913976,1.42840019460496,1.53945588855562,1.52726221268718,1.47139456249702,1.4418370221599,1.39698056081769,1.36045069663569,1.36454219226762,1.31025240591741,1.30239511133242,1.28039471579918,1.26808304014768,1.32439917734845,1.32665288597826,1.28299485325092,1.26292074901058,1.26248165710154,1.22481053669491,1.22220687163135,1.23299800147063,1.24488287423819,1.22818023326278,1.18646907109372,1.18715098242473,1.16695006498358
0.935022073259663,0.934939304390789,0.936550118430992,0.937314142772409,0.937675838344333,0.936970654319054,0.936308028831128,0.936117543749542,0.937384612328226,0.937774178556106,0.937393667510499,0.936234777131133,0.935907781257933,0.937316427280386,0.934953048026381,0.931086653331967,0.92770977022529,0.925751341202235,0.924388874852507,0.923580933138586,0.922298496755499,0.922180996819182,0.921053744892729,0.920960023316092,0.921401985907628,0.920745756726859,0.919465762676941,0.919330037346672,0.92032438632356,0.921186909176655,0.920862085081958,0.922859145636936,0.923100695692768,0.924817340157243,0.924601231412226,0.924846059195298,0.923963410759505,0.922022356819177,0.919424749551738,0.917711908525286,0.917658281673793,0.91854311293977,0.918825141541445,0.912119720164008,0.910702806468349,0.908576700598698,0.908143351403076,0.907610847478943,0.908059897191361,0.908165812219428,0.90836658911972,0.908024558124111,0.90835342411259,0.907835884169513,0.9072090654122,0.906609883924387,0.905441182069348,0.903388441684784,0.901127365655587,0.900573309163005,0.898995429288855,0.896738646787216,0.895500572431142,0.89400852732798,0.89216016912318,0.89140988301151,0.885602305462244,0.877740641320788,0.878357546481312,0.878940744098774,0.879352589394748,0.934022600552394,0.992035306432787,1.01615851301562,0.985721264829025,0.978325372524597,0.965655223093153,0.951108651526672,0.951627691985158,0.958342358000709,0.96256055801673,0.973525935488021,1.01446494257302,1.02437386114018,1.03757758995125,1.04199308291933,1.05103513785884,1.05718006348809,1.06213346648262,1.07323313303771,1.07897803227035,1.09400984335489,1.10370372780862,1.10854271074936,1.15007818576671,1.21103313889473,1.25514290919423,1.25238735765223,1.25166078255624,1.25203246841804,1.25172134194137,1.27060318579227,1.27690190775397,1.29554857549002,1.30480077099245,1.31402141357461,1.31927198632321,1.3257195389515,1.33506352072693,1.34417214861108,1.35135939507144,1.3478893556346,1.34926550617841,1.35007127060207,1.35131064992935,1.35273476660184,1.35468762805299,1.39769123640793,1.44163525235431,1.48754907974098,1.53989856471192,1.54552085309743,1.54640150377703,1.51804598767616,1.50488390501538,1.49123077945737,1.45913548794582,1.45149152097907,1.4429094529007,1.4407882211192,1.43807548837427,1.43529662381437,1.43433301342927,1.43530811731149,1.43712131495218,1.44357815178748,1.45104905057419,1.44894722225647,1.44326043926083,1.42977030785538,1.41522615156588,1.4034684081889,1.40216047275922,1.41118002718539,1.41271539268391,1.4289904058639,1.47984563417792,1.48166142589097,1.45505625609913,1.4347178804744,1.40851901396343,1.35346049594588,1.34757681284503,1.33619298273402,1.29471064073123,1.26786924893943,1.26274498523463,1.25348226728163,1.2456607159661,1.23930721037181,1.23418174013997,1.2288361161519,1.22156535928185,1.21196589936777,1.20148157591955,1.19245248514762,1.1886145870381,1.18532597251013,1.16086817594749,1.1416563240919
0.933113690122005,0.935342139339391,0.935734708674854,0.936406557110359,0.935376939779855,0.934915195340228,0.934096015577559,0.934908033513134,0.933766691284822,0.935098752554401,0.933978805829216,0.935535289601099,0.935046658948719,0.941091590674803,0.939718462939167,1.36163702400209,0.94633847706857,0.927055495088861,0.926096750401775,0.92500271369479,0.926009985770095,0.924054662976068,0.925269430426614,0.92113780201904,0.923778546465781,0.926311885041354,0.926917811243544,0.964914338303565,0.922977938687154,0.922317921286597,0.923116033054567,0.920156466895075,0.924408645726024,0.92124963404634,0.923599640212487,0.922371822876313,0.958704168453863,0.957131087230371,0.958706434572035,0.944959151207211,0.95931744616693,0.959317211759727,0.998580247771518,0.907428562610305,0.907979632840991,0.907394431933511,0.90616392806921,0.906772205016528,0.905869244640195,0.907478912626509,0.906455882130548,0.906994993195353,0.907408592632292,0.907474658072352,0.906169289737846,0.904153734665131,0.90334321211693,0.894900088828138,0.896368389276467,0.898176082422028,0.896735118585879,0.89606233943805,0.930618181222754,0.941662979621117,0.942210422006929,0.971284664467938,0.884416693458466,0.8758816741113,0.873970507071565,0.876448435474451,0.865425753804299,0.86670527576571,1.07857537467095,1.06260910547008,0.958753539088224,0.915487788492331,0.922480197105622,0.936052647661407,0.94233525874392,0.944768506009936,0.950460410391515,0.970237182268883,0.988711401864507,1.00845855126936,1.03555651478968,1.03991185786458,1.04014209510825,1.05503721005542,1.05679021465724,1.06524413959362,1.07221715504909,1.08312328767618,1.10062721534141,1.10487243515824,1.12008979290407,1.13386182076391,1.26040647905037,1.27084664018942,1.29443690724761,1.24051369479734,1.22200051048231,1.3257886312137,1.24763713924246,1.28761815571241,1.2872780434418,1.2868832769885,1.30777134759683,1.32109511616304,1.31664655575259,1.33232115449703,1.37921165350338,1.32681697678845,1.31217344206904,1.31314641392097,1.33327468379811,1.35291782299332,1.35486619868843,1.40288004994105,1.38564674990041,1.47099429081468,1.52788213197898,1.55699656718349,1.59313678380331,1.49461288595177,1.49444340789132,1.49380588838352,1.45537633997547,1.4934850553345,1.43291262435174,1.43159419929781,1.40953328590019,1.4193882028332,1.42245440350978,1.41867223524906,1.43676452123152,1.44316239817117,1.46347456254219,1.44753969180199,1.38060503282514,1.39394467958097,1.40775903507259,1.40684652436268,1.36836991076799,1.40208345652401,1.4084980501659,1.42731752843294,1.47883154457439,1.48389300603811,1.43785991608542,1.42748531651,1.41690486665469,1.33321114224372,1.33915391632852,1.38282617474843,1.28448554588762,1.26256699798084,1.22973545608172,1.22016505319293,1.22183335644636,1.21943241960671,1.21708560642138,1.18666672284951,1.15113207254581,1.15961600655839,1.18343525654535,1.18132477302992,1.15986927463307,1.18089077168127,1.12834843484179,1.11652971441264
0.932242131553765,0.93274410421975,0.934080148980419,0.933181762469332,0.93341240771363,0.933132071075791,0.935088019252615,0.933379152275662,0.933146971829297,0.932145861251996,0.932246753422524,0.93151844509282,0.929731667582195,0.927471503885067,0.926218694940872,0.925621793137569,0.925954819270901,0.925849089056289,0.926051288558411,0.925674623507784,0.925598467705178,0.926201058743141,0.925055163739554,0.925025486769188,0.925083189590499,0.926269761942252,0.926651055564675,0.926094085697988,0.924417781895858,0.924246613409802,0.92301128833461,0.924806602530501,0.922954879045495,0.924633971556937,0.923563738941004,0.923869826575032,0.947031713825459,0.941493403632289,0.936185919332826,0.929330857590708,0.922918739743291,0.916870308553774,0.9141294826816,0.907615392456914,0.907939533006664,0.907995492075498,0.908498119703029,0.907990982847314,0.908236278409551,0.908076782404893,0.907968159548318,0.907509491552276,0.907471911758019,0.907074117390692,0.906014009439586,0.904865063360775,0.90367098670559,0.901709077154979,0.898886298400752,0.897637051562593,0.896461066549624,0.895107936990993,0.914798136229262,0.940725715279513,0.941490475780903,0.941522357631236,0.914395565361753,0.878663637383819,0.877459204549638,0.875433753264856,0.871305340359246,0.88858664881596,0.889950023630223,0.89509372912117,0.904582947115609,0.920590061908634,0.92165351734008,0.93129203948508,0.935457031571957,0.944740771177275,0.945577753827949,0.95439158324334,0.976532823925703,1.02093314306446,1.0297578874632,1.03440239562625,1.03719120878254,1.04884177160287,1.05210840688568,1.05717332122233,1.07377332141411,1.08891818987766,1.10347759453192,1.10389794792672,1.11346403430213,1.12009934916854,1.15658568774548,1.17828842919008,1.19175160892923,1.20561805574718,1.21381422664315,1.2443431290706,1.24477913430473,1.26164602766375,1.27009680735967,1.27677875190217,1.30341441142737,1.3118926559994,1.31238797644274,1.31515231394624,1.3160825022618,1.31418730564027,1.31168227644664,1.31104148260307,1.33024372412152,1.3366562318469,1.34454790024608,1.36179948030309,1.37227462467003,1.45460042904855,1.49024881131914,1.49123248513147,1.48770120144262,1.48421314170677,1.48120636676582,1.47928353811417,1.4762317521464,1.43839750473836,1.43218660945151,1.43005134486941,1.40941699314049,1.41445036885882,1.41730544374029,1.41843161418107,1.43268513042379,1.43626903874379,1.43260501360301,1.41451168633137,1.37956924223472,1.37747344409511,1.37432806230263,1.37111086291089,1.36903886582236,1.38481754205132,1.38784057450399,1.40427609108106,1.40460852253161,1.38262095459075,1.37806068447652,1.37604478086003,1.37068918912038,1.34595614995618,1.34236580115207,1.31110301281574,1.2748569397092,1.25790865883157,1.24022065439406,1.20931661970449,1.20007675022349,1.18875094872628,1.18266848671726,1.17738083442483,1.16772440602291,1.17144137357903,1.18473686068034,1.18323370027136,1.15125583935676,1.13127895034423,1.11286224183053,1.09861626389071
0.929067328497687,0.932066466519563,0.930588882483971,0.931629528442236,0.930130676046018,0.931160547098228,0.937159251555589,0.932724043601407,0.930096363401442,0.929917780768137,0.926125568948537,0.927435595411481,0.925812142253716,0.927176292501251,0.925801763110672,0.926744090419351,0.924423495016208,0.926745908345331,0.92553395514482,0.925921996265472,0.927036859153867,0.92621306585812,0.927805888017667,0.925763191219655,0.926264947434959,0.926282696566831,0.927709729948728,0.925642112431819,0.926069590807204,0.924099669103129,0.927213103150421,0.922332083116296,0.928771670154834,0.92365339886947,0.925337863194606,0.925369665799795,0.952234590766037,0.916332038092263,0.917287690935123,0.917481095833004,0.914698586673113,0.91332657630348,0.912109859921712,0.90879427464759,0.908510512190303,0.909607749503982,0.910300841822967,0.910526440731715,0.909701283841566,0.909548265451649,0.909340673387856,0.908268812540609,0.907998329469409,0.907155043497392,0.90675525250589,0.904828456688391,0.904930904774615,0.905747527852825,0.935678445355976,0.897495751369917,0.896424659393443,0.893321415190092,0.89214371733386,0.938241364171714,0.940268274345413,0.940266430421009,0.965949142757919,0.882027712593164,0.881413854628737,0.875163483162481,0.868742399061298,1.01407690687094,0.860491293329996,0.861289155317028,0.902624214805099,0.924468548989619,0.903306813383145,0.903886466944821,0.924973469543761,0.942845472136856,0.940967700131242,0.940691932082203,0.968356685922692,1.04495584204066,1.02262951464605,1.01380860044104,1.01939281747525,1.0434146360419,1.04299151792585,1.0502955505043,1.073903213475,1.18921970564606,1.18968388440323,1.101598049038,1.10190234942078,1.10077277052631,1.12084960526057,1.12756122697852,1.17482509668296,1.18268297103902,1.19048456617663,1.2463719903528,1.19945457027981,1.2190419829699,1.25077219894125,1.27077267454343,1.29778049836068,1.31150278442212,1.30906914793803,1.30786066027099,1.3065385405161,1.30480195752746,1.32834516684621,1.28739879100726,1.29989896978947,1.29983493947361,1.30005728262316,1.32702950412206,1.3496370576061,1.44678197942445,1.48852480700334,1.49363740923911,1.48772147048199,1.48250618981235,1.47972671138521,1.47903381184894,1.50540602781901,1.34500850600933,1.37388297780629,1.37521966478422,1.37636452780044,1.36941531379853,1.40177737521347,1.42017440210151,1.42775448830166,1.49231903348536,1.4290504488239,1.39757011019064,1.36655196172158,1.35966226963826,1.35288024252038,1.32250793130244,1.34644746384162,1.36480804060734,1.38074194596249,1.40134789622977,1.40134534597703,1.38182928274699,1.35244510016611,1.35694302948132,1.3602733685214,1.35119897598977,1.36781531175537,1.26485343678236,1.2569879326047,1.2539614727394,1.25025886609139,1.19617015508494,1.14430109802377,1.13001605586461,1.12528362345011,1.1145841078447,1.1331097385883,1.18671201460412,1.18644801097037,1.18666522588355,1.12181499422057,1.12078000298076,1.09870173337358,1.08075750919164
0.926613905702108,0.926097616218097,0.926318045304789,0.927072337489282,0.92755751723661,0.927303317193407,0.926723130495503,0.927735029832857,0.928557432926353,0.927267475560374,0.926533244739835,0.925014210052535,0.926210568138772,0.925785214450906,0.926476502076088,0.925579195715791,0.926365843655754,0.924999806897829,0.92583838481274,0.925440704448836,0.925275403314465,0.926094513056558,0.925149224651647,0.925996736570726,0.925410048772338,0.926140268282257,0.925536388689426,0.925877183260704,0.924167047661994,0.924404465837304,0.923360673690739,0.925971723279549,0.923891149934616,0.926154850702688,0.924716304114692,0.925095657894506,0.923760123163751,0.922178813083622,0.919884563375007,0.917984269867628,0.914953505725032,0.912791287158744,0.911361231450155,0.910840345527536,0.911190808725109,0.911672505432582,0.911830000235586,0.911555872590031,0.911364609463424,0.910820631540462,0.910771312275227,0.910517751109958,0.90992674993415,0.909253645851975,0.90794725200808,0.907338174517855,0.905283364917753,0.90461962672627,0.90133813550362,0.899098787649811,0.898147186566504,0.897188051994093,0.89385049105049,0.892472492359762,0.891695961800705,0.891589953020896,0.885734889426388,0.881454881846105,0.881183437516693,0.874825360802786,0.871444730689821,0.870935043071253,0.870509483611902,0.870199702418143,0.874855462407497,0.885286886469232,0.892770410033679,0.897753830407883,0.932386160535088,0.941997699420239,0.941531590290691,0.940965944703004,0.96749316111821,0.982824634802462,1.00349304287805,1.0139004184906,1.01595648894992,1.03412218693848,1.0371336479985,1.04440099948069,1.06255310552419,1.0641232068101,1.07033218779899,1.07975209337226,1.08735581930236,1.09261589937578,1.11866428262679,1.12160990787477,1.1412039426102,1.15696006845547,1.17238477190918,1.18196128667888,1.19262620005796,1.20566454997947,1.23284650146669,1.2544523453667,1.29913273628105,1.30024989322,1.30029736482055,1.29898546098214,1.29661020435412,1.29434231314353,1.29402452114241,1.29581563445974,1.29851684710975,1.29937930553916,1.29980358434917,1.31076440955179,1.33922638694769,1.44374212721656,1.47096348544085,1.4879682698504,1.48766724583755,1.47823149427409,1.43193481834158,1.40391699480348,1.37684738064868,1.34707722752708,1.34873550170791,1.35008469766394,1.35149787974112,1.35322598205305,1.35517767739229,1.35705700532783,1.35870278609561,1.35990753782148,1.35480341494106,1.3523511032393,1.34759518657439,1.34210882434566,1.33860563098633,1.33481246113479,1.34319513702908,1.35539291652516,1.35662862724668,1.36328466763937,1.36132427058796,1.35895267547565,1.35281581060712,1.34187122015319,1.33266755773802,1.32294002371023,1.31645711956981,1.2581275555086,1.25495109520697,1.25151601549357,1.19897987878374,1.16564052410005,1.13276124328253,1.12880592378586,1.12258535670855,1.11187050273749,1.11093514424463,1.10282317289328,1.09492755025501,1.0896027228955,1.08942162070386,1.08736607400538,1.07165912922442,1.05692020043205
0.921893315990388,0.923507421053986,0.921513771271924,0.923705363774188,0.923838715875341,0.924210894066538,0.924124449703067,0.927261783721829,0.925349648175641,0.925836428001492,0.923291656409634,0.924651886772332,0.923884774166763,0.926432487717312,0.925787118511438,0.927016871672511,0.92437980437712,0.926626683790368,0.92404081580029,0.925016471667517,0.925178641698738,0.92317695415395,0.925698977565107,0.923797639243157,0.925198572378755,0.92427313348144,0.92626154452203,0.923938338202331,0.924440910878959,0.922710482813759,0.925210423665239,0.921777610315683,0.927981919810784,0.923480231332303,0.926131403675168,0.925071423553618,0.925749245603235,0.92327435966693,0.923220733031186,0.920480208507061,0.949281399934841,0.949152202098591,0.948473321928862,0.947058989239284,0.943090833701789,0.949642314045967,0.91301578983667,0.913197953512615,0.912997931595955,0.912084790844902,0.912588140723256,0.91293279049461,0.912737528399656,0.911363005352419,0.909784052326548,0.909968735101867,0.906601281323339,0.904224444508267,0.901782130247095,0.900253226828537,0.900325519232356,0.901179560202007,0.948383096129863,0.892346093213871,0.891594400887295,0.892296580472454,0.883786245709412,0.882280153696239,0.88011526763746,0.876298195647624,0.871451824450413,0.871266348420098,0.869102556646614,0.87023326010619,0.868230798675282,0.868007918791417,0.868408806366024,0.874386034590995,0.953023218624786,0.941356323629527,0.9229030280319,0.940315424578829,0.966066687245638,0.953472187729701,0.997151195897907,1.01284757000584,1.01380853201897,1.02598698338447,1.03313118101372,1.03966114201952,1.05570600563928,1.06295098452859,1.06812821778217,1.0638082352531,1.06598249025989,1.0732644079827,1.11556865510157,1.1162496959452,1.11980279608175,1.12917729029806,1.13963603840008,1.15364008608084,1.17609097293995,1.19279999714713,1.21658713921849,1.24167234247669,1.32178915439186,1.28129319702814,1.279739879696,1.29035532380763,1.29669322513028,1.24856473661523,1.25470448068633,1.35474962493199,1.28444152536971,1.278029494674,1.27800789132381,1.28600366919079,1.33027434402069,1.44149670950063,1.45402785405064,1.48829121022464,1.48743492547034,1.46298801697849,1.38870926667254,1.32930728268899,1.32321648476801,1.32406095665751,1.27852923626619,1.28229908283058,1.28601010900973,1.3157847100498,1.32923507921414,1.3093883229434,1.33263749356997,1.36048732180453,1.28826807646527,1.28953202985061,1.29821198381631,1.29562576218709,1.29173015644098,1.28308282107816,1.28393855371763,1.34666933493432,1.35529593218544,1.37071265543941,1.33814042415165,1.35583447587189,1.3523650655304,1.33121719762607,1.30965438739223,1.30920650238385,1.30720608767373,1.24716563857583,1.24463377555733,1.24401607916242,1.13401848859717,1.13467712201267,1.09875004249366,1.09392893866973,1.08873506345445,1.07545488469038,1.06478919574695,1.06334307408157,1.0639325475986,1.06498035157859,1.06063194976444,1.08341167625133,1.02505380357491,1.02394050682116
0.921099501485336,0.920306394685212,0.921506832015309,0.921579430251212,0.923139880712828,0.922778381391409,0.923915700279482,0.923954238422743,0.924640684188218,0.924201112803757,0.924423162075654,0.924077472533758,0.925459181623018,0.92593098483769,0.926812061480017,0.926231772051057,0.9266970562248,0.924906122134041,0.925497389928933,0.924987296225605,0.924364117583354,0.924973452797783,0.923504535725324,0.924470992681487,0.923685731399511,0.924151925150142,0.923734644193792,0.925032907726956,0.92338447954597,0.923248980081305,0.923024569946724,0.926053245256029,0.92526170756743,0.927247164625955,0.926174457491634,0.926795128443945,0.925594221341326,0.924349388795557,0.922898837017703,0.922023153197917,0.922327627786478,0.923198928325518,0.924752322107214,0.925907899711243,0.926718136789347,0.927778130577583,0.928019646470464,0.925634713162099,0.921992002128588,0.917811528476053,0.914312627582462,0.912493359507144,0.91153848712406,0.910614210970015,0.909498015838498,0.909446814031088,0.9072734614986,0.90575825632097,0.902604969232712,0.900823828938268,0.900008729883032,0.899362832772534,0.895794763692587,0.89174841632816,0.89076628372273,0.890947948550674,0.882339529517696,0.880932952767526,0.879872089122778,0.877718453960304,0.871762796412006,0.870079835239864,0.868558854496435,0.867559378464279,0.867174651406748,0.867228944670621,0.869432243138248,0.872746405965859,0.941304365216298,0.941100228727543,0.941414219562548,0.941379229061316,0.954439432175146,0.961919585276623,0.989815753569903,0.996406233917808,1.00555454747455,1.01268156891706,1.02314873940874,1.03206516519131,1.04059697111787,1.04973534267145,1.05896064036382,1.0618675657415,1.0635930661255,1.06396705550375,1.09090833695038,1.11356427191196,1.11810242897697,1.12684846212725,1.13248608680858,1.14386855125745,1.1588175768037,1.19642093551216,1.20769733488197,1.2166864988194,1.23075387177632,1.24426946183315,1.26510320789342,1.26174856214329,1.25959844894487,1.25796402166764,1.25644174216997,1.28278575358055,1.28270999554668,1.28036723485269,1.27934710450992,1.29422186371466,1.37175965479292,1.43798533716367,1.45522596380046,1.45392818049812,1.45066472081878,1.44403219474028,1.35538041068659,1.31424146256639,1.29998153474762,1.28746618997888,1.27702325556433,1.27630912907536,1.27655571113707,1.27714151077252,1.27729928099407,1.27677772223686,1.27596384043448,1.27546798608103,1.27563232974162,1.27637391629985,1.27739517040177,1.27847800092049,1.27958917766333,1.28079952446785,1.2821997788433,1.29372595417706,1.30456019521383,1.31322145586617,1.32367597110502,1.31422045330153,1.30155266546575,1.28779769017117,1.27217058249718,1.25922605160619,1.23198313827516,1.20402765101637,1.17630101640785,1.14840235445074,1.1204340371811,1.10539915287659,1.08923293839251,1.08105972512924,1.07557517050782,1.07010557566328,1.06295495258674,1.05416325001254,1.04396794464123,1.03401698906192,1.02592544529685,1.02062067211545,1.01712896266286,1.01142073114503
0.918558554701617,0.918823992759631,0.918972938730011,0.920599365385666,0.921527383345393,0.922040845947685,0.921543151165416,0.923010079650782,0.922689967284039,0.9234339514474,0.923965279046263,0.924901847497206,0.924843241948129,0.927757163549282,0.9270942727367,0.928873243279953,0.925214898251477,0.926483926984567,0.924716085255777,0.925154683342493,0.925711496880202,0.923226174979737,0.925051073012889,0.922105217673886,0.923505501907661,0.920727760230674,0.92497364818929,0.924008108293583,0.925892591203387,0.923136446622993,0.946088883102878,0.927174480758921,0.929794798227525,0.927025067894516,0.927923652349531,0.927626728422869,0.928501659326813,0.924037050601379,0.924061019744563,0.923617611732102,0.923644146790111,0.925675101972026,0.927514534555809,0.927938643714558,0.927778525990911,0.929209148453498,0.928939502026631,0.981201793763099,0.951464192610566,0.939959332138769,0.947266229630588,0.948426174592007,0.946120193216926,0.91024523460657,0.909749595401719,0.910715407538488,0.9089047349486,0.907888511996189,0.903090359023027,0.90101714591305,0.899770138154243,0.899182215939408,0.886799867002177,0.887740040790373,0.889343582362987,0.890545693508826,0.882028321428058,0.881219457787384,0.878895300569966,0.87895415214126,0.870326517763602,0.86981774082698,0.865892080171087,0.86547753235885,0.86580726299939,0.863720482704792,0.862755614196201,0.862403881793119,0.943706548224225,0.941639280433507,0.95635438967685,0.895583334013436,0.941612101765292,0.968235194100612,0.981017125495102,0.9867341656363,0.995781349757012,1.0068903640598,1.00837035883673,1.00972994295704,1.00996834460618,1.01199502840389,1.05535187782298,1.05544307151368,1.05913291216339,1.06110318536447,1.06334567675871,1.10219004007628,1.11671945628072,1.10719097911704,1.10000033132521,1.10109635754564,1.13138372371542,1.20143356065496,1.17743667927158,1.15361239579459,1.20653858209618,1.22885680145283,1.2697428311031,1.24782467398677,1.22054930015209,1.35581283513655,1.21438657406329,1.28074222477217,1.26124611693199,1.23941117343863,1.2563506488516,1.30315332980261,1.42333710422641,1.43217524495401,1.45766887374958,1.45525063829475,1.44738372612299,1.43335096114715,1.32223803761638,1.27462233285287,1.25221943313787,1.23524553891227,1.20059558305397,1.2039502380291,1.20660796706997,1.21180876142669,1.20194852926722,1.22995638645049,1.20901335482493,1.19542563971886,1.20903360256,1.20912606206631,1.20656531940883,1.21967462575978,1.23308129359661,1.24474776154939,1.26262612281865,1.27780288984508,1.29633279506288,1.30916397696016,1.34291829829347,1.28425716776493,1.24925504103207,1.24891515290409,1.24844592918245,1.24832020813427,1.10271976880536,1.07530833792964,1.06950151273054,1.06694515775112,1.07886179601506,1.06952764647021,1.07241950258746,1.05348850261094,1.02303850442359,1.03675235961341,1.01571433221065,1.01666370014591,1.01656087017499,1.01667963611361,1.01536932283899,1.00902346565454,1.01035972477406,0.995921794735627
0.917759270019736,0.917212786890288,0.917983151717832,0.919253720374681,0.921078249194997,0.920868533348585,0.920256834396332,0.920367193519851,0.921180307875187,0.922285967212668,0.92364288184661,0.924441485815945,0.925566134063982,0.926864086463587,0.927500887336328,0.927568870316888,0.927749914256097,0.926503550983513,0.926067274560925,0.925731497554244,0.924648327499484,0.925220306919146,0.923400046606357,0.924215674599093,0.923196748435475,0.923328473713096,0.923101162551017,0.924918550306166,0.924026249863937,0.923842396123698,0.924288771896057,0.926320857279859,0.926293651115411,0.927658064022195,0.927191994141021,0.927951342567517,0.927321558959967,0.926685593355963,0.925824878306171,0.925398322103751,0.925974889756017,0.926033070586185,0.927894488404822,0.92787192078414,0.928633597270931,0.928488226869748,0.92958815290432,0.928218162888672,0.9271143762554,0.924839223141841,0.92409320027591,0.923691528397078,0.921555692588133,0.913699687205688,0.910700429488258,0.909456111938059,0.908206191873118,0.907624873635157,0.906892210899641,0.903351907904384,0.899998627281909,0.897483544796728,0.893693049716272,0.891014282643049,0.890201459129673,0.891026336354024,0.890168055777359,0.886841472067653,0.883295362219498,0.879511819587502,0.875449706368416,0.871888215118186,0.868934639135489,0.86735809987987,0.866527169823339,0.865167558957462,0.864301941038141,0.864287304897256,0.899556545292145,0.917577335180551,0.932421153709048,0.941591574795674,0.950028365673626,0.962120889368501,0.971091789340293,0.980800551904985,0.989469387039782,0.993362234327301,0.99865079896166,1.00265873092433,1.01321181019649,1.01613784552135,1.03305653876213,1.04304620670488,1.04672828721592,1.06226724818285,1.06242844239711,1.07836644617272,1.08046445705556,1.0854443770908,1.09474038219387,1.1004692545481,1.12618174044086,1.14359200132325,1.14650406396588,1.14866930764748,1.16128781648758,1.170792262441,1.17896193648655,1.18872802226138,1.19842925049909,1.20618999020912,1.21012324951004,1.22337122465436,1.23099992298597,1.23994469306309,1.25359086262149,1.28067435056837,1.37626725994929,1.39910743786282,1.41723797571082,1.43569836105232,1.4139570393166,1.39995665356574,1.28939191387378,1.25624773154181,1.23323808252569,1.21807721104838,1.19872543262084,1.19782883975352,1.19833509847602,1.2000516739993,1.20223818024639,1.20386720286212,1.20400845411369,1.2021853754758,1.20534121758767,1.20634295719206,1.20626434611469,1.21083054883526,1.21213762413649,1.2209567295675,1.23376177073129,1.23567393806256,1.23784162792242,1.24010428692409,1.24250417131105,1.21946562003468,1.20130311392571,1.18244864440413,1.16380193788616,1.14533715749248,1.12363788824253,1.10738839787903,1.06181358732179,1.05945532481629,1.05541786672617,1.05206053338001,1.05049070892215,1.03711713535192,1.02046268547421,1.01775881629497,1.01441037085816,1.00965651340885,1.00434706645535,0.998335136634707,0.992020855123733,0.986131515915455,0.980921945301938,0.976109666380003
0.936248660259656,0.935345911496778,0.934861382442254,0.932709506451701,0.922375698155039,0.920588207391407,1.25851406767525,0.938132760874739,1.26858172855752,1.02564677608765,1.14546134566607,1.15072872261865,1.15258596817696,0.927808794138879,0.927749242192148,0.928615166745262,0.928660558338588,0.928452911007866,0.925891342733148,0.926085291224645,0.926005786064917,0.92308637392141,0.925982596603365,0.922913265152609,0.924431370288747,0.922203730551395,0.924327047326544,0.924010029154002,0.925749743871261,0.924226644342877,0.925632695604035,0.924860646676683,0.927110460747775,0.925993454193551,0.927473546081679,0.927375286119394,0.928634353129952,0.927847173282334,0.928294596447254,0.927256567649779,0.926333163394837,0.928983046812226,0.926068985930287,0.929965943231423,0.928063906082161,0.930149484539708,0.927890884942063,0.930798487934281,0.927356104746432,0.926763348819046,0.926317315538718,0.926149373094688,0.919641722774736,0.9174587444057,0.921919488281357,0.941823073127666,0.939864245975684,0.940485048348888,0.910094027059231,0.910075759173485,0.912097867487054,0.943152659651166,0.926158160218959,0.948523506565081,0.910022986648347,0.893428187207428,0.892555335600082,0.891542906273808,0.88996037976508,0.888216394503141,0.884342539726966,1.07550061650225,1.07569507063348,1.04598291755772,0.914442475022937,0.865191629789318,0.865510036130803,0.86555915794541,0.865385747751148,0.903819705131431,0.878212396170782,1.05188238481678,1.04962421763951,0.957201800079748,0.957624516656033,0.95886057017692,0.9820730024725,0.985820833488422,0.983999960503883,0.997985376295303,1.01420880494388,1.01926630015803,1.0201017142247,1.03303241897972,1.04094922519452,1.10280381886742,1.06101128596558,1.07648369136278,1.07624443270279,1.08336305111004,1.09201343128529,1.09884776178931,1.12054498676482,1.1403849777076,1.14042982106884,1.1402648292755,1.13825630792686,1.15781051044477,1.1418259040074,1.14517954340632,1.14901207901603,1.14613190026306,1.16007588737619,1.19008169573613,1.22316084587215,1.23987511839504,1.24975068228292,1.26462473866219,1.35545250585827,1.39637253780706,1.40445807053735,1.47116754195467,1.38729886444908,1.38516616678428,1.25650979961043,1.2091307845624,1.20986468831533,1.18400841649051,1.18496812623712,1.16832843543969,1.14630124941223,1.16495075770441,1.17253499499903,1.15970715896069,1.14236285441552,1.12298082619992,1.12343502282535,1.12256125798135,1.16352002527852,1.13776434798999,1.11581004158516,1.15282244846279,1.23179891302092,1.22911409955125,1.17869790511613,1.12547980376951,1.24512929857923,1.07254763533209,1.10261408996323,1.07716677208144,1.06534311776355,1.06020432310305,1.14312040221263,1.18705249843446,1.05653624089974,1.04446839227947,1.03426378964048,1.03350396370323,1.04730891523038,1.02482836359705,1.00882841431311,0.989031195008216,0.990999463964458,0.976473681501377,0.976163631500715,0.97528843758982,0.976043665078927,0.976118901386566,0.978203681653487,0.972861949484283
0.937190608458068,0.935606499823154,0.934206994872758,0.929243441103157,0.924769894027953,0.923051026935461,0.928740655889813,0.930621801463264,0.926408030013912,0.92422919665743,0.923632000258491,0.924323377714886,0.925113829701191,0.927233449890636,0.927631945747471,0.92799423649925,0.928341858975104,0.928300013409577,0.927738771747278,0.928093639468285,0.926647483574486,0.926914698151347,0.925338598860054,0.926306233249557,0.925487836288029,0.925842078185515,0.925550367035252,0.926248500135828,0.925321872614486,0.924738332682902,0.924434029400408,0.925300235070634,0.925654965586046,0.926646306225476,0.927016630208481,0.927506965189193,0.927792490328707,0.928371432893488,0.928169149759252,0.927430233507213,0.927874363908486,0.926388776065475,0.92845239844283,0.927482479797542,0.928728184399347,0.927827856445668,0.929872973417558,0.928053992579582,0.929016953706341,0.927408178287986,0.927730529740899,0.927552686867668,0.928090148267384,0.927817827489408,0.92723866302651,0.931621779043634,0.932111351137511,0.931582939563465,0.929686630027824,0.928728568586143,0.926585612149411,0.924569665395021,0.92232398244676,0.917732285757374,0.913444218620865,0.908017020751715,0.904134695376068,0.902189211148753,0.901444298200213,0.897521962989059,0.894237037190914,0.952386582848745,0.984013280848721,0.967547663497792,0.942558981675131,0.940557991083419,0.936849732179218,0.932524128922337,0.928771136096445,0.938527743424443,0.949339787762544,0.996229307915529,0.977366891316296,0.957053819177966,0.957451629258355,0.957790233814277,0.983527206728285,0.98447705982477,0.983504346332505,0.992438083862558,1.0026304227451,1.00970222194538,1.01803984087707,1.02668028097926,1.03625511419632,1.04968502733,1.05687607003957,1.06487627213241,1.07427065451243,1.08184765704777,1.088149448564,1.0921582161787,1.10402422766172,1.13149985182444,1.13505367075494,1.13818558728781,1.14002186846827,1.14123517597818,1.14065314841609,1.13960090331148,1.14102931305652,1.14405301185933,1.14826416949246,1.17392770473531,1.20844875816589,1.23909373199578,1.2539802538304,1.26493515071738,1.37933253723049,1.38420297797313,1.3848442051274,1.38515677358333,1.28824122258412,1.25575049493426,1.22411921772981,1.19342817565564,1.17997669508279,1.17064545899718,1.16587519310041,1.16121604658981,1.14226334197679,1.14113791605725,1.14215728697518,1.13656173779727,1.13290812894061,1.12914664434452,1.12301665327858,1.12275013584928,1.12272547006245,1.12207976996005,1.11987516534304,1.12346816283801,1.12729847549308,1.11509008401478,1.10623090947892,1.09819330289954,1.08814234152172,1.06823757252247,1.06453349079335,1.06189397116941,1.05841346076532,1.05284793325932,1.04633839635622,1.04040578585157,1.03492489201872,1.02961797311397,1.02457581252408,1.01761481337071,1.01005782542692,1.0043852850637,1.00047784532734,0.983749933665232,0.979585067589283,0.975625725418754,0.974657518199895,0.971029908733976,0.967548183867891,0.963162760952583,0.960567757906923,0.957255440412395
0.978858941376187,0.933041179327277,1.58767012435244,0.924813193657643,0.923982984942609,0.922896373998654,0.923754934915387,1.47235306662052,0.923489598156729,0.924975070587865,0.922151698901373,0.920600140790226,0.925236220182812,0.926439954324841,0.927017095133298,0.927351649023787,0.927818180750162,0.927913743538719,0.928386540636789,0.929216120450385,0.928828715910863,0.925973500474426,0.928271350863797,0.92663437112063,0.927317108764084,0.927728273678068,0.928330392084219,0.927609776508617,0.926371780080286,0.924536902033799,0.923178358767453,0.925017393337605,0.925357624980191,0.926084152648426,0.927124427191294,0.926418820068365,0.928135804101439,0.928665628386094,0.92855570124393,0.928090555959734,0.925817279878065,0.928751783940713,0.924837003912684,0.929902926382545,0.927134872821271,0.929811287594599,0.926154251709878,0.931354410212896,0.926877787913636,0.929010319120521,0.927152427095621,0.931077663088008,0.927566672301423,0.930201285823201,0.92917171996838,0.931194294587544,0.932828163682175,0.928943305211075,0.929671007645232,0.927347571150041,0.926262523081513,0.922931854611131,0.923610378933468,0.91718924867337,0.916224219834774,0.941784218444356,0.94229187307377,1.0195533238881,1.02959203163591,0.91269881656303,0.891855933043815,0.892985418693799,1.02932895272438,0.941452350977133,0.942336066035452,0.940782985681468,1.06704660221626,1.06707169295989,0.926094261725206,0.942023513379502,0.970967100195039,1.04793059940805,0.905929386077601,0.925119052324388,0.94958182054688,0.957076687205223,0.985991221572033,0.984809729097885,0.977536419237966,0.977130507381575,0.977414969166338,0.997774724183119,1.0152051237767,1.02270210298793,1.02878909189588,1.04548312080312,1.04414060845986,1.03900549409578,1.06686994228552,1.06461093455381,1.06350965335509,1.0835421369509,1.05887485444009,1.12788756044046,1.09213235359479,1.06891474629309,1.06852918229715,1.09258186969822,1.06205374487873,1.08258675274697,1.09302934906358,1.08963985548489,1.13550072568424,1.15480963786965,1.19951490658647,1.23820249803983,1.25789610613547,1.26496803777681,1.3863708141611,1.38531944224452,1.38641637366478,1.3863186812347,1.16728679510447,1.17745261856061,1.1548296692293,1.12186599877904,1.11887517276596,1.12741591417965,1.10074068641836,1.10892076451118,1.11695416719241,1.10835932033255,1.09033158374148,1.09201216204934,1.11902294368202,1.23127492912009,1.08227150051063,1.08691258240219,1.08491657312982,1.07520505018693,1.06704181284149,1.08757021843133,1.1400283318059,1.08159283394421,1.0755418760699,1.06858477048938,1.05006718662554,1.02189525569032,1.05583154531766,1.05013951417262,1.0440818083199,1.0086556579763,1.00965573941992,1.00995576876812,1.01061093383143,1.01156275942439,1.0136743113173,1.00168389967579,1.0033576953529,0.999969679690395,0.994909406941867,0.963174383706509,0.964073056503983,0.966870654889689,0.966726507341605,0.967087074041164,0.968140333137057,0.962103949871055,0.944012010073765,0.94443565647089
0.928637036070456,0.926107769188168,0.924329880071563,0.923877343918967,0.923217417730781,0.922853858398063,0.923075226391769,0.99789457573192,0.926026625522273,0.927198673087251,0.9261317703634,0.924662270043245,0.925409744670297,0.925414516647171,0.926206835617426,0.927183715816082,0.930133864354662,0.93128304606548,0.931290603522228,0.931526411109372,0.929896871892192,0.928367295649461,0.926934145189466,0.927467613022375,0.926929074646068,0.927343684646198,0.927729203641844,0.928068515978808,0.925335176586228,0.923922976397701,0.923052607651019,0.92308402114313,0.92441915313154,0.926664118639334,0.927491452129481,0.927476665845663,0.927785684244201,0.928222256306695,0.928201093400323,0.927411503397665,0.927808634402193,0.925862485526325,0.927752464952213,0.926012120103746,0.927408694315612,0.926304212267146,0.928636314817623,0.927282308664915,0.929317369265582,0.928528633678641,0.929846288862814,0.928976293643494,0.930160975790527,0.929283076822243,0.929986804976592,0.930986831521318,0.930564448447253,0.930263279465101,0.928062840284998,0.926554916939797,0.924737679136287,0.923888286124227,0.922227232633478,0.920775164073261,0.918024952416812,0.916695503784491,0.917661642332369,0.921056054195084,0.924837079370173,0.927919420084328,0.929086564469839,0.930461035425918,0.942931823295735,0.942763667009749,0.943334173180462,0.943758581127152,0.945682861097079,0.945745498870079,0.944712871012232,0.948070772458098,0.963376340014111,0.959693146312834,0.910578072989374,0.922215905044649,0.938752950084701,0.950322789473652,0.962473446942523,0.98204115900143,0.978418058667871,0.977651903020763,0.977338114576018,0.997156236193343,1.00655482691298,1.01653989130673,1.02217674918815,1.02995099714202,1.04595957221388,1.04453734371898,1.04622935357541,1.04648928325316,1.047415496358,1.05000151817702,1.05406043660769,1.05784684639568,1.06092050118741,1.06357415259137,1.06605757772102,1.07950751035971,1.07087587032002,1.07700359472412,1.08142763273662,1.08526070847809,1.11093888790772,1.17728892894802,1.17637562768892,1.17848757677657,1.18130587848829,1.18284998247307,1.16932898666114,1.16585509391301,1.16418032098833,1.16004316089588,1.14994487832418,1.13628384598338,1.12761506894781,1.11930133262881,1.11583880973143,1.11058102761404,1.09791055674386,1.09752340320521,1.09488555959984,1.09145987773631,1.08801865453996,1.08487459182471,1.08176004280451,1.07835015042553,1.07442889387644,1.07015782340474,1.06566597621716,1.06126701885839,1.0576230731032,1.05446173398928,1.05097572606849,1.0431110923405,1.03908471055985,1.03717805775378,1.03583160081017,1.01832134581257,1.01312432741107,1.01091317947944,1.01025529561531,1.00883305677243,1.00848221017053,1.00742391328377,1.00506386422215,1.00277638663166,1.00002483476753,0.996782646159578,0.9920733120202,0.987690333004646,0.983488244553965,0.96941691453899,0.965197744341973,0.966233437388036,0.967077771328393,0.967653168040002,0.956562333246169,0.949506615308452,0.938665247840566,0.933307272826209
0.929848236711039,0.91823688078277,0.914905948120421,0.981332235940005,0.960273501449451,0.984833026121942,0.922834605000218,1.24580246968277,0.92454500722412,0.927723787944149,0.928063008746706,1.13864303997415,0.924331677674248,0.923819262045939,0.923746909297327,0.925068021049053,0.932639271163779,0.934744885168237,1.30010197524501,1.01249140768417,1.44920685562015,0.925732415609337,0.927218909941966,0.925765023870267,0.926421056837368,0.926225405796538,0.927990198514452,0.930108654640796,0.924117544309954,0.922859211151189,0.920359317850491,0.921412035342557,0.921239209305143,0.934775306647623,0.927882315673086,0.926895194218346,0.92706564827683,0.928422232932677,0.927367606228078,0.927752848171609,0.925024052607771,0.929582027058531,0.923353864274268,0.927577884523327,0.925356396038361,0.92757423827961,0.924543108581133,0.929968197680451,0.927192177011533,0.929630897469756,0.928809248169393,0.93196540559242,0.928548100725047,0.931046892365581,0.930178128076613,0.930037318428462,0.932145365304219,0.929017010695868,0.929593010781434,0.925809669232781,0.945853383987494,0.923460538315798,0.925579182919865,0.923456111196872,0.9211674953132,0.917261486174888,0.917868064004885,0.919910500280184,0.923637401902959,0.926820760974736,1.28384317337158,0.943571203805428,0.943206837263101,0.905230228015185,0.916931770985734,0.905265620029526,0.890948944188226,0.890865485899663,1.00978640331,0.95444033111064,0.965764383101052,0.955531498048248,0.90486210200616,0.916931687368772,0.930989597052098,0.946953858961616,0.935404639583955,0.98388957041411,0.978139971508357,0.977590937841592,0.977064667735868,0.997341999776641,0.997728053598071,1.00842997801492,1.01480918580328,1.01467449037135,1.04741729614555,1.02907876003571,1.03225531674824,1.03257024562484,1.03217806847705,1.03583535845508,1.02658649558929,1.04587314120106,1.0373287444745,1.03078950871074,1.01593464147693,1.13052305668909,1.06475348785349,1.0645739364309,1.06462870263376,1.04863633447542,1.0600379444331,1.20684820742388,1.17643766095328,1.18003517072356,1.18227834840383,1.18164153049939,1.16494186297402,1.14458816346128,1.12029446859492,1.13136412254493,1.1218045711184,1.11632762098195,1.09819157043275,1.0754719570862,1.10318966515142,1.06028510752775,1.06027050595753,1.07387917379854,1.08858820153083,1.07159820424098,1.06438934355443,1.06752432207412,1.05904860028046,1.05044984516978,1.05109687940983,1.02795340753787,1.0503774167086,1.04984202852814,1.04888727919669,1.04760341904181,1.05008135834842,1.03475024840773,1.03527780160351,1.03533496883693,1.03185270843178,1.02051407839485,0.991211585203103,1.00521818676488,1.01069638854669,1.00777355643826,1.00764309582978,1.00545969553858,1.0042294719017,1.00289285694181,0.987569823244453,0.986259158319988,0.965103116161984,0.979770039970074,0.979218827604992,0.979242935628898,0.951163763816643,0.962245651253481,0.965797206870873,1.14830611261536,0.941029714148303,0.932706632306754,0.926531090320667,0.918855583041316
0.917785207751459,0.916776490607015,0.915046673528994,0.914053329952067,0.913187911048108,0.912856429021476,0.914031030250002,0.916846915721124,0.91949975822048,0.920925141547375,0.921104211889817,0.920084380196885,0.919906204427841,0.920861433027836,0.921304467144433,0.920777659531863,0.919823329415982,0.920972998624116,0.922873319961015,0.924733948266453,0.924936369581515,0.925345357012595,0.924824329547185,0.925667961898716,0.92547094482116,0.925794614037207,0.926377251688241,0.926710195891075,0.924394951881943,0.922747456730421,0.921851002925997,0.920652586409909,0.92167303340575,0.923546916483813,0.925959320679183,0.926723236574698,0.926539387799676,0.926772537557413,0.927232520884162,0.926861421335682,0.927489309564822,0.925737906125188,0.927275555155335,0.92498064495045,0.926299714919962,0.925313570779806,0.926736518244,0.926490564502482,0.928299680883436,0.928692945258798,0.930147697646416,0.929959920887352,0.93092403563031,0.930236147156053,0.930193168710709,0.92986535372531,0.928833418354071,0.928495958306931,0.925952795140237,0.924692884403159,0.923208026206808,0.924419049698785,0.924415086634093,0.925042112644085,0.923665840102165,0.924062311713164,0.92392352178614,0.924475964938278,0.925381894331077,0.926557393233458,0.925664133889854,0.925211348888265,0.925265199031906,0.926595732602417,0.927693606478913,0.931548486392117,0.936248531792717,0.939038784143809,0.947889921568436,0.944550659483802,0.942865490057901,0.930186077930676,0.906980331875171,0.911265319658556,0.924722083949701,0.933384990648701,0.953224872178302,0.969562409038395,0.972605854132378,0.974865208185429,0.976296801581645,0.986593382763847,0.991589466488732,1.01121461348753,1.01433906504982,1.01564313313196,1.01763348023734,1.02067698192328,1.02424055630532,1.02485589000651,1.02598963588953,1.02702686699604,1.02708161050626,1.0263587735669,1.02386014753521,1.02051972101428,1.0176825716838,1.02430186823672,1.02934079309708,1.03575480429872,1.0521369017737,1.05095898337169,1.05277723308967,1.10372448736747,1.10324668360258,1.10180345614486,1.09722783011611,1.09251627762532,1.08852527437574,1.0863112893241,1.08581408932569,1.08604525811589,1.08063771453388,1.07574032655301,1.07261782967709,1.06979017310585,1.06612256963671,1.05949311106717,1.05787139526618,1.05515781548855,1.05194620798088,1.04839256132109,1.04443834929811,1.04033527943436,1.03644682167081,1.03319913336558,1.03081827049261,1.02909688838432,1.02869176044011,1.02834517442272,1.02846147458104,1.02941544691288,1.02931756314415,1.02718447787152,1.02655280203385,1.02611412013486,1.02438258296167,1.02098261850513,1.00587722569757,1.00601947442062,1.00649475018732,1.00740354935939,1.00788793206823,1.00592296119558,1.00346490765333,1.00295708627355,0.995668623233114,0.98423478967708,0.982651701699745,0.98111841281426,0.980610304069958,0.963179409096128,0.945661800513673,0.942514126613499,0.938434793399133,0.934992959798891,0.931125719502666,0.927798661259475,0.921606675644761,0.916298255756294
