1.02624992948316,1.01504406893509,1.01450951578032,1.01632812834105,1.00870599507304,1.00843886892027,1.00805854356917,1.00739041188031,1.0060051432069,1.00520015985412,1.00525333183848,1.00517709571968,1.00183203077833,0.999990261656583,0.998365771544896,0.996372442742417,0.995098662990513,0.994085249195297,0.992868751672483,0.987851662744172,0.985907425306775,0.985411075333831,0.984320168060973,0.983437217357776,0.981454079523581,0.981186029267435,0.980871016139256,0.992229501237895,1.1124986682047,1.11576824518012,0.969469192077685,1.18169791563927,0.982012129711619,1.15903052209759,0.966092010127358,0.964532612602099,0.96409965326745,0.963450282974743,0.961455023873795,0.959901836468985,0.958764034610001,0.958260585638243,0.957009692250334,0.955164351273617,0.954569949440259,0.95380790602671,0.953095203456986,0.950108932676543,0.948037202284505,0.947044019450775,0.945287573637039,0.944526681660916,0.942675722428957,0.94200665779207,0.941297451907105,0.940927937564075,0.940137894726402,0.939000491707637,0.938714729200995,0.935772850864903,0.935202942853822,0.932231682272121,0.929394684650343,0.926319070569886,0.923726523112402,0.924001275281659,0.922990759456465,0.919575901928358,0.916613762123599,0.913560788355467,0.912328859125623,0.908239172363056,0.924215341656328,0.923926517317924,0.923454784494842,0.892531658248121,0.890449295093058,0.912869226839666,0.913692849074494,0.942757756492533,0.965342958612632,0.983260797674415,1.02701742972495,1.0724539632598,1.16356780327312,1.18427331304579,1.18109556787172,1.28935862208709,1.34635814032459,1.3454607359526,1.35984593204877,1.41835565638546,1.40799488036021,1.40319365933934,1.43681247693869,1.46905156097986,1.48108660535649,1.52155820523596,1.5804953107999,1.58026938992113,1.53549751143667,1.55459554906348,1.71195704275658,1.71146734446612,1.76181403755916,1.75803746621808,1.78802253500232,1.78720038244092,1.78486092677727,1.77440285818179,1.77312518201049,1.77108974184347,1.76988783060777,1.80118234348585,1.750176675127,1.75853356659453,1.90504946128846,1.76196139592889,1.76191020886012,1.88263738938251,1.88227073924127,1.8827454424389,1.94785205206107,1.85632541336895,1.85590024201375,1.90050618721361,2.01201903901611,2.00570932566327,1.9928531338583,1.99432800307416,1.92872344111477,1.93173596136304,1.93269016833286,1.98159486642278,1.97436350770319,1.98988461153823,1.9945712933055,1.98941311657324,1.95443192815814,1.97907230441532,1.93411485956168,1.97697701837948,1.93085033206249,1.94617654398357,1.94367750622223,1.95142382930735,2.00519359177644,1.9638610556526,1.96399911834576,1.88470518156126,1.88462574360993,1.89561021250412,1.89623348464367,1.93481453551715,1.89553342146139,1.89200839671394,1.90171295496968,1.9025015400261,1.90140386900826,1.89889668248232,1.92138048533529,1.91945706300003,1.91579206564486,1.99840390523233,1.98917094771489,1.9215806045623,1.92646804619248,1.87954690888401,1.88141203057624,1.88201232738626
1.01910758389238,1.37799490796715,1.53880349761483,1.14526817605852,1.14688727553179,1.00809329083437,1.00784333472691,1.04035617404912,1.00442468520782,1.04509109938698,1.02141575739742,1.02077035264529,1.01961587013222,1.21977499491658,1.17424252706397,1.12676749082972,1.23175821416732,1.18064361826561,0.988763965771318,0.984912645670982,0.98440013990679,0.981826859269815,0.97878898931262,0.978798354441784,0.972497680976148,0.97381439744482,0.975871217028404,0.974979322127372,1.19390862466042,1.19387724676238,0.989467414901296,0.976754059143183,0.959537814718801,0.959206683571199,0.959237467975965,0.960696633144032,1.23333024685858,1.10269150617353,1.34871932909858,0.957618282079805,0.955841358785685,0.956001932749352,0.954731117396158,0.954435938699061,0.952599345238725,0.952405772541525,0.951333083819519,0.949141447259189,0.948561439973877,0.945884816953587,0.945270216407515,0.943249458496995,0.943200980125586,0.941251108758071,0.940367408663223,0.939397479876667,0.937849123631858,0.936457808686464,0.935531883929515,0.935051633255593,0.932995704803386,0.932114369617363,0.926957242701477,0.925317834326645,0.922869427591849,0.922663061324036,0.922458812858384,0.917604085604398,0.914838018440702,0.913287042499019,0.905668102223451,0.905930003460982,0.91573441333523,0.882296872995456,0.881217987665237,0.883874220005211,0.879644238501262,0.908979481323696,0.913774915416825,0.949188309828162,0.956790970375988,0.988780321296029,1.01088762211536,1.15345173612065,1.14586515219812,1.18656437696526,1.25562110564516,1.26466735309989,1.39987157854476,1.35426380368592,1.41550718529368,1.43288426558946,1.44427808460123,1.44671581860209,1.44707892043484,1.46903259312873,1.49750717891178,1.47731662559894,1.54836925664218,1.53855657128428,1.53846370260068,1.60669936235045,1.71775763767289,1.71031394622355,1.6924806247825,1.74481727649795,1.78889764941154,1.78595143170755,1.78499936951887,1.785080847126,1.76420452203486,1.76861292427764,1.76871686083462,1.76647937942289,1.75843067065838,1.75755086961487,1.75800921299761,1.77565258806495,1.77593570650559,1.8623315902147,1.88976169107858,1.89812200203374,1.89685927792257,1.92760649614236,1.85630919403637,1.91353550705482,2.01032769186071,1.99202079948809,1.99378773029718,1.9964531435288,1.99837036376835,1.93443499318562,1.93394831718955,2.05202808851116,2.04351243471579,1.99659895792996,1.96972658645611,1.95461079315463,1.98779750456733,1.93468681541848,1.93454521727693,1.93448271170018,1.92838302315172,1.92105358551093,1.92174658809112,1.95375567777492,2.00325443768363,1.92794277565421,1.89002209165772,1.89138352944988,1.89360734337235,1.90059299865865,1.8996357055922,1.89853505244042,1.89638808568993,1.88900434490741,1.89461676452215,1.90360170628861,1.90322456593159,1.89589891673652,1.9219607429223,1.91632354562405,1.91505606662386,1.98928402728297,1.87043741745328,1.90028897979042,1.86944259093157,1.87856307509501,1.87860782591919,1.8767325339047
1.01891683575961,1.01756587644586,1.01413893932085,1.01269640457298,1.11504184682697,1.00775616786326,1.00735464473808,1.11247199684419,1.13554416556417,1.00048545528231,0.999495451466795,0.998330850890534,1.00097223230874,0.994228850320151,0.992429724102162,1.09758017829616,1.32252192202777,1.08425071544992,1.00155674941093,0.982000773443204,0.981458437887886,0.982765572540647,0.97730930858552,0.972830433875789,0.972266578686606,0.972447165899097,0.971153244409068,0.970829507438805,0.969212354755336,0.967104784632898,0.990451968306039,1.38176966910058,0.957793938178192,0.956945062764135,0.958116503121664,0.958276373646345,0.957678088823473,0.954931882817884,0.954553385223805,0.954533478992044,0.955319852220234,0.954262167259552,0.953806954594634,0.952578320017765,0.952275133781749,0.951847447874429,0.951457900715706,0.948917096987088,0.94749497458576,0.946156659259502,0.944647214492147,0.943171323238073,0.941793118380278,0.940615367623845,0.939434927067436,0.938383578096236,0.937460678524744,0.934274099024199,0.934600359600424,0.932701148202961,0.930429557517569,0.9288594189176,0.927362215554212,0.924683666939826,0.922329565069927,0.92118695913565,0.919909284447786,0.917280781956276,0.91493196804507,0.909007184161374,0.909283671263039,0.906952817115069,0.907680822087382,0.907872696070444,0.892753708750016,0.888158688318841,0.882096612140105,0.905313835691276,0.920603274122492,0.932190804523263,0.958714810737959,0.994532397614346,1.00936265373991,1.07671323588074,1.13847384622877,1.18715420401603,1.21199321270485,1.29714558175786,1.29687909140393,1.38793545520556,1.38854726310817,1.39693462851648,1.44425179258579,1.44661316713804,1.47417463167082,1.46929923728537,1.46689838295403,1.51033588725105,1.4892935506415,1.52837474378955,1.52933330212203,1.61126097083597,1.68635808451102,1.66199617872935,1.68889812066115,1.73660632829384,1.79092004372819,1.72938061171877,1.72960184973197,1.76426717889486,1.76312365675106,1.77062359544026,1.77034842470728,1.76774526620129,1.77910187155638,1.76234604068102,1.75881457052485,1.75876956087517,1.90534179581899,1.89075082721853,1.89027024146419,1.90624804153631,1.89613964453755,1.93038922033536,1.92768126763146,1.92305521052392,1.93033807790526,1.89781112927915,1.99661002876345,1.99681120250331,1.96493731743803,1.93498700611562,1.93556420379636,1.93494702192491,1.993117923699,1.99248806490364,1.98488779404264,1.98302530283788,1.98338106301586,1.94378502512305,1.94453274579479,1.94306801689724,1.92372401846196,1.94941420981537,1.92121110282152,1.95331687971639,1.92460264990382,2.00868124513417,1.94556666867074,1.90604098016847,1.90302066305663,1.90091991143866,1.90096204759848,1.90064280805413,1.88756347156406,1.88269806770069,1.88795823358302,1.88747142825705,1.94490670901697,1.95837009174347,1.95855761913851,1.91510317573512,1.91451496909619,1.91377344875553,1.99099352401086,1.97088558354914,1.97024168401072,1.87760954396242,1.87724323470352,1.87670401627105
1.01813254887535,1.01583018744673,1.01339086623161,1.01145389108264,1.00894473913767,1.00732590843184,1.00584642096489,1.0036817645603,1.00121967737069,0.999792126496087,0.997987204578253,0.996539903292846,0.994155463694412,0.993370844105502,0.992982569295626,1.06856743455192,1.13126323496856,1.11390588769269,0.988488778108095,0.981215879943558,0.981302160874466,0.980969820224561,0.978753925772119,0.976831439170297,0.970505779881106,0.970956302421123,0.970267088341823,0.969388370931819,0.967839963632264,0.966222193313846,0.963805807605903,0.960650011221564,0.958699479788128,0.957810333448402,0.957405214506977,0.957191194195072,0.956636056119132,0.955281366066675,0.953794320726721,0.953775684292811,0.954472790994953,0.95345313575219,0.952811911670523,0.952418481055751,0.951894237189398,0.951206709305184,0.950530929711034,0.948291142622621,0.94728131848467,0.945549568936284,0.944315189609354,0.942490011997455,0.941288512975589,0.939727487914087,0.938404032462066,0.937342475667835,0.936024213215674,0.934440516377119,0.93288913870234,0.930769206927491,0.927915805257805,0.927486168169487,0.925876149186391,0.922466633018961,0.920717574955883,0.920514499161988,0.919370902803861,0.917240879290706,0.914484852010027,0.911231848649944,0.909300462258262,0.908520204658148,0.909135121015585,0.9092764890268,0.907094271083307,0.909848027846564,0.911178691417029,0.911930133075491,0.920991195924392,0.931014953925097,0.972874686283645,0.99187472205583,1.0387486333576,1.07593393821966,1.15828517168398,1.18627309050727,1.2150512542174,1.29865236400229,1.29936623235278,1.37726811246449,1.40588695207666,1.4100792650487,1.43586601759151,1.4531649127426,1.4612147037466,1.48271720328018,1.48415042426029,1.50564328773558,1.5092354469484,1.52706530690968,1.54068038461435,1.58547220933545,1.6195266007399,1.68638834281955,1.68932909979653,1.7359327986939,1.73628386427154,1.72995259171895,1.73059519101026,1.75475965429063,1.75940900406871,1.77204431986487,1.77123305495851,1.77038459349136,1.77284283436,1.77105459025487,1.76939815119324,1.77174187970861,1.81873506006349,1.89279388634694,1.89085685697591,1.89724502800928,1.92149990308026,1.92540781110841,1.92377887117766,1.92168650419875,1.92015213191132,1.91179591283014,1.91430088983987,1.93125484174167,1.94497149295599,1.94877506727968,1.96867495668399,1.98575680488673,1.99553637437447,1.99329767357642,1.98778193403356,1.98209778649585,1.98202821736995,1.9395754138963,1.94558450797701,1.95593284964252,1.96512851873545,1.97395387047349,1.98607029419877,1.99122714220719,1.99390206988396,1.98881107191736,1.93823082081368,1.93562203710822,1.89557674938392,1.89708576856209,1.90022996782946,1.90040003256058,1.89994485578339,1.9004470908275,1.88477336715624,1.88508447080677,1.96496399168812,1.9618180776625,1.96337579682902,1.93363790362554,1.94980690050675,1.96704400108259,1.98052109476525,1.97274209886627,1.932520723997,1.89617501016094,1.88118350193119,1.88286985646282
1.01609708680227,1.01407462070498,1.01225846749007,1.0104420396508,1.00771712668656,1.00608217645692,1.00502350763065,1.0032197918429,1.00064089740244,0.998711575434467,0.996687163767087,0.994457260475767,0.992724433383623,0.990770258772937,0.988643938452627,1.04078949919018,1.16483857105344,1.21451292141256,0.981902483771872,0.981318606644633,0.980466115203506,0.989107332517238,1.19038645560637,1.29514784378059,0.969411166003836,0.970437213429471,0.969057208709614,0.967875553534696,0.96683799547838,0.965530621031101,0.964686947898638,0.958858285947131,0.958674105619519,0.957872231406089,0.956701026037933,0.956407340459275,0.95655987719447,0.956411333314791,0.951100886817024,0.95109967811504,0.958053501578782,0.950768474226569,0.95226139354587,0.951888586270704,0.951873658487999,0.950676513345917,0.950788677818148,0.94731201998224,0.946214062256636,0.946140127081261,0.942959229554449,0.94256169662751,0.940108244521344,0.939261443193983,0.936857434844818,0.936436311948972,0.935512961045122,0.93326617274875,0.93365519324219,0.923631417862524,0.925381337873173,0.926785234742155,0.926626088197299,0.918594356668047,0.918477700070809,0.920680604092027,0.920381896628278,0.917331137326775,0.91485788121043,0.911372089835128,0.909080236749287,0.908092796459712,0.911443050543312,0.91293097019482,0.903510667074967,0.912131861555233,0.924194395606798,0.912069043505887,0.922173273449646,0.930226041976192,0.984395427011451,0.988754402158304,1.0746309947909,1.07536759665336,1.17389423268211,1.18479231862323,1.21822860348445,1.38660814097621,1.3018680583422,1.36523857285897,1.41826025234066,1.41980034062237,1.42705618902478,1.46357281246129,1.44709208169478,1.48828118038156,1.50176335286506,1.49616892053871,1.51352908279488,1.52526432965054,1.55417520290542,1.56989802445783,1.57490884984403,1.69284133482868,1.68880969978869,1.73423381045613,1.75132842144911,1.72970757411476,1.72988691540194,1.72942575674866,1.75723617588729,1.77308349231365,1.79111950742515,1.76812561514641,1.77166655362995,1.77152816373304,1.7718156174247,1.78264278692361,1.78240816944283,1.90266557147744,1.89495719778531,1.89635180695168,1.92992340417739,1.93233768973773,1.93160733067185,1.92848151603921,1.8877651138119,1.88612855874325,1.88562281765347,1.89781411370299,1.94569835818433,1.94483378180491,2.00176400291928,1.99353029996819,1.99396402267431,1.99688199733108,1.99188081646032,1.98225267911074,1.98207725025374,1.94473717208071,1.94913621031469,2.00371141840816,1.98373096455413,2.00261185993094,1.99431227573748,1.98841679438009,1.98392247254103,2.01070512000189,1.93891995752392,1.9393759025759,1.90196336438947,1.89859465334845,1.90630790220788,1.90252846917116,1.91688359450507,1.90861128272287,1.88830682756508,1.888733964211,2.03367374112689,2.00976865061932,2.00428033341044,1.91677973714314,1.98375943738571,1.98345977879634,1.98287692046727,1.96140308270303,1.90254671441772,1.90161817214229,1.88140393696362,1.9208623529955
1.01502266268889,1.0140444145559,1.0086538858467,1.00782480680098,1.00602052457724,1.00437880003744,1.00239949153524,1.0019981293578,0.999173354274427,0.999418343929207,0.993341096871693,0.992262131130866,0.990482574034844,0.987763365146236,0.987691624247639,0.991175594079616,0.983003815246732,0.981443933276932,0.980936850587552,0.979480694462986,0.979440169371342,0.981313300714898,1.38570445751438,0.970630006706221,0.970233510829972,0.971992650803268,0.968476842918864,0.967010817404926,0.964221837504227,0.963076849452435,0.961360031864211,0.959171720831526,0.95841323350043,0.957974793020123,0.956378722565365,0.955615165708518,0.956689070234229,0.953384301539124,0.951829723857333,0.951928236480679,0.950622474787794,0.951290172149778,0.951666644632111,0.951347022685561,0.950872014842412,0.948695766857824,0.947826446938406,0.945092644380816,0.946603133333764,0.944137874080207,0.943667341874395,0.941163558335319,0.941748384554479,0.938795503392122,0.937653503013934,0.936444347923828,0.93551587902585,0.935130424854239,0.933154169923466,0.932987248795652,0.932466184214243,0.918810238773399,0.919088225422271,0.922019829458096,0.925480127569885,0.923625147720151,0.923916473425565,0.917485716787808,0.917943377677997,0.911244770861629,0.911011071966262,0.923979793272421,0.909279288312286,0.899387589762332,0.949291238374514,0.916807649453305,0.92388035206669,0.909451902295886,0.93018527012862,0.98220037750491,0.992808943599361,1.00547966665197,1.0374400317109,1.07527981104239,1.13752097290152,1.18378853420715,1.19964922795843,1.33870350407825,1.2915300885211,1.35614766015397,1.41387367199957,1.45044348865788,1.45114752217788,1.43961225086152,1.47631754084344,1.49203967754932,1.49568708707936,1.49665061702615,1.51635729857721,1.51698838674089,1.54503649940307,1.54478245492123,1.56944617990816,1.65224481203221,1.65211455797781,1.73004511133004,1.73929754079551,1.74996673457668,1.73074219601848,1.73000365076768,1.81079429297052,1.80129326486817,1.76804335143729,1.77083272445203,1.81364653878944,1.79745450848903,1.78932283505287,1.88361922890033,1.78236226884065,1.83228570551412,1.84013982608814,1.8406227691405,1.84135191583766,1.93390151780783,1.93380142361369,1.9202953354989,1.89080037181261,1.888274927992,1.88756373960133,1.89060430765152,2.00011507943151,1.97481075645917,1.97574006828962,1.99334725214471,1.99473925547161,2.00060817649931,1.99475452716595,1.93927046843201,1.99860736903179,1.99683138773142,0.00402380123239989,2.00381526760011,1.9922649265663,1.99254455630459,1.99122524136707,1.98951840520973,1.98163276198594,1.9816303591356,1.9813841670572,1.98016934612637,1.97899164208439,1.9513421307783,1.99635914463323,1.9288182179347,1.95107142570008,1.91436401502922,1.92278045963588,1.89593366147398,1.89695541348517,1.90278454710927,1.90309421359384,1.95303951208597,1.98256910563329,1.97154683555663,1.9515626615686,1.94843258881499,1.94487352106463,1.86988285850292,1.87800622185675,1.87756436436223
1.14934416498022,1.01137900914378,1.00881943258653,1.00636319999049,1.00369430756594,1.0021671029244,1.00052077520183,0.998311734726963,0.997841444652437,0.99458063388738,0.993467122437146,0.990698780624652,0.988532187628145,0.987113925915966,1.28375766679329,0.992994776203784,0.981820787137266,0.980944934874437,0.980553072105835,0.978936579742516,0.976964850103272,0.975601839267529,1.18057772467974,0.998276845979197,0.998006992734353,0.97721853136552,0.981089172518407,0.963748996579235,0.962935554499737,0.961530877354711,0.960882221761669,0.959023121069644,0.958982070602486,0.957295833951822,0.956609103612471,0.953730089870709,0.951103175354956,0.950874660648229,0.950972981036241,0.949864492789886,0.950228123751969,0.94996362963223,0.949733009096184,0.948176045200417,0.946308728124037,0.946621093117747,0.944902378647376,0.94455126356545,0.942494694047844,0.943201284488349,0.940009494641508,0.94025343085893,0.938911820659026,0.939101537702155,0.936608300713062,0.935587919267308,0.934900753325751,0.932954395350306,0.933972096999474,0.930753379231656,0.931659496891871,0.930347362313621,0.919714012695553,0.918690155507285,0.926949408122514,0.924441650936973,0.926228677984863,0.9266202741784,0.909386472629813,0.909155931444487,0.91184277597386,0.891785042434881,0.902840921478539,0.902643365460342,0.876003604371348,0.878028692900558,0.874551060882999,0.875672080537152,0.929400745976573,0.929909487525775,0.943812703706019,0.94300682667881,1.04070292390887,1.08459824592941,1.18347891307078,1.18348544491805,1.18342153375315,1.287381814015,1.3015175688663,1.43395425287146,1.43367812462951,1.45412605530417,1.45916850118146,1.56172505213995,1.49684213621522,1.49871997262662,1.49876773378647,1.49860382433528,1.51413411048861,1.5151861348682,1.57810902208277,1.55325020780958,1.58623427861316,1.65290528425365,1.6525585968569,1.72344429909208,1.73992580128242,1.73955220020645,1.73228165287495,1.73187283103506,1.75614878397107,1.80224721197435,1.78649436921103,1.77556438667187,1.775689740483,1.79674265525607,1.90279967019051,1.88325890117143,1.88241431738134,1.84377485027091,1.8415477601829,1.84122590990402,1.84076549958393,1.87214032192122,1.89023627628064,1.88430835165532,1.89041779651082,1.89129605313934,1.89137651598296,1.89305693871568,1.89387956915311,1.97376012563146,1.9696703279458,1.9724947039211,1.915273722273,1.92092696371227,1.91580905497219,1.93834173065515,1.94563395857423,1.95384209179046,1.95377934429849,2.00598559703824,1.98460685908684,1.98507571390974,2.00127085066816,1.99954273900013,2.00080216522553,1.9817603954678,1.98079456567725,1.97985848631661,1.85449967744871,1.96788599356022,1.94852980406133,1.8598190665043,1.93088916013831,1.91059931044737,1.87903057226078,1.92116828579684,1.90018041050076,1.90037654233819,1.9055140748461,1.95407142400999,1.95300833283066,1.97363341779287,1.92588785103316,1.94343259634971,1.95906107312082,1.86926038334042,1.87776783385388,1.87728272708036
1.01173727239935,1.01153705611124,1.00513462513676,1.00336567987112,1.00152472750157,1.0006432910979,0.998397611115062,0.996871000684861,0.994807755903256,0.994788688738042,0.994501511697393,0.987086551870913,0.99140026709454,1.20368754658335,0.993759611551893,0.993718479971155,0.994196414072689,0.980745141095701,0.979123938998206,0.976893807139074,0.975060951451158,0.973895941112467,0.970644009651795,0.968997907899069,0.96609362187772,0.96449817000722,0.963720415601329,0.962187316134405,0.961142034997419,0.960506248008059,0.957737606021139,1.30193488312592,0.955393997793674,0.955030582867138,0.968807988763999,0.951673984852897,0.950892050542752,0.950963893723261,0.950771847074727,0.950522950763705,0.949649864274376,0.94972292574145,0.94906741782394,0.947431652549763,0.945804729840395,0.945270467151499,0.944677210234972,0.94224720788646,0.942839193564491,0.941424024401049,0.941022749654855,0.939047513501651,0.939416121830788,0.937247129670372,0.935748865508035,0.935068958944777,0.93404338887526,0.934110448894831,0.930684927878292,0.930910029546644,0.929173973986773,0.930298196847156,0.931703823998358,0.944072669580032,0.933352961937725,0.920612044845888,0.911123774221232,0.910633837702593,0.909143782761227,0.909311918639609,0.910469085467653,0.903233338316402,0.905331881834525,0.903412366295593,0.916612263853098,0.880784611069531,0.871256132585498,0.916503867606931,0.913528972875954,0.925591793591277,0.942509846625843,0.987356891376662,1.05371272721615,1.06626170478651,1.12018154608716,1.19981577990449,1.2030201137412,1.25767322002606,1.31748576961596,1.38766623584546,1.39788535758188,1.47775126336755,1.4792227407729,1.47510987362617,1.50177910869953,1.50033784822762,1.50086786317667,1.499855392028,1.51202779467177,1.51093587954208,1.57873030493329,1.55301529937276,1.5971036826837,1.67257563666652,1.67489376060574,1.71034438199289,1.70864555629154,1.73957785457195,1.73319063965996,1.72120050647245,1.72851195688266,1.77929900165367,1.78693327911506,1.80452411356576,1.9086736085117,1.79854627799728,1.80242375247654,1.87215914845588,1.82664603057915,1.82214114482086,1.85344471829786,1.84141704863383,1.87399009510636,1.85025710193192,1.97483076873218,1.88607332907446,1.88863367941608,2.00907974443938,2.00882872125509,1.88348642578391,1.88339699263927,1.93923094789215,1.96903809543822,1.94949277265228,1.91461946483113,1.9188301525299,1.9231423463168,1.93142776971723,1.90015808093582,1.97706661665774,1.97686173801913,1.97778495096093,1.97926347292762,1.98651991198693,2.00950919759404,2.00868404360903,2.00734037427183,2.00675129054744,1.87758963825494,1.85474794722901,1.85382916641094,1.85991828015428,1.86163735570238,1.85978917272453,1.85954816148291,1.85779117755522,1.86823916813607,1.91956175222285,1.89755170409403,1.89556455063027,1.87908903219927,1.9700033224371,1.96985387352761,1.92874074694433,1.92803876352055,1.92255192032318,1.92559188429529,1.86506345622963,1.88623595352273,1.90846603690139
1.00785592944118,1.00371291980453,1.00334946510128,1.00113816919119,1.00027314542414,0.999908042802442,0.99956994298216,0.996726852935887,0.995934366175933,0.999488022889576,1.00252252483606,1.00581191409277,1.05675585202212,1.10536969034391,1.08050323904476,1.06098630631494,1.04311191011532,1.02611752021909,1.00996091229575,0.973861026123735,0.972829214232959,0.971534818266385,0.969896618706497,0.968157024094967,0.966427725164049,0.964603759588645,0.963192918904404,0.961401177977509,0.959981023455578,0.958549347774224,0.95677805886593,0.954875834492567,0.954123887135989,0.953128390377553,0.951642261591505,0.950803633140294,0.950281282056439,0.949956151910697,0.94983978939051,0.948930846469063,0.94863203688211,0.948326987269688,0.947687362707425,0.946363684339344,0.945249360111856,0.944464848442437,0.943576867192374,0.942678616821521,0.942043449672455,0.941675960244571,0.939771955528382,0.938765054958035,0.937600976509996,0.936468998680511,0.935114792547401,0.934512251547493,0.933770425192692,0.932662112725548,0.930924470649356,0.92944109440232,0.929573689597217,0.930522529213725,0.927468753100286,0.923631330429657,0.919173815549754,0.917802221889081,0.913075189561238,0.911906710226578,0.910923362232654,0.910890134249707,0.911596704025531,0.905176074124453,0.90155232928563,0.896121152867525,0.889194064023493,0.883042716579328,0.885584202245921,0.910469140515315,0.921902539971823,0.927479531451786,0.954946142100656,0.986683476954857,1.04490615622672,1.07865980730464,1.13403558012871,1.20615187201306,1.20710951625776,1.2873076847216,1.34765871250837,1.38790625518815,1.42821463543235,1.46066477730814,1.47813822507711,1.47690618315399,1.50089216585761,1.50089185585711,1.50147618800511,1.50151518627923,1.50673440345731,1.51012047463322,1.54522565349543,1.54867087909652,1.57042551649453,1.65575130245092,1.70412861021387,1.71179349720624,1.7110719321104,1.71441447875606,1.71611731279559,1.72241100474898,1.73981656540557,1.77426297621358,1.78344837918724,1.8026363391797,1.80127757554522,1.80016707437486,1.80124356725243,1.81589467928623,1.81914704246426,1.85242877766077,1.86197873786858,1.86310117789877,1.86729132285215,1.86610851439055,1.88695326180088,1.89004595960135,1.90225065604456,1.91035038546278,1.91538995801688,1.91812294961176,1.92193786451252,1.93329592713913,1.9307456160846,1.93456133642474,1.92314176786307,1.92249527351523,1.92560460703989,1.92675802239783,1.92394608321486,1.9401834816451,1.94885080654368,1.95800729260134,1.97253920590859,1.98645942900553,2.01138226843636,2.01815547228844,2.02341580005972,2.0266002632096,1.87185959518272,1.85184374825442,1.85350792470051,1.85870848234495,1.86032232189619,1.85920176234158,1.8575610048488,1.85700390376839,1.86161628085285,1.89535831190046,1.89134710697269,1.88760743851419,1.88138550571944,1.91770418241701,1.90960201643923,1.9115524806227,1.90402071341041,1.89733350200258,1.89167030715004,1.87725179590172,1.87879857652628,1.88573367207587
1.00224748026285,1.00191159658435,0.998403586627272,0.998436939357427,0.99814160016668,0.999533800201351,1.00258374425557,0.995167070506295,0.993373310548898,1.02692333093516,1.00948414733231,1.00963340845855,1.1194378903431,1.1575714499098,1.12795698966531,1.08446517999103,1.16518686575165,1.13114812184377,1.2043276557033,0.972188457301283,0.97030807268352,0.970351314584818,0.968505441642201,0.9677525143497,0.966563648407147,0.964796324723731,0.962930935522761,0.960399837744525,0.958354725264377,0.957305084488845,0.955829275462628,0.954023663088806,0.953326663568174,0.952332560961984,0.951662046651746,0.950186593464853,0.949480784879602,0.94925435906742,0.949231456728478,0.947273983236636,0.947105659304316,0.947600858555693,0.946771926490323,0.945174647550356,0.944417623350829,0.943459840840306,0.943342042597058,0.941956571342542,0.942364894838429,0.941763907677607,0.939196670274825,0.937349047942001,0.937141434038242,0.9351529547415,0.934015142135508,0.934022514872704,0.933063733233806,0.933346433030316,0.929122866039833,0.928332138433982,0.927639860037118,0.936166649694721,0.919113974967646,0.918882839477242,0.917674536841235,0.916183013700745,0.915269878528611,1.1041694051703,0.900229851449531,0.937563121880427,0.913811172605398,0.907280722597978,0.883077597729588,0.859211657578907,0.859043390656481,0.876205743876723,0.888079861241908,0.904444860292406,0.929844039940114,0.929106338959901,0.973136904247553,0.986054106566854,1.03761011406945,1.0890689821466,1.14736736937643,1.2093713626252,1.21287910745996,1.30542723624165,1.38826298005549,1.38813534025592,1.47321114018072,1.44290008443162,1.54854633497116,1.47736684359914,1.52243367380316,1.50108232356123,1.50134874251773,1.50131557800887,1.49729276243908,1.50826591855827,1.54125622668052,1.52864099547745,1.56049033239808,1.62799831247946,1.71130002451295,1.71178033369531,1.71141495714229,1.68761944863982,1.71271767112957,1.72306482465516,1.74976534160519,1.75351685241188,1.78066129776458,1.80353343865049,1.80328573439453,1.80243243449692,1.80327412885011,1.8034963916889,1.79825388877728,1.92240536163449,1.90256973203104,1.91756632742939,1.91713960771006,1.84761637628765,1.84748158752781,1.88413906703199,1.97877497051539,1.85996120729936,1.84617902482481,1.93326739294647,1.93427221145008,1.9333233922244,1.93307878050068,1.93316239466683,1.91598559677248,1.92875012011622,1.94082092656967,1.92952244217342,1.9043740321591,1.91067417986238,1.93007889145785,1.93061989792798,1.93950653784193,1.93884072006623,2.00897636646373,2.01774012830546,2.00996488156556,2.00904182593434,1.87119915774759,1.85318312833504,1.85264943951843,1.86149092450177,1.86187159695854,1.86133969915622,1.86000572526244,1.85789260470837,1.86435679399556,1.86579148528334,1.93559584504258,1.88044973776119,1.88029905450788,1.97113131455375,1.88068289140099,1.85649814762988,1.84994830763934,1.84879276420311,1.84979861440937,1.85016553588637,1.84893747863655,1.84524396042053
1.00073182849275,0.999176435790347,0.997537088224195,0.996182576686435,0.995434970835016,0.994323988557314,0.992372797407916,0.990145115992258,0.989052785023712,0.98692526216781,0.985287530432322,0.983192204924353,0.991993371595502,0.980541698332278,0.980690193728549,0.977713131566509,0.973126999150832,0.973097863049827,0.972383746350401,0.970992710837628,0.969583164029126,0.967273740079504,0.967756705976382,0.966397262974545,0.965950392400736,0.964627627191247,0.963669381532323,0.962119958944187,0.959533192144054,0.957050884484116,0.955543127638912,0.954122985658561,0.952362033385904,0.95138398712092,0.949503909974993,0.948953762702465,0.947979343435632,0.948154235629989,0.948925023826935,0.948330428542667,0.946123212301785,0.946553846515348,0.946436131035881,0.944010817861949,0.942373715563771,0.941967155130178,0.940822371482865,0.937899662813964,0.935998795625124,0.934904973231554,0.936605352585395,0.937425337266156,0.937108865734072,0.936089720726248,0.933763386983124,0.933475984518716,0.931188367350569,0.927730165849041,0.926085716723758,0.925582152471864,0.919935835619573,0.919840739877833,0.919427409333403,0.918675509507519,0.916221338895939,0.91515305767855,0.915332110548039,0.906889755826067,0.991690205998994,1.00085652396424,0.93284514161482,0.907327128634779,0.863184776705257,0.861238962244454,0.860828491599667,0.868192116988764,0.89122889419215,0.909106101496749,0.909740899200574,0.924397327810751,0.971862928712151,1.01247040551343,0.99641799564288,1.0901179793152,1.18367472321711,1.25903274573597,1.31301442767074,1.31399340732256,1.40407939575815,1.37550133788663,1.38605364962796,1.44279654299018,1.40560431967352,1.47116524517233,1.45983197474988,1.49122328964161,1.51095700391437,1.54565256498149,1.54612510597415,1.54063777715634,1.52150709479783,1.5216796283093,1.56089824382427,1.62838739411271,1.71066354096421,1.68561352728542,1.64828095558249,1.66204335714817,1.70394159789473,1.70513831745234,1.74655897720525,1.73351529594696,1.78935583546592,1.80403118603112,1.80403779337956,1.80381808309064,1.80388450824677,1.84239846034225,1.91488643232667,1.79740758207524,1.91835645275411,1.94118738700345,1.85195227265389,1.85128686520446,1.84959018317114,1.8447025757795,1.83903402799528,1.84227872536269,1.84480000939744,1.93422429291988,1.93373381364953,1.93383496480644,1.89876133001449,1.94121991292211,1.91805653796516,1.92838218453235,1.93426947031057,1.91617599757492,1.90756744105161,1.9081717712094,1.92756476309559,1.92736036764344,1.93951590139955,1.93952442490787,1.95489935734862,2.00490558981561,2.01897951289563,1.89975914770445,1.85765586768877,1.85759824779813,1.92169072955449,1.91995239399316,1.87040826180331,1.92121118230112,1.86391842729903,1.8582048015864,1.86259117151603,1.84272267547501,1.84211674805708,1.84155241614946,1.91327988393213,1.91374427691359,1.87372138435021,1.85111189851625,1.85114056226707,1.8501345781503,1.8505077045377,1.85145218185804,1.84622514641783,1.84539540523873
0.999689393251218,0.998462179010162,0.995087443825359,0.994418203890032,0.992396267357726,0.992608405785064,0.991461030514028,0.989021119769362,0.987087609522747,0.985938570594355,0.984942759815769,0.979360099455978,0.977045892036869,0.975285154063769,0.975318126617344,0.976437928279667,1.52514469859947,0.991764392431931,0.970769977006271,0.969568151315198,0.967709228447572,0.968068710527706,0.96635524083843,0.96643613525026,0.964826753111541,0.964437259428701,0.964624964799405,0.983710490355727,0.991900159038096,0.987372902891602,0.981352842968281,0.982112375710384,0.981962462872534,0.984386876165512,0.948770036402477,0.948205848324131,0.946820485277798,0.947027356678619,0.979136507721535,0.978216367771336,0.945646635035094,0.945985023985802,0.945551870041494,0.953466412861283,0.941033452523999,0.940990011062241,1.1131591729578,0.934351688820908,0.934037759886242,0.95528761957764,0.929286996478268,0.943178364451576,0.945520756756949,0.947527476170591,0.946395006370072,0.919936343541234,0.913589902097436,0.929510687369951,1.22953665898595,0.927546234829952,0.918342843480116,0.91815242887014,0.917988155801899,0.91702773413567,0.914410564306949,0.913572403499143,0.913435200514485,0.914128683594703,0.915520957547667,0.916878760794053,0.906646908824741,0.920083388437192,0.861702105498948,0.861353967835346,0.851750680455547,0.858933987019104,0.894268558270422,0.909818122376387,0.913370820804504,0.937453102511129,0.960291247081621,0.99263974226086,1.03443516456691,1.09891312705659,1.33239654658452,1.27874306749303,1.33278249488764,1.35172219386875,1.3585092331798,1.3750652797396,1.37020803751669,1.41470704857373,1.43745916310924,1.46016165513627,1.45983384270583,1.48159737216055,1.51204825017246,1.5344181889158,1.54471155983252,1.60666447790752,1.58008114019755,1.55772436956865,1.5935108217395,1.59329438691593,1.62854271219798,1.66830168543076,1.68736893853779,1.6934921531265,1.69349463962232,1.72951836254937,1.77536147119022,1.72356710839193,1.77552645095601,2.01319024908199,1.80479344300088,1.80443395234472,1.80373292222996,1.84437459114158,1.8437185489286,1.90193363607418,1.84557965477549,1.84762490672987,1.84963941516523,1.85201540173048,1.84557268264931,1.84409001915188,1.84496183384321,1.94804031938848,1.84633484705449,1.84889555486566,1.84893745063117,1.932578789819,1.9385017493409,1.96329911201567,1.92617654329121,1.92456868554473,1.92707938993064,1.92900513782176,1.92910599948808,1.90591580758188,1.95852681313569,1.99908902170395,2.06062425436614,2.04799143899254,2.01890416429499,2.00073334902521,1.98763069982541,1.8670233914795,1.87448519734144,1.92253008836721,1.85301331778781,1.85305717848304,1.9769487768511,1.9079434745459,1.90743738218629,1.90037990159363,1.90792053899969,1.84278442159833,1.85249623304609,1.84147177012948,1.84726687144052,1.86352740255843,1.87245656579064,1.87202426848184,1.86941051936852,1.8535024660913,1.84975055137683,1.85167151229292,1.85416620478052,1.88896824253314
0.997572205959374,0.996424533750909,0.993998467578688,0.993274056341787,0.992303101458715,0.991343120311414,0.990985966624695,0.988481541797789,0.986370445532753,0.985259038153001,1.12048277435956,0.978587340407581,0.977143501614677,0.974995688956808,0.968181569111919,0.967944868792128,0.9670657734176,0.966243655174147,0.965952312912302,0.967670819191782,0.966173730402001,0.966351338056662,0.965616044000885,0.965113225907879,0.963243801769484,0.963129026998827,0.962942831155382,1.25021783158229,1.50975383961249,0.990317911398133,0.989287648104619,0.988647235956224,0.988335872553344,0.988035365820785,0.979900854366261,0.980300563923663,0.981398923904424,0.982121240060136,0.971850918128577,0.975917062635798,0.945349122652067,0.946498263376228,0.946276934734839,0.953003705216712,1.16981824344259,0.939557528320589,0.932981189545668,0.932582194729757,0.932385402806799,0.925464258070071,0.925111858526106,0.919790139697962,0.919998869563283,0.913952011565901,0.914226306240895,0.914301724956448,0.913971215234206,0.915072045081216,0.91490601402147,0.914625399927529,0.913094459917962,0.911931444510039,0.911762119440034,0.910502488975728,0.910947321976295,0.911399728066177,0.910821648771414,0.922437224517787,0.917883873030615,0.919137804414661,0.895251950873602,0.877282727079912,0.861996608629493,0.852043389519954,0.851413718122145,0.84980827215723,0.847523766967324,0.887442002239199,0.998391373098536,0.88737103539707,0.952441898930682,1.01476124725194,1.0567716605275,1.09503396713435,1.15963298762853,1.23900267336448,1.31417134938473,1.29856581075204,1.33513269922093,1.33143010733027,1.40743051513371,1.36269722666646,1.37216525403031,1.40263910956007,1.42737364715352,1.4720362668587,1.58670640072854,1.58730734147643,1.59682360042615,1.55007136401247,1.55845851641978,1.59962142409395,1.59970882000257,1.60037825285042,1.62666632265208,1.65698028057373,1.62712911648353,1.69362639717085,1.69382250514327,1.69336667581538,1.71977636311189,1.77650549139019,1.77623977402518,1.91835055226938,1.88642040322168,1.83486113865266,1.84369547275389,1.77820420029615,1.8442325324336,1.84244186840353,1.83920403416219,1.85032077259993,1.84893685770697,1.84908198184527,1.84775527515855,1.84438213539232,1.84647146122941,1.83781072171887,1.84872855178491,1.84921699393808,1.84907885114468,2.00481862589511,2.00299870780538,1.95519212811453,1.95546547684723,1.92440689338681,1.92694625910658,1.92712942453323,1.98956269187104,1.87514585648775,1.94061474053036,1.94062101449937,1.85747249726732,1.86918014185447,1.81067937541865,1.85766144767495,1.85216088493796,1.86648667611669,1.87512426891633,1.87351305756464,1.86663941469197,1.89522819409619,1.89459085591919,1.93907879216598,1.83123554646295,1.82796716897928,1.83190072424884,1.83248055831205,1.85398138564099,1.81870138949011,1.84707560917153,1.84580984680224,1.84187997515903,1.86812357212877,1.89075996731466,1.85456611850171,1.85308888773968,1.89834714232773,1.82419285313854,1.89028899125484
0.995649148755383,0.994714238504949,0.993770166064496,0.992978382438431,0.991854087547315,0.989305153739254,0.988115600335263,0.986513184421604,0.984788094657189,0.982715955697603,0.979656655362465,0.977391441614267,0.975507930093636,0.972787150946694,0.969834427311671,0.968211307266124,0.967099719132706,0.966374938418073,0.96614758245553,0.966311823015491,0.965493863367154,0.96497839780458,0.963866136433504,0.963331190013877,0.962322361554548,0.962198295098676,0.962759613110559,0.965904278839743,0.968159058562423,0.970095911818159,0.972145929959054,0.974214100501846,0.97634193987291,0.979161974931426,0.979360509353835,0.979810732550355,0.979348139003065,0.978647417477588,0.976508684054065,0.976417824490091,0.944632845978812,0.945085833605338,0.94647717915657,0.951256469562471,0.938881704370774,0.93761952105971,0.931309110644611,0.930935940914627,0.930009152332544,0.926324488852356,0.924043289091233,0.921873119320261,0.920651165423726,0.914617919942319,0.914860972469827,0.91508906549528,0.91520391500229,0.916052369670738,0.916122261721527,0.915787081071221,0.914756759391635,0.913109617056863,0.911737612093608,0.910755685057409,0.910552065691122,0.91038573225866,0.909933764151456,0.911561575496137,0.915790648325866,0.916832144081504,0.906347968153066,0.896292960759869,0.860333771318006,0.852986458582805,0.85103847414432,0.850072481867402,0.849083470941576,0.882976546807215,0.909168367945929,0.913640801548237,0.952233073742049,0.998890451018479,1.05174245437584,1.0940727575136,1.14616162515792,1.21451140942693,1.24809683439682,1.28312395904631,1.29578266428545,1.31772889932301,1.38802962680125,1.36668834750534,1.37268011742766,1.38403848449537,1.43004054553896,1.46301624163061,1.53424314666678,1.58839799156456,1.58824886320703,1.58404144940594,1.5773246545328,1.59981959901142,1.60016382886885,1.60108604243892,1.64868250008534,1.66919083141478,1.67863783082919,1.69378442311668,1.6939231322985,1.70285793103106,1.71773349622884,1.76370170591947,1.7741166410988,1.79337577505877,1.81784379788317,1.83079994598891,1.83790334038533,1.84065412916324,1.84253852719469,1.84118065237172,1.8403649570952,1.84272521709454,1.84605560509404,1.84710681477081,1.84575221725874,1.84302919271596,1.84344582123622,1.84255144016125,1.84854287372403,1.85034294914504,1.84985489038935,1.89744656106836,1.90984097215745,1.92987849839984,1.93324354502925,1.92858049728296,1.92757953425962,1.92722605490431,1.93277033386866,1.86928045440369,1.86916331563418,1.87146179879016,1.8599368052523,1.86183498575068,1.85965910051159,1.85897349929618,1.86223133523057,1.86396102674762,1.87202554684243,1.87020590019184,1.86703037389477,1.8923099570203,1.89277971054418,1.87054483163095,1.82681258860237,1.82525847068619,1.82732788621087,1.82869868230054,1.82329802257556,1.81922623126876,1.83669881259643,1.84268308757851,1.85357374335912,1.86394719603332,1.85650551866367,1.85247713277295,1.85152753016711,1.87201467751932,1.82428256951797,1.82375419128141
0.993735310978643,0.992916051575855,1.18008822945649,1.22264607259097,1.01149484847924,0.986761257487317,0.985361605850477,0.984701980480844,0.983602422824747,0.981300532210071,0.978863752301561,0.975979355427321,0.974589696748454,0.972135610660548,0.969467976714849,0.968296245197337,0.966597770283912,0.966082433594483,0.965489760701622,0.96572452130485,0.964858861264763,0.96363487937505,0.962048396518701,0.961572514916237,0.960792726852742,0.960476994399056,0.959589491720652,0.957731039999818,0.956437657542369,0.954560614382287,0.952484676861747,0.951415784940787,0.950349125926664,0.982947088496185,0.961120736202149,0.979771014805753,0.977486301410773,0.976771583355733,0.978199902156723,0.977120481280144,0.943370357962061,0.942872422032698,0.942792080655471,1.30283856658938,0.936220066950728,0.936576739798612,0.930672575826912,0.929831479465141,0.928966750672518,0.926592182997725,0.923506024898697,0.923012567737895,0.970687827035098,0.914849274412244,0.914889652761944,0.915774088759058,0.916074759143188,0.917045530707399,0.91839759381725,0.916897464991276,0.916742159687511,1.16380310038896,0.911724828204377,0.910238469014482,0.910181480991362,0.909709025432573,0.908745555493076,0.906710116151624,0.906188612543652,0.921970898079281,0.923205024693208,0.927035846057367,0.857841919152532,0.857003602699025,0.849883669968325,0.849742911307265,0.849059287129985,0.878484788686275,0.901075628468844,0.918125220773842,0.952476109827823,0.985438555969835,1.04676580690019,1.09309185536528,1.13238127268469,1.19380419136852,1.22615725934784,1.26577970018873,1.26484463827003,1.28185616632574,1.45118385513388,1.34218645064333,1.37418956822127,1.37071611030439,1.43273802474769,1.45509776336572,1.49894729177006,1.5922372968833,1.58770997110074,1.58827575022929,1.56717311471661,1.59973223003751,1.60006742532332,1.60246969579605,1.70058322601375,1.68943986531457,1.69132241645916,1.69316919918501,1.69352617576163,1.71541690671919,1.7152339822638,1.74615886012117,1.74527553437805,1.76669073908583,1.79902653086578,1.80081066081133,1.80474460766557,1.84278451864368,1.84236166199117,1.83912644763224,1.83789359225123,1.83731035620233,1.9641403183498,1.849253706245,1.84826965938371,1.84340161080915,1.84582160459308,1.84644649114126,1.84757983745126,1.85484728419638,1.85063627501678,1.87922096656765,1.85275266863857,1.9155102986568,1.85323204606356,1.89801033760854,1.92756585632035,1.92720386238422,1.93698485676891,1.87414503536212,1.87398121778912,1.86546964098053,1.83348182860516,1.88277899465072,1.86348569633183,1.8608514055504,1.86409267404424,1.86488125704973,1.87174497122351,1.87124880213647,1.86997773984352,1.9603624199731,1.89474898890906,1.83840670504801,1.83087911533655,1.82540407649942,1.82416892133093,1.83331113227481,1.82025417306703,1.81963784881199,1.8078811770366,1.80783943941739,1.90128411340956,1.92503404466171,1.83164874617579,1.82803333584188,1.83166780943917,1.88888670603772,1.8248315822451,1.82487453456756
0.993177872282021,0.991335844879128,0.986301765365964,0.985880711415537,0.985233782906952,0.985203679993772,0.984103602708009,0.983773521760567,0.981911939921875,0.980502621363706,0.981386934418928,0.974431542132556,0.974140548839474,0.97124056061738,0.969598732088727,0.968657498177836,0.968209010802713,0.966974001416758,0.9660589875773,0.965155878937307,0.964437337536908,0.962568966301917,0.960904937999383,0.959403102667583,0.959022749827838,0.959143443290115,0.958068517505824,0.955726533964075,0.954670107265903,0.952036148861082,0.951408448172624,0.95139168422697,0.949246579686926,0.947163608575644,0.979257063175948,0.980218393213245,0.980781014491984,0.931413816785503,0.973717925161877,0.975389055234759,0.942450075515427,0.940102096235247,0.940243663020497,0.938882639256462,0.937046326338838,0.935905023427288,0.933461214110457,0.927471906049616,0.928307246157924,0.928569676140611,0.923489038611374,0.92191178723131,0.915607738182558,0.915503641820501,1.29658808930048,0.917311683044516,0.917679824564077,0.919341971565553,0.917646126844929,0.9173742837962,0.913772978749822,0.911226853823085,0.910616004269642,0.911251530269377,0.910873837898168,0.909668802408205,0.908559166065867,0.923751807220223,0.923662827536755,1.0435661329023,0.907429104590255,0.927551698236192,0.927513346314043,0.858547649397949,0.850847539357303,0.849917075523295,0.849429975683999,0.903156315088684,0.922183768031173,0.910398494946517,0.940778069481949,1.02594587426097,1.04776941056503,1.14246299194691,1.16733312618131,1.17690584952559,1.1922691296171,1.21681762990475,1.21726319294153,1.25617649443897,1.28374147355694,1.3003628518411,1.31334386229334,1.35326038187721,1.43037700881044,1.44425888076539,1.48651223029091,1.62894592317117,1.58749896550483,1.56304582704357,1.56224419974978,1.66045325260438,1.65488838748322,1.63269244378439,1.70256083877427,1.68838151333501,1.68850443140769,1.68208313041799,1.71118615751971,1.71172929923705,1.71279231425319,1.71526961781288,1.71449306079251,1.74994537276595,1.7656616451316,1.79832731593919,1.80890348493185,1.80930962483149,1.80854927251119,1.84228028555474,1.80158391775599,1.98787769886975,1.96159243393864,1.84300069270004,1.84084693547592,1.84014884422899,1.84199335629607,1.85787315167256,1.85747139246205,1.96162251897895,1.95123701731026,1.95060986051997,2.01414099940059,1.89624244665932,1.85384448721299,1.88053611283042,1.85481465132966,1.91138465833923,1.93852091753016,1.87513220983186,1.87437101715249,1.86518563711443,1.86513928659201,1.82763309862422,1.85589363427564,1.84931029439848,1.81129522938271,1.82144380925023,1.80913319978691,1.81513313497619,1.85612818008764,1.9242903883393,1.83672525895649,1.83726380227524,1.82708022794527,1.82677800831065,1.82515339232209,1.82484322415608,1.81993108389456,1.8184945782793,1.83771090581154,1.83776742034652,1.84678969715515,1.82431164350275,1.82398630767129,1.82563092667317,1.82826445473969,1.8276460822569,1.82565938402271,1.82529884559111
1.1109316271417,0.987127700032228,0.986037245865222,0.985416791960352,0.985033681390087,0.984636658627954,0.98345000713229,0.983131483315573,0.981210932670722,0.980449461074032,1.15070910353827,0.973089552319635,0.972307319477891,0.970096178883339,0.968871618583784,0.968830756445075,0.969176293854728,0.96886577909905,0.967350118728754,0.965601159860399,0.963785521791528,0.962087215799873,0.960202966522183,0.960164611311286,0.958782981458481,0.959193640227427,0.956465975232802,0.954007665411437,0.953049450311098,0.950776317665545,0.948484139045839,0.945780570287442,0.946080470564535,0.973828063109115,0.972820520936054,0.954477359352741,0.931990905476824,0.931693788278028,0.933334851437538,0.936135763647851,0.936883808098809,0.937661959256554,0.938719353120784,0.937301617776455,0.936744387822093,0.936425942642769,0.958789375591274,0.929782964996347,0.928852428244546,0.929038029726002,0.927574706755245,0.918804613760885,0.917817116727711,0.918078788044761,0.918432183250283,0.917968113759986,0.918550302819897,0.918125125918164,0.916775512192716,0.914067588456629,0.914351317411375,0.91119605748866,0.910803055133563,0.910173473228836,0.91020368978572,0.909040875081885,0.908137329395282,0.90669622227587,0.922154814579621,0.9288824770317,0.928368380624748,0.85313102289392,0.852991905581409,0.851853147823686,0.849909590917472,0.849799204526221,0.849475764877282,0.87065157827188,0.880413420677663,0.908752518294224,0.929900330023177,1.02757124938472,1.04921776035982,1.07519115996293,1.15151553704598,1.16215897602522,1.17259519615539,1.18878120431015,1.20655611256055,1.23510981701473,1.2820219377709,1.28886074880713,1.33295196007446,1.3479624512382,1.39214578490761,1.39715485525807,1.40948265396115,1.57028074278382,1.55455303082049,1.56479264640369,1.56585063684356,1.57355167556767,1.56436784570355,1.56396034730842,1.61396925233392,1.63953615215477,1.68059693886537,1.68090192072141,1.71071567235648,1.71045821058548,1.73890278436789,1.73904017142332,1.71517285674235,1.72827581677042,1.75044720993909,1.73843744597229,1.73718887223734,1.87705877828472,1.88160818612372,1.87866109457333,1.7983708871421,1.82564594878095,1.89075996655358,1.83719787493611,1.83795692257218,1.83623116785524,1.83633557861164,1.83407065995403,1.93292466906002,1.92867237366824,1.95355660053781,1.91089750597987,1.95128793183202,1.89632051327077,1.89556551668393,1.89337432914617,1.90115183827569,1.8574822104099,1.96230063515189,1.97054860593741,1.98578794938049,1.86617102216077,1.82871985713271,1.82916069658866,1.83776539846888,1.83464648646573,1.83670221116985,1.82752173735707,1.81073213461249,1.81070401683447,1.81108434873063,1.85443379396342,1.83683284597552,1.83739463044287,1.83618496629446,1.83138153658404,1.82462829081913,1.82435315222805,1.81977340875172,1.81846055173799,1.81634782374652,1.8152528041472,1.84362396986433,1.84282861648467,1.88212206070528,1.88485528651225,1.88179634316851,1.84218967010262,1.84155825799805,1.83483842753248
1.53457689476548,1.01832888993312,0.985088508472305,0.984140817828704,1.01517548368734,0.993501175247108,1.52406216111721,0.97539614832299,0.974455881429198,0.973773130236137,0.972377505542891,0.971506082614519,0.970866554337439,0.968820849766563,0.968437886576965,0.968176852791372,0.968559949273883,0.967752695447812,0.966839770541478,0.964347133976004,0.962404829334865,1.14083447902613,0.956124644723351,0.986182233803485,1.33686789701013,0.962581014802694,0.963551925122131,0.962330233706747,0.981841128915465,0.981806584527928,0.946597598040645,0.944673668298695,0.942664899352819,0.940466312328643,0.938873949400042,0.93900378564985,0.930298698688763,0.930644927175368,0.937762538409942,0.936303373558197,0.936404397381453,0.936189855759874,0.936845521393298,0.936331822180856,0.936113147633273,0.936067436958336,0.935488538651933,0.933691353004727,0.931036183639965,0.930079502553153,0.930917288230635,0.933256929719565,0.918010251386146,0.918331617039565,0.918119855404592,0.918103454298498,0.917532121769352,0.917661817888531,0.916199904748203,0.915149036093655,0.913983210443054,0.912841336354343,0.909498214450388,0.910293410083694,0.909811355859585,0.908533652765867,0.90603015780487,0.904856094737195,0.911038987282976,0.924748297548859,0.924460303830712,0.853496225946926,0.854151680104848,0.853455315136471,0.850126514502509,0.850047999394849,0.887206012595329,0.884785516967326,0.879469137104474,0.918325421734441,0.95855661832011,0.958384224580947,1.04785106367613,1.08645733826873,1.14481024964452,1.14861361879411,1.15270157514536,1.19999041955068,1.19921303761458,1.2369542939542,1.24029495451253,1.27541275075079,1.30700474721836,1.3306832805673,1.37471365716674,1.37919354436915,1.39132588805229,1.57194187292752,1.5705169976861,1.55207634575923,1.53455683863067,1.53444403015362,1.56407956453167,1.56390667703568,1.58155125256268,1.62714917935014,1.68060052141712,1.68039127560796,1.78260976539841,1.74322408517115,1.74477344196282,1.70975056542366,1.70765056399127,1.7070392903695,1.73041248460452,1.73168840188105,1.72768869843179,1.74666947787915,1.76194736976989,1.80143346292628,1.81641378172806,1.83034792327906,1.86949516504393,1.83598727074958,1.83583191743499,1.83335012732915,1.83471085753181,1.93208219835518,1.92875331233728,2.03307128527801,1.96212956143434,1.91149857631814,1.99988201195137,1.99982323922147,1.97713955461543,1.88873911117303,1.88105279776005,1.85985419800764,1.859310162204,1.83813343080584,1.83801137288146,1.8379189522062,1.83751980586513,1.82779522900842,1.82708147689304,1.82401834489075,1.82600928659179,1.82538528041413,1.82452033667076,1.82375485466479,1.82189789218722,1.83159179105527,1.84531564377995,1.8400764729154,1.8758006666308,1.83810516771125,1.84637461018388,1.84288858724481,1.8191043242343,1.82051150306731,1.8229816315375,1.8211306752871,1.84409547744504,1.81329186969848,1.81289626575112,1.89182893275704,1.93109625447812,1.88806395733479,1.88782959232989,1.83688236396773
0.985776290335027,0.984663940264227,0.983240151339347,0.982066555971101,0.980443547670856,0.979484715537555,0.978804064607508,0.97441863726664,0.973659972730766,0.972898627137934,0.972006021550397,0.970926562948382,0.969800027106761,0.968666033079781,0.96755558493907,0.967218425192588,0.966417895532284,0.96538994181586,0.963224352590473,0.961842815653452,0.960187578846538,0.958462657387791,0.956783177447417,0.965927811349368,0.965035146160859,0.964121870571928,0.964020392640061,0.963423970439717,0.980397570068543,0.980023616696493,0.964635298089781,0.955167956801811,0.94139895559191,0.940293723978113,0.939288721839655,0.938870838104875,0.938599361487015,0.937571180061999,0.937440033353326,0.936938415615704,0.936387786693371,0.936310537612581,0.936433369805881,0.936502083564117,0.936272892449237,0.935974432392316,0.935207582831092,0.933622480508306,0.931922647642062,0.93090879678698,0.931109214676465,0.932176420304809,0.924619507584594,0.917361040264131,0.91797429122562,0.918198960358858,0.917811899574045,0.917216534496062,0.916667868969663,0.91568459367457,0.914618220258664,0.913090334718748,0.91108245708385,0.910507792290742,0.910054257460582,0.908974831972753,0.907502981395269,0.905684484870377,0.908310415502416,0.921828418942395,0.92173178065418,0.855764372264519,0.856509072594854,0.852469943411178,0.851007099601064,0.850464080217694,0.868214561946519,0.887679959142823,0.88985660795593,0.907473066284028,0.950693392133677,0.961358566067667,1.04876419742216,1.06403313785314,1.12586104831641,1.13228577625082,1.13952538078615,1.17162357767779,1.19959640264017,1.23387950243164,1.24868126744707,1.27566895148782,1.31436969020504,1.34443703954162,1.36964316839156,1.37458755452667,1.38218078819838,1.44955164233204,1.50609485789197,1.5282579997654,1.53540266645253,1.53526591044987,1.55286987472034,1.56385149761559,1.56932226609646,1.61003867733477,1.67831549123692,1.67818615637583,1.71918584783694,1.72114420756997,1.7263661572519,1.71893427533921,1.71429607157226,1.71041201660721,1.74537003282835,1.74844977574071,1.75134687764773,1.78266614636537,1.79605936405106,1.80655762410501,1.82091459506533,1.82177425105434,1.82568291210552,1.82877366962806,1.82966005349422,1.82614231662115,1.83003194447259,1.92527468103597,1.94337752465731,1.96575435816746,1.96844558492425,1.9776578809862,1.98671845868382,1.98440633987717,1.97743949892695,1.88914339614711,1.87574202776221,1.87144941848199,1.86218369530691,1.83721705916057,1.83785173476429,1.83834396738974,1.83812547936458,1.8269485742095,1.82521232639196,1.82313751510277,1.8230432012187,1.82307100569696,1.82385342114969,1.8237232742684,1.82279362347836,1.83542513467518,1.8428123530626,1.84121691118961,1.84040147865741,1.8388532688584,1.8413100917333,1.83876279199209,1.83162045598499,1.82751060279161,1.82378709244689,1.82192845868684,1.82137346665463,1.81142509156549,1.81119247490516,1.89295067065757,1.88472941629346,1.88367733414304,1.88259325174922,1.83491834072605
0.985087576126043,0.981947575053474,0.981356131396849,0.979985876063521,0.979509861186011,0.979240146763323,0.979366260260771,0.973469909635705,0.973046967172677,0.972309319081422,1.27462669846462,0.970171600590565,0.969255586607216,0.967977261995489,0.966337083023998,0.966344496650072,0.965359237082375,0.962825367500298,0.960895699661472,0.956926087624613,0.955599530706788,0.954493959833302,0.955554954825046,0.968074583792338,0.936587527954757,0.942260429342095,0.945825986429322,0.94642479397474,1.18131196749342,0.978614554240623,0.97680058161127,0.976673616446404,0.940753841322802,0.939656654806392,0.939017575796732,0.938621305920172,0.938871347007405,1.24028672685331,0.938111867155838,0.937633780307752,0.936548844932486,0.935943842430161,0.936392102367938,0.936783626641316,0.93650829025046,0.936322524286875,0.935263055626212,0.934387481375845,0.931714596023291,0.931412097294747,0.930550585924714,0.931134870465551,0.93202919567741,0.917483695723175,0.918254749715173,0.918566821784104,0.917887604865631,0.917039951162241,0.917314857414854,0.916471556685766,0.915523921321111,0.913983576257926,0.911084273083422,0.910812425152102,0.910835731453942,0.9097733236826,0.909251576720074,0.901968722316507,0.900758112691732,0.921552408358279,0.920734223084862,0.857550249543995,0.857933642040404,0.843175597378605,0.839998369773548,0.842806619287654,0.838047399853369,0.978293829406637,0.891296300483573,0.898728200299768,0.942695416951818,0.964406991230037,1.04957485472629,1.0454394166552,1.10874429903166,1.12215918118314,1.13077685047244,1.13607268570592,1.20029362988528,1.23098435589347,1.25872252199852,1.27649916091919,1.32383373588383,1.35231925290517,1.36386808859596,1.37098558172743,1.3786614208508,1.39374883851833,1.46742976188249,1.52005204715359,1.58273569283815,1.52809304557429,1.52687773317283,1.56391853497965,1.56276401297819,1.59412765159148,1.6757194831156,1.6753995669017,1.70145448669405,1.70290820908566,1.7390899190747,1.72375061477249,1.7235213018303,1.70763613449168,1.76276962618687,1.76430460766472,1.7622323588571,1.84102444502307,1.83222691590566,1.83293488467417,1.8207008149176,1.81202746260638,1.81498367248126,1.81792477456425,1.94441287856945,1.8880815333991,1.83544409484484,1.93215952801625,1.94976478503202,1.9639615096866,1.96292697095331,1.97355224388584,1.98015134462163,1.98164615132349,1.98371032983777,1.89044222618123,1.85643690614769,1.88160171704758,1.86072754250077,1.83909414975244,1.83816551522777,1.84769968328335,1.84782383356912,1.82835536098118,1.79857534190336,1.7982143860784,1.76319915004505,1.81764476432106,1.82428486915887,1.82403704042161,1.8052516474964,1.83548110590585,1.83957562078484,1.85098397290611,1.84544097343084,1.8426665692994,1.84532606835201,1.84013469893117,1.84302795308225,1.85195480971564,1.82374939224723,1.82142356690881,1.82079526570442,1.81322453096948,1.8127946127576,1.89156405463499,1.88654981233949,1.8869311616291,1.88169605177462,1.83040062985904
0.983263136240695,0.982473959977872,0.980214195800969,0.979454819853108,0.978485700970468,0.978284970773408,0.97713134512545,0.974029009337373,0.972521502039318,0.97120789426931,0.969333190118238,0.969791423514659,0.969060716292813,0.968791500918997,0.967399468128016,0.96735829957014,0.965949409507717,0.965386346605055,0.960649569679297,0.961379951236893,0.954426657444377,0.953235607877402,0.950710616905637,0.952741850375034,0.936034734760572,0.938281590972019,0.937329090175123,0.940515331740902,0.941965177142436,0.978658990534398,1.47140377263209,0.961323398010122,0.974259181344548,0.938165811212758,0.938366348474854,0.938093154895577,0.938663921625469,0.938791862392136,0.93870029785761,0.939184277947409,0.938969315469447,0.939479800598296,0.93800722146037,0.937677002235426,0.937328675552016,0.937070924220429,0.937341056482034,0.93574121394994,0.934046511097111,0.931840163542108,0.932040245404541,0.93087995977983,0.960050775197488,0.92484804141478,0.923480054273101,0.920048006663299,0.917238578750281,0.916617656623665,0.916198088283173,0.918896959374261,0.917337856527268,0.915346662987222,0.912367892632223,0.912644657742611,0.911821969735173,0.909876757057215,0.907800222720228,0.905009366708565,0.904013038621089,0.903581326746084,0.875573782442617,0.875219792403301,0.869391171852183,0.869041421624222,0.843376538672836,0.845077380776279,0.904605032886249,0.873898935486575,0.872032576546869,0.968259178807586,0.943021828623808,0.9623734839389,1.01078465241608,1.03744742732883,1.04394266708983,1.10972254905919,1.12899076156155,1.1381658202651,1.28543324658097,1.23221355549991,1.23619018588375,1.28591324458465,1.41074248866451,1.400503805744,1.34724641871494,1.35330886223853,1.35885260116587,1.4051847687416,1.4672352188506,1.55590131394722,1.55591386573424,1.52944444125971,1.52925336278325,1.56417584611328,1.56529124975685,1.56718127470757,1.56776088975812,1.69200607371864,1.72790028154806,1.7036609154686,1.71885471703799,1.7219368785448,1.72301878948061,1.72260867814444,1.78634689205692,1.7645894496972,1.76410032760189,1.76389858766823,1.79774788347161,1.78581481051294,1.83072634150807,1.86906292352673,1.86862208600856,1.94399115961984,1.94168864512906,1.89937414189425,1.89619775642456,1.89602515719641,1.95059965357516,1.9769196356587,1.90416153616279,1.90330677023873,1.98502117998092,1.99033373200628,1.88081829112837,1.87289740801585,1.8726932106119,1.88139635275012,1.88606043653746,1.83943518709519,1.9299967218592,1.92183166781774,1.90529403832858,1.90540977739638,1.80023320155029,1.79900888470765,1.80650168165235,1.78101883012652,1.79799068024454,1.83971274142994,1.88518725189383,1.8370181720007,1.83651585181788,1.84632343982976,1.84714739604932,1.84480719253272,1.84726711523689,1.83863719310433,1.85352635158139,1.85354023950676,1.82245501915379,1.82162375174873,1.84656419717375,1.93860241990288,1.8950252271427,1.88632741994853,1.800788157721,1.80065823619742,1.80022844451364,1.80047716385936
0.981949340528217,0.98115956283973,0.980466725441233,0.979518493174701,0.977891635779799,0.97777877687687,0.977009305662055,0.973870591643519,0.973044677816493,0.970229257883359,0.970619426184926,0.97015093124192,0.970387964671052,0.969404420719855,0.969739593443765,0.968417465633198,0.968373535300645,0.9651595785332,0.963961169654914,0.962255227505358,0.967549339415437,0.955255737909533,0.956016245168579,0.978519750786071,1.09229914634303,0.942135838216831,0.939905774334056,0.939081426100608,0.937340498274343,0.935537594738928,0.933227914406428,0.955795826618955,0.971725493589821,0.935191083740301,0.937183713495469,0.936975909257974,0.938611397076945,0.938860557254106,0.939630470273214,0.939827133705986,0.940576695541111,0.940153713080568,0.940136789445362,0.938858150751544,0.93849507144863,0.937994655786468,0.937600582135788,0.937245675061392,0.933789515227814,0.933633969623608,0.932005715905787,0.931957809073634,0.945970633528881,0.945767860085589,0.940681476304015,0.937949874449948,0.942050072468325,0.922932261662892,0.923029353001635,0.91696214978316,0.91391446263759,0.911637786290473,0.910980284253991,0.910679686493186,0.911298677802991,0.90984803678809,0.909123276928775,0.906189979050646,0.903866332380731,0.902439404685718,0.900708994092071,0.875714668583572,0.868276194858842,0.909419508749956,0.851530606689415,0.851941782488298,0.852946558822061,0.85348743818668,0.9417040626906,0.896904214007181,0.934463552749833,0.935962484390423,1.0031210127258,1.02151652728341,1.0662617674041,1.10074336814168,1.13177852883796,1.15019491798161,1.15273884229741,1.20341555686733,1.24751884120607,1.27806491033235,1.2875582287993,1.304289981527,1.3317682988767,1.34662009781695,1.37468317238375,1.37905907492642,1.42930718465072,1.47235452294295,1.51544849472703,1.51557059630502,1.54359629778454,1.55770723304951,1.55811551730609,1.56691685275649,1.62529353582846,1.70712398712921,1.71391494547039,1.72641568374511,1.72828475919116,1.72246354352707,1.74066395751173,1.74223693544566,1.7425001149705,1.74108883568084,1.71801520180013,1.73454508069985,1.743280729781,1.80529947937863,1.8286485233543,1.86954459614742,1.8693955292466,1.80757652042886,1.94081320610669,1.90613098248693,1.87169923027734,1.93856373986132,1.93569993443472,1.90918458847823,1.90738848817441,1.90521024250326,1.90621251584323,1.99918203595308,1.99913720559814,1.87119409307564,1.84148741308608,1.84250158689239,1.87573343645653,1.87587340616075,1.85227189994701,1.88634104180995,1.89215501215832,1.90225735716016,1.8215555749426,1.79210355798,1.77184072363398,1.83953240987805,1.78243147282185,1.85413106907531,1.81083667996184,1.82539494957908,1.84469434502828,1.85353985205811,1.84849136459206,1.84560123413377,1.84768758985043,1.84726576845939,1.85510134111415,1.87364802805876,1.87286358534894,1.84943527453161,1.89204591154943,1.93799503957622,1.94475255811819,1.87827464835569,1.87593334776013,1.80134929520545,1.80219306727297,1.80444207663757
0.981000721696538,0.981254798408787,0.980831698784256,0.980984043018743,0.978458298155642,0.978312157721071,0.97783003258517,0.975010921979383,0.973490182117611,0.973125386980059,0.971213491385068,0.971169395734548,0.970493840669016,0.970937378955629,0.969870593831356,0.969521999131936,0.968770108252968,0.968035799741939,0.965084804673231,0.96338540946836,0.959836333991027,0.957829333013757,0.955653754569044,0.953471647707336,0.952439724201316,0.954513048472244,0.998937348909694,0.973337819636253,0.934498942932247,0.933768023090285,0.931581067844841,0.930683882665557,0.931725222673407,0.934485632484782,0.93484671128816,0.934723297042672,0.952252565654245,0.937727212654065,0.93845328205321,0.939487273550976,0.940516860526007,0.940790464796727,0.940799869816875,0.939955850588874,0.938980956830435,0.938096047931875,0.937549424106529,0.936353483473653,0.945072085458905,0.932205882914906,0.932730723736297,0.93158873282947,0.930257478568405,0.929374652412374,0.929075220102987,0.929173719576399,0.928454388169122,0.927485755815723,0.91904556023387,0.918403715723351,0.916539451376937,0.914043701575425,0.912131235951712,0.909884760401258,0.9100532462334,0.909440802086252,0.909299821327751,0.907519040777285,0.903631639264726,0.902523999123304,0.900919483152586,0.923672059143779,0.875057205946814,0.899414719258556,0.911152695882923,0.870840449612558,0.854242391728221,0.854275605561062,0.867810054128533,0.907632112483939,0.947088137990691,0.956550471811207,0.975134995133598,1.03482056441943,1.03534888143515,1.09050895895826,1.09843666370522,1.16150214270464,1.17023243211784,1.20100271204806,1.29716798395791,1.28753446443111,1.30154118614511,1.30239865035252,1.32457598658628,1.32607084025125,1.33460497077189,1.35800025414246,1.41198972031783,1.41249177145873,1.51867072856955,1.51868939562477,1.52803739137732,1.55535987671214,1.56806955667897,1.56681229111216,1.57745681372948,1.69282687250601,1.70384750914094,1.68512123538546,1.74890990855206,1.69553469255949,1.69523338367666,1.69400735258743,1.7419576431297,1.74004116562305,1.78325052235143,1.78301866290392,1.78327136038652,1.79012182175213,1.75912470877635,1.75923770672146,1.80583595157237,1.80630973194147,1.80525353555083,1.91058764430219,1.91140168152587,1.9388025782499,1.83119594547705,1.90767934663081,1.9074452028858,1.9052955702871,1.90516799534282,1.90398525213944,1.8044155552869,1.84117025461133,1.84407163967097,1.84634958527546,1.91662790571449,1.84938490072098,1.84974636465603,1.88682720803501,1.88913856444555,1.81991223715307,1.78284235969583,1.78812441421505,1.81824569106659,1.85427594490034,1.85396392524508,1.81711485463234,1.81775085741162,1.81616103900346,1.8308029551702,1.86889527220666,1.87543209781339,1.86763328786687,1.86909832734778,1.8534796991924,1.83759050133611,1.79459687695141,1.79438955203545,1.82448651560375,1.88374767215254,1.88604642661264,1.87779926533879,1.87462713781545,1.87753039284675,1.80721827980369,1.80593243349137,1.80572310577981
0.981509171040936,0.981638424902658,0.981548726466737,0.980915182967204,0.97981429768536,0.978886249993824,0.977937065490478,0.975951183086593,0.974450626148247,0.973128607836058,0.972481907124925,0.971368210938461,0.97110769673,0.97065357797014,0.970459924721403,0.969995024930585,0.969355406607282,0.967481596846255,0.96578536067426,0.963253031804852,0.96138850906212,0.959232487194495,0.957777709215464,0.955976725919263,0.954656150058198,0.95493204913963,0.954894083876869,0.955214125754531,0.943994141166526,0.942317492513238,0.937485100912115,0.930600812434644,0.931165691927323,0.932310766508198,0.932899212771524,0.933223436988033,0.933607741885293,0.935565099824698,0.93745322928026,0.938935625518888,0.940354325816192,0.941204076614029,0.941295403103036,0.940593081101921,0.939347425272754,0.938429858720761,0.937690814909072,0.938160232720235,0.942123156424006,0.931145088885911,0.931540852470445,0.931401570508797,0.930329301202137,0.929681063151644,0.929541388778029,0.929955146310744,0.928459495466676,0.927097002770061,0.92057746289869,0.919154866896252,0.917538534238289,0.914670149286213,0.913107234987521,0.911216701530791,0.909774288738691,0.908782297096168,0.908413990227026,0.904863762266462,0.903479916829664,0.901620868182063,0.900172947720465,0.913699922955285,0.902172726108545,0.895685678485855,0.888872660267579,0.880305312449871,0.897669000223774,0.909995271842923,0.919447073902202,0.930027290172189,0.948051095258792,0.954281944949775,0.985069555786258,1.03560441098768,1.04388181832289,1.08218759431076,1.08412517123945,1.16439354492937,1.17923659133119,1.20188525364492,1.28730994658833,1.28805429852097,1.30178115547319,1.30202791196747,1.31837614805854,1.31956817739634,1.33607831347875,1.36128550669346,1.39762282306709,1.43480044302325,1.48997711206607,1.52144835419456,1.54706294505398,1.55953089513666,1.56558643875403,1.565447154105,1.61223199662429,1.6935229510053,1.69221497434505,1.68865565130272,1.72308082330661,1.71725325594986,1.71303719751117,1.70837191670718,1.73183545967033,1.73533507393026,1.75709786949189,1.76186143828882,1.7850794285975,1.78558338574597,1.76018854698447,1.76006719025382,1.82314269691219,1.83875435025455,1.85584109902021,1.91715316006839,1.91086959895776,1.90649499586119,1.86035380442338,1.90490386594668,1.9051663483306,1.90297735275827,1.8343805196293,1.83068455474837,1.82900969656375,1.84100560333118,1.84382959915652,1.84467359166797,1.85674421005003,1.85988442675639,1.86687542161085,1.86555260521673,1.86766326125918,1.81341126942836,1.78695749785207,1.78923055433347,1.80692975467532,1.8242312782277,1.85245024707876,1.85025646364762,1.84479322739766,1.85258833916316,1.85911150766237,1.86730316583247,1.86853836364914,1.865796985557,1.85778509655075,1.84380828836392,1.83360333507408,1.79529050259587,1.79519308866098,1.81871656799747,1.87561453433281,1.88228958960738,1.87725984332994,1.87234795648562,1.87288736297782,1.84365175053368,1.8056739325223,1.8056863522818
0.982068513434346,0.982472391437075,0.982559271685251,0.98154148767004,0.980781814125465,0.979699144007664,0.978418252538988,0.977501063605461,0.973732815551921,0.974241643438832,0.972256011763872,0.972551979260195,0.970309239470437,0.971348873306644,0.970302279432321,0.971081451394902,0.970472405728693,0.968141183852112,0.96627591889569,0.963464306548748,0.961820579377409,0.960168650285833,0.959751764534463,0.958221783586676,0.955003314840946,0.955300669118576,0.954518991467303,0.953920385951735,0.97430413143714,0.971862929183508,1.36617171598656,0.930391792040863,0.930379379846306,0.931033831070249,0.93156458894458,0.932192625327183,0.932215569274089,0.933595534597669,0.93675843419358,0.938607599772321,0.966941306536376,0.942450688891949,0.94230297477672,0.941815984396017,0.939375793376371,0.938438056281442,0.937521714188662,0.937070483656857,0.950126974400462,0.931410864293643,0.931936376630006,0.931493134266109,0.930079191844224,0.929427365485164,0.929646321621555,0.931592006377335,0.928919463659864,0.926113331725769,0.923048161276854,0.92014921537324,0.919521775524272,0.914199525266824,0.913509861101064,0.913007297371855,0.909122846064761,0.909084100506589,0.925721101647858,0.903027258237534,0.903157414836857,0.900743975350012,0.899067053764264,0.922975576923797,0.929697787214726,0.869516458884432,0.869297516238726,0.875048289392788,0.928357787374352,0.953999118346579,0.956929773643029,0.949942843538451,0.949428889381628,0.952034918524433,0.994577562371445,1.03617896668605,1.05357961890752,1.07562465336918,1.06312766093067,1.16731578357628,1.19716143943864,1.20268138090888,1.28727102053274,1.28757306225892,1.30167145913729,1.30179989704795,1.3107165541029,1.3165857830418,1.33673268460935,1.36474774837275,1.37816434792319,1.45688835729322,1.46625779734501,1.52396021244909,1.56654313588267,1.56381001052898,1.5629634889099,1.56412462650367,1.6388582011353,1.69583325322416,1.69479729374151,1.67496788306688,1.73201958798406,1.73246865769578,1.73919221048924,1.69239609867391,1.69211041109779,1.70411808547829,1.71685671562041,1.72596010714451,1.78561846601177,1.78537050545673,1.75910104836898,1.7584932646391,1.82344710674573,1.86438370544947,1.91611869636952,1.92033775423768,1.91497077508251,1.90780063359427,1.83145049787854,1.90882272679679,1.91293955457258,1.9055101776235,1.79802041093661,1.79355207630497,1.79253443709636,1.83847506808251,1.84563703709799,1.84341050553929,1.83880286655053,1.93408030611842,1.91882120717069,1.82841763650165,1.8748781393432,1.78498797896868,1.78527929834358,1.78621352294005,1.78469141426505,1.78379459139062,1.85677321229447,1.85625530710711,1.8378502661972,1.87038302127618,1.8668707877992,1.86567983491529,1.86866237989792,1.86342948574059,1.82901255547215,1.82989021736217,1.81833892097478,1.79469699197377,1.7945003742647,1.81469421900199,1.84904433598774,1.88430933423425,1.87982668013363,1.87453227437909,1.87704323663151,1.88142422187478,1.80688434274266,1.80731735281539
0.980948083408172,0.98180414199681,0.982858753074853,0.98183983711636,0.981534124755216,0.98020646552019,0.98084426968208,0.979448485470152,0.977086813123344,0.974402266632474,0.975566694688173,0.972211390417049,0.971999045736592,0.970925307604558,0.972382161236595,0.972822527542671,0.974026275764181,0.9738621249799,1.24511578536153,1.60845301788679,0.967464079358014,0.96557238841637,0.962277471325126,0.959988025730941,0.960276034937314,0.956881323900477,0.955158954019038,0.953823745097442,1.31992383207034,0.945337621971331,0.97520081334113,0.963513597537111,0.98188398949787,0.930787089926189,0.931541744405988,0.931879176747715,0.931864369026188,0.932079156492674,0.932694958429221,0.969049900801323,1.28876557931994,0.941911103932318,0.941972486298331,0.941743767047161,0.940514556397659,0.938462232919325,0.937103863783162,0.957262474600217,0.957838893661924,0.954879292918164,1.33251892034225,0.929368472127394,0.927479540846754,0.927637175082855,0.941257067697881,0.936836741633232,1.13980842176033,0.933846901190429,0.920934289695815,0.919993399273113,0.919494439276462,0.917123836441622,0.916676191493739,0.914182017077978,0.912372813334859,0.91066115360174,0.910324775142965,0.909147349252719,0.895321675236203,0.896422517258906,1.03376681534546,0.910711588017275,0.869017641739974,0.868411203080904,0.866793663330068,0.867259059980513,0.859704334316102,0.850106240054283,0.853157891390976,0.853938084579389,0.910905868692099,0.929115917471584,1.01607595462029,1.01150733670281,1.08710997311074,1.08171105194858,1.10722090576802,1.116039663535,1.22253424948733,1.20404561959429,1.24234825476154,1.2702306548847,1.3812236936748,1.30062833376116,1.30256875039539,1.30748764863203,1.31336625592164,1.34595179841589,1.40427441742224,1.4060387042652,1.4692449732317,1.55013243310646,1.54634831881235,1.5636975876817,1.56477270398009,1.56366881864868,1.57763921088905,1.74295124005249,1.58993378339588,1.58977061609436,1.69212845860115,1.65936051950511,1.75099073339191,1.6913854341527,1.69168034938726,1.70477960897514,1.70094403721743,1.78651057692047,1.78745830955998,1.78610562876269,1.78603662250302,1.83511707695843,1.8359408111402,1.82399282282377,1.82294031400968,1.85633188532437,1.9419781095967,1.90799056188109,1.78976028774893,1.78855166674509,1.81160834671333,1.8549609226843,1.80819606237514,1.79388097386361,1.79347947218664,1.83597925912008,1.87648459186564,1.83722006637165,1.83732815182017,1.83687825060682,1.8038978491578,1.80398793943443,1.80326918626515,1.78651669036251,1.78605004073473,1.78639842074671,1.78458790875004,1.78343159511978,1.81386215175519,1.89122563515997,1.89161251318915,1.87675540799558,1.8957480702272,1.86683122270816,1.86957425821725,1.86249580623116,1.84028033303717,1.82853758917698,1.8203861600299,1.84076242116444,1.84029803907231,1.80064855106976,1.83726374768478,1.93825041521309,1.87861853686545,1.87587493926946,1.87809594263113,1.94638777409221,1.93888631660132,1.80755133791461
0.979865380742566,0.979788872711616,0.98073542670023,0.981257528095432,0.979185495294111,0.979546320159576,0.979508393425388,0.980508704304647,0.978353671884595,0.977826584971862,0.974909274913089,0.97630387352975,0.976954098495603,0.977290555853394,0.974051884087808,0.974558654193352,0.974331618594001,0.974027988164767,0.973318097640712,0.973798318957379,1.50031223009326,0.966831934073831,0.966862883952869,0.965650063527762,0.961673447964087,0.966380102226767,1.2681032334628,1.0039923284436,0.978026520656986,0.987230875664231,1.01083584799867,0.98284449852237,0.960507661086624,0.982150924169249,0.949839830898978,0.946753171354608,0.970499561165545,0.931957304060976,0.932202696544354,0.939077192111832,0.939825660561566,0.941241142956276,0.941718280042179,0.940479155538158,0.938003462216364,0.937634857573366,0.936947134306225,0.956789348019462,1.26248188302973,1.26251326092776,0.927608548221445,0.946071124703628,0.924684317984293,0.922947333007588,0.933851478351159,0.928011780953185,0.922879343914285,0.920384596407933,1.35211755545595,0.920318833196711,0.919117985168218,0.917607745526874,0.915999008100931,0.914581833559241,0.913127099232981,0.912150768294249,0.912677634903843,0.915259529906187,0.915720754762653,1.13692793072057,0.907393195381321,0.930699473081377,0.882158122593949,0.925245413706169,0.927382876132583,0.868403227411226,0.865220124294377,0.851484367715486,0.853484339143866,0.854726410037521,0.908561944062674,0.941972931084495,0.97420212190444,0.969922209168899,1.03458577849867,1.0544780527435,1.10617288398185,1.14105098703232,1.20232292546108,1.20402375509588,1.21870187120322,1.24482397115182,1.28645833031147,1.29940568889669,1.28255862858178,1.28527345090176,1.28696770582244,1.30437247861073,1.34933119814215,1.40607623812108,1.54240881809991,1.57953517942621,1.57784073791939,1.56354203850031,1.56267281667487,1.56265342537809,1.560708061269,1.63829339910769,1.61754476300827,1.61561816204015,1.72665672169868,1.69680690258777,1.71352504829061,1.68778318706396,1.70991706213795,1.70790875548994,1.68983071202739,1.84721048888896,1.79345622768012,1.78738881885729,1.78737732580045,1.75376721819919,1.73330481081885,1.77465193562423,1.76545011498948,1.78258973791708,1.7848003200059,1.82126995107507,1.79080460313475,1.78844242016672,1.80400867614755,1.80372604903277,1.79764591166658,1.79618815505305,1.79543695634457,1.83340639578305,1.87654107208994,1.83568016035389,1.83305856184227,1.88938561469775,1.85434905360416,1.8041546609057,1.80344820126931,1.801822589285,1.80108559659273,1.82149624447349,1.82812723931018,1.82845074552959,1.90082743602881,1.89825747550865,1.88309634536619,1.88306003743695,1.88280606734481,1.93344959688945,1.86542443576325,1.86172698144109,1.86019334255422,1.83384016306929,1.80401891067731,1.80711903485416,1.78805646009385,1.78452825043014,1.79123615679874,1.86405963712583,1.86860356101155,1.86176260455532,1.86484810867665,1.87738991857206,1.83839339248739,1.78964150585188
1.42762736993822,0.976975716754847,0.97744592230347,0.976190073960813,0.977396737204813,0.978718818420785,0.98081295285057,0.980811136907458,0.981226967293338,0.979145497177996,0.978005587392396,0.975821230692118,0.977949253613371,0.977452576869158,0.977547845105266,0.976168822047247,0.975676115214071,0.975536065286176,0.975648227953752,1.14497636156697,1.02346858923627,0.996468252117005,0.96592627294202,0.966126883564683,1.00084833369577,0.978518531866198,0.987315347272668,0.986224602169521,0.950643516846227,0.978400763689916,0.968200644117978,0.970090432799218,0.973633464289321,0.94097538239815,0.941057686530519,0.942744188561315,0.941345882254805,0.941058628257836,0.941295311951777,0.941558051387969,0.941719895273907,0.941972765734779,0.941810951200133,0.938851401395618,0.936944236456114,0.936973654006052,0.959438961796865,0.924672507486073,0.921904370229687,0.920297440986989,0.920572247648356,0.92053241774848,0.920301705505223,0.920812418626765,0.919630607810766,0.918841528466201,0.918877827706942,0.94336088295026,0.912535866047703,0.914036120718817,0.916177072313095,0.916288997071527,0.916055736785039,0.914453889808111,0.913727425068089,0.912036756802595,0.91037870986474,0.908366098169284,0.908235799856123,0.907724933398775,0.907695675609691,0.922881576667514,0.880714918454049,0.881045746748606,0.868605404254376,0.869637527245931,0.870610094478024,0.901722659336809,0.856823594989322,0.857430203913829,0.933106103137088,0.913830930560799,0.928781420747767,0.989768783325387,1.01344336228879,1.044013239756,1.05783680134013,1.10997745409323,1.14396167281019,1.20317110413439,1.20232894198214,1.23207825508691,1.24079001435652,1.27189008780709,1.27913408858634,1.28354641866241,1.27174013631215,1.29441406832417,1.31705275435349,1.42789578617338,1.4279076772458,1.5432314955352,1.62228125761054,1.56375319942258,1.617659293289,1.5649326589759,1.56789947084183,1.57364374615059,1.59733841996836,1.65295942886199,1.71257427297055,1.6469588970463,1.6965343454836,1.68560250415879,1.75600758548768,1.73362843532943,1.74343174749711,1.84802596558067,1.84648001141294,1.78796248541696,1.80020028432196,1.7398778075697,1.73382383788224,1.7335900222377,1.77845589213952,1.78026901669481,1.77929483558772,1.81460344657544,1.8147706436447,1.89660192714399,1.86186317294824,1.81225458672045,1.79750966310074,1.79551913264761,1.79486898750834,1.81759838929385,1.82437658226249,1.83399383523223,1.83337066151484,1.83326453906327,1.98582558420422,1.79271499896945,1.85793457698797,1.84756518104694,1.85935914076487,1.85914837383272,1.86833329351293,1.85402726625153,1.89363585515416,1.85366505733637,1.88357810380846,1.93357479495775,1.93399869400467,1.88203756028945,1.95371658115325,1.87218910147582,1.87598251585131,1.86688731182018,1.83032075401875,1.78516153890932,1.77964560809987,1.78967054195541,1.78853956886482,1.78688425940496,1.8628007256137,1.85815050356147,1.89789844654761,1.89708261054673,1.78810575518898,1.83828986744057
1.0637482987372,1.00781693262693,0.997988636320369,0.97529910684838,0.975869557093593,0.977937870836894,0.979655812995845,0.980973556398242,0.980623981429676,0.980426488280737,0.9796355176714,0.979495191415064,0.979223042596415,0.979103396140043,0.978298487594861,0.97755292708232,0.976999627012509,0.977032161767337,0.976934106882588,0.981851662831299,0.986806899396814,0.992432954913962,0.974290396165362,0.969742097300692,0.971969661696121,0.974827467105123,0.978868173231758,0.968963215533104,0.958064836761443,0.963626746126362,0.971901853644395,0.971763181418825,0.972763538523782,0.957243147546225,0.941056356247276,0.941603830950821,0.941545774659644,0.941636343350414,0.941817661477627,0.941921425167856,0.941936434575701,0.941719742578378,0.94111593537433,0.938830954883124,0.937124717908593,0.93633249728991,0.935777829168253,0.928316306285999,0.921968814878917,0.921404448325672,0.920930514004897,0.920681829837931,0.920414895816616,0.920231283161479,0.919540777538326,0.919074299954874,0.918215689843812,0.91494583042142,0.913740689779712,0.913941159838217,0.915377464553364,0.91565211122508,0.915223248857609,0.914269781440431,0.913452710248941,0.912101189391432,0.910646376318361,0.90938751863234,0.908259496500246,0.907450647902601,0.907210078185197,0.89061712573631,0.87932057738531,0.880063674914151,0.869107310967133,0.870261919901917,0.871358356602682,0.872156059873563,0.856771266817723,0.857565570862892,0.909149946597918,0.916787788209252,0.938632061531309,0.977189611789899,1.00352112872075,1.02897176530036,1.03816342390782,1.08390531147061,1.14263797619989,1.17791916379368,1.19960245623251,1.21649308230887,1.23616396722782,1.27384430485459,1.27638826269422,1.28595066071541,1.28607016808634,1.32206538084803,1.33626162260793,1.42126719338932,1.48206361148462,1.54066346744234,1.55149569865137,1.55383145762561,1.55611502092844,1.55887061496981,1.56964343398952,1.57111045960731,1.59254740484394,1.63799350674567,1.64669251774468,1.64685093843946,1.696757731206,1.69598720606937,1.72023488685313,1.73024554812346,1.73665770006235,1.83258305933196,1.84124849134582,1.79580841881706,1.76921687767489,1.73760202452358,1.73506071339739,1.73381560674927,1.78061006224546,1.78059878410191,1.78304432855563,1.80450766198169,1.81575739297396,1.89427747968795,1.8897342603316,1.81701337492166,1.80204619754223,1.79510580078211,1.79462757376965,1.80972232154947,1.81416562515738,1.82395019356075,1.83351506815497,1.85950945856632,1.8989933527076,1.89226738866827,1.88689518198811,1.88295608957416,1.87660788199476,1.8687626093003,1.86552379296876,1.86222332588994,1.85808372905099,1.85397881603309,1.87692350684141,1.93264466608943,1.93254414037467,1.88132405465998,1.88027361396863,1.8695551365479,1.8689890602984,1.86501623796237,1.82231083879318,1.78557807042102,1.78421942711736,1.78604390144309,1.78579046297449,1.78301743163302,1.8206279576195,1.83917244816382,1.84559271114781,1.83117528219611,1.8078690728659,1.83614035183283
1.01133937608327,1.02628944927112,1.02868743510461,0.973508911178687,0.973317146444236,0.988869089386786,1.00171356984956,0.982049951382328,0.981025001425869,0.980882498865945,0.982134838821508,0.981944177735111,0.98142662361487,0.980655591924389,0.979582729236663,0.978470473339446,0.978042719295289,0.976897914207148,0.97539491229007,0.973719020324006,0.972453057719005,0.996364916985668,1.13752097300738,0.962360345590078,0.961841415060726,0.969149558482514,1.11814825874601,0.954190287071645,0.949367888375414,0.948998612489981,0.974454557620391,0.972395509833585,0.973039069210958,0.974252775972382,0.940644248355351,0.940817215719593,0.941215395818603,0.941637907486192,0.941885843943591,0.942234783649601,0.942232959006222,0.942242851859993,0.941837027539328,0.9385984822503,0.936469434313956,0.935654840623959,0.934385459698214,1.31581960300714,0.922970658292848,0.922210311155712,0.921717906150915,0.919974362197186,0.920496699432616,0.91944090197522,0.919114792839551,0.920055065233362,0.918871941131491,0.91266084376865,0.912994562666403,0.913097301286057,0.91519376337559,0.916206625817693,0.914436167650102,0.914270346561226,0.913499805561188,0.912263016416825,0.910631528092281,0.90992435335334,0.908304223416651,0.906925278830801,0.906638471061242,0.875248342243694,0.876999458799104,0.877499516921951,0.870384199502631,0.870249745272929,0.87071049174695,0.871002443147635,0.856821631580751,0.858978403808072,0.90636024159035,0.917782897729805,0.950350196262397,0.96823049407666,0.992941023712582,1.010311883089,1.01563269061151,1.05358196560346,1.14126568338887,1.16260760240174,1.19684360614115,1.20636976378339,1.2304053335733,1.3361912419632,1.24998249674565,1.28614689504716,1.29340106858337,1.35971011195081,1.36148303523122,1.41483115563047,1.53466794150644,1.53755956945019,1.54816422075865,1.54864254034034,1.54652276181623,1.5571634290012,1.59520844403523,1.56686879250667,1.58616988461528,1.61515533640225,1.64602436245074,1.64654053250339,1.7264025367119,1.69470316854798,1.69361281361837,1.6977748244513,1.69418482366888,1.8076822048039,1.84711958596623,1.80705353180745,1.72024290531543,1.722895871736,1.84942586143889,1.72994918962432,1.78157283249334,1.78039134116397,1.78820135638464,1.79796274427202,1.81462406735399,1.94458064384922,1.94468913928594,1.81913372303353,1.80946139721537,1.79578024604219,1.7970230937229,1.81028358681475,1.81157826361094,1.81135076361675,1.83250498368138,1.98778404273867,1.98688223168481,1.98621585275639,1.98433365876785,1.98337761958282,1.87695065294618,1.86867982890667,1.8604621398617,1.87567851152811,1.85328454262558,1.85345164645435,1.85350847762472,1.93835781526082,1.93554545023751,1.84227860521275,1.84177815973642,1.85493437671409,1.86406835995052,1.86196157333395,1.81693534753495,1.78602818795649,1.75624287113185,1.75560276783407,1.78768439685254,1.75936574639078,1.76914984183423,1.81806684531987,1.88626978931353,1.78385446413487,1.78301896964856,1.84072648837044
1.00878489874205,1.02482101155808,1.02495635761538,1.0238548559508,1.04634156185132,1.03450338266527,1.11673981054862,1.10465534349773,1.08266926913181,1.19422711032056,0.983932787179756,0.983643020350124,0.982644330799798,0.980999752116696,0.979902312159122,0.978940684329814,0.978260280300825,0.976718795823207,0.974259768796818,0.973536076722402,0.972758485443337,0.966649072228604,1.09499136998103,1.0238545373658,0.961950089026461,0.966310540690543,1.27520091399869,1.02784580598632,0.948686834713372,0.947625473053556,0.947127588514937,0.970569089409743,0.95938279760854,0.971992614880187,1.14059914479086,0.939496973131012,0.939249658772908,0.940033853626703,0.940634336138924,0.940599125294381,0.941710325998815,0.942437966780219,0.945105464882077,0.937997976174414,0.936977166470445,0.935683672360978,0.934508765490681,0.933686869889267,0.932685774687666,0.923294083246133,0.922966949945141,0.923635244681578,0.922634417106795,0.923499312584443,0.923293748600426,0.922749036731479,0.923795027122755,0.944019787292397,0.915756519772129,0.915596040493276,0.916808087428241,0.915388230231348,0.915061842901704,0.91374079802598,0.91355386351996,0.912412133579833,0.911457098586594,0.909302164189547,0.909300221161809,0.906785457605089,0.905767847856298,0.876418932138648,0.877874871336419,0.878681906262392,0.870777038606306,0.869671026292436,0.870582992078964,0.854999132850219,0.92367040008048,0.923574383704567,0.861025097522408,0.90682280477033,0.951591274309566,0.938529086510248,0.971605462009478,1.00311473767932,1.04697846891417,1.04229062447447,1.09312752287066,1.10616503945983,1.1750426634396,1.19917913552033,1.21280910684525,1.33320493713392,1.32626849471576,1.30996443008209,1.326343750064,1.36014260198183,1.32053570102589,1.41534882904656,1.48670991128381,1.5360006836877,1.53607290747164,1.54904238794072,1.52613388814763,1.5258080099726,1.52444304109862,1.56458075111627,1.56666515460511,1.70173950877663,1.64740895908101,1.64972966967706,1.65148896931741,1.65188227490751,1.70911378826025,1.7111935038032,1.70940406922586,1.70008648002796,1.69995778669402,1.77213268536522,1.71939003801806,1.7181855754376,1.71719124238813,1.71589084605126,1.73373552329373,1.76904118281477,1.76431318633089,1.73989815146478,1.84694700758658,1.93864135291333,1.88686283157916,1.82071047727326,1.80930606255799,1.90565191693078,1.80521317734273,1.80752682280289,1.81178282509224,1.81090325132078,1.99698984032567,1.79810958082616,1.78944771631757,1.98545315388375,1.98421740305784,1.98238204828349,2.02214236343665,1.91166301641792,2.02248124469064,1.83042814964369,1.87357831913078,1.8595031629255,1.9396380772123,1.93722304616762,1.93708806250619,1.84256701634484,1.8409770935923,1.83925062715641,1.84062709067118,1.82460173234262,1.81418993663301,1.80907438497348,1.82832736053169,1.82771235884936,1.75653034022379,1.75782376448466,1.75754636755799,1.79574889165554,1.78589115892561,1.78672275911132,1.84100418707567,1.8403766753643
1.01961791112955,1.01584233266247,1.02278907425655,1.02262162909909,1.0220540301923,1.02122602716942,1.02138824859314,1.03136300283542,1.05046613286695,1.24161401194538,1.06240228509447,0.981934907022519,0.981434282599994,0.980302798374691,0.980309595452975,0.978743648658334,0.978202605806505,0.975930877438388,0.974167275254877,0.967081427879446,0.967113604412608,0.960369843263005,0.958450953783409,0.957309405895151,0.956879068516543,0.954574911303355,0.953792976420063,0.951731158057234,0.946219461153038,0.945526674450488,0.942569236785469,0.940931444963055,0.939340442434878,0.93046714714293,0.931046787231507,0.937949549160595,0.968212112340641,0.939214007877202,0.938358459538901,0.938604669755791,0.940145767729364,0.94013014834963,0.937623927162208,0.937453572479366,0.936575641162044,0.935832391846833,0.935371112846178,0.933330113340307,0.932513996691118,0.930982089161655,0.924223183971957,0.923257742910399,0.924352489780677,0.923298999221687,0.92392485267572,0.923317313279433,0.923322685463179,0.9211612707578,0.918129295388055,0.91780661549725,0.916288184100135,0.917509268990579,0.915752962426811,0.916426286287577,0.912898672733287,0.912966603609935,0.911469772862304,0.909889965064343,0.90746005587862,0.906010277051629,0.933041881110493,0.897711867341833,0.924450298093951,0.903071872557136,0.903242222795269,0.867658392019421,0.867141139236199,0.850785297538839,0.851984591119677,0.854190476968593,0.856059535802881,0.880739230576148,0.93787970618476,0.977786015967311,0.969607240132375,0.995243083257029,1.00450065484159,1.01481770266271,1.07463025214827,1.14730693492556,1.15096720714763,1.16670114170378,1.2022190556309,1.22395848711792,1.25449929399996,1.26048175932769,1.26472424687294,1.29538160793122,1.29492349279887,1.41645538729353,1.40033974679711,1.48564620060417,1.45334889797351,1.46651826598511,1.53402004232281,1.52298908160174,1.50958663863326,1.50914251875872,1.54558112358783,1.60540465501461,1.60552389115685,1.65138020387068,1.66822437072378,1.67567390290322,1.71536028933634,1.71078036399701,1.71923854027408,1.69960924486154,1.70041944203744,1.75683596013642,1.71344611454668,1.71289784566441,1.7149280144156,1.77826389186223,1.77775498484663,1.77283656373346,1.77620787455466,1.73728752987352,1.84764987241063,1.81072378038042,1.80974269741501,1.81522365041133,1.81558170339302,1.81546088210734,1.82302467523843,1.80255461933774,1.79924580051008,1.78273154111925,1.78320917992438,1.79230730085151,1.79101937315196,1.78964409614241,1.78502022977401,1.81896351863564,1.83160711946204,1.86365965840533,1.83075060195014,1.83078768768624,1.83307961542983,1.84889683186988,1.8487560127969,1.93771619793364,1.93718604099679,1.95068527458886,1.83945055279703,1.83828759807061,1.82738613873435,1.81532225241469,1.79536684511635,1.79789886426269,1.79659425909186,1.75355467516554,1.75446440284743,1.75562306547039,1.80467413474689,1.79876276092271,1.81177615213742,1.82262648303312,1.821302170395,1.7730363686978
