1.40303, 1.39499, 1.42309, 1.42542, 1.26651, 1.21206, 1.21575, 1.21525, 1.18807, 1.12315, 1.12711, 1.25177, 1.26447, 1.29211, 1.21331, 1.2303, 1.17588, 1.17642, 1.17841, 1.18255, 1.19182, 1.20295, 1.1953, 1.35143, 1.21996, 1.21876, 1.22204, 1.2218, 1.22668, 1.08454, 1.08677, 1.15602, 1.10001, 1.09732, 1.09318, 1.08991, 1.07982, 1.07538, 1.07464, 1.07332, 1.07343, 1.07393, 1.07362, 1.0732, 1.06382, 1.0633, 1.05933, 1.12983, 1.40266, 1.06582, 1.06619, 1.06701, 1.06781, 1.07144, 1.07145, 1.07283, 1.07244, 1.07211, 1.0722, 1.06535, 1.06712, 1.07729, 1.07105, 1.06907, 1.06173, 1.06105, 1.06754, 1.067, 1.06877, 1.06658, 1.05766, 1.05697, 1.0615, 1.05788, 1.06564, 1.06617, 1.06662, 1.06655, 1.06664, 1.06599, 1.06467, 1.06353, 1.06514, 1.06306, 1.06265, 1.06145, 1.06167, 1.06156, 1.05943, 1.05852, 1.05859, 1.05617, 1.05629, 1.05267, 1.05121, 1.04946, 1.04845, 1.04673, 1.04626, 1.04578, 1.04414, 1.04366, 1.03887, 1.03904, 1.04083, 1.04137, 1.04115, 1.04119, 1.03802, 1.0385, 1.03634, 1.03597, 1.0358, 1.02409, 1.02661, 1.02834, 1.02855, 1.51289, 1.3371, 1.0273, 1.02779, 1.0255, 1.02568, 1.025, 1.01868, 1.02041, 1.02015, 1.01765, 1.0166, 1.01644, 1.01458, 1.0123, 1.01116, 1.01117, 1.00931, 1.01033, 1.00817, 1.00809, 1.00858, 1.00672, 1.00793, 1.00794, 1.00736, 1.00639, 1.00608, 1.00631, 1.0049, 1.00463, 1.00439, 1.00442, 1.00445, 1.00389, 0.999677, 1.00026, 0.998598, 0.999205, 0.995191, 0.994112, 0.993028, 0.991245, 0.99096, 0.990614, 0.988659, 0.989834, 0.988234, 0.98907, 0.988097, 0.988297, 0.984765, 0.985879, 0.981076, 0.982082, 1.08884, 1.103, 1.3158, 1.19075, 1.19162, 0.991721, 0.991652, 0.990548, 0.988867, 1.49216, 1.45478, 1.09499, 1.10708, 1.04351, 0.995882, 0.997346, 0.997765, 0.999909, 1.23712, 1.24624, 1.25381, 1.02613, 1.03564, 1.27818, 1.26427, 1.29185, 1.47009, 1.34787, 1.06767, 0.93882, 0.939619, 0.945541, 1.08702, 0.952868, 0.957499, 0.954433, 0.954253, 0.955678, 0.956591, 0.957331, 0.958032, 0.95894, 0.959254, 0.959285, 0.956649, 0.955803, 0.95495, 0.95359, 0.952629, 0.953983, 1.30397, 0.9784, 1.31499, 1.32401, 1.05793, 1.0609, 1.39394, 1.39246, 1.06612, 1.0769, 1.36213, 1.05369, 1.05154, 1.14561, 1.13136, 1.26131, 0.986455, 0.986363
1.15151, 1.15092, 1.15169, 1.22216, 1.12271, 1.31248, 1.22178, 1.12426, 1.12371, 1.12334, 1.12792, 1.12441, 1.12356, 1.11641, 1.19556, 1.19236, 1.18131, 1.16564, 1.16453, 1.1677, 1.32837, 1.19841, 1.14953, 1.21675, 1.37804, 1.39222, 1.1033, 1.07789, 1.07868, 1.08759, 1.08744, 1.08707, 1.1013, 1.10089, 1.09556, 1.09476, 1.08396, 1.08424, 1.07707, 1.07706, 1.07355, 1.07104, 1.06967, 1.06936, 1.0687, 1.0685, 1.06902, 1.07012, 1.07382, 1.07851, 1.06718, 1.07098, 1.0717, 1.07097, 1.07035, 1.07076, 1.07154, 1.07309, 1.0703, 1.06931, 1.06801, 1.06877, 1.06948, 1.06934, 1.06885, 1.07132, 1.07005, 1.06984, 1.07047, 1.07067, 1.06441, 1.0628, 1.06678, 1.06764, 1.06993, 1.06336, 1.06347, 1.06754, 1.06677, 1.06479, 1.06496, 1.06473, 1.06372, 1.06715, 1.06328, 1.063, 1.06164, 1.06006, 1.0573, 1.05689, 1.05596, 1.05528, 1.05276, 1.05128, 1.04933, 1.04894, 1.04701, 1.04737, 1.04898, 1.04928, 1.04584, 1.04396, 1.04435, 1.04092, 1.03999, 1.03897, 1.03841, 1.03964, 1.03597, 1.03532, 1.0335, 1.03244, 1.03121, 1.02941, 1.02992, 1.02582, 1.02728, 1.02597, 1.02516, 1.02421, 1.02335, 1.02181, 1.02031, 1.02097, 1.01936, 1.01991, 1.02006, 1.01582, 1.01349, 1.01202, 1.01204, 1.00706, 1.0067, 1.00984, 1.00776, 1.00677, 1.00536, 1.00526, 1.0047, 1.0046, 1.00437, 1.00675, 1.00684, 1.00515, 1.00349, 1.00315, 1.00219, 1.00351, 1.00124, 1.00122, 1.00043, 0.997818, 0.998249, 0.996249, 0.99564, 0.99212, 0.990679, 0.989708, 0.988486, 0.98842, 0.987217, 0.988615, 0.987792, 0.987753, 0.98849, 0.987898, 0.987368, 0.987126, 0.984456, 0.984068, 0.983064, 0.982137, 0.981028, 0.971648, 0.972919, 1.1294, 1.29606, 0.985212, 0.986423, 0.985548, 1.14582, 1.18111, 1.12366, 1.17808, 0.99113, 0.993676, 0.99516, 0.998917, 1.00087, 1.00227, 1.00255, 1.00167, 1.25224, 1.25784, 1.47807, 1.46414, 1.47216, 1.5159, 1.49218, 1.4989, 1.04975, 1.0623, 1.07467, 1.18779, 1.33542, 0.950257, 0.95134, 0.952644, 0.953782, 1.05464, 1.054, 1.10857, 1.24336, 1.11451, 1.12605, 1.26079, 1.13849, 1.07544, 1.08015, 1.2878, 1.15823, 1.29999, 1.08742, 1.05307, 1.05199, 1.13962, 1.10514, 1.03574, 1.10131, 1.10288, 1.06638, 1.36419, 1.07354, 1.3689, 1.08007, 0.989401, 0.991565, 0.993067, 0.985326, 0.986964
1.47849, 1.23062, 1.12907, 1.12518, 1.12272, 1.12116, 1.11735, 1.11735, 1.14683, 1.13034, 1.13016, 1.1209, 1.1197, 1.36383, 1.28043, 1.28116, 1.2707, 1.16565, 1.18075, 1.14341, 1.14456, 1.21478, 1.22281, 1.37882, 1.24891, 1.10279, 1.08354, 1.39539, 1.09145, 1.09145, 1.09227, 1.09116, 1.09384, 1.09352, 1.09101, 1.09125, 1.09316, 1.09463, 1.0955, 1.09094, 1.08408, 1.07358, 1.07424, 1.07705, 1.06996, 1.07014, 1.0699, 1.06991, 1.07116, 1.07283, 1.06844, 1.06892, 1.06898, 1.0692, 1.06973, 1.06982, 1.06898, 1.06978, 1.07037, 1.0692, 1.06838, 1.06877, 1.06778, 1.06967, 1.06767, 1.0669, 1.06849, 1.06745, 1.06838, 1.07095, 1.07059, 1.06658, 1.06544, 1.06631, 1.07016, 1.06134, 1.05465, 1.05586, 1.06178, 1.0616, 1.06064, 1.0608, 1.06054, 1.0593, 1.05944, 1.05838, 1.05814, 1.05732, 1.05633, 1.05594, 1.0539, 1.05353, 1.05351, 1.05255, 1.05279, 1.04956, 1.04885, 1.0491, 1.05041, 1.04337, 1.04446, 1.04288, 1.04175, 1.0397, 1.03639, 1.03449, 1.03538, 1.03332, 1.03227, 1.03226, 1.03192, 1.03146, 1.01987, 1.02799, 1.02663, 1.02583, 1.02636, 1.02512, 1.02596, 1.02495, 1.02519, 1.02018, 1.01609, 1.0161, 1.01552, 0.99758, 1.01343, 1.01103, 1.00977, 1.00787, 1.00723, 1.0068, 1.00628, 1.0058, 1.00499, 1.00401, 1.00461, 1.00388, 1.00427, 1.00416, 1.00316, 1.00305, 1.00223, 1.00002, 1.00279, 1.22552, 0.99889, 0.995282, 0.996665, 0.997725, 0.990852, 0.992317, 0.996551, 0.997802, 0.996589, 0.993822, 0.993326, 0.992316, 0.991854, 0.993373, 0.991946, 0.993037, 0.990764, 0.989854, 0.988805, 0.987242, 0.987455, 0.988562, 0.987157, 0.98403, 0.983171, 0.983664, 0.983463, 0.981928, 0.98005, 0.977841, 0.976676, 1.14999, 1.17716, 1.108, 1.12147, 1.23743, 1.18868, 1.0771, 1.1107, 1.17375, 0.999255, 1.00034, 1.00083, 1.00173, 1.00279, 1.0118, 1.26038, 1.14114, 1.25915, 1.27184, 1.28912, 1.29115, 1.28997, 1.17538, 1.30873, 1.05318, 0.973178, 0.973305, 0.998282, 1.66067, 1.29157, 1.54091, 0.973205, 0.97362, 0.983401, 0.983043, 0.98595, 1.08916, 1.58705, 1.05856, 1.03666, 1.07391, 0.976559, 0.97664, 0.976994, 0.976341, 0.974407, 1.0839, 1.08738, 1.09122, 1.09277, 1.05434, 1.05696, 1.08141, 1.0808, 1.06405, 1.0705, 1.15253, 1.15553, 0.988992, 0.99001, 0.990782, 0.994724, 1.21241
1.13879, 1.13775, 1.12781, 1.12654, 1.12584, 1.12492, 1.12547, 1.12667, 1.12405, 1.13225, 1.13232, 1.13174, 1.132, 1.11819, 1.29257, 1.16176, 1.13137, 1.17812, 1.12335, 1.32025, 1.62571, 1.15075, 1.24448, 1.0988, 1.0873, 1.10177, 1.11586, 1.09622, 1.4002, 1.32306, 1.09374, 1.09276, 1.09322, 1.30348, 1.15784, 1.10811, 1.10807, 1.10842, 1.10653, 1.10959, 1.11245, 1.07843, 1.07505, 1.07787, 1.0734, 1.07138, 1.07562, 1.07531, 1.07476, 1.07364, 1.07122, 1.06971, 1.07049, 1.06996, 1.07045, 1.07343, 1.06655, 1.06559, 1.0677, 1.06748, 1.06678, 1.06462, 1.06387, 1.06494, 1.06576, 1.06551, 1.06575, 1.06661, 1.06495, 1.06665, 1.06477, 1.06485, 1.06319, 1.06299, 1.06259, 1.06295, 1.06247, 1.06121, 1.06041, 1.06055, 1.05932, 1.05879, 1.0584, 1.05603, 1.05898, 1.05463, 1.05397, 1.05353, 1.05305, 1.05268, 1.05255, 1.05265, 1.05266, 1.05303, 1.05179, 1.04255, 1.04595, 1.04565, 1.04264, 1.0419, 1.04107, 1.04005, 1.037, 1.03701, 1.03435, 1.03291, 1.03212, 1.03086, 1.03064, 1.03051, 1.03076, 1.03002, 1.03027, 1.02969, 1.02861, 1.02886, 1.02611, 1.02534, 1.02389, 1.02213, 1.01943, 1.01946, 1.01658, 1.01634, 1.01391, 1.01134, 1.00943, 1.00827, 1.00613, 1.00661, 1.00764, 1.00796, 1.00766, 1.00711, 1.00504, 1.00392, 1.00173, 1.00252, 1.0019, 1.00123, 1.00005, 1.0009, 1.00086, 1.00104, 1.00088, 0.995941, 0.996362, 0.997623, 0.999617, 0.996843, 0.997505, 0.994469, 0.994947, 0.994767, 0.994322, 0.994679, 0.989695, 0.988375, 0.98735, 0.98761, 0.987359, 0.988117, 0.990672, 0.990679, 0.990946, 0.990543, 0.99025, 0.989121, 1.20887, 1.35523, 0.981592, 0.981198, 0.9798, 0.980227, 0.979724, 0.98048, 0.974288, 0.975082, 0.975917, 1.26743, 1.30777, 1.0148, 1.28627, 1.28428, 1.08511, 1.2154, 0.999604, 1.20509, 1.20631, 1.20959, 1.5403, 1.00439, 1.00521, 1.00968, 1.32709, 1.14533, 0.978595, 1.58941, 1.32636, 0.980132, 0.978129, 1.2997, 0.975457, 0.976553, 0.9782, 0.979583, 0.98354, 0.983738, 1.01712, 1.01818, 1.05282, 0.988712, 0.990172, 0.991191, 0.992043, 0.992938, 0.995512, 1.00885, 1.0808, 0.976882, 0.975373, 0.974137, 0.969727, 1.07038, 1.16402, 1.1644, 1.16444, 1.0813, 1.3424, 1.08426, 1.22898, 1.07204, 1.09276, 1.09725, 1.10127, 1.07472, 1.11256, 1.1252, 1.15334, 1.1118
1.1391, 1.13801, 1.13944, 1.13328, 1.12871, 1.12836, 1.12636, 1.12657, 1.12844, 1.12782, 1.11582, 1.12304, 1.12196, 1.11169, 1.10776, 1.10694, 1.10679, 1.11154, 1.10474, 1.102, 1.1003, 1.09863, 1.0855, 1.08477, 1.64756, 1.09735, 1.09785, 1.0989, 1.1001, 1.09811, 1.09595, 1.09457, 1.26947, 1.26396, 1.3395, 1.10592, 1.10724, 1.1072, 1.34015, 1.38809, 1.0934, 1.12686, 1.07781, 1.07766, 1.07706, 1.07682, 1.07643, 1.07434, 1.07395, 1.07332, 1.07301, 1.07071, 1.07075, 1.06915, 1.06875, 1.06848, 1.06759, 1.06848, 1.06696, 1.06685, 1.06531, 1.0665, 1.06631, 1.06575, 1.06745, 1.06638, 1.06641, 1.06622, 1.06559, 1.06605, 1.06647, 1.06753, 1.06506, 1.06802, 1.06428, 1.06464, 1.06251, 1.06272, 1.06006, 1.05963, 1.05908, 1.05881, 1.05833, 1.05821, 1.05738, 1.05663, 1.05512, 1.04673, 1.05527, 1.05446, 1.05379, 1.05142, 1.05047, 1.20304, 1.04288, 1.04569, 1.04304, 1.04277, 1.0398, 1.03883, 1.03731, 1.03835, 1.03649, 1.03579, 1.03431, 1.03112, 1.03161, 1.03123, 1.03231, 1.03189, 1.03191, 1.03185, 1.03146, 1.02901, 1.02795, 1.02531, 1.02492, 1.02348, 1.02126, 1.02014, 1.0176, 1.01596, 1.01575, 1.01211, 1.01175, 1.00904, 1.00817, 1.00537, 1.00596, 1.00505, 1.00278, 1.0033, 1.00377, 1.00408, 1.00315, 1.0053, 1.00616, 1.0043, 1.00413, 1.00375, 1.00398, 1.00338, 1.0013, 1.0007, 0.999924, 0.997561, 0.997279, 0.996073, 0.995518, 0.993743, 0.992164, 0.994376, 0.99071, 0.991011, 0.991042, 0.990669, 0.98792, 0.988288, 0.985557, 0.98752, 0.987406, 0.987716, 0.987096, 0.986939, 0.981769, 0.982648, 0.983564, 0.982691, 0.982471, 0.982155, 0.982182, 0.972865, 1.20914, 0.978393, 0.978321, 0.978674, 0.977814, 0.97561, 0.974488, 0.974389, 0.974046, 0.974741, 0.982977, 1.23248, 1.22992, 1.17193, 1.10827, 1.10959, 0.994272, 1.49837, 1.21918, 1.32946, 1.24095, 0.967968, 0.969051, 0.970553, 0.972221, 1.00387, 1.00569, 0.976576, 0.975798, 0.968817, 0.97228, 1.28397, 0.979712, 0.980525, 0.983323, 0.987059, 0.991264, 0.992924, 0.99393, 0.997547, 0.996041, 0.995272, 0.995436, 0.993801, 0.995855, 0.997358, 1.08529, 1.08723, 1.02258, 1.15688, 1.3997, 0.96653, 0.968184, 0.968515, 1.07413, 0.950732, 0.951228, 0.951806, 0.952663, 0.954716, 0.954381, 0.954187, 1.07922, 0.954555, 1.09548, 1.1057, 1.12827, 1.11947
1.13252, 1.13233, 1.12899, 1.12882, 1.12895, 1.12987, 1.12907, 1.129, 1.12444, 1.11816, 1.11838, 1.11872, 1.11507, 1.10985, 1.10915, 1.10919, 1.10819, 1.10604, 1.10224, 1.10189, 1.10172, 1.08904, 1.08728, 1.09512, 1.09792, 1.09764, 1.09784, 1.09792, 1.09731, 1.09723, 1.09468, 1.09124, 1.09238, 1.09237, 1.09087, 1.08962, 1.08834, 1.08602, 1.08642, 1.08804, 1.09794, 1.09482, 1.09496, 1.09525, 1.07721, 1.07595, 1.0753, 1.07354, 1.07254, 1.07344, 1.07357, 1.07256, 1.0708, 1.06718, 1.06871, 1.0664, 1.06567, 1.0644, 1.06357, 1.06492, 1.1051, 1.18038, 1.06784, 1.08886, 1.15968, 1.07062, 1.07071, 1.07248, 1.07162, 1.07358, 1.07333, 1.0704, 1.07042, 1.06291, 1.06286, 1.06204, 1.06157, 1.05936, 1.05974, 1.05951, 1.05954, 1.05983, 1.06014, 1.06712, 1.07062, 1.05999, 1.06055, 1.06062, 1.05613, 1.0542, 1.22571, 1.22999, 1.04352, 1.04343, 1.04352, 1.04297, 1.04304, 1.0408, 1.03835, 1.03764, 1.03751, 1.03885, 1.03604, 1.03415, 1.02445, 1.02279, 1.18104, 1.02887, 1.02864, 1.02901, 1.02881, 1.0289, 1.02889, 1.02814, 1.02617, 1.02561, 1.02393, 1.02257, 1.02166, 1.02217, 1.01833, 1.01586, 1.01492, 1.01243, 1.01068, 1.01143, 1.00832, 1.00779, 1.00628, 1.03244, 1.00462, 1.00401, 1.00487, 1.00543, 1.00511, 1.00258, 1.00431, 1.00455, 1.00487, 1.00243, 1.00233, 1.00437, 1.00234, 1.00299, 0.999923, 0.997457, 0.99489, 0.994723, 0.993294, 0.986995, 0.990376, 0.99005, 0.989119, 0.988015, 0.986849, 0.987113, 0.987363, 0.98601, 0.985411, 0.986872, 0.986199, 0.986844, 0.985232, 0.985382, 1.22158, 0.963208, 1.29513, 0.980277, 0.980961, 0.980949, 0.980434, 0.977516, 0.973991, 0.973718, 0.973219, 1.25338, 0.977105, 0.976027, 0.976548, 0.976001, 0.974293, 0.975175, 0.976541, 0.976929, 1.16103, 1.18225, 1.06825, 0.973974, 0.972863, 0.960505, 0.960899, 0.963686, 0.96397, 0.965475, 1.25036, 0.968854, 1.16092, 0.965293, 0.96941, 0.964546, 0.968139, 0.968658, 0.969999, 0.973968, 0.975504, 0.980234, 0.982475, 1.09884, 0.998792, 0.996748, 0.997417, 0.997364, 0.995647, 0.996763, 0.995591, 0.993096, 0.995121, 0.996514, 0.996736, 0.996434, 1.01122, 1.02212, 1.02251, 1.05406, 1.03626, 1.11008, 1.08837, 1.06018, 0.951001, 0.954803, 0.952424, 0.953941, 0.954074, 0.955583, 0.954818, 1.07476, 1.09504, 0.971973, 1.54363, 1.18516
1.13663, 1.13561, 1.13342, 1.13267, 1.13255, 1.13278, 1.12839, 1.11711, 1.1212, 1.11779, 1.11719, 1.11234, 1.11177, 1.11035, 1.10988, 1.10715, 1.10672, 1.10344, 1.10505, 1.10086, 1.10004, 1.09854, 1.09798, 1.09779, 1.0978, 1.09667, 1.09537, 1.09574, 1.09415, 1.09193, 1.09223, 1.09135, 1.0901, 1.08716, 1.08766, 1.08764, 1.08525, 1.08429, 1.08516, 1.08541, 1.08904, 1.08835, 1.09337, 1.09443, 1.06642, 1.06646, 1.07216, 1.0716, 1.07323, 1.07343, 1.07417, 1.2676, 1.17499, 1.28223, 1.23021, 1.10829, 1.10937, 1.11101, 1.11227, 1.11254, 1.11238, 1.22656, 1.26854, 1.22339, 1.22222, 1.45117, 1.07586, 1.0736, 1.08093, 1.07075, 1.06819, 1.06041, 1.06147, 1.07664, 1.0776, 1.0761, 1.07496, 1.07451, 1.07418, 1.07096, 1.06922, 1.05802, 1.05895, 1.05971, 1.05957, 1.06122, 1.06217, 1.0614, 1.05714, 1.05269, 1.04658, 1.04634, 1.04483, 1.04338, 1.04223, 1.04174, 1.04219, 1.04227, 1.21613, 1.30015, 1.03406, 1.03466, 1.03323, 1.0319, 1.0313, 1.02626, 1.02521, 1.02548, 1.02828, 1.0289, 1.032, 1.02971, 1.02876, 1.02742, 1.02819, 1.02381, 1.02442, 1.02198, 1.02205, 1.01963, 1.01564, 1.01571, 1.01479, 1.01535, 1.01877, 1.01848, 1.0279, 1.0259, 1.02848, 1.02757, 1.02588, 1.02701, 0.999702, 1.00046, 1.00059, 1.00159, 0.999595, 1.0004, 0.998531, 1.00009, 1.00103, 1.00231, 0.996399, 0.994844, 0.995101, 1.37405, 0.989785, 0.994012, 0.98812, 0.988298, 0.98912, 0.988075, 0.98598, 0.986545, 0.986069, 0.985536, 0.984743, 0.984423, 0.985838, 0.984831, 0.984737, 0.984053, 0.983633, 0.98367, 0.968497, 0.961714, 0.991017, 1.27763, 0.982802, 0.983782, 0.986733, 0.9829, 0.974998, 0.974156, 0.972007, 0.972011, 0.969728, 0.973701, 0.973482, 0.975786, 0.976481, 0.976562, 0.977183, 0.974952, 0.973298, 0.973903, 0.974795, 0.975871, 1.12498, 1.13342, 1.13765, 0.963199, 0.964338, 1.04995, 1.03352, 1.42373, 1.15891, 0.953514, 0.956006, 0.963366, 0.967509, 0.967481, 0.968466, 0.973587, 0.984199, 0.98194, 1.35472, 1.00816, 1.00694, 0.994772, 0.996137, 0.996367, 0.995988, 0.996491, 0.994913, 0.987387, 0.987125, 1.0169, 1.01726, 1.00802, 1.00896, 1.01569, 1.01807, 1.02697, 1.29964, 1.01854, 1.05211, 1.02598, 1.27528, 1.09837, 0.960835, 0.959443, 0.957646, 0.957641, 0.957331, 1.08035, 1.05329, 1.05305, 1.37206, 1.31704
1.14134, 1.14087, 1.14066, 1.45366, 1.13207, 1.13135, 1.12663, 1.12436, 1.1232, 1.30484, 1.12114, 1.4092, 1.14636, 1.11505, 1.42413, 1.11107, 1.11552, 1.09463, 1.10221, 1.10112, 1.10093, 1.09722, 1.09676, 1.09663, 1.09467, 1.09427, 1.09482, 1.092, 1.09228, 1.09206, 1.09092, 1.09088, 1.09, 1.08966, 1.08853, 1.08761, 1.08866, 1.08739, 1.0888, 1.08886, 1.0894, 1.09523, 1.09475, 1.1949, 1.22848, 1.23006, 1.25446, 1.08084, 1.08084, 1.08197, 1.09094, 1.09221, 1.09688, 1.43646, 1.21984, 1.06167, 1.12639, 1.1711, 1.64232, 1.06159, 1.20318, 1.1374, 1.06419, 1.06355, 1.14381, 1.11587, 1.09051, 1.08421, 1.0823, 1.09396, 1.07762, 1.07687, 1.07673, 1.07739, 1.09926, 1.10908, 1.11429, 1.11513, 1.05948, 1.0587, 1.05695, 1.05725, 1.05572, 1.05866, 1.05671, 1.05576, 1.05405, 1.05192, 1.05237, 1.04697, 1.04661, 1.04501, 1.04424, 1.04141, 1.04044, 1.03917, 1.04147, 1.04211, 1.04087, 1.03332, 1.03378, 1.03434, 1.02823, 1.02492, 1.02501, 1.0244, 1.02951, 1.03303, 1.03549, 1.03528, 1.03429, 1.0324, 1.2198, 1.22717, 1.02246, 1.02186, 1.02246, 1.01827, 1.018, 1.01804, 1.01739, 1.0183, 1.0163, 1.01609, 1.02134, 1.02061, 1.02156, 1.02521, 1.02586, 1.02851, 1.02951, 1.03683, 1.05894, 1.00097, 1.00101, 0.999783, 0.997511, 0.996989, 0.998443, 1.001, 0.998596, 1.00143, 1.00112, 0.99392, 0.990957, 0.991119, 0.987768, 0.988842, 0.988225, 0.987683, 0.986656, 0.987211, 0.985071, 0.984608, 0.98635, 0.987175, 0.986693, 0.981537, 0.984197, 0.983913, 0.983097, 0.983898, 0.981548, 0.983143, 0.977348, 0.978484, 1.22959, 1.05924, 0.982995, 0.985436, 0.986636, 1.48891, 0.975999, 0.977012, 0.975932, 0.973307, 0.967282, 0.967644, 0.970212, 0.971267, 0.973678, 0.973585, 0.976802, 0.976914, 0.973987, 0.97355, 0.972308, 0.970192, 0.971209, 0.969477, 0.966423, 0.971124, 0.956028, 0.956468, 1.06404, 0.959725, 0.958105, 0.958786, 0.9638, 1.17383, 0.971129, 1.17889, 0.985341, 0.989026, 1.36415, 1.37027, 1.03875, 1.00224, 0.992298, 0.994473, 0.995426, 1.00625, 1.01189, 1.0156, 1.01432, 0.985362, 0.986506, 1.03548, 1.03297, 1.01107, 1.0113, 1.01066, 1.00881, 1.02812, 1.01487, 1.0219, 1.25029, 0.960448, 0.961375, 1.01572, 0.955755, 0.954818, 0.956706, 1.00841, 1.3414, 0.998232, 1.00756, 1.02137, 1.21767, 1.41029
1.14001, 1.14242, 1.14166, 1.13611, 1.13003, 1.12755, 1.1262, 1.12721, 1.08521, 1.08658, 1.08537, 1.08429, 1.12526, 1.08935, 1.11612, 1.16023, 1.11922, 1.10218, 1.10117, 1.10123, 1.09885, 1.09781, 1.09734, 1.09567, 1.09699, 1.09743, 1.09765, 1.10057, 1.10313, 1.10434, 1.10468, 1.10606, 1.10687, 1.11124, 1.11178, 1.11677, 1.11964, 1.12213, 1.1343, 1.13571, 1.1117, 1.11143, 1.10999, 1.31907, 1.31898, 1.0884, 1.0802, 1.07674, 1.07697, 1.07896, 1.25362, 1.07342, 1.06665, 1.06676, 1.06427, 1.06431, 1.06493, 1.0629, 1.06418, 1.0643, 1.06415, 1.06307, 1.06298, 1.0633, 1.06646, 1.06489, 1.06323, 1.06282, 1.06097, 1.06317, 1.06305, 1.06059, 1.0599, 1.06192, 1.05935, 1.05543, 1.05511, 1.05686, 1.05309, 1.05258, 1.05325, 1.05386, 1.05537, 1.05649, 1.05731, 1.058, 1.06302, 1.06055, 1.19338, 1.21612, 1.04365, 1.04138, 1.04191, 1.04124, 1.0428, 1.35125, 1.04577, 1.04562, 1.04227, 1.03981, 1.03227, 1.02678, 1.0256, 1.02634, 1.03667, 1.03552, 1.03396, 1.03334, 1.0336, 1.19552, 1.20576, 1.02692, 1.01663, 1.02902, 1.01688, 1.01818, 1.02008, 1.01861, 1.01194, 1.01142, 1.01066, 1.05687, 1.19477, 1.02432, 1.0251, 1.0263, 1.02511, 1.02946, 1.02992, 1.03093, 1.03154, 1.03185, 1.04432, 0.991473, 0.99554, 0.993685, 0.992292, 0.992419, 0.992474, 0.993045, 0.994028, 0.994385, 0.99088, 0.988346, 0.987548, 0.987559, 0.987319, 0.987415, 0.986323, 0.987591, 0.987871, 0.989109, 0.990605, 0.991291, 0.980612, 0.980678, 0.980963, 0.980868, 0.981993, 0.982609, 0.98392, 0.977771, 0.976384, 0.974184, 0.976421, 0.976799, 0.979268, 1.182, 0.981288, 0.971386, 0.97365, 0.973091, 0.97286, 0.973476, 0.971033, 0.970899, 0.969797, 0.969603, 0.968883, 0.973051, 0.973977, 0.974284, 0.97538, 0.973869, 0.970518, 0.970301, 0.966746, 0.965936, 0.966257, 0.96445, 0.9628, 0.959523, 0.959695, 0.959716, 0.959238, 0.961878, 0.961534, 0.962256, 0.967619, 0.967917, 0.969483, 1.6575, 1.13696, 0.980734, 1.06037, 1.19695, 1.20048, 1.41231, 1.33047, 1.02179, 1.024, 1.16287, 1.16325, 1.02647, 1.23942, 1.08151, 1.07357, 1.08517, 1.08873, 1.07433, 1.0648, 1.0562, 1.05545, 0.973466, 0.970987, 1.11952, 0.95853, 0.959718, 0.959719, 0.961404, 0.956322, 0.956426, 0.955167, 1.23662, 1.24356, 0.940498, 0.936648, 0.9364, 0.933916, 0.931275
1.13664, 1.38282, 1.13101, 1.12884, 1.12791, 1.1282, 1.12399, 1.39877, 1.09322, 1.09358, 1.27714, 1.34362, 1.54401, 1.38424, 1.10947, 1.10722, 1.10539, 1.10419, 1.10304, 1.10156, 1.10104, 1.09983, 1.09787, 1.09778, 1.0988, 1.09869, 1.0995, 1.10157, 1.10154, 1.10684, 1.10972, 1.11059, 1.10979, 1.10301, 1.20623, 1.20625, 1.1262, 1.12583, 1.12577, 1.12381, 1.12607, 1.31597, 1.53503, 1.1228, 1.20309, 1.08633, 1.08048, 1.07674, 1.07699, 1.07775, 1.0797, 1.07715, 1.07776, 1.07353, 1.06916, 1.06892, 1.06795, 1.06726, 1.06637, 1.06637, 1.06558, 1.06533, 1.06339, 1.06309, 1.06132, 1.06052, 1.06147, 1.05863, 1.05898, 1.06156, 1.06219, 1.06303, 1.05834, 1.05986, 1.05946, 1.05826, 1.0687, 1.06853, 1.06933, 1.06929, 1.06988, 1.06992, 1.20407, 1.06816, 1.06607, 1.06831, 1.07129, 1.07149, 1.07071, 1.20242, 1.09146, 1.05278, 1.05258, 1.05234, 1.0517, 1.04973, 1.04927, 1.04205, 1.0392, 1.03859, 1.03648, 1.03853, 1.03697, 1.03649, 1.03694, 1.0374, 1.02667, 1.02516, 1.02576, 1.02499, 1.02347, 1.02237, 1.02367, 1.01534, 1.02087, 1.01894, 1.01736, 1.01464, 1.01255, 1.01104, 1.01044, 1.00813, 1.00801, 1.00774, 1.00754, 1.00617, 1.00137, 0.999108, 0.997479, 0.997772, 0.991517, 0.991046, 0.993634, 0.99293, 0.991932, 0.992841, 0.989413, 0.988751, 0.987899, 0.989344, 0.989738, 0.990519, 0.991935, 0.992458, 0.985571, 0.984118, 0.981818, 0.983049, 0.981003, 0.981678, 0.982462, 0.983201, 0.980369, 0.98039, 0.981034, 0.980219, 0.979219, 0.979072, 0.978075, 0.977576, 0.976733, 0.976288, 0.976857, 0.977118, 0.976867, 0.976995, 0.975896, 0.974415, 0.974228, 0.97117, 0.973136, 1.32626, 0.970747, 0.971372, 0.969612, 0.968905, 0.968021, 0.968034, 0.968492, 0.970532, 0.973373, 0.974744, 0.971784, 0.971565, 0.970458, 0.970341, 0.969489, 0.966682, 0.966418, 0.963858, 0.963925, 0.962793, 0.966101, 0.965641, 0.965211, 0.963888, 0.964389, 0.964958, 0.964283, 1.24321, 0.969592, 1.13787, 1.16505, 1.1388, 1.38693, 1.06834, 1.22239, 1.13796, 1.14465, 1.1489, 1.14819, 0.954949, 0.956397, 0.95942, 0.960212, 0.96117, 0.960249, 0.960928, 1.0546, 1.06378, 0.963133, 0.963124, 0.963938, 0.962429, 0.959474, 0.955965, 0.95439, 0.954433, 0.953694, 0.952926, 0.95614, 1.15729, 0.947013, 0.937025, 0.936068, 0.936417, 0.937019, 0.936056, 0.956518, 1.2562
1.1361, 1.13141, 1.12969, 1.12755, 1.12629, 1.12619, 1.12554, 1.12412, 1.52766, 1.41643, 1.40858, 1.43343, 1.1118, 1.11061, 1.10804, 1.10783, 1.1069, 1.10547, 1.10509, 1.10599, 1.10435, 1.10437, 1.10447, 1.10523, 1.10661, 1.10795, 1.10965, 1.1131, 1.11703, 1.12054, 1.12248, 1.12522, 1.24426, 1.11751, 1.11701, 1.11653, 1.11495, 1.11819, 1.11359, 1.11356, 1.23039, 1.1323, 1.21191, 1.21223, 1.17207, 1.07871, 1.07596, 1.0753, 1.07595, 1.07577, 1.07715, 1.07775, 1.07355, 1.07251, 1.07045, 1.06988, 1.06958, 1.06689, 1.06582, 1.06393, 1.0655, 1.06532, 1.06449, 1.06322, 1.06291, 1.06237, 1.06179, 1.06835, 1.06953, 1.0702, 1.0698, 1.06921, 1.06836, 1.06932, 1.07219, 1.07205, 1.07062, 1.07018, 1.0693, 1.06867, 1.06891, 1.06925, 1.07055, 1.0727, 1.07189, 1.07119, 1.17976, 1.19225, 1.21198, 1.04933, 1.08162, 1.37623, 1.26867, 1.23377, 1.0458, 1.04247, 1.04047, 1.04144, 1.04058, 1.04008, 1.0391, 1.03793, 1.0251, 1.02659, 1.02591, 1.02757, 1.02829, 1.02837, 1.02647, 1.03043, 1.03737, 1.11168, 1.07182, 1.08051, 1.02057, 1.0198, 1.01806, 1.01434, 1.01058, 1.01499, 1.01028, 1.00859, 1.00833, 1.00796, 1.00888, 1.00915, 1.13193, 1.00237, 0.99034, 0.990819, 0.990638, 1.03589, 0.994353, 0.984439, 1.00484, 0.979627, 0.98052, 0.987528, 0.988321, 0.990776, 0.991375, 0.989467, 0.972883, 0.97414, 0.989732, 0.989078, 0.978653, 0.979937, 0.979579, 0.981715, 0.983012, 0.982644, 0.981525, 0.980123, 0.978519, 0.979154, 0.980588, 0.97383, 0.97202, 0.973794, 0.97395, 0.97319, 0.974206, 0.9741, 1.3098, 1.29193, 1.11908, 1.12118, 1.30473, 1.31156, 1.47504, 1.25406, 0.959408, 0.961948, 0.961259, 0.961633, 0.964001, 0.964959, 0.966956, 1.27352, 1.27499, 0.975657, 0.973172, 0.972305, 0.972341, 0.971757, 0.971343, 0.97113, 0.973207, 0.973834, 0.9716, 0.97253, 0.976841, 0.973331, 0.97286, 1.1781, 1.18947, 0.960787, 0.9617, 0.963654, 0.960988, 0.961918, 0.966931, 0.967242, 0.966489, 0.964379, 0.963722, 0.958095, 0.955098, 0.955875, 0.954898, 0.954699, 0.955721, 0.95597, 0.957275, 0.957912, 0.956517, 0.958341, 0.960326, 0.959844, 0.956651, 0.95822, 0.960383, 0.960628, 0.957993, 0.957055, 0.956784, 0.951361, 0.952273, 0.953105, 0.951016, 0.951794, 0.952345, 0.946624, 0.946408, 0.991781, 0.944077, 0.945017, 0.944454, 0.944632
1.13268, 1.13188, 1.13004, 1.12871, 1.12709, 1.12782, 1.12426, 1.12187, 1.1205, 1.11919, 1.11641, 1.11468, 1.11453, 1.11189, 1.11073, 1.11026, 1.10895, 1.10724, 1.10653, 1.10544, 1.10481, 1.10464, 1.10463, 1.10561, 1.11005, 1.11232, 1.11503, 1.56971, 1.12285, 1.12384, 1.12444, 1.36086, 1.36944, 1.37096, 1.2666, 1.63435, 1.33423, 1.08808, 1.08158, 1.0818, 1.08033, 1.24726, 1.25377, 1.07726, 1.07364, 1.06978, 1.06839, 1.07024, 1.3233, 1.07673, 1.07816, 1.07744, 1.07704, 1.0742, 1.07361, 1.07161, 1.07054, 1.06876, 1.06804, 1.06603, 1.06581, 1.06531, 1.06061, 1.06315, 1.06423, 1.0665, 1.06687, 1.06633, 1.06673, 1.06674, 1.06923, 1.07132, 1.07307, 1.06359, 1.06321, 1.06297, 1.05777, 1.05757, 1.05647, 1.05515, 1.05444, 1.15424, 1.29993, 1.05654, 1.05739, 1.05702, 1.04318, 1.04231, 1.04259, 1.04111, 1.04204, 1.04016, 1.03795, 1.0354, 1.03951, 1.0398, 1.03858, 1.0371, 1.20471, 1.2054, 1.02851, 1.02848, 1.02685, 1.02626, 1.02748, 1.02929, 1.03805, 1.04316, 1.04481, 1.04443, 1.17468, 1.09769, 1.04042, 1.08489, 1.02886, 1.0292, 1.01524, 1.01262, 1.02008, 1.00385, 1.04075, 1.00456, 1.00122, 0.99785, 0.988312, 0.987845, 0.988126, 0.987112, 0.987112, 0.974751, 0.973326, 0.974128, 0.961265, 0.961156, 1.01112, 0.959894, 0.960272, 0.961172, 0.952767, 1.13102, 0.984112, 0.994624, 0.968454, 0.970395, 0.976609, 1.03986, 1.00943, 1.01453, 0.97092, 0.983075, 0.983372, 0.983542, 0.980947, 0.974847, 0.975035, 0.97437, 0.97229, 0.969514, 0.969982, 0.975356, 0.976606, 0.976759, 0.967166, 0.96485, 0.960582, 0.960132, 0.962339, 0.961819, 0.960764, 0.960302, 0.959892, 0.959163, 0.958781, 1.06437, 1.12314, 0.970806, 1.12774, 1.27177, 1.40883, 1.12905, 1.30028, 1.11411, 1.15705, 1.15417, 1.16728, 1.1425, 1.31374, 0.978728, 0.984089, 0.984317, 0.985028, 0.983788, 0.98101, 0.976025, 0.978034, 0.977702, 1.10599, 1.08211, 0.963415, 0.95686, 0.956824, 0.957728, 0.957316, 0.959302, 0.959525, 0.958014, 0.958712, 0.957495, 0.956712, 0.956822, 0.957055, 0.959078, 0.959256, 0.959718, 0.960059, 0.960183, 0.959851, 0.959875, 0.959522, 0.959866, 0.959603, 0.959404, 0.958868, 0.956213, 0.955721, 0.956279, 0.956339, 0.957604, 0.956425, 0.952762, 0.952277, 0.952471, 0.950373, 0.950394, 0.950815, 0.951104, 0.949242, 0.949861, 0.950322, 0.94429
1.1335, 1.13249, 1.13222, 1.12906, 1.12838, 1.12682, 1.12552, 1.12277, 1.12233, 1.1219, 1.12007, 1.11737, 1.11507, 1.11249, 1.11137, 1.11167, 1.10807, 1.10781, 1.1062, 1.10554, 1.10593, 1.10621, 1.10733, 1.10833, 1.11381, 1.3061, 1.30112, 1.12552, 1.12666, 1.42172, 1.37648, 1.27282, 1.08276, 1.08154, 1.08123, 1.08466, 1.22048, 1.23891, 1.07999, 1.07558, 1.07604, 1.34936, 1.074, 1.06204, 1.0611, 1.0593, 1.07031, 1.07169, 1.0738, 1.07207, 1.07187, 1.07127, 1.07369, 1.06936, 1.06992, 1.06781, 1.06905, 1.06443, 1.06452, 1.06531, 1.06559, 1.06556, 1.0654, 1.0651, 1.06579, 1.06611, 1.06553, 1.06684, 1.067, 1.06773, 1.06753, 1.07396, 1.06194, 1.05987, 1.05941, 1.05727, 1.05381, 1.05459, 1.05181, 1.05176, 1.05057, 1.04826, 1.04434, 1.04086, 1.04162, 1.17822, 1.19512, 1.20833, 1.04379, 1.04257, 1.04223, 1.0422, 1.03694, 1.03629, 1.04104, 1.04157, 1.03794, 1.03317, 1.02871, 1.02843, 1.02893, 1.02556, 1.02601, 1.02787, 1.0294, 1.05361, 1.05945, 1.23595, 1.08114, 1.08124, 1.03418, 1.02105, 1.02131, 1.01874, 1.02565, 1.01257, 1.0126, 1.01483, 1.02208, 0.999616, 1.03991, 1.05708, 1.02843, 1.03099, 1.03048, 1.03564, 1.02207, 1.01421, 1.01222, 1.02145, 1.0226, 1.02535, 1.01143, 0.998963, 1.01429, 0.998842, 1.0091, 1.01006, 0.978808, 0.956717, 0.965694, 0.967072, 0.968539, 0.971421, 0.994576, 0.962904, 0.95086, 0.959501, 0.960343, 1.12225, 0.950263, 1.20026, 1.19152, 0.972805, 0.970942, 0.970495, 0.971324, 0.967573, 0.972722, 0.973243, 0.975404, 1.0695, 1.28557, 1.25182, 1.08755, 1.34025, 1.0187, 1.02498, 1.10619, 1.2739, 1.27433, 1.19804, 1.10312, 1.10495, 1.10534, 1.10623, 1.11546, 1.25492, 1.42383, 1.10525, 1.10733, 1.17259, 1.12216, 1.04889, 1.10898, 1.13394, 1.13512, 1.14767, 0.983808, 0.984075, 0.983873, 0.980022, 0.979871, 0.979793, 0.978789, 0.977206, 0.972782, 0.968818, 0.9691, 1.19976, 1.22952, 0.956217, 0.956213, 0.957152, 0.956474, 0.958591, 0.957988, 0.956335, 0.955738, 0.956747, 0.95654, 0.95796, 0.958748, 0.96074, 0.96258, 0.965228, 1.31619, 1.28293, 0.962437, 0.96294, 0.9608, 0.960279, 0.96061, 0.959736, 0.959788, 0.960174, 0.960495, 0.9596, 0.959474, 0.956484, 0.95571, 0.956179, 0.955488, 0.954924, 0.953381, 0.949952, 0.949147, 0.950083, 0.95045, 0.953081
1.13718, 1.13323, 1.13266, 1.13006, 1.12968, 1.12909, 1.12653, 1.12315, 1.12294, 1.12228, 1.11903, 1.11687, 1.1151, 1.11341, 1.11035, 1.10857, 1.10773, 1.107, 1.1085, 1.10943, 1.11143, 1.11382, 1.11355, 1.31913, 1.12345, 1.32997, 1.16067, 1.36819, 1.15055, 1.09809, 1.08772, 1.08209, 1.08228, 1.07896, 1.08098, 1.0723, 1.06674, 1.06658, 1.1167, 1.068, 1.06363, 1.0619, 1.06163, 1.063, 1.07332, 1.07331, 1.07347, 1.0706, 1.07005, 1.06724, 1.06649, 1.06669, 1.0671, 1.06671, 1.06765, 1.06848, 1.05952, 1.06294, 1.06315, 1.07115, 1.07708, 1.07728, 1.53914, 1.34778, 1.33426, 1.05854, 1.05951, 1.0618, 1.06178, 1.06352, 1.0635, 1.06356, 1.06303, 1.05734, 1.05683, 1.05387, 1.05151, 1.05076, 1.04653, 1.04336, 1.04266, 1.04207, 1.04041, 1.0389, 1.03853, 1.03857, 1.03802, 1.03809, 1.03789, 1.03912, 1.03948, 1.04087, 1.04055, 1.03958, 1.03977, 1.03665, 1.03281, 1.0328, 1.02859, 1.02774, 1.10811, 1.02067, 1.07511, 1.08368, 1.00975, 1.0592, 1.019, 1.09571, 1.08772, 1.12486, 1.06399, 1.05369, 1.05893, 1.05001, 1.02514, 1.03478, 1.07061, 1.05558, 1.04787, 1.04258, 1.04364, 1.06381, 1.07526, 1.08058, 1.07487, 1.07752, 1.09131, 1.09835, 1.0461, 1.03113, 1.03672, 1.0631, 1.06289, 1.05335, 1.08858, 1.08872, 1.06046, 1.02225, 1.07055, 1.04583, 1.04894, 1.04626, 1.00096, 1.00094, 1.01561, 1.01622, 0.958403, 0.959529, 1.2153, 0.966493, 1.07125, 0.955494, 0.999464, 0.971347, 0.972344, 1.12755, 1.14223, 1.11206, 1.07009, 1.16462, 1.16307, 1.09447, 1.40764, 1.07461, 1.29305, 1.40314, 1.18598, 1.28915, 1.52684, 1.29251, 1.29566, 1.2949, 1.70343, 1.45115, 1.28215, 1.27755, 1.06965, 1.07064, 1.07059, 1.21516, 1.44969, 1.21542, 1.21017, 1.20618, 1.39518, 1.12015, 1.12671, 1.06944, 1.12972, 0.984801, 0.987038, 0.984895, 0.983606, 0.984245, 0.982835, 0.97976, 1.11658, 0.969683, 0.97355, 0.96404, 0.964351, 0.963204, 0.963084, 0.962851, 0.962658, 0.962343, 0.96101, 0.960066, 1.1639, 1.05624, 1.0983, 1.19362, 1.45119, 1.45358, 0.962022, 0.968706, 0.969782, 0.96999, 0.969768, 0.968659, 0.968216, 0.96095, 0.96212, 0.960403, 0.959603, 0.960627, 0.960514, 0.958479, 0.959295, 0.957172, 0.95502, 0.953688, 0.954442, 0.955133, 0.955954, 0.953279, 0.953059, 0.953069, 0.953986, 0.954058
1.1367, 1.13653, 1.13349, 1.13256, 1.1309, 1.13042, 1.12861, 1.12565, 1.12326, 1.12211, 1.11932, 1.1164, 1.11512, 1.11264, 1.10939, 1.10885, 1.1083, 1.10927, 1.11152, 1.11164, 1.10934, 1.10022, 1.09887, 1.09417, 1.09498, 1.09342, 1.09241, 1.09248, 1.08886, 1.08747, 1.08572, 1.08402, 1.07679, 1.07406, 1.07307, 1.07141, 1.07219, 1.07077, 1.0698, 1.07013, 1.07023, 1.07261, 1.07164, 1.07152, 1.07213, 1.0724, 1.06106, 1.06009, 1.0629, 1.06455, 1.0648, 1.06695, 1.06664, 1.06515, 1.06701, 1.06741, 1.06772, 1.06982, 1.07108, 1.07639, 1.07822, 1.07859, 1.07855, 1.12293, 1.05666, 1.05743, 1.05943, 1.05951, 1.05939, 1.05642, 1.05656, 1.05522, 1.05542, 1.05331, 1.05088, 1.0498, 1.04665, 1.04625, 1.04468, 1.04354, 1.04224, 1.03969, 1.03992, 1.03845, 1.03894, 1.04052, 1.04019, 1.03585, 1.03567, 1.03757, 1.03574, 1.0356, 1.03556, 1.03532, 1.03386, 1.03306, 1.15872, 1.02699, 1.01546, 1.07394, 1.01533, 1.01508, 1.01141, 1.01225, 1.06174, 1.09804, 1.09491, 1.10977, 1.11189, 1.13992, 1.14753, 1.11493, 1.15999, 1.1252, 1.07126, 1.11486, 1.09022, 1.11817, 1.10952, 1.16728, 1.16884, 1.12883, 1.13287, 1.16796, 1.15308, 1.11756, 1.1331, 1.15879, 1.10539, 1.08572, 1.12323, 1.08889, 1.14087, 1.10186, 1.09327, 1.10739, 1.15411, 1.11892, 1.09512, 1.05659, 1.08929, 1.08659, 1.0643, 1.10765, 1.02339, 1.10553, 1.0021, 0.977182, 0.978346, 0.980192, 1.13625, 1.1295, 0.973136, 0.97387, 1.13731, 1.13367, 1.13311, 1.12312, 1.12628, 1.02231, 1.17439, 1.26149, 1.07264, 1.0718, 1.07203, 1.14114, 1.14174, 1.41103, 1.41196, 1.42049, 1.42712, 1.17182, 1.43093, 1.06899, 1.07131, 1.07163, 1.07127, 1.37738, 1.37227, 1.13635, 1.14737, 1.0709, 1.19247, 1.05685, 1.0742, 1.0786, 1.09085, 0.995849, 0.997162, 0.996979, 0.986263, 0.985924, 0.984938, 0.982309, 0.982513, 0.978958, 0.97602, 0.976723, 0.972782, 0.9729, 0.959956, 0.959667, 0.96002, 0.960003, 0.957592, 0.957936, 0.958107, 1.12264, 1.113, 1.09796, 1.13566, 0.968264, 0.967408, 0.969755, 0.969995, 0.970429, 0.970811, 0.969064, 0.968087, 0.968292, 0.967013, 0.971918, 1.25379, 0.959396, 0.958986, 0.959607, 0.955905, 0.954053, 0.954679, 0.958693, 0.954253, 0.954036, 0.952643, 0.955212, 0.955955, 0.950654, 0.951678, 0.952498, 0.952173, 0.952262
1.13578, 1.13631, 1.13475, 1.13346, 1.13096, 1.13047, 1.1307, 1.12663, 1.12037, 1.12153, 1.1161, 1.11376, 1.11339, 1.11066, 1.10943, 1.11447, 1.11875, 1.11845, 1.11027, 1.10471, 1.10147, 1.09293, 1.09554, 1.09525, 1.09387, 1.09108, 1.08916, 1.08859, 1.08775, 1.08248, 1.08152, 1.07905, 1.07821, 1.07707, 1.07186, 1.07002, 1.06976, 1.06929, 1.06981, 1.06996, 1.07047, 1.0705, 1.07168, 1.07168, 1.0705, 1.06988, 1.06513, 1.06402, 1.06446, 1.06684, 1.06613, 1.06673, 1.06791, 1.06658, 1.06689, 1.06644, 1.06986, 1.06582, 1.28486, 1.82656, 1.21138, 1.27445, 1.358, 1.81598, 1.3526, 1.35882, 1.06005, 1.06074, 1.05911, 1.0577, 1.10228, 1.05027, 1.04994, 1.05015, 1.0489, 1.04695, 1.04489, 1.0442, 1.04299, 1.04227, 1.04225, 1.13627, 1.0493, 1.05116, 1.05066, 1.03989, 1.03874, 1.03698, 1.03663, 1.03485, 1.03536, 1.03436, 1.03529, 1.03371, 1.03429, 1.02367, 1.02156, 1.03807, 1.01663, 1.04284, 1.04296, 1.06165, 1.06302, 1.06395, 1.07321, 1.09615, 1.14118, 1.1436, 1.21696, 1.20828, 1.25435, 1.21896, 1.32949, 1.16131, 1.20221, 1.20317, 1.182, 1.18135, 1.14243, 1.14311, 1.18746, 1.24963, 1.22293, 1.19489, 1.17971, 1.17813, 1.17648, 1.20209, 1.13911, 1.13882, 1.19493, 1.18206, 1.18076, 1.20891, 1.27947, 1.26453, 1.1777, 1.15659, 1.13063, 1.10249, 1.11833, 1.10178, 1.09434, 1.08851, 1.07794, 1.05755, 1.07224, 1.12911, 1.04922, 1.02238, 1.12913, 1.02666, 1.00878, 1.12418, 1.25429, 1.03369, 1.02042, 1.02084, 1.17043, 1.02312, 1.02228, 1.12544, 1.1783, 1.12414, 1.30442, 1.1347, 1.13498, 1.13656, 1.05689, 1.05717, 1.32312, 1.06389, 1.06559, 1.07118, 1.43441, 1.21716, 1.32077, 1.13377, 1.05691, 1.216, 1.05023, 1.23593, 1.04289, 1.04012, 1.04033, 1.00761, 1.10721, 1.00093, 1.12278, 0.988016, 0.988106, 0.980746, 0.981011, 0.9803, 0.980364, 0.980117, 0.975559, 0.974366, 0.972708, 0.970134, 0.969782, 0.960752, 0.960348, 0.960119, 0.962988, 0.96294, 0.961513, 0.963021, 0.961051, 0.962221, 0.966668, 1.1182, 0.966498, 0.968159, 1.24594, 1.28212, 1.05365, 1.22148, 1.44351, 0.956353, 0.958065, 0.95674, 0.956304, 0.95751, 0.958847, 0.959107, 0.959571, 0.960169, 0.960229, 0.959992, 0.955325, 0.952809, 0.952749, 0.95423, 0.953329, 0.950381, 0.948934, 0.949081, 0.94987, 0.950345
1.13691, 1.13494, 1.13213, 1.13213, 1.12872, 1.12816, 1.12859, 1.12722, 1.12254, 1.12146, 1.11902, 1.11639, 1.11377, 1.11081, 1.11124, 1.11621, 1.11706, 1.10742, 1.10538, 1.10077, 1.09838, 1.09329, 1.09348, 1.09159, 1.08967, 1.08878, 1.08608, 1.08385, 1.08353, 1.0837, 1.08379, 1.08277, 1.07941, 1.08091, 1.07297, 1.07325, 1.07243, 1.07001, 1.06976, 1.07063, 1.07075, 1.07085, 1.07464, 1.07506, 1.07472, 1.0662, 1.06695, 1.0699, 1.06997, 1.07006, 1.07019, 1.06952, 1.06784, 1.06611, 1.06521, 1.06547, 1.06536, 1.05991, 1.05974, 1.06098, 1.06286, 1.06091, 1.18417, 1.07236, 1.07582, 1.07713, 1.07755, 1.07893, 1.05066, 1.04687, 1.04622, 1.04594, 1.04352, 1.04302, 1.04296, 1.04176, 1.04207, 1.04132, 1.0427, 1.04241, 1.04446, 1.04448, 1.04062, 1.04066, 1.04522, 1.03434, 1.03282, 1.03199, 1.03226, 1.02881, 1.02846, 1.03143, 1.03662, 1.06847, 1.02705, 1.0249, 1.03217, 1.0644, 1.06685, 1.06803, 1.08596, 1.09155, 1.10272, 1.15062, 1.15449, 1.25982, 1.38614, 1.37707, 1.42637, 1.39285, 1.39124, 1.41533, 1.43069, 1.4335, 1.28443, 1.2387, 1.21679, 1.22525, 1.20834, 1.2089, 1.26108, 1.25205, 1.28526, 1.26325, 1.26332, 1.21221, 1.21151, 1.22249, 1.21986, 1.18314, 1.19191, 1.23629, 1.23632, 1.24081, 1.3182, 1.33379, 1.26783, 1.18582, 1.19114, 1.17861, 1.17764, 1.17946, 1.16128, 1.17776, 1.19702, 1.22007, 1.25446, 1.22636, 1.16389, 1.10847, 1.07193, 1.0722, 1.04311, 1.05987, 1.05262, 1.05809, 1.0572, 1.01256, 1.01364, 1.01833, 1.02126, 1.022, 1.12424, 1.12636, 1.07905, 1.00518, 1.16496, 1.12571, 1.12977, 1.12996, 1.13665, 1.14201, 1.47805, 1.26739, 1.46138, 1.161, 1.16995, 1.15817, 1.0218, 1.17805, 1.19122, 1.52533, 1.10745, 1.08453, 1.12036, 0.994345, 0.994212, 0.989357, 0.989111, 0.989287, 1.46711, 1.47106, 0.980657, 0.980168, 0.976815, 0.978141, 0.977849, 0.976642, 0.976013, 0.972062, 0.971846, 0.967354, 0.960608, 0.961211, 0.963971, 0.964856, 0.965414, 0.966246, 0.965348, 0.964109, 0.964509, 0.964408, 0.962727, 0.961935, 0.960227, 0.96046, 0.948373, 0.949461, 0.954152, 0.9563, 0.957683, 0.954683, 0.957593, 0.959314, 0.955895, 0.955829, 0.957008, 0.956858, 0.955904, 0.954163, 0.953308, 0.951267, 0.951097, 0.949625, 0.949733, 0.949106, 0.950527, 0.945331, 0.946052, 0.944849
1.13895, 1.13753, 1.13554, 1.13344, 1.13095, 1.12921, 1.12934, 1.12659, 1.12292, 1.1213, 1.11984, 1.11862, 1.11487, 1.11474, 1.1147, 1.11261, 1.1127, 1.10265, 1.10183, 1.09765, 1.09614, 1.09309, 1.09288, 1.09068, 1.0899, 1.08849, 1.08459, 1.08432, 1.08421, 1.08083, 1.08022, 1.0794, 1.07795, 1.07692, 1.07699, 1.0744, 1.07374, 1.07385, 1.07431, 1.07388, 1.07262, 1.07352, 1.07348, 1.07469, 1.07663, 1.07803, 1.08064, 1.07536, 1.07462, 1.07267, 1.07076, 1.07073, 1.07256, 1.06465, 1.06358, 1.06359, 1.06317, 1.06272, 1.06203, 1.06297, 1.06334, 1.06072, 1.0581, 1.05815, 1.05086, 1.04927, 1.04787, 1.0478, 1.04361, 1.04338, 1.04177, 1.04224, 1.03752, 1.03748, 1.03816, 1.03859, 1.0382, 1.04236, 1.04319, 1.03986, 1.03978, 1.03911, 1.03864, 1.03795, 1.03673, 1.03405, 1.03013, 1.02334, 1.02161, 1.10854, 1.017, 1.01522, 1.02711, 1.02833, 1.02742, 1.0666, 1.15885, 1.1174, 1.11554, 1.15335, 1.18162, 1.18204, 1.20735, 1.27454, 1.34702, 1.38921, 1.40672, 1.40964, 1.40295, 1.40352, 1.46753, 1.45598, 1.55887, 1.52125, 1.43042, 1.37095, 1.34692, 1.3452, 1.31789, 1.29648, 1.29601, 1.3863, 1.41758, 1.41719, 1.45438, 1.3203, 1.31845, 1.3464, 1.24069, 1.24182, 1.25635, 1.2482, 1.27186, 1.35513, 1.36143, 1.37979, 1.31335, 1.31693, 1.21477, 1.23027, 1.22749, 1.24099, 1.32951, 1.30039, 1.39224, 1.39878, 1.35488, 1.35488, 1.21383, 1.18491, 1.15051, 1.10586, 1.10576, 1.14303, 1.17667, 1.24491, 1.0968, 1.07912, 1.06482, 1.05628, 1.04643, 1.13408, 1.10875, 1.04226, 1.04263, 1.00168, 1.01656, 1.09219, 1.102, 1.10448, 1.02773, 1.02906, 1.11073, 1.23268, 1.03394, 1.1391, 1.05081, 1.17792, 1.17771, 1.17771, 1.22724, 1.07085, 1.13086, 0.997769, 0.997769, 0.995417, 0.994027, 0.995136, 0.997212, 1.16845, 1.11653, 0.985162, 0.975203, 0.974358, 0.975132, 0.975041, 0.97411, 0.973464, 0.96994, 0.970289, 0.96955, 0.967311, 0.967519, 0.967337, 0.966344, 0.965093, 0.966403, 0.966444, 0.965287, 0.964446, 0.964568, 0.963891, 0.962818, 0.961219, 1.46865, 0.947853, 0.948244, 0.949355, 0.955245, 0.958461, 0.961096, 0.961395, 0.961143, 0.959632, 0.957751, 0.957683, 0.95434, 0.953231, 0.955927, 0.953119, 0.954286, 0.953186, 1.49004, 1.53654, 0.958067, 0.958005, 0.956658, 1.2569, 0.951227, 1.34476
1.1432, 1.14064, 1.13761, 1.13239, 1.13221, 1.13067, 1.13061, 1.12783, 1.12572, 1.12467, 1.12015, 1.11694, 1.11393, 1.11393, 1.11374, 1.11454, 1.10373, 1.10394, 1.09919, 1.09976, 1.0977, 1.09683, 1.09167, 1.08905, 1.08756, 1.08494, 1.08501, 1.0837, 1.0825, 1.08239, 1.08228, 1.08065, 1.07883, 1.07778, 1.07824, 1.08161, 1.08203, 1.07958, 1.08402, 1.08192, 1.08462, 1.08528, 1.08835, 1.08634, 1.0823, 1.07827, 1.07543, 1.07943, 1.07727, 1.07549, 1.07309, 1.07199, 1.07369, 1.07416, 1.07067, 1.06576, 1.06505, 1.06235, 1.05989, 1.05838, 1.05793, 1.05676, 1.05416, 1.05322, 1.05146, 1.05014, 1.04823, 1.04689, 1.04262, 1.04018, 1.03801, 1.03564, 1.03508, 1.03505, 1.03549, 1.0354, 1.03457, 1.0348, 1.03597, 1.03517, 1.03691, 1.03016, 1.03541, 1.03454, 1.03886, 1.0316, 1.07015, 1.04708, 1.00845, 1.01024, 1.01612, 1.0607, 1.09141, 1.04972, 1.07747, 1.08735, 1.10698, 1.14134, 1.15859, 1.26154, 1.25354, 1.3058, 1.30658, 1.39602, 1.38171, 1.41701, 1.39849, 1.45136, 1.39327, 1.43518, 1.45026, 1.55397, 1.53129, 1.53013, 1.53358, 1.49426, 1.43506, 1.44612, 1.36993, 1.36598, 1.39915, 1.44357, 1.57134, 1.53821, 1.5376, 1.46118, 1.38661, 1.38668, 1.31273, 1.30679, 1.30538, 1.31979, 1.32021, 1.41534, 1.46822, 1.40593, 1.34755, 1.35424, 1.31196, 1.31679, 1.31665, 1.31276, 1.34635, 1.5096, 1.41982, 1.39734, 1.40156, 1.3369, 1.27823, 1.2601, 1.17537, 1.15447, 1.15647, 1.15278, 1.23316, 1.15171, 1.1691, 1.16912, 1.12531, 1.13566, 1.07441, 1.04527, 1.14669, 1.1468, 0.998463, 0.983706, 0.983982, 0.989514, 1.17016, 1.09729, 1.18118, 0.996556, 0.998223, 1.12033, 1.04814, 1.03387, 0.976458, 0.980497, 0.98731, 1.17384, 0.993934, 1.06278, 0.99975, 0.995445, 0.995247, 0.994196, 0.995459, 0.994788, 1.1687, 1.1701, 1.11807, 1.06396, 0.97192, 0.971495, 0.96954, 0.968339, 0.968604, 0.9674, 0.965921, 0.963072, 0.963398, 0.963766, 0.963989, 0.965441, 0.966029, 0.966067, 0.963336, 0.963594, 0.959212, 0.959374, 0.960686, 0.960574, 0.964637, 0.942731, 0.945681, 0.947189, 1.51642, 1.52305, 1.03658, 0.961433, 0.963201, 0.963363, 0.962725, 0.959832, 0.957533, 0.955347, 0.956496, 0.95688, 0.958875, 0.959993, 0.960631, 0.960773, 0.960162, 0.959449, 0.95943, 0.958698, 0.958309, 0.954613, 0.95327, 0.952052
1.14016, 1.13864, 1.13803, 1.13028, 1.13126, 1.13021, 1.12779, 1.12707, 1.12689, 1.12357, 1.12136, 1.29967, 1.11329, 1.11215, 1.10983, 1.10681, 1.10584, 1.1008, 1.09943, 1.10197, 1.10468, 1.1058, 1.47661, 1.40633, 1.37593, 1.6143, 1.43403, 1.61976, 1.17146, 1.48647, 1.1808, 1.10127, 1.24277, 1.24697, 1.49522, 1.61834, 1.25705, 1.58928, 1.09828, 1.1007, 1.08926, 1.0893, 1.08883, 1.08036, 1.0785, 1.07731, 1.07494, 1.07365, 1.07346, 1.07452, 1.07033, 1.06998, 1.07052, 1.07214, 1.0651, 1.06299, 1.06314, 1.0595, 1.05344, 1.05648, 1.05353, 1.05302, 1.052, 1.04996, 1.04924, 1.04829, 1.04753, 1.05314, 1.05444, 1.0678, 1.07148, 1.07685, 1.07735, 1.07777, 1.16868, 1.05324, 1.0312, 1.03087, 1.0304, 1.02669, 1.02904, 1.03234, 1.03175, 1.03303, 1.03362, 1.0423, 1.01494, 1.01806, 1.01702, 1.04589, 1.07814, 1.11162, 1.15103, 1.14962, 1.17487, 1.17094, 1.17943, 1.24173, 1.29673, 1.31192, 1.44894, 1.40866, 1.59798, 1.70013, 1.39872, 1.39833, 1.3986, 1.42341, 1.40996, 1.42932, 1.44021, 1.5819, 1.57611, 1.54386, 1.55189, 1.53754, 1.46445, 1.46755, 1.46545, 1.47292, 1.52776, 1.5496, 1.61955, 1.62499, 1.62411, 1.45006, 1.39217, 1.36844, 1.33918, 1.33709, 1.36145, 1.39578, 1.44846, 1.48115, 1.50555, 1.51219, 1.46808, 1.41253, 1.41051, 1.34863, 1.38107, 1.38274, 1.39743, 1.49614, 1.50196, 1.50729, 1.42741, 1.36201, 1.36493, 1.28548, 1.23745, 1.23547, 1.22399, 1.23042, 1.29639, 1.2922, 1.27388, 1.24832, 1.21541, 1.11842, 1.06693, 1.0511, 1.04054, 1.03603, 1.09288, 1.00481, 0.998248, 0.983943, 0.983146, 1.02512, 0.96728, 0.99111, 0.973533, 0.980062, 0.97887, 0.977181, 0.97828, 1.15708, 0.98886, 0.990791, 0.995408, 1.0741, 0.986916, 0.987255, 1.26391, 1.2124, 1.11253, 1.19517, 1.13207, 1.19626, 0.96766, 1.36705, 0.96461, 0.963931, 0.962622, 0.963038, 0.954027, 0.956871, 0.959564, 0.960067, 0.959926, 0.960148, 0.95834, 0.960418, 0.961593, 0.962825, 0.962818, 0.963078, 0.95759, 0.955928, 0.956303, 0.957772, 0.9578, 0.947074, 0.946879, 1.08202, 1.12204, 0.960023, 0.960159, 0.961083, 0.962605, 0.963114, 0.959886, 0.957652, 0.955292, 0.956209, 0.95741, 1.37861, 0.95652, 0.959774, 0.960306, 1.22775, 1.27057, 1.45678, 1.50627, 1.23426, 0.949575, 0.949618, 0.949486, 0.948836
1.14064, 1.13926, 1.13575, 1.13196, 1.13269, 1.12888, 1.12647, 1.12512, 1.12201, 1.11656, 1.11505, 1.11172, 1.11009, 1.1107, 1.10766, 1.10561, 1.10516, 1.10497, 1.1016, 1.09884, 1.09444, 1.11364, 1.34329, 1.12746, 1.13221, 1.13213, 1.12568, 1.13186, 1.12964, 1.24502, 1.11421, 1.1188, 1.24374, 1.13174, 1.13552, 1.13491, 1.2703, 1.27456, 1.09269, 1.08543, 1.08046, 1.08007, 1.08019, 1.07946, 1.07808, 1.07596, 1.07417, 1.07418, 1.07553, 1.07589, 1.07521, 1.07153, 1.07074, 1.06961, 1.06879, 1.06989, 1.07044, 1.05684, 1.0559, 1.05134, 1.05339, 1.05321, 1.05224, 1.05122, 1.04976, 1.04809, 1.04667, 1.04633, 1.05359, 1.67845, 1.06362, 1.06772, 1.06765, 1.06761, 1.3798, 1.05412, 1.05566, 1.05645, 1.1896, 1.05297, 1.04906, 1.04493, 1.03472, 1.03355, 1.03929, 1.02976, 1.0142, 1.01807, 1.03298, 1.07863, 1.08939, 1.13675, 1.19356, 1.21105, 1.26778, 1.31921, 1.32656, 1.3353, 1.44211, 1.39108, 1.44507, 1.63121, 1.54001, 1.56794, 1.54804, 1.52575, 1.45058, 1.45311, 1.47236, 1.46737, 1.47896, 1.57836, 1.57772, 1.59274, 1.54836, 1.5278, 1.50277, 1.48492, 1.49663, 1.50064, 1.54849, 1.6057, 0.0040539, 1.7823, 1.62588, 1.6439, 1.4606, 1.43641, 1.40079, 1.40424, 1.41738, 1.43073, 1.48873, 1.58967, 1.58256, 1.58205, 1.50094, 1.46044, 1.41044, 1.39556, 1.39678, 1.43444, 1.47879, 1.47939, 1.52614, 1.50292, 1.43879, 1.39646, 1.35929, 1.3158, 1.35306, 1.34477, 1.36448, 1.42592, 1.37834, 1.37905, 1.33777, 1.25871, 1.15974, 1.13392, 1.09838, 1.08149, 1.08372, 1.06498, 1.06032, 1.14276, 1.01874, 1.01682, 1.00527, 0.95613, 0.956185, 0.959582, 0.960343, 0.960207, 1.27116, 0.980997, 0.980592, 0.981158, 1.07661, 1.07559, 1.10673, 1.12739, 1.05978, 1.28781, 0.969783, 0.970294, 0.966016, 0.965459, 1.19603, 1.19826, 0.95922, 0.958679, 0.959482, 0.96041, 0.96087, 0.961548, 0.958596, 0.95757, 0.957783, 0.958646, 0.960087, 0.960536, 0.962556, 0.963552, 0.96392, 0.965931, 0.966769, 0.965102, 0.960175, 0.961626, 0.962599, 0.961702, 1.23371, 0.948733, 0.949294, 0.954345, 1.16785, 0.957757, 0.959401, 0.959611, 0.96134, 0.96023, 0.959379, 0.95953, 0.956638, 0.956624, 0.952153, 0.951848, 0.951887, 0.950078, 0.949114, 0.948257, 0.94796, 0.948154, 0.947277, 0.945789, 0.946926, 0.947529, 0.948372, 0.946016
1.13881, 1.13586, 1.20533, 1.12937, 1.12934, 1.12856, 1.12449, 1.1214, 1.1208, 1.12059, 1.23617, 1.11151, 1.11173, 1.10488, 1.10628, 1.10569, 1.10582, 1.10629, 1.09715, 1.09687, 1.09167, 1.09467, 1.40969, 1.26464, 1.25917, 1.12629, 1.13043, 1.13165, 1.12874, 1.29834, 1.11461, 1.23583, 1.24278, 1.24496, 1.13569, 1.13512, 1.3483, 1.32066, 1.1162, 1.08119, 1.07897, 1.07809, 1.07687, 1.07604, 1.07333, 1.07115, 1.06979, 1.07015, 1.06929, 1.06925, 1.0692, 1.06777, 1.06822, 1.0687, 1.0696, 1.07199, 1.53026, 1.04559, 1.04708, 1.048, 1.05333, 1.04752, 1.04857, 1.04482, 1.04429, 1.0444, 1.04312, 1.043, 1.04323, 1.04385, 1.03751, 1.0374, 1.03606, 1.03366, 1.03343, 1.03891, 1.039, 1.0282, 1.02917, 1.02904, 1.02226, 1.02986, 1.0258, 1.02355, 1.02505, 1.0251, 1.06208, 1.11279, 1.11746, 1.11823, 1.15924, 1.23791, 1.28483, 1.35324, 1.36373, 1.42102, 1.42302, 1.42725, 1.44855, 1.46731, 1.64121, 1.70904, 1.59926, 1.59335, 1.53696, 1.53317, 1.54349, 1.49849, 1.54445, 1.54161, 1.89289, 1.73036, 1.73138, 1.66907, 1.56397, 1.55671, 1.5873, 1.52278, 1.51496, 1.53199, 1.56501, 1.71374, 1.84191, 1.77833, 1.77718, 1.63545, 1.62149, 1.48955, 1.4681, 1.47166, 1.47236, 1.46537, 1.59552, 1.59556, 1.67488, 1.56578, 1.55824, 1.49002, 1.46326, 1.46248, 1.45498, 1.46253, 1.47591, 1.61483, 1.61413, 1.58106, 1.48787, 1.39858, 1.39274, 1.37966, 1.33149, 1.35753, 1.4047, 1.40572, 1.40676, 1.36149, 1.37136, 1.25645, 1.20527, 1.2119, 1.1542, 1.12587, 1.12828, 1.11529, 1.14068, 1.0645, 1.04922, 1.01012, 1.04776, 0.977981, 0.961376, 0.963115, 0.963526, 0.956124, 0.961422, 0.962467, 0.975237, 1.12191, 0.974434, 1.09858, 0.962026, 0.963159, 0.962877, 0.963201, 0.961323, 0.960366, 0.959354, 0.957841, 0.954982, 1.24047, 1.25349, 0.983814, 0.979776, 0.980298, 1.03932, 1.36115, 1.33744, 1.38029, 1.39791, 1.24035, 0.980994, 1.22029, 1.28625, 1.23945, 0.974338, 0.97317, 0.967409, 0.968681, 0.969008, 0.962371, 0.961112, 0.96151, 0.961532, 0.953494, 0.953351, 0.9539, 0.947952, 0.950593, 0.959708, 0.960187, 0.961533, 0.959499, 0.955194, 0.953455, 0.952639, 0.950353, 0.950044, 0.950688, 0.951085, 0.95068, 0.950619, 0.950483, 0.953013, 0.950183, 0.951111, 0.949068, 0.949493, 0.949276, 0.94962, 0.946476
1.12816, 1.12766, 1.12755, 1.12772, 1.12771, 1.12749, 1.12643, 1.11658, 1.11223, 1.14901, 1.10009, 1.09892, 1.21029, 1.09176, 1.09378, 1.09528, 1.09733, 1.09366, 1.09366, 1.08761, 1.08729, 1.08905, 1.09039, 1.09152, 1.24653, 1.2504, 1.09798, 1.25692, 1.45299, 1.26432, 1.28744, 1.28794, 1.28555, 1.28246, 1.14258, 1.32332, 1.35502, 1.07735, 1.07449, 1.07467, 1.0719, 1.07133, 1.07012, 1.0691, 1.06791, 1.06743, 1.06702, 1.06596, 1.06702, 1.0635, 1.06378, 1.06598, 1.06412, 1.05697, 1.05771, 1.05694, 1.04952, 1.04757, 1.04585, 1.04247, 1.04263, 1.04034, 1.04107, 1.04223, 1.04324, 1.04456, 1.0442, 1.04454, 1.04421, 1.04378, 1.04251, 1.03907, 1.03925, 1.04036, 1.04029, 1.03815, 1.0311, 1.03091, 1.0356, 1.03315, 1.01658, 1.01757, 1.01702, 1.01586, 1.03925, 1.06145, 1.06791, 1.12475, 1.13784, 1.16306, 1.19952, 1.3243, 1.35995, 1.41227, 1.49073, 1.47222, 1.55922, 1.51973, 1.49267, 1.49233, 1.51399, 1.60644, 1.62682, 1.66012, 1.66416, 1.54487, 1.52676, 1.52728, 1.54064, 1.56253, 1.62437, 1.71658, 1.66439, 1.67831, 1.66483, 1.60027, 1.54889, 1.55578, 1.54594, 1.66514, 1.56949, 1.6585, 1.759, 1.78304, 1.78027, 1.61659, 1.62292, 1.55813, 1.50244, 1.49811, 1.50681, 1.53438, 1.59863, 1.65822, 1.66995, 1.71494, 1.58621, 1.56895, 1.4973, 1.49595, 1.5058, 1.49967, 1.54385, 1.55869, 1.55659, 1.58583, 1.55198, 1.44646, 1.43605, 1.46548, 1.43697, 1.45377, 1.45716, 1.47413, 1.45648, 1.41024, 1.34065, 1.28546, 1.23706, 1.22264, 1.21186, 1.18798, 1.20595, 1.22001, 1.17791, 1.16778, 1.16934, 1.16913, 1.0205, 1.01809, 1.10051, 0.965154, 1.16325, 0.948894, 0.945241, 0.944818, 0.97145, 1.0382, 1.1373, 0.964752, 0.963832, 0.961025, 0.961562, 0.963249, 1.07693, 1.08382, 1.21534, 1.17922, 0.984186, 1.28411, 1.02109, 1.31705, 1.02667, 1.32529, 1.03982, 1.01299, 1.04453, 1.05341, 1.05204, 1.22393, 0.991567, 1.22904, 1.17212, 0.963873, 0.964114, 0.963299, 0.963661, 0.96481, 0.964605, 0.963312, 0.961579, 0.9617, 0.962906, 0.954841, 0.956576, 0.959287, 0.958285, 0.956019, 0.956414, 0.960333, 0.962729, 0.958946, 0.957454, 0.954445, 0.95172, 0.952311, 0.953141, 0.953156, 0.952888, 0.953747, 0.953159, 0.953609, 0.953923, 0.953891, 0.952603, 0.952292, 0.948985, 0.9486, 0.949255, 0.947538
1.14579, 1.3606, 1.15285, 1.30237, 1.13319, 1.13577, 1.13878, 1.13804, 1.13723, 1.14118, 1.14087, 1.14007, 1.14337, 1.3527, 1.0895, 1.08928, 1.08762, 1.08757, 1.08729, 1.19557, 1.19678, 1.19667, 1.20669, 1.20296, 1.20551, 1.20841, 1.21659, 1.24316, 1.22986, 1.25305, 1.10579, 1.09949, 1.27707, 1.08595, 1.08601, 1.0779, 1.07401, 1.07019, 1.07029, 1.06901, 1.06553, 1.06613, 1.06542, 1.06521, 1.06547, 1.06483, 1.06644, 1.07, 1.07013, 1.06735, 1.06563, 1.06354, 1.06292, 1.06347, 1.06427, 1.06377, 1.52066, 1.56874, 1.55467, 1.04457, 1.0489, 1.04991, 1.0502, 1.05212, 1.05202, 1.05266, 1.05299, 1.05028, 1.04443, 1.04316, 1.04227, 1.0447, 1.03594, 1.03557, 1.03632, 1.02844, 1.03369, 1.03525, 1.03492, 1.03307, 1.01106, 1.00884, 1.057, 1.07724, 1.08098, 1.13666, 1.16589, 1.13119, 1.25798, 1.25192, 1.3468, 1.42049, 1.52911, 1.60151, 1.61932, 1.57813, 1.57892, 1.53449, 1.51964, 1.51976, 1.53113, 1.69295, 1.69226, 1.70118, 1.70113, 1.64691, 1.54419, 1.53316, 1.56835, 1.69629, 1.67802, 1.66886, 1.62006, 1.76759, 1.72618, 1.60579, 1.57103, 1.58152, 1.58851, 1.57787, 1.61351, 1.7407, 1.74387, 1.74378, 1.75007, 1.64555, 1.60602, 1.59633, 1.58871, 1.5725, 1.57077, 1.57546, 1.67795, 1.71818, 1.73304, 1.78138, 1.78026, 1.59532, 1.57276, 1.56902, 1.54329, 1.56953, 1.59577, 1.59252, 1.61653, 1.61616, 1.53965, 1.52974, 1.52723, 1.5243, 1.47472, 1.52289, 1.52737, 1.71455, 1.51699, 1.39952, 1.35024, 1.33348, 1.28528, 1.28525, 1.2996, 1.26917, 1.3318, 1.27825, 1.27838, 1.13673, 1.126, 1.10917, 1.06729, 1.04366, 1.01581, 1.01829, 0.990946, 0.947079, 0.94681, 0.940343, 0.93522, 0.931553, 0.931848, 1.18957, 1.11175, 0.954669, 1.00064, 1.1193, 1.07114, 1.18619, 1.22284, 1.07482, 1.18822, 1.20239, 1.10579, 1.21038, 1.0204, 1.08524, 1.01162, 1.01268, 1.03931, 1.04222, 1.05698, 1.05826, 0.95458, 0.956286, 0.95842, 0.96102, 0.962769, 0.96216, 0.962067, 0.960084, 0.958266, 0.961817, 0.96364, 0.962979, 0.962793, 0.954483, 0.956102, 0.96028, 0.960149, 0.954664, 1.35062, 0.962023, 0.963355, 0.96413, 0.96042, 0.958568, 0.955723, 0.955838, 0.955769, 0.95604, 0.955564, 0.955989, 0.955951, 0.954579, 0.953399, 0.954097, 0.95425, 0.953284, 0.947336, 0.947225, 0.946465, 0.945818
1.15043, 1.14987, 1.14588, 1.14621, 1.13581, 1.13878, 1.13985, 1.14175, 1.14345, 1.14564, 1.14589, 1.14736, 1.1481, 1.14863, 1.21138, 1.21509, 1.16735, 1.22479, 1.23551, 1.16093, 1.16138, 1.16059, 1.17814, 1.18556, 1.18562, 1.19116, 1.20164, 1.23002, 1.57285, 1.2279, 1.24778, 1.12336, 1.24817, 1.25172, 1.29463, 1.29444, 1.06286, 1.06552, 1.06659, 1.0666, 1.06649, 1.06564, 1.06509, 1.06695, 1.06558, 1.06474, 1.06375, 1.07046, 1.07063, 1.06543, 1.07451, 1.06366, 1.06437, 1.31952, 1.08188, 1.082, 1.08096, 1.09072, 1.39515, 1.384, 1.39181, 1.04102, 1.12047, 1.04546, 1.0499, 1.04926, 1.04867, 1.04673, 1.04304, 1.0427, 1.04699, 1.04569, 1.04222, 1.03624, 1.03555, 1.03329, 1.03412, 1.02675, 1.02729, 1.03194, 1.05656, 1.03274, 1.05128, 1.08259, 1.10519, 1.13956, 1.18099, 1.24411, 1.2456, 1.30249, 1.43305, 1.58188, 1.68549, 1.65996, 1.64367, 1.64076, 1.59224, 1.60692, 1.60191, 1.63265, 1.6559, 1.69198, 1.69089, 1.71971, 1.70246, 1.66502, 1.58111, 1.57615, 1.61962, 1.75763, 1.75524, 1.66424, 1.67235, 1.76927, 1.74443, 1.64387, 1.67191, 1.6226, 1.61431, 1.61429, 1.74005, 1.73975, 1.76216, 1.7871, 1.78423, 1.76066, 1.73921, 1.73042, 1.6278, 1.64486, 1.62477, 1.6797, 1.68427, 1.73077, 1.83768, 1.83754, 1.75287, 1.65067, 1.63106, 1.58272, 1.596, 1.59388, 1.61437, 1.61327, 1.64494, 1.70119, 1.66509, 1.59967, 1.56205, 1.53076, 1.53807, 1.64056, 1.63699, 1.60334, 1.56916, 1.48117, 1.42756, 1.41231, 1.36396, 1.36384, 1.3551, 1.35737, 1.33005, 1.33083, 1.2949, 1.22747, 1.2413, 1.16477, 1.1373, 1.07582, 1.0641, 1.01693, 1.00333, 0.96404, 0.939334, 0.93336, 0.926333, 0.921409, 0.918867, 0.914898, 0.915586, 0.925327, 0.927962, 1.01495, 0.94995, 0.943957, 1.09143, 0.935816, 0.935784, 1.16486, 1.13809, 1.14477, 1.20237, 1.20526, 1.20764, 1.21527, 1.06659, 0.943305, 0.942203, 0.944102, 1.18618, 0.957957, 0.959033, 0.959308, 0.958823, 0.959429, 0.95921, 0.959416, 0.956368, 0.958353, 0.964162, 0.966159, 0.966332, 0.956565, 0.957598, 0.960178, 0.95963, 0.957635, 0.961218, 0.96161, 0.963067, 0.964181, 0.963592, 0.960463, 0.958821, 0.955947, 0.95614, 0.956449, 0.953597, 0.953888, 0.953601, 0.951823, 0.951975, 0.950003, 1.13315, 0.944735, 0.945734, 0.94385, 0.943981, 0.943887
1.36516, 1.36496, 1.1922, 1.13486, 1.13073, 1.12962, 1.13249, 1.13214, 1.13947, 1.13921, 1.14253, 1.14136, 1.14535, 1.14613, 1.15054, 1.15004, 1.15282, 1.15679, 1.16448, 1.16292, 1.16202, 1.16188, 1.18896, 1.1676, 1.41884, 1.07045, 1.07131, 1.1981, 1.1979, 1.08416, 1.0808, 1.0765, 1.05992, 1.05317, 1.05136, 1.25645, 1.06226, 1.06506, 1.06692, 1.06642, 1.06367, 1.06594, 1.06596, 1.06517, 1.06097, 1.06106, 1.06024, 1.06072, 1.05661, 1.05478, 1.05444, 1.05167, 1.04938, 1.04875, 1.04827, 1.04725, 1.04445, 1.04306, 1.04142, 1.041, 1.03941, 1.03926, 1.04001, 1.04395, 1.04759, 1.04977, 1.04665, 1.04427, 1.05174, 1.04974, 1.04412, 1.04367, 1.03448, 1.03427, 1.03512, 1.02977, 1.04447, 1.01224, 1.037, 1.03423, 1.08917, 1.06999, 1.11555, 1.16449, 1.1543, 1.25615, 1.28449, 1.33363, 1.43571, 1.50725, 1.54101, 1.55446, 1.63007, 1.63924, 1.64338, 1.66088, 1.60556, 1.60657, 1.62722, 1.6753, 1.65353, 1.73835, 1.75451, 1.7968, 1.73662, 1.66205, 1.62742, 1.61453, 1.5969, 1.68737, 1.6863, 1.72607, 1.74142, 1.91406, 1.91305, 1.86491, 1.82367, 1.68923, 1.69066, 1.67215, 1.71555, 1.74971, 1.82646, 1.80966, 1.79554, 1.83011, 1.75385, 1.82002, 1.8239, 1.75513, 1.72367, 1.72838, 1.73784, 1.73865, 1.73148, 1.73246, 1.75458, 1.71329, 1.70825, 1.6681, 1.6332, 1.68684, 1.73217, 1.78361, 1.70195, 1.72501, 1.71644, 1.72864, 1.68635, 1.5881, 1.61585, 1.6142, 1.59172, 1.57678, 1.54021, 1.48428, 1.47808, 1.44989, 1.43109, 1.44928, 1.42118, 1.43929, 1.43343, 1.43034, 1.41627, 1.33688, 1.23642, 1.23808, 1.19191, 1.16661, 1.13774, 1.03528, 1.03556, 0.989448, 1.00596, 1.08851, 1.00465, 0.921801, 0.923013, 0.916485, 0.915834, 0.916481, 0.928607, 1.08068, 0.949345, 0.950112, 0.946003, 0.945596, 0.934577, 0.93508, 0.934465, 0.939053, 0.94108, 0.942923, 0.944056, 0.940638, 0.939979, 0.94166, 1.58223, 1.61576, 0.949614, 0.952172, 0.954323, 0.955994, 0.956462, 0.95687, 0.959382, 0.959098, 0.957922, 0.958067, 0.959631, 0.95936, 0.959413, 0.960061, 0.959658, 0.95734, 0.957152, 0.956369, 1.34781, 0.960457, 1.19478, 1.19883, 1.20119, 1.33211, 0.956032, 0.953403, 0.953875, 0.953425, 0.954562, 0.955719, 0.955947, 0.947511, 0.947965, 0.948355, 0.945636, 0.944556, 0.944231, 0.942604, 0.941374, 0.941323
1.12534, 1.12566, 1.1265, 1.12563, 1.1151, 1.11797, 1.11603, 1.39047, 1.3928, 1.39596, 1.527, 1.14679, 1.30497, 1.15639, 1.14326, 1.25822, 1.13122, 1.18142, 1.12362, 1.1335, 1.13056, 1.09033, 1.08141, 1.08087, 1.07269, 1.07528, 1.07336, 1.07494, 1.0743, 1.07066, 1.0698, 1.06668, 1.06638, 1.25761, 1.1535, 1.06459, 1.06718, 1.07318, 1.07366, 1.06299, 1.0628, 1.06387, 1.06563, 1.06543, 1.06432, 1.05738, 1.05712, 1.05698, 1.05546, 1.05343, 1.05289, 1.05202, 1.05397, 1.05391, 1.0512, 1.04356, 1.0425, 1.0426, 1.04007, 1.03892, 1.0379, 1.0386, 1.03962, 1.03949, 1.04067, 1.0467, 1.04634, 1.0512, 1.04715, 1.07795, 1.03527, 1.04244, 1.04121, 1.02696, 1.01348, 1.01353, 1.08888, 1.08021, 1.0806, 1.06085, 1.1551, 1.13043, 1.21074, 1.21204, 1.24751, 1.30563, 1.45131, 1.48153, 1.49979, 1.49921, 1.55113, 1.56756, 1.63356, 1.65379, 1.66314, 1.70412, 1.64499, 1.64533, 1.65934, 1.64131, 1.68984, 1.71053, 1.71068, 1.71182, 1.73842, 1.76111, 1.6828, 1.66251, 1.72031, 1.65612, 1.72274, 1.84889, 1.84724, 1.83344, 1.83266, 1.78412, 1.78313, 1.79009, 1.72504, 1.72066, 1.81165, 1.79917, 1.7421, 1.78364, 1.90555, 1.83054, 1.81874, 1.81073, 1.81701, 1.81741, 1.75734, 1.78955, 1.78712, 1.78549, 1.77951, 1.85255, 1.82649, 1.82642, 1.71756, 1.71409, 1.72687, 1.72596, 1.72952, 1.77563, 1.76912, 1.77012, 1.71212, 1.72346, 1.70336, 1.70294, 1.62474, 1.58495, 1.58336, 1.61215, 1.57975, 1.55793, 1.50208, 1.47431, 1.48898, 1.48221, 1.51596, 1.55091, 1.53706, 1.51146, 1.48223, 1.36851, 1.35547, 1.35585, 1.24397, 1.22922, 1.17632, 1.24436, 1.05051, 1.01947, 1.00313, 0.973957, 0.975625, 0.939223, 1.19206, 0.98032, 0.913814, 0.912337, 0.912015, 0.949861, 0.94716, 0.949548, 0.94552, 0.945789, 0.946825, 0.945803, 0.945953, 0.945833, 0.944854, 0.94275, 0.942025, 0.940801, 0.936974, 1.23683, 0.945606, 0.946169, 0.948822, 0.950865, 0.952569, 0.955624, 0.956895, 0.959488, 0.960169, 0.9672, 0.957403, 0.957531, 0.962855, 0.961689, 0.962817, 0.960262, 0.954731, 0.955371, 0.950694, 0.951138, 0.958328, 0.959876, 0.959902, 0.954083, 0.951061, 0.952445, 0.952238, 0.953447, 0.955014, 0.953488, 0.952333, 0.951328, 0.951634, 0.946099, 0.948589, 0.944077, 0.944303, 0.945834, 0.942578, 0.94162, 0.942092, 0.941113
1.12392, 1.12418, 1.12373, 1.12506, 1.12545, 1.11574, 1.1118, 1.10963, 1.10686, 1.10611, 1.10113, 1.10104, 1.09995, 1.09682, 1.09488, 1.0923, 1.08806, 1.0888, 1.08744, 1.0855, 1.08865, 1.08125, 1.08212, 1.08056, 1.07996, 1.07539, 1.07441, 1.07215, 1.07261, 1.07094, 1.0771, 1.0768, 1.07668, 1.08327, 1.41324, 1.07199, 1.07171, 1.06403, 1.0651, 1.06131, 1.06141, 1.06985, 1.06976, 1.06827, 1.06656, 1.05598, 1.05598, 1.05458, 1.05377, 1.04932, 1.0484, 1.04694, 1.04713, 1.04662, 1.04229, 1.03998, 1.03944, 1.03917, 1.03333, 1.03353, 1.0331, 1.03215, 1.03597, 1.06524, 1.04904, 1.04907, 1.06637, 1.06734, 1.07068, 1.07496, 1.05314, 1.40449, 1.40462, 1.05189, 1.00609, 1.00682, 1.01003, 1.06993, 1.05472, 1.10954, 1.19276, 1.18764, 1.29538, 1.37193, 1.36273, 1.45434, 1.49897, 1.51918, 1.50354, 1.54893, 1.55551, 1.59322, 1.70396, 1.69282, 1.68005, 1.67879, 1.66739, 1.66475, 1.66421, 1.69661, 1.6962, 1.70708, 1.70647, 1.81087, 1.77582, 1.7856, 1.76294, 1.78557, 1.77672, 1.75114, 1.80316, 1.79347, 1.79336, 1.8985, 1.83455, 1.82813, 1.85563, 1.81026, 1.82734, 1.82692, 1.84484, 1.82597, 1.82022, 1.79199, 1.81783, 1.8282, 1.82479, 1.82429, 1.81824, 1.86486, 1.78869, 1.79, 1.77291, 1.7794, 1.763, 1.81382, 1.82105, 1.81546, 1.82332, 1.79407, 1.79202, 1.79928, 1.74559, 1.786, 1.80305, 1.8084, 1.80938, 1.70833, 1.65632, 1.67143, 1.6994, 1.69889, 1.62799, 1.62657, 1.66763, 1.5713, 1.57068, 1.59807, 1.53791, 1.53317, 1.56487, 1.60839, 1.59192, 1.58136, 1.58204, 1.5002, 1.432, 1.39458, 1.33282, 1.26012, 1.23687, 1.16465, 1.17755, 1.06614, 1.02188, 1.02383, 0.972277, 0.935582, 0.934868, 0.925495, 0.913133, 0.910592, 0.910913, 0.912949, 0.98714, 1.1467, 1.19242, 1.14492, 0.941913, 0.94053, 0.941659, 0.942272, 0.942111, 0.942009, 0.942871, 0.937555, 1.05704, 1.00501, 0.945527, 1.28168, 0.952442, 0.953283, 1.23187, 1.01143, 1.01203, 1.01509, 0.980078, 0.980479, 1.0192, 1.02124, 1.37968, 0.962152, 1.03234, 0.95077, 0.953162, 0.952372, 0.951254, 1.0637, 0.957835, 0.959401, 0.96003, 0.959819, 0.955973, 0.957781, 0.958231, 0.958167, 0.956761, 0.952069, 0.950954, 0.949598, 0.948058, 0.945745, 0.945487, 0.945238, 0.942228, 0.942368, 0.942257, 0.938935, 0.938434, 0.933103
1.12633, 1.12531, 1.12527, 1.12574, 1.1264, 1.11101, 1.10923, 1.1094, 1.09095, 1.09914, 1.09777, 1.09621, 1.0949, 1.09407, 1.09076, 1.08823, 1.08288, 1.08577, 1.08676, 1.08271, 1.08185, 1.07975, 1.07707, 1.07423, 1.0741, 1.07676, 1.07747, 1.07885, 1.07753, 1.07885, 1.16095, 1.08332, 1.08368, 1.0848, 1.08497, 1.0768, 1.07124, 1.10879, 1.05508, 1.0548, 1.05645, 1.06397, 1.06472, 1.0792, 1.06169, 1.06299, 1.05307, 1.05039, 1.04919, 1.04895, 1.04755, 1.04725, 1.04593, 1.04892, 1.04268, 1.04063, 1.03583, 1.03026, 1.03407, 1.03312, 1.03192, 1.03194, 1.03292, 1.03403, 1.03765, 1.03828, 1.01612, 1.01609, 1.02816, 1.02888, 1.04587, 1.05429, 1.0319, 1.05681, 0.993231, 1.03916, 1.03919, 1.06576, 1.08744, 1.14783, 1.15643, 1.24699, 1.39735, 1.39735, 1.44936, 1.53312, 1.5344, 1.53154, 1.53018, 1.61536, 1.60677, 1.6568, 1.65505, 1.67671, 1.67779, 1.70012, 1.70032, 1.67985, 1.6822, 1.66659, 1.78408, 1.7874, 1.70892, 1.74356, 1.82774, 1.82096, 1.82044, 1.79466, 1.79378, 1.70659, 1.75465, 1.75092, 1.75825, 1.79969, 1.8438, 1.81345, 1.90949, 1.90696, 1.90582, 1.91065, 1.8281, 1.8281, 1.76868, 1.79327, 1.81211, 1.86722, 1.86451, 1.83587, 1.85682, 1.79657, 1.76458, 1.76324, 1.79737, 1.79688, 1.79664, 1.8685, 1.86787, 1.82681, 1.8963, 1.89626, 1.76129, 1.75061, 1.75939, 1.88484, 1.79407, 1.79969, 1.81075, 1.83782, 1.68833, 1.68349, 1.68812, 1.66861, 1.78974, 1.73111, 1.74714, 1.70337, 1.72968, 1.63279, 1.58257, 1.60415, 1.60647, 1.63494, 1.63253, 1.59114, 1.51673, 1.46361, 1.41968, 1.38311, 1.35849, 1.32406, 1.26546, 1.24879, 1.18997, 1.07102, 1.06111, 1.01904, 1.00627, 0.956961, 0.943846, 0.921534, 0.919949, 0.921398, 0.9075, 0.909939, 0.910087, 0.952204, 1.30935, 0.968551, 0.969731, 0.961905, 0.963469, 0.984807, 0.967917, 1.2503, 0.97382, 0.970603, 0.972182, 0.973706, 0.97107, 0.970341, 0.968843, 0.969379, 1.39307, 1.34822, 1.30141, 1.34388, 1.42449, 0.973236, 0.956712, 0.95456, 0.955157, 0.955531, 0.954164, 0.951643, 0.953233, 1.30526, 0.958729, 0.959362, 0.957926, 0.957838, 0.957053, 0.957214, 0.959207, 0.9603, 0.956159, 0.95379, 1.06769, 0.947409, 0.944244, 0.941632, 0.94249, 0.940301, 1.19185, 1.19242, 0.931858, 0.933538, 0.932212, 0.931513, 0.930382, 0.93179
1.11637, 1.1156, 1.10814, 1.10878, 1.11033, 1.11065, 1.1095, 1.1048, 1.10344, 1.1012, 1.09724, 1.09656, 1.09587, 1.09402, 1.09318, 1.09037, 1.08913, 1.08911, 1.08059, 1.08177, 1.08179, 1.08356, 1.08058, 1.08007, 1.07815, 1.07751, 1.07749, 1.07642, 1.07276, 1.07237, 1.07174, 1.06375, 1.06148, 1.06334, 1.06112, 1.06437, 1.06508, 1.05515, 1.05395, 1.05339, 1.05206, 1.05291, 1.05167, 1.0523, 1.05387, 1.06731, 1.13587, 1.0876, 1.04799, 1.04822, 1.0484, 1.0478, 1.0645, 1.06431, 1.08776, 1.08828, 1.06612, 1.06775, 1.03296, 1.03212, 1.03354, 1.0328, 1.03347, 1.03994, 1.03376, 1.03382, 1.03562, 1.02191, 1.02211, 1.02614, 0.988812, 0.994937, 0.995547, 1.00032, 1.01021, 1.02432, 1.04036, 1.05017, 1.11321, 1.15782, 1.21552, 1.38852, 1.42412, 1.54107, 1.53922, 1.49903, 1.49837, 1.53054, 1.53023, 1.62371, 1.6239, 1.63591, 1.64898, 1.69642, 1.83754, 1.78189, 1.78277, 1.70377, 1.70578, 1.69721, 1.78053, 1.80358, 1.72576, 1.83473, 1.8338, 1.85934, 1.84067, 1.8618, 1.88178, 1.86224, 1.80776, 1.87048, 1.90678, 1.78623, 1.82406, 1.89765, 1.84473, 1.98577, 1.89232, 1.94477, 1.88429, 1.88528, 1.80533, 1.79135, 1.78991, 1.81725, 1.81622, 1.87003, 1.88226, 1.79529, 1.79584, 1.8062, 1.81885, 1.81739, 1.92915, 1.89081, 1.88984, 1.8565, 1.85462, 1.88559, 1.81695, 1.80655, 1.80659, 1.78184, 1.89925, 1.80158, 1.80049, 1.76183, 1.8302, 1.74453, 1.74107, 1.83657, 1.83465, 1.75925, 1.75919, 1.70943, 1.64363, 1.63566, 1.62758, 1.84896, 1.64453, 1.64783, 1.63122, 1.54159, 1.5096, 1.46829, 1.45081, 1.40034, 1.46583, 1.36853, 1.31433, 1.30177, 1.20503, 1.20226, 1.13426, 1.11281, 1.05761, 1.02948, 1.07579, 0.950475, 1.07572, 0.928136, 0.91013, 0.908919, 0.9121, 1.38808, 0.974125, 1.02551, 1.07531, 0.96189, 0.963516, 0.966483, 0.967735, 0.970455, 0.971027, 0.969146, 0.97032, 0.972938, 0.962614, 0.962075, 0.962859, 0.964708, 0.96509, 0.961567, 0.963134, 0.961048, 0.960337, 0.960141, 0.960442, 0.960619, 1.25029, 0.958154, 1.35428, 0.962244, 0.962629, 0.960331, 0.961248, 0.962282, 0.964262, 0.964627, 0.963212, 0.964597, 0.961107, 0.953784, 0.955, 0.945383, 0.935239, 0.936698, 0.937877, 0.937083, 0.930869, 0.931749, 0.9308, 0.929995, 0.932404, 0.93361, 1.27616, 1.19531, 0.981809, 1.05924
1.13058, 1.12822, 1.12696, 1.10532, 1.1034, 1.10366, 1.10144, 1.10367, 1.10135, 1.10021, 1.09787, 1.09518, 1.09508, 1.09345, 1.09386, 1.0932, 1.09325, 1.08763, 1.08445, 1.08394, 1.0831, 1.08243, 1.08148, 1.08362, 1.07988, 1.07752, 1.07376, 1.07208, 1.07148, 1.07098, 1.07042, 1.07248, 1.06169, 1.05969, 1.05973, 1.05998, 1.05966, 1.06333, 1.05741, 1.05317, 1.05359, 1.05416, 1.05434, 1.05115, 1.04955, 1.05166, 1.07164, 1.50275, 1.07053, 1.07027, 1.05361, 1.08982, 1.03861, 1.03874, 1.03868, 1.13224, 1.06989, 1.06851, 1.07098, 1.07517, 1.07071, 1.07901, 1.14688, 1.07553, 1.06107, 1.03987, 1.0383, 1.03586, 1.03478, 1.02923, 1.06355, 1.0043, 1.00431, 1.03982, 1.0416, 1.06058, 1.07082, 1.09821, 1.15763, 1.27837, 1.3929, 1.39467, 1.51261, 1.5024, 1.51864, 1.51098, 1.55884, 1.56397, 1.62298, 1.6132, 1.60292, 1.69636, 1.69465, 1.66549, 1.78601, 1.81322, 1.82219, 1.83667, 1.84107, 1.74173, 1.73166, 1.74053, 1.74112, 1.84109, 1.83663, 1.84735, 1.84721, 1.88067, 1.91041, 1.90039, 1.90089, 1.87529, 1.87514, 1.83166, 1.91606, 1.90149, 1.90025, 1.83386, 1.84085, 1.84159, 1.88678, 1.88677, 1.88588, 1.85937, 1.83292, 1.82037, 1.81182, 1.87314, 1.87008, 1.86842, 1.81545, 1.81648, 1.81676, 1.81677, 1.81741, 1.93136, 1.91921, 1.91953, 1.88252, 1.88295, 1.84235, 1.81681, 1.82903, 1.85471, 1.80493, 1.78697, 1.78571, 1.79814, 1.7662, 1.7611, 1.76089, 1.75409, 1.75341, 1.75942, 1.79903, 1.70287, 1.74838, 1.64406, 1.67011, 1.67141, 1.73831, 1.66237, 1.63823, 1.55377, 1.53547, 1.52735, 1.47593, 1.47793, 1.43381, 1.45376, 1.46801, 1.348, 1.29151, 1.23454, 1.23782, 1.17439, 1.14938, 1.04951, 1.04288, 0.985467, 0.981532, 0.929115, 0.911502, 0.910621, 0.911541, 1.44625, 1.19063, 1.18428, 0.963766, 0.96194, 0.962188, 0.966934, 0.967504, 0.967804, 0.964284, 0.964255, 0.963028, 0.963342, 0.963694, 0.96309, 0.96363, 0.961581, 0.966036, 0.966022, 0.966468, 0.966546, 0.964697, 0.963593, 0.962859, 0.962041, 0.962852, 0.959005, 0.961536, 0.962827, 0.963692, 0.963889, 0.964435, 1.05371, 1.04941, 1.4504, 0.971168, 0.970015, 1.19493, 1.19596, 1.28454, 1.11518, 1.10287, 1.0984, 1.09607, 1.04254, 1.06678, 1.06139, 1.21649, 1.26534, 1.26908, 1.27265, 1.13653, 0.987017, 1.18092, 1.28737
1.13236, 1.13128, 1.13062, 1.13036, 1.13079, 1.12992, 1.13822, 1.10637, 1.10275, 1.1037, 1.10764, 1.10397, 1.1032, 1.10274, 1.10229, 1.09429, 1.09382, 1.08814, 1.08801, 1.09096, 1.09246, 1.08926, 1.0842, 1.0827, 1.0731, 1.07119, 1.07432, 1.07325, 1.07337, 1.07106, 1.05895, 1.05844, 1.0566, 1.05604, 1.0536, 1.0493, 1.04924, 1.04665, 1.04745, 1.04487, 1.04647, 1.04655, 1.04656, 1.04279, 1.04759, 1.04842, 1.0396, 1.03983, 1.04155, 1.04458, 1.04361, 1.04294, 1.03233, 1.0357, 1.03574, 1.03248, 1.0321, 1.03193, 1.06685, 1.0661, 1.06298, 1.06354, 1.07391, 1.06129, 1.00729, 1.00951, 1.00924, 1.01222, 1.14639, 1.02862, 0.978629, 0.998153, 1.00162, 1.09211, 1.07055, 1.07428, 1.08822, 1.17562, 1.23944, 1.28842, 1.41524, 1.40701, 1.49526, 1.48776, 1.48898, 1.60955, 1.56162, 1.57685, 1.62616, 1.62409, 1.61376, 1.665, 1.69428, 1.68738, 1.82012, 1.84427, 1.85783, 1.842, 1.79694, 1.77929, 1.76546, 1.76903, 1.7852, 1.78198, 1.80669, 1.81394, 1.88062, 1.90789, 1.89946, 1.89891, 1.91239, 1.90391, 1.92914, 1.88042, 1.87191, 1.89404, 1.89287, 1.86887, 1.89826, 1.88143, 1.87514, 1.89749, 1.89577, 1.89442, 1.89132, 1.86743, 1.87481, 1.87519, 1.87392, 1.87206, 1.85504, 1.84284, 1.8177, 1.81731, 1.82686, 1.89727, 1.92587, 1.9348, 1.8784, 1.92861, 1.84397, 1.84127, 1.907, 1.8865, 1.90244, 1.90172, 1.84124, 1.83973, 1.7896, 1.77599, 1.77726, 1.77682, 1.88945, 1.80208, 1.80355, 1.73651, 1.6674, 1.69303, 1.75134, 1.7519, 1.71838, 1.78573, 1.65239, 1.62028, 1.55541, 1.51291, 1.49289, 1.47195, 1.53378, 1.50534, 1.63776, 1.43104, 1.3624, 1.3955, 1.27201, 1.27184, 1.14307, 1.11636, 1.07155, 1.02168, 0.968443, 0.953052, 0.916433, 0.915387, 0.91038, 0.910864, 0.916655, 0.992761, 1.05172, 1.04407, 1.04595, 0.96613, 0.967198, 0.969313, 1.22207, 0.970078, 0.969683, 0.969267, 0.968083, 0.967161, 0.965804, 0.964483, 0.963844, 0.963523, 0.962923, 0.963189, 0.964504, 0.964395, 0.965543, 0.967049, 0.967426, 1.25809, 1.25697, 0.963772, 1.23283, 1.3152, 1.1655, 0.983766, 0.984573, 0.976833, 0.976698, 1.26688, 1.08815, 1.34186, 1.01295, 1.01366, 1.01008, 1.00676, 1.00763, 1.00837, 1.00862, 1.06023, 0.99881, 0.999771, 1.00084, 1.00095, 0.993863, 0.993492, 0.994114, 1.09774
1.12836, 1.1276, 1.12861, 1.12636, 1.12998, 1.12722, 1.13048, 1.22858, 1.09838, 1.09745, 1.09837, 1.09497, 1.09339, 1.09057, 1.08942, 1.08895, 1.09181, 1.09056, 1.09059, 1.08883, 1.08895, 1.07395, 1.07074, 1.06983, 1.06956, 1.07, 1.06784, 1.06561, 1.06319, 1.06209, 1.0599, 1.05939, 1.0557, 1.05349, 1.05083, 1.05012, 1.048, 1.04608, 1.04466, 1.04653, 1.04542, 1.04578, 1.04635, 1.04749, 1.04721, 1.05242, 1.05052, 1.04478, 1.04425, 1.04342, 1.03966, 1.03683, 1.02576, 1.02588, 1.03347, 1.03347, 1.03193, 1.03542, 1.03481, 1.03117, 1.02741, 1.01218, 1.0121, 1.00979, 1.13637, 1.01389, 0.980709, 0.979262, 1.03239, 1.02431, 0.987496, 1.01844, 1.04645, 1.0467, 1.03221, 1.09838, 1.16105, 1.19291, 1.24923, 1.3007, 1.37129, 1.40255, 1.4651, 1.48359, 1.50761, 1.60407, 1.56437, 1.55144, 1.64614, 1.63677, 1.64434, 1.64516, 1.72479, 1.7246, 1.72408, 1.82747, 1.82684, 1.78589, 1.85164, 1.84454, 1.7971, 1.83007, 1.83024, 1.80263, 1.80248, 1.80405, 1.80374, 1.87506, 1.94176, 1.9548, 1.98561, 1.92687, 1.92413, 1.90698, 1.90805, 1.91627, 1.8613, 1.88053, 1.89508, 1.89504, 1.89952, 1.89874, 1.89729, 1.89643, 1.90298, 1.91028, 2.03442, 1.85745, 1.89251, 1.87886, 1.88563, 1.87235, 1.99419, 2.03827, 1.90189, 1.90066, 1.93446, 1.89266, 1.83911, 1.84028, 1.85533, 1.85418, 1.88708, 1.93487, 1.8765, 1.87564, 1.87538, 1.95451, 1.80322, 1.83435, 1.83393, 1.77647, 1.81214, 1.81361, 1.78783, 1.73876, 1.70759, 1.74978, 1.74707, 1.7504, 1.76109, 1.76099, 1.64924, 1.72325, 1.6789, 1.61034, 1.58809, 1.58674, 1.5609, 1.48176, 1.47134, 1.46851, 1.38624, 1.36423, 1.33307, 1.33921, 1.15052, 1.12596, 1.12518, 1.13366, 0.971818, 0.979459, 0.960536, 0.909506, 0.909793, 0.911121, 0.91851, 0.920582, 0.926161, 0.945956, 0.945731, 0.960507, 0.962042, 0.970714, 1.06473, 0.96757, 0.964337, 0.965707, 0.966289, 0.9669, 1.28376, 1.12172, 0.963403, 1.04316, 1.04303, 1.03991, 1.05222, 1.07557, 1.0987, 1.3097, 1.2015, 1.20123, 0.990469, 0.991873, 0.991463, 0.992695, 0.992802, 1.03317, 0.968387, 1.30884, 1.31396, 1.31172, 1.23249, 1.2335, 1.01142, 1.01393, 1.00688, 1.00596, 1.00354, 1.00496, 1.00595, 1.10779, 0.997597, 0.99718, 0.997913, 0.989222, 0.989629, 1.13909, 1.09805, 1.10018
1.12025, 1.11921, 1.1188, 1.1198, 1.2082, 1.20796, 1.13211, 1.23278, 1.09566, 1.09172, 1.09061, 1.09058, 1.09091, 1.08687, 1.08444, 1.08029, 1.29236, 1.07935, 1.08031, 1.07865, 1.07168, 1.06918, 1.06989, 1.06948, 1.06793, 1.06626, 1.06409, 1.06359, 1.05986, 1.05967, 1.05684, 1.05365, 1.05264, 1.05215, 1.05099, 1.04552, 1.04936, 1.04726, 1.04712, 1.04691, 1.04748, 1.04722, 1.047, 1.04642, 1.04663, 1.04696, 1.04585, 1.04822, 1.04844, 1.03561, 1.03598, 1.036, 1.03526, 1.03426, 1.03496, 1.03335, 1.03211, 1.2448, 1.07998, 1.16646, 1.01825, 1.01428, 1.00682, 0.980713, 0.989991, 1.01904, 1.03786, 0.995775, 1.06332, 1.06276, 1.02987, 1.01647, 1.02856, 1.06828, 1.09612, 1.11707, 1.1766, 1.31784, 1.32436, 1.32227, 1.40769, 1.45086, 1.45969, 1.48398, 1.55178, 1.55974, 1.58787, 1.64062, 1.63705, 1.65122, 1.65729, 1.65312, 1.66871, 1.71014, 1.71007, 1.82566, 1.82647, 1.82483, 1.78791, 1.79976, 1.84013, 1.81755, 1.7931, 1.7782, 1.77799, 1.77742, 1.83138, 1.86633, 1.8936, 1.95827, 1.93297, 1.9322, 1.96234, 1.9619, 1.89738, 1.8754, 1.91011, 1.91048, 1.93424, 1.93363, 1.96098, 1.96893, 1.9318, 1.94308, 1.95526, 1.92571, 2.02563, 2.02576, 2.03463, 1.88359, 1.88426, 1.889, 1.88509, 1.88393, 1.95451, 1.9753, 1.99138, 1.9314, 1.92932, 1.93121, 1.93089, 1.91488, 1.92705, 1.86364, 1.87956, 1.88207, 1.87709, 1.95792, 1.84811, 1.84768, 1.77228, 1.76454, 1.82006, 1.74878, 1.75099, 1.77561, 1.76712, 1.70587, 1.71382, 1.71262, 1.74531, 1.71345, 1.72626, 1.66782, 1.66762, 1.70928, 1.63037, 1.62991, 1.49615, 1.49486, 1.50329, 1.5035, 1.44044, 1.36077, 1.34217, 1.30815, 1.22672, 1.14663, 1.07536, 1.06413, 1.0223, 0.978657, 0.966967, 0.973951, 0.974266, 1.15823, 0.917806, 0.920626, 1.05097, 1.14309, 1.02968, 0.961102, 0.961561, 1.28807, 1.26503, 1.11981, 1.05471, 1.28033, 1.28483, 1.28856, 1.22709, 1.14368, 1.27508, 1.28283, 1.47905, 0.989971, 0.989408, 0.990773, 0.992602, 0.99358, 0.993943, 0.993974, 1.05192, 1.01046, 1.08742, 1.06713, 1.06534, 0.961755, 0.96321, 0.966533, 1.05073, 1.05293, 1.49792, 1.07766, 1.07127, 1.0008, 1.00062, 1.08004, 0.995249, 1.00142, 1.02384, 0.992506, 1.01991, 1.32297, 1.02841, 0.987714, 0.988068, 1.25742, 1.246, 1.03665
1.12026, 1.11721, 1.33313, 1.1066, 1.10339, 1.10122, 1.09913, 1.09644, 1.09426, 1.0915, 1.08765, 1.08745, 1.08235, 1.08233, 1.08085, 1.07857, 1.07462, 1.0735, 1.07336, 1.07252, 1.0726, 1.07378, 1.06297, 1.06306, 1.06305, 1.06339, 1.06215, 1.06115, 1.05848, 1.05718, 1.05399, 1.05327, 1.04944, 1.04855, 1.04543, 1.04556, 1.04482, 1.04512, 1.0464, 1.04607, 1.04569, 1.04548, 1.04514, 1.04467, 1.0433, 1.04275, 1.04342, 1.04336, 1.04503, 1.04658, 1.04728, 1.04662, 1.03393, 1.03291, 1.032, 1.03206, 1.0316, 1.03115, 1.0219, 1.01257, 1.0132, 1.0077, 1.0012, 1.1256, 1.05467, 1.05502, 1.05522, 0.994874, 0.986191, 0.973156, 1.06755, 1.08281, 1.077, 1.07406, 1.12278, 1.15712, 1.19523, 1.31055, 1.39149, 1.39733, 1.4151, 1.48305, 1.54362, 1.55077, 1.61074, 1.65511, 1.6411, 1.66688, 1.66661, 1.66419, 1.66767, 1.66727, 1.68004, 1.72823, 1.71968, 1.73722, 1.83439, 1.84517, 1.83942, 1.84253, 1.84363, 1.84907, 1.8668, 1.81509, 1.81414, 1.82214, 1.81243, 1.85852, 1.95534, 1.94172, 1.93392, 1.93893, 1.91442, 1.91411, 1.95786, 1.95333, 1.94996, 1.95244, 2.06204, 1.97975, 1.97203, 1.98283, 1.94745, 1.94589, 1.94263, 1.94188, 1.99433, 1.99274, 1.92417, 1.90669, 1.88201, 1.88206, 1.88318, 1.91874, 1.86429, 1.86921, 1.86637, 1.86653, 1.97598, 1.96815, 1.96528, 1.92066, 1.89614, 1.8952, 1.93233, 1.92292, 1.92038, 1.86913, 1.87062, 1.87017, 1.80202, 1.79234, 1.8458, 1.86344, 1.84458, 1.84412, 1.75086, 1.77311, 1.69216, 1.6918, 1.67654, 1.6765, 1.67832, 1.69651, 1.72551, 1.68502, 1.59569, 1.56878, 1.56718, 1.51216, 1.47907, 1.50638, 1.54276, 1.41516, 1.45102, 1.33997, 1.27823, 1.2332, 1.17114, 1.04103, 1.0137, 1.00765, 1.04617, 0.931508, 0.931668, 1.08538, 0.931936, 0.932014, 0.928846, 1.33624, 1.05925, 1.04532, 1.43073, 1.22284, 1.14834, 0.998735, 1.00072, 1.00089, 1.1754, 0.99369, 0.994049, 0.995318, 0.99607, 0.996508, 1.03877, 0.987003, 0.988032, 1.165, 1.15277, 1.10047, 1.12588, 1.06003, 1.05905, 0.968582, 0.968855, 1.21228, 1.0684, 1.05355, 1.05744, 0.960078, 1.16114, 1.14775, 1.16327, 1.16697, 1.25535, 0.984524, 1.26237, 1.2729, 0.982734, 0.985571, 0.99063, 0.970713, 0.97134, 0.972397, 0.979756, 0.982401, 1.02538, 1.02277, 1.06453, 1.02229
1.11149, 1.11102, 1.10752, 1.10183, 1.09673, 1.09679, 1.09661, 1.09396, 1.09124, 1.0908, 1.08624, 1.08393, 1.08302, 1.08053, 1.07731, 1.07421, 1.07348, 1.07162, 1.06986, 1.069, 1.0674, 1.06654, 1.06534, 1.06405, 1.06186, 1.06152, 1.06101, 1.05822, 1.05962, 1.05396, 1.05409, 1.05308, 1.05292, 1.05298, 1.04912, 1.04905, 1.0465, 1.04551, 1.04567, 1.04601, 1.0467, 1.0463, 1.04455, 1.04283, 1.04014, 1.04418, 1.04427, 1.04472, 1.0396, 1.04635, 1.04642, 1.04287, 1.04599, 1.04221, 1.04244, 1.04246, 1.0258, 1.12455, 1.01477, 1.06387, 1.09105, 0.997382, 0.99968, 0.987321, 0.988074, 0.936422, 0.936671, 0.942526, 0.944162, 0.968195, 1.01215, 1.0151, 1.05081, 1.12205, 1.15453, 1.20594, 1.33641, 1.37569, 1.43257, 1.49346, 1.49888, 1.52449, 1.63181, 1.63191, 1.64783, 1.65044, 1.64843, 1.64669, 1.66629, 1.75295, 1.69635, 1.68197, 1.7292, 1.71106, 1.71915, 1.81247, 1.81238, 1.84588, 1.80124, 1.84508, 1.84505, 1.91745, 1.89587, 1.89303, 1.85483, 1.86891, 1.87039, 1.99121, 1.993, 2.03018, 1.93714, 1.93711, 1.93512, 1.93256, 1.9327, 1.93154, 2.04907, 2.08052, 1.97185, 1.97023, 1.97497, 2.03244, 2.00436, 1.95828, 2.01484, 1.98995, 1.96963, 1.96871, 2.01128, 2.03145, 1.99085, 1.93402, 1.92471, 1.86865, 1.86841, 1.8764, 1.94162, 1.94101, 1.93967, 1.93491, 1.90378, 1.94107, 2.10002, 1.92898, 1.92796, 1.85525, 1.85016, 1.85688, 1.82399, 1.82439, 1.84559, 1.78252, 1.78213, 1.86347, 1.86651, 1.77943, 1.74563, 1.75133, 1.74883, 1.75115, 1.70425, 1.67656, 1.67592, 1.71173, 1.71638, 1.6815, 1.59223, 1.60606, 1.54312, 1.54144, 1.50793, 1.50682, 1.46144, 1.45573, 1.47052, 1.38844, 1.36149, 1.24507, 1.17716, 1.10986, 1.0583, 1.0974, 0.995795, 1.01726, 1.07007, 1.17893, 1.07925, 1.06071, 1.07436, 0.936053, 0.978734, 0.97783, 1.00617, 1.04585, 1.34233, 1.03618, 0.995271, 0.995546, 1.04342, 1.04806, 1.04612, 1.04557, 1.14309, 1.04889, 0.973772, 1.19505, 1.19647, 1.36532, 1.04963, 0.967819, 0.969234, 0.970304, 0.971822, 0.971533, 0.967757, 0.969469, 1.1547, 0.959822, 0.960769, 0.945613, 0.944167, 0.944628, 1.34894, 0.964651, 1.17028, 1.28282, 1.32046, 1.28524, 0.974496, 0.976189, 0.968756, 0.969564, 1.2762, 0.966754, 0.967301, 1.00112, 1.00246, 1.00209, 1.04606, 1.03627
1.10444, 1.10168, 1.10232, 1.10352, 1.09651, 1.09536, 1.0951, 1.09194, 1.09147, 1.0873, 1.08541, 1.08472, 1.0819, 1.07836, 1.07616, 1.07213, 1.0714, 1.06963, 1.06729, 1.06651, 1.06633, 1.06311, 1.06282, 1.06105, 1.05875, 1.05706, 1.05801, 1.05612, 1.05476, 1.05278, 1.05002, 1.05028, 1.04782, 1.04535, 1.04276, 1.04242, 1.04102, 1.03977, 1.03912, 1.03891, 1.0389, 1.03564, 1.03564, 1.03435, 1.03174, 1.02996, 1.02937, 1.02866, 1.02692, 1.02636, 1.02582, 1.02326, 1.02278, 1.01951, 1.1049, 1.10554, 1.02139, 1.0191, 1.01196, 1.00681, 0.995547, 0.993499, 1.06982, 0.983792, 0.974285, 0.973378, 0.937676, 0.931032, 0.931785, 0.981849, 0.993824, 1.02277, 1.06774, 1.17092, 1.23916, 1.31633, 1.31664, 1.38845, 1.43273, 1.4558, 1.53976, 1.54368, 1.6281, 1.62725, 1.62584, 1.66928, 1.64868, 1.66415, 1.75408, 1.7631, 1.76437, 1.73117, 1.7301, 1.72908, 1.72905, 1.76327, 1.78928, 1.78267, 1.81014, 1.82053, 1.84555, 1.85984, 1.88916, 1.8878, 1.99454, 1.92182, 1.92128, 1.95417, 1.95341, 1.95572, 1.95578, 1.93729, 1.93565, 1.93497, 1.93501, 2.00325, 2.00726, 1.97219, 1.9725, 1.9698, 1.97662, 2.07122, 1.97624, 1.94269, 1.94604, 1.95589, 2.09218, 2.09136, 2.05966, 1.973, 1.99165, 1.97031, 1.92367, 1.93446, 2.0665, 1.95011, 1.96313, 1.93975, 1.92872, 1.92763, 1.97349, 1.94519, 1.96207, 1.97987, 1.97878, 1.97862, 1.90626, 1.84525, 1.83863, 1.85169, 1.93465, 1.80936, 1.79337, 1.79331, 1.88968, 1.82905, 1.76595, 1.77219, 1.79014, 1.71381, 1.70071, 1.733, 1.66416, 1.64721, 1.63271, 1.68115, 1.62303, 1.6231, 1.59896, 1.58334, 1.59921, 1.48516, 1.50147, 1.45823, 1.49192, 1.47098, 1.35945, 1.27814, 1.20309, 1.17426, 1.15107, 1.0462, 1.04121, 0.987915, 1.03424, 0.956151, 1.09389, 1.13698, 0.903941, 1.07371, 0.887047, 0.917546, 0.918156, 1.34736, 1.15714, 1.34642, 1.05669, 1.08797, 1.35396, 0.956611, 0.957486, 0.964022, 1.06849, 1.17776, 0.967956, 0.967332, 0.967322, 0.964419, 0.964796, 0.965488, 0.965439, 1.2303, 1.14052, 1.14234, 1.14305, 0.954864, 0.95441, 0.950751, 1.24067, 0.942223, 0.944159, 0.946355, 0.947419, 0.946865, 0.946503, 0.949103, 0.957845, 0.947281, 1.2599, 0.952578, 0.953444, 1.41951, 1.26233, 1.03879, 0.948836, 0.947025, 0.946228, 0.945638, 0.946625, 0.946462
1.09786, 1.09766, 1.09782, 1.09818, 1.09839, 1.10133, 1.26358, 1.11636, 1.27039, 1.27435, 1.08624, 1.08596, 1.13732, 1.07503, 1.06989, 1.06915, 1.06799, 1.06676, 1.06371, 1.0634, 1.06171, 1.06153, 1.0602, 1.05668, 1.05782, 1.05594, 1.05617, 1.05403, 1.05308, 1.05036, 1.04961, 1.04818, 1.04638, 1.04377, 1.04309, 1.04265, 1.03821, 1.03881, 1.0369, 1.03552, 1.03675, 1.03642, 1.03679, 1.03614, 1.03394, 1.02968, 1.02895, 1.02848, 1.0251, 1.02194, 1.02204, 1.02171, 1.01935, 1.01695, 1.0114, 1.0115, 1.01373, 1.01472, 1.01638, 1.01204, 1.034, 0.990322, 1.01111, 0.983544, 0.983681, 0.995602, 0.937012, 0.933539, 0.952706, 0.989381, 1.00916, 1.03912, 1.07433, 1.23013, 1.33637, 1.32998, 1.44337, 1.38889, 1.43458, 1.4399, 1.50653, 1.50703, 1.61166, 1.57824, 1.61651, 1.66721, 1.68945, 1.72842, 1.75627, 1.71374, 1.80095, 1.77573, 1.77045, 1.75148, 1.74978, 1.76985, 1.77903, 1.84163, 1.81385, 1.94155, 1.88661, 1.87928, 1.87068, 1.86984, 1.99205, 1.99634, 1.98632, 2.00693, 1.956, 1.95602, 1.95966, 1.95913, 1.94857, 1.94856, 2.10392, 1.98213, 2.0166, 1.98315, 1.97453, 1.97586, 1.98171, 1.94838, 1.94773, 1.9625, 1.94794, 1.94631, 2.00048, 1.9998, 2.06653, 2.00955, 2.06194, 2.02751, 2.0266, 1.92806, 1.92054, 1.99379, 1.92004, 1.91959, 1.91836, 2.0325, 2.00695, 2.01032, 1.94252, 1.91048, 1.90925, 1.90982, 2.00513, 1.8669, 1.86826, 1.85656, 1.85476, 1.85415, 1.86554, 1.79841, 1.79511, 1.77857, 1.77811, 1.78809, 1.78749, 1.79254, 1.69661, 1.76399, 1.6608, 1.65905, 1.64182, 1.63191, 1.59906, 1.5889, 1.58971, 1.58965, 1.54729, 1.52318, 1.51752, 1.52062, 1.53004, 1.4031, 1.39029, 1.33216, 1.24114, 1.22622, 1.18814, 1.10441, 1.03626, 1.05719, 0.967449, 0.995259, 0.91519, 1.06933, 1.0717, 1.07731, 0.882082, 0.879481, 0.901317, 0.936384, 0.947177, 1.26435, 1.11175, 1.11869, 0.950331, 0.951146, 0.952695, 1.10845, 1.35707, 0.957993, 0.957341, 0.959504, 0.960626, 0.958611, 0.957625, 0.95884, 0.959342, 0.955541, 0.957088, 0.958882, 0.958252, 0.954298, 0.948096, 0.94788, 1.09464, 0.961732, 1.19967, 0.945752, 0.94329, 0.943936, 0.944569, 0.939907, 1.15682, 0.930158, 0.930566, 0.929744, 0.931111, 1.08289, 1.08673, 1.30087, 1.18979, 0.942213, 0.943722, 0.945453, 0.94658, 0.94877
1.09793, 1.09616, 1.09477, 1.3268, 1.3707, 1.29139, 1.29335, 1.07928, 1.07876, 1.07781, 1.07524, 1.07331, 1.07254, 1.07045, 1.06891, 1.06774, 1.07434, 1.06291, 1.06339, 1.06324, 1.06176, 1.06019, 1.05936, 1.05602, 1.06109, 1.3599, 1.0502, 1.04887, 1.04718, 1.05046, 1.04792, 1.04579, 1.04473, 1.04435, 1.04052, 1.04152, 1.04044, 1.04191, 1.02894, 1.02925, 1.02891, 1.26801, 1.08877, 1.03304, 1.03337, 1.02896, 1.02483, 1.02235, 1.02158, 1.01931, 1.01695, 1.01324, 1.01166, 1.01258, 1.0082, 1.00549, 1.00463, 1.00186, 0.996117, 0.994167, 0.988722, 0.988875, 0.987704, 0.954605, 0.953866, 0.986608, 0.932734, 0.952395, 0.973936, 0.99825, 1.02717, 1.08082, 1.09132, 1.21288, 1.30284, 1.32997, 1.40164, 1.39966, 1.44752, 1.46898, 1.52414, 1.52369, 1.5477, 1.6059, 1.60892, 1.62617, 1.69533, 1.69538, 1.68016, 1.68267, 1.72417, 1.77769, 1.82831, 1.85436, 1.80375, 1.89835, 1.89628, 1.91353, 1.84151, 1.83603, 1.85678, 1.86953, 1.90565, 1.92124, 2.0143, 2.01065, 2.0113, 2.01088, 2.05679, 2.0629, 2.12037, 2.11147, 1.99894, 1.94857, 2.02363, 2.09574, 1.97908, 1.97225, 2.04689, 2.04867, 2.04683, 1.99697, 1.96939, 2.05158, 2.05128, 2.03772, 2.09765, 2.09477, 2.0162, 2.06517, 2.06424, 1.99297, 1.96639, 1.94146, 1.9395, 1.94073, 1.94027, 2.03088, 2.03164, 2.03875, 1.94734, 1.97336, 1.96069, 1.90351, 1.90292, 1.9022, 1.89705, 1.89684, 1.89988, 1.9804, 1.87213, 1.87205, 1.87145, 1.77969, 1.77983, 1.77877, 1.77861, 1.83974, 1.83872, 1.77843, 1.77981, 1.68395, 1.69361, 1.66151, 1.64557, 1.6268, 1.6319, 1.60939, 1.58837, 1.58497, 1.63315, 1.63175, 1.51218, 1.51052, 1.53771, 1.48665, 1.42211, 1.38019, 1.33175, 1.3334, 1.17898, 1.09533, 1.03977, 0.979739, 0.978701, 0.971174, 0.971657, 1.00752, 1.00785, 0.886581, 0.876064, 0.875366, 0.904284, 0.904954, 0.967204, 1.0749, 0.924883, 1.07584, 0.942799, 1.30911, 1.28186, 0.952335, 0.954975, 1.11365, 0.961085, 0.962371, 0.962404, 0.960853, 0.959947, 0.959001, 0.960205, 0.961056, 0.974501, 0.957794, 1.03239, 1.03286, 0.942172, 0.941689, 0.93767, 0.938794, 0.938783, 0.928735, 0.939748, 0.941607, 0.942099, 1.25297, 0.929539, 0.931126, 0.931234, 0.928989, 0.931015, 0.929923, 0.929113, 0.928846, 0.928311, 0.926014, 0.928216, 1.19476, 1.19538, 1.19613
1.0963, 1.09489, 1.09114, 1.08496, 1.08414, 1.08412, 1.08252, 1.07969, 1.07949, 1.07689, 1.07652, 1.07368, 1.07243, 1.07097, 1.06849, 1.06806, 1.06871, 1.05741, 1.05883, 1.061, 1.06087, 1.05961, 1.0603, 1.05115, 1.04917, 1.04663, 1.04774, 1.04586, 1.04687, 1.04685, 1.04621, 1.0466, 1.04406, 1.04214, 1.03987, 1.03889, 1.03873, 1.03322, 1.03061, 1.03053, 1.02825, 1.02529, 1.02163, 1.0217, 1.02079, 1.01908, 1.01575, 1.0159, 1.0159, 1.01365, 1.0121, 1.00867, 1.00809, 1.00662, 1.00733, 1.00099, 1.011, 1.0114, 1.38098, 0.990754, 0.982674, 0.96687, 0.965637, 0.959857, 0.960263, 0.943202, 0.936775, 0.945677, 0.976812, 0.99677, 1.04786, 1.05656, 1.1841, 1.18496, 1.23377, 1.33683, 1.39209, 1.40943, 1.53294, 1.58893, 1.58905, 1.60943, 1.68564, 1.63398, 1.69343, 1.70982, 1.69908, 1.69973, 1.80932, 1.68877, 1.72615, 1.77888, 1.88669, 1.91535, 1.86185, 1.88846, 1.9545, 1.91069, 1.91579, 1.91451, 1.91315, 1.89336, 1.89724, 1.9212, 1.92952, 1.92994, 1.94032, 2.06897, 2.08747, 2.0538, 2.08822, 2.0869, 2.08671, 2.07542, 2.11695, 1.99278, 1.99261, 1.99275, 2.04529, 2.05266, 2.04159, 2.04132, 2.15896, 2.05355, 2.0022, 2.00239, 2.00615, 2.0056, 2.00373, 2.03833, 2.035, 2.0457, 2.10024, 2.09439, 2.00657, 2.03092, 2.09992, 2.12717, 2.09011, 2.08937, 1.99571, 1.99436, 1.97192, 2.07405, 1.97276, 1.94165, 1.94428, 1.90703, 1.90919, 1.90797, 1.95141, 1.82092, 1.82068, 1.77835, 1.77807, 1.77957, 1.86104, 1.85497, 1.84053, 1.794, 1.79236, 1.80607, 1.72059, 1.75102, 1.66866, 1.66826, 1.65408, 1.65266, 1.59908, 1.57284, 1.57769, 1.55519, 1.52625, 1.5562, 1.55135, 1.49987, 1.4966, 1.39553, 1.34453, 1.31433, 1.21132, 1.14063, 1.05245, 1.01587, 0.951803, 0.928561, 0.904679, 0.904419, 0.877346, 0.8749, 0.87603, 0.874011, 0.873467, 0.88093, 0.893942, 0.922707, 0.918091, 0.918209, 0.921611, 0.922668, 1.16024, 1.18445, 1.05033, 1.0508, 1.11991, 1.05906, 1.36485, 1.01934, 1.36891, 1.02028, 0.93842, 0.936402, 0.93645, 0.936175, 0.937167, 0.937365, 0.934634, 0.93518, 0.936125, 0.942712, 0.950461, 0.924502, 0.92621, 0.956127, 0.936319, 0.935522, 0.933211, 0.933591, 0.933504, 0.929067, 0.929076, 0.925109, 0.926671, 0.927411, 0.9274, 0.927553, 0.92771, 0.927886, 0.926372, 1.04937
1.09943, 1.09334, 1.09293, 1.10614, 1.28634, 1.29012, 1.07452, 1.07453, 1.07764, 1.07766, 1.07568, 1.0754, 1.07026, 1.07043, 1.06968, 1.07832, 1.07865, 1.05883, 1.05984, 1.05973, 1.05838, 1.05689, 1.04887, 1.04887, 1.04614, 1.04477, 1.04485, 1.04358, 1.04339, 1.04261, 1.04605, 1.03649, 1.03989, 1.04061, 1.03597, 1.03561, 1.18861, 1.02987, 1.02845, 1.02798, 1.02462, 1.02348, 1.01888, 1.01819, 1.01749, 1.01465, 1.01489, 1.01327, 1.01133, 1.00748, 1.00607, 1.00195, 1.00184, 1.00078, 0.994153, 1.00284, 1.12955, 0.989085, 1.01988, 0.977503, 0.976857, 0.973616, 0.968391, 0.993235, 0.995997, 0.998398, 0.952467, 0.96422, 1.0221, 1.01178, 1.06373, 1.08047, 1.19014, 1.20907, 1.33011, 1.34017, 1.4238, 1.46812, 1.62283, 1.57455, 1.58017, 1.65202, 1.63811, 1.63244, 1.63303, 1.71694, 1.7187, 1.81155, 1.79619, 1.69302, 1.75972, 1.86651, 1.86198, 1.86117, 1.86074, 1.90077, 1.94084, 1.9353, 1.93549, 2.00383, 1.8977, 1.93777, 1.94181, 1.92712, 1.95286, 1.93825, 1.96614, 2.11572, 2.03219, 2.0327, 2.03241, 2.03081, 2.08171, 2.04469, 2.066, 2.06431, 2.06059, 2.05276, 2.08294, 2.07717, 2.05863, 2.08618, 2.00658, 2.00632, 2.00495, 2.00316, 2.00647, 2.0069, 2.00602, 2.03199, 2.0225, 2.04982, 2.10336, 2.01476, 1.98648, 1.98677, 2.02164, 2.09645, 2.09394, 2.08986, 2.02302, 1.95795, 1.95826, 1.95777, 1.95357, 1.95307, 1.95219, 1.90968, 1.96181, 1.96962, 1.82448, 1.89384, 1.84157, 1.79567, 1.78283, 1.81508, 1.81346, 1.82127, 1.86247, 1.77881, 1.77813, 1.83, 1.7264, 1.72711, 1.66978, 1.67563, 1.68111, 1.67878, 1.59682, 1.58114, 1.57196, 1.53229, 1.51345, 1.5353, 1.59195, 1.49328, 1.47289, 1.44694, 1.37856, 1.29143, 1.27397, 1.17249, 1.07452, 0.998088, 0.95707, 0.935312, 0.956131, 0.872899, 0.877355, 0.878369, 0.871788, 0.872745, 0.909574, 0.909427, 0.888462, 1.39529, 0.915364, 0.918908, 0.921864, 0.922841, 0.924188, 0.926038, 0.928706, 0.926936, 0.928637, 0.928956, 0.929714, 0.930831, 0.931368, 0.931836, 0.93366, 0.93488, 0.935372, 0.935405, 0.936884, 0.937108, 0.937683, 0.940187, 0.940296, 0.940481, 0.941562, 0.927555, 0.92975, 0.918802, 0.918025, 1.15213, 0.930585, 0.930335, 0.931718, 0.926767, 0.92655, 0.926079, 0.92576, 0.925384, 0.927416, 0.928198, 0.9282, 1.03571, 0.909096, 0.907485
1.09486, 1.09119, 1.09085, 1.08669, 1.08266, 1.07935, 1.07876, 1.07616, 1.07505, 1.07367, 1.07262, 1.06964, 1.06843, 1.0668, 1.06241, 1.06203, 1.05952, 1.05609, 1.05384, 1.05324, 1.05216, 1.04887, 1.0475, 1.04837, 1.0466, 1.04293, 1.04077, 1.03967, 1.0398, 1.04329, 1.0392, 1.03851, 1.03774, 1.03449, 1.03174, 1.02916, 1.0285, 1.02654, 1.02498, 1.02259, 1.02211, 1.02004, 1.01656, 1.01627, 1.01359, 1.0126, 1.01051, 1.01092, 1.00752, 1.00646, 1.00415, 1.00445, 0.995486, 0.994076, 0.992455, 0.992085, 0.994011, 0.984455, 0.981118, 0.982214, 0.96751, 0.967888, 0.957867, 0.957176, 0.952362, 0.945522, 0.945669, 1.00248, 1.01998, 1.05058, 1.08242, 1.14767, 1.21702, 1.27163, 1.31271, 1.39899, 1.42285, 1.44547, 1.48915, 1.55722, 1.56531, 1.58371, 1.66115, 1.69448, 1.65178, 1.79632, 1.72639, 1.84157, 1.71939, 1.71959, 1.86235, 1.87239, 1.86923, 1.86471, 1.86506, 1.88357, 1.89792, 1.98961, 1.93372, 1.9249, 1.98688, 2.02497, 2.00841, 2.08558, 2.086, 1.96001, 2.11104, 2.11074, 2.11109, 2.11069, 2.03152, 2.27714, 2.04181, 2.04664, 2.0477, 2.04849, 2.05435, 2.05386, 2.05506, 2.05583, 2.07905, 2.07913, 2.01044, 2.0079, 2.00698, 2.01117, 2.01619, 2.0154, 2.01435, 2.01318, 2.0131, 2.01155, 2.031, 2.0288, 1.9866, 1.98596, 1.98511, 2.07711, 2.12121, 2.11608, 2.14554, 1.95786, 1.95805, 1.95706, 1.9795, 1.98067, 1.92164, 1.92069, 1.92053, 1.91917, 1.88291, 1.88962, 1.88948, 1.89332, 1.84775, 1.8198, 1.81974, 1.8193, 1.79325, 1.79262, 1.79287, 1.82775, 1.78974, 1.71769, 1.75157, 1.74772, 1.69026, 1.67631, 1.58224, 1.57649, 1.52049, 1.52364, 1.52623, 1.52484, 1.57213, 1.48947, 1.47677, 1.47566, 1.43964, 1.36511, 1.34325, 1.2223, 1.09528, 1.06552, 1.01642, 0.936274, 0.914487, 0.92855, 0.8752, 0.874227, 0.866001, 0.936143, 0.860873, 0.860331, 0.884396, 0.885149, 1.0806, 0.918211, 0.919674, 0.921624, 0.922814, 0.922755, 0.925408, 0.926164, 0.928097, 0.929482, 0.931225, 0.931697, 0.931703, 0.931838, 0.933582, 0.935021, 0.935496, 0.935299, 0.936736, 0.937829, 0.937994, 0.938919, 0.938654, 0.938623, 0.937709, 0.937355, 0.928626, 0.929023, 0.914584, 0.915185, 0.914429, 0.925169, 0.925498, 0.928366, 0.928683, 0.928837, 0.928922, 0.921657, 0.9225, 0.924589, 0.919878, 0.919324, 1.03237, 1.23809
