1.10867, 1.10112, 1.10099, 1.10069, 1.09729, 1.09747, 1.09398, 1.09332, 1.08974, 1.08799, 1.08717, 1.08398, 1.08296, 1.08027, 1.07961, 1.07615, 1.07534, 1.07428, 1.0702, 1.06949, 1.06789, 1.06678, 1.06575, 1.06503, 1.06362, 1.06204, 1.05836, 1.05951, 1.05863, 1.05747, 1.05712, 1.05601, 1.05534, 1.05296, 1.05154, 1.05192, 1.04838, 1.04681, 1.0475, 1.04701, 1.04671, 1.04211, 1.03963, 1.03898, 1.03962, 1.03812, 1.03721, 1.03852, 1.03769, 1.03807, 1.03889, 1.0391, 1.03927, 1.03903, 1.03702, 1.03866, 1.03846, 1.0376, 1.03754, 1.03723, 1.03719, 1.04056, 1.04205, 1.04222, 1.04241, 1.04214, 1.04141, 1.04009, 1.02325, 1.02336, 1.02457, 1.02049, 1.05573, 1.06037, 1.01167, 1.00495, 1.07633, 0.996875, 0.99478, 0.995336, 0.964193, 0.964826, 0.933845, 0.967648, 0.946286, 0.974091, 0.995396, 0.974961, 1.00519, 1.03339, 1.05354, 1.07738, 1.09834, 1.15416, 1.18501, 1.2154, 1.36559, 1.37297, 1.37778, 1.48173, 1.46786, 1.49096, 1.53353, 1.63873, 1.61742, 1.64331, 1.66757, 1.64229, 1.64019, 1.66249, 1.66122, 1.66166, 1.67719, 1.66841, 1.69569, 1.73213, 1.70628, 1.73188, 1.8061, 1.80964, 1.84225, 1.84776, 1.83899, 1.83843, 1.84019, 1.84193, 1.84124, 1.87295, 1.88998, 1.8137, 1.8395, 1.86564, 1.83352, 1.95224, 1.95129, 1.95145, 1.9585, 1.93199, 1.93367, 1.93531, 1.92681, 1.92633, 2.03814, 2.00815, 1.94175, 1.99215, 2.07532, 2.06738, 1.96933, 1.96873, 1.96843, 1.95974, 1.95932, 1.99784, 1.96514, 1.95076, 1.93769, 2.05437, 1.99375, 1.99521, 2.04171, 2.02513, 1.96618, 1.87999, 1.88047, 1.9191, 1.86562, 1.86501, 1.87478, 1.87516, 1.93695, 1.93846, 1.93819, 1.93985, 1.90426, 1.90635, 1.9446, 2.02462, 2.02554, 1.91685, 1.91691, 1.91618, 1.93921, 1.82151, 1.87517, 1.87947, 1.86881, 1.83742, 1.82186, 1.7784, 1.77814, 1.85318, 1.77911, 1.76688, 1.74067, 1.75071, 1.689, 1.68867, 1.68772, 1.75321, 1.67353, 1.67259, 1.6745, 1.66968, 1.73318, 1.69569, 1.72423, 1.59029, 1.58734, 1.53706, 1.54044, 1.59651, 1.51999, 1.4927, 1.45858, 1.45524, 1.48969, 1.46376, 1.43219, 1.32439, 1.24659, 1.24455, 1.18473, 1.14434, 1.03887, 1.03023, 0.996009, 0.996683, 0.965522, 0.966997, 0.93362, 1.00753, 1.13905, 0.928207, 0.923634, 1.07312, 1.11775, 0.940753, 0.969531, 1.04058, 1.50493, 1.44675, 1.15104, 1.32418, 0.99353, 0.994548, 1.048, 1.03589, 1.17932, 0.993488, 1.03989, 1.04036, 1.04113, 0.990486, 1.35769, 1.04763, 1.19032, 1.19393, 1.18297, 1.13347, 1.04057, 1.04306, 0.960959, 0.960901, 0.958217, 0.962351, 0.962878, 0.958443, 0.959249, 0.963722, 1.14437, 1.2581, 1.15121, 0.942454, 1.15487, 1.15411, 1.22309, 1.24604, 0.959387, 1.25354, 1.16873, 1.24756, 1.24973, 1.32434, 1.25914, 1.26351, 1.42271, 0.974646, 0.962233, 0.983714, 0.965119, 0.959317, 0.959395, 0.959401, 1.01522, 1.01496, 1.0769, 1.08954, 1.29191, 1.01804
1.10443, 1.1028, 1.102, 1.09733, 1.09666, 1.09079, 1.09083, 1.09064, 1.08934, 1.0872, 1.08413, 1.08334, 1.0777, 1.07717, 1.07932, 1.07497, 1.07481, 1.07084, 1.07044, 1.06798, 1.06734, 1.0652, 1.06338, 1.06374, 1.0614, 1.06157, 1.05955, 1.05883, 1.05967, 1.05627, 1.05461, 1.05434, 1.05428, 1.05162, 1.05188, 1.04856, 1.04638, 1.04596, 1.04622, 1.04562, 1.04634, 1.04671, 1.04244, 1.04222, 1.0422, 1.0401, 1.03886, 1.03861, 1.03878, 1.03997, 1.03974, 1.04066, 1.038, 1.03773, 1.03667, 1.03272, 1.03861, 1.07709, 1.07711, 1.09433, 1.03307, 1.03994, 1.04064, 1.03862, 1.03819, 1.03979, 1.03644, 1.03676, 1.03733, 1.02201, 1.02158, 1.11829, 1.01052, 1.01058, 1.05884, 1.08459, 0.992719, 0.993406, 0.995152, 0.985283, 0.994348, 0.97129, 0.931821, 0.932473, 0.938127, 0.937775, 0.937938, 0.970089, 0.970039, 1.00451, 1.03127, 1.10278, 1.11545, 1.20527, 1.20629, 1.27415, 1.39003, 1.41533, 1.46864, 1.46618, 1.51486, 1.53269, 1.64493, 1.62806, 1.62671, 1.64115, 1.64825, 1.64454, 1.64197, 1.65171, 1.75495, 1.70135, 1.76128, 1.7007, 1.7297, 1.71096, 1.71013, 1.72268, 1.78202, 1.8212, 1.77879, 1.7808, 1.78097, 1.87999, 1.84867, 1.86469, 1.88013, 1.88187, 1.88635, 1.85515, 1.84962, 1.87278, 1.86181, 1.90709, 1.94924, 1.92846, 2.01427, 1.93365, 1.93401, 1.93434, 1.93265, 1.93046, 1.93094, 1.92972, 1.93568, 1.93457, 2.07541, 2.07356, 1.96616, 1.96789, 1.96646, 1.95947, 1.9655, 1.96315, 1.94043, 2.01474, 1.98531, 1.98467, 1.96071, 2.01509, 2.01199, 2.02504, 1.9856, 1.92276, 1.9898, 1.92741, 1.86618, 1.86591, 1.86533, 1.94056, 1.93827, 1.93919, 1.9386, 1.94204, 1.91076, 1.90209, 1.94099, 1.93975, 1.9266, 1.92641, 1.917, 1.91534, 1.87175, 1.82267, 1.8594, 1.82069, 1.82154, 1.82139, 1.81662, 1.77885, 1.77818, 1.81322, 1.81274, 1.87627, 1.74079, 1.74033, 1.8043, 1.75022, 1.74876, 1.74772, 1.67635, 1.67306, 1.67052, 1.7105, 1.71015, 1.65063, 1.71618, 1.62616, 1.59028, 1.55728, 1.52377, 1.53535, 1.50441, 1.50228, 1.50165, 1.45462, 1.45548, 1.46443, 1.3924, 1.38447, 1.27836, 1.24194, 1.18162, 1.13352, 1.07023, 1.11588, 1.09289, 0.99159, 0.998239, 1.01031, 1.06687, 1.1746, 1.0756, 1.06022, 1.09459, 0.948098, 0.931794, 0.953164, 0.946002, 0.912188, 1.00136, 1.44699, 1.33826, 1.03006, 0.990637, 0.990206, 0.988881, 0.993666, 1.03998, 1.04236, 1.039, 1.0394, 1.04036, 1.13716, 1.04255, 0.967076, 0.966945, 1.18972, 1.1412, 1.14164, 1.04259, 0.960488, 0.961287, 0.962764, 0.963819, 0.963813, 0.964358, 0.959738, 0.960123, 1.23187, 0.960193, 0.952027, 0.952926, 0.936171, 0.937457, 0.935756, 0.936096, 1.43342, 0.954354, 0.956899, 1.25969, 1.28247, 1.24633, 1.31308, 0.967315, 1.41894, 0.968132, 0.968833, 0.96121, 0.960706, 1.27114, 0.957488, 0.959078, 1.02642, 0.994101, 0.994724, 0.994306, 1.20892, 1.02828, 1.02926
1.09719, 1.09789, 1.09655, 1.09771, 1.09766, 1.09284, 1.09073, 1.08954, 1.08808, 1.08655, 1.08375, 1.0818, 1.08067, 1.07821, 1.07678, 1.07658, 1.07648, 1.07189, 1.06838, 1.06714, 1.06702, 1.06348, 1.06158, 1.06099, 1.06081, 1.05982, 1.05953, 1.05615, 1.0564, 1.05487, 1.05289, 1.05178, 1.05248, 1.0493, 1.04909, 1.04905, 1.04575, 1.04477, 1.04416, 1.04344, 1.0457, 1.03932, 1.03877, 1.03647, 1.03638, 1.03506, 1.03479, 1.03333, 1.03342, 1.03233, 1.03364, 1.03699, 1.02959, 1.02956, 1.02839, 1.02492, 1.02487, 1.02495, 1.02435, 1.02343, 1.02284, 1.02214, 1.02211, 1.02127, 1.03856, 1.02037, 1.04005, 1.03886, 1.03539, 1.0355, 1.05026, 1.37292, 1.05801, 1.00681, 1.00635, 0.996396, 0.986994, 0.988578, 1.06418, 0.97977, 0.979557, 0.978327, 0.978959, 0.924565, 0.924996, 0.927046, 0.974242, 0.966, 0.985141, 1.00269, 1.07024, 1.10155, 1.1951, 1.20539, 1.28425, 1.30651, 1.39179, 1.39205, 1.4276, 1.53464, 1.48058, 1.53628, 1.53593, 1.62446, 1.62345, 1.60739, 1.71253, 1.64895, 1.63865, 1.67254, 1.7619, 1.75958, 1.75942, 1.73254, 1.72973, 1.72773, 1.7261, 1.72643, 1.74482, 1.77169, 1.854, 1.77986, 1.78085, 1.80923, 1.81809, 1.91658, 1.90936, 1.91014, 1.9257, 1.8826, 1.92355, 1.92354, 1.92367, 2.08326, 1.9523, 1.95142, 1.95259, 1.95476, 1.93761, 1.97306, 1.93345, 1.93166, 1.93043, 1.93064, 2.00138, 1.93574, 2.0652, 1.96727, 1.96747, 1.96746, 1.95808, 1.95771, 1.95069, 1.93824, 1.97211, 1.95322, 2.01441, 2.07671, 2.03756, 2.01678, 2.01861, 1.98558, 1.98743, 1.98767, 1.9616, 2.0047, 2.00326, 1.86542, 1.90073, 1.94065, 1.94001, 1.93919, 1.91864, 1.92653, 1.94478, 1.94552, 1.94217, 1.94141, 1.95942, 1.93423, 1.97575, 1.90499, 1.86924, 1.85514, 1.82173, 1.82107, 1.82171, 1.82073, 1.81082, 1.81717, 1.80247, 1.81765, 1.79694, 1.81033, 1.78643, 1.86125, 1.78203, 1.78913, 1.74655, 1.71093, 1.68949, 1.73029, 1.65985, 1.65839, 1.71478, 1.67852, 1.67741, 1.68904, 1.6892, 1.59588, 1.58834, 1.58218, 1.56475, 1.48842, 1.56929, 1.48193, 1.44444, 1.44304, 1.45086, 1.35499, 1.35487, 1.255, 1.1771, 1.15383, 1.15437, 1.05891, 1.03551, 1.00931, 0.968687, 0.966017, 1.02498, 0.934087, 0.92924, 1.06824, 1.06737, 0.899113, 1.10339, 0.976392, 0.88205, 0.882177, 0.913227, 1.33624, 1.34279, 1.05421, 1.03678, 1.03716, 1.0537, 1.08138, 1.08437, 0.950307, 1.04308, 1.04269, 1.04276, 0.963347, 0.965041, 0.965956, 0.965004, 1.04299, 1.04284, 0.959636, 1.17416, 0.960764, 0.961068, 0.961757, 0.962153, 1.19192, 0.956744, 1.17434, 1.16381, 1.14585, 1.22973, 1.01361, 0.944649, 0.934447, 0.935048, 0.935719, 0.937269, 0.939129, 0.939436, 1.23427, 1.35415, 1.23968, 0.973872, 1.0014, 1.25391, 1.25423, 0.950069, 0.947831, 1.14084, 1.27189, 1.27409, 0.957041, 0.940753, 0.940371, 0.939428, 0.936897, 0.938102, 0.938287, 0.938263, 0.935861
1.09753, 1.09739, 1.09618, 1.09833, 1.09708, 1.09512, 1.09065, 1.09024, 1.08934, 1.08617, 1.08556, 1.08141, 1.07975, 1.07835, 1.07789, 1.07569, 1.07111, 1.07013, 1.06714, 1.06631, 1.06396, 1.06282, 1.06026, 1.05957, 1.05951, 1.05744, 1.0575, 1.05682, 1.05576, 1.05501, 1.05184, 1.05062, 1.05066, 1.0496, 1.04838, 1.04906, 1.04443, 1.04296, 1.04322, 1.04415, 1.04159, 1.03642, 1.03423, 1.0354, 1.0355, 1.035, 1.03288, 1.03227, 1.03179, 1.03178, 1.03217, 1.02917, 1.03038, 1.02945, 1.02642, 1.02522, 1.02495, 1.02387, 1.02322, 1.02204, 1.02112, 1.02057, 1.02085, 1.01837, 1.01735, 1.01717, 1.01275, 1.01096, 1.01299, 1.10052, 1.01399, 1.01458, 1.00819, 1.00743, 1.00118, 1.00062, 0.990856, 1.05853, 1.06469, 0.979201, 0.970146, 0.968123, 0.933719, 0.93262, 0.936719, 0.952109, 0.96161, 0.990134, 0.989611, 1.03996, 1.13215, 1.10894, 1.16926, 1.23707, 1.29154, 1.38226, 1.38206, 1.39897, 1.44773, 1.53642, 1.53526, 1.53304, 1.53523, 1.61325, 1.61334, 1.61326, 1.62049, 1.63755, 1.63433, 1.66196, 1.74773, 1.74737, 1.76148, 1.73228, 1.73156, 1.72852, 1.72547, 1.72505, 1.76281, 1.91267, 1.91402, 1.87513, 1.78577, 1.84822, 1.8497, 1.84873, 1.84171, 1.86927, 1.88231, 1.88947, 1.99978, 1.92439, 1.94235, 1.94208, 1.95301, 1.95334, 1.95272, 1.95243, 1.93487, 1.97282, 1.97258, 1.93044, 1.93882, 1.9302, 1.99964, 1.98221, 2.02446, 1.96959, 1.96807, 1.96709, 1.96618, 1.96333, 1.94648, 1.93978, 1.94536, 1.94437, 1.99329, 2.09091, 2.08986, 2.08947, 2.04604, 1.95865, 1.95214, 1.97275, 1.96778, 1.93771, 1.95116, 1.93582, 1.90677, 1.9073, 1.92098, 1.91502, 1.92023, 1.91963, 1.91853, 1.95405, 1.9435, 1.9419, 1.93962, 1.94768, 1.91055, 1.91, 2.0002, 1.85142, 1.84423, 1.89555, 1.83703, 1.8588, 1.8583, 1.80633, 1.79224, 1.79177, 1.79075, 1.81379, 1.83785, 1.76507, 1.79029, 1.76232, 1.73853, 1.70431, 1.6927, 1.70266, 1.70731, 1.67666, 1.66572, 1.64196, 1.61439, 1.59304, 1.62677, 1.57947, 1.58898, 1.58154, 1.54246, 1.54135, 1.51041, 1.55092, 1.47582, 1.44659, 1.46804, 1.46055, 1.36738, 1.27435, 1.24116, 1.18621, 1.15741, 1.14847, 1.06305, 1.03599, 0.978983, 1.03359, 1.03303, 0.952527, 1.09384, 1.09546, 1.06425, 0.898069, 1.07079, 1.0718, 0.883121, 0.9133, 0.973364, 1.33782, 1.33702, 1.07119, 0.950258, 1.05044, 1.08238, 1.13574, 0.950937, 0.95149, 0.951698, 1.34981, 0.953484, 1.07744, 1.35239, 0.959934, 0.960686, 0.959737, 0.960016, 0.957254, 0.95784, 1.1267, 0.959654, 1.13285, 1.1429, 1.13151, 1.13556, 1.13723, 0.946545, 0.946494, 0.946312, 0.939558, 1.18891, 1.23686, 0.934633, 0.935803, 0.938223, 0.939031, 0.939225, 0.938637, 0.939251, 0.941033, 0.941662, 1.00392, 0.938718, 1.25287, 1.0014, 0.946037, 1.00878, 1.03622, 1.42515, 1.27877, 0.938902, 0.939286, 0.938042, 0.938573, 0.937635, 0.937795, 0.938757, 0.936512
1.09346, 1.09225, 1.09277, 1.09228, 1.09352, 1.09418, 1.09388, 1.29297, 1.1083, 1.11097, 1.26484, 1.08132, 1.08004, 1.08001, 1.07768, 1.07337, 1.07131, 1.06949, 1.06361, 1.06327, 1.06299, 1.06115, 1.06044, 1.0576, 1.05643, 1.05598, 1.05613, 1.05605, 1.0547, 1.05162, 1.05297, 1.05009, 1.04901, 1.04929, 1.04665, 1.04641, 1.04393, 1.04356, 1.04262, 1.0411, 1.04042, 1.03892, 1.03684, 1.03505, 1.03553, 1.03185, 1.03198, 1.03186, 1.03166, 1.02884, 1.02883, 1.02931, 1.03031, 1.03107, 1.03156, 1.02534, 1.02381, 1.02326, 1.02342, 1.02368, 1.21589, 1.02021, 1.01821, 1.01944, 1.01724, 1.01468, 1.01425, 1.01179, 1.00926, 1.01119, 1.01146, 1.01517, 1.01262, 1.00781, 1.00714, 1.10198, 0.986533, 0.986022, 0.975453, 0.978193, 0.977127, 0.977719, 0.981075, 0.969593, 0.929463, 0.947075, 0.979972, 1.00126, 1.00333, 1.04593, 1.10108, 1.20179, 1.26777, 1.37044, 1.34397, 1.35889, 1.39147, 1.39134, 1.43587, 1.44842, 1.4946, 1.50831, 1.507, 1.60994, 1.57597, 1.59645, 1.6445, 1.69214, 1.65566, 1.66741, 1.66622, 1.75292, 1.72367, 1.81027, 1.76773, 1.73047, 1.76572, 1.89126, 1.89302, 1.8171, 1.89897, 1.80018, 1.87992, 1.83715, 1.81872, 1.88207, 1.87616, 1.86736, 1.86727, 1.93341, 1.98697, 1.94478, 1.94899, 1.9416, 2.0759, 1.95137, 1.95223, 1.95317, 2.05269, 1.94266, 1.94418, 1.93687, 1.93242, 1.9305, 1.98636, 1.97252, 2.01031, 1.97154, 1.97076, 1.97072, 1.96956, 1.94476, 1.94395, 1.98028, 1.94559, 1.94526, 1.94506, 2.09204, 2.09164, 2.05898, 2.0625, 2.06111, 2.01722, 1.96673, 1.95887, 1.9416, 1.92771, 1.91797, 1.91765, 1.94247, 1.91648, 1.91667, 1.91564, 1.91985, 1.94351, 2.00485, 2.00493, 1.95959, 1.97396, 1.91303, 1.91117, 1.9097, 1.99919, 1.89041, 1.91776, 1.88309, 1.85144, 1.85231, 1.85142, 1.81309, 1.8195, 1.79218, 1.79353, 1.78724, 1.77441, 1.76473, 1.76444, 1.78644, 1.78609, 1.751, 1.68898, 1.7571, 1.75606, 1.67258, 1.65124, 1.63637, 1.62687, 1.62637, 1.58626, 1.63492, 1.58898, 1.58868, 1.54844, 1.53062, 1.53354, 1.51554, 1.51593, 1.4551, 1.46936, 1.39885, 1.37446, 1.32959, 1.26129, 1.22189, 1.20462, 1.1647, 1.08133, 1.06998, 1.00666, 0.995139, 0.964365, 1.03988, 1.06595, 1.06671, 0.901952, 1.07103, 1.0722, 0.875827, 1.20163, 0.892018, 0.901023, 0.918071, 0.95567, 1.15698, 0.948416, 1.34298, 0.948438, 0.946317, 0.946175, 0.946276, 0.948032, 1.15163, 0.952936, 1.10812, 1.10522, 0.960617, 0.957565, 0.957268, 0.954223, 1.11712, 1.11767, 0.952052, 0.952657, 0.949407, 1.14765, 0.951463, 0.951582, 0.948348, 0.946485, 0.9474, 0.937799, 0.941033, 0.94005, 0.990676, 0.956813, 1.14069, 0.936843, 0.937207, 0.93597, 0.935597, 0.935446, 0.932055, 0.932952, 1.14408, 1.03713, 1.03668, 1.06989, 0.922223, 1.07305, 1.07939, 1.17046, 1.2673, 1.2752, 0.93499, 0.935142, 0.937154, 0.937332, 0.9387, 0.939833, 0.941174
1.09325, 1.09383, 1.09387, 1.09335, 1.09311, 1.09407, 1.33398, 1.1087, 1.32542, 1.44646, 1.4411, 1.281, 1.07611, 1.07171, 1.06922, 1.06731, 1.06675, 1.06436, 1.0635, 1.06308, 1.06118, 1.05965, 1.05925, 1.05679, 1.05634, 1.0561, 1.05622, 1.05285, 1.05027, 1.04998, 1.20244, 1.20494, 1.05004, 1.04919, 1.0474, 1.04567, 1.04372, 1.04327, 1.04233, 1.04065, 1.03888, 1.03768, 1.03666, 1.03632, 1.03443, 1.03237, 1.03183, 1.03114, 1.02978, 1.02997, 1.03001, 1.03043, 1.0304, 1.03181, 1.19919, 1.02827, 1.02678, 1.02432, 1.02458, 1.02002, 1.01959, 1.01811, 1.01598, 1.01566, 1.01533, 1.01308, 1.01352, 1.00658, 1.00708, 1.00749, 1.00729, 1.00906, 1.01039, 1.01864, 0.991282, 0.987588, 0.985409, 0.985217, 1.00612, 0.952014, 0.920277, 0.932053, 0.936889, 0.945916, 0.931939, 0.930265, 0.974943, 1.00456, 1.03859, 1.05977, 1.16182, 1.20383, 1.3175, 1.33788, 1.326, 1.36125, 1.40831, 1.43335, 1.43342, 1.5061, 1.51248, 1.52295, 1.53758, 1.60761, 1.5767, 1.65795, 1.6023, 1.64099, 1.65178, 1.75099, 1.75094, 1.68105, 1.74441, 1.72808, 1.76915, 1.75594, 1.84191, 1.75203, 1.79672, 1.79315, 1.7891, 1.80034, 1.80644, 1.80632, 1.93759, 1.94412, 1.86942, 1.86817, 1.86799, 1.94072, 1.99658, 1.93494, 2.01164, 2.00906, 2.00942, 2.04465, 1.95252, 1.98995, 1.98986, 2.05172, 1.94454, 1.97501, 1.97335, 2.08958, 2.01448, 2.01343, 2.01344, 1.96873, 1.96979, 1.97222, 1.96219, 1.94569, 1.94573, 1.94461, 1.96531, 2.0363, 2.03561, 2.03401, 2.066, 2.05909, 2.0599, 2.00141, 2.06618, 2.07342, 1.96917, 1.94988, 1.97636, 1.91959, 1.93903, 1.93765, 1.91681, 1.91736, 1.95221, 2.09307, 1.99972, 2.00534, 2.00587, 1.93487, 1.93638, 1.94069, 1.94176, 1.90707, 1.90479, 1.91633, 1.8984, 1.91666, 1.88645, 1.86124, 1.92733, 1.85213, 1.855, 1.79645, 1.7962, 1.77529, 1.77488, 1.77609, 1.78951, 1.76643, 1.79029, 1.75105, 1.75052, 1.73042, 1.68981, 1.66092, 1.6534, 1.64424, 1.61705, 1.60867, 1.5855, 1.57505, 1.57329, 1.57332, 1.57194, 1.53884, 1.51422, 1.51312, 1.5403, 1.5386, 1.46801, 1.42711, 1.37898, 1.34068, 1.32103, 1.23714, 1.21333, 1.19585, 1.15765, 1.06293, 1.04435, 0.970408, 0.96827, 0.966031, 0.965864, 1.06479, 1.06498, 0.966214, 0.874166, 0.875362, 0.873773, 0.869951, 0.871625, 0.922334, 0.932921, 0.945555, 0.944381, 0.946235, 1.12343, 0.93972, 0.945205, 0.944807, 1.11137, 1.15091, 0.949944, 0.951616, 0.952458, 0.952947, 0.955995, 0.954045, 0.95227, 0.951572, 0.951632, 0.953234, 0.952825, 0.948202, 0.948554, 0.94937, 0.950801, 0.951294, 0.950489, 1.20625, 0.939356, 0.939879, 0.940887, 0.970465, 0.920602, 0.922425, 0.932049, 0.933107, 0.934147, 0.935469, 0.935613, 0.932679, 0.931787, 0.92176, 0.923486, 0.923259, 0.921839, 0.922522, 0.923148, 0.921688, 0.921419, 0.923608, 1.18228, 0.930201, 0.932042, 1.19667, 0.93671, 0.937318, 0.939412, 0.940586
1.09315, 1.09295, 1.09404, 1.09484, 1.46827, 1.39664, 1.2853, 1.28839, 1.2955, 1.07391, 1.07698, 1.07322, 1.06986, 1.06758, 1.06661, 1.06694, 1.06465, 1.06464, 1.06262, 1.06102, 1.05945, 1.05612, 1.05659, 1.05709, 1.05742, 1.05592, 1.05604, 1.05408, 1.0594, 1.04952, 1.05514, 1.35521, 1.05181, 1.28053, 1.04513, 1.04265, 1.0437, 1.04327, 1.04113, 1.03887, 1.03829, 1.03777, 1.03602, 1.03425, 1.03459, 1.03339, 1.03283, 1.02391, 1.02209, 1.02329, 1.02269, 1.08738, 1.26348, 1.43676, 1.02662, 1.02679, 1.28148, 1.01877, 1.01823, 1.0169, 1.01704, 1.01543, 1.01476, 1.01223, 1.01115, 1.00749, 1.0078, 1.00653, 1.00503, 1.00546, 1.00346, 0.999015, 0.995549, 0.99099, 0.989843, 0.985031, 0.985315, 0.985857, 1.00928, 0.971849, 0.971217, 0.932629, 0.952424, 0.923722, 0.947801, 0.969691, 0.993482, 1.00693, 1.04095, 1.07416, 1.09534, 1.20635, 1.2295, 1.3251, 1.32347, 1.35431, 1.42447, 1.41984, 1.43633, 1.46217, 1.48996, 1.51065, 1.54095, 1.57807, 1.69016, 1.59746, 1.65995, 1.66323, 1.63975, 1.66607, 1.6656, 1.66489, 1.69944, 1.74382, 1.77883, 1.81713, 1.86182, 1.79096, 1.83073, 1.82231, 1.82047, 1.8419, 1.81448, 1.84024, 1.83848, 1.856, 1.8679, 1.88547, 1.9103, 1.92205, 1.92359, 2.0084, 2.00784, 1.93407, 2.01433, 2.04362, 2.04323, 1.99075, 2.06653, 1.9926, 1.99592, 1.97286, 1.97302, 2.02051, 2.01713, 2.01431, 1.96947, 1.96907, 1.96683, 1.96304, 1.96294, 2.05132, 2.05165, 2.04951, 2.04934, 1.95872, 2.0367, 2.04483, 2.05889, 2.09121, 1.9973, 2.00356, 2.07252, 2.07011, 2.00251, 1.97347, 1.95976, 1.93672, 1.93782, 1.94105, 1.9385, 1.95233, 2.03471, 2.0373, 2.0357, 1.9627, 1.97988, 1.96637, 1.91454, 1.89958, 1.89901, 1.89984, 1.94005, 1.89349, 1.90006, 1.89784, 1.91099, 1.9103, 1.8701, 1.86896, 1.84517, 1.81359, 1.80666, 1.77554, 1.77519, 1.77341, 1.76477, 1.76451, 1.77766, 1.77667, 1.77426, 1.76994, 1.70301, 1.66562, 1.67697, 1.66122, 1.63782, 1.62055, 1.6336, 1.59923, 1.58264, 1.57551, 1.56807, 1.62951, 1.62829, 1.51011, 1.5064, 1.53744, 1.48508, 1.44686, 1.39693, 1.38572, 1.33272, 1.32759, 1.20997, 1.17511, 1.15855, 1.09302, 1.01585, 0.952853, 1.01983, 0.96519, 0.965105, 1.06394, 1.00595, 1.00387, 0.88145, 0.871718, 0.869806, 0.86989, 0.871159, 0.900331, 1.08773, 1.40356, 1.06963, 0.920154, 1.06963, 0.937438, 0.938504, 1.27696, 1.27435, 0.945819, 0.94885, 0.950073, 1.10215, 0.95592, 0.956333, 0.956153, 0.955756, 0.954825, 0.952611, 0.952488, 0.952632, 0.945783, 0.947933, 0.950612, 0.962509, 0.980491, 1.19823, 0.991224, 0.972912, 1.20557, 0.92859, 0.931594, 0.93125, 0.921706, 0.932676, 0.930834, 0.932676, 0.933407, 0.935665, 1.15648, 1.04564, 0.923392, 0.924063, 0.923017, 0.92125, 0.921668, 0.921605, 0.921354, 0.921494, 0.921427, 0.921617, 1.12577, 1.22944, 0.926158, 1.18856, 1.18976, 1.18993, 1.25178
1.09235, 1.08587, 1.08626, 1.08677, 1.07817, 1.078, 1.07889, 1.07686, 1.07298, 1.07337, 1.07323, 1.07094, 1.06989, 1.06976, 1.0673, 1.06656, 1.06435, 1.06393, 1.06192, 1.06194, 1.17034, 1.05424, 1.0554, 1.05621, 1.05579, 1.05502, 1.05336, 1.05202, 1.05146, 1.0446, 1.04474, 1.04975, 1.04212, 1.04144, 1.03719, 1.04053, 1.04128, 1.04033, 1.04043, 1.03884, 1.03856, 1.0372, 1.03371, 1.03379, 1.03211, 1.03183, 1.03055, 1.02201, 1.0225, 1.02211, 1.02221, 1.01866, 1.01711, 1.01727, 1.01648, 1.01569, 1.01532, 1.26719, 1.01867, 1.01538, 1.0149, 1.01189, 1.00982, 1.01001, 1.007, 1.00551, 1.00497, 1.0016, 1.00076, 1.00047, 0.999259, 0.996661, 1.38183, 0.987905, 0.987275, 0.987011, 0.969843, 0.979937, 0.963544, 0.963256, 0.951554, 0.939419, 0.938669, 0.95613, 0.95328, 0.972103, 1.01547, 1.00371, 1.03081, 1.07639, 1.13201, 1.22355, 1.22494, 1.35496, 1.35191, 1.38077, 1.43661, 1.41414, 1.45442, 1.49143, 1.51688, 1.51733, 1.59579, 1.58918, 1.60354, 1.61667, 1.64861, 1.64105, 1.69212, 1.67186, 1.67195, 1.68575, 1.80741, 1.83098, 1.77795, 1.81364, 1.86234, 1.83512, 1.82902, 1.89831, 1.89775, 1.84454, 1.83885, 1.91106, 1.91071, 1.90911, 1.89683, 1.88492, 1.9148, 1.91462, 1.91628, 1.92749, 1.92843, 1.92856, 1.9573, 2.06999, 2.05006, 2.08966, 2.08961, 2.08245, 2.06975, 2.06994, 2.02014, 2.01923, 2.01866, 2.11092, 1.96873, 1.97322, 1.9808, 2.04484, 2.03934, 2.03889, 2.05175, 2.04967, 2.04976, 2.04878, 2.03606, 2.05946, 2.06085, 2.05425, 1.9983, 2.06235, 2.0587, 2.09156, 2.05155, 2.0256, 1.98986, 1.93808, 1.93966, 1.93843, 2.01086, 2.14177, 2.0318, 2.04285, 1.9801, 1.96627, 1.9598, 1.96311, 1.90041, 1.89997, 1.89997, 1.94169, 1.94205, 1.95844, 1.89931, 1.89907, 1.91177, 1.91057, 1.87038, 1.90514, 1.80473, 1.80575, 1.77594, 1.79216, 1.79306, 1.85633, 1.85116, 1.83617, 1.83577, 1.78809, 1.78762, 1.77074, 1.69741, 1.67204, 1.6756, 1.67237, 1.65708, 1.64441, 1.61521, 1.62784, 1.58224, 1.57349, 1.58798, 1.58906, 1.53653, 1.5866, 1.50673, 1.50546, 1.53839, 1.48977, 1.43677, 1.43621, 1.37062, 1.33448, 1.26498, 1.2206, 1.10987, 1.07139, 0.990912, 1.00213, 0.983629, 0.964045, 0.928807, 0.892344, 1.00432, 0.924513, 0.925449, 0.866911, 0.867188, 0.868695, 0.874172, 0.876967, 0.876925, 1.07607, 1.0705, 1.10305, 1.0704, 0.991053, 1.336, 1.19839, 1.40584, 1.3004, 1.00131, 1.10228, 1.13666, 1.01545, 1.01253, 1.27492, 0.954843, 0.953549, 0.95396, 0.953082, 1.18982, 0.954256, 0.951662, 0.951804, 1.06681, 0.929228, 0.93306, 0.933463, 0.934889, 0.928333, 0.928708, 0.929167, 0.930752, 0.919793, 0.92132, 1.11146, 1.11313, 0.932224, 0.932224, 0.929259, 0.923361, 0.921898, 0.921716, 0.92227, 0.921414, 0.92129, 0.921626, 0.921596, 0.921633, 0.918702, 0.918452, 0.91858, 0.918566, 0.918086, 0.919797, 0.92048, 0.91862, 0.918437
1.08987, 1.08936, 1.08604, 1.08537, 1.0787, 1.07859, 1.07788, 1.07765, 1.07366, 1.07367, 1.07332, 1.07211, 1.07, 1.06976, 1.0673, 1.06527, 1.06535, 1.06305, 1.06226, 1.06247, 1.06298, 1.05176, 1.05096, 1.05161, 1.05555, 1.05407, 1.05288, 1.05319, 1.05001, 1.05029, 1.04189, 1.04002, 1.04098, 1.0407, 1.03885, 1.04023, 1.04035, 1.03931, 1.03987, 1.03937, 1.03712, 1.03532, 1.03547, 1.03242, 1.03186, 1.03191, 1.02869, 1.02327, 1.02389, 1.02371, 1.02148, 1.01886, 1.01843, 1.01521, 1.01502, 1.01463, 1.01372, 1.20099, 1.00995, 1.01112, 1.01076, 1.00878, 1.00799, 1.00559, 1.00233, 1.00362, 1.00154, 1.00182, 1.00285, 0.995469, 0.994838, 1.26036, 1.26042, 0.986495, 0.986023, 0.979185, 0.963728, 0.962373, 0.957731, 0.955646, 0.956237, 0.947505, 0.939421, 0.93204, 0.956105, 0.96365, 0.992734, 0.992007, 1.04437, 1.07074, 1.15495, 1.17605, 1.22709, 1.30708, 1.30786, 1.38556, 1.39616, 1.5298, 1.5932, 1.60733, 1.5856, 1.64246, 1.60057, 1.62791, 1.64119, 1.63422, 1.66432, 1.70373, 1.69683, 1.69627, 1.80606, 1.79533, 1.71123, 1.71072, 1.80729, 1.9063, 1.91121, 1.88016, 1.94288, 1.95099, 1.90054, 1.90327, 1.90198, 1.91025, 1.91015, 1.90921, 1.88095, 1.96827, 1.9579, 1.95577, 1.91559, 2.03507, 1.96858, 1.9648, 2.07306, 2.05149, 2.05205, 2.0889, 2.0875, 2.07918, 2.07077, 2.07022, 2.07024, 2.0197, 1.98865, 1.98815, 2.02638, 2.02569, 2.05217, 2.04369, 2.03965, 2.04006, 2.02135, 2.06188, 2.05219, 1.99954, 1.99907, 1.99471, 2.05683, 2.00139, 2.00055, 1.9979, 2.02468, 2.0192, 2.07566, 2.11051, 2.00261, 2.08481, 2.02552, 2.0071, 2.01353, 2.04844, 2.08735, 2.08734, 2.08647, 1.96577, 1.97168, 2.00659, 1.95746, 1.90067, 1.9002, 1.94101, 1.94151, 1.90548, 1.90696, 1.90724, 1.90616, 1.83436, 1.86135, 1.82566, 1.81694, 1.77357, 1.77335, 1.80003, 1.86888, 1.86929, 1.8529, 1.8528, 1.79311, 1.78897, 1.78872, 1.78751, 1.71708, 1.72392, 1.70878, 1.66739, 1.66299, 1.65284, 1.64831, 1.60286, 1.58243, 1.56869, 1.57505, 1.57441, 1.54152, 1.52108, 1.55448, 1.54705, 1.54661, 1.4973, 1.48836, 1.43791, 1.38547, 1.30652, 1.24423, 1.24718, 1.1877, 1.06776, 0.984181, 0.983936, 1.00896, 0.940426, 0.922372, 0.915351, 0.953669, 1.00619, 0.869554, 0.870805, 0.869707, 0.869262, 0.86872, 0.874152, 0.889032, 0.995429, 1.13059, 0.914713, 1.11578, 0.917318, 0.916844, 1.16325, 1.04322, 1.2151, 1.11908, 1.13307, 1.04602, 1.18791, 1.35799, 1.06137, 1.02644, 1.01189, 1.38231, 1.01501, 0.931384, 0.931977, 0.931221, 0.92989, 0.929183, 0.929616, 0.93055, 0.929696, 0.92691, 0.928084, 0.928025, 0.931237, 0.937261, 0.942772, 0.916846, 0.918231, 0.918373, 0.933906, 0.928609, 0.928096, 0.927825, 0.925516, 0.92508, 0.924189, 0.922357, 0.919833, 0.921882, 0.916561, 0.918368, 0.918889, 0.918903, 0.918485, 0.919824, 0.919049, 0.919514, 0.919336, 0.918281, 1.04144
1.09341, 1.09054, 1.11992, 1.27411, 1.28003, 1.07709, 1.07718, 1.29513, 1.0685, 1.13613, 1.07212, 1.07229, 1.0698, 1.06973, 1.06794, 1.06566, 1.06559, 1.06562, 1.14475, 1.14608, 1.05263, 1.05281, 1.05309, 1.05347, 1.05317, 1.05324, 1.05078, 1.04678, 1.0432, 1.0424, 1.16699, 1.06435, 1.04318, 1.03778, 1.03885, 1.03778, 1.03709, 1.03719, 1.03803, 1.03643, 1.03881, 1.0352, 1.03193, 1.03114, 1.03016, 1.02786, 1.17817, 1.02271, 1.02294, 1.02246, 1.02176, 1.02251, 1.19133, 1.01217, 1.01228, 1.01219, 1.01072, 1.00988, 1.00911, 1.0095, 1.00803, 1.00669, 1.00434, 1.00326, 1.00228, 0.999635, 0.998565, 0.993879, 0.994132, 0.990642, 0.986272, 0.985996, 0.998394, 0.98804, 1.02141, 0.978206, 0.981939, 0.965423, 0.964318, 0.984867, 0.985764, 1.00787, 0.971927, 0.96713, 0.966156, 0.973326, 1.0184, 1.02867, 1.04925, 1.14338, 1.14721, 1.20992, 1.20848, 1.28999, 1.34486, 1.40245, 1.46832, 1.48827, 1.58532, 1.60781, 1.60386, 1.6058, 1.643, 1.63947, 1.68551, 1.68333, 1.71987, 1.66554, 1.69742, 1.69697, 1.6901, 1.68881, 1.71302, 1.88273, 1.88079, 1.85751, 1.85712, 1.85762, 1.86718, 1.86707, 1.90244, 1.93345, 1.90261, 1.91007, 1.96241, 1.89813, 1.93846, 1.88833, 1.9317, 1.92412, 1.97676, 1.9317, 1.93964, 2.04625, 0.00454386, 2.08599, 2.02905, 2.02998, 2.03675, 2.0352, 2.07662, 2.07214, 2.06953, 2.08719, 1.98892, 1.98941, 1.98822, 2.02531, 2.07081, 2.04002, 2.04067, 2.03742, 2.08924, 2.08003, 2.01348, 2.00068, 1.99985, 1.99997, 1.99961, 2.002, 2.00095, 2.03353, 2.0238, 2.03135, 2.10117, 2.10274, 2.1101, 2.09853, 2.01681, 2.02336, 2.0958, 2.0943, 2.0938, 2.08719, 2.08603, 1.99809, 1.96855, 2.0083, 2.0095, 2.00902, 1.97665, 1.9415, 1.93992, 1.90768, 1.90688, 1.90542, 1.96261, 1.8585, 1.82387, 1.80489, 1.8187, 1.77474, 1.77385, 1.80972, 1.8631, 1.81176, 1.81153, 1.86205, 1.83651, 1.77521, 1.7829, 1.72046, 1.71915, 1.71724, 1.72342, 1.69242, 1.69179, 1.67887, 1.65013, 1.64037, 1.60309, 1.57593, 1.56851, 1.56832, 1.53798, 1.52689, 1.5231, 1.58811, 1.49278, 1.48424, 1.48966, 1.44307, 1.41191, 1.37716, 1.27369, 1.21723, 1.17882, 1.05742, 1.04726, 0.967076, 0.956931, 1.08227, 0.909981, 0.922049, 0.869947, 0.87312, 0.872505, 0.870865, 0.872128, 0.868781, 0.912195, 0.922932, 0.923679, 1.28613, 0.914816, 0.91108, 0.91228, 0.916609, 0.917105, 0.91796, 0.922248, 0.923159, 0.922161, 1.04909, 1.05113, 1.06529, 1.06501, 1.05274, 0.928298, 1.07456, 1.01074, 0.924821, 0.929147, 0.930213, 0.92829, 0.928963, 0.928254, 0.928426, 0.930097, 0.929132, 0.928038, 0.929979, 0.931713, 0.933357, 0.935061, 0.935398, 0.913746, 0.914531, 0.912655, 0.912841, 0.97776, 0.924692, 0.926066, 0.924115, 0.924347, 0.924847, 0.925239, 0.91885, 0.919034, 0.918951, 0.918861, 0.91826, 0.9196, 0.919265, 0.919817, 0.919545, 0.919368, 1.28782, 0.898842, 0.896732
1.1009, 1.08749, 1.08716, 1.08618, 1.11996, 1.2822, 1.28587, 1.06911, 1.06909, 1.06911, 1.07138, 1.07139, 1.07036, 1.07014, 1.06497, 1.06423, 1.06479, 1.06308, 1.0592, 1.0582, 1.05736, 1.05245, 1.05324, 1.05372, 1.05377, 1.04977, 1.04982, 1.06053, 1.04235, 1.04003, 1.03933, 1.037, 1.03763, 1.03724, 1.0364, 1.03639, 1.03558, 1.03464, 1.02914, 1.02861, 1.03208, 1.03334, 1.0288, 1.02832, 1.02839, 1.18213, 1.18316, 1.02168, 1.02169, 1.02044, 1.0179, 1.01728, 1.19743, 1.01214, 1.01193, 1.0114, 1.00829, 1.00856, 1.0084, 1.0072, 1.00551, 1.00351, 1.00087, 1.00048, 0.99693, 0.995957, 0.995136, 0.989834, 0.989083, 0.98847, 1.12541, 0.985258, 0.985712, 0.97718, 0.976583, 0.973169, 0.970958, 0.964884, 0.988049, 0.950084, 0.942525, 0.94205, 0.942834, 0.949189, 0.980926, 0.990633, 1.00765, 1.05347, 1.03678, 1.06296, 1.19504, 1.1949, 1.30175, 1.33447, 1.38492, 1.40987, 1.46489, 1.47947, 1.56934, 1.57127, 1.54442, 1.60347, 1.60303, 1.63086, 1.62969, 1.62882, 1.67694, 1.72171, 1.71413, 1.6993, 1.69023, 1.689, 1.69692, 1.782, 1.87565, 1.85853, 1.85848, 1.85826, 1.85763, 1.86832, 1.93403, 1.93392, 1.93393, 1.93424, 2.02515, 1.9041, 1.93586, 1.90467, 1.9381, 1.93209, 1.93917, 1.94578, 2.0224, 1.95606, 2.1109, 2.03059, 2.03138, 2.03344, 2.02893, 2.02817, 2.10385, 2.0433, 2.05106, 2.04959, 2.08914, 2.06274, 2.05317, 2.07593, 2.0762, 2.08235, 2.09977, 2.02472, 2.00646, 2.00442, 2.01783, 2.00145, 2.03811, 2.00153, 2.00511, 2.00421, 2.00229, 2.04098, 2.02373, 2.02176, 2.11121, 2.10267, 2.03227, 2.03077, 1.98537, 1.98512, 2.00722, 2.09306, 2.09355, 2.09388, 2.08715, 1.99846, 2.0323, 1.9558, 1.95534, 1.95465, 1.95209, 1.95155, 1.95072, 1.96545, 1.93926, 1.95989, 1.95937, 1.85179, 1.84983, 1.79718, 1.79345, 1.79243, 1.81373, 1.80615, 1.82021, 1.8136, 1.82032, 1.86231, 1.86527, 1.77601, 1.77526, 1.77491, 1.85373, 1.72423, 1.72417, 1.6652, 1.66431, 1.67477, 1.67638, 1.64158, 1.59059, 1.56535, 1.62996, 1.53608, 1.52217, 1.50745, 1.53271, 1.53163, 1.48481, 1.48122, 1.46959, 1.46806, 1.46711, 1.41297, 1.27021, 1.3129, 1.1686, 1.08074, 1.04463, 1.00821, 0.95368, 0.931524, 0.931758, 0.866761, 0.868039, 0.87259, 0.873765, 0.867416, 0.86731, 0.867107, 0.898006, 0.904127, 0.882711, 0.881361, 1.15127, 0.910933, 0.91352, 0.91641, 0.917503, 0.917958, 0.918535, 0.919626, 0.921656, 0.921749, 0.920191, 0.922752, 0.923034, 0.924366, 0.924111, 0.924804, 0.925141, 0.925049, 0.925359, 0.928263, 0.928376, 0.92881, 0.928614, 0.929162, 0.930162, 0.930299, 0.930558, 0.933236, 0.932548, 0.933197, 0.932478, 1.39931, 1.07782, 0.921848, 0.911208, 0.911236, 0.910069, 0.909549, 0.920282, 0.922717, 0.923198, 0.922862, 0.919787, 0.918233, 0.916284, 0.917962, 0.917239, 0.917053, 0.918947, 0.919328, 0.919726, 0.918929, 0.911178, 0.899223, 0.8994, 0.898888
1.10173, 1.08748, 1.08525, 1.08405, 1.08061, 1.07885, 1.07742, 1.07476, 1.06875, 1.0685, 1.06927, 1.06882, 1.06895, 1.0674, 1.07203, 1.06359, 1.06365, 1.05761, 1.05683, 1.0569, 1.05364, 1.05285, 1.05195, 1.05049, 1.05138, 1.04793, 1.04234, 1.04238, 1.04204, 1.04034, 1.03886, 1.03707, 1.03531, 1.03546, 1.03571, 1.03536, 1.03391, 1.0324, 1.03192, 1.03175, 1.03243, 1.03013, 1.02847, 1.02869, 1.0266, 1.02444, 1.02133, 1.01999, 1.01956, 1.01774, 1.01816, 1.01325, 1.01194, 1.01129, 1.01116, 1.00824, 1.0077, 1.00563, 1.0043, 1.00449, 1.00096, 1.00083, 0.999643, 0.998509, 0.990718, 1.04318, 0.990002, 0.990151, 0.987919, 0.986659, 0.984453, 0.983462, 0.977372, 0.977168, 0.976697, 0.970962, 0.991783, 0.961787, 0.953852, 0.953053, 0.942665, 0.942003, 0.94205, 0.94209, 1.0221, 1.00493, 1.01967, 1.04671, 1.05197, 1.19942, 1.20603, 1.26096, 1.31831, 1.32634, 1.37862, 1.44795, 1.51197, 1.51079, 1.62499, 1.5813, 1.55851, 1.58706, 1.58684, 1.64428, 1.70246, 1.63364, 1.66448, 1.6888, 1.70543, 1.70481, 1.7102, 1.70918, 1.89883, 1.86632, 1.86685, 1.86561, 1.861, 1.86043, 1.86055, 1.90686, 1.93338, 1.93268, 1.93432, 1.93238, 2.01699, 1.96533, 1.97214, 1.93453, 1.91836, 2.0786, 1.93922, 1.98804, 2.01636, 2.06276, 2.06633, 2.05822, 2.03095, 2.03003, 2.11059, 2.13394, 2.04261, 2.04313, 2.04553, 2.04346, 2.05378, 2.05881, 2.05102, 2.05155, 2.051, 2.08297, 2.0796, 2.05058, 2.00628, 2.00554, 2.00648, 2.00463, 2.00659, 2.00705, 2.00399, 2.00325, 2.00285, 2.04219, 2.04164, 2.053, 2.16137, 2.16004, 2.03561, 1.989, 1.98451, 1.98394, 2.08172, 2.08045, 2.11904, 2.11924, 2.11014, 2.11039, 1.95602, 1.95652, 1.95637, 1.95621, 2.02487, 1.95169, 1.96334, 1.91855, 1.91758, 1.91683, 2.00336, 1.88253, 1.88988, 1.89099, 1.81311, 1.79304, 1.80441, 1.80302, 1.8346, 1.81672, 1.81627, 1.81559, 1.78968, 1.77651, 1.77566, 1.77445, 1.78862, 1.77811, 1.70039, 1.74136, 1.74359, 1.68256, 1.67235, 1.67334, 1.57483, 1.54917, 1.51563, 1.52347, 1.52202, 1.57434, 1.52446, 1.53114, 1.4832, 1.48079, 1.47444, 1.55571, 1.41546, 1.41408, 1.41191, 1.31167, 1.22206, 1.10897, 1.06758, 1.01549, 0.937554, 0.935652, 0.928455, 0.866111, 0.867402, 0.868699, 0.86793, 0.944346, 0.856673, 0.90424, 0.853694, 0.859629, 0.897088, 0.879962, 1.00349, 0.912194, 0.912912, 0.914328, 0.915768, 0.917563, 0.917903, 0.917895, 0.919279, 0.921556, 0.91967, 0.921758, 0.923244, 0.924451, 0.925016, 0.9258, 0.92557, 0.926427, 0.927504, 0.92803, 0.928514, 0.929018, 0.929693, 0.930211, 0.930769, 0.932108, 0.931675, 0.932368, 0.933157, 0.931676, 0.932948, 0.929028, 1.08004, 0.920847, 0.921476, 0.920959, 0.908157, 0.908287, 0.907715, 0.919674, 0.919089, 0.919105, 0.919525, 0.92066, 0.916606, 0.921111, 0.920042, 0.918802, 0.915582, 0.917701, 0.916549, 0.908449, 0.908431, 0.900705, 0.900292, 0.900569
1.08814, 1.085, 1.08499, 1.0803, 1.07899, 1.07681, 1.07365, 1.07337, 1.0709, 1.07012, 1.06886, 1.06734, 1.06672, 1.06369, 1.06299, 1.06221, 1.05965, 1.05789, 1.05641, 1.05383, 1.05329, 1.04941, 1.04789, 1.04735, 1.04625, 1.04559, 1.04219, 1.04324, 1.04286, 1.04226, 1.04122, 1.03573, 1.03418, 1.0325, 1.03174, 1.03108, 1.031, 1.03006, 1.03007, 1.03217, 1.02663, 1.02643, 1.02505, 1.02337, 1.02189, 1.02094, 1.01964, 1.01831, 1.01776, 1.01606, 1.01418, 1.01147, 1.19527, 1.00928, 1.00902, 1.00769, 1.00634, 1.00617, 1.00546, 1.00258, 1.00238, 1.00172, 1.00121, 1.00074, 1.00085, 0.990511, 0.989088, 0.988931, 0.98765, 0.988217, 0.991012, 0.981139, 0.97886, 0.977553, 0.979118, 0.979115, 0.963708, 0.960388, 0.953353, 0.95308, 0.949021, 0.941347, 0.942667, 0.970302, 1.02072, 1.01247, 1.0458, 1.07782, 1.09012, 1.26387, 1.2518, 1.29178, 1.3075, 1.34796, 1.38825, 1.42312, 1.45051, 1.46524, 1.48348, 1.55253, 1.56482, 1.61546, 1.66178, 1.65821, 1.63514, 1.64168, 1.64413, 1.7129, 1.87463, 1.83752, 1.7266, 1.72734, 1.90004, 1.89901, 1.86857, 1.86625, 1.86621, 1.86185, 1.87707, 1.89615, 1.88599, 1.88616, 1.92418, 1.92346, 1.9226, 2.00967, 1.99435, 1.9727, 2.00485, 1.98231, 1.97843, 1.98931, 1.98937, 2.01165, 2.11043, 2.10896, 2.0307, 2.11454, 2.06419, 2.13182, 2.03813, 2.03938, 2.03917, 2.04588, 2.09642, 2.05256, 2.05152, 2.05157, 2.05465, 2.05914, 2.0622, 2.07551, 2.026, 2.01059, 2.00499, 2.00408, 2.02874, 2.05752, 2.02434, 2.01554, 2.01757, 2.01083, 2.04177, 2.00959, 2.04688, 2.03853, 2.02499, 1.98767, 1.98361, 1.98378, 2.01473, 2.03829, 2.12579, 2.12178, 2.1114, 2.14892, 1.9569, 1.95428, 1.95317, 2.02484, 1.98188, 1.97944, 1.97237, 1.9183, 1.91799, 1.91729, 1.91748, 1.95223, 1.88912, 1.88881, 1.87897, 1.89149, 1.91953, 1.92055, 1.82755, 1.81692, 1.81663, 1.81605, 1.79, 1.78948, 1.78974, 1.78215, 1.79447, 1.7305, 1.71679, 1.73161, 1.73752, 1.65225, 1.68336, 1.68515, 1.58454, 1.58281, 1.51636, 1.51458, 1.5219, 1.52223, 1.5822, 1.58154, 1.4864, 1.48499, 1.47397, 1.47268, 1.49218, 1.45953, 1.34269, 1.34163, 1.21201, 1.15173, 1.1137, 1.0302, 0.964562, 0.942364, 0.947333, 0.921728, 0.923065, 0.87035, 0.868908, 0.860448, 0.863323, 0.913409, 0.921504, 0.875061, 0.87727, 0.879896, 1.0088, 1.07506, 0.914027, 0.914342, 0.915283, 0.916686, 0.91726, 1.34048, 1.16778, 1.45844, 1.18169, 0.922434, 0.923826, 0.924815, 0.92492, 0.924948, 0.925104, 0.925353, 0.926837, 0.928265, 0.928404, 0.929342, 0.928241, 0.928347, 0.931031, 0.93167, 0.932077, 0.931871, 0.93197, 0.932483, 0.931542, 0.930364, 0.929932, 0.921123, 0.919708, 0.921658, 0.906752, 0.90742, 0.905726, 0.905842, 0.917127, 0.918289, 0.919266, 0.920962, 0.920394, 0.921338, 0.921564, 0.913639, 0.91459, 0.915506, 0.916584, 0.910931, 0.911027, 0.909091, 1.02349, 1.23019
1.08642, 1.08543, 1.08597, 1.08532, 1.09722, 1.07582, 1.0746, 1.07423, 1.07342, 1.06989, 1.06872, 1.06723, 1.06572, 1.06371, 1.06413, 1.06338, 1.06125, 1.05748, 1.05687, 1.05471, 1.05419, 1.0524, 1.04998, 1.11482, 1.04644, 1.04543, 1.04275, 1.04252, 1.04382, 1.0429, 1.04294, 1.08045, 1.03027, 1.02929, 1.03053, 1.03095, 1.02815, 1.02742, 1.02569, 1.02462, 1.02511, 1.02273, 1.0221, 1.02239, 1.01898, 1.01612, 1.01608, 1.01687, 1.01523, 1.01443, 1.01187, 1.00959, 1.08711, 1.00465, 1.0058, 1.00243, 1.00264, 1.00067, 1.00078, 1.00062, 0.999623, 1.00098, 0.996493, 0.996599, 0.994722, 0.994398, 0.994674, 0.994151, 0.986761, 0.985832, 0.983603, 0.981519, 0.980321, 0.981084, 0.970551, 0.969662, 0.958369, 0.962923, 0.957984, 0.950975, 0.950293, 0.939839, 0.939246, 0.980775, 0.982713, 1.01595, 1.05469, 1.11858, 1.15091, 1.28797, 1.24704, 1.28176, 1.32629, 1.36714, 1.42514, 1.45182, 1.46177, 1.46174, 1.57328, 1.52346, 1.55166, 1.58323, 1.58186, 1.62046, 1.65495, 1.65522, 1.64938, 1.70297, 1.81813, 1.766, 1.90368, 1.89559, 1.88539, 1.88544, 1.88506, 1.87669, 1.87306, 1.859, 1.85891, 1.85837, 1.87974, 1.87697, 1.98576, 2.00563, 2.01108, 2.00228, 2.00233, 1.96467, 1.97576, 1.97507, 1.9763, 1.97861, 1.97868, 2.06322, 2.1105, 2.1096, 2.04635, 2.14688, 2.12002, 2.0554, 2.12239, 2.10729, 2.10033, 2.09792, 2.09744, 2.09822, 2.069, 2.12868, 2.05551, 2.05484, 2.05692, 2.066, 2.05841, 2.00633, 2.00052, 1.99967, 2.03976, 2.0124, 2.0171, 2.01747, 2.01352, 2.01876, 2.01573, 2.01674, 2.01653, 2.03456, 2.03406, 2.04487, 2.01429, 2.01556, 2.05713, 2.03846, 2.03157, 2.1051, 2.12106, 2.0264, 1.9578, 1.958, 1.95805, 1.95731, 1.97765, 1.9767, 1.97814, 2.02618, 1.91936, 1.92199, 1.94601, 1.94698, 1.9498, 1.8852, 1.88345, 1.86632, 1.86888, 1.86359, 1.86324, 1.8631, 1.81636, 1.82659, 1.82515, 1.80978, 1.8097, 1.81392, 1.77952, 1.73126, 1.79835, 1.67726, 1.65441, 1.628, 1.63889, 1.58942, 1.57593, 1.57879, 1.51568, 1.51418, 1.51511, 1.53234, 1.57804, 1.50292, 1.48636, 1.48515, 1.48573, 1.48826, 1.45003, 1.42763, 1.43059, 1.34951, 1.27392, 1.20038, 1.13319, 1.08944, 1.00593, 1.00797, 1.08534, 0.949209, 0.908298, 0.865125, 0.865471, 0.864723, 0.862109, 0.891997, 0.893323, 0.89364, 0.88182, 0.88352, 0.923355, 0.911119, 0.912377, 0.914426, 0.915139, 0.915518, 1.33908, 1.13196, 1.26826, 1.14396, 1.11488, 0.921299, 0.923202, 0.925934, 0.925379, 0.926666, 0.92665, 0.927736, 0.928577, 0.928684, 0.92905, 0.929561, 0.928817, 0.929411, 0.929594, 0.929736, 0.931494, 0.932018, 0.931855, 0.931326, 0.93045, 0.930776, 0.930583, 0.930728, 0.920088, 0.924574, 0.924814, 0.923705, 0.904742, 0.9051, 0.905272, 0.904637, 0.918476, 0.918025, 0.917991, 0.919968, 0.911188, 0.913493, 0.913422, 0.915115, 0.914749, 0.910977, 0.912269, 0.910529, 0.982062, 0.922007
1.08658, 1.08487, 1.08445, 1.08484, 1.09099, 1.09133, 1.07382, 1.07504, 1.07286, 1.0695, 1.06842, 1.06964, 1.06676, 1.06595, 1.06555, 1.06586, 1.06373, 1.06099, 1.05958, 1.05712, 1.05406, 1.05319, 1.05299, 1.04884, 1.04564, 1.04485, 1.04328, 1.04361, 1.03841, 1.03926, 1.03886, 1.04691, 1.04928, 1.18037, 1.02638, 1.02497, 1.26754, 1.29093, 1.02614, 1.02282, 1.02236, 1.02068, 1.01981, 1.01843, 1.01783, 1.01568, 1.01555, 1.01318, 1.01144, 1.01125, 1.01013, 1.01021, 1.00443, 1.00296, 1.00213, 1.00126, 0.998901, 0.998502, 0.998803, 0.999436, 0.996752, 0.996067, 0.995931, 0.994355, 0.991602, 0.991016, 0.988366, 0.983482, 0.982263, 0.978806, 0.97843, 0.97796, 0.974293, 0.971663, 0.969709, 0.965172, 0.963753, 0.981192, 0.980547, 0.979337, 0.943417, 0.956846, 0.969582, 0.97973, 0.990185, 1.03482, 1.04008, 1.08507, 1.14558, 1.2304, 1.24356, 1.29219, 1.38701, 1.40939, 1.42594, 1.50514, 1.50306, 1.49635, 1.48704, 1.54425, 1.64009, 1.58164, 1.60641, 1.67686, 1.64895, 1.65256, 1.74768, 1.81543, 1.81559, 1.81703, 1.8987, 1.89793, 1.89316, 1.8838, 1.88422, 1.88092, 1.8822, 1.87601, 1.85846, 1.85784, 1.86881, 1.86989, 1.86979, 2.02215, 2.01807, 1.99968, 2.01739, 1.97569, 1.96961, 1.96992, 1.97664, 2.03379, 2.04891, 2.02143, 2.06268, 2.12455, 2.05249, 2.19986, 2.194, 2.19363, 2.07514, 2.11562, 2.07436, 2.10481, 2.10424, 2.0528, 2.10115, 2.05496, 2.0559, 2.05719, 2.05753, 2.05353, 2.05787, 2.00153, 2.00117, 2.00091, 2.02098, 2.01265, 2.0142, 2.01685, 2.01361, 2.01848, 2.03511, 2.01917, 2.08042, 2.04095, 2.03523, 2.10735, 2.10524, 1.99149, 2.04169, 2.03959, 1.99791, 1.998, 2.0632, 2.02937, 2.02921, 1.95836, 1.95813, 1.95767, 1.9795, 1.97972, 1.98038, 1.95576, 1.91764, 1.9172, 1.94804, 1.94409, 1.94884, 1.87816, 1.87736, 1.87553, 1.95971, 1.93971, 1.88759, 1.88462, 1.79949, 1.7978, 1.77499, 1.79319, 1.81038, 1.81418, 1.75589, 1.75545, 1.67775, 1.6754, 1.64697, 1.634, 1.61378, 1.61022, 1.59948, 1.59583, 1.54478, 1.52719, 1.52743, 1.49196, 1.53468, 1.5113, 1.54717, 1.50057, 1.46867, 1.43667, 1.43617, 1.41255, 1.38936, 1.3675, 1.24839, 1.24759, 1.16912, 1.09553, 1.02054, 1.06292, 0.956444, 0.91919, 0.877108, 0.862868, 0.949425, 0.950885, 0.898747, 0.904891, 0.883635, 0.883134, 0.887295, 0.921881, 0.923014, 0.911582, 0.91302, 0.914188, 0.914533, 0.914454, 0.908275, 0.908357, 1.07367, 1.12669, 1.11554, 0.921094, 0.923566, 0.92494, 0.9262, 0.926923, 0.92666, 0.927328, 0.928128, 0.927593, 0.92823, 0.928836, 0.93106, 0.930142, 0.921217, 0.930391, 0.930968, 0.931573, 0.931838, 0.931988, 0.931908, 0.929603, 0.931691, 0.931851, 0.93104, 0.930776, 0.928541, 0.928749, 0.925035, 0.924768, 0.90317, 0.904101, 0.904272, 0.904929, 0.918084, 0.926046, 0.911029, 0.912103, 0.910991, 0.913366, 0.913206, 0.911638, 0.912939, 1.25481, 1.26373, 0.921521
1.08424, 1.085, 1.08366, 1.08104, 1.08037, 1.08006, 1.07497, 1.21333, 1.21434, 1.06769, 1.06803, 1.06863, 1.27125, 1.27368, 1.0658, 1.27596, 1.74022, 1.06094, 1.05942, 1.07379, 1.30681, 1.25118, 1.09981, 1.09825, 1.04323, 1.04316, 1.04049, 1.03855, 1.03812, 1.03901, 1.03845, 1.0336, 1.26453, 1.26545, 1.26606, 1.30667, 1.02051, 1.01823, 1.01864, 1.01662, 1.01953, 1.01817, 1.01784, 1.44343, 1.01491, 1.01517, 1.01127, 1.01119, 1.01073, 1.00955, 1.00792, 1.0061, 1.00438, 1.00344, 1.00267, 1.00101, 0.999872, 0.999056, 0.998247, 0.99742, 0.993859, 0.991423, 0.986165, 0.986318, 0.991359, 0.987751, 0.985923, 0.983937, 0.980853, 0.978489, 0.977565, 0.975947, 0.976044, 0.969042, 0.966661, 0.962307, 0.960648, 0.935301, 0.935333, 0.9796, 0.930051, 0.964452, 0.964985, 0.964911, 1.01289, 1.01457, 1.06688, 1.08672, 1.1498, 1.23559, 1.35136, 1.35104, 1.4856, 1.42443, 1.43938, 1.51383, 1.4843, 1.50219, 1.53617, 1.53585, 1.56627, 1.60612, 1.58463, 1.60725, 1.63144, 1.65474, 1.70758, 1.81682, 1.8142, 1.81356, 1.89731, 1.8985, 1.89783, 1.89519, 1.96148, 1.8788, 1.87315, 1.87697, 1.8782, 1.86543, 1.86515, 2.00013, 1.87208, 2.00731, 2.00174, 2.01694, 2.02416, 1.99296, 1.96941, 2.06794, 2.06897, 2.11424, 2.116, 2.04124, 2.12257, 2.12072, 2.05261, 2.05148, 2.17879, 2.17976, 2.0947, 2.11717, 2.16911, 2.11115, 2.05356, 2.05398, 2.051, 2.04815, 2.11397, 2.09615, 2.09663, 2.02751, 2.04346, 2.04331, 2.04362, 2.05811, 2.01805, 2.01789, 2.05554, 2.0145, 2.01323, 2.0132, 2.02155, 2.06547, 2.04437, 2.04147, 2.03732, 2.0368, 2.03448, 2.11045, 2.04201, 2.04936, 1.99812, 2.00012, 1.99594, 1.99048, 1.9897, 1.99593, 2.08633, 2.08502, 2.04982, 1.98237, 1.99311, 1.94803, 1.94742, 1.9242, 1.92374, 1.92407, 1.97139, 1.98333, 1.87736, 1.876, 1.90405, 1.90677, 1.92802, 1.91634, 1.81267, 1.80845, 1.80841, 1.79434, 1.81067, 1.7961, 1.76173, 1.76143, 1.68406, 1.71281, 1.66681, 1.63288, 1.62091, 1.61775, 1.6022, 1.56577, 1.57194, 1.55149, 1.49567, 1.4931, 1.4993, 1.49395, 1.48247, 1.47278, 1.4573, 1.44068, 1.43353, 1.43296, 1.36401, 1.33017, 1.25844, 1.23953, 1.15982, 1.15059, 1.0293, 1.00213, 0.955899, 0.917602, 0.918055, 0.901957, 0.874951, 0.875004, 0.877151, 0.894783, 0.867651, 0.867548, 0.901335, 0.843019, 0.843042, 0.911341, 0.912984, 0.914233, 0.914515, 0.914656, 1.04337, 1.04297, 1.12585, 1.10806, 1.08144, 0.924555, 0.925258, 0.92579, 0.926104, 0.925592, 0.927449, 0.928439, 0.929208, 0.929095, 0.929719, 0.928987, 0.930232, 0.919436, 0.920962, 0.92182, 0.930673, 0.932184, 0.935624, 0.933405, 0.932815, 0.934857, 0.935236, 0.933891, 0.931473, 0.931812, 0.929421, 0.928269, 0.926984, 0.925126, 0.919013, 0.90286, 0.90505, 0.905474, 0.904533, 0.911419, 0.912338, 0.906521, 0.909195, 0.910749, 0.911734, 0.907842, 0.908457, 1.00181, 1.29521, 0.920893
1.08498, 1.08476, 1.08368, 1.08354, 1.08049, 1.0803, 1.24796, 1.08768, 1.20215, 1.2182, 1.06791, 1.26649, 1.19123, 1.14866, 1.14973, 1.14935, 1.05813, 1.05802, 1.06065, 1.12636, 1.22293, 1.17153, 1.17087, 1.10512, 1.04171, 1.04121, 1.03687, 1.03666, 1.41528, 1.03026, 1.02864, 1.02873, 1.02871, 1.20544, 1.04232, 1.14811, 1.22537, 1.01337, 1.01608, 1.01573, 1.0152, 1.23454, 1.01798, 1.42983, 1.0114, 1.01129, 1.01128, 1.01114, 1.00949, 1.00857, 1.00772, 1.00483, 1.00416, 1.00343, 1.0015, 0.999797, 0.999238, 0.998288, 0.997779, 0.99555, 0.992044, 0.988345, 0.99137, 0.991614, 0.991347, 0.98523, 0.984029, 0.983953, 0.979234, 0.977936, 0.976339, 0.972394, 0.971489, 0.962071, 0.966489, 0.962391, 0.961899, 0.970356, 0.93886, 0.988865, 0.936474, 0.935838, 0.96014, 0.977103, 0.980672, 1.01563, 1.05343, 1.08931, 1.15735, 1.22666, 1.4067, 1.33667, 1.4852, 1.4035, 1.50515, 1.50459, 1.5102, 1.53067, 1.53707, 1.5367, 1.57101, 1.56102, 1.58957, 1.58979, 1.6241, 1.62859, 1.71005, 1.7913, 1.78661, 1.78599, 1.90002, 1.90144, 1.90179, 1.90098, 1.8716, 1.87189, 1.8789, 1.87936, 1.92025, 1.86513, 1.87246, 1.86709, 1.89657, 2.00013, 2.00724, 2.02234, 2.06159, 2.05228, 2.04789, 2.04813, 2.04591, 2.00719, 2.05133, 2.05182, 2.05194, 2.12102, 2.05685, 2.05864, 2.057, 2.17016, 2.10517, 2.10531, 2.10489, 2.1629, 2.16438, 2.16323, 2.15898, 2.11517, 2.11447, 2.04351, 2.08426, 2.05793, 2.04282, 2.04096, 2.02412, 2.01153, 2.01641, 2.0234, 2.01743, 2.02422, 2.00497, 2.01338, 2.0695, 2.07014, 2.01859, 2.03847, 2.04521, 2.03392, 2.10696, 2.12023, 2.10387, 1.99431, 1.99343, 1.99212, 1.99642, 1.99069, 1.98996, 2.0201, 2.00026, 1.95138, 1.95096, 1.94993, 1.99584, 1.94871, 1.94669, 1.92515, 1.92566, 1.92591, 1.97105, 1.97233, 1.99634, 1.97037, 1.8773, 1.98452, 1.9251, 1.97578, 1.80419, 1.78565, 1.82696, 1.7933, 1.76211, 1.72894, 1.75629, 1.73445, 1.73293, 1.68015, 1.70768, 1.63154, 1.63029, 1.61638, 1.55589, 1.56534, 1.5642, 1.55848, 1.50839, 1.50939, 1.49213, 1.4885, 1.46872, 1.46243, 1.47894, 1.47793, 1.40274, 1.36695, 1.35056, 1.34406, 1.27873, 1.25393, 1.15322, 1.13769, 1.04973, 1.05539, 0.976358, 0.942067, 0.897254, 0.875142, 0.876292, 0.878265, 0.915321, 0.917949, 0.860443, 0.862081, 0.863424, 0.868686, 0.9154, 0.912719, 0.913533, 0.91496, 0.914552, 0.914912, 1.22925, 1.08109, 0.919976, 0.921486, 0.922596, 0.923873, 0.925054, 0.926723, 0.925486, 0.926799, 0.928613, 0.929393, 0.928797, 0.930339, 0.932335, 0.922984, 0.929143, 0.928577, 0.931999, 0.932834, 0.933823, 0.934263, 0.934185, 0.932198, 0.93231, 0.933892, 0.935696, 0.929685, 0.928865, 0.925593, 0.923672, 0.924176, 0.922759, 0.922383, 0.923123, 0.918971, 0.918582, 0.902675, 0.904317, 0.905241, 0.911686, 0.913494, 0.922085, 0.910077, 0.908154, 0.907571, 0.908828, 0.907647, 0.908409, 1.30493
1.09064, 1.08825, 1.08804, 1.08548, 1.08318, 1.07908, 1.07423, 1.07337, 1.07127, 1.18191, 1.06546, 1.06441, 1.06321, 1.06032, 1.05926, 1.05755, 1.05801, 1.05422, 1.05276, 1.05053, 1.23729, 1.23551, 1.44815, 1.04025, 1.03986, 1.25027, 1.36673, 1.03559, 1.03077, 1.02935, 1.02804, 1.0286, 1.02407, 1.02319, 1.02378, 1.02203, 1.01884, 1.01365, 1.0131, 1.01226, 1.01327, 1.30935, 1.00952, 1.00965, 1.43267, 1.57451, 1.00648, 1.00822, 1.00781, 1.0077, 1.00821, 1.00316, 1.00313, 1.00401, 1.00084, 1.00086, 0.99841, 0.997153, 0.995585, 0.993958, 0.993442, 0.990341, 0.994306, 0.995708, 0.987615, 0.986375, 0.983331, 0.980914, 0.980474, 0.973837, 0.974608, 0.973442, 0.970495, 0.96783, 0.966117, 0.962719, 0.961998, 0.968395, 0.970331, 0.946125, 0.945844, 0.94594, 0.977211, 0.975928, 1.0096, 1.04602, 1.04852, 1.07082, 1.14022, 1.20688, 1.28974, 1.32018, 1.38185, 1.46158, 1.46108, 1.48628, 1.48521, 1.50792, 1.54008, 1.56142, 1.5706, 1.58689, 1.64742, 1.64716, 1.63658, 1.62965, 1.6762, 1.67251, 1.81651, 1.79601, 1.84164, 1.90305, 1.83451, 1.83391, 1.90984, 1.87907, 1.87861, 1.87854, 1.87326, 1.8671, 1.86721, 1.866, 1.89723, 1.89054, 2.00815, 2.0623, 2.01601, 2.04795, 2.04865, 2.04738, 2.04989, 2.00273, 2.00371, 2.0311, 2.11502, 2.03458, 2.05607, 2.05597, 2.05518, 2.11475, 2.11473, 2.10486, 2.10506, 2.10477, 2.16202, 2.16114, 2.09917, 2.10812, 2.11407, 2.0813, 2.04806, 2.04809, 2.07025, 2.13219, 2.02477, 2.01724, 2.01972, 2.02105, 2.02015, 2.03686, 2.00686, 2.00623, 2.00549, 2.12847, 2.12811, 2.04434, 2.03561, 2.03449, 2.10589, 2.10557, 1.98648, 2.05319, 1.9939, 1.99234, 2.03944, 2.03754, 2.00038, 1.96318, 1.96236, 1.95236, 1.95104, 1.95125, 2.00228, 1.98704, 1.9307, 1.93847, 1.97877, 1.98028, 1.98003, 2.01875, 1.98609, 1.98818, 1.87861, 1.87742, 1.96164, 2.01234, 1.77145, 1.7855, 1.7645, 1.75128, 1.76411, 1.73032, 1.72319, 1.72083, 1.72904, 1.70176, 1.69889, 1.65865, 1.62014, 1.61952, 1.56814, 1.56378, 1.53312, 1.5516, 1.49557, 1.49171, 1.48562, 1.46725, 1.46185, 1.46405, 1.43639, 1.4078, 1.40532, 1.36662, 1.32118, 1.29231, 1.28465, 1.25503, 1.15606, 1.11998, 1.05833, 1.02547, 0.971049, 0.938197, 0.938879, 0.873694, 0.873456, 0.871617, 0.92883, 0.856722, 0.870989, 0.861867, 0.861159, 0.866598, 0.900731, 0.912733, 0.914325, 0.914622, 0.913706, 0.915754, 0.916823, 0.918465, 0.920255, 0.92208, 0.922183, 0.924626, 0.92566, 0.927118, 0.928192, 0.928395, 0.929624, 0.925543, 0.924984, 0.933243, 0.932917, 0.937085, 0.936358, 0.931818, 0.93349, 0.934313, 0.933966, 0.930136, 0.931725, 0.930915, 0.931386, 0.927334, 0.927795, 0.928248, 0.927153, 0.9244, 0.922384, 0.925417, 0.922292, 0.923135, 0.923381, 0.918492, 0.918898, 0.919397, 0.903046, 0.904394, 0.905262, 0.935208, 0.922807, 0.921668, 0.918252, 0.921384, 0.92149, 0.906482, 0.907626, 0.907462
1.09156, 1.08893, 1.0883, 1.08706, 1.07466, 1.07422, 1.07252, 1.07126, 1.0681, 1.06545, 1.06501, 1.06203, 1.0597, 1.05748, 1.05606, 1.05303, 1.05257, 1.04988, 1.0483, 1.04597, 1.04397, 1.04259, 1.04042, 1.04024, 1.03775, 1.038, 1.38661, 1.3609, 1.02785, 1.02689, 1.02573, 1.02495, 1.02466, 1.02232, 1.02243, 1.0181, 1.01392, 1.01464, 1.01394, 1.01323, 1.01318, 1.01974, 1.0069, 1.00662, 1.00768, 1.43285, 1.00699, 1.00832, 1.00795, 1.00854, 1.00484, 1.00318, 1.00288, 1.0024, 1.00141, 0.998783, 0.997943, 0.996729, 0.997203, 0.994823, 0.990592, 0.989523, 0.989011, 0.989021, 0.978481, 1.04013, 0.982453, 0.982459, 0.978365, 1.0606, 0.976831, 0.975639, 0.972206, 0.970136, 0.966448, 0.961467, 0.961962, 0.970377, 0.9525, 0.959719, 0.962742, 0.966964, 0.967116, 0.990021, 1.00425, 1.04199, 1.05222, 1.08905, 1.15107, 1.24415, 1.26729, 1.30496, 1.41565, 1.3868, 1.42602, 1.4637, 1.56041, 1.5432, 1.52819, 1.56101, 1.59861, 1.58747, 1.60618, 1.60837, 1.61992, 1.64428, 1.6552, 1.66833, 1.76319, 1.77919, 1.8551, 1.83522, 1.83462, 1.83493, 1.83448, 1.88647, 1.89393, 1.87602, 1.87887, 1.87834, 1.8984, 1.89329, 1.89225, 2.0201, 2.0237, 1.95152, 1.95215, 2.04936, 2.05577, 2.05295, 2.00177, 2.00296, 2.00146, 2.00233, 2.04822, 2.0484, 2.07285, 2.05836, 2.11608, 2.11619, 2.12081, 2.10688, 2.10487, 2.12415, 2.12209, 2.09265, 2.14237, 2.11724, 2.11515, 2.11448, 2.1042, 2.10408, 2.05949, 2.00033, 1.99975, 2.00699, 2.00639, 2.02121, 2.02022, 2.03761, 2.0359, 2.03519, 2.01189, 2.13984, 2.13428, 2.1359, 2.11129, 2.10657, 2.09431, 2.07517, 2.0505, 1.99003, 1.99611, 1.99686, 2.04173, 2.01128, 2.07269, 1.97268, 2.07728, 2.01572, 1.95238, 1.95157, 2.01841, 1.93172, 1.93152, 1.93861, 1.93768, 1.9272, 2.01892, 2.01669, 1.87276, 1.87262, 1.87051, 1.86878, 1.95124, 1.91039, 1.80312, 1.79515, 1.75521, 1.75535, 1.78246, 1.72624, 1.7252, 1.72334, 1.71778, 1.74011, 1.69819, 1.65947, 1.62061, 1.61858, 1.67568, 1.5473, 1.54731, 1.53245, 1.53008, 1.52931, 1.51983, 1.53461, 1.47988, 1.44353, 1.42364, 1.42929, 1.36388, 1.36206, 1.32116, 1.31911, 1.29682, 1.29582, 1.18453, 1.16755, 1.05696, 1.06492, 0.980384, 0.980705, 0.936918, 0.973097, 0.905639, 0.868387, 0.867993, 0.856712, 0.857299, 0.856166, 0.859301, 0.87051, 0.93181, 0.913559, 0.914703, 0.914735, 0.915496, 0.91549, 0.919117, 0.919153, 0.921073, 1.09591, 0.921819, 1.09792, 0.926063, 0.928185, 0.928522, 0.928616, 0.930396, 0.930077, 0.940424, 0.929148, 0.945576, 0.925963, 0.929082, 0.931943, 0.932541, 0.928722, 0.930295, 0.9305, 0.931669, 0.931453, 0.9313, 0.92921, 0.928164, 0.927812, 0.923845, 0.924505, 0.927222, 0.928329, 0.928551, 0.924933, 0.925769, 0.925307, 0.924163, 0.923532, 0.922745, 0.924145, 0.925492, 0.907993, 0.908618, 0.918759, 0.91922, 0.920809, 0.917673, 0.917018, 0.916904, 0.905285
1.08719, 1.08719, 1.08755, 1.0864, 1.07835, 1.07557, 1.07214, 1.06953, 1.06754, 1.0648, 1.06253, 1.06284, 1.058, 1.05982, 1.05372, 1.05188, 1.04959, 1.04497, 1.04416, 1.04547, 1.04223, 1.03971, 1.03878, 1.03732, 1.03695, 1.03784, 1.25394, 1.05166, 1.02873, 1.02765, 1.02466, 1.38092, 1.38699, 1.01862, 1.01819, 1.01859, 1.01469, 1.01559, 1.01341, 1.01239, 1.01233, 1.00894, 1.00906, 1.00793, 1.00789, 1.00835, 1.09271, 1.00745, 1.00639, 1.00513, 1.00338, 1.00104, 1.00118, 1.00186, 0.998475, 0.996111, 0.996137, 0.995352, 0.99429, 0.993483, 0.992298, 0.990208, 0.990225, 0.989359, 0.990198, 0.98444, 0.974184, 0.973913, 0.974916, 0.98423, 0.984423, 0.973548, 0.974455, 0.974516, 0.967004, 0.983033, 0.973639, 0.97338, 0.941951, 0.952516, 0.953391, 0.963832, 0.962753, 0.985707, 0.977467, 1.04303, 1.0979, 1.11831, 1.14147, 1.2088, 1.26131, 1.41949, 1.35419, 1.44388, 1.49851, 1.49893, 1.53817, 1.58256, 1.55148, 1.5447, 1.58669, 1.58756, 1.61043, 1.61205, 1.6115, 1.66236, 1.66876, 1.65744, 1.75439, 1.75446, 1.84508, 1.84539, 1.83526, 1.83481, 1.8355, 1.92213, 1.9126, 1.87598, 1.88397, 1.87946, 1.8986, 2.00321, 1.89269, 2.07083, 2.07167, 1.97901, 1.95231, 1.98237, 2.06297, 1.99271, 2.00361, 2.00945, 2.00993, 2.00688, 2.00994, 2.01047, 2.09704, 2.1329, 2.03888, 2.11669, 2.03533, 2.02841, 2.07532, 2.05866, 0.00464404, 2.07324, 2.12375, 2.11482, 2.1176, 2.11726, 2.10522, 2.10427, 2.14124, 2.14086, 2.10167, 2.09987, 2.02854, 2.03586, 2.03541, 1.993, 1.99186, 1.99132, 1.99088, 2.01438, 2.02002, 2.0242, 2.10854, 2.09528, 2.10434, 2.07389, 2.07342, 1.99385, 1.9978, 1.99411, 1.9933, 2.0723, 2.07188, 2.06543, 1.93596, 1.93531, 1.94112, 1.94264, 1.9342, 1.93257, 1.93484, 1.98955, 1.97834, 1.98334, 1.96964, 1.97525, 1.87482, 1.87279, 1.86944, 1.85597, 1.86533, 1.84043, 1.84066, 1.84149, 1.75025, 1.75181, 1.75246, 1.77515, 1.72564, 1.81663, 1.81398, 1.78725, 1.74911, 1.69573, 1.6905, 1.61874, 1.67797, 1.61716, 1.57818, 1.49133, 1.4905, 1.48299, 1.51957, 1.52014, 1.46739, 1.42663, 1.45386, 1.43229, 1.36742, 1.3645, 1.3334, 1.29983, 1.28643, 1.27873, 1.16658, 1.16226, 1.05947, 1.01518, 0.985216, 0.955745, 0.927877, 0.936301, 0.907468, 0.905068, 0.855825, 0.869344, 0.856933, 0.956719, 0.863304, 0.857335, 1.13284, 1.07815, 0.915043, 0.916383, 0.915252, 0.917524, 0.917816, 0.918603, 0.919348, 0.921546, 0.92133, 0.922145, 0.923457, 0.925526, 0.927376, 0.92696, 0.926927, 0.928411, 0.929005, 0.926839, 0.92859, 0.928327, 0.929172, 0.930803, 0.931338, 0.931194, 0.930434, 0.932067, 0.932264, 0.932942, 0.935043, 0.935983, 0.930138, 0.931341, 0.931502, 0.927883, 0.927662, 0.928177, 0.926647, 0.925695, 0.92649, 0.92632, 0.922366, 0.921835, 0.923072, 0.923019, 0.919356, 0.907866, 0.91077, 0.911883, 0.918958, 0.919505, 0.917052, 0.918466, 0.917161, 0.916758
1.0886, 1.08645, 1.08122, 1.08044, 1.07614, 1.07412, 1.07217, 1.06788, 1.0665, 1.06152, 1.05977, 1.05839, 1.05677, 1.05303, 1.05205, 1.05155, 1.0461, 1.04569, 1.06462, 1.04507, 1.04469, 1.03875, 1.03894, 1.03818, 1.03568, 1.03335, 1.03253, 1.25246, 1.05682, 1.05707, 1.03891, 1.02145, 1.01943, 1.01884, 1.01837, 1.01561, 1.01576, 1.01617, 1.01391, 1.01337, 1.00678, 1.0064, 1.00648, 1.00546, 1.00502, 1.00436, 1.00538, 1.00437, 1.00319, 1.00107, 1.00082, 0.999461, 0.998317, 0.997788, 0.997091, 0.995081, 0.994224, 0.994384, 0.993157, 0.992048, 0.991362, 0.988546, 0.991103, 0.98717, 0.98693, 0.986136, 0.985074, 0.974023, 0.972238, 0.983748, 0.983481, 0.981676, 0.9657, 0.963526, 0.963385, 0.963355, 0.946239, 0.956104, 0.956858, 0.928502, 0.927419, 0.970129, 0.961283, 0.986879, 0.979026, 1.00849, 1.06683, 1.10404, 1.18235, 1.22061, 1.28233, 1.29647, 1.37934, 1.38364, 1.51247, 1.50682, 1.57254, 1.54803, 1.5416, 1.59766, 1.62568, 1.59313, 1.60618, 1.60924, 1.60862, 1.67678, 1.67847, 1.67748, 1.75455, 1.75479, 1.76199, 1.84219, 1.83631, 1.83725, 1.86519, 1.86292, 1.88363, 1.88478, 1.88549, 1.88432, 1.89957, 2.01821, 2.0032, 1.92991, 1.9544, 1.95424, 1.95452, 1.95374, 2.00032, 2.00127, 2.00912, 2.00867, 2.00843, 2.00999, 2.01088, 2.01088, 2.08963, 2.0883, 2.04188, 2.03433, 2.02836, 2.06631, 2.01853, 2.07309, 2.17631, 2.13827, 2.13813, 2.10108, 2.1078, 2.12, 2.10494, 2.10494, 2.03282, 2.10413, 2.08899, 2.00694, 2.00838, 2.09397, 2.04881, 1.99351, 1.99112, 1.99029, 1.99025, 2.01972, 2.02169, 2.02238, 2.0764, 2.09275, 2.07658, 2.07808, 2.07945, 2.07678, 2.04106, 1.99522, 1.99435, 1.97644, 2.06248, 2.06267, 1.93633, 1.93536, 1.93388, 1.94333, 1.93531, 1.93502, 1.99129, 1.99265, 1.89672, 1.99719, 1.97421, 1.97165, 1.86894, 1.86859, 1.84916, 1.85503, 1.86397, 1.86298, 1.81688, 1.79972, 1.75442, 1.75195, 1.77218, 1.8173, 1.81034, 1.81693, 1.81712, 1.74816, 1.75306, 1.74694, 1.69002, 1.67281, 1.692, 1.64504, 1.56386, 1.62843, 1.57977, 1.51061, 1.47692, 1.46921, 1.47269, 1.44833, 1.45559, 1.39818, 1.37096, 1.36693, 1.35437, 1.31985, 1.28959, 1.24745, 1.17799, 1.08505, 1.05949, 1.0085, 0.981862, 0.966509, 0.939295, 0.93835, 0.929625, 0.868343, 0.871011, 0.873264, 0.882426, 0.856239, 0.85661, 0.869884, 0.873468, 1.13217, 0.914342, 0.912961, 0.914245, 0.914987, 0.915806, 0.916212, 0.917633, 0.919468, 0.920972, 0.921355, 0.922056, 0.923181, 0.92342, 0.925624, 0.925579, 0.926923, 0.927459, 0.927413, 0.926141, 0.927489, 0.928156, 0.927711, 0.927328, 0.928318, 0.928591, 0.930394, 0.930985, 0.932413, 0.936125, 0.93634, 0.931902, 0.930123, 0.929784, 0.929642, 0.92869, 0.92805, 0.927587, 0.928462, 0.921891, 0.918236, 0.919147, 0.921614, 0.922084, 0.923304, 0.923544, 0.921883, 0.910005, 0.913271, 0.91815, 0.919681, 0.919337, 0.921133, 0.921608, 0.898421
1.07685, 1.0761, 1.07578, 1.07193, 1.072, 1.07061, 1.06602, 1.06569, 1.06144, 1.06066, 1.05762, 1.056, 1.0544, 1.05319, 1.05311, 1.04738, 1.04391, 1.05289, 1.4742, 1.1768, 1.05288, 1.03917, 1.03785, 1.0357, 1.03286, 1.03216, 1.03182, 1.02731, 1.02661, 1.02274, 1.02199, 1.01823, 1.01797, 1.01767, 1.0146, 1.01222, 1.38101, 1.43437, 1.02595, 1.02528, 1.00636, 1.0063, 1.00742, 1.00599, 1.00573, 1.0054, 1.00502, 1.00445, 1.00232, 1.00074, 1.00051, 0.99732, 0.997309, 0.997012, 0.996297, 0.994383, 0.9949, 0.995033, 0.993227, 0.988907, 0.990369, 0.989985, 1.01853, 0.986229, 0.984753, 0.98452, 0.984743, 0.985494, 1.11368, 1.00545, 0.966001, 0.965618, 0.962018, 0.963223, 0.963733, 0.964235, 0.956751, 0.959771, 0.96013, 0.929323, 0.922466, 0.952259, 0.952751, 0.953817, 0.98159, 1, 1.04801, 1.1197, 1.1637, 1.20198, 1.26562, 1.33395, 1.39502, 1.4093, 1.47331, 1.50856, 1.5659, 1.58209, 1.5824, 1.59399, 1.59533, 1.59009, 1.58958, 1.60399, 1.60412, 1.70008, 1.68498, 1.70066, 1.75485, 1.77295, 1.76167, 1.84718, 1.83919, 1.82192, 1.85433, 1.89814, 1.89958, 1.89703, 1.8901, 1.88434, 2.01132, 2.01056, 2.04478, 2.04173, 1.94802, 1.9523, 1.95426, 1.95335, 1.9658, 1.97255, 2.01023, 2.01872, 2.13193, 2.13238, 2.00085, 2.00011, 2.04853, 2.04217, 2.04808, 2.03489, 2.0347, 2.03265, 2.01783, 2.01769, 2.09787, 2.12491, 2.10086, 2.10147, 2.11796, 2.10854, 2.12853, 2.13518, 2.01585, 1.97268, 1.96703, 1.96923, 1.97386, 1.97419, 2.01433, 1.97616, 2.01463, 2.03721, 2.01685, 2.01769, 2.00466, 2.08055, 2.14991, 2.14785, 2.19209, 1.98725, 2.08124, 1.97237, 1.9888, 2.02587, 2.02666, 1.97811, 1.9772, 2.06254, 1.93753, 1.93476, 1.92798, 1.93031, 1.93059, 1.93819, 1.89728, 1.89641, 1.89572, 1.9027, 1.9028, 1.90188, 1.90133, 1.90115, 1.86597, 1.85124, 1.89666, 1.92532, 1.83714, 1.792, 1.86842, 1.82832, 1.82707, 1.81683, 1.81669, 1.7631, 1.76213, 1.7489, 1.75923, 1.69422, 1.69425, 1.63068, 1.63003, 1.59993, 1.6679, 1.59903, 1.55147, 1.56914, 1.49339, 1.50628, 1.51412, 1.4615, 1.42424, 1.39213, 1.37666, 1.38389, 1.34683, 1.38458, 1.29548, 1.24033, 1.1921, 1.10537, 1.06274, 1.00638, 0.991345, 0.976682, 0.934079, 0.928157, 0.889216, 0.869508, 0.871131, 0.870399, 0.868134, 0.865169, 0.858727, 0.859149, 0.877982, 1.13288, 1.08374, 0.911246, 0.914608, 0.914547, 0.914839, 0.915477, 0.917018, 0.917232, 0.920074, 0.919652, 0.921854, 0.922774, 0.924867, 0.925632, 0.926217, 0.926098, 0.927286, 0.928298, 0.926245, 0.928723, 0.927951, 0.930694, 0.928669, 0.92817, 0.931165, 0.935096, 0.935498, 1.15418, 0.940838, 0.933642, 0.933591, 0.931253, 0.930491, 0.929757, 0.929128, 0.925746, 0.925629, 0.927357, 0.919399, 0.921551, 0.920453, 0.921576, 0.921645, 0.92274, 0.921717, 0.922016, 0.917403, 0.91523, 0.915678, 0.908079, 0.918955, 0.920915, 0.92132, 0.938657
1.07316, 1.07238, 1.2648, 1.06981, 1.06924, 1.06316, 1.06743, 1.0592, 1.0582, 1.05756, 1.05787, 1.05291, 1.05207, 1.20306, 1.06742, 1.06886, 1.18411, 1.18789, 1.2269, 1.19555, 1.05272, 1.19848, 1.2058, 1.27736, 1.26115, 1.02701, 1.02756, 1.0268, 1.02463, 1.02368, 1.01904, 1.01648, 1.01572, 1.01329, 1.01382, 1.01158, 1.00983, 1.00916, 1.00871, 1.00814, 1.00643, 1.00441, 1.00451, 1.02872, 1.00177, 1.00275, 1.00328, 1.0018, 0.999676, 0.999887, 0.999053, 0.997412, 0.997298, 0.99737, 0.996993, 0.997929, 0.992055, 0.99182, 0.991819, 0.988834, 0.988685, 0.989014, 0.985413, 0.985611, 1.18412, 0.983643, 0.984624, 0.973387, 0.974291, 0.973166, 0.969678, 0.98328, 0.956077, 0.994569, 0.994143, 0.963179, 0.962932, 0.933731, 0.910518, 0.909982, 0.941589, 0.931983, 0.959454, 0.962822, 1.02563, 1.03288, 1.04667, 1.09164, 1.16151, 1.22648, 1.2888, 1.32708, 1.38809, 1.47313, 1.4747, 1.55812, 1.53307, 1.64334, 1.56937, 1.61414, 1.59494, 1.59512, 1.58722, 1.60384, 1.63728, 1.64097, 1.64462, 1.68003, 1.73389, 1.76996, 1.77972, 1.78142, 1.78335, 1.83064, 1.83853, 1.85898, 1.87983, 1.90455, 1.9141, 1.91488, 1.91483, 1.91482, 1.90745, 1.90727, 2.0324, 1.9516, 2.01019, 1.96576, 1.95938, 1.95888, 2.09781, 1.95186, 2.13225, 1.96027, 2.00135, 2.05218, 2.05076, 2.05076, 2.05576, 2.0357, 2.03449, 2.06609, 2.10795, 2.0232, 2.05279, 2.05239, 2.09369, 2.06092, 2.06012, 2.11901, 2.13044, 2.13021, 2.0248, 1.97318, 1.96652, 1.96563, 1.97756, 1.97872, 1.97825, 1.97544, 1.98283, 1.98222, 2.0245, 2.0185, 1.99688, 1.99769, 1.99331, 1.99271, 1.96609, 2.05498, 2.00779, 1.96618, 1.95921, 1.95875, 2.0271, 2.02847, 1.99171, 1.99586, 1.99582, 1.99023, 1.9284, 1.93063, 1.93025, 1.92957, 1.89601, 1.8952, 1.89487, 1.89402, 1.9029, 1.90135, 1.9013, 1.90073, 1.8804, 1.85573, 1.87285, 1.80283, 1.92564, 1.85961, 1.78263, 1.78294, 1.77555, 1.77564, 1.77642, 1.76445, 1.75125, 1.69304, 1.7047, 1.65482, 1.65448, 1.69696, 1.59717, 1.59702, 1.59093, 1.5932, 1.51214, 1.51067, 1.50199, 1.55267, 1.51203, 1.50617, 1.52761, 1.42651, 1.38175, 1.36211, 1.35738, 1.37964, 1.28178, 1.24149, 1.1866, 1.09827, 1.02009, 0.992137, 0.9959, 0.972041, 0.933106, 0.938253, 0.919506, 0.926104, 0.868877, 0.929852, 0.909627, 0.881201, 0.884263, 0.881139, 0.899109, 0.908186, 0.91012, 0.911082, 0.91302, 0.91373, 0.914322, 0.917242, 0.917778, 0.918399, 0.919457, 0.921134, 0.922261, 0.922421, 0.924562, 0.925819, 0.925987, 0.92776, 0.926395, 0.925987, 0.927103, 1.13489, 1.12826, 0.929245, 1.13625, 1.14642, 1.14686, 1.15181, 0.943125, 0.942438, 0.943081, 0.93888, 0.933268, 0.931162, 0.930986, 0.929885, 0.929391, 0.927859, 0.925161, 0.926486, 0.926032, 0.924922, 0.92269, 0.922092, 0.922078, 0.9222, 0.92194, 0.922711, 0.9233, 0.915705, 0.929578, 0.911301, 0.915263, 0.91997, 1.30147, 0.901115
1.07265, 1.06848, 1.06736, 1.06341, 1.06017, 1.06035, 1.05953, 1.05622, 1.05627, 1.05429, 1.05257, 1.05006, 1.0491, 1.04679, 1.04545, 1.04387, 1.04959, 1.04957, 1.05087, 1.03864, 1.07825, 1.032, 1.03046, 1.03016, 1.02841, 1.02539, 1.02463, 1.02401, 1.02366, 1.0236, 1.02038, 1.01922, 1.01571, 1.01571, 1.01207, 1.0117, 1.00778, 1.00754, 1.00756, 1.00694, 1.00712, 1.00493, 1.00477, 1.0044, 1.00458, 1.07684, 1.00145, 1.00166, 0.999533, 0.99772, 0.995775, 0.995459, 0.998137, 0.99453, 0.991407, 0.991195, 0.9917, 0.991994, 0.991905, 0.987726, 0.989607, 0.983918, 0.983598, 0.980462, 0.980753, 0.978716, 0.976315, 0.974271, 0.973864, 0.970824, 0.969772, 0.967793, 0.977347, 0.974729, 0.975078, 0.961548, 0.915706, 0.915893, 0.913617, 0.911759, 0.912506, 0.95521, 0.939272, 0.987326, 1.00439, 1.03463, 1.05774, 1.11272, 1.13939, 1.21971, 1.39241, 1.42817, 1.43005, 1.46179, 1.46212, 1.4848, 1.49769, 1.51741, 1.56915, 1.55162, 1.60687, 1.64005, 1.64037, 1.63602, 1.63504, 1.61557, 1.62368, 1.64813, 1.74567, 1.81519, 1.81562, 1.76843, 1.78512, 1.82656, 1.86437, 1.85263, 1.88167, 1.97953, 1.91524, 1.915, 1.91516, 1.91427, 1.90751, 1.90754, 2.04146, 1.97978, 2.03492, 1.96552, 1.9653, 1.9649, 1.95327, 1.9527, 1.95967, 1.96588, 2.05911, 2.05784, 2.05239, 2.06197, 2.06189, 2.03688, 2.03858, 2.06947, 2.02606, 2.06675, 2.04775, 2.04706, 2.04555, 2.06077, 2.0609, 2.07626, 2.14491, 2.00483, 2.00452, 1.97285, 1.96847, 1.9661, 1.97764, 1.9791, 1.97754, 1.98074, 1.98086, 1.95754, 1.95556, 1.95486, 1.95144, 2.03267, 1.96506, 2.01792, 1.96569, 1.96588, 1.96437, 1.96541, 1.95971, 1.95929, 1.96106, 1.97722, 1.99207, 1.99208, 2.0659, 1.92675, 1.93044, 1.92908, 1.93082, 1.93088, 1.99082, 1.89643, 1.8959, 1.89463, 1.8941, 1.92573, 1.91674, 1.88414, 1.9048, 1.87051, 1.87589, 1.87362, 1.78918, 1.83727, 1.78689, 1.77635, 1.77562, 1.77452, 1.77445, 1.78209, 1.75484, 1.72138, 1.71416, 1.70879, 1.57128, 1.57239, 1.5386, 1.53813, 1.54251, 1.59825, 1.51155, 1.52379, 1.52368, 1.5371, 1.51146, 1.51049, 1.46754, 1.42554, 1.37566, 1.36345, 1.3743, 1.31889, 1.31939, 1.22559, 1.18726, 1.0431, 1.04278, 1.01534, 0.977289, 0.953941, 0.942822, 0.94687, 0.887637, 0.861364, 0.861849, 0.862795, 0.859419, 0.917215, 0.923721, 0.891818, 0.904882, 0.907045, 0.909079, 0.911699, 0.913047, 0.912417, 0.915233, 0.915677, 0.916668, 0.920241, 0.921154, 0.922668, 0.922933, 0.924479, 0.926277, 0.925269, 1.11846, 1.11848, 1.28448, 1.2833, 1.13606, 1.13556, 1.13026, 1.13452, 0.949876, 0.951696, 0.952284, 0.945679, 0.944185, 0.94092, 0.938639, 0.938493, 0.931898, 0.931356, 0.929467, 0.929379, 0.929964, 0.92922, 0.927496, 0.927621, 0.92813, 0.928004, 0.927218, 0.927188, 0.927268, 0.922334, 0.923194, 0.924731, 1.25901, 0.929246, 0.942466, 0.913179, 0.914759, 0.915447, 0.91648, 0.915157
1.48096, 1.47812, 1.4821, 1.06144, 1.06085, 1.0584, 1.05661, 1.05484, 1.05442, 1.05254, 1.05189, 1.04763, 1.04823, 1.04631, 1.04465, 1.05838, 1.57139, 1.48879, 1.03312, 1.03253, 1.61399, 1.04256, 1.03184, 1.02916, 1.02725, 1.02528, 1.02436, 1.02414, 1.02421, 1.02249, 1.02199, 1.02518, 1.0221, 1.04238, 1.02401, 1.03653, 1.03371, 1.03339, 1.00449, 1.00414, 1.00205, 1.00177, 1.02743, 1.02763, 1.03203, 0.998993, 0.999487, 0.999632, 1.02917, 1.09522, 1.25336, 0.991244, 0.990021, 0.987482, 0.985756, 0.987181, 1.01132, 1.21566, 1.17743, 0.997726, 0.997855, 0.984813, 0.98012, 0.979653, 0.973469, 0.973773, 0.973335, 0.972472, 0.971704, 0.970323, 0.969165, 0.968888, 1.26675, 0.971004, 0.973672, 0.968051, 0.975258, 0.97358, 0.912308, 0.912111, 0.939838, 0.957186, 0.921359, 0.983898, 1.01902, 1.01841, 1.05356, 1.05508, 1.15705, 1.20575, 1.39238, 1.39227, 1.48964, 1.49302, 1.46779, 1.45842, 1.52651, 1.52201, 1.53004, 1.54728, 1.60524, 1.60512, 1.64528, 1.63527, 1.63349, 1.61782, 1.63567, 1.69157, 1.72302, 1.72312, 1.78556, 1.76888, 1.80336, 1.79913, 1.82127, 1.83041, 1.8307, 1.93538, 1.91591, 1.91623, 1.91514, 1.95688, 1.95654, 1.92682, 1.95622, 1.96159, 1.96291, 1.9656, 1.96534, 1.96527, 1.95394, 1.9542, 1.96071, 1.96089, 1.96153, 2.05624, 2.05183, 2.06169, 2.06171, 2.062, 2.05256, 2.1144, 2.05877, 2.01967, 2.021, 2.04727, 2.16273, 2.20472, 2.18363, 2.07619, 2.22359, 2.10654, 2.01405, 2.0424, 1.96861, 1.96857, 2.06903, 2.07085, 2.04442, 2.02723, 1.95981, 1.95774, 1.95584, 1.95471, 1.95338, 1.95331, 1.95221, 1.9893, 1.9959, 1.96476, 1.96724, 1.99978, 2.00643, 1.99801, 2.0066, 1.99324, 1.95872, 2.01443, 2.02464, 1.92826, 1.92652, 1.92892, 1.93091, 1.93064, 1.96905, 1.96737, 1.88937, 1.88816, 1.88883, 1.92161, 1.90839, 1.91066, 1.91799, 1.92344, 1.86285, 1.78948, 1.78916, 1.79233, 1.78696, 1.78564, 1.80631, 1.80701, 1.7615, 1.76116, 1.78266, 1.74493, 1.66555, 1.63016, 1.70287, 1.56148, 1.53742, 1.54329, 1.57408, 1.61026, 1.52148, 1.52063, 1.54252, 1.54339, 1.50694, 1.50355, 1.46341, 1.39959, 1.39849, 1.35778, 1.34862, 1.31906, 1.31986, 1.1615, 1.13243, 1.09059, 1.01853, 1.0143, 0.966654, 0.966601, 0.951114, 0.922071, 0.899053, 0.863579, 0.877431, 0.878483, 0.942238, 0.943855, 0.899094, 1.29889, 0.90781, 0.908284, 0.911162, 0.912311, 0.913801, 0.914858, 0.917486, 0.917634, 0.916192, 0.917614, 0.920663, 0.92125, 0.921979, 0.924069, 0.924696, 0.925359, 0.918591, 1.1244, 0.928288, 0.928986, 1.02002, 1.13397, 1.04562, 0.938224, 0.949583, 0.951034, 0.952287, 0.933722, 0.938376, 0.939978, 0.941459, 0.937242, 0.930057, 0.930798, 0.931321, 0.929899, 0.929765, 0.928206, 0.928225, 0.92758, 0.926822, 0.927137, 0.927795, 0.926148, 0.928082, 0.927239, 0.927309, 0.927916, 0.927546, 0.92938, 0.930886, 0.931686, 0.913789, 0.914785, 0.916758, 0.917939
1.47138, 1.38515, 1.4797, 1.39641, 1.39908, 1.05633, 1.05614, 1.05341, 1.05318, 1.05095, 1.05053, 1.04876, 1.04492, 1.04403, 1.04219, 1.03854, 1.037, 1.03246, 1.0312, 1.03082, 1.02545, 1.02524, 1.02428, 1.02571, 1.0265, 1.02534, 1.0252, 1.02526, 1.02353, 1.56791, 1.67748, 1.01688, 1.01492, 1.01358, 1.60684, 1.72084, 1.72135, 1.03988, 1.04058, 1.03783, 1.03686, 1.03803, 1.02595, 1.03872, 1.00078, 1.00069, 1.00082, 1.001, 1.08707, 1.22644, 1.49972, 0.988786, 0.987071, 0.985959, 0.981416, 0.980058, 0.97565, 0.974281, 1.10999, 0.967753, 0.967456, 0.968981, 0.969696, 0.969916, 0.969884, 0.973505, 0.973192, 1.12889, 0.972898, 0.973564, 0.969067, 0.969577, 1.25722, 0.973152, 0.974177, 0.962958, 0.933073, 0.913454, 0.938038, 0.907142, 0.944448, 0.950183, 0.944053, 0.944812, 1.01173, 1.01198, 1.09545, 1.09499, 1.21164, 1.41507, 1.4141, 1.41471, 1.41281, 1.40768, 1.49192, 1.49335, 1.52589, 1.52516, 1.51451, 1.54154, 1.68163, 1.68834, 1.62447, 1.69614, 1.69543, 1.65706, 1.69897, 1.69195, 1.69217, 1.73233, 1.73096, 1.79798, 1.79801, 1.79804, 1.82444, 1.88554, 1.82529, 2.00389, 2.05844, 2.06383, 1.95447, 1.95795, 1.95848, 1.95786, 1.94988, 1.96221, 1.96436, 1.96047, 1.96075, 1.9628, 1.95899, 1.9557, 1.96228, 1.96223, 1.96267, 1.96156, 2.05692, 2.0618, 2.09228, 2.09192, 2.04709, 2.04598, 2.11358, 2.11253, 1.99717, 2.05621, 1.96412, 2.17394, 2.18396, 2.24114, 1.98329, 1.99355, 1.9885, 2.03996, 2.041, 2.01324, 2.013, 1.96501, 2.027, 2.03162, 2.02728, 1.96988, 1.96869, 1.96884, 1.96246, 1.96174, 1.95186, 1.9594, 1.9854, 1.98588, 1.96544, 2.00167, 1.96873, 2.00696, 2.00647, 2.0309, 1.95799, 1.94876, 1.96356, 2.0207, 2.02444, 1.93677, 1.93766, 1.93253, 1.93385, 1.93256, 1.8875, 1.89223, 1.89016, 1.9221, 1.89087, 1.83152, 1.91715, 1.91866, 1.81618, 1.8163, 1.78858, 1.78932, 1.78782, 1.78873, 1.78365, 1.806, 1.76816, 1.76651, 1.7706, 1.65914, 1.64861, 1.63718, 1.57078, 1.55335, 1.54181, 1.52565, 1.56983, 1.51711, 1.5744, 1.6041, 1.48299, 1.48849, 1.4891, 1.48829, 1.46196, 1.42564, 1.42539, 1.34712, 1.32661, 1.29857, 1.19384, 1.18815, 1.14728, 1.07398, 0.999176, 0.997522, 0.949362, 0.987758, 0.963241, 0.902347, 0.890928, 0.888477, 0.884098, 0.876836, 0.892463, 0.891194, 1.26034, 0.911705, 0.911671, 0.909264, 0.909764, 0.912828, 0.913517, 0.914273, 0.915245, 0.916401, 0.917877, 0.918286, 0.922363, 0.921353, 0.922238, 0.925245, 0.926793, 0.91767, 1.14185, 1.12435, 0.927939, 0.929221, 1.13174, 1.02011, 1.04733, 0.938318, 0.938656, 0.938879, 0.930119, 0.932771, 0.935636, 0.938895, 0.936903, 0.935124, 0.932103, 0.931848, 0.931296, 0.930167, 0.929288, 0.92811, 0.928328, 0.927458, 0.927079, 0.927055, 0.926341, 0.925657, 0.926354, 0.926848, 0.92581, 0.925967, 0.926553, 0.928732, 0.929839, 0.929795, 0.930166, 0.913358, 0.916118, 0.915594
1.36822, 1.37038, 1.38099, 1.60338, 1.07504, 1.05719, 1.0545, 1.053, 1.05364, 1.05304, 1.07114, 1.46129, 1.04247, 1.04162, 1.04111, 1.48605, 1.03656, 1.03198, 1.02856, 1.02514, 1.02472, 1.02302, 1.02302, 1.02184, 1.01988, 1.0183, 1.01829, 1.01785, 1.01874, 1.01661, 1.0178, 1.01727, 1.41575, 1.22207, 1.06652, 1.04628, 1.04677, 1.04565, 1.04609, 1.04376, 1.03567, 1.02497, 1.03384, 1.03398, 1.03356, 0.99845, 1.00009, 0.998517, 1.37495, 1.49879, 0.988116, 0.987432, 0.987689, 0.980154, 0.979833, 0.97828, 0.975708, 0.974106, 0.969295, 0.968545, 0.968491, 0.968646, 0.968847, 0.972844, 0.970833, 0.966806, 0.966267, 0.967668, 0.965278, 0.965066, 0.964751, 0.963735, 0.960647, 0.977405, 0.984906, 0.931863, 0.931543, 0.942757, 0.9041, 0.903453, 0.925644, 0.936102, 0.937091, 0.946044, 0.98432, 1.02915, 1.06721, 1.11464, 1.14067, 1.29793, 1.3084, 1.34425, 1.34482, 1.37153, 1.39506, 1.40647, 1.4511, 1.43724, 1.48719, 1.51181, 1.68453, 1.68407, 1.68957, 1.68752, 1.65531, 1.69888, 1.69913, 1.69947, 1.69722, 1.74826, 1.73022, 1.73089, 1.79897, 1.79845, 1.82367, 1.88605, 1.8852, 1.88546, 2.04955, 2.00181, 1.95586, 1.95786, 1.95797, 1.95686, 1.95153, 1.95086, 1.96489, 1.96496, 1.96274, 1.96395, 1.962, 2.02477, 1.96225, 2.00143, 1.96304, 1.96242, 2.13402, 2.11965, 2.13503, 2.00344, 2.04698, 2.04625, 2.04634, 1.98982, 1.99015, 1.96512, 1.96516, 1.96465, 1.97195, 1.92373, 1.97566, 1.98656, 1.99589, 1.99407, 1.99089, 2.04342, 2.01279, 2.0116, 1.98185, 2.02681, 1.9482, 1.94717, 1.94157, 1.93419, 1.92007, 1.91973, 1.92454, 1.92396, 2.04152, 1.94795, 1.94799, 1.9554, 1.93666, 1.93772, 1.9374, 1.9368, 1.95199, 1.95173, 1.92971, 1.92831, 1.91063, 1.91085, 1.9907, 1.98978, 1.96554, 1.93539, 1.88746, 1.8872, 1.88647, 1.97327, 1.95808, 1.85383, 1.88815, 1.88823, 1.81759, 1.81687, 1.78837, 1.78924, 1.78916, 1.78793, 1.78968, 1.78908, 1.79066, 1.70113, 1.69517, 1.68293, 1.62264, 1.63031, 1.57526, 1.5542, 1.52823, 1.5265, 1.53417, 1.54667, 1.48874, 1.51071, 1.48906, 1.47875, 1.4948, 1.46736, 1.41981, 1.40184, 1.3675, 1.3601, 1.33017, 1.26731, 1.21962, 1.16041, 1.10674, 1.05045, 1.02719, 0.994764, 0.962111, 0.939614, 0.937289, 0.90017, 0.888885, 0.875757, 0.883551, 0.874186, 0.89737, 0.897375, 0.900096, 0.900283, 0.912788, 0.911892, 0.911779, 0.912614, 0.914557, 0.914678, 0.916642, 0.916567, 0.921066, 0.922253, 1.2422, 1.10161, 0.931032, 0.932555, 1.27389, 1.274, 1.10842, 1.11999, 1.105, 1.12175, 1.12369, 1.12473, 1.13014, 1.14417, 1.14021, 0.933604, 0.931823, 0.938969, 0.939283, 0.93763, 0.938407, 0.935736, 0.930169, 0.930622, 0.931363, 0.929848, 0.930345, 0.929337, 0.92872, 0.927681, 0.928343, 0.928193, 0.92317, 0.92248, 0.928412, 0.92615, 0.926542, 0.925235, 0.926069, 0.927534, 0.928865, 0.93046, 0.93063, 0.913058, 0.915152, 0.914261
1.05957, 1.05958, 1.05846, 1.05641, 1.0535, 1.0522, 1.05176, 1.04891, 1.04833, 1.045, 1.04575, 1.04282, 1.04285, 1.03953, 1.03729, 1.03542, 1.03333, 1.0324, 1.02991, 1.02674, 1.0253, 1.02277, 1.02254, 1.02269, 1.02209, 1.02154, 1.01988, 1.01814, 1.01845, 1.01806, 1.0151, 1.01276, 1.0129, 1.01095, 1.00955, 1.00889, 1.00692, 1.00772, 1.04083, 1.01872, 1.03977, 1.03263, 1.03407, 1.03555, 0.997094, 0.997941, 0.997954, 0.99488, 0.99444, 0.990882, 0.985031, 0.98472, 0.984227, 0.980786, 0.97964, 0.978021, 0.977942, 0.968623, 0.968706, 0.968764, 0.968816, 0.97496, 0.973627, 0.972515, 0.972443, 0.97234, 1.00464, 0.966734, 0.966033, 0.964753, 0.964392, 0.962603, 0.960981, 0.979891, 0.981328, 0.977148, 0.98353, 0.983732, 0.910791, 0.933563, 0.900022, 0.936113, 0.935491, 0.972237, 0.973908, 1.0266, 1.06732, 1.15273, 1.15026, 1.19597, 1.27011, 1.30862, 1.31654, 1.34324, 1.35933, 1.40212, 1.3881, 1.44649, 1.47474, 1.50848, 1.58947, 1.60647, 1.68504, 1.68456, 1.65859, 1.66115, 1.75388, 1.6968, 1.72672, 1.73953, 1.79063, 1.72831, 1.82674, 1.81642, 1.82026, 1.82073, 1.81989, 1.81942, 1.87801, 1.88607, 1.92135, 1.91722, 1.95713, 2.01052, 1.95126, 1.95077, 1.96391, 2.08697, 1.96215, 1.95523, 1.95574, 1.95877, 2.01205, 1.98282, 2.04773, 1.96286, 1.96355, 1.9647, 1.9668, 1.96664, 2.06977, 2.04752, 2.0462, 1.99025, 1.98996, 1.98974, 1.98168, 1.98375, 1.98031, 1.98515, 1.97564, 1.9736, 1.97025, 1.97836, 1.99005, 1.9783, 1.983, 1.97509, 1.95105, 1.95075, 1.93731, 1.93723, 1.93658, 1.93487, 1.95143, 1.91778, 1.91808, 1.93762, 1.93695, 1.93614, 1.94161, 1.9715, 1.97274, 1.93807, 1.93751, 1.93705, 1.93502, 1.92814, 1.93016, 1.93095, 1.94143, 1.98497, 1.90013, 1.90277, 1.95975, 1.97961, 1.88652, 1.88739, 1.8859, 1.88536, 1.85043, 1.87837, 1.87849, 1.88908, 1.88415, 1.897, 1.8965, 1.82695, 1.79095, 1.78897, 1.81232, 1.82343, 1.77701, 1.7127, 1.69325, 1.64697, 1.63825, 1.61024, 1.59501, 1.57401, 1.52961, 1.52824, 1.51829, 1.50868, 1.50731, 1.52694, 1.47629, 1.47654, 1.42115, 1.3962, 1.44667, 1.37124, 1.41003, 1.41175, 1.33271, 1.2826, 1.21207, 1.14652, 1.1186, 1.04142, 1.00506, 1.00306, 0.940382, 0.901921, 0.901443, 0.899442, 0.897942, 0.893009, 0.865093, 0.865464, 0.870993, 0.908774, 0.910482, 0.911334, 0.912754, 0.913708, 0.914535, 0.913788, 0.915269, 0.916282, 0.917003, 0.921904, 0.923887, 0.925009, 0.929199, 0.930267, 1.10933, 1.10704, 1.10985, 1.12288, 1.12496, 1.12001, 1.13589, 1.10193, 1.28935, 0.957497, 0.958677, 0.958597, 0.933356, 0.935213, 0.936949, 0.939007, 0.940625, 0.941988, 0.936426, 0.933829, 0.933713, 0.93225, 0.933023, 0.932301, 0.932668, 0.929235, 0.930372, 0.930027, 0.928129, 0.924937, 0.921199, 0.925361, 0.927846, 0.9294, 0.929483, 0.928426, 0.929478, 0.927378, 0.926986, 0.926596, 0.928808, 0.929472, 0.93059, 0.915761
1.05854, 1.05884, 1.05871, 1.0597, 1.05258, 1.05099, 1.04674, 1.04461, 1.04457, 1.04403, 1.04212, 1.04211, 1.0397, 1.03828, 1.03888, 1.03231, 1.03193, 1.03265, 1.02888, 1.02759, 1.02729, 1.02492, 1.02473, 1.02305, 1.02247, 1.02119, 1.01936, 1.01812, 1.01551, 1.0151, 1.01512, 1.01233, 1.01126, 1.00818, 1.00705, 1.0077, 1.0079, 1.00592, 1.00125, 1.03641, 1.03669, 0.984719, 0.985925, 1.03281, 1.0332, 0.994259, 0.994178, 0.994257, 0.995794, 0.991542, 0.990506, 0.981927, 0.981303, 0.983016, 0.98248, 0.976449, 0.974276, 0.973398, 0.969012, 1.37381, 1.44219, 0.974453, 0.97416, 0.974608, 0.969665, 0.968508, 0.964912, 0.965113, 0.966292, 0.966255, 0.96502, 0.963584, 0.980181, 0.979468, 0.981196, 0.984056, 0.983622, 0.983646, 0.905088, 0.903344, 0.951054, 0.936166, 0.946508, 0.969834, 0.985476, 1.05284, 1.08865, 1.09527, 1.21983, 1.22279, 1.2361, 1.2814, 1.29136, 1.32434, 1.33411, 1.36902, 1.40248, 1.43296, 1.42715, 1.47946, 1.58962, 1.60035, 1.60961, 1.65809, 1.65882, 1.66173, 1.76153, 1.73023, 1.72542, 1.72574, 1.79687, 1.79327, 1.81668, 1.81631, 1.81676, 1.8211, 1.82087, 1.8214, 1.82064, 1.82142, 1.855, 1.92173, 1.92201, 1.92146, 1.92199, 1.93438, 1.95275, 1.95034, 1.95572, 1.95411, 1.95462, 1.9804, 2.05481, 2.04788, 2.06713, 2.06943, 2.06811, 1.96593, 1.96837, 1.96947, 1.9701, 2.0306, 2.05821, 2.10367, 1.99087, 1.98172, 1.98128, 1.9854, 1.9816, 1.97554, 1.97561, 1.93059, 1.97268, 1.92717, 1.92129, 1.97033, 1.96959, 1.95114, 1.95237, 1.95143, 1.93722, 1.9374, 1.937, 1.93393, 1.93136, 1.95879, 1.95128, 1.93756, 1.93704, 1.93662, 1.94034, 1.94002, 1.94658, 1.94654, 1.93775, 1.9368, 1.9258, 1.92558, 1.95628, 1.93738, 1.89582, 1.98402, 1.90156, 1.90128, 1.90026, 1.94499, 1.89266, 1.89579, 1.8964, 1.89014, 1.8518, 1.87983, 1.87913, 1.90284, 1.88636, 1.88538, 1.894, 1.84445, 1.80231, 1.79197, 1.83574, 1.77687, 1.73193, 1.76985, 1.66537, 1.65776, 1.61929, 1.62903, 1.59503, 1.57337, 1.53733, 1.53346, 1.53175, 1.48562, 1.48301, 1.52168, 1.52048, 1.40685, 1.39876, 1.39274, 1.38428, 1.37186, 1.35987, 1.36738, 1.36682, 1.31903, 1.23638, 1.199, 1.10432, 1.06745, 1.02621, 0.975162, 0.957536, 0.951789, 0.925121, 0.900361, 0.970132, 0.970723, 0.907876, 0.863938, 0.872159, 0.896268, 0.899868, 0.911287, 0.912899, 0.914448, 0.917595, 0.91648, 0.913016, 1.08053, 1.08432, 0.922669, 0.924754, 1.09788, 0.939141, 0.940225, 0.94186, 1.07478, 1.07518, 1.11484, 1.11707, 1.0857, 1.08908, 1.12526, 1.14065, 1.13816, 0.958351, 0.958076, 0.934701, 0.934724, 0.942586, 0.945398, 0.945489, 0.946082, 1.06791, 0.932719, 0.933283, 0.935023, 0.93577, 0.933236, 0.931743, 0.931914, 0.929585, 0.930753, 0.924032, 0.928186, 0.927808, 0.928547, 0.927822, 0.928682, 0.926158, 0.926966, 0.924967, 0.925149, 0.924948, 0.92749, 0.929025, 0.930287, 0.930309, 0.924831
1.20912, 1.06033, 1.19692, 1.31934, 1.18051, 1.04779, 1.04487, 1.04434, 1.04406, 1.04397, 1.04166, 1.04196, 1.03881, 1.03831, 1.22014, 1.02997, 1.03067, 1.02868, 1.02638, 1.02602, 1.02735, 1.02696, 1.02663, 1.02296, 1.02184, 1.01952, 1.0182, 1.01786, 1.01805, 1.01524, 1.01702, 1.11503, 1.00915, 1.00709, 1.00479, 1.00311, 1.0012, 1.00096, 1.03061, 1.02941, 0.987732, 0.985945, 0.986145, 1.22091, 0.99086, 0.991708, 0.992316, 0.99506, 0.991811, 0.991673, 0.988568, 0.998548, 0.983585, 0.983669, 0.982754, 1.02214, 0.972781, 0.972357, 0.973154, 0.973017, 0.973117, 0.974586, 0.974168, 0.970129, 0.969447, 0.969398, 0.966185, 0.964923, 0.966396, 0.965196, 0.964395, 0.961789, 0.976454, 0.980657, 0.984457, 0.984693, 0.904829, 0.90462, 0.902138, 0.90078, 0.901205, 0.908914, 0.930273, 0.933742, 0.972082, 0.987146, 1.07757, 1.11325, 1.12662, 1.2062, 1.23417, 1.26831, 1.29607, 1.29461, 1.32341, 1.33604, 1.37206, 1.40233, 1.41887, 1.47578, 1.49976, 1.66617, 1.66614, 1.6239, 1.66916, 1.67102, 1.67053, 1.67089, 1.66083, 1.70571, 1.7842, 1.78385, 1.79944, 1.81393, 1.81504, 1.84777, 1.84719, 1.81327, 1.81469, 1.84442, 1.85284, 1.99355, 1.99469, 1.99751, 1.91406, 1.90908, 1.93722, 2.00738, 1.95084, 1.95111, 1.95098, 1.94577, 1.9457, 2.04819, 2.06852, 2.06911, 2.06855, 2.06832, 2.013, 2.01366, 1.9693, 1.97225, 1.97672, 2.08298, 2.10428, 1.98239, 1.98003, 1.95529, 1.94616, 1.98197, 1.94136, 1.9387, 1.92349, 1.92271, 1.92202, 1.94204, 2.01075, 1.95193, 1.95133, 1.94053, 1.9666, 1.96669, 1.96561, 1.93186, 1.93071, 1.92829, 1.9279, 1.95649, 1.93757, 1.94808, 1.99897, 1.97713, 1.96884, 1.95181, 1.95153, 1.95132, 1.93752, 1.93724, 1.98197, 1.89937, 1.90651, 1.91044, 1.90178, 1.93429, 1.9342, 1.90197, 1.8929, 1.90305, 1.94949, 1.89244, 1.8581, 1.88637, 1.91009, 1.90421, 1.86604, 1.81731, 1.78203, 1.78135, 1.78291, 1.74232, 1.83373, 1.74634, 1.7389, 1.70357, 1.67207, 1.67212, 1.70932, 1.64069, 1.61091, 1.61289, 1.59405, 1.52983, 1.58631, 1.50996, 1.52, 1.52467, 1.42015, 1.42139, 1.39623, 1.3861, 1.38278, 1.35731, 1.33916, 1.32969, 1.30217, 1.30249, 1.25251, 1.16426, 1.12185, 1.12187, 1.06738, 0.997575, 0.980401, 0.939745, 0.904402, 0.918993, 0.894124, 0.893915, 0.895108, 0.908035, 0.868046, 0.891012, 0.885117, 0.910718, 0.912472, 0.915933, 0.919014, 0.921117, 0.921551, 1.08258, 1.09133, 1.08836, 1.08878, 1.09562, 0.939745, 0.940396, 0.940742, 1.0435, 1.16877, 1.12666, 1.12456, 1.13011, 0.989524, 0.989726, 1.20993, 1.17104, 1.04282, 1.06605, 1.05399, 1.05049, 0.963945, 0.945243, 1.26042, 0.959733, 0.960472, 0.950891, 0.95166, 0.952452, 0.952561, 0.946906, 0.947779, 0.93292, 0.931484, 0.932806, 0.931658, 0.931489, 0.927834, 0.928868, 0.928826, 0.926008, 0.924046, 0.92284, 0.921854, 0.922776, 0.925411, 0.925163, 0.927373, 0.928557, 0.929559, 0.929047
1.05316, 1.05286, 1.0509, 1.04938, 1.63007, 1.58386, 1.2079, 1.04406, 1.04168, 1.04547, 1.61832, 1.034, 1.03268, 1.0321, 1.03247, 1.02917, 1.02841, 1.02877, 1.02564, 1.02576, 1.02556, 1.02589, 1.02571, 1.02284, 1.02131, 1.01882, 1.49013, 1.01173, 1.0119, 1.40723, 1.40858, 1.01806, 1.01789, 1.03957, 1.00197, 1.00203, 0.99946, 0.997495, 0.994938, 0.993646, 0.984186, 0.983955, 0.994495, 0.991053, 0.990766, 0.990814, 0.991302, 0.991532, 0.990631, 0.99073, 0.990705, 0.990196, 0.984986, 0.98505, 0.985074, 0.995701, 1.00696, 0.977004, 0.97333, 0.973123, 0.972733, 0.972626, 0.972881, 0.970399, 0.969718, 0.970909, 0.96333, 0.963386, 0.965109, 0.96443, 0.96268, 0.958415, 0.980683, 0.980038, 0.978043, 0.914493, 0.905529, 0.905729, 0.90406, 0.899698, 0.899352, 0.936911, 0.930641, 0.973485, 0.972444, 1.01651, 1.01554, 1.11166, 1.11208, 1.1849, 1.19503, 1.22734, 1.27311, 1.28618, 1.312, 1.33743, 1.35818, 1.38844, 1.41992, 1.47038, 1.49564, 1.66736, 1.66643, 1.63511, 1.64731, 1.63113, 1.64142, 1.66206, 1.66193, 1.68319, 1.78334, 1.7845, 1.78332, 1.85442, 1.85239, 1.81001, 1.85161, 1.81182, 1.81148, 1.81119, 1.83435, 1.99336, 1.99423, 1.86821, 1.91074, 1.94185, 1.97662, 1.97681, 1.95266, 1.94963, 1.94475, 1.94461, 2.15666, 2.15812, 2.16112, 2.07188, 2.10432, 2.10271, 2.10268, 2.11012, 2.10781, 2.00304, 2.00322, 1.95185, 1.95109, 1.95247, 1.9662, 1.943, 1.94285, 1.9422, 1.89926, 1.93911, 1.93881, 1.92353, 1.92192, 1.94485, 1.9533, 1.95908, 1.95112, 1.96183, 2.02079, 1.95554, 1.97911, 1.93753, 1.93206, 1.93274, 1.96314, 1.95866, 1.96961, 1.97018, 2.00321, 2.04928, 1.99717, 1.95316, 1.95186, 1.95206, 1.93805, 1.93768, 1.9078, 1.90669, 1.91645, 1.91613, 1.90371, 1.90238, 1.93342, 1.90191, 1.93419, 1.88883, 1.90128, 1.90096, 1.83878, 1.83934, 1.83886, 1.83577, 1.85251, 1.78573, 1.78202, 1.78142, 1.79668, 1.7514, 1.72632, 1.75954, 1.77557, 1.69683, 1.6732, 1.70994, 1.70965, 1.708, 1.6765, 1.59966, 1.58921, 1.57517, 1.62657, 1.53947, 1.52119, 1.52333, 1.4494, 1.42354, 1.39801, 1.37141, 1.41155, 1.35344, 1.3228, 1.32236, 1.32462, 1.31219, 1.24725, 1.16598, 1.17869, 1.07144, 1.04101, 1.02496, 0.974201, 0.936818, 0.922725, 0.921438, 0.931976, 0.894574, 0.893899, 0.881252, 0.906195, 0.883999, 0.883418, 0.956872, 1.07427, 1.07052, 1.07592, 0.920897, 1.08088, 1.08954, 1.03897, 1.0888, 1.10179, 1.09201, 1.02499, 1.0276, 1.03286, 1.18503, 1.11575, 1.23441, 1.0154, 0.991211, 0.991246, 0.990899, 1.00001, 1.00105, 1.05083, 1.03717, 1.14552, 1.05063, 0.964297, 0.964713, 0.958965, 0.959364, 0.956385, 0.956357, 0.950502, 0.951341, 0.95154, 0.946897, 0.948051, 0.945498, 0.939419, 0.935058, 0.935881, 0.93551, 0.930777, 0.930083, 0.930387, 0.930146, 0.931007, 0.921167, 0.921361, 0.922037, 0.924684, 0.924406, 0.925159, 0.92697, 0.927303, 0.928972
1.06365, 1.06351, 1.04839, 1.04759, 1.04677, 1.04299, 1.04034, 1.03912, 1.03844, 1.03628, 1.03645, 1.03609, 1.03582, 1.21413, 1.35127, 1.38494, 1.03003, 1.02587, 1.02591, 1.02238, 1.02274, 1.0206, 1.02173, 1.01498, 1.01329, 1.01169, 1.01124, 1.01137, 1.01151, 0.991235, 0.990761, 1.00145, 1.25187, 1.27428, 1.0351, 1.03351, 1.03406, 0.996133, 0.995299, 0.993968, 1.03264, 0.992564, 0.992111, 0.992216, 0.992096, 0.990421, 0.990365, 0.990683, 0.991569, 0.991007, 0.990705, 0.989668, 0.987853, 0.987058, 0.985207, 0.985816, 0.987066, 0.986932, 0.974361, 0.973182, 0.973176, 0.971937, 0.973159, 0.971798, 0.96973, 0.969684, 0.968023, 0.964317, 0.966281, 0.966401, 0.965296, 0.957664, 0.956055, 0.97, 0.97997, 0.935526, 0.90854, 0.971493, 0.894634, 0.889371, 0.888785, 1.03628, 1.03725, 0.945685, 0.974295, 1.01544, 1.01579, 1.07992, 1.13381, 1.16709, 1.19964, 1.20012, 1.25333, 1.31187, 1.30659, 1.33341, 1.35445, 1.38813, 1.38826, 1.45146, 1.47072, 1.47967, 1.55681, 1.55708, 1.61971, 1.67152, 1.6435, 1.64655, 1.66228, 1.65954, 1.77788, 1.77827, 1.77748, 1.80643, 1.8076, 1.84563, 1.82688, 1.82746, 1.81245, 1.81205, 1.86996, 1.84124, 1.94523, 1.94437, 1.94503, 1.97298, 1.92614, 1.92588, 1.94511, 1.94548, 1.94424, 1.94301, 2.06267, 2.07039, 2.07918, 2.08159, 2.10745, 2.10051, 2.11495, 2.10402, 2.10432, 1.9831, 1.95161, 1.95221, 1.95368, 2.1035, 1.96313, 1.93706, 1.94265, 1.94343, 1.90075, 1.8752, 1.87543, 1.93729, 1.92019, 1.92071, 1.95951, 1.95311, 1.96158, 1.95972, 1.95866, 1.95773, 1.96009, 1.96774, 1.93437, 1.93354, 1.9318, 1.98403, 1.92524, 1.92473, 1.95293, 1.91024, 1.9098, 2.00446, 1.9519, 2.04337, 1.93919, 1.93784, 1.97353, 1.91055, 1.92824, 1.91294, 1.89658, 1.89734, 1.92753, 1.90096, 1.95556, 1.92375, 1.93475, 1.93133, 1.96254, 1.83969, 1.83919, 1.83331, 1.85037, 1.8828, 1.88292, 1.86228, 1.85052, 1.85073, 1.72797, 1.72799, 1.73407, 1.75349, 1.75203, 1.67898, 1.67917, 1.67651, 1.6997, 1.591, 1.59182, 1.62726, 1.62885, 1.57546, 1.53806, 1.52838, 1.48767, 1.46217, 1.462, 1.38555, 1.3606, 1.36242, 1.32889, 1.32311, 1.30737, 1.28428, 1.27116, 1.21974, 1.118, 1.23676, 1.03076, 1.01126, 1.07265, 0.966853, 0.928489, 0.912235, 0.904504, 0.89915, 0.889742, 0.889407, 0.918333, 0.883851, 0.942547, 0.944076, 0.946339, 1.06363, 1.07329, 1.07131, 1.07716, 1.23809, 1.0675, 1.24061, 1.00845, 1.00944, 1.01002, 1.00978, 1.00895, 1.02238, 1.01445, 0.973001, 0.973168, 0.997994, 0.999989, 1.00105, 1.00112, 1.00111, 1.00077, 1.01654, 1.01499, 1.01425, 1.14439, 1.05223, 0.958922, 0.958725, 0.965058, 0.963702, 0.949267, 0.950009, 0.946663, 0.945454, 0.945112, 0.942384, 0.939663, 0.939361, 0.939066, 0.939237, 0.930542, 0.931065, 0.931024, 0.930255, 0.932049, 0.920587, 0.930628, 0.931628, 0.920771, 0.923794, 0.924965, 0.925886, 0.925608, 0.923823
1.26146, 1.22788, 1.24085, 1.04746, 1.0426, 1.04206, 1.03931, 1.03842, 1.03769, 1.03671, 1.03555, 1.03172, 1.03147, 1.02869, 1.02632, 1.02667, 1.02562, 1.02519, 1.02479, 1.02362, 1.02329, 1.02161, 1.02134, 1.01719, 1.01551, 1.01392, 1.00741, 1.00592, 1.00067, 0.990404, 0.990775, 0.996428, 0.99742, 1.03734, 1.03703, 1.0133, 1.03388, 1.03216, 0.994452, 0.992451, 0.992743, 0.992923, 0.99294, 0.992939, 0.993399, 0.993593, 1.01532, 0.992321, 0.992287, 0.992272, 0.992253, 0.992061, 0.98913, 0.988283, 0.986266, 0.985397, 0.98393, 0.982757, 1.02234, 0.976322, 1.003, 0.971259, 0.970783, 0.972489, 0.97532, 0.974737, 0.97016, 0.96997, 0.969619, 0.968264, 0.966792, 0.96027, 0.956038, 0.952705, 0.932135, 0.927904, 0.928064, 0.922608, 0.921768, 0.895427, 0.900874, 0.931788, 0.932358, 0.942968, 0.970344, 0.981349, 1.01951, 1.07214, 1.10193, 1.14308, 1.18188, 1.19908, 1.25472, 1.30728, 1.3056, 1.36515, 1.36227, 1.49517, 1.41313, 1.43707, 1.47716, 1.48441, 1.55747, 1.55733, 1.65342, 1.65407, 1.62573, 1.62203, 1.65531, 1.66851, 1.69345, 1.83977, 1.79371, 1.82914, 1.82075, 1.82764, 1.82943, 1.829, 1.82118, 1.8145, 1.87031, 1.87233, 1.9088, 1.89637, 1.94239, 1.92582, 1.98382, 1.98374, 2.06969, 2.06284, 2.01936, 2.01875, 2.07066, 2.06312, 2.02092, 2.1066, 2.10001, 2.10433, 2.10513, 1.9964, 2.00519, 2.00397, 1.97916, 1.95309, 1.95319, 2.10529, 2.02073, 1.93977, 1.93846, 1.91308, 1.87807, 1.87604, 1.87515, 1.93679, 2.01142, 2.00373, 1.92159, 1.9519, 1.96186, 1.96022, 1.9659, 1.96927, 1.95217, 1.96925, 1.96831, 1.9371, 1.97904, 1.98419, 1.97712, 1.94169, 1.91085, 1.91068, 1.91036, 1.90987, 2.10421, 1.91944, 1.98352, 1.98105, 1.9201, 1.914, 1.89699, 1.91976, 1.90298, 1.8975, 1.88677, 1.88634, 1.92323, 1.93124, 1.86283, 1.93419, 1.89342, 1.93787, 1.81125, 1.8104, 1.80765, 1.85664, 1.85477, 1.8352, 1.83346, 1.84455, 1.72955, 1.72977, 1.73123, 1.73234, 1.73285, 1.73688, 1.66585, 1.67993, 1.67145, 1.64523, 1.59204, 1.63123, 1.60334, 1.56929, 1.57525, 1.53042, 1.52891, 1.46161, 1.46379, 1.41896, 1.36783, 1.36461, 1.32468, 1.305, 1.29497, 1.277, 1.2241, 1.22305, 1.13939, 1.04244, 1.03757, 1.03198, 0.982852, 0.944748, 0.943158, 0.90829, 0.940159, 0.910548, 0.93562, 0.9262, 0.925452, 0.935499, 0.942503, 0.959148, 0.959408, 0.959906, 1.07672, 0.973082, 1.05674, 1.05708, 1.12954, 1.1402, 1.14728, 1.00879, 1.00957, 1.00263, 1.01219, 0.00452873, 1.09903, 0.971577, 0.973462, 0.974062, 0.998236, 1.00192, 1.0001, 1.0029, 0.982866, 0.983625, 0.983767, 1.00074, 1.01341, 0.982655, 0.98037, 1.02076, 0.967458, 0.968171, 0.956024, 0.956214, 0.956036, 0.952845, 0.953278, 0.942558, 0.940356, 0.941214, 0.940381, 0.943123, 0.943601, 0.945806, 0.92881, 0.930157, 0.931823, 0.930625, 0.927354, 0.92824, 0.927521, 0.925779, 0.924915, 0.924721, 0.92393, 0.92294
