1.34166613973345,0.928120255877833,1.14728699402859,1.20016368367173,0.91402168436424,0.914133488310003,0.914897325351224,0.915183881682801,0.916296283966693,0.91680550866084,0.932969164819699,0.922916204990602,0.926306025463815,0.92840681220941,0.929003413096464,0.928064823669429,0.929477875219239,0.930671076993347,0.928533648618469,0.92880517248675,0.928332589421887,0.928579685537312,0.926183886699537,0.926330453216671,0.927914499036471,0.928536467205336,0.929866840207019,0.928043214503442,0.924939010832849,0.924944648006585,0.924969075759441,0.924731374933575,0.92432267983772,0.924019211984935,0.923913045212908,0.922031168714059,0.921059695773565,0.91974623429309,0.919491621946017,0.919460617490469,0.919314990502291,0.918379219662124,0.920058157906479,0.921067212005213,0.921652538544795,0.919871191644237,0.918665775993701,0.922450198628431,0.911997938993037,0.911096930724242,0.904851881753774,0.904486404989894,0.901559772291983,0.898026203888503,0.891833768539571,0.94983558863764,0.883168492978471,0.876333419823641,0.890193350982411,0.891064294324615,0.855106642120949,0.857044890357157,0.869055828530539,0.862814537675894,0.889054641887751,0.875125185586237,0.872200431946239,0.87504250703811,0.916788597139632,0.875799767376638,0.902157312707993,0.903364607416441,0.90467712936796,0.879902690327448,0.882210173443361,0.877333078632814,0.901103161219372,0.946725747793311,0.885150899075611,0.878439843742971,0.872600671281491,0.90859966275922,0.868239377867783,0.868268503265419,0.86819334094894,0.887259202052853,0.904181058079197,0.922581732682269,0.901531586423304,0.89211750628428,0.891677806732876,0.888587695996624,0.888603667988875,0.920816357773963,0.898027143417459,0.894086758976036,0.895621009761168,0.91449520695806,0.916308497843121,0.90941517389302,0.909186868356714,0.914440714278612,0.910977610546831,0.918076691338295,0.905693699698341,0.905863754439376,0.904571902124889,0.996802641147601,0.881199240286715,0.999348764618335,0.963693640738498,0.87363415313308,0.873438731110234,1.01751925462719,0.880637401971033,0.881964016856891,0.88323895765017,0.883098967835728,0.983311005339578,1.0577498845227,0.897330952461071,0.897034061310978,0.8955947029504,0.897560197526332,0.898883054296367,0.897128953735533,0.895339151074371,0.8948496564883,0.895033804163674,0.894913544457307,0.896020309567464,0.893353926390363,0.916277493387574,0.921230690043555,0.881840938563656,0.878914305865746,0.875283026450843,0.875117669354589,0.943531349342944,0.874623477123738,0.877070950054093,0.953941330175318,0.878185231395898,0.955021788474707,0.954166817124755,0.95668475472681,0.876834188757184,1.12362025962719,0.869999115602353,0.870846570720656,1.18810952716637,1.03070084587974,0.858433514154111,0.859007566346221,0.86014909402775,1.06675996721065,0.859894481680676,0.862388931058831,0.856681292651189,0.85655445624213,0.856662502072069,0.856095026582651,0.854591780253066,0.853959477265685,0.850090497024916,0.850156264051835,0.850451276144016,0.85203908007964,0.852077600766836,0.852612192742794
1.07452047638713,0.911871102583979,0.927303805215077,0.914868199953588,0.915099324076762,0.914436016633832,0.914543122934815,0.914904841582871,0.914695326625686,0.927865643530759,1.42804643194721,1.44166960180907,0.927455069376992,0.926742906428351,0.927362995539305,0.927023825586192,0.92716945257437,0.927160996813767,0.927677737739561,0.926370852961779,0.926132212606957,0.927791420743236,0.925436961179524,0.925036721844272,0.92599785996625,1.19646193958513,0.929378285149904,1.20906102288496,0.923957203073839,0.924243759405416,0.92411880205427,0.924009816695375,0.924051155969438,0.923475224719416,0.92292841886703,0.921384772792337,0.920775958028856,0.920634089156501,0.920798506723799,0.920989231101865,0.920728981581056,0.919177819274716,0.918673292225349,0.916084889951596,0.915224281427908,0.914819344447876,0.914768609884253,1.08257223953997,1.07903021537588,0.903921748087343,0.91210034764924,0.899614007824127,0.898173709934594,0.897126135148665,0.894817712503796,0.908029368682934,0.882003477073043,0.880624248565649,0.960367708234292,0.858909855334798,0.868864164623517,0.861280286890762,0.888446766653225,0.856778064133656,0.871756974279011,0.872938901705647,0.872805488593897,0.871809587900547,0.866233483546744,0.868730751511766,0.902807466745539,0.905202326054358,0.875585554774672,0.865237582853394,0.862940434555997,0.862386112471963,0.86477909272287,0.863413957149816,0.911489653827846,0.911718898893108,0.864906868660885,0.866000480365658,0.9046442458545,0.876004584689044,0.8791736158576,0.856804370944424,0.875269873045459,0.873788235881862,0.885774746302388,0.924351805235355,0.89207522748126,0.889005786382039,0.885939163869687,0.889590173392666,0.889257580142245,0.892164482732079,0.89401535477538,0.892733837279409,0.943052189575388,0.907763481988388,0.902901419641138,0.903672772914006,0.983433144103857,0.917838990512429,0.905802685057236,0.905765103898997,0.935581994846309,0.877293618416663,0.876386972974132,1.00397124708181,0.92547078422194,0.867040538919939,1.01064190266934,0.944019904400059,0.880581030233673,0.882195140980065,0.88206736504205,1.04753720477108,0.892947110352419,0.893658333772104,0.894721880550285,0.895962058772193,0.894959581376151,0.898136128776354,0.898010231896252,0.89660939422287,0.894282180998882,0.895169096333337,0.895376732232611,0.894984009129007,0.917581559578488,0.919292441807347,0.886557373922728,0.982042641248991,0.909530735954606,0.925866325912412,0.872688047474398,0.871744760402584,0.929152798200466,0.918510753715963,0.960123430705735,0.959052367695906,0.959803990860698,0.882270303296544,0.881999718957219,0.879773035331522,0.876880225676027,0.876997666795526,0.876573939236374,0.86917045106317,0.947195512271306,1.03581188340032,0.857832215622277,0.858363989011368,0.858431635096199,0.857457343568837,0.855344342946815,0.857690346749923,0.858026698116167,0.85718957781638,0.847891059738943,0.849376455018363,0.847436327724243,0.847817776480375,0.849643281241865,0.849884740183554,0.846625514235223,0.849115265968598,0.849549328346266,0.850784808923393
0.899467441306993,0.902372464838915,0.903353333068969,0.911366575534612,0.914283812942962,0.917855902033637,0.914182343815715,0.914345821854057,0.914264082834886,0.914577885506187,0.938399642185324,0.937711906989539,0.925506486322268,0.921241024862071,0.920517587565958,0.920992049688733,1.13714008130389,0.92472104011506,0.923490257182712,0.922522542358042,0.926556879695065,1.15840162157795,0.923741111413961,0.925088395936852,0.97627393345921,1.20486132845168,0.921833867633301,1.20612969254227,1.21330769376603,0.92208941950933,0.923092836434328,0.923623670294463,0.92386794782302,0.923554145151719,0.922795005755279,0.920145534099386,0.920140836454606,0.920814478716051,0.920915947843298,0.920675428430565,0.919703955490071,0.918967364788574,0.917579680520576,0.917545857478161,0.917513913493657,0.917586257223268,0.916569686892886,0.902243749371945,0.901498702909844,0.905959586392887,0.905556528470767,0.903935841021683,0.903762967693781,0.904087105183598,0.903790214033505,0.903359909771661,0.904594450819833,0.905360166918965,0.896080439420647,0.866437361330194,0.86659989983958,0.894323520272945,0.880582909291585,0.88153089400818,0.909981709853482,0.883287813155882,0.899271079755191,0.869347082506896,0.871018504519603,0.864277384260371,0.853261407251384,0.873274313542936,0.857961870618204,0.858887306639854,0.861811120750897,0.876262015622985,0.907496655764887,0.859623897341351,0.899604612534567,0.868580426878808,0.866315222565915,0.865626547841174,0.860331362645212,0.853351602031159,0.860161307904177,0.861761325716229,0.86914226519449,0.937671507244431,0.863584011890851,0.885335986279941,0.885255186789726,0.885056006651056,0.883928571903867,0.890276969059495,0.890051482110057,0.891631769814033,0.892513987503708,1.01313165440271,0.898863324188291,0.901599232508135,0.902596072730441,0.907951387779586,0.909925338116122,1.14935395773177,0.967789986986617,0.892704711881774,0.87898852865327,0.875710512125819,0.86757700995381,0.869100925920426,0.864280202847239,0.867427624849807,0.872063260718664,0.893491097617938,0.875690782017743,0.993354569879116,0.942638796834753,0.897124256090753,0.906370160546655,0.909697972108773,0.911743326645964,0.910571734037844,0.911790303093763,0.914242473668898,0.916229577410818,0.922088479980374,0.926975909609437,0.918880928124623,1.17894911984546,0.908748108334266,0.90016175320547,0.897858028205381,0.898396378297164,0.912731711107666,0.899237256712775,0.865595543385626,0.867463326950135,0.869495528081942,0.872259622270466,1.09832814013193,0.957426982602042,1.07711357630566,0.886219143498572,0.883150641928307,0.883148762870395,0.880961539460849,0.88133171386951,0.935719166073883,0.931203789911393,0.928141865043821,1.19873559965862,0.860972121393197,0.861100836860168,1.05555138676568,0.849209218864197,0.853375090255059,0.855107581649905,0.855333068599343,0.857294805059451,0.849272167304248,0.850063250685192,0.849218614153757,0.847927701368226,0.847157287624314,0.846264735116123,0.847351770118204,0.846917707740536,0.848739454386202,0.849425310524075,0.850890036166464
1.23700261403611,0.919049103807745,1.188757802146,0.917664238126615,0.909300551360389,0.911181488330281,0.91424905037159,0.912415089849497,0.913674058650524,0.913872299260238,0.913228721925385,1.12432490634418,1.12943594386477,1.06846051462099,1.06621504041617,1.13778835628352,1.13888760516203,1.14149010037013,0.918992732070386,1.00991846537323,0.941624105562283,0.918130244488787,0.918974881020222,0.959757014412898,0.974084830991752,1.02553343662179,0.920288342500697,1.0285775104392,0.98612959220755,0.919775359690726,0.921545432243812,0.922741452604788,0.924088737127678,0.924102830062018,0.924169536617893,0.921134858090044,0.921054058599829,0.919891861281269,0.920082585659335,0.920416118438711,0.918946695151542,0.918400828828112,0.916964289054403,0.917669875300351,0.9175599504125,0.914810888687272,0.914862562779852,0.906384253480994,0.908114865817929,0.908838303114041,0.907693017316689,0.906031930122498,0.906649200646584,0.906547731519337,0.906722483905151,0.903326086729246,0.901642450840111,0.942638796834753,0.884121175339845,0.885301223708569,0.927876917878231,0.925807135588184,0.934192431520399,0.876131421098103,0.927585663901874,0.885333167693073,0.864163701256697,0.872320691652606,0.873008426848391,0.856683171709101,0.856334606466428,0.842901221453677,0.840893448074726,0.850172236044087,0.85026524941073,0.846835029192409,0.904717529113067,0.906170980407985,0.896746565450445,0.867542247382438,0.869021065959167,0.862758165938535,0.914602313259043,0.856116635748639,0.947157931113067,0.856915235361231,0.860663016366676,0.865741170373805,0.862939495027041,0.883076419140784,0.886293366286095,0.887163370099342,0.875368523585838,0.876175578959034,0.87637100098188,0.889866394905727,1.05108862422473,0.900440793305399,0.900306440664692,0.899106662187893,0.908172177084244,0.907797305030804,0.908044401146229,0.971115919490823,0.972177587211092,0.983376772366498,0.875698298249391,0.871774825329175,0.868056169721365,0.867865445343299,0.895061050503398,0.871872536340598,0.87231975212365,0.871132187523278,0.875386374636002,1.04704864971397,0.94786257783006,0.91092405739634,0.951911947630378,0.911854191062771,0.88189167312728,0.910873322832717,0.916024760098412,0.886455904795481,0.919322506733938,0.885815146047496,0.886656963992064,0.892946170823463,0.888387576328998,0.899895866510924,0.89498776724483,0.901256304439199,0.901416963890673,0.897311222352995,0.911083777318859,0.873936681456909,0.86733555101212,0.869087772515042,0.86912347461537,0.8669559813139,1.02696152063489,0.952297154502334,0.954495652259352,0.977542297549797,0.983376772366498,0.925677480592258,0.921357526452614,0.925567555704407,0.870500824064852,1.08422581050251,1.08467678440139,0.940562437842014,0.925786465951153,1.10818379888027,0.849407459473911,0.849910107465366,1.12621335954572,0.8532717420699,0.85321537033254,0.850522680344672,0.849796424461691,0.84951080765907,0.848404982077869,0.847618596341705,0.846420696922818,0.847683423839669,0.848134397738544,0.84776516285884,0.849740052724332,0.849781391998395
0.892358965225969,1.53839410782828,0.925282878430742,0.927515199230175,0.906590949851312,0.906880324769757,0.909592744865702,0.910936271272768,0.911089414492594,0.911072502971387,0.911582667194489,0.908624090512075,0.912767413207993,0.91270258571003,0.911157060577426,0.911080019203034,0.914331728919717,0.914395616888725,0.913604533507781,0.912886733385404,0.913222145222693,0.914467960618336,0.915402791929546,0.917758191022214,0.917867176381109,0.918183797639278,0.917663298597659,0.917612564034036,0.918062598403955,0.918636650596065,0.919929442439508,0.92150127438288,0.921704212637374,0.924914583079994,0.924338651829971,0.925506486322268,0.924834723118734,0.9238726454678,0.924133834517565,0.918899718703743,0.918662957406833,0.915032617520886,0.914404072649329,0.914335487035541,0.914290389645654,0.91274486451305,0.914080874688468,0.913886392194578,0.90893695365442,0.908204121068748,0.9085808721801,0.909083520171555,0.907790728328112,0.906733758252623,0.907239224830946,0.911280138870661,0.911232222893905,0.911055591450179,0.911610853063169,0.944001113820939,0.88877842037469,0.888739899687494,0.886703940439863,0.88618907857198,0.929485391450887,0.898332490328156,0.863778494384741,0.862706491845955,0.870844691662745,0.924425088493923,0.92467876131204,0.843511915275071,0.840532668955626,0.846883884698121,0.906885961943493,0.852858349329264,0.843730825521817,0.853085715336614,0.867234081884873,0.867577949482766,0.868265684678551,0.869602634382925,0.856845710218487,0.85635527610346,0.859169165326651,0.86033887887686,0.859915151317708,0.865687617223313,0.923401941460849,0.87660306463401,0.876499716448851,0.855950339123428,0.883746303286405,0.959099344143705,1.05502525055033,0.944189019612137,0.884173788961381,0.986702704870704,0.900633396741377,0.940459089656855,0.907984271293046,0.90816841896842,0.908118623933753,0.897390142785298,0.894704029500121,0.89427560429619,0.941877778380401,0.873465037921002,0.886192836687804,0.884978025747709,0.879868867285033,1.01840241184582,0.871773885800219,0.873172844415689,0.873521409658361,0.876511930325279,0.877998265133656,0.880777391785475,0.877074708169917,0.880597941754881,0.881948984393595,0.885441213523012,0.88678192134321,0.881124077970236,0.882243996485776,0.88173477179163,0.881152263838915,0.882547464338561,0.889387235138172,0.917704637871723,0.894726578195065,0.898435838513315,0.867820347953411,0.868908322484448,0.873697101573131,0.873535502592701,0.87283273493362,0.872062321189708,0.866722978132815,0.866401659229866,0.866732373422375,0.86977738676874,0.951244882071625,0.911175851156545,0.875738697994499,0.911703866429812,0.919283046517787,1.06661903786725,0.871092727307126,0.87188381068807,1.09004149474009,0.924198662015529,0.938902290176779,0.935688161618336,0.934779637117893,1.0477439011414,0.941689872589202,0.922717964380888,0.849632006894393,0.842322471616787,0.84657947731638,0.844693842701707,0.84619520997338,0.846531561339624,0.84695434936982,0.847663693731593,0.847725702642688,0.848404982077869,0.848384312440837,0.846358688011722
0.892523382793268,0.894651415878586,0.897732131325279,0.898997676828998,0.903538420273299,0.902970005254925,0.906494178368845,0.90684932031421,0.911029284639411,0.933624956030981,0.904543716256209,0.905544314594339,0.909841720039039,0.91018370857902,0.911106326013802,0.911148604816822,0.911019889349851,0.912574809772015,0.912618028103991,0.912476159231636,0.912686613717778,0.91326724261258,0.913255968265108,0.912166114676159,0.950277167246955,0.92508651687894,0.916436273781136,0.917706516929635,0.918198830102574,0.919081987321205,0.91936196695009,0.921113248924056,0.921309610475858,0.921296457070474,0.921333098699758,0.921821653756873,0.918391433538552,0.91763511272898,0.916417483202016,0.91639775309394,0.917152194845601,0.915222402369996,0.915404670987458,0.915301322802299,0.915138784292913,0.914410649352021,0.91427253859549,0.912569172598279,0.911024586994631,0.909903728950134,0.910877080948541,0.911018010291939,0.910518180887352,0.910545427227076,0.910601798964435,0.909571135699714,0.911048075218531,0.909915942826562,0.907393307579728,0.944189019612137,0.88618907857198,0.885663881885581,0.883592220537623,0.88213313206897,0.945795614126881,0.892009460454341,0.887772184862824,0.888714532405682,0.86928037595102,0.930122392083048,0.929087031173547,0.898963853786582,0.843109796881907,0.909715823158936,0.9129252540726,0.876976997158494,0.857494924727077,0.855968190173592,0.855661903733939,0.871060783322622,0.870103403316468,0.869187362584377,0.905262455907542,1.07791217591825,0.864882440908029,0.86463158667678,0.863470328887176,0.862588111197501,0.87426457706255,0.876294899136445,0.877311469466827,0.856199314296766,0.856593916458282,0.859983736931495,0.964276148691212,0.945006409803849,0.885305921353349,0.894563100156723,0.895085478256254,0.904469493468686,0.928687731367251,0.929298425188645,0.901261941612934,0.901155774840908,0.895187886912456,0.895278081692232,0.973746600567596,0.879176434444468,0.875818557955758,0.878338374615724,1.00941111973699,0.882523036585706,0.882006295659911,0.881999718957219,0.880348027052588,0.879876383516681,0.882631082415644,0.882290972933576,0.879446079254837,0.879916783261788,0.889499039083934,0.885376386025049,0.885471278449603,0.8819339519303,0.882375530539615,0.881951802980463,0.881032943661505,0.88072008051916,0.875784734913342,0.878667209750321,0.877467431273521,0.896914741133567,0.866046517284502,0.868997577735267,0.872386458679525,0.872762270261921,0.873408666183642,0.873377661728095,0.870599474605231,0.866076582211093,0.864599642692276,0.864839222576054,0.86656701632612,0.912834119763869,0.875904994619709,0.962350114331432,1.05877397108473,0.985002157460361,0.914599494672175,0.907797305030804,0.895474443244034,0.836583828753598,0.833796246341174,0.835520281975417,0.836022929966871,0.878617414715653,0.879464869833957,0.881786445884209,0.845863556251915,0.843986377397846,0.84210168231213,0.843061880905152,0.842620302295836,0.844666596361983,0.846689402204231,0.846459217610013,0.846732620536206,0.84774167463494,0.848171978896784,0.847278486859637
0.926591642266436,0.927009732651852,0.896925075952083,0.898309002104257,0.898368192428484,0.899895866510924,0.902480510668854,0.904654580673016,0.946443889106514,0.904294741082872,0.90480584483493,0.906046962585794,0.906609740430432,0.909285518897093,0.907712747424765,0.90935410451088,0.908345989941102,0.909307128063081,0.912135110220612,0.913003234975947,0.912932770304248,0.912030822506497,0.911209674198961,1.44193266991674,1.19764574606967,0.924967196701529,0.927006914064984,0.977391972916839,1.01877822342822,0.917929185292205,0.917626656968376,0.921450539819257,0.922077205632902,0.92193721581846,0.920905613024782,0.920866152808631,0.917989315145388,0.917866236852153,0.915288169396916,0.912586084119487,0.914830618795348,0.915009129296987,0.913969070742705,0.914165432294507,0.913975647445397,0.91308215540825,0.911605215889433,0.910722998199758,0.909533554541474,0.908778173260858,0.908455914828953,0.908048159262053,0.90815902367886,0.907709928837897,0.90800212234321,0.905169442540899,0.905081126819036,0.905086763992772,0.907227950483474,0.921653478073751,0.881124077970236,0.883177888268031,0.881995021312439,0.881567535637463,0.882312582099564,0.885000574442652,0.888311474483563,0.888074713186653,0.888513473209101,0.964088242900014,0.881871943019204,0.881823087513493,0.942704563861672,0.871927968549001,0.91193874866881,0.865744928489629,0.863102033536427,0.855986980752712,0.872454104764356,0.863149009984227,0.918252383253065,1.00021313125785,0.985998058153711,0.947721648486661,0.862597506487061,0.864311207302787,0.8614587973924,0.868773969843742,0.876620915684174,0.877216577042272,0.877458035983961,0.866287036697235,0.865610575848922,0.867880477806595,0.868689412237703,0.906105213381065,0.934887682947832,0.891744513288752,0.891285083629272,0.889411662891027,0.887105119304071,0.893576594752933,0.90110597980624,0.901723250330326,0.969734811925517,0.911698229256076,0.878618354244609,0.879210257486883,0.879268508282155,0.896504166979799,0.881909524177444,0.881902947474752,0.881903887003708,0.882115281018806,0.881799599289593,0.882199838624845,0.882756979295747,0.880676862187184,0.881186086881331,0.882755100237835,0.883777307741953,0.885227940450002,0.882671482160752,0.883246473881818,0.883788582089425,0.883559337024163,0.881179510178639,0.881014153082385,0.878746130182624,0.87754729123478,0.877616816377524,0.875238868589912,0.865888676419895,0.86678498704391,0.872377063389965,0.872238952633434,0.873924467580481,0.871363311646451,0.870562832975947,0.870633297647647,0.863489119466296,0.865081621046699,0.865342810096465,0.864628768089912,0.960320731786493,1.01017213819134,0.97825633955635,1.04135510424067,0.907343512545061,0.912375629633345,0.833031469770998,0.834174876510438,0.83339882559279,0.834406940162568,0.830563327203611,0.934850101789592,0.88322016707105,0.83640062060718,0.838041977693295,0.840391739612227,0.840545822361009,0.839699306771662,0.841278654946682,0.843326828070741,0.838392421993879,0.840030960493127,0.844205287644592,0.844284208076895,0.840745942028635,0.837980908311156
0.927522715461823,0.897092312106249,0.93349154291923,1.01513285107897,0.897118618917017,0.898641595354677,0.96058379989417,0.894545249106559,0.944207810191257,0.899447711198917,0.901572925697367,0.90425058322194,0.904143476920957,0.903672772914006,0.908052856906833,0.904798328603282,0.90598213508783,0.90701091929464,0.906093939033593,0.906391769712642,1.41751431235055,0.918214802094826,1.2854165411383,1.2909691572682,0.928100525769757,0.92817944620206,0.925889814136312,0.901880151665976,0.927973689360698,0.927305684272989,0.925781768306373,0.923637763228803,0.917335402992019,0.917941399168633,0.918015621956156,0.91251280086092,0.913875117847106,0.913556617531025,0.91325314967824,0.913173289716981,0.913264424025712,0.912680037015086,0.91189646986579,0.912789022373981,0.912464884884164,0.912646213972671,0.911992301819301,0.911931232437162,0.910937210801724,0.911404156692851,0.913939005816113,0.9144623234446,0.914686870865082,0.914750758834089,0.908430547547141,0.907380154174344,0.907849918652339,0.909265788789017,1.05101346190825,0.895519540633921,0.885292767947965,0.885149020017699,0.883865623463816,0.883783884444645,0.885583082395366,0.888742718274362,0.887665078561841,0.887472475125863,0.887729906059805,0.887824798484359,0.880053014960407,0.882595380315317,0.878169259403646,0.91644003189696,0.877871428724597,0.907271168815449,0.907912867092391,0.95175222770786,0.90625647754298,0.925976250800263,0.925327036291673,0.857078713399573,0.918762547476168,0.871882871159114,0.864709567580127,0.862828630610234,0.870316676389478,0.875186254968376,0.876230071638482,0.878522522291098,0.87576876292109,0.866730494364462,0.867436080610411,0.867496210463595,0.86795188200725,0.870341104142334,0.883790461147337,0.891747331875619,0.889805325523587,0.886034995823198,0.885794476410464,0.895885956926757,0.895163459159601,0.888675072189531,0.880980330039969,0.898655688289017,0.912458308181472,0.878481183017035,0.8787423720668,0.878779013696084,0.892952747526155,0.893127499911969,0.878973496189974,0.880426947484891,0.880355543284236,0.882259968478028,0.884055408312926,0.883217348484183,0.880705048055864,0.898209412034922,0.882966494252933,0.900922771659822,0.879954364420028,0.882943945557989,0.882943945557989,0.881545926471476,0.880647736789549,0.880466407701042,0.877122624146673,0.877686341520267,0.876627492386866,0.875371342172707,0.872526448493967,0.87133794436464,0.871845290000874,0.872849646454828,0.870787380396429,0.869111260738942,0.869488011850294,0.869481435147603,0.868981605743016,0.86399646510253,0.863961702531159,0.999903086702369,0.911652192337233,0.881243398147647,0.859762008097882,0.902992553949869,0.880016373331123,1.05731770120294,0.877078466285741,0.82913900130633,0.829594672849985,0.82752676961785,0.829562728865481,0.826885071340909,1.10813682243247,0.836370555680588,0.83659510310107,0.836551884769094,0.839304704610146,0.831144895627369,0.832433929354988,0.832038387664516,0.83835953848042,0.84010988092543,0.840212289581633,0.839843054701929,0.838432821738987,0.839392080803053
1.00536174993667,1.0067616480811,0.930714295325322,0.889182417825766,0.889441727817619,0.960301941207373,0.959897943756297,0.893104951217026,0.893258094436852,0.943831998608861,1.12292500819976,0.94682909597847,0.895987426054004,0.896752202624181,0.900900222964878,0.902065238870306,0.903187975972715,0.904043886851622,0.928308161669031,0.904927983599209,0.904349233762319,1.18917119488664,0.920192510547186,0.921991708497907,0.905675848648178,0.90622359402952,0.898405773586724,0.91189646986579,0.913075578705558,0.926244956081676,0.921737096150834,0.914925511219903,0.914914236872431,0.914529030000475,0.912391601625597,0.914618285251294,0.915386819937295,0.915537144570253,0.914697205683598,0.914235896966206,0.913075578705558,0.912412271262629,0.911674741032176,0.91113263282457,0.914631438656678,0.914769549413209,0.913963433568969,0.916131866399395,0.914259385190106,0.919524505459477,0.914529030000475,0.914629559598766,0.914493327900148,0.912719497231238,0.907175336861938,0.9066125590173,0.904558748719505,0.905809261759928,0.908007759516946,0.903846585770864,0.893363321679923,1.22389618510005,0.917122129919009,0.93230115973199,0.888730504397934,0.889274491663453,0.889809083639411,0.887629376461514,0.887445228786139,0.887709236422773,0.882957098963373,0.882858448422994,0.89132548337438,0.886998013003088,0.956731731174609,0.892389030152561,0.875934120017345,0.87618591377755,0.903017921231681,0.904523986148133,0.856304541539837,0.898292090583049,0.871255265816512,0.87073100865907,0.870345801787114,0.870406871169253,0.872011586626085,0.875840167121746,0.876615278510438,0.874138680182447,0.887281750747797,0.866209995322844,0.85811031619325,0.860397129672131,0.869205213634541,0.871849048116698,1.04249193427742,0.882425325574283,0.886464360556085,0.88693882267886,0.886766888879914,0.905751010964657,0.908563021129936,0.909516643020266,0.901259123026067,0.861204185045327,0.861143115663187,0.909735553267012,0.87067463692171,0.869581964745893,0.872331966000077,0.875791311616034,0.878448299503575,0.880220251114573,0.881101529275292,0.881609814440483,0.881691553459654,0.879457353602309,0.878781832282952,0.880847856457175,0.877940014338384,0.878613656599829,0.878848538838827,0.904563446364285,0.880714443345424,0.881253732966162,0.880126298218974,0.879840681416353,0.876279866673149,0.875345035361939,0.874132103479755,0.874220419201618,0.8724531652354,0.872180701838163,0.872176004193383,0.868457348585573,0.868348363226678,0.867577949482766,0.868854769333957,0.868742025859238,0.869278496893109,0.891364004061575,0.890215899677355,0.856593916458282,0.852258929855342,0.851217931772105,0.883225804244786,0.886468118671909,0.877514407721321,0.883380826522525,0.912836938350737,0.828460661400105,0.825950240029698,0.828362010859725,0.827188539193694,0.826870038877613,0.827797353957175,0.833148910890497,0.951460973731503,0.872503899799024,0.857876373483209,0.833399765121746,0.83364967982404,0.857816243630025,1.60924398639952,0.839735948400946,0.842166509810093,0.842782840805223,0.839466303590576,0.842566749145345
0.930594035618956,0.932299280674078,0.871636714572644,0.943230700077027,0.944160833743457,0.880969995221453,0.881472643212908,0.888672253602663,0.889405086188335,1.22691207304878,1.23010647149914,0.964426473324171,0.895521419691833,0.896522957558919,0.896991782507958,0.898047813054491,0.896782267550772,0.897119558445973,0.897190962646628,0.900162692734426,0.902117852491842,0.901139802848656,0.915470438014378,0.924027667745539,0.887568307079374,0.886597773667836,0.887517572515751,0.907182853093586,0.897514160607489,0.924320800779808,0.923247858712066,0.923181152156191,0.914386221599165,0.91461452713547,0.915569088554757,0.915166970161593,0.916595054174698,0.915569088554757,0.914603252787998,0.914784581876505,0.915859403002158,0.91547701471707,0.915648948516016,0.91662511910129,0.921111369866144,0.921061574831477,0.920739316399572,0.919884345049621,0.919548933212332,0.919875889289017,0.919824215196437,0.914350519498837,0.911316780499944,0.911578909078665,0.911238799596597,0.908122382049577,0.905835568570696,0.903279110281446,0.902585737911925,0.902443869039571,0.90210657814437,0.902012625248771,0.895064808619222,0.895345727777063,0.893831207100006,0.89075612882705,0.89027790858845,0.890127583955492,0.890496818835196,0.890507153653712,0.890060877399617,0.888363148576142,0.887598372005966,0.887768426747,0.888749294977054,0.888700439471343,0.88890713584166,0.973765391146716,0.877639365072467,0.877707011157299,0.923589847252047,0.888549175309428,0.87112936893641,0.884949839879029,0.883365794059229,0.891988790817309,0.900488709282154,0.968391285518451,0.900381602981172,0.87615772790887,0.858042670108419,0.856294206721321,0.858860060300131,0.858996291998749,0.855318036136047,0.869272859719373,0.874586835494454,0.875152431925961,0.878677544568837,0.88620317150632,0.904531502379781,0.877470249860389,0.876532599962311,0.872219222525359,0.871366130233319,0.871489208526554,0.861205124574283,0.909069427237215,0.871984340286361,0.872287808139146,0.873300620353704,0.876838886401963,0.878645600584333,0.879549427439996,0.880875102796898,0.882553101512297,0.881881338308764,0.881942407690903,0.879113486004416,0.879084360606781,0.878691637503177,0.878830687788663,0.879005440174477,0.87897443571893,0.879668747617407,0.879780551563169,0.902792434282243,0.897389203256342,0.898778766582252,0.872810186238677,0.872945478408339,0.873220760392444,0.867759278571272,0.867406955212776,0.867454871189531,0.866603657955404,0.864395764908826,0.881794901644813,0.883090512075124,0.884110840521329,0.888212823943184,0.889859818203035,0.88958453621893,0.852454351878188,0.852832042518496,0.850562140560823,0.853158998595181,0.881767655305089,0.873718710739119,0.887245109118514,0.874209144854146,0.824224325337544,0.82438686384693,0.824106884218045,0.826638914754439,0.82715659520919,0.826801453263825,0.826473557658185,0.873319410932823,0.871806769313679,0.855190260198032,0.832161465957751,0.833300175052411,0.856664381129981,1.11383976319533,1.09510555581288,0.84183203750176,0.842572386319081,0.8414618630931,0.842361931832939
0.870575986381331,0.869278496893109,0.871900722209278,0.872745358740713,0.873518591071493,0.879906448443272,0.880457951940439,0.880863828449426,0.880381850095003,0.879281661687539,0.88614679976896,0.959766409702458,0.917155013432469,0.894143130713395,0.894743489716273,0.894949246557635,0.896398000207772,0.895377671761567,0.897845814328953,0.898058147873007,0.898044054938667,0.898112640552455,0.897275520252667,0.919979237474176,0.887739301349364,0.887305238971697,0.889127925146318,0.889279189308233,0.922538514350294,0.920860515634895,0.926125635904265,0.922707629562372,0.91403577729858,0.914362733375265,0.916461641062948,0.916769806560513,0.917339161107843,0.917372984150258,0.915035436107754,0.912742045926182,0.91193405102403,0.911396640461203,0.91115142340369,0.918746575483916,0.913985042734957,0.914643652533106,0.917896301778745,0.918879988595667,0.915461042724818,0.915068319621214,0.915974965063745,0.913944642989849,0.910349065675274,0.908937893183376,0.909964798332274,0.906798585750586,0.907312508089513,0.905295339421001,0.904461977237038,0.903432253501272,0.902660900228404,0.90250493842171,0.896480678755899,0.896884676206975,0.895706506896163,0.89409521473664,0.895512963931229,0.894727517724021,0.893513646312881,0.892758265032265,0.892037646323021,0.892793967132593,0.891887321690062,0.891042685158627,0.891668411443316,0.888924986891824,0.889695400635736,0.896118020578887,0.892026371975549,0.884181305193029,0.885466580804824,0.894541490990735,1.00538993580535,0.897578048576496,0.897718977919895,0.898254509424809,0.888590514583492,0.888287046730707,0.886724610076895,0.894926697862691,0.856809068589204,0.857178303468908,0.856082812706223,0.856177705130778,0.950427491879913,0.931718651779276,0.875179678265684,0.875332821485511,0.877419515296766,0.878307370160176,0.877221274687052,0.876557027715166,0.876759026440704,0.872646708200334,0.872155334556351,0.872026619089381,0.872592215520887,0.992640527872563,0.896843336932912,0.870701883261434,0.874783197046257,0.87713014037832,0.87892276162635,0.879537213563568,0.881081799167216,0.881438820170492,0.881061129530184,0.880522779438402,0.880638341499989,0.879473325594561,0.879266629224243,0.879076844375133,0.87755668652434,0.877850759087565,0.899003314002734,0.89797546932488,0.902151675534257,0.915066440563302,0.898124854428882,0.893702491633036,0.904984355336569,0.866658150634851,0.866636541468863,0.867607074880402,0.882438478979666,0.914216166858131,0.91815279318373,0.872926687829219,0.885444971638836,0.885417725299112,0.847795227785431,0.847828111298891,0.848041384371901,0.853606214378232,0.849606639612581,0.849894135473114,0.846953409840864,0.843609626286494,0.841137725603283,0.883411830978072,0.860430013185591,0.821044959350472,0.820905909064986,0.82477582883471,0.825414708524784,0.824214930047984,0.823547864489231,0.818715867068572,0.819739014101645,1.06732368458424,0.871208289368713,0.863738094639633,0.966051858418034,0.856313936829397,0.862429330803938,0.836687176938757,0.839582805181119,0.840667021596332,0.841909078876151,0.844103818517345
0.869805572637419,0.869301045588052,0.872070776950312,0.873035673188114,0.873553353642865,0.872270896617938,0.874075731742396,0.8764132797849,0.877110410270245,0.879105030243812,1.15282081957937,0.918252383253065,1.01536773331797,1.01761320752279,0.893871606845114,0.893978713146097,0.893550287942165,0.894846837901432,0.895916021853349,0.897283976013271,0.897041577542626,0.898057208344051,0.924524678563257,0.906120245844361,0.888392273973778,0.888517231324924,0.888671314073707,0.890004505662257,0.919641007050019,0.919923805265772,0.922517844713262,0.920735558283748,0.914172948526155,0.914363672904221,0.914015107661549,0.916183540491974,0.914571308803495,0.914612648077558,0.91430542210895,0.911494351472626,0.911241618183465,0.909990165614086,0.910017411953809,1.24557111811475,0.911590183426137,0.912159537973467,0.9344592577439,0.916087708538463,0.913255028736152,0.913131010913962,0.912828482590133,0.911581727665533,0.91134590589758,0.909920640471342,0.906697116623339,0.907621613116034,0.907125541827271,0.905993409435302,0.905633569845158,0.904738198750099,0.905453180285608,0.905311311413253,0.905410901482588,0.903929264318991,0.912232821232035,0.898545763401166,0.911577030020753,0.898363494783704,0.895146547638393,0.896191303837454,0.895190705499324,0.893510827726013,0.893043881834886,0.890804044803805,0.897203176523056,1.14760643387362,0.909784408772724,0.901475214685944,0.891374338880091,0.898248872251073,0.888685407008047,0.889493401910199,0.897168413951684,0.897879637371369,0.893395265664427,0.891628951227165,0.893509888197057,0.891642104632548,0.891964363064453,0.885066341469572,0.899331209608374,1.03508844610421,1.02666087136898,1.02904727491719,0.893114346506586,1.04118598902859,0.898946002736418,0.882556859628121,0.907299354684129,0.90802561056711,0.90528406507353,0.87897913336371,0.893026030784723,0.875905934148665,0.877921223759265,0.89742490535667,0.87544556496023,0.874335981263205,0.873409605712599,1.04197519335162,0.87675526832488,0.877929679519868,0.879662170914715,0.881012274024473,0.88192455664074,0.881748864725969,0.881081799167216,0.881656790888282,0.879023291224641,0.878608958955049,0.878680363155705,0.898848291724995,0.879451716428573,0.894919181631043,0.899138606172396,0.899273898342059,0.899809429846973,0.89684615551978,0.8967944814272,0.8971787487702,0.89560409823996,0.863713666886777,0.863618774462222,1.21601353715929,0.884095808058034,0.845537539704186,0.846101257077781,0.846345534606338,0.886546099575257,0.891442924493879,0.847218357006453,0.847208022187937,0.847851599522791,0.849528658709234,0.846111591896297,0.846300437216451,0.846161386930964,0.844025837613998,0.841194097340643,0.870785501338517,0.882468543906258,0.825151640417106,0.824167014071228,0.82443384029473,0.825550000694446,0.823684096187849,0.817938876621968,0.818820154782687,0.818872768404222,0.872069837421356,0.940130254522258,0.866637480997819,1.08069318162799,0.859109035473468,1.10268755448772,0.849083321984094,0.847605442936321,0.849212976980021,0.854184964215122,0.841196915927511
0.872020042386689,0.87131445614074,0.872245529336126,0.872372365745185,0.872577183057591,0.871870657282686,0.874510733649019,0.874967344721631,0.874439329448364,0.993100897060999,0.875633470751428,0.874164986993215,0.875334700543423,1.01602540358716,0.886725549605851,0.892838124993524,0.893165081070209,0.89502534840307,0.902066178399262,0.924170476146849,0.903044228042448,0.929036296609923,0.914747940247221,0.889548834118602,0.889002028266216,0.889401328072511,0.889073432466871,0.914921753104079,0.918287145824437,0.919014341236373,0.916584719356182,0.92779517885906,0.915408429103282,0.9148465907876,0.914575066919319,0.914672777930742,0.914053628348744,0.913740765206399,0.91284539411134,0.911314901442032,1.22397134741653,0.923898952278568,1.22764490563445,0.919823275667481,0.905922005234647,0.915306959976035,0.914492388371192,0.914327031274937,0.913089671639898,0.913219326635825,0.911698229256076,0.911086595905726,0.910940029388592,0.910293633466871,0.910214713034567,0.90820130248188,0.909006478797164,0.909049697129139,0.907860253470855,0.907818914196792,0.907339754429237,0.907009979765684,0.905893819365967,0.90487161186185,0.907074807263647,0.906851199372122,0.908913465430521,0.911491532885758,0.909939431050462,0.897505704846885,0.897402356661726,0.895950784424721,1.13756286933409,0.89666106831545,0.896783207079728,0.925153223434815,0.929405531489628,1.06696666358097,0.939103349373361,0.90054602054847,0.903961208303495,0.900778084200599,0.897252032028767,0.895150305754217,0.895110845538065,0.894444719508268,0.893526799718265,0.893453516459698,0.895686776788087,0.885175326828466,0.902002290430255,0.906440625218354,0.881195482170891,0.881695311575478,0.894176014226855,0.892482043519204,0.890475209669208,0.891063354795659,0.88990303653501,0.902612044722693,0.905512370609835,0.887830435658095,0.883059507619576,0.883654229448718,0.896083258007515,0.898278937177665,0.874770043640873,0.886246389838296,0.893434725880578,0.894264329948718,0.877675067172795,0.879285419803363,0.880646797260593,0.879900811269536,0.881354262564454,0.88086288892047,0.878769618406524,0.877331199574902,0.878392867295172,0.878867329417947,1.22988098454971,0.890951550849896,0.891892019334842,0.894517063237879,0.895111785067021,0.895361699769315,0.900961292347018,0.892234007874823,1.16424549168421,0.895211375136356,0.861395848952349,0.860485445393994,0.895028166989938,0.847345193415512,0.846600146953412,0.846069313093277,0.846135080120196,0.846702555609614,0.84244367085211,0.844720149512475,0.847423174318859,0.846673430211979,0.848058295893109,0.847026693099431,0.847631749747089,0.846173600807392,0.844129185799157,0.842925649206533,0.841723052142865,0.835135075103461,0.833950329089957,0.829231075144017,0.827311617486928,0.826103383249525,0.826032918577825,0.822615851764888,0.8190888600641,0.817778217170493,0.817720905904178,0.814481410063923,0.814463559013759,1.08461101737447,0.857215884627147,0.854848271658052,1.15153366490966,0.833051199879074,0.850991505293711,1.23255864207428,0.853387304131486,0.847327342365348
0.91726024067554,0.869695647749568,0.870393717763869,0.870825901083625,0.872154395027395,0.871747578989451,0.872578122586547,0.873578720924677,0.867144826634054,0.874311553510349,0.875264235871723,0.87537979793331,0.875675749554447,0.878565740623074,0.880792424248771,0.883336668661593,0.885481613268119,0.924074644193338,0.923182091685147,0.926946784211801,0.924818751126482,0.925760159140385,0.888628095741731,0.88854165907778,0.888578300707064,0.889289524126749,0.914468900147292,0.917849325330946,0.925261269264754,0.918972062433354,0.921473088514201,1.01854334118922,0.912795599076673,0.915071138208082,0.915243072007028,0.911797819325411,0.914191739105275,0.913005114033859,0.912259128042802,0.911893651278922,1.21969649066677,0.911623066939597,0.922565760690017,1.22499543397856,0.90899802303656,0.917202929409224,0.912889551972272,0.911592062484049,0.911048075218531,0.911077200616166,0.911585485781357,0.911144846700998,0.911236920538685,0.910959759496668,0.909873664023543,0.910450534802521,0.911242557712421,0.909198142704186,0.908389208273078,0.909275184078577,0.90959086580779,0.908094196180897,0.907587790073618,0.905571560934063,0.905551830825987,0.908422091786537,0.908031247740846,0.902298242051392,0.902897661525314,0.903192673617495,0.900406970262983,0.913533129307125,0.910509725126748,0.896470343937383,0.896776630377036,0.925522458314519,0.915990937055996,0.908916284017388,0.899881773576585,0.899574547607976,0.902690965154996,0.901355894508533,0.901540042183908,0.899678835322091,1.05900885332373,0.912633060567287,0.893777653949515,0.893300373239872,0.89488723764654,0.890724184842546,0.888255102746203,0.888245707456643,0.882691212268828,0.88323895765017,0.890368103368226,0.890641506294419,0.890659357344583,0.890840686433089,0.890984434363355,0.891571639960849,0.891614858292825,0.891219316602353,0.885285251716317,0.887212225605054,0.889382537493392,0.889606145384917,0.888110415286981,0.887538242152782,0.88756924660833,0.886996133945176,0.885852727205736,0.882118099605674,0.882070183628918,0.880498351685546,0.879741091347018,0.880032345323375,0.878877664236463,0.876594608873406,0.877645941775159,0.877042764185413,0.888955991347372,0.889989473198961,0.892092139002468,0.8928343668777,0.894294394875309,1.24261160190338,0.89308052346417,0.893410298127723,0.896520138972051,0.89290952919418,0.892665251665622,0.891881684516326,0.848050779661461,0.849333236686388,0.849893195944158,0.847748251337632,0.847826232240979,0.840246112624048,0.842507558821117,0.843153015213883,0.843668816610722,0.847930519955094,0.847624233515441,0.849078624339314,0.848355187043202,0.846435729386113,0.84281384526077,0.840492269210518,0.839778227203965,0.87224458980717,0.831816658830902,0.831803505425519,0.829826736502115,0.826282833280119,0.824755159197678,0.819898734024164,0.820196564703213,0.818757206342635,0.813884809176869,0.814196732790258,0.81380494921561,0.807472524052234,0.807325018006144,0.86308981966,0.857114415499901,0.857811545985245,0.856612707037402,0.855926850899529,0.854352200369289,0.863176256323951
0.857183940642644,0.858202390030937,0.864773455549134,0.866768075522702,0.867969733057414,0.869458886452659,0.871241172882172,0.866541649044308,0.866570774441944,0.873084528693826,0.874609384189398,0.874769104111917,0.875715209770599,0.922507509894746,0.881800538818549,0.883800795965852,0.885141503786051,0.88408735229743,0.883530211626527,0.920930980306594,0.905373320324349,0.931421760629183,0.888207186769448,0.888299260607135,0.888280470028015,0.888385697271086,0.888529445201352,1.39505017501282,0.915609488299864,0.915710957427111,1.32654911883156,1.0183366448189,0.921650659486883,0.917489485740801,0.912596418938003,0.911578909078665,0.912706343825854,0.912541926258556,0.913967191684793,0.911666285271573,0.917610684976124,0.915229918601644,0.898876477593675,0.898413289818372,1.08918652339014,0.912163296089291,0.911935930081942,0.911983846058697,0.910352823791098,0.911866404939198,0.91254568437438,0.913525613075478,0.913011690736551,0.912040217796057,0.911970692653313,0.913185503593409,0.913667481947832,0.915105900779454,0.915191397914448,0.913405353369111,0.913305763299776,0.9108864762381,0.914268780479666,0.906543973403513,0.90699212871552,0.911558239441634,0.911907744213262,0.902613923780605,0.903995031345911,0.900415426023587,0.90155601417616,0.908228548821604,0.916854364166552,0.900089409475859,0.899305842326563,0.900157995089646,0.901419782477541,0.902245628429856,1.06137646629282,0.904382117275779,0.903665256682358,0.901988197495915,0.906129641133921,0.901897063187184,0.903948054898111,0.903420039624845,0.899141424759264,0.896289954377833,0.893172597301857,0.891174219212465,0.890264755183067,0.888889284791497,0.897274580723711,0.890649962055023,0.890681906039526,0.892242463635426,0.892019795272857,0.892196426716583,0.896083258007515,0.896441218539748,0.891875107813634,0.891036108455935,0.890167044171644,0.889449244049267,0.89012570489758,0.889415421006851,0.888434552776797,0.888041829673193,0.888547296251516,0.887752454754748,0.888643128205027,0.882912001573485,0.883936088135515,0.882826504438491,0.877213758455404,0.875906873677621,0.874310613981393,0.873554293171821,1.17838540247187,0.896538929551171,0.896315321659645,0.882103067142378,0.845011403488832,0.845506535248639,0.851201959779853,0.85323416091166,0.889418239593719,0.853631581660044,0.854240396423526,0.853782845821958,0.855051209912546,0.853183426348037,0.850112106190904,0.850054794924588,0.850544289510659,0.84950141236951,0.84401832138235,0.844719209983519,0.846331441671998,0.846836908250321,0.847573498951818,0.847712549237304,0.84869529652527,0.849376455018363,0.849165061003265,0.84716292479805,0.842811966202858,0.841685470984626,0.839703064887486,0.838419668333603,0.834124141946815,0.824696908402407,0.824317338704187,0.824468602866101,0.8233627772849,0.820810077111475,0.821391645535232,0.81971928399357,0.815086466711581,0.814651464804957,0.813754214651986,0.806508567343388,0.807169995728406,0.806916322910288,1.2260852875675,0.859679329549754,0.862807960973202,0.859422838144769,0.862413358811686,0.864917203479401
0.851931973778657,0.859124067936764,0.863614076817442,0.866023029060602,0.86577499341622,0.865776872474132,0.865717682149905,0.865739291315893,0.866429845098546,0.868224345404487,0.873209486044972,0.875290542682491,0.875686084372963,0.877558565582252,0.881930193814476,0.882757918824703,0.882928913094693,0.882177289929901,0.882115281018806,0.877536956416264,0.92874410310461,0.931277073169961,0.885878094487547,0.886797893335462,0.887200011728626,0.887261081110765,0.918351033793444,1.09106558130212,0.919610002594472,0.914853167490292,0.914581643622011,0.916446608599652,1.37969827187194,0.919454040787777,0.918018440543024,0.916850606050728,1.40555410874079,1.41057119336578,0.917654842837055,0.909001781152384,0.90702970987376,0.904985294865525,0.899806611260105,0.900045251614927,1.44681822048789,1.44814295631584,0.912044915440837,0.911548844152074,0.911702926900856,0.912305164961646,0.914436956162788,0.914437895691744,0.914389040186033,0.912101287178196,0.913078397292426,0.913609231152561,0.911115721303362,0.909584289105098,0.913779285893595,0.913763313901343,0.91270258571003,0.912439517602353,0.909813534170359,1.07157035546532,0.907222313309738,0.907394247108684,0.907276805989185,0.904383056804735,0.902850685077514,0.902535003348302,0.902768006529387,0.902468296792426,0.901497763380888,0.902099061912722,0.902552854398465,0.901536284068084,0.901938402461248,0.90329696133161,0.904912951135913,0.911832581896783,0.907666710505921,0.907234527186166,0.904782356611031,0.903441648790832,0.90406549601761,0.900081893244211,0.900459583884519,0.899941903429768,0.900053707375531,0.921127341858396,0.894905088696703,0.895463168896562,0.895708385954075,0.895807036494454,0.891725722709632,0.899162094396296,0.898593679377922,0.896864946098899,0.896871522801591,0.897118618917017,0.895055413329662,0.892099655234116,0.890785254224685,0.889038669895499,0.888543538135692,0.888755871679746,0.889563866581898,0.889581717632062,0.88933368198768,0.888849824575345,0.888521928969704,0.886888088115237,0.884439675655926,1.21553437739173,0.877264493019027,0.877437366346929,0.875838288063834,0.870977165245539,0.867873901103903,0.865540111177223,0.859290364561974,0.884146542621657,0.885641333190638,0.849253376725129,0.850290616692542,0.849976814021241,0.851253633872432,0.852920358240359,0.852956060340687,0.853527293945929,0.851574013246425,0.852897809545415,0.850846817834488,0.850231426368315,0.849485440377258,0.849009099196571,0.845619278723358,0.845297020291453,0.847176078203434,0.847506792395942,0.848879444200644,0.849090838215742,0.849488258964126,0.850053855395632,0.84968180192906,0.838348264132948,0.840501664500078,0.841724931200777,0.838151902581146,0.835938372360832,0.835943070005612,0.888220340174831,0.82422056722172,0.823291373084245,0.823514041446815,0.820334675459743,0.818951688836525,0.820251996911616,0.820174016008269,0.817062296106029,0.87702491313525,0.809843895137154,0.805421532341307,0.80397747633595,0.911958478776886,0.865037463185768,1.16139871894756,0.862623813297828,0.85928660644615,0.861295319354058
0.852752182557237,0.895686776788087,0.898386043478648,0.865135174197191,0.866063428805709,0.865350326328112,0.865906527470059,0.865794723524296,0.86954532311661,0.868948722229556,0.870606990836879,0.873548655998085,0.875034990806462,0.87776995959735,0.881897310301016,0.88307735866974,0.882191382864241,0.881789264471077,0.87953909262148,0.878530978051702,0.883147823341439,0.884148421679569,0.886322491683731,0.887011166408472,0.886531067111961,0.888501259332673,0.918022198658848,0.920108892470103,0.916168508028679,1.40610843082483,0.911826005194091,0.912328653185546,0.911582667194489,0.908896553909313,0.910722058670802,0.918128365430875,1.40519708773752,0.909899970834311,0.91737956085295,1.41903634925926,1.41792770509119,1.42886382213892,0.900211548240137,0.900530048556218,1.44390568072432,1.02281819793898,0.905116828919363,1.02304368488841,0.910426107049665,0.913167652543245,0.913539706009817,0.914788339992329,0.913401595253287,0.913391260434771,0.913351800218619,0.915757933874911,0.91097573148892,0.908373236280826,0.912938407477983,0.913054909068526,0.913001355918035,0.912321136953898,0.91168319679278,0.908691736596907,0.908297134435391,0.907250499178417,0.907726840359105,0.908440882365657,0.905205144641226,0.905095219753376,0.904617939043732,0.903669014798182,0.903198310791231,0.902955912320585,0.902664658344228,0.902221200677001,0.902854443193338,0.904372721986219,0.904934560301901,0.907477865185767,0.907525781162523,0.903753572404221,0.903294142744742,0.903537480744343,0.904188574310845,0.904798328603282,0.904749473097571,0.900664401196925,0.900432337544795,0.896446855713484,0.899473078480729,0.898452750034523,0.898888691470103,0.900655945436321,0.901317373821338,0.898072240807347,0.898120156784103,0.897926613819168,0.894936093152251,0.895543968386777,0.892964021873627,0.890659357344583,0.891455138370307,0.891326422903336,0.892295077256962,0.890452660974265,0.890847263135781,0.891465473188822,0.891661834740624,0.888556691541076,0.887390736106692,0.887588976716406,1.27865193265517,0.9093494068661,0.875529183037313,0.875708633067907,0.883396798514777,0.868722295751162,0.868509962207108,0.864061292600494,0.863647899859858,0.856994155793534,0.888744597332274,0.849191367814033,0.850815813378941,0.852332213113909,0.853698288215919,0.854551380507959,0.854428302214724,0.853625944486308,0.852970153275027,0.852937269761567,0.84973347602164,0.849352966794464,0.848026351908605,0.846080587440749,0.845041468415423,0.846150112583492,0.846045824869377,0.846180177510084,0.848517725552588,0.847934278070918,0.848634227143131,0.849941111920914,0.847918306078666,0.840583403519249,0.841173427703611,0.843098522534435,0.842920951561753,0.842075375501362,0.835040182678905,0.833894896881553,0.821842619434108,0.82301609110014,0.821026168771352,0.820817593343122,0.819172478141183,0.81928334255799,0.817664534166819,0.817493539896828,0.814895742333515,0.811978504925165,0.809407014172619,0.804677425408163,0.801048964580128,0.801293242108685,1.16608696843796,0.860420617896031,0.857921470873096,0.859637050746735
0.900885190501582,0.896485376400679,1.27960085690072,0.862453758556794,0.859444447310757,0.864017134739562,0.909314644294729,0.90539398996138,0.869483314205514,0.869856307201043,0.871507059576718,0.872020981915645,0.871772006742307,0.873563688461381,0.875303696087875,0.876013040449648,0.877070950054093,0.87994684818838,0.877629969782907,0.878939673147558,0.881931133343432,0.885494766673503,0.888604607517832,0.887671655264533,0.886943520323641,0.886140223066269,1.3560409327601,1.37256724709597,1.49263904767155,1.3814176098614,0.909115464156058,0.910190285281712,1.78767932572122,1.39015522915211,0.91703287466819,1.39863917562471,0.915197035088185,0.895350425421843,0.895483838533593,0.922138275015042,0.921895876544396,1.02549585546355,0.898912179694002,1.44014756490036,1.02336312473345,1.02368256457849,1.02377651747409,0.918705236209853,0.918041928766924,0.9132860331917,0.914580704093055,0.913926791939686,0.914322333630157,0.914397495946637,0.913335828226368,0.911391942816423,0.910624347659379,0.909238542449293,0.909729916093276,0.911659708568881,0.912708222883766,0.91233710894615,0.91150750487801,0.911101628369022,0.910855471782553,0.91057737121158,0.909656632834709,0.909182170711934,0.908264250921931,0.905173200656723,0.904895100085749,0.904596329877745,0.904572841653845,0.903949933956023,0.903744177114661,0.903593852481703,0.903275352165622,0.902630835301813,0.901662180948187,0.903683107732522,0.904432851839402,0.90481524012449,0.906323184098855,0.904699678062904,0.90468652465752,0.905131861382659,0.904499558395278,0.899389460403646,0.901699762106426,0.900409788849851,0.899823522781313,0.899520054928528,0.899965391653668,0.901475214685944,0.901042091837233,0.896981447689442,0.894833684496048,0.895015013584554,0.892341114175805,0.891891079805886,0.890416019344981,0.890744854479578,0.895177552093941,0.894497333129804,0.894125279663231,0.89307582581939,0.893385870374867,0.894716243376549,0.894260571832894,0.889255701084333,0.885919433761611,0.885779443947168,0.884279016204452,0.875454020720834,0.875402346628254,0.871521152511058,0.867573251837986,0.867386285575744,0.865059072351755,0.865832304682536,0.86401525568165,0.860687444119532,0.856825040581455,0.870064882629273,0.898063785046743,0.855613048228228,0.856253806976213,0.856674715948497,0.855650629386467,0.851610654875709,0.85247971916,0.894684299392046,0.890785254224685,0.856413526898732,0.887694203959477,0.844802828060602,0.844926845882793,0.843419841437384,0.843298642202061,0.846260037471343,0.846491161594517,0.848529939429016,0.849120903142334,0.846653700103903,0.846785234157742,0.84226328129256,0.842278313755856,0.843093824889655,0.843019602102132,0.841320933749701,0.845919927989275,0.875979217407232,0.876486563043467,0.81944024389364,0.821156763296235,0.819623452040059,0.820078184054758,0.819576475592259,0.818987390936853,0.818047861980863,0.814669315855121,0.81375327512303,0.810904623328467,0.803694678120197,0.801514031413343,0.800849784441458,0.803876007208703,0.854957257016946,0.854400116346044,0.851328796188911
0.89934624207167,0.902712574320984,1.16831365206365,0.908661671670315,0.861892859770068,0.922582672211225,0.865259192019382,0.865305228938225,0.928024423924322,0.870622962829131,0.870240574544043,0.86989200930137,0.869516197718974,0.870279095231238,0.876253559862381,0.876554209128298,0.877142354254748,0.877417636238853,0.876561725359946,0.879261931579463,0.882977768600405,0.883018168345513,0.888936261239296,0.888645007262939,0.888586756467668,0.885248610087034,0.884393638737083,1.37191897211634,1.29807199617549,1.29757404582882,0.914312938340598,0.914695326625686,1.39015522915211,1.26007744519524,1.39487166451118,1.37908757805054,1.37965129542414,0.894169437524163,0.92173333803501,0.914850348903424,0.921158346313944,0.913078397292426,0.921833867633301,0.916459762005036,0.918529544295083,0.919386394702946,0.918484446905195,0.923131357121524,0.924483339289194,0.922713266736108,0.912711041470634,1.24504498189939,0.920159627033726,0.918304996874601,0.912392541154553,0.911018949820895,0.910024928185457,0.909840780510083,0.909218812341217,0.911215311372697,0.911638099402893,0.911242557712421,0.911620248352729,0.911008615002379,0.911042438044795,0.911299868978736,0.909402020487636,0.908464370589557,0.9077653610463,0.907601883007958,0.906546791990381,0.90487630950663,0.904777658966251,0.904633911035984,0.900689768478736,0.90266183975736,0.902997251594649,0.901186779296455,1.07907719182368,0.905850601033992,0.906182254755456,0.906733758252623,0.90644156474731,0.906100515736285,0.89978688115203,0.90252842664561,0.902978461015529,0.9038522229446,0.901873574963284,0.901890486484492,0.899215647546787,0.898678236983961,0.898424564165844,0.896781328021816,0.896941047944335,0.894903209638791,0.894673025044574,0.893648938482544,0.891842224300175,0.892775176553473,0.893755105254571,0.894682420334134,0.897134590909269,0.896534231906391,0.895725297475283,0.894083000860212,0.894326338859813,0.895315662850471,0.887630315990469,0.88759273483223,0.88818087995868,0.886297124401919,0.878424811279675,0.876330601236773,0.872751935443405,0.872051986371192,0.872029437676249,0.91915808916664,0.908098893825677,0.864568638236729,0.865134234668235,0.89892439357043,0.896476920640075,0.899844192418345,0.900661582610057,0.855237236645832,0.856384401501096,0.855594257649108,0.851418990968687,0.849490138022038,0.850358262777373,0.893027909842634,0.845436070576939,0.843143619924323,0.843663179436986,0.893987168906701,0.840624742793313,0.841036256476036,0.841723991671821,0.842297104334976,0.842897463337853,0.844281389490027,0.846154810228272,0.846104075664649,0.846183935625908,0.844986975735976,0.843630295923526,0.843595533352154,0.843288307383545,0.84328267020981,0.860729722922552,0.958075257581676,0.874852722189,0.868958117519116,0.867277300216849,0.818841763948674,0.819392327916885,0.819397025561665,0.818809819964171,0.81697304085521,0.817378917364197,0.811614907219196,0.81184133369759,0.800959709329309,0.800801868464702,0.801109094433311,0.798436134553518,0.797844231311244,0.798052806739474,0.851319400899351
0.834021733290612,0.834219973900326,0.8339728777849,0.911405096221807,0.908587448882792,1.27034649668421,0.865168057710651,0.865459311687007,0.861673949523322,0.867421048147116,0.869494588552986,0.870314797331566,0.871182922086901,1.31827186872928,0.907951387779586,0.875762186218398,0.874377320537269,0.876776877490868,0.877499375258025,0.879214955131663,0.879535334505656,0.8826320219446,0.887922509495783,0.888200610066756,0.886717093845247,0.886526369467181,0.882191382864241,0.880202400064409,0.879385009872697,0.879072146730353,1.31789605714689,1.34402435741298,1.22348279235941,1.32746985720843,1.31145088850879,1.37708638137429,1.37853325596651,0.921039026136533,1.07499963615468,0.91660632852217,1.4108718426317,1.34678657254359,0.926524935710561,0.927320716736285,0.925049875249656,0.89482147061962,0.934932780337719,0.99001924208535,0.930968907672396,0.93175999105334,0.930521691889344,0.92485445322681,0.927098048373715,1.15844859802575,0.927987782295038,0.9285778064794,0.908269888095667,0.908515105153181,0.908554565369332,0.910995461596995,0.919344115899926,0.921061574831477,0.928208571599696,0.934059957937604,1.53890145346452,0.932077551840464,0.907946690134806,0.907844281478604,0.907860253470855,0.907932597200466,0.90657497785906,0.903835311423392,0.904369903399351,0.904574720711757,0.90442627513671,0.904072072720302,0.903040469926624,0.905895698423879,0.905503914849231,0.905922944763603,0.907504171996535,0.906568401156368,0.904679947954828,0.902918331162346,0.902724788197412,0.903561908497199,0.903344877308365,0.903699079724774,0.901789017357245,0.90130046230013,0.900117595344538,0.899157396751516,0.898526972822046,0.898153979826518,0.898196258629538,0.892882282854456,0.894591286025402,0.894851535546212,0.892063013604832,0.895440620201618,0.895894412687361,0.896546445782819,0.898270481417061,0.899576426665888,0.899454287901609,0.897467184159689,0.89323272715504,0.890206504387795,0.888760569324526,0.888620579510083,0.88957514092937,0.886880571883589,0.912089073301768,0.876821974880756,0.875025595516902,0.873580599982589,0.872306598718266,0.922244441787069,0.918789793815892,0.902082150391514,0.908696434241687,0.88700458970578,0.899904322271529,0.905432510648576,0.857437613460761,0.857519352479932,0.857677193344539,0.852837679692232,0.852734331507073,0.849811456924987,0.84851490696572,0.84735270964716,0.845495260901167,0.843389776510792,0.842847668303186,0.840061025419718,0.839746283219462,0.840007472269227,0.840241414979268,0.839449392069369,0.839506703335684,0.839911640315716,0.844205287644592,0.844436411767766,0.845397549889744,0.845317689928485,0.844799069944778,0.844460839520621,0.843262000572778,0.840045053427466,0.838548383800574,0.861459736921356,0.86361219775953,0.876632190031646,0.893399963309207,0.818137117231682,0.818541114682758,0.81886619170153,0.817750031301814,0.816112432331522,0.814877891283351,0.812224661511634,0.811069980424722,0.811166751907189,0.804383352844938,0.800846026325634,0.801296060695553,0.798127029526998,0.797861142832452,0.79555365971654
0.834609878417062,0.834128839591595,0.833301114581367,0.834528139397891,1.36117076085981,0.850774474104877,0.89543310396997,0.892584452175407,0.861175059647691,0.86362159304909,0.868455469527661,0.869467342213263,0.869881674482854,0.869876037309119,1.32422848231026,1.32041399474894,0.873314713288043,0.874331283618425,0.874555831038907,0.880078382242218,0.878649358700157,0.877606481559008,0.882255270833248,0.884810789593542,0.885266461137198,0.884950779407985,0.882098369497598,0.88131292329039,0.880647736789549,0.879245020058255,0.879836923300529,0.88068249936092,0.880911744426182,0.883663624738278,0.883781065857777,0.887375703643396,0.888215642530052,0.921676966297651,1.41418837984635,1.41569162617593,0.925181409303495,0.922963181438401,0.923927138147247,0.889187115470546,0.890592650788707,0.890225294966915,0.8917050530726,0.892210519650923,0.941041597609569,0.933859838269978,0.932323708426934,0.925505546793311,0.929568069999014,0.905036029429148,0.936881363392444,0.933663476718176,0.906282784353747,0.906807981040146,0.907726840359105,0.940646995448053,0.941032202320009,0.956712940595489,0.95669415001637,0.956985403992727,0.944395715982455,0.907646980397845,0.90757557619719,0.906637926299112,0.906933877920249,0.907295596568305,0.906600345140872,0.905745373790921,0.906727181549931,0.904804905305974,0.9054597569883,0.908048159262053,0.906702753797075,0.906496057426757,0.907221373780782,0.90833001794885,0.907758784343608,0.907526720691479,0.904956169467889,0.903225557130955,0.902403469294463,0.902726667255324,0.903010405000033,0.901726068917194,0.902007927603991,0.902200531039969,0.899818825136533,0.900297045375132,0.900064981723003,0.89916115486734,0.899071899616521,0.922802521986927,0.896619729041386,0.896908164430875,0.895603158711004,0.898683874157697,0.897883395487193,0.900848548872299,0.899819764665489,0.898503484598147,0.898548581988034,0.89800835283834,0.896927894538951,0.892538415256563,0.891314209026908,0.891345213482456,0.941736849037002,0.990573564169384,0.941135550505168,0.940449694367295,0.961194493715564,0.951188510334266,0.91763981037376,0.902007927603991,0.86721153318993,0.867635260749081,0.866500309770245,0.866204358149108,0.864345969874159,0.864104510932469,0.861084864867916,0.909346588279232,0.85751747342202,0.908881521446017,0.849919502754926,0.849896014531026,0.84914533089519,0.848912327714104,0.846610481771928,0.842115775246469,0.842402331578046,0.839954858647691,0.839150621861364,0.838114321422906,0.83869682937562,0.84129556646789,0.840549580476833,0.840527971310845,0.842710497075611,0.843665058494898,0.843437692487548,0.844196831883988,0.843760890448409,0.843543859259575,0.842582721137597,0.840003714153403,0.837016951602309,0.833079385747753,0.833279505415379,0.829613463429105,0.829401129885051,0.911373152237303,0.817027533534657,0.816898818067686,0.816644205720613,0.817032231179437,0.816709033218576,0.812971587031646,0.81161396769024,0.81068853166859,0.806967057473912,0.801697239559761,0.802380277110766,0.802110632300397,0.80045800086681,0.800699459808499
0.837360819200202,0.837289414999547,0.837389944597838,0.836506787379206,0.928230180765684,0.925823107580436,1.23286868662975,1.2897289790463,0.909592744865702,0.863536095914095,0.864017134739562,0.868826583465277,0.870208630559539,0.870335466968598,0.869674978112536,0.870273458057502,0.872768846964613,0.872782000369997,0.913413809129715,0.878278244762541,0.878886119997067,0.875640986983076,0.874923186860699,0.874351953255457,0.881804296934373,0.881938649575079,0.882593501257405,0.881482038502468,0.882695909913608,0.882441297566534,0.883197618376107,0.882036360586502,0.882289093875664,0.881900128887884,0.882004416601999,0.885560533700423,0.886104520965941,0.88757864189789,1.33026025820772,0.889421997709543,0.890391591592125,0.891673109088096,0.892020734801813,0.888872373270289,0.888453343355917,0.8901679837006,0.890597348433487,0.892181394253287,0.933896479899262,1.33430023271848,1.05854848413529,0.97723225299432,1.06184623077082,1.06225962351145,0.996173156747087,0.996755664699801,0.903103418366676,0.907722142714325,0.907898774158051,0.956534430093851,0.944226600770377,0.94583319528512,0.946772724241111,0.947731043776221,1.0383955880293,0.950577816512872,0.905114010332495,0.905347953042537,0.905769801543777,0.905538677420603,0.906605042785652,0.904860337514378,0.905855298678772,0.906482904021373,0.907740933293444,0.907744691409269,0.908859912280029,0.908788508079374,0.908586509353836,0.908726499168279,0.908827968295525,0.9046442458545,0.904520228032309,0.90449673980841,0.904723166286803,0.904869732803938,0.903693442551038,0.901195235057059,0.901406629072157,0.901943100106028,0.901607688268739,0.931034674699315,0.903569424728847,0.902811224861363,0.901936523403336,0.896263647567065,0.896845215990824,0.898259207069589,0.897501007202105,0.900071558425695,0.903613582589779,0.903760149106913,0.901360592153314,0.900282012911837,0.900434216602707,0.899722053654066,0.899429860148753,0.894995283476478,0.895138091877789,0.938970875790566,0.938882560068703,1.00322901920658,1.04421127226688,1.0189003621925,0.932216602125951,1.02760040032497,1.02808895538208,0.869694708220612,0.868825643936321,0.868489292570076,0.867995100339226,0.867756459984404,0.867643716509685,0.931856762535807,0.923432006387441,0.92272923872836,0.859676510962886,0.859695301542006,0.910289875351047,0.917437811648222,0.852715540927953,0.850589386900547,0.847270970627989,0.847487062287867,0.844670354477807,0.842418303570298,0.840453748523322,0.839585623767987,0.837839039438801,0.840329730701131,0.840132429620373,0.842174965570697,0.842158054049489,0.843183080140474,0.841753117069457,0.843322130425961,0.841688289571494,0.8426851297938,0.839404294679481,0.839446573482501,0.8391327708112,0.833978514958636,0.833883622534081,0.831261397217912,0.830988933820675,0.886553615806904,0.980407860865568,0.812506520198431,0.814750115345336,0.81532322800849,0.816652661481217,0.815918889366588,0.813881051061045,0.812515915487991,0.810169911684883,0.809049053640386,0.802570061959876,0.804155047308632,0.804109949918745,0.801996009767766
0.914226501676646,0.837312903223446,0.83869213173084,0.838467584310358,0.845487744669519,0.914327970803893,1.28141414778578,0.918430893754704,0.910128276370616,0.911360938360876,0.910732393489318,1.31778331367217,1.31223069754227,0.869296347943272,1.24003729256396,1.24027217480296,0.871666779499236,0.872214524880579,0.871772006742307,0.875804465021418,0.875309333261611,0.901866058731636,0.875229473300352,1.31675922711014,0.88228063811506,0.883073600553916,0.883731270823109,0.882607594191745,0.882857508894038,0.883820526073928,0.883408072862249,0.883308482792914,0.882376470068571,0.882744765419319,0.882417809342635,0.888628095741731,0.88655455533586,0.88714739810709,0.888273893325323,0.889804385994631,0.890186774279719,0.890112551492196,0.889601447740137,0.884434978011146,0.888429855132017,0.889464276512563,0.890363405723446,0.890027993886157,0.890438568039925,0.890679087452658,0.891459836015086,0.891730420354412,1.06431719192507,0.897392961372166,0.998352863924985,1.05885852869077,0.960010687231016,1.11911052063843,0.957784003605319,0.956750521753729,1.02591864349374,0.95473053449835,0.953199102300085,0.899494687646717,0.900571387830282,0.9034444673777,0.90366243809549,0.904612301869997,0.904767324147735,0.905579077165711,0.908096075238809,0.908441821894613,0.908711466704983,0.907946690134806,0.908915344488433,0.908513226095269,0.909254514441545,0.909482819977851,0.90912673850353,0.90793635531629,0.905461636046212,0.905245544386334,0.905526463544175,0.903312933323862,0.902709755734116,0.902778341347903,0.902961549494321,0.903068655795304,0.903712233130158,0.902994433007781,0.904925165012341,0.905578137636755,0.905350771629405,0.903651163748018,0.902428836576275,0.898328732212332,0.89605883025466,0.896484436871723,0.89762878314012,0.898498786953367,0.901785259241421,0.902257842306284,0.901544739828688,0.901417903419629,0.900592057467313,0.899751179051702,0.934165185180675,0.895687716317043,0.895595642479356,0.940308765023897,0.940327555603016,1.15893715308287,1.14361343581066,0.913006993091771,0.946613004318593,0.946613004318593,0.944320553665976,0.869928650930654,0.869014489256475,0.868826583465277,0.868868862268297,0.868624584739739,0.867851352408959,0.867028325043511,0.925626746028634,0.924881699566534,0.859559069843388,0.860236470220657,0.861129022728848,0.859828714653757,0.859433172963285,0.859512093395588,0.846702555609614,0.924765197975991,0.847833748472627,0.848777975073397,0.843234754233054,0.842363810890851,0.843246968109482,0.84122510179619,0.842889947106205,0.842929407322357,0.840829560105718,0.842306499624535,0.843038392681252,0.843355013939421,0.842463400960186,0.843295823615193,0.837958359616212,0.837959299145168,0.879004500645521,0.836736032444468,0.836444778468111,0.830788814153049,0.830272073227254,0.830382937644061,0.885470338920648,0.811953137643353,0.813597313316336,0.816480727682271,0.815790173899618,0.815462278293977,0.814662739152429,0.812643691426006,0.813529667231505,0.812444511287336,0.809980126835773,0.809718937786008,0.806034105220613,0.805138734125554
0.906599405611916,1.34590341532496,1.20690950157574,1.20756717184493,1.12306593754315,0.851192564490293,0.853454010687362,0.856068719771883,1.28382873720268,0.862963922779897,0.863630048809694,0.864519782731017,0.864629707618868,1.23418402716814,1.27587092694544,1.27658496895199,0.870575986381331,0.871081452959654,0.870620144242263,0.869776447239783,0.946716352503751,0.947749834355341,0.873297801766836,1.37561132091338,1.23364849566323,0.938535873883943,0.876081626063435,0.882089913736994,0.882103067142378,0.882579408323065,1.31220251167359,0.885162173423083,0.883497328113068,0.883728452236241,0.883648592274982,0.885796355468376,0.8869529156132,0.887251685821205,1.31167637545823,1.3108401946874,0.889971622148798,0.890592650788707,1.33554041094039,0.893092737340598,1.05094769488133,0.888863917509685,0.891366822648443,0.890819077267101,0.89168626249348,0.89192772143517,0.892414397434373,0.892185152369111,0.893791746883855,0.893135016143617,0.894855293662036,0.895512963931229,0.897361017387662,0.896255191806462,0.897343166337499,0.8979707716801,0.897437119233098,0.89618284807685,0.895891594100493,0.899831039012961,0.900022702919983,0.903277231223534,0.903741358527793,0.904273131916884,0.905875028786848,0.907805760791408,0.908291497261655,0.908594025585484,0.908174995671112,0.907889378868491,0.908304650667039,0.908117684404797,0.907851797710251,0.90803030821189,0.90698273342596,0.906696177094383,0.905171321598811,0.905474789451596,0.90460666469626,0.903708475014334,0.903664317153402,0.902818741093011,0.903253742999634,0.906300635403911,0.906030051064586,0.906248961311332,0.906932938391293,0.907486320946371,0.90189330507136,0.900530048556218,0.900544141490558,0.899090690195641,0.895326937197943,0.897504765317929,0.895216072781136,0.899303023739695,0.901952495395588,0.902074634159866,0.901578562871103,0.900257585158981,0.899770909159778,0.898815408211535,0.937097455052321,0.940308765023897,0.938968996732654,0.938538692470811,0.933204986587653,1.13565562555343,0.921460874637773,0.944978223935169,0.947063978217468,0.912409452675761,0.986928191820141,0.947740439065781,0.868944024584776,0.868639617203035,0.867920877551702,0.867791222555776,0.867053692325323,0.866739889654022,0.931438672150391,0.86380198260864,0.863565221311731,0.860477929162346,0.861401486126085,0.861484164674212,0.859540279264268,0.859038570801769,0.857837852796013,0.851520460095934,0.85064951675373,0.850589386900547,0.89645249288722,0.844109455691081,0.84416112978366,0.843053425144548,0.838893190927422,0.841947599563347,0.842618423237924,0.843320251368049,0.844135762501849,0.843935642834223,0.843593654294242,0.843359711584201,0.843149257098059,0.840296847187672,0.839547103080792,0.838137809646806,0.836394983433444,0.838834940132151,0.831040607913254,0.830421458331257,0.903276291694578,0.90291739163339,1.06895846496767,0.813820921207862,0.813852865192365,0.817395828885405,0.814109356597351,0.813094665324881,0.812677514468421,0.879012016877169,0.889340258690372,0.814541539917106,0.813035475000654,0.813648047879959
0.916525529031955,1.3347418113278,1.20747321894933,0.910659110230751,1.10986555571149,0.856071538358751,0.855996376042272,0.858798990917991,0.862811719089026,0.862913188216273,0.863990827928794,0.86445589476201,0.864143971148621,0.863674206670626,1.27496897914769,1.27732719682722,0.941323456296366,1.21995016348489,0.94385078918798,0.869010731140651,0.870042333934329,0.870993137237791,0.870723492427422,0.9517428324183,0.95074693172495,1.28965381672982,1.28952228267598,1.31085898526652,0.931274254583093,1.32700009273044,1.14315306662223,1.14626290746656,0.881908584648488,0.940684576606293,1.21047031631894,0.885855545792604,1.26112971762595,0.883051051858972,0.883694629193826,1.39880829083678,1.27444284293233,0.887112635535719,0.887371005998616,0.88699519441622,0.944010509110499,1.29798743856945,0.89132548337438,0.890535339522392,0.952522641451772,0.891755787636223,0.894365799075965,0.920845483171599,0.920814478716051,0.901596413921267,0.901505279612536,0.899542603623472,0.899784062565162,0.898747762126704,0.89816055652921,0.89894788179433,0.897234180978604,0.8952104356074,0.895133394233009,0.895264928286848,0.895759120517699,0.941793220774362,0.953856772569279,0.956919636965807,0.952203201606735,0.942046893592479,0.907271168815449,0.907846160536515,0.907131179001007,0.907773816806904,0.908044401146229,0.907840523362779,0.90798802940887,0.908702071415423,0.907889378868491,0.91058206885636,0.911280138870661,0.910013653837985,0.923110687484492,0.903774242041253,0.902600770375221,0.901521251604788,0.904011003338163,0.907786970212288,0.906371100075611,0.905667392887574,0.905359227390009,0.904825574943006,0.90264304917824,0.89992968955334,0.901522191133744,0.900237855050905,0.986392660315227,0.99883202369254,0.965666651546078,0.962923226994586,0.900697284710384,0.90155601417616,0.901343680632106,0.90009598617855,0.898623744304514,0.933848563922506,0.934012981489805,1.11246805091958,1.38142700515096,1.12306593754315,0.930679532753951,1.42159186801955,0.916679611780737,0.943484372895144,0.945213106174167,0.871858443406258,0.871075815785918,0.910598980377567,0.911561058028502,0.866306766805311,0.866430784627502,0.866278580936631,0.866695731793091,0.868152941203832,0.866582988318372,0.863978614052367,0.864097934229777,0.862810779560071,0.863049419914892,0.863894056446327,0.863822652245672,0.861606303438491,0.861103655447036,0.852940088348435,0.852743726796633,0.85261313227175,0.850190087094251,0.849336055273256,0.846191451857556,0.839712460177046,0.841089809626528,0.842807268558078,0.843526947738367,0.844830074400326,0.845838188970103,0.845735780313901,0.844534122779189,0.844029595729822,0.844319910177223,0.842907798156369,0.840009351327139,0.839888152091816,0.83895707889643,0.839154379977187,0.837102448737305,0.837461348798493,0.89327500595806,0.898314639277993,0.882414051226811,0.863906270322755,0.87933051719325,0.881499889552632,0.882121857721498,0.886102641908029,0.820251996911616,0.820197504232169,0.821345608616389,0.891377157466959,0.814293504272725,0.813918632219285
1.14640383680996,0.914825921150568,1.11964605214335,1.12513290124633,0.909244179623029,0.928176627615192,0.856398494435436,0.860405585432735,0.863101094007472,0.863084182486264,0.864476564399041,0.862679245506232,0.864507568854589,0.940600019000254,0.858461700022791,1.23804549117726,0.935363084599563,1.27839825983705,1.27894318663153,1.26208803716106,0.869792419232035,0.870760134056705,1.31244678920214,0.918480688789371,0.945241292042846,0.930294325881995,0.928578746008356,0.924884518153402,0.925065847241908,0.934624614840154,0.93766493054174,1.23131846385237,1.33434720916628,1.3398246629797,0.948867873812969,0.953527937434682,1.17623388116265,0.889563866581898,0.884978965276665,0.941079178767809,0.956233780827934,0.88774024087832,0.886980161952924,0.958695346692629,0.958995995958546,0.939641699465143,0.949431591186564,0.950718745856271,0.94189656895952,0.937055176249302,0.895220770425916,0.895811734139234,0.935165783518805,0.901357773566446,0.901354015450622,0.899233498596951,0.89913296899866,0.899068141500697,0.959512736884341,0.942441495753995,0.956957218124047,0.956534430093851,0.901510916786272,0.893143471904221,0.895839920007914,0.896303107783217,0.956562615962531,0.953997701912677,1.44226150505134,0.905796108354544,0.906763823179214,0.907188490267322,0.907239224830946,0.907797305030804,0.906310970222427,0.905683364879826,0.906373918662478,0.908009638574858,0.970336110457351,0.911241618183465,0.911145786229954,0.911238799596597,0.978707313455225,0.902948396088937,0.902747336892355,0.902674053633788,0.904402786912811,0.904674310781092,0.905972739798271,0.907771937748992,0.906462234384342,0.905641086076806,0.905915428531955,0.950991209253508,0.906426532284014,0.906356067612315,0.90833001794885,0.908355385230662,0.961476352402361,0.903367426003309,0.904184816195021,0.901482730917592,0.901186779296455,0.93177878163246,0.898034659649107,0.897646634190283,0.935330201086103,0.937571917175097,0.934818157805088,1.12928561923181,0.934695079511854,0.918771942765728,1.17114163422118,0.946575423160353,0.872041651552676,0.8677949806716,0.867704785891825,0.867045236564719,0.866090675145433,0.864614675155572,0.86581257457446,0.865684798636445,0.86732145807778,0.868276019497067,0.868579487349852,0.864933175471653,0.864658833016504,0.929851807743723,0.933637169907409,0.863480663705692,0.865254494374602,0.863004322525004,0.85790174076502,0.854483734423127,0.85358084709642,0.852089814643264,0.851780709616743,0.848949908872344,0.848891658077072,0.847680605252801,0.843527887267323,0.844364068038154,0.844140460146629,0.846246884065959,0.846321106853482,0.846170782220524,0.845810003101424,0.845250983372609,0.844842288276754,0.841117995495208,0.840449990407498,0.840393618670139,0.838993720525713,0.839966132995163,0.836950245046434,0.837001919139013,0.870305402042006,0.854122955304027,0.866106647137685,0.870098705671688,0.854798476623384,0.863076666254616,0.883068902909136,0.885424302001804,0.824487393445221,0.827424360961647,0.823664366079773,0.823430423369732,0.811760534207375,0.813752335594074
0.918321908395809,0.915673376268872,1.00013796894137,0.917134343795437,1.00205460801159,0.922301753053384,0.855501244282465,0.8602825071395,0.859925486136224,0.859435991550153,0.859448205426581,0.859582558067287,0.856691627469705,0.857354934912634,0.856872017029255,0.859343917712466,0.859146616631708,0.93544106550291,1.05545743387008,1.3107462417918,1.20158237239527,0.924876062392798,0.946209006867516,0.94583319528512,0.92779048121428,1.28767141063268,0.922697294743856,0.921483423332716,0.928117437290965,1.31750145498537,1.31907986363144,0.938536813412899,0.938399642185324,0.937274086496047,0.952024691105097,0.952193806317175,0.952522641451772,0.948351132887175,0.949112151341527,0.959522132173901,0.942140846488078,0.957502144918521,0.938621371018938,0.940233602707417,0.944170229033017,0.941285875138127,0.893295675595092,0.893292857008224,1.07056505948241,0.943982323241819,0.897132711851357,0.901957193040367,0.902706937147248,0.903513052991488,0.904186695252933,0.903053623332008,0.901668757650878,0.900473676818859,0.958761113719549,0.954345327626394,0.956280757275734,0.889261338258069,0.890248783190815,0.890929941683908,0.894890056233407,0.895904747505877,0.957990699975636,0.954927835579108,0.958469859743191,0.963355410314342,0.904928923128165,0.905824294223224,0.905913549474043,0.906698995681251,0.906267751890452,0.969236861578842,0.96846644783493,1.08944959149782,0.910862988014201,0.912687553246734,0.912102226707152,0.96152332885016,0.96347754907862,0.989342781237037,0.991428535519336,0.959493946305221,0.904714710526199,0.908315925014511,0.909566438054934,0.910037142061885,0.909980770324526,0.908925679306949,0.908730257284103,0.909629386494985,0.909549526533726,0.908313106427643,0.90839578497577,0.908092317122985,0.905133740440571,0.904842486464214,0.905788592122896,0.914569429745583,0.928849330347681,0.941144945794728,0.940336950892576,0.913032360373583,0.934912110700688,0.892320444538774,0.891925842377258,1.26589312943282,1.26813860363764,1.26969822170458,0.875346914419851,0.867890812625111,0.868802155712421,0.8689242944767,0.869073679580703,0.868794639480774,0.864477503927997,0.864146789735489,0.930373246314298,0.91881140298188,0.866218451083448,0.866051214929281,0.940346346182136,0.941013411740889,1.33860327533692,0.922037745416751,0.86712227793911,0.86617335369356,0.865153025247355,0.865385088899484,0.901336164400458,0.857206489337588,0.854213150083802,0.853274560656768,0.852867744618824,0.849709048268784,0.84658887260594,0.847234328998705,0.844600829335064,0.844927785411749,0.84519930928003,0.846456399023145,0.847254059106781,0.846517468405284,0.846168903162612,0.844878929906037,0.912334290359282,0.894642020589026,0.839617567752491,0.840073239296146,0.83887721893517,0.837765756180234,0.83770092868227,0.836606377448541,0.83691830106193,0.836986886675718,0.883395858985821,0.869869460606426,0.876550451012474,0.867063087614883,0.829192554456821,0.828273695137863,0.829776001938491,0.826847490182669,0.827136865101114,0.82321996888359,0.821665048461426,0.820943490223225
1.00257134893738,1.0028719982033,0.931899980867782,0.925009475504548,0.934893320121568,0.924930555072245,0.933858898741022,0.934540057234115,0.928404933151498,0.858976561890674,0.859424717202681,0.858386537706312,0.85712381078946,0.85660613033471,0.855639355038996,0.855427961023898,0.855209990306108,0.854517557465543,0.854474339133567,0.855355617294286,0.940675181316733,0.920486583110411,0.94589896231204,0.946415703237834,0.928670819846043,0.941408013902405,0.944621202931893,0.94193415011776,0.931247008243369,0.943268281235267,0.947186116981747,0.940731553054092,0.940120859232699,0.950981813963948,0.953217892879205,0.9517898088661,0.951301253808985,0.947514952116343,0.947073373507028,0.937166040666109,0.937393406673458,0.939312864330547,0.954373513495073,0.950850279910109,0.950239586088716,0.892213338237791,0.89423802313795,0.893985289848789,0.960292545917813,0.900642792030937,0.901264760199803,0.901131347088052,0.901627418376815,0.90441687984715,0.904097440002114,0.904380238217867,1.14475026584741,1.14536095966881,0.929968309334266,1.18174891613432,0.933012383151675,0.889031153663851,0.889328044813944,0.892146631681915,0.893444121170138,0.958009490554756,0.955970712720257,0.965751209152117,0.970138809376593,0.904767324147735,0.906701814268119,0.90506609435574,0.904573781182801,0.905242725799466,0.905316009058033,0.90521829804661,0.970289134009551,0.971087733622143,0.912928072659468,0.91284539411134,0.912385964451861,0.965272049384562,0.978914009825543,0.960997192634806,0.962030674486395,0.980717905421045,1.28650639472725,0.910098211444024,0.911167395395942,0.91133181296324,0.911715140777284,0.912441396660265,0.912728892520798,0.911890832692054,0.911071563442431,0.910276721945663,0.910008956193205,0.906325063156767,0.905384594671821,0.905636388432026,1.23852465094482,0.939622908886024,0.938054835058476,1.16178392581952,1.2266020284933,0.894855293662036,0.89075143118227,0.89166747191436,0.892704711881774,0.938984968724906,0.879650896567243,0.938144090309295,0.950183214351356,0.86952183489271,0.868805913828245,0.94681030539935,0.930638193479887,0.937524001198341,0.912253490869067,0.931756232937516,0.912454550065648,1.38121091349108,0.869013549727519,0.86890550389758,0.867882356864507,0.868773969843742,0.868152941203832,0.868569152531336,0.867551642671998,0.867953761065162,0.864699232761611,0.86541421429712,0.917937641052809,0.909478122333071,0.904839667877346,0.851170955324305,0.851277122096332,0.846039248166685,0.846269432760903,0.846600146953412,0.844595192161328,0.846244065479091,0.845726385024341,0.845167365295526,0.847520885330282,0.846539077571272,0.844773702662966,0.843096643476523,0.840083574114662,0.839116798818948,0.833562303631132,0.833685381924367,0.83581717312551,0.835885758739297,0.83640062060718,0.836678721178153,0.836969035625554,0.836490815386955,0.837277201123119,0.837090234860877,0.885844271445132,0.88210494620029,0.830405486339005,0.829197252101601,0.829793852988655,0.830536080863887,0.868655589195287,0.821527877233851,0.823791202488832,0.821795642986309
1.12020037422738,0.915934565318637,0.922512207539526,0.919086684965985,0.920523224739694,0.923184910272015,0.91521676519626,0.925240599627722,0.937903570896561,0.926223346915688,0.932211904481171,0.931621880296809,0.929071998710251,0.85482760202102,0.85425354982891,0.855763372861186,0.854417967396208,0.855167711503088,0.854844513542228,0.853239798085396,0.855413868089558,0.923485559537932,0.91879261240276,0.928884092919053,0.946472074975194,0.947486766247663,0.95178041357654,0.947928344856979,0.94485608517089,0.945711056520842,1.07053687361373,0.94779681080314,0.950944232805708,0.939122139952481,0.953011196508887,0.950887861068349,0.936482063586147,0.950004703849718,0.950906651647469,0.94682909597847,0.94191535953864,0.889374081732788,0.890589832201839,0.891070871027306,0.8929048315494,0.892680284128918,0.892752627858529,0.894462570558432,0.957201495652604,0.901151077196128,0.901123830856404,0.901793715002025,1.12084864920702,0.941370432744166,0.955125136659866,0.949140337210207,0.898254509424809,0.953368217512163,0.961814582826517,1.15203161525634,0.956882055807568,0.890035510117805,0.890074030805001,0.924190206254925,0.895652014216716,0.896879978562195,0.93092568934042,0.962857459967667,0.953283659906124,0.970007275322754,0.955162717818105,0.908908767785741,0.904856579398554,0.906254598485068,0.906770399881906,0.90683052973509,0.964586193246689,0.973286231379161,0.914264082834886,0.914491448842236,0.971078338332583,0.909846417683819,0.909426448240491,0.908780991847726,0.964614379115369,1.19442316175063,0.960123430705735,0.960781100974928,0.977805365657474,0.914425681815316,0.916049187851268,0.914720693907497,0.914303543051038,0.914983762015175,0.952203201606735,0.948041088331698,0.957257867389964,0.991729184785253,0.905160986780295,0.904599148464613,0.904540897669341,0.943775626871501,1.16192485516292,0.894920121159999,0.891796187381331,0.892137236392356,0.891554728439641,0.891549091265906,0.885744681375797,0.885421483414936,0.880235283577869,1.2713799785358,0.909589926278834,0.966775295714147,1.35912258773575,0.876169941785298,0.908174995671112,0.92483096500291,0.875243566234692,0.876283624788973,0.948632991573972,0.947571323853702,0.870310099686786,0.870690608913962,0.869115018854766,0.869130990847018,0.869311380406568,0.870311978744698,0.867848533822091,0.868897048136976,0.870245272188823,0.868032681497465,0.925430384476832,0.929603772099342,0.91699999115473,0.930554575402804,0.852647894843122,0.851435902489894,0.849374575960451,0.843774043853793,0.844683507883191,0.846844424481969,0.843798471606648,0.845230313735578,0.845214341743326,0.845348694384032,0.844984157149108,0.843037453152296,0.83674260914716,0.834930257791055,0.833294537878675,0.834063072564675,0.835171716732744,0.835265669628343,0.835040182678905,0.836488936329043,0.837589124736507,0.837020709718133,0.836597921687938,0.836521819842502,0.836672144475461,0.837123118374336,0.830820758137553,0.831276429681208,0.833181794403956,0.860373641448231,0.866347166550418,0.869241855263825,0.866887395700113,0.822499350174345
0.928084553777505,0.823642756913786,0.921109490808232,0.916870336158803,0.919315930031247,0.965845162047716,0.944630598221453,0.937538094132681,0.847322644720568,0.924640240624844,0.917551494651897,0.911143907172042,0.927315079562549,0.929285271783261,0.854275158994897,0.856033017671555,0.856288569547585,0.856431377948895,0.854631240469218,0.852768154549489,0.851624747810048,0.854875517997775,0.856434196535763,0.857659342294375,0.859125946994676,0.860312572066092,1.06826321354023,0.982972774915422,0.946425098527394,0.944997014514289,0.947646486170182,0.941793220774362,0.952635384926491,0.951395206704584,0.956421686619133,0.937116245631441,0.937683721120859,0.960875053870527,0.927752900056041,0.954467466390672,0.934642465890318,1.06371589339324,0.89095061132094,0.892467950584864,0.895570275197545,0.894779191816601,0.892840943580392,0.957135728625685,0.963167504523144,0.941642896141403,0.963430572630821,0.995609439373493,0.998249515739826,0.961889745142997,0.931501620590442,0.957398796733362,0.897073521527129,0.896289014848877,0.895597521537268,0.894956762789283,0.893430967764754,0.944931247487369,0.922456775331123,0.896811392948408,0.897015270731858,0.967949706909135,0.966577994633389,0.953123939983606,0.930571486924012,0.983705607501094,0.907885620752667,0.909402960016592,0.906848380785254,0.907880923107887,0.907911927563435,0.908066949841173,0.95076572230407,0.966615575791628,0.915581302431185,0.915257164941368,0.914942422741111,0.911079079674079,0.910636561535807,0.909821989930963,0.911641857518717,0.912198998189619,0.912140747394348,0.967169897875663,0.915521172578001,0.916828057355784,0.917613503562992,0.918369824372564,0.917976161740004,0.917540220304425,0.951968319367738,0.954148026545636,0.958263163372874,0.955529134110942,0.903228375717822,0.903223678073043,0.900148599800086,0.899241954357555,0.894716243376549,0.893309768529432,0.892692498005346,0.892675586484138,0.891867591581986,0.891971879296101,0.891360245945751,0.890352131375974,0.931585238667526,0.961015983213926,0.880441979948187,0.877485282323685,0.876373819568748,0.875889962156413,0.876990150563878,0.875411741917814,0.875326244782819,0.875857078642953,0.878136375890186,0.877544472647912,0.872971785219107,0.872338542702769,0.870034817702681,0.869864762961647,0.872711535698298,0.872979301450755,0.87007239886092,0.870036696760593,0.869693768691656,0.871992796046965,0.869992538899661,1.18263207335295,0.917007507386378,0.930904080174432,0.85426294511847,0.853903105528325,0.85279821947608,0.909594623923614,0.908635364859547,0.848620134208791,0.84416112978366,0.844641229080172,0.843427357669032,0.844999189612404,0.844885506608729,0.841528569648975,0.838112442364994,0.838471342426182,0.836237142568837,0.836268147024385,0.836314183943228,0.834668129212333,0.834737654355077,0.835689397187495,0.836388406730752,0.836753883494632,0.837580668975904,0.837152243771972,0.836914542946106,0.837146606598236,0.837391823655749,0.863081363899396,0.888928745007648,0.857030797422817,0.855242873819568,0.832293939540545,0.856844770689531,0.828316913469838
0.922978213901697,0.91266030690701,0.914646471119974,0.939745047650302,0.924100951004106,0.954599000444511,0.937687479236683,0.839586563296943,0.839578107536339,0.909118282742926,0.921581134344139,0.929429959242484,0.927766053461424,0.923212156611739,0.934594549913563,0.932265457631663,0.934500597017964,0.855857325756785,0.855088791070785,0.85361373060988,0.853551721698785,0.856116635748639,0.855309580375443,0.855087851541829,0.85816199028583,0.857908317467712,0.858020121413475,0.931478132366543,0.947599509722382,0.966765900424587,0.967000782663584,0.970524016248549,0.94883968794429,0.938480441675539,0.976734302647645,0.976677930910286,0.958065862292116,0.932279550566002,0.960471056419451,0.878018934770687,0.882927034036781,0.96055561402549,0.950699955277151,0.948463876361893,0.940440299077735,0.960818682133167,0.943597116369863,0.991917090576451,0.941765034905682,0.961166307846884,0.895843678123738,0.897236060036516,0.959991896651896,0.962058860355075,0.938589427034434,0.896353842346841,0.897011512616034,0.896765356029564,0.895546786973645,0.894751005947921,0.892806181009021,0.892050799728404,0.892595726522879,0.96447344977197,0.932993592572555,0.96452982150933,0.951291858519425,0.950089261455757,0.954965416737347,0.955745225770819,0.911055591450179,0.912668762667614,0.911678499148,0.908783810434594,0.909050636658095,0.908656974025535,0.970599178565028,0.970054251770553,0.975945098324613,0.914402193591417,0.912633060567287,0.911240678654509,0.911025526523587,0.911179609272369,0.912392541154553,0.912926193601556,0.913538766480861,0.915312597149771,0.91704696760253,0.917766646782818,0.918121788728183,0.918308754990425,0.918233592673946,0.917492304327669,1.11896019600548,0.956534430093851,0.950690559987591,0.951263672650745,0.953828586700599,0.898038417764931,0.897858028205381,0.894471026319036,0.89618754572163,0.898910300636091,1.15824190165544,1.15861771323783,1.15764999841316,0.96348694436818,1.12367663136455,1.1242497440277,0.953800400831919,0.957558516655881,0.880861009862558,0.880491774982854,0.882099309026554,0.880559421067686,0.880006038512607,0.875279268335019,0.878195566214414,0.954411094653313,0.878755525472184,0.878478364430167,0.875065995262009,0.872339482231725,0.876697957058565,0.87522759424244,0.87480104809642,0.875563945608685,0.919204126085484,0.870946160789991,0.870907640102796,0.87130506085118,0.869006973024827,0.868189582833116,0.867017990224996,0.861790451113865,0.860463836228006,0.858410025930211,0.857012006843697,0.856640892906081,0.85580940978003,0.909410476248239,1.08869796833302,0.842147719230973,0.845640887889345,0.846071192151189,0.845642766947257,0.842582721137597,0.842616544180012,0.841584001857379,0.837234922320099,0.83672381856804,0.836956821749126,0.834388149583448,0.834869188408915,0.835876363449737,0.834795905150348,0.836152584962798,0.836488936329043,0.837859709075833,0.837887894944512,0.837686835747931,0.837066746636977,0.836808376174079,0.83534834817647,0.833916506047541,0.833290779762851,0.832026173788088,0.830122688123252,0.829060080874026
