1.11775224099273,1.1054882737582,1.10589485712822,1.11413021281869,1.11331626801616,1.11423753418897,1.24735006153224,1.14725678202352,1.15614197387156,1.12930226180969,1.09879809437356,1.13170388118069,1.13132911343579,1.10159771066777,1.10099158082598,1.1001698848848,1.1027332657286,1.10663097803931,1.0944010685822,1.08990805716894,1.09069725849675,1.07745162098096,1.07474098434398,1.12793086537297,1.07238270180347,1.06766667947735,1.06832083651027,1.0669861724511,1.06642362245168,1.06490336463022,1.06269940660312,1.06120970871583,1.06016057738757,1.05791735358023,1.0609366276835,1.06124698796421,1.06052781807952,1.06018198358667,1.0605722393634,1.06151544613931,1.05906087616716,1.05778992304148,1.05583907992418,1.05601253766852,1.05850529637954,1.0578034390115,1.05693822366245,1.05737367570693,1.05763795635744,1.05585669354971,1.05358189760722,1.05175725652222,1.04991505176557,1.04706952464536,1.04489042700807,1.04158218551886,1.03867257748822,1.03756651338893,1.03715903181697,1.03758345512408,1.03775215794121,1.03869719660068,1.03946464873622,1.03858837261119,1.03612224133198,1.03539890075388,1.03476075291256,1.03329032666003,1.03250251706025,1.03259886797842,1.03159098186124,1.03073994138303,1.09878839657813,1.01763939530971,1.0208614473417,1.02555805499256,1.02515388036086,1.02765745384195,1.03068600069372,1.03148662461904,1.03118043963133,1.03089572845286,1.02891702015238,1.02265592928883,1.02091227724304,1.01934475589161,1.01898241846062,1.01555594134527,1.01448723922549,1.05896791306569,1.24957588840727,1.24812861804433,1.55567681860128,1.05781613420637,1.06289011228735,1.06572777527425,0.00440600253409032,1.26096321699259,1.16441847165462,1.16953218327275,1.17446618760914,1.17568125175698,1.33596914844234,1.34514567022506,1.06161072352773,1.0612107849983,1.06318681507425,1.14293337571029,1.31628522116831,1.29525252902803,1.36872695081544,1.08618856104578,1.08523730686446,1.081594630464,1.1382039023491,1.42304805029405,1.09479304981811,1.09738085533425,1.09925559640153,1.07900840916844,1.0943882344373,1.19140078539967,0.00424144983482505,1.23749376472515,1.07763176000812,0.990879923306305,0.990069211747944,0.989806150778234,0.989842539155792,0.988934456482383,0.989105777539349,0.989022579353392,0.991810249745026,0.99215785269963,0.991014583963287,0.988672017681919,0.989300965549063,0.987973989862305,0.98341621305639,0.98285116008079,0.983079034106599,0.987490612248419,0.988908377261819,0.989078797205601,0.979983748577592,0.980686163942554,0.980513533363231,0.975805828161992,0.976011615621505,0.971722726868535,0.966196355206318,0.964582517908638,0.961947785298711,0.962014372722657,0.964734658603755,0.966115711005494,0.96282678580696,0.962935687096823,0.962878323536584,0.963732972401408,0.961927300851229,0.961258598974433,0.961274996517585,0.96085857287865,0.961011145999191,0.96095227249961,0.957765363555184,0.957060935517804,0.955627646148914,0.956503802549694
1.11781601731158,1.11797456407237,1.11916534175165,1.11978196944563,1.12008553202453,1.17159815337259,1.21099970924106,1.19403770228234,1.17840461069805,1.16492909639873,1.15022684381594,1.13765178782452,1.11443439446903,1.10128395260535,1.10004040984705,1.10044696735122,1.10253530598084,1.10471508239371,1.09117080156613,1.09037205647415,1.08899125079181,1.07894062413793,1.07685983798566,1.07658989778721,1.07473499435793,1.07330849642178,1.07033441083569,1.06887810831076,1.06684714105459,1.06541828602086,1.06401065230167,1.06233644981967,1.06101957520631,1.06004157615211,1.06049396996431,1.0608819160909,1.06147467370912,1.06255637840851,1.06307279486053,1.06296001479378,1.06063628528176,1.05824817599595,1.05653512961582,1.0559664380886,1.05584251065131,1.05508993070554,1.05513494065123,1.0569815154077,1.0570143398555,1.05530183452357,1.0529226122975,1.05041395747389,1.04823276693814,1.0461715486161,1.04407804188188,1.04131113057118,1.0391254667153,1.0380352299703,1.03779562514088,1.03796629442704,1.03829149649437,1.03884537799488,1.03910444783396,1.03840981528076,1.03691139342224,1.03569819224488,1.0347472414919,1.03407418708576,1.03470309745702,1.03701476088793,1.03903190238725,1.04020300615761,1.039577487733,1.03545199494979,1.03313363031186,1.03171839090006,1.02990978807407,1.0301258060439,1.03109622572194,1.03198199206378,1.03248526246261,1.03300748108106,1.03470059345195,1.05154346971031,1.06501907297444,1.07782359587945,1.091329957025,1.10477334746326,1.11940004556615,1.11968483479199,1.17100354420883,1.2038958205852,1.27613323213992,1.27349886019251,1.27622019667703,1.2762551573722,1.27341010824117,1.26800877501609,1.2307270934669,1.21810716140756,1.20354258786224,1.19139909378188,1.33250375716948,1.33844048667669,1.12220554639674,1.06398902784733,1.06366092108847,1.1114877679556,1.29523206776698,1.28369725065863,1.2733111555834,1.08686921612351,1.08579002724182,1.08248848587949,1.11015667767221,1.12759317626426,1.10999891767378,1.10641535798189,1.1032016233688,1.05755095097618,1.0468519653625,1.03284429969765,1.00176056620635,1.00784340567657,0.997467893051638,0.98795138293254,0.987544865033385,0.987553499006598,0.988403131835377,0.988177180099414,0.988145870149883,0.988325609566837,0.988318422940379,0.988593486691448,0.988015937421164,0.987006388201034,0.986158650122053,0.98458973396232,0.982510714142518,0.981477323914722,0.981765851131024,0.984084377895431,0.985629734969486,0.985256213096147,0.982168443498285,0.981357318306663,0.980033807767802,0.977225503227517,0.976127735405669,0.973069556860936,0.969470864960345,0.967760224790662,0.968697808539767,0.968438092129709,0.967012760499225,0.966995158772551,0.965875110565901,0.966025068203617,0.965687072939857,0.965384049918825,0.96451701788789,0.964063146623485,0.962877601311306,0.962357574182105,0.961916365834721,0.961596637949161,0.960580297196167,0.959861661483723,0.959929196231208,0.96175833626828
1.11661329947888,1.11643750895277,1.18897760930125,1.11978122478831,1.12029870799668,1.25847595549868,1.45028128660704,1.266224091878,1.27607659472808,1.2778012939814,1.28541159029181,1.14347893585234,1.10300217804757,1.10195588609554,1.09781670807479,1.09894680229458,1.10136932949359,1.10349661035245,1.09090705263095,1.09190246178875,1.08535207875161,1.08319993697956,1.07789501263317,1.07740709489675,1.07678840568848,1.0744052082353,1.1185877343385,1.07253203442742,1.06651257577838,1.06574318412927,1.06545179296483,1.06301470948217,1.06146323406287,1.06075656616854,1.06007534125046,1.06059028275714,1.06169593374297,1.06519442768163,1.06648380132851,1.06526985680907,1.06653540832763,1.0573419137383,1.05588700258838,1.05526641381987,1.05364407216048,1.05141180932861,1.05171137238407,1.057738743803,1.05780873840094,1.05462115071199,1.05209193516604,1.04881793188208,1.04632466056018,1.04545735396153,1.0437889802153,1.04062523223764,1.03838946856298,1.03782213848473,1.03808859541208,1.038380491066,1.038708940074,1.03929837881664,1.03969833993084,1.03897320569235,1.03737708610806,1.03565423652576,1.03435161405893,1.03347011772771,1.12810506437633,1.09984529728375,1.09259322778004,1.04338618221968,1.04347582539155,1.04678440802667,1.0528997938238,1.06471526657285,1.0274574347548,1.07695522146254,1.19271883527105,1.07965340745676,1.03330350532056,1.03370032304036,1.03603997840442,1.17165974045442,1.22467185050728,1.11105466163499,1.11077037637587,1.23360745317403,1.16666807140091,1.12260975002992,1.12372061901578,1.12437775766855,1.27733640407338,1.26888091400258,1.43180112889663,1.4307609033469,1.48939635484877,1.4019011029962,1.30334780048131,1.24849678560501,1.33676424143476,1.09083200173658,1.32545871297072,1.37946518038291,1.24463643194603,1.06406144644185,1.06389292286069,1.06387296267271,1.3589481837552,1.27213270832709,1.26188142290201,1.08835451327012,1.08827810912667,1.08051180031789,1.07982941790408,1.16625122729211,1.11434518256341,1.11676312820829,1.21296446895711,1.04173700115934,0.977508591013367,1.02849573885176,0.984535872149551,1.03200736276821,0.993649040509284,0.985387285991878,0.985085630301616,0.983837878293012,0.988932961175288,0.987336987627152,0.987565946047095,0.987370327234298,0.985351967603483,0.985102594190804,0.986331996795828,0.984390284746363,0.984488093011768,0.981718388400992,0.980508592342645,0.979447899857487,0.976352532865453,0.976644278402369,0.984313952229498,0.9839928216091,0.982464700864614,0.982303932066019,0.98075453964217,0.977278542455095,0.976688323306899,0.975683135166093,1.27241239477345,0.967493938899104,0.970317338200611,0.969429045294371,0.968816084093837,0.968097745075181,0.968255116769795,0.968780248994598,0.969135281545756,0.967289471146466,0.96745435129633,0.966692682270803,0.964758616341437,0.962671038316671,0.963215413571658,0.961770368670731,0.96324883669079,0.96190364386165,0.965477588423001,0.964233325338482
1.12636209014463,1.12789731718568,1.16394148831799,1.15148015322886,1.16057897586469,1.29232310347722,1.32574418910377,1.27041805211627,1.27494676545268,1.27721024163638,1.28304913264639,1.18279392114685,1.10809064151312,1.10372560647641,1.09855071329897,1.09939463237487,1.10086432482195,1.10168794630829,1.09562126387845,1.09497468484012,1.08475458952408,1.08282304549942,1.08103151365903,1.08200009698679,1.08540341672621,1.08739684875677,1.08910254038088,1.08544546037977,1.07908308178018,1.07301826715737,1.06858411718191,1.06586656053852,1.06481775326738,1.06552840795247,1.06777387052997,1.06785509020569,1.0650153757682,1.06527215455898,1.06563871147652,1.06468001130404,1.06139582005851,1.0578009036689,1.05635365949477,1.05626248394885,1.05558393672565,1.05366098452295,1.05341506215718,1.05518997814781,1.05513182196803,1.05340105315857,1.05096548872976,1.04823680897462,1.04624045473837,1.0446138064063,1.04304723058297,1.04088666187332,1.03945916858824,1.03874522711922,1.03863832691603,1.03888127822355,1.03922835457877,1.03942945139869,1.0392809428614,1.03865352734239,1.03750405348135,1.03688224013785,1.06505816715477,1.08312943505372,1.10317870218712,1.10062522783782,1.09984021173897,1.07558553540092,1.06657555888303,1.0667987844997,1.06704190458223,1.06657529913961,1.06684973668774,1.06944119132433,1.09213626301207,1.11161105667022,1.12491567398793,1.13793218576409,1.1512516913427,1.16000715702814,1.19137071374219,1.18363500384314,1.17321921430352,1.19750778126031,1.1806342089884,1.12563462145525,1.12531685859926,1.12545005309475,1.18999247409885,1.24591113448395,1.22966800874645,1.21345490721277,1.19745171474935,1.18164856669427,1.16586479466363,1.14974916932276,1.13390921061447,1.120702152358,1.13144788023797,1.14306106552609,1.15607066488273,1.13446155085785,1.16112680978522,1.18775491047574,1.24289793864187,1.24615446237843,1.25298991057669,1.16502279988461,1.13081715314444,1.08742978619263,1.0799780661712,1.07991318824694,1.06259800815499,1.0536826608914,1.03792609545907,1.01964548194114,0.980577892516644,0.983147135568955,0.984726458045853,0.985482917699644,0.98488814315436,0.984991204415879,0.984690352876017,0.984931919315088,0.98572722497397,0.985796181219626,0.985485938118816,0.985399670163426,0.984141820930384,0.984226102976435,0.983822718350432,0.983671069657016,0.982567127084595,0.981706532981569,0.980434110342405,0.979308939673923,0.977849014694822,0.978718292847736,0.981777428545767,0.982285912799588,0.980886673844461,0.980391212404284,0.979057515023189,0.978003649496171,0.97716891093143,0.976327990196639,0.975763442682433,0.971461557230601,0.971243475024051,0.971011100745118,0.969455005292109,0.969771560658825,0.969426350552257,0.969912504195494,0.969070795974812,0.968161751934237,0.967489571987506,0.966678084036125,0.965139318598008,0.96474273061784,0.963889130125011,0.963808892853525,0.963386514312552,0.963574453311302,0.964039137631579,0.963883370274879
1.12721050508275,1.12854338675461,1.21057065564834,1.13043170580738,1.18138878727021,1.76905552461666,1.37584054338864,1.14665684501855,1.20626765937606,1.2224246647943,1.49223597699813,1.23243477882763,1.12175450556238,1.19983374070501,1.08909553198952,1.08903767524107,1.10188139006137,1.10297839046882,1.11568557496134,1.09697647297609,1.08716369577713,1.0827220470661,1.08161408819932,1.081658159558,1.28524399793302,1.09480741160931,1.09357239071467,1.09306910555346,1.33452549496206,1.17117601952586,1.36676925721954,1.329729797204,1.3319071638754,1.14184751955352,1.07040408321595,1.07009217678142,1.06483102686177,1.06504974621531,1.0659229451663,1.06579019821463,1.05774489375264,1.05621031580458,1.05609594210572,1.05748552400639,1.05925480092774,1.05387598796544,1.05330220739121,1.05398643668819,1.05406426577309,1.05264899672835,1.04992272076826,1.0470232507177,1.04547174918796,1.04399632300166,1.04257935984381,1.04076115632534,1.03959185047186,1.03934915424427,1.03884653560146,1.0394514151702,1.03997934271585,1.03993187882468,1.03937911493019,1.03886275057506,1.0372105783718,1.03754499627,1.1443790303977,1.14500575020828,1.10637872569456,1.1062361061434,1.10695073560359,1.14566709087763,1.06617643671038,1.06628638915449,1.06692879631304,1.06739869624372,1.06687292408001,1.06527365080066,1.06560967446937,1.13774909615079,1.2061803885432,1.38100613601441,1.23181607929182,1.14862791020204,1.19679460952421,1.19602669344131,1.15760946441383,1.45083370456784,1.20089849610936,1.12899764938754,1.1261120421846,1.12704491260951,1.12827104427034,1.38130657385274,1.17863691314235,1.13856517516022,1.13892111763343,1.13811604067951,1.11822540525352,1.11334537107733,1.1093770332113,1.05276002767568,1.09545529189357,1.09262534723186,1.18729139946592,1.09104485936111,1.23175163307004,1.22742920645766,1.23772898110445,1.24289793301228,1.97521403096898,1.29668002119699,1.33571755225746,1.09396613337573,0.986444107983185,1.07967029743621,1.05676575312273,0.987755819366481,0.982803950867854,0.98294362847334,0.98081228680243,0.976724128798089,0.975205508142461,0.98642533620371,0.984974781603235,0.984678966309276,0.984795673803343,0.984125478207655,0.984435680954123,0.984358984764223,0.984219625726606,0.983304492553098,0.983394659126158,0.981876282004741,0.983130431905051,0.981928983112183,0.982082929765513,0.980752380264091,0.98092262748146,0.979116731172371,0.976512558817089,1.16832522110741,0.981705834748125,0.981636653273248,0.979315401867612,0.978180192145166,0.978032415246121,0.977480583871983,0.977990119792706,0.976495017045117,0.976252164943081,0.97235907568901,0.973819671620013,0.971899006642297,0.970272540153962,0.969949873607742,0.971589882413613,0.970882047932789,0.970256790964907,0.968462691492402,0.968802388292285,0.966049306816877,0.966228630844724,0.965286703951452,0.965858192443598,0.964256314059269,0.964535353421762,0.963696874634935,0.963763087987423,0.963282733744952
1.12727270761123,1.12936820003593,1.13082767397122,1.13099969829574,1.15839548264433,1.18397624300831,1.17018221838229,1.15115884431074,1.15213341046964,1.15400546439223,1.15581856594851,1.15981388337692,1.16611577918753,1.19213264581452,1.09685564751208,1.09899623728109,1.10140328703862,1.10386669194517,1.10505263445216,1.0995472436974,1.09188754135221,1.08694617558034,1.0820935872309,1.08295780594601,1.08524011613586,1.08753367746131,1.08981262827726,1.09004952612073,1.08880131923968,1.08866444332101,1.0905706127332,1.09461972463192,1.09584204371112,1.09507443492325,1.09205121888642,1.09104945700507,1.09268140749491,1.07392952135194,1.06830176952484,1.0688329989449,1.06871154961409,1.06800537194786,1.06584573197441,1.0624493043199,1.05994308307456,1.05675024579967,1.05444147704855,1.05384759121856,1.0532838916542,1.05277383413477,1.05148059357774,1.04980186795403,1.04795418198682,1.04471003630149,1.0428371988304,1.04124144884254,1.0404402115197,1.04002146794417,1.03988840028537,1.04004806484663,1.0401019801424,1.03984637060436,1.03904136569212,1.03847942750133,1.03816770832831,1.04430850864228,1.12545171211887,1.12070957964708,1.10495975013412,1.10505215916772,1.11538715274035,1.12691509901903,1.07177956698833,1.06528980014019,1.06465542960564,1.06558074779184,1.06599652023318,1.06624403474084,1.11078366376726,1.16605973534416,1.24143632855659,1.27525163912955,1.21612915315466,1.20267401376525,1.19578183482836,1.19574368942042,1.21820451179819,1.25980326332395,1.2315487007209,1.13289429444568,1.13061967441324,1.13049482435355,1.13013834928271,1.19949270107451,1.16262370713375,1.13939187286344,1.13951229584904,1.12233279537943,1.11241629726099,1.09394872994822,1.08249262657211,1.07361503852716,1.08303125182459,1.08870375646828,1.11210484691018,1.12005178273535,1.13622717886127,1.1376708057503,1.12246719815592,1.11995817282555,1.10067704896815,1.07994783546043,1.05924937169014,1.03813144858099,0.989045057177936,0.98937837641358,0.98847230640138,0.987584898106391,0.985501283269461,0.985065382406423,0.984681308967734,0.986440980640813,0.986786717202109,0.986548522895909,0.985481500790629,0.985392779157444,0.984547245920991,0.984596277977468,0.984076234700615,0.983961373570962,0.983294520413529,0.98346387917283,0.982872614071593,0.983102084894072,0.982384598749824,0.982793424020032,0.981980530894596,0.982135441317794,0.981230522305614,0.980062141982935,0.978631078170113,0.978970661812085,0.979236601070271,0.978932779893757,0.977810702081263,0.977687144661787,0.976539470540695,0.976280625891854,0.975831032605657,0.975951496617123,0.97562517971074,0.974955521855839,0.974294420283531,0.974097298736986,0.972444253486691,0.972465542943251,0.971304991104581,0.970911299608387,0.968850937510105,0.96776175230094,0.966508809415319,0.965755993572922,0.964873779623892,0.965097900525073,0.964256224665601,0.964404430363923,0.963345129002905,0.963565108349588,0.962862146830226,0.962566630274289
1.1267913799437,1.13084797070768,1.13171961377076,1.13154753726061,1.13719492433376,1.2049895818032,1.14458507350342,1.15033106996477,1.15051186553989,1.15209866579906,1.1535317420677,1.15878575573667,1.17442126143719,1.20473617122827,1.09489615419104,1.09861886830438,1.10122126177602,1.10635822418955,1.10685490518919,1.10613646221671,1.1050177089018,1.24936590511071,1.08205988117687,1.08226222229296,1.08428225911317,1.08632269952648,1.08813621987555,1.08954718672438,1.09013110376406,1.08943245596069,1.09115874962567,1.09785008446076,1.0983304504465,1.09791957839715,1.23549635664594,1.24719224328114,1.24496965004733,1.08494835445583,1.16260720869677,1.06971003009644,1.06826417424224,1.06786677462231,1.06606356251632,1.06409189796992,1.06399927319476,1.06492114008328,1.16874195746394,1.05375463362889,1.05194401844248,1.05296776515946,1.05276569431444,1.05254996813414,1.05137806669507,1.04383076684947,1.04232060894827,1.04093913091475,1.04052349939366,1.04056438567683,1.04040659390745,1.04063903454688,1.04048136275658,1.04026660089474,1.03851584481701,1.03776325152599,1.03960422442394,1.05447158916063,1.16373142848404,1.04875317791592,1.0507972684243,1.08646873298653,1.30345440755299,1.21016361288364,1.08061260601295,1.05870184583781,1.06131213381071,1.06438230301744,1.06463400591949,1.05567283796723,1.13397839070421,1.19582208600046,1.33162142746299,1.37709075121556,1.2035147804234,1.20430321830892,1.11236625049417,1.11217241963073,1.36839743834779,1.29636827321476,1.29659440907839,1.13970317045127,1.1471124764719,1.28968272470575,1.12580556587504,1.2692238770699,1.1094652487843,1.1087545355921,1.32135468779147,1.10806698908932,1.108008668714,1.06709349547783,1.00789560113761,1.00950130198807,1.01493696642288,1.01618266296351,1.01729622090084,1.42060578141473,1.13225156241625,1.13658907299684,1.06586573391754,1.0692674063338,1.0729207121824,0.994171376009464,0.99252185021605,0.991322780939879,0.990901026643719,0.989479590626361,0.988044837890804,0.987221872705698,0.986871074483226,0.986315200942187,0.986769274391351,0.986784513947571,0.987544509901373,0.986081639671867,0.986575308284618,0.985060907715317,0.985157277891411,0.984015231804981,0.984431762601926,0.983486475152545,0.982875236264837,0.982391446276872,0.984097560793238,0.982367337286028,0.983512256467257,0.981968961122212,0.983351009885583,0.982560088062257,0.982838483677305,0.98058321143739,0.979303842862488,0.978402374348067,0.978290478229439,0.975633778203311,0.976939402121102,0.976504784152925,0.975608207765038,0.973903174964711,0.973773163569183,0.975067171903505,0.976328927513524,0.975616937484582,0.976549631796669,0.974970311135951,0.975823853304263,0.973292751170078,0.972779457613279,0.970773988776007,0.967649180206288,0.966517255119832,0.965068664444507,0.963601507936242,0.964948153346695,0.963114699367742,0.964628928885061,0.962951416707147,0.963336369976593,0.962485905807681,0.96271979943363,0.961494677418673
1.12724908435536,1.12996205949438,1.13166861346736,1.13262146274277,1.13673460154882,1.14192818196753,1.14431153413672,1.1471687788039,1.15025789045791,1.15192747323792,1.1533920528,1.15672124066299,1.1611465311505,1.14530525087973,1.13476773921262,1.10291875437098,1.1037641533667,1.10717465503886,1.10808266963695,1.10780674094223,1.10736851547235,1.09886600842566,1.08734042849076,1.08322820068545,1.08393926326672,1.08553675247729,1.08799597746001,1.08957308272798,1.08991254018611,1.08919777760346,1.08924441627675,1.09968843553792,1.09958175116716,1.10000151161295,1.21410093533996,1.21266481765775,1.21338664220773,1.08817431155038,1.08900022276807,1.08452290924918,1.08040773337423,1.07715781181568,1.07484127671597,1.07237691369478,1.07043469033437,1.07026960983763,1.07050890416956,1.06103096731651,1.06081216882366,1.05877571018732,1.05584329468078,1.05421794959008,1.05116921697412,1.04723975668531,1.04456621780588,1.04300480457352,1.041964225663,1.04205643923069,1.04169938540518,1.04132952923126,1.04089619934526,1.04050825022793,1.040022312122,1.04081242884607,1.04116726360267,1.05832711719147,1.05997197536646,1.05878139178393,1.05502714318348,1.05434258850817,1.05180797256135,1.05038661777323,1.05206576426204,1.05537200063342,1.05689449430708,1.05719673540192,1.05807011855349,1.05669449899363,1.17084557911544,1.22735496672667,1.33548520840033,1.3374426521303,1.23562119393064,1.24463119587412,1.25135079725245,1.2576557178591,1.27318566159084,1.27811331550978,1.19008125078498,1.1346196194351,1.13239614492544,1.12263731505062,1.11158353771984,1.10162975861541,1.09132763091014,1.08069205841674,1.06961074021313,1.0582540055414,1.04747127984152,1.03584975275747,1.00972421846118,1.01105845599537,1.01487241540026,1.01610237500679,1.07066582803456,1.23913474991455,1.20636939954679,1.17418677225552,1.05332867094943,1.04666797386803,1.03845311100895,0.991641180075804,0.990782195364092,0.990166525220633,0.989251976065404,0.988618886185956,0.987671991751835,0.98742635455846,0.986936935122398,0.986832952175249,0.986560773493682,0.986864666160676,0.986400986247017,0.986611665186218,0.985860181048023,0.986421735571667,0.985359973847844,0.985053337636326,0.984036798270765,0.983895631109769,0.98322977834805,0.983674098035886,0.983318041707209,0.983793093796999,0.982796408275318,0.983472484646681,0.982783942269585,0.983114120577189,0.982034979485996,0.980881260704096,0.979220486901211,0.978241908261153,0.977357662715074,0.978571589448411,0.977829980337403,0.977518255589245,0.976089180081003,0.975727351917874,0.975000005766211,0.975043345591923,0.974456915412104,0.974382714445145,0.973465628046988,0.973456005507117,0.971883315848367,0.971306704032674,0.969876061499485,0.969638872932659,0.967848398212732,0.966687952366688,0.965039637402748,0.964739323942082,0.96385540358899,0.964041607122185,0.963040692955237,0.963274081244362,0.961834802949691,0.961936223852946,0.960806017857352,0.960351439783771
1.12717477312461,1.1299628720122,1.13160373277291,1.13284224177541,1.13749410655798,1.13916435638801,1.14332379134636,1.14453779000251,1.15079792435991,1.15115516102388,1.15184451354736,1.15271553621228,1.16496929880858,1.11967387853873,1.20129584824566,1.10136600650259,1.1041203933927,1.11032522445148,1.11094982638497,1.10961170323478,1.10874145147294,1.09324052311821,1.09361493985926,1.08144687310767,1.0822281957824,1.08310289873177,1.08850958106852,1.0902724786477,1.12986136347635,1.08745690205293,1.08771020233649,1.1714362063859,1.21278032860502,1.10253884825447,1.21713959938649,1.09705846153029,1.20089159596793,1.08865662989585,1.08776336397912,1.08673186190337,1.08683757488197,1.08729753500538,1.08698676425612,1.20756627941037,1.07860426631367,1.2188956933783,1.06818940530065,1.10225731253008,1.06333785283977,1.05974971694865,1.05733758920051,1.05692310150346,1.20899093323443,1.15748600669416,1.06270803077727,1.17633907377534,1.04175688408817,1.04375834297863,1.04261260911172,1.04178261731814,1.04111683485424,1.04026982442572,1.03963491135806,1.20205179203809,1.23600449715984,1.23582358833032,1.06247863119116,1.06110640368386,1.05599019526647,1.05590411064655,1.04359673775795,1.04510389735493,1.0465326622695,1.05412138822453,1.05455813486154,1.05457298821971,1.05608353310228,1.05640387281076,1.33714220914241,1.29637338372829,1.33805213044686,1.34033633573669,1.22542984236711,1.29583887016291,1.29445338898493,1.26318797239918,1.2659876076845,1.28403828763638,1.11755122401273,1.09537230563012,1.0391638477128,1.09835227798213,1.02032372378099,1.02154430880318,1.02141829995654,1.02173432073344,1.02256324231854,1.02088659129237,1.0098339271844,1.0105822369393,1.00997424765806,1.01049527671889,1.01686150295699,1.01728952892127,1.09709237777766,1.63051491492617,1.63090257665305,1.46928640267031,1.00328793464245,1.03931959010327,0.999527378689516,0.988778838055414,0.989373707017325,0.988543173615939,0.987940753315007,0.986745921394935,0.987302656390527,0.986671091000715,0.986990208892351,0.986676176278342,0.986963234857787,0.985884079021091,0.987200100001096,0.985240447794455,0.986948032026213,0.986324489912626,0.987542047193005,0.984607210936354,0.984257747048009,0.983989550127798,0.984100004707236,0.983313900459968,0.984816973787251,0.983162597951354,0.984045991140608,0.982838757364199,0.984185108507515,0.982677194680493,0.982669702808809,0.980867936869006,0.979366952204433,0.976773186266646,0.975438363337351,0.98339814137639,0.979781715224893,0.977627791740473,0.977291036822076,0.976467291969858,0.976425317469043,0.974975128513554,0.973317040590136,0.971970953260053,0.972057104163653,0.970477418074527,0.970087538809134,0.96710172859264,0.9685027789256,0.968087672654557,0.968712548005354,0.966539138964657,0.965269879917023,0.964084780298725,0.964726031719687,0.962734829368343,0.963757629649444,0.961903135634965,0.961685949341049,0.960370135017304,0.959520126966461,0.958964750549676
1.12226185903028,1.13266906628453,1.13340262039776,1.13433756925307,1.13740190906775,1.13961191231984,1.14226136638843,1.14492255241416,1.14834109030473,1.14958593689273,1.14976896461895,1.14903044885162,1.14485137100648,1.14289973886745,1.16917169742764,1.11245020822554,1.11307564192803,1.1124151605439,1.11193755537686,1.11071109347716,1.10950647019656,1.09802621051222,1.09734413890241,1.08503534922082,1.08127236883435,1.08288858510517,1.08711134912511,1.08918502003975,1.10773122022835,1.08500025173629,1.08521700474935,1.08437337574627,1.08527045400142,1.0966366153216,1.0953692725335,1.09608746789875,1.15767018592068,1.13262553478285,1.08758734622008,1.08603953284805,1.08534244045529,1.08563601280396,1.08579369192448,1.08487389876376,1.0843402560791,1.08500876059096,1.08745701346566,1.10670580670512,1.11832840455847,1.13001249765533,1.13937324587049,1.1461177023435,1.17356797931859,1.16578570670717,1.16682696355659,1.16999694296247,1.05915751731721,1.05299713555623,1.04740330958202,1.044919167102,1.04324870605811,1.04275815715874,1.08963658212566,1.11127897131013,1.12792028831036,1.1460329875437,1.06459189585052,1.06380524302183,1.05679583676928,1.05681305344717,1.05684196188217,1.05659946105903,1.05613219379801,1.05530176381786,1.05456411934048,1.05393446368664,1.05422868158149,1.11309681297869,1.25840861102826,1.27630305734857,1.33855643117885,1.33890179364312,1.30470547217438,1.29463086730693,1.29534047474776,1.26020592351855,1.25824902869611,1.13189475919858,1.09537052696826,1.06944157417689,1.02793888117909,1.02211879607107,1.02028559856543,1.02144174884838,1.02224235971821,1.02258834176717,1.02325779559825,1.02310686847312,1.01133729534676,1.01174816622939,1.01189053784427,1.01208229669232,1.0674747346014,1.10175910799202,1.13524527884521,1.19960750836933,1.19927291857074,1.19796699517152,1.10178241250165,1.0731152346565,1.04422014445996,0.989640459732338,0.989177615903786,0.989046826121494,0.988409619199396,0.988295819936137,0.987575038985815,0.987300478738564,0.986616695961684,0.986756857381921,0.986461493538916,0.986807947714561,0.986370382752988,0.987024349072347,0.986503884931704,0.987810413983703,0.987305049573257,0.986483875116455,0.985185205756317,0.985172303525948,0.984599062025807,0.984853451396283,0.984138369748275,0.984537917167061,0.983376255346112,0.984001899165198,0.983222217411727,0.983422499370589,0.982446283992076,0.981635210349137,0.980307064616293,0.978461911046954,0.975372822187223,0.975137254459469,0.976347463676273,0.977863683647772,0.977458416858898,0.977729831445975,0.977044886845066,0.976067971147737,0.974889153531386,0.972583783480492,0.971036290372954,0.9706919515176,0.969137826067174,0.968895377255497,0.968024923838084,0.968423092014727,0.967605787536952,0.966853170454504,0.965568584736818,0.964435328571882,0.962947994438266,0.962294558492703,0.960677417043779,0.960898628886622,0.959518900751299,0.959686630820094,0.958901221803499,0.958844146375966
1.11953004015935,1.41574062674245,1.28800608707757,1.13331135426662,1.29191177963528,1.13930038820427,1.14134542591974,1.14462466582064,1.14753419748983,1.14869963247242,1.14881986979846,1.14864850665691,1.14182815493272,1.14144860081876,1.25788476899813,1.11129607643409,1.11341827302472,1.11377864624322,1.11345189530552,1.11112004521826,1.10654842643705,1.15699067066001,1.09831723480694,1.18128494712882,1.07940787593756,1.07863538115582,1.07701565514607,1.07429554901008,1.20193549282751,1.08229195049027,1.07773801922766,1.07767373694309,1.07609439738912,1.21723843949591,1.07423405508372,1.07524654358361,1.22543425379154,1.22600282431497,1.07814449438412,1.08219809071349,1.08167024411244,1.08369383015333,1.08526351814,1.08451854096774,1.0840168311584,1.08411622944599,1.39864474458724,1.10743099820478,1.32271150383553,1.18160709648259,1.26369969746193,1.15605823393921,1.27123971804965,1.16336787645761,1.16513641778556,1.17371613341643,1.06650901291909,1.06679529548239,1.2109001702615,1.04534300183722,1.04341880322462,1.04301015949649,1.22618373160842,1.07136617806538,1.07378906390129,1.16892620662424,1.07103886499172,1.2798070422136,1.05765303948477,1.0569770437256,1.05591838731627,1.05607753412153,1.05733472007134,1.05682212541305,1.05516145669851,1.05275647122452,1.05267175808424,1.29109768856863,1.22555330320968,1.26042748609421,1.33894221526767,1.33805548728385,1.40353897388904,1.10483733164611,1.29801030389741,1.12103049013823,1.25790337534624,1.0539842159133,1.01533117209602,1.0152992559552,1.01629251622986,1.01757564109482,1.01891183434478,1.02149925295151,1.02316386616682,1.0224792223254,1.0941946067984,1.29982977040671,1.01186913336302,1.01271134975186,1.01353068461546,1.01389102305425,1.19445150305948,1.20557250821611,1.19788535063875,1.19953653557999,1.18009936877674,1.19550830272434,1.14474569505627,1.10178239285044,1.2409924118102,0.990397776051589,0.989367850953332,0.988820544674533,0.989673058173138,0.988776441911563,0.988785678937599,0.986964710119354,0.98629752626812,0.986502506561976,0.986869371050326,0.986036827669095,0.987680975719193,0.986291018283287,0.988114957341444,0.987354446879393,0.990708433900301,0.986222119280273,0.986596402885781,0.985958131554999,0.986072703098524,0.984681678347665,0.985746192026924,0.983630688461878,0.984885845408101,0.982790535820941,0.984546992803079,0.982817976553885,0.983654172356677,0.982100595976169,0.982692666216137,0.979915732664132,0.973742263860276,0.972814850726393,0.974036347374333,0.978084392811526,0.978696139743637,0.978624560968631,0.978947823499922,0.97683610433599,0.978655069294818,0.971197386434783,0.97112535285338,0.969453407945943,0.969676945317012,0.968557570190081,0.968692432130381,0.968017292355738,0.967786280262219,0.96683106745659,0.967740265680035,0.962272922407849,0.96351808827406,0.959273638318952,0.959363134603488,0.958065884698425,0.958723182720257,0.957677531461791,0.958846036420133,0.95877823378729
1.17930680403566,1.27098639231686,1.24266458488672,1.14801001659092,1.15064690606512,1.1558959344418,1.16377867854364,1.17377411344862,1.18428347048146,1.19369679198082,1.20086562939951,1.20589649441567,1.20791461846507,1.21840171557823,1.22653183460512,1.1134363993585,1.11349772048099,1.12708880787626,1.12986450119747,1.13549908249501,1.14187743013263,1.15411721586624,1.15137964950975,1.17247013320749,1.07745863035634,1.07677272114828,1.07570038517037,1.07451114808662,1.07398304063234,1.07412739431148,1.07434041889712,1.07414037347361,1.07370811508796,1.07408229462135,1.0744827951934,1.07485583001516,1.19525448064253,1.19160302975751,1.08087358154818,1.08230124184995,1.08232368157805,1.08232118689176,1.08322736447708,1.08452052437775,1.08485672898776,1.08557614331802,1.09325890666318,1.09662792754021,1.11698934532254,1.1215062148234,1.12863739137784,1.13757539040453,1.14794064347162,1.15733919337019,1.16448088273014,1.16380940660679,1.1407664429125,1.12413686852583,1.10676006121929,1.06368876932125,1.0633894618458,1.12012972319653,1.20585404923243,1.20332429006633,1.19743350295894,1.18790278423183,1.19061882016163,1.19431546538003,1.13360697088785,1.0704616601605,1.06586228387019,1.06250495576096,1.05912965875636,1.05740234728382,1.05605046148385,1.05554812733578,1.10594123679481,1.16582683265498,1.22188491551043,1.23494663096127,1.25552936699178,1.28217254284414,1.31197424764489,1.09364993778057,1.08930539663809,1.07640880799252,1.05811307093419,1.04065790593341,1.01494317289747,1.01419167887021,1.01334345829091,1.01114016523627,1.00845741891698,1.00659681588396,1.00560241835175,1.00541049522615,1.00623788347745,1.00789847962346,1.01011284928416,1.01261233127354,1.013734414399,1.0140319757315,1.06370035244458,1.14506188863952,1.12540272981621,1.10671641283108,1.09066602499336,1.07487597474466,1.05889303438961,1.04192181517289,1.0258598098357,0.991251577511845,0.990714735212608,0.990678045661359,0.990034806015831,0.989900192209311,0.9888309826709,0.988048212847391,0.987214930892633,0.987205181096623,0.986653522751447,0.987453875791181,0.987831474819919,0.989195918602344,0.988664329566756,0.989785703824686,0.989745741124884,0.989433763718471,0.988167970133881,0.987590833912978,0.986694554192302,0.986336026488694,0.984726803444182,0.984990955964078,0.983680173069807,0.983965106973943,0.982864702757551,0.982981619645712,0.982180302721649,0.981600375224097,0.980335338918543,0.978417464329762,0.97532658716618,0.974613361711339,0.974201887746123,0.975662466340918,0.975886114749037,0.977832048178323,0.975627788627146,0.97433085856856,0.972784586032561,0.971211828871943,0.969605351934039,0.969133962306089,0.968349799258705,0.968494407997547,0.967825550197327,0.967616884872921,0.966806078786499,0.966498471747144,0.965714144391618,0.964427271514838,0.961751301152314,0.961023779618096,0.959738519335273,0.960075908301716,0.959132821769386,0.959460822480906,0.959169614110935,0.959465849962524
1.27707402694233,1.33152111583847,1.22052387376606,1.12122109317069,1.12450329581973,1.2297849660291,1.2208953868106,1.22045017618524,1.21231238003769,1.21352280483018,1.24737106213672,1.24780395113732,1.33532020150215,1.23664090919774,1.27276128715622,1.11393964744161,1.11380482964904,1.261082979028,1.18591599719023,1.20707359687247,1.23362477890008,1.17456644049654,1.15042509649616,1.21217657094622,1.07630646127766,1.07526732181414,1.07451101086344,1.07394597933856,1.07248875466363,1.07283560379133,1.07188179106567,1.07089322338142,1.07061052760701,1.06859025251852,1.06704481426443,1.06439147817268,1.20054380023687,1.18897873694334,1.05982512672479,1.06518771844772,1.06549396435608,1.06609400819102,1.06827519747294,1.07289804952558,1.08461691753195,1.08735235999806,1.08929987278112,1.09184184248393,1.10456890055665,1.11072977576407,1.11013738638327,1.11022168317723,1.11325629011108,1.13825848841769,1.16493418670654,1.16400282611384,1.19427967837142,1.17926639625559,1.06348539582367,1.0630276152518,1.06329606852873,1.21895199123743,1.2109612642706,1.21092342174703,1.24212613896725,1.16935654046779,1.24269807190934,1.20320887140068,1.20220684107571,1.0745032793234,1.07947718747048,1.19707356934859,1.19282221241472,1.21246050705963,1.34423642122028,1.05522739638473,1.15245009891321,1.1182590817771,1.21973229767632,1.20837277390635,1.19244693789023,1.09525098530101,1.54349454883422,1.08443522382434,1.00632226778205,1.00890367186636,1.00918589029988,1.00970070709054,1.00888461772254,1.00860300904186,1.006554606055,1.005493108847,1.00434901271396,1.00392814572207,1.00350450369023,1.0030782362503,1.00275407786292,0.999599058811521,0.99963586819497,0.999419284661216,0.999005951476878,0.999020143471309,0.999359837339931,1.19553907247351,0.996067206364322,0.995181019641778,0.995375229721633,0.994347526538863,0.993869461887733,0.994171667330023,0.993603154964594,0.99213975832969,0.992531881343541,0.991630668866675,0.99151178781598,0.990095697269521,0.990211983085293,0.987882596989585,0.988347706903104,0.98768123443063,0.98655462820231,0.986643359980869,0.990425643370681,0.99006372273297,0.99169082127204,0.989389844103856,0.992582172250321,0.990819560285717,0.990921944726849,0.988536449362476,0.988648251160555,0.98646447154301,0.985346498390008,0.98396207261684,0.984962359690141,0.982649620435147,0.983320577604611,0.981513137548557,0.982133065008225,0.981071157831469,0.979442593256736,0.976878589929306,0.975763838018439,0.97441452832194,0.97365710488829,0.972867403856823,0.97283023317333,0.979796942116325,0.971091873355461,0.97146016999828,0.971102148362015,0.969965294355645,0.968658619805039,0.967260792910901,0.968181301076855,0.967314950167906,0.96820468667562,0.966408493126486,0.966265141805684,0.965862744332425,0.966192528326937,0.965202233534721,0.96076545108709,0.959505039735699,0.961702083938682,0.960315145338139,0.960826668016233,0.959875226654067,0.960092615010641,0.960367037904895
1.12949280185107,1.1417401709309,1.15417257415239,1.16617493953604,1.17672748519055,1.20163328798989,1.20663716050254,1.21021262252423,1.21231154007167,1.21324609215136,1.21291765556137,1.212563273801,1.21727965726733,1.21988979647357,1.19064133186569,1.17827594733879,1.1895480415358,1.21887415779173,1.22571626328606,1.2293858631434,1.23035441391378,1.22931999327568,1.23011730928788,1.21991110904045,1.13025066316189,1.07286946095912,1.07236839583238,1.07211534123083,1.07210714735741,1.07205641948389,1.071536414995,1.07028544710198,1.06853884975837,1.06673283279815,1.06551788031428,1.06461489278143,1.06442166671029,1.06431717286189,1.06372468376665,1.06569988556871,1.06659444231979,1.067189452273,1.0717039295523,1.07345333158739,1.08309067106215,1.08859747656695,1.0886591519304,1.09574531726223,1.10706940622339,1.11069395757482,1.1109468727483,1.11111492759906,1.11718212701011,1.1318437504455,1.14725597195505,1.16427089435609,1.16544334022139,1.12017861433203,1.06242922688892,1.06183109871633,1.0622590395506,1.11818776162927,1.1517434312638,1.2044528937186,1.21913492619104,1.21534447281756,1.21176316011172,1.20807501319822,1.12051459085527,1.07218980038105,1.07000810643263,1.06821388452208,1.06611180827069,1.06370753375042,1.06113238774236,1.05216044591504,1.04778745305256,1.0428675627396,1.03823093802849,1.03304469486712,1.02891084121809,1.02583904408444,1.02450803070608,1.02430135494911,1.00777552668382,1.0083221504575,1.00853282013689,1.00859162270244,1.00836184200775,1.00811666175892,1.00694707863867,1.00612206433065,1.00539879524507,1.00489947661874,1.00406308025453,1.00231555286695,1.00104452065853,1.00023800929143,1.00034052070427,1.00016978076925,0.999878407827294,0.999376691098995,0.998766544374699,0.997507911712156,0.99614154010705,0.995517538413559,0.995484550204795,0.995212035891522,0.994981667937898,0.994948985907892,0.994531087486901,0.993846841750315,0.993457677529858,0.993440232672859,0.992878337820191,0.992535931018727,0.991200615860097,0.989321559996849,0.989358012220961,0.989644121414907,0.989728869477317,0.990396466328319,0.990519220858771,0.991281565579828,0.990130357605759,0.990368909583566,0.98966940401274,0.989784499646974,0.988849186595445,0.98860341749195,0.988017864368693,0.98774416975763,0.985789623622898,0.985438609501204,0.983867920306302,0.984199768620627,0.983052774967361,0.983308446154661,0.98261629649805,0.982156793473629,0.980845773391244,0.97900125212708,0.976757968996607,0.973404222612526,0.971921438105487,0.971380811415021,0.969788857795024,0.968600031111307,0.969117994539768,0.969771891324585,0.969244225450615,0.96824155153597,0.967108732712105,0.966273592669143,0.965844033830724,0.965777411461102,0.966304854343207,0.965632115887154,0.965163617666487,0.965377479116109,0.965280480433382,0.965669047318562,0.964524933309625,0.964688909716575,0.963688750532654,0.964051048517295,0.963168407196396,0.963100737053458,0.962454642592168,0.96233388226879
1.10374404691486,1.10283485528094,1.10121091150456,1.19631252137092,1.19653184624869,1.19568873100585,1.12121252833105,1.121318361053,1.12018712469373,1.11992375389562,1.12074078864304,1.12780856936684,1.21507597434677,1.22197629706617,1.1417654487798,1.1582569801955,1.24551833654487,1.20867875015754,1.2536785971708,1.23140642438636,1.2551010465645,1.25454539267351,1.24431465059029,1.22152938691743,1.21484189800979,1.0685127715764,1.07026831214171,1.07025919390165,1.07135529656397,1.07131065041725,1.07146907964771,1.06958675898038,1.06633857828368,1.06431645399601,1.06367389412687,1.06370524639207,1.06359001167756,1.0635965545092,1.06483841754339,1.06711731693015,1.06767380526246,1.06771133616391,1.07771943518624,1.07695358459087,1.08161030176446,1.08963514401522,1.08920865727429,1.09943315503875,1.1064191495421,1.11109316738231,1.11206899533718,1.11230183662399,1.12208769617731,1.12782522750461,1.12812540514329,1.18419726920471,1.16747266591685,1.05367893864569,1.05365718303154,1.0553611003205,1.05392415551535,1.05174303574563,1.05169737838465,1.19901668670753,1.22359955529014,1.25128481913471,1.19453064669811,1.34498267004452,1.02448532911618,1.02428306920828,1.02256754786121,1.02181504456265,1.01993238563506,1.01963534218151,1.01705807436124,1.01485472726316,1.01338573240317,1.01188207485409,1.0104535419034,1.01145682267389,1.01037351092794,1.00993324040068,1.01093197029511,1.01077400525868,1.00864462082772,1.00807144993056,1.00792029591268,1.0076830717873,1.00764538502525,1.00778497006748,1.00716566996436,1.00680629975621,1.00655102201536,1.00620055992944,1.00614211441613,0.995033205603876,0.99542460161571,1.00055275806686,1.0009838091555,1.00080320127169,1.00027566571593,0.999907059078541,0.998336971513085,0.998018377358425,0.995042778543289,0.995745988940781,0.995390215123951,0.996278103822194,0.995595067495529,0.995864493514548,0.995872600268669,0.994460836871889,0.994994146569115,0.99431356645397,0.995434731898642,0.994330583507362,0.994877362046789,1.00190710562911,0.99151301142281,0.991730682422263,0.993041025644083,0.992318707152225,0.993223327272629,0.990635349911385,0.991122801909572,0.988458667870621,0.989322096006653,0.98712182946461,0.987895978774486,0.988018062049861,0.988950386365934,0.987910502683496,0.988169609012056,0.984141340189079,0.984981192623125,0.983329926591682,0.984741358601672,0.983485860643404,0.984433195524939,0.983426969109154,0.983415227072369,0.980538490958812,0.97964373988229,0.970014230186689,0.970250298495644,0.969795242443481,0.967612630915502,0.967456050938319,0.967852392224962,0.969032528206042,0.968397971172342,0.965724158431312,0.966399636556024,0.96366128152965,0.964405823336104,0.962824444959723,1.13440482000582,0.964093625663849,0.963788479921803,0.964635949240313,0.965083679738017,0.966089297680807,0.96787186891126,0.968026028778844,0.968593592228867,0.966337575768152,0.966459021006534,0.965341180424574,0.964974390187352,0.964154617533701
1.10421161960836,1.10300923949881,1.100794186498,1.1017155812795,1.10381989532556,1.10625171823586,1.10885541793552,1.11185430606577,1.11523886813624,1.11854776891633,1.11997229765222,1.1259313577053,1.13378760628146,1.1360932596938,1.13823986940431,1.15850542284185,1.17380269635041,1.1784230123101,1.18033066901968,1.18384302727051,1.19268590757077,1.20404670305649,1.21906832978824,1.17028389966457,1.13661112048267,1.0875260623014,1.08155008131406,1.07054534562035,1.07053855998635,1.07014531591052,1.06949272057213,1.06817099099656,1.06630714702575,1.06551207440999,1.06546038148364,1.06578105143132,1.06612926437173,1.06650920121278,1.06825478303774,1.06918770937857,1.06974161653287,1.07537263265491,1.08028943978736,1.08349076797625,1.08663649064638,1.09130539427584,1.09358344619334,1.10198094079748,1.11029276939222,1.11105429102091,1.11337207848344,1.11658557556303,1.12576306250344,1.12834069551575,1.12879951527806,1.16840376696094,1.16727910435838,1.11648391484535,1.05494194967172,1.05533996726811,1.05431916080205,1.05249734248363,1.0514448167017,1.07453221601071,1.08969972211812,1.10179004620092,1.11385452461481,1.1299225951725,1.0258444194991,1.02533612490365,1.02428623268965,1.02262342829407,1.02100291683832,1.01965963685068,1.01801764830266,1.01637243878801,1.0152036156901,1.01413183995126,1.01355759273006,1.01337905103298,1.01279483577127,1.01153439240766,1.01120370650536,1.01075860371806,1.00989415103269,1.00939689628441,1.00904652820317,1.00870174841356,1.00830954514495,1.00796044246275,1.00736599391078,1.00693200915695,1.00659047247162,1.00612120278495,1.00520531732653,1.00300409949027,1.00002310067013,1.00043547177745,1.00103187689713,1.00097847647936,1.00053385914598,0.999588143244151,0.998555556880757,0.997452992941582,0.996477051565709,0.995611467563644,0.995730534231309,0.996065314277968,0.996682198751178,0.996836788791719,0.996745467582653,0.996505697850232,0.996328692513105,0.996313285956329,0.996289783370109,0.996711336042487,0.996664182132395,0.997675149102358,0.994386198138161,0.993678128288799,0.993407541881712,0.993526780069572,0.992445503220628,0.991933526882949,0.990161036274218,0.989981684152329,0.988652350504796,0.988491483348466,0.987688502604677,0.988175593976504,0.987836424874975,0.988022101397176,0.98672317547912,0.986276526617691,0.98512237655278,0.985886808240093,0.985101174368912,0.985629542001552,0.985064523983842,0.984615335874953,0.983590682186185,0.981483278293054,0.979903990199078,0.977765463828467,0.974174169343707,0.971140597027637,0.970907174750364,0.970262576078281,0.969395655756468,0.970124436204437,0.969262257642688,0.968188006974151,0.967499734228041,0.966204958571162,0.965147480653482,0.963905561282208,0.963512199129935,0.963641382067176,0.963500339673693,0.964646630415333,0.965773148429463,0.967123673128082,0.966951058739579,0.967202383709742,0.966954846520744,0.966765440379617,0.965863857336457,0.966159860857899,0.965843353858772,0.965360414038138
1.10403622064321,1.10333081913117,1.09801763570021,1.09727232798382,1.09479380216995,1.0917875855096,1.0900125385079,1.08761234615213,1.08629674910283,1.08589539388197,1.08515438126391,1.08580909736351,1.08549085194358,1.08607873419874,1.08492473055163,1.1619940864487,1.07754299515504,1.07753154617326,1.07715396800399,1.08148342215401,1.07679458703025,1.07705886382887,1.29210561049872,1.08420698443653,1.08454767468064,1.10401816887184,1.09231541117631,1.07178923070165,1.07065216964483,1.06950593571038,1.06811121508468,1.06702216062533,1.0652335976194,1.06564724624827,1.06675792169401,1.06749260155328,1.06848864976693,1.23002158493963,1.07052287915838,1.07072640860865,1.07117766983865,1.08213599426319,1.25859225421034,1.08705984078605,1.20679095478693,1.09704588038334,1.09728142279518,1.1042172476242,1.11171675032932,1.11166272068928,1.1230567500149,1.1208130584507,1.15178695985827,1.1290016147512,1.12958686091769,1.17139318979234,1.20125312094108,1.20020755501413,1.05508944504519,1.05531689542611,1.05495483793314,1.05205683398769,1.04978343113749,1.04723681342081,1.04520791981214,1.04405701946085,1.04315346043679,1.15973851113626,1.02734054031207,1.02641772218334,1.02623785137103,1.02314375900466,1.02164164522208,1.019932063588,1.01889157361323,1.01745740800864,1.01678292771712,1.01588317551156,1.01607445806179,1.01551282231151,1.01607901971801,1.01179204718833,1.01147022700433,1.01119937303179,1.0106328969122,1.01065308168316,1.00998898033364,1.00979645001769,1.00871988478351,1.00819594972331,1.0072764296609,1.00686518376322,1.00686882897524,1.0064373877983,1.00604309067933,1.00451035275811,1.00062728857989,1.00040958621088,1.001303793725,1.00105493487212,1.00042941599629,0.999857072227778,0.997814362421959,0.997739092235168,0.996665990194873,0.99549689232238,0.994845899611943,0.996192109455371,0.997675196448947,0.997881656383912,0.997808574345643,0.997921081464425,0.998143331993616,0.997364134632369,0.997586385267895,0.998199294924397,0.998418132410468,0.996603578476849,0.995169292512678,0.994804989352692,0.994711215768304,0.993782153034682,0.993852165168968,0.991272578474189,0.990948710574663,0.989382290757829,0.989707133023606,0.988182165050109,0.987785251777119,0.988239656138319,0.988037229748209,0.986850972856598,0.987955823086545,0.98513108686038,0.987458943752869,0.986084913531152,0.987501310322168,0.986283099322863,0.987108515016857,0.985716692052175,0.98584221398663,0.980895610652156,0.980699985728233,0.978727889746349,1.32541544438048,0.980552298093705,0.973531434097774,0.973496743131954,0.969491359120496,0.971820767880825,1.22626288139773,1.22925433772345,1.11718294759579,1.36488105001671,1.37232087139529,0.963471842920777,0.963077837110265,0.9633369524747,0.96206437985697,0.964344174309024,0.966978632196701,0.968167935620368,0.967106863968879,0.965837950505533,0.96669971325635,1.23946114798904,0.964248088186753,1.20544383135893,1.37212868246897,1.01201998255782
1.102937695505,1.10133578183034,1.09848263619593,1.09716121873577,1.09573638890363,1.09370032317267,1.09140669017124,1.08910529504304,1.0856099442964,1.08532232546852,1.08486158614874,1.08571941684109,1.08590446236606,1.08615539753607,1.08626839789645,1.08781524449019,1.08943995217276,1.09091140596474,1.09236712205512,1.09357827817739,1.09383459054159,1.14703854433657,1.1805072220388,1.08553947281058,1.08636994410075,1.08807133266918,1.09054401181228,1.07870345622341,1.07013700425521,1.06942456608606,1.06869155350408,1.06835100374805,1.06923491381358,1.08381940540094,1.09635368821933,1.10598433005977,1.11592570860506,1.12817526591689,1.11612522888501,1.11801801647038,1.11928668687277,1.11958468926501,1.12616358187416,1.12935739724203,1.13090293435729,1.11997952247146,1.11646256477319,1.11362345776131,1.11219292264885,1.11296678904036,1.11571478423845,1.11868482273254,1.14156850014783,1.12761059424911,1.12791827878112,1.17777080353937,1.19209013271086,1.19615690198654,1.13167962803548,1.05566678710777,1.05535339735944,1.0533920429902,1.05024013821114,1.04681730983873,1.04489555952003,1.04310206920909,1.04193859459645,1.04128549289577,1.02712202030529,1.02651413662282,1.02578345748303,1.02396018905026,1.02247020316839,1.0211557067622,1.01994883293935,1.01881649801265,1.01756584008827,1.01709270777017,1.0171603622356,1.01661167764392,1.01560454431668,1.0134597287246,1.01237242992805,1.01163579664264,1.01109540604324,1.01066020827852,1.01042350982408,1.00991852572775,1.00935845323837,1.00869509121839,1.00793559895211,1.00741046561616,1.00685535331304,1.00653131093399,1.00607735522372,1.00478054867604,1.00103755609961,1.00015571083055,1.00090530882296,1.00069107052769,1.00053792307612,0.999623309583746,0.998646423315837,0.99713103236231,0.995884355152472,0.995039120151636,0.995604243845994,0.997549893176985,0.998598665940594,0.998880954164519,0.99904409619768,0.999162932698414,0.999130473983718,0.999393060661643,0.999759509419032,1.00019163490495,0.999653042174042,0.998223013208888,0.99684895873033,0.996357826131649,0.995691113962839,0.995300148340238,0.993975290679608,0.993173946206711,0.99156319097009,0.991205146185308,0.9903698933047,0.990801239886833,0.990324890576218,0.990371130987166,0.989902600669585,0.990185435450126,0.989293287665062,0.989435381205012,0.988627070329759,0.989275635385969,0.988152039716965,0.988363194554791,0.987495764202529,0.986577325371765,0.985324010798324,0.98441347494555,0.984668020762578,0.986144725854991,1.06727502525833,1.03376140398051,0.980134900721003,0.977006141958933,0.976662784772427,0.975553799571298,0.976202111862962,0.975629012615988,0.974491014806493,0.97277093042061,0.971906922563844,0.965019527675699,0.964707089942985,0.964505246263878,0.963822190517236,0.963893390266185,0.964076192472121,0.964581117046799,0.964317159845094,0.964098821861682,0.963651331153556,0.962300571263211,0.961916751644544,0.960633332063131,0.960206912054362,0.960279864228632
1.10157995922375,1.099874446737,1.09776263105966,1.0966931350421,1.09694417933773,1.09581583835333,1.09287662696912,1.22056263880387,1.08073106786322,1.08391355193572,1.08239740058356,1.18131188895774,1.08612586202066,1.08626155478187,1.08680393845965,1.08769685970882,1.08868277960162,1.08970170559393,1.09346579888842,1.09370215481331,1.09951084495888,1.2949743072776,1.24137038189711,1.08666250289882,1.08764831686124,1.08823027322195,1.09112562492357,1.10798138661994,1.07097136974244,1.06971846138273,1.06896763536873,1.0682932458103,1.06980732091072,1.10333418091523,1.10652465669254,1.13842649488727,1.1390851812203,1.13922341975441,1.1148344576284,1.12159543758624,1.17917894775305,1.11991084929337,1.12331465076047,1.13100610122936,1.131711466943,1.26291112722414,1.1284581638184,1.38838140036822,1.110611724874,1.11188549935037,1.11042280314515,1.11053925312725,1.38623956932723,1.06654282348361,1.05686362372145,1.1836856255226,1.18898246712304,1.29779454335645,1.26889436639536,1.05780212417035,1.05755433393692,1.0554729007623,1.05091197936394,1.04506747779803,1.04432119273723,1.04113589507933,1.0390499645542,1.03847535166299,1.02793664155291,1.02678742983924,1.02625623012413,1.02426778456527,1.02295283906922,1.02226481899295,1.02070695246297,1.02033147211517,1.01725029349279,1.01744697267912,1.01850936942882,1.01797667227364,1.01641316430934,1.01369160579649,1.01271988249304,1.01201741991249,1.01122354390908,1.01065958852294,1.01091532907076,1.01022626300667,1.01000041061818,1.00928209200919,1.00837098277297,1.00794011179085,1.00665631922255,1.00674539481031,1.00690530677686,1.00758255234939,0.998688492400299,0.998266905356967,1.31193450782839,0.99968500304932,1.00045481083135,1.00002478128132,0.998813240492282,0.997630907305337,0.9929793518621,0.994155168330316,0.994115860420141,0.999893320128749,0.999868020713034,1.00011481127864,1.00025451265476,1.00038767808681,1.0000510827457,1.00094213353147,1.00233118349355,1.00264309382022,1.00221895372236,0.999326267374662,0.997973131494414,0.997690905622912,0.997288630744685,0.996217093595664,0.995502596177894,0.993651196586176,0.993255379617232,0.991213899633922,0.991842709856995,0.992625808479749,0.99357553545381,0.992229308289841,0.99279071853237,0.991992609260412,0.993095985869119,0.990729006278891,0.992448831497784,0.990324662256271,0.990831125693207,0.988921364190813,0.989457562829217,0.987157469526445,0.985395760865649,0.986046783194975,0.986547893139124,0.98642919430419,1.32029830948893,1.44541613193476,0.983258365962663,0.978065548656396,0.977099250772686,0.976742186651164,0.976254465494983,0.974561061889941,0.973342697855258,0.970527726341497,0.96995016478858,0.966638661715967,0.966336481350984,0.965919970234573,0.96488905055219,0.963070839142119,0.959969598961969,0.958363958671986,0.961960150219326,0.961626670889391,0.962076946413227,0.960597169233524,0.960271288589749,0.958448261547444,0.958636763332197,0.959181617633996
1.10330309302931,1.09978039903516,1.09709633829901,1.09547692675926,1.09494138861379,1.09433638157009,1.12764908359444,1.14227356785841,1.12761638282954,1.08541484551237,1.08413881851652,1.08455784201186,1.08558554616522,1.08636947196289,1.08717314372146,1.08813273411915,1.08880831812256,1.09024537556541,1.09248726937363,1.09408260019285,1.09666826693699,1.09659587801365,1.09658879962065,1.09504020699755,1.09042462347979,1.08704332948729,1.08429220138341,1.08168888872034,1.07878659331948,1.08715639320643,1.09336862176093,1.09903212926083,1.10350350587775,1.10733915122756,1.11229231602197,1.11866618761055,1.11938241074647,1.12202459159638,1.12799931987842,1.13127774314701,1.18669860331261,1.19524483753805,1.20883669553793,1.22231552251465,1.23491970716179,1.24837413377691,1.23881938555904,1.23228463268867,1.16307556322081,1.09918659178523,1.09836628651844,1.09014636528283,1.07906698124635,1.06275699327557,1.05945449522324,1.10571468913695,1.21765904909718,1.24353188269667,1.15341704252376,1.06167056148731,1.0572395107004,1.05491736535031,1.04693830138243,1.04523120571649,1.04392299398823,1.04136365584075,1.03732187862106,1.03491187076475,1.03077980432011,1.02745383651199,1.02609925309663,1.02486065410913,1.02384382749392,1.02353424896685,1.02297163772666,1.02272504350118,1.02281964140499,1.02175335088656,1.02063446312596,1.02011798230468,1.01863661865201,1.01592346255241,1.01436515076446,1.01328028427586,1.01241214564538,1.01164116968179,1.01154653721346,1.01123931932734,1.01058777758365,1.01005195397545,1.00944013539783,1.00904038262682,1.00841824651101,1.00800970405653,1.00820437762745,1.00849761617304,0.99620242342748,0.995718826349344,0.995882499927806,0.996947961728042,0.99758575580153,0.997314023778495,0.996703232939229,0.99549293321349,0.99481568005899,0.996818599052157,0.999006058381964,1.00070776495606,1.00116355964836,1.00119865114054,1.0012586352208,1.00146934104756,1.00120002045357,1.00122645546772,1.00150498120152,1.00174273567208,1.00155932885011,1.00054980171704,0.999800884935477,0.999510936859797,0.999194525096782,0.998754730843839,0.997619873603292,0.99655089975271,0.994380671613021,0.994154129473996,0.993503479633179,0.993640784860412,0.993503191032517,0.993357112497474,0.992943216187136,0.992967809155802,0.992071686533901,0.992362280202295,0.991397283256638,0.991525245057238,0.989837089820164,0.989689270678175,0.98872637678807,0.988013762016732,0.987067794155276,0.986939330824862,0.986335855310539,0.985497294824979,0.983200285701127,0.982168763523426,0.981042316545292,0.979345163580743,0.978523725406316,0.977725072603552,0.976353930004499,0.975107023387179,0.973573927655546,0.971766006689234,0.970027219749991,0.966640075770503,0.9655458441552,0.964970178475743,0.964179288802555,0.963267930810944,0.961677301370728,0.960630004349657,0.959817348325673,0.960201381288097,0.960297389538164,0.96021710668015,0.959704768197873,0.959410011289321,0.959095573987509,0.95898978267354
1.10696054185257,1.09909126606645,1.09494743239985,1.09315215199736,1.09278176526573,1.09214511045142,1.17062098255035,1.1693989301158,1.17775820021613,1.08612034627197,1.08313570967335,1.08297982307263,1.08540134032575,1.08577370763563,1.0880547662013,1.08828281539201,1.08865915830843,1.08926285293841,1.09216918347785,1.09330798863285,1.0955719438644,1.09598274383482,1.09705328962079,1.09805213692327,1.12939351189824,1.08464980127827,1.08243681665929,1.08163549855561,1.07591338276418,1.0987532463418,1.1382235348523,1.12948463386068,1.11847944324595,1.11900111655163,1.11879349979854,1.11908199182057,1.11924759661309,1.12130962544476,1.13142731944284,1.13281920532125,1.27322648430309,1.37673964110245,1.37871803499421,1.3825211292068,1.51043669507493,1.39535931135518,1.29090385864473,1.22432488665003,1.39041662443431,1.09100003341043,1.02867317713011,1.03095101608121,1.032590460343,1.03103415868986,1.0289150009731,1.0290680257401,1.2652794186075,1.43006472755049,1.05776073070507,1.06923374017271,1.42720572231478,1.34763815277682,1.04455924674503,1.04485011672201,1.04468600982836,1.04194601317902,1.03383456928641,1.03278275523973,1.06832711650503,1.03782414076385,1.0489709187439,1.05675629146707,1.05681429368862,1.02523318701516,1.02484485880475,1.02536645888896,1.02524607677584,1.02464460995586,1.0255073021558,1.02264905550485,1.02296919551506,1.01736701143966,1.01524400922631,1.01448678209107,1.0133419169749,1.01213779205381,1.01229405224387,1.01266010268225,1.01104253527978,1.01085112274426,1.0103611713429,1.01032776273462,1.01011454073388,1.00892756106164,1.00857228363332,1.00811587353789,0.992116451387434,0.992663563818707,0.992820685447632,0.994799642106741,0.995075993372163,0.995507371775496,0.994684418969248,0.994604393937626,0.992856557398739,1.00177026938738,1.00173298071685,1.00312168418693,1.00258881253898,1.00249392427815,1.00201728120104,1.00309103835995,1.00204448993585,1.00121722588015,1.00081947914717,1.00112378817398,1.00188924462598,1.0013219086165,1.00130075161519,1.00112420370779,1.00165896314711,1.00124016517965,1.00058205936349,0.999682241253756,1.10148264785093,0.996573081278875,0.995366390735419,0.993969080437333,0.994158229340741,0.994080648244596,0.994314180710939,0.992240020859122,0.993301739247748,0.991343544839982,0.993349586354321,0.990643454205767,0.990672823553431,0.988686949162795,0.989267321146986,0.988489852431887,0.988271554813719,0.987952223365796,0.986687506429666,0.986177501525763,0.982431185784922,0.977710775160827,0.979350057398117,0.980013913017664,0.979875676035305,0.978764731614958,0.976509498947468,0.975771343153442,0.973864695234898,0.973114759659028,0.972012236719599,0.96481475533602,0.965112907585396,0.964388896800755,0.963656267423345,0.963530664898875,0.96278039153427,0.962079357248829,0.957338814740374,0.957874237467162,0.959513076068962,0.959351132108214,0.959521273636699,0.959697332382847,0.959748106484238,0.958914524003812
1.10668915133779,1.10019136444689,1.09609052737206,1.09432036820624,1.09285281399424,1.09192999642537,1.09126183671009,1.09058007984257,1.08963590593548,1.08799001594532,1.08611908045406,1.08542885205937,1.08500417353145,1.08543092027293,1.08610791048486,1.08703189984041,1.08732033643077,1.08842127327884,1.08966182099924,1.09127001368506,1.09284024154912,1.09443045331581,1.09648086411167,1.09854604687089,1.10079555390111,1.10319900673631,1.10466534208037,1.11024494909699,1.11370707711672,1.11524947663282,1.11617891366041,1.11619790155165,1.11762594231509,1.11914755042984,1.12028450419833,1.12211293553929,1.12573940207068,1.13004784179284,1.13297546153093,1.13454643416837,1.17559735266022,1.19244642970472,1.20906563336642,1.22529426941632,1.24094810283429,1.25705012199408,1.23275636549473,1.20664747471098,1.18595854734382,1.0860706063078,1.03200655073098,1.03254622874277,1.03286100792742,1.03137726280562,1.02848677717118,1.02796867100672,1.05041578541409,1.05977540434865,1.07170497176246,1.07564967640944,1.08807089206745,1.07227976385949,1.04509561246766,1.0451178340456,1.04359858502108,1.03722705408597,1.03389903143924,1.03178919433591,1.02746319790801,1.02406239729925,1.02269166917625,1.0220959213864,1.02226621179873,1.02295133360245,1.02321675734379,1.02344872803175,1.02374342031692,1.02367671839926,1.02323953901011,1.02209236032982,1.02123913416404,1.01865126695949,1.01644109634689,1.01508310748863,1.01412528651859,1.01318103042437,1.01276858407432,1.01268834712694,1.01215212820968,1.0119834195178,1.011701678379,1.0113684526448,1.01126570253172,1.01079334021756,1.01081925676424,1.0106688899673,1.00031202369791,1.0011529234422,1.0001841721326,0.998621664013539,0.997840536922887,0.997968355086893,0.998567656231713,1.00013422314977,1.00192610546713,1.00270993135251,1.00354638549551,1.00399497326358,1.00415694882363,1.00398258148445,1.00375575002031,1.00372364315947,1.00326481477091,1.00266927258082,1.00232691758039,1.00219319730894,1.00189400316126,1.001639779076,1.00182858948776,1.0021302428012,1.00248431188136,1.00251223226747,1.00168057320001,1.00115282727336,1.000885216533,0.99886782507135,0.997525185414458,0.995808845777126,0.995427285481999,0.995333327570618,0.994904858910966,0.994790308018467,0.993939271614802,0.994400231219512,0.992965534229589,0.992087302627005,0.99024661783843,0.990071580486164,0.989297988169538,0.989141281636511,0.988758521433409,0.987945204344577,0.984987017262423,0.984099460497902,0.982391542396257,0.980504942864166,0.980326953528792,0.980776309250867,0.981113780282539,0.98097200557494,0.979391391700393,0.977171247723379,0.975218348193463,0.973644672368386,0.971167251368141,0.966830756775683,0.964814581280414,0.963988208022781,0.964085246190638,0.964189560208316,0.963382962729885,0.962591047537398,0.960526696925989,0.960679204328734,0.960519019861143,0.960831995978252,0.960741428417592,0.960555198530356,0.959756353246293,0.958775087938919
1.10716716094031,1.10224079813093,1.09681558978964,1.09437935660765,1.09186423297868,1.09111217420661,1.09035210756856,1.08968477229155,1.08884253225667,1.08835585515674,1.08729705959429,1.08655796704481,1.08427898078821,1.083864619285,1.08472493633766,1.08550301676431,1.08584694055725,1.08669084944097,1.08686116505475,1.08874314203322,1.08991511181756,1.0915535230397,1.09641320986587,1.0988100588923,1.10032496481477,1.10315767062193,1.10338291890421,1.1259352985303,1.12641490154775,1.11535706832173,1.11597974109499,1.11592004264298,1.11723994548295,1.12058212507196,1.12116100595583,1.12468332771276,1.13719597657332,1.13342307783082,1.13542557441735,1.13707862937875,1.13835844194183,1.13843769782148,1.13907454229009,1.17065506222339,1.20859358219251,1.29514875230307,0.00410458587234057,1.13103260728362,1.17544812696004,1.08393287532124,1.03350856689555,1.03452091108862,1.03472025135897,1.03280488112397,1.02578579025067,1.02623902651314,1.02616300394648,1.02630511035724,1.08686717432557,1.0818087606833,1.0968828903599,1.03422522954743,1.03417371652093,1.39316902269513,1.03994068598279,1.02489234434932,1.0248488675196,1.02380734016997,1.02363106418906,1.02356034185436,1.02287118072984,1.02209576373203,1.02196010358226,1.02153264541013,1.02122101139193,1.0219597272311,1.02218574562962,1.02353229106837,1.02188831750401,1.02161974932826,1.02093512472036,1.02080259697287,1.01611800778666,1.01543587157161,1.01492721042412,1.01380076665553,1.01301919822547,1.01310180269392,1.0129661381763,1.01308031688685,1.01318073782933,1.01205205647478,1.01284232699576,1.01246390277613,1.01216682519581,1.01328155267678,0.999116361292066,1.01615839775318,1.01443384799676,1.01436208359285,1.0133040203114,1.01203102624935,1.01062219596081,1.00114061941162,1.00214997208864,1.00394267493718,1.0051919482668,1.00566560142256,1.0058309284613,1.00564517821398,1.00524275431299,1.00484629101878,1.00458901544636,1.00388513647315,1.00363985476231,1.00339440621006,1.00190164262034,1.001441652992,1.00227649109286,1.00298358826062,1.00375596182892,1.00443865169212,1.00267719500781,1.00229858576914,1.00262424053171,1.00031529819578,1.00007457966765,1.02208255418795,0.996508122084404,0.996272221712255,0.996656398412447,0.995525873659005,0.996622594141115,0.99543519848836,0.996382727153919,0.990333790842018,0.991580219117688,0.989517574370871,0.990190804077169,0.989504842570143,0.989696672358179,0.989939402324392,0.980905412256834,0.982975746576277,0.982918372301006,0.980765722110165,0.980847024209249,0.981080150537583,0.982581939457178,0.983801342540728,0.985913167205104,0.986597351786793,1.10677423032598,1.36282480102396,1.12550798308363,1.29856340328999,1.28532472228728,1.29511644132457,0.964890131094237,0.965140797600674,0.963877974759407,0.963254596025379,0.962117081435351,0.962660740261055,0.961610939289138,0.961801818249449,0.962346587744597,0.961342290004749,0.959962927161537,0.958126433832629
1.10832445444335,1.10551546250271,1.09761967624974,1.09540457516125,1.09294734002736,1.0918132319115,1.09081166338443,1.08992651650694,1.08915305122021,1.08846538430247,1.08723364110554,1.08581627561181,1.08404954456395,1.08367118604627,1.0837207812213,1.08454825262112,1.0848138662066,1.0855422576058,1.0859934772758,1.08689602932495,1.08771885744041,1.08995220167487,1.09285422636511,1.0971415807024,1.09926155218122,1.10055132257785,1.10143694991416,1.11121677277448,1.11332265330776,1.11528042920178,1.11850919869869,1.12241638432207,1.12480334479344,1.12745435344684,1.13010297458588,1.13326118641645,1.13682448489539,1.13808551145966,1.13843485445869,1.13960807665835,1.14019566054743,1.14494409055334,1.14906743245869,1.15654119540635,1.15469340635973,1.14134627547406,1.12057615108796,1.14655511575343,1.15942742081733,1.08061328999354,1.03763590755163,1.03539857534399,1.03223453661448,1.02957686068298,1.02661235596914,1.02580210106898,1.02574487003288,1.02596911626473,1.0264239699643,1.0269818611144,1.02672437645389,1.02675429850814,1.02613071364648,1.02553556401205,1.02490666739101,1.02429292118527,1.02425073699756,1.02406770154426,1.02442548963266,1.02428990881869,1.02430826774231,1.02395298054757,1.0236988782479,1.0229391095982,1.02259327042051,1.02253803563341,1.02280230419606,1.02269813642859,1.02201538361371,1.02148329620051,1.02076661646208,1.01986983211618,1.01831861761306,1.01733565498253,1.01654099446998,1.01622056476083,1.01602530075697,1.01549445726635,1.01467349790844,1.01425881953706,1.01357979525654,1.01279147749964,1.01190742438353,1.012377975526,1.01279749578034,1.01321606862223,1.01377803166296,1.01450282837677,1.01386383019184,1.0135485811804,1.01252084535278,1.01143494496383,1.01029965507163,1.00857461666464,1.00674925114493,1.0063503145363,1.00697421373458,1.00739574316958,1.00767622053707,1.00745361176262,1.00731020237171,1.00721490865101,1.00686847704535,1.00638427381704,1.00581029961492,1.00529793449412,1.00435140602775,1.00400136596853,1.00390736590351,1.00379497944031,1.00385727826137,1.00347786305393,1.00275924847067,1.00216982548397,1.00199423630935,1.00120191880922,1.00064466615818,0.999907390583099,0.997899870525572,0.997112265911777,0.99640809245231,0.996247254660979,0.995157029727484,0.995310801734215,0.993534067152254,0.992386198177115,0.990365308681591,0.990286267793584,0.989642466446345,0.98950584140004,0.989180270428667,0.988350550962399,0.985621076964665,0.984722806763866,0.984328020256243,0.983884435567376,0.983702079473769,0.983904461013883,0.98431774519944,0.984820378643301,0.985666363410052,0.985825593122446,1.04650031786563,1.29603864102131,1.29700061625228,1.29753186332189,1.28584783464954,1.28979025259029,0.96726000767948,0.966979430135548,0.966313706304052,0.965299904251497,0.96350855806265,0.963046224609591,0.962368629086683,0.961966934636945,0.962120103573092,0.961578735104178,0.960620828356832,0.956196442969057
1.11196848079224,1.11143925456334,1.10089250297195,1.0971039670544,1.09269453075246,1.09210765532743,1.09066905609472,1.08974289969159,1.08882347323381,1.0883733312423,1.08727885506383,1.08469194649937,1.08312985978417,1.08234229246638,1.08296251410985,1.08338438378282,1.08404638415857,1.08395589877855,1.08486901909091,1.08486557141749,1.083770155869,1.08520000564145,1.08885836300514,1.08843413998333,1.09893578748544,1.09884714366901,1.10019617878493,1.11019138710051,1.11390925336162,1.11460697725315,1.12013964353106,1.1251841907977,1.12724113461032,1.19289306166994,1.13628789699418,1.13911200474116,1.14114199349042,1.14043030292347,1.14115889583958,1.14171587426186,1.14199541404593,1.20951592869639,1.191127771095,1.29702891443004,1.10434792202916,1.0985145162976,1.09831066641804,1.26495959802587,1.26759569776862,1.07123402372599,1.04060239278134,1.29903506386662,1.03122085669309,1.02675629831647,1.02502119857079,1.02446565387962,1.02466406419555,1.02487129553463,1.02491277000878,1.02600551087831,1.02483667694047,1.0241577994689,1.02459785856238,1.02630127865711,1.02513716144445,1.02425789688644,1.0239968573936,1.02458185443895,1.02572078278292,1.02533583366548,1.02601207826136,1.02626139525406,1.02542412545883,1.02458269123317,1.02291239392683,1.02350468721269,1.02309925732896,1.02292873858422,1.02168025162009,1.02164164372345,1.02081349463562,1.02013738673923,1.01968771199957,1.01908932005616,1.01805111323103,1.01843491446816,1.01972414329877,1.01794789181384,1.01612743340754,1.01545776656525,1.01415689932079,1.01341654782693,1.00953755746157,1.01229876972507,1.01284177155976,1.01230092241995,1.01220272193969,1.01343712790882,1.01229540570351,1.01232742798068,1.01112373247732,1.01072917646388,1.01035132967358,1.00923920719468,1.00866368499053,1.00858641795357,1.00882212324481,1.00946410329306,1.00993700995614,1.00919445736225,1.00940300546164,1.00969378204807,1.00947818689929,1.00875090673344,1.00815739762863,1.00740716784567,1.00641748461411,1.00613223060779,1.00565958379497,1.00435626512311,1.00443667323652,1.0027798515723,1.00271481641804,1.00167471092332,1.00180272571519,1.00185454943533,1.00100458843317,1.00077324832712,0.997843901104037,0.997178766069639,0.996909925701058,0.995450062128951,0.995613687013529,0.993356564507885,0.994214163735533,0.991319181731322,0.990477120292984,0.989196259835756,0.990000054453769,0.98919117152188,0.989189498796032,0.988811248539476,0.986856656770216,0.986024993844686,0.986014873831754,0.98612297785845,0.986368577776019,0.985993145194538,0.986004949119989,0.985407348791157,0.985400924660054,0.984855974331549,0.983528202254418,1.29711231306011,1.29953979922216,1.30784942932268,1.1387242524792,1.31417325264529,0.968953466402304,0.968401180413357,0.968683721762044,0.967564501947155,1.09395683380392,0.963157682405468,0.963035607403288,0.960961678187455,1.01158711963221,1.0136158826712,1.20405794078215,0.953905994547198
1.11163897620198,1.11151347563836,1.10520171388088,1.09598635913507,1.09442721003276,1.09301823507905,1.09182787159004,1.0908953344686,1.08972481997149,1.0886928268562,1.08740419528005,1.08562236323817,1.0834082806458,1.08174037179433,1.08118307580925,1.08137082012677,1.08113829194012,1.08194680152252,1.08290898953572,1.08388294210468,1.08466170859162,1.08672568308756,1.08855822556471,1.09033881733319,1.09860935034357,1.09911904721445,1.10095498161895,1.11114025241242,1.11267962072176,1.11326210195942,1.1244800715748,1.12735183340061,1.13041831206006,1.14831398024977,1.14525895737258,1.14139427022004,1.14019249876192,1.13999528852275,1.14103294819144,1.14322791329164,1.1443731602295,1.14425831379597,1.15892963035751,1.12730026783359,1.09736624644568,1.09123964845207,1.08238782977049,1.07111372421649,1.05901645736235,1.04763013031933,1.03677865121847,1.03469179256313,1.03137491182586,1.02870781519496,1.02746403315661,1.0262587841081,1.02595563226287,1.02581529181191,1.02579229848408,1.02591728043691,1.0254563154746,1.02484160527345,1.0249569710036,1.02497068124878,1.02490278990505,1.0243952881604,1.02454501723565,1.02439455537204,1.02493348984556,1.02501224480236,1.02533212762194,1.02546111747798,1.02543863306143,1.02478984097729,1.02432918696528,1.02378771367985,1.02361481951076,1.02320940396712,1.02290366265818,1.02247351545944,1.02181781520771,1.02127014579548,1.02070389089212,1.02018280280009,1.01921275974468,1.01894237604042,1.01877883014467,1.01834040698634,1.01769748675828,1.01734387576373,1.01604520779033,1.0146728153931,1.01436448934465,1.01374685612535,1.01329711687533,1.01304096616066,1.01287235399135,1.01276547377881,1.01217919825809,1.01207348182413,1.01165576316022,1.0115171560359,1.01170849263232,1.01109540915561,1.0100449892519,1.00986631400304,1.00999522298224,1.01014615555333,1.0102588179021,1.01004650746586,1.0101054955466,1.01020452342993,1.0097371078669,1.00908979150888,1.00827127546813,1.00754248817215,1.00631444940373,1.00543940504942,1.00457780541941,1.00363011953329,1.00290506214203,1.00208150840154,1.00157840485307,1.00106921718383,1.00080746559559,1.00094155606166,1.00074515371669,1.00022679908268,0.998529791829103,0.997131287858242,0.995928651284847,0.994834883215898,0.993649180723327,0.993751782574793,0.992299196514538,0.99171637272342,0.989610768297574,0.98925909393033,0.988684537589115,0.988702244938893,0.988332438665089,0.988143062348566,0.987443790136629,0.987293926509681,0.987454096013492,0.98733946314662,0.986330502216541,0.985268428458464,1.0352138218852,1.05981492862969,1.08583775162338,1.11404816986493,1.14483112522761,1.17788880327717,1.20192493966842,1.2259306505775,1.15677106245496,1.15767316128007,1.09330565556216,1.09620199371799,1.09726542385985,1.09685024165528,1.09558099446927,0.961204141153218,0.960708652177046,0.958578334387594,0.954601079431581,0.951270735377217,0.952064641261041,0.952924668299751
1.11238898495481,1.11291080145361,1.11744191314678,1.09738056830767,1.09652918353598,1.0938011683972,1.09253533322839,1.09221688692734,1.09033916341117,1.08906913793219,1.08807603012245,1.08719630181706,1.21432128500118,1.07500328795353,1.07492342978542,1.07502255654801,1.07657591433252,1.07981319954309,1.08124932189581,1.08306415001584,1.0839835363186,1.08750070118844,1.08871976004482,1.09374239983649,1.09748724330159,1.09925302224232,1.10432299186158,1.11007874361309,1.11118006445418,1.11242650367322,1.13112840930888,1.60905783839202,1.45033943576928,1.14899859196015,1.82199073342149,1.21490277749469,0.00404259926057276,0.00439115238197924,1.08751268252565,1.08797979207755,1.08867432730566,1.09714439309966,1.21129752184283,1.02791597823626,1.02936822571653,1.02921890082745,1.02881878131432,1.02823663662714,1.02793488069253,1.02809653008985,1.0271268304455,1.02773778181749,1.02959449651745,1.02969961285474,1.02943137614353,1.02721507123424,1.02664514357932,1.02657424912003,1.02577099516949,1.02588380042812,1.02512251968262,1.02558125002882,1.02432817596787,1.02523606753495,1.02355464327849,1.02549027807545,1.0240223818179,1.02461654378325,1.02387284647501,1.02478585462334,1.02439279526009,1.02547006412117,1.02528351883706,1.02570374059461,1.02489675066359,1.02455965842558,1.02361211983162,1.02387935875759,1.02393602093659,1.02351833392884,1.02293912038733,1.02209144233924,1.02237321056293,1.02119680194044,1.02057102930936,1.01873957849449,1.018850023168,1.01838914528733,1.01923881507586,1.01936730425561,1.02076986669858,1.23264799313921,1.0156857259773,1.01502869115302,1.01383659570989,1.0134821997334,1.01341099356096,1.01251658361433,1.01165441917353,1.01222363045111,1.01191724019728,1.01198937685289,1.0138703038703,1.01360608906937,1.01060406722118,1.01090490916281,1.01108529350066,1.01087404931054,1.01092186704569,1.01053493604023,1.01104251868892,1.01081729176558,1.0107611659599,1.00894324479213,1.00896610696847,1.00754845523323,1.00641545293486,1.00430910877595,1.00384767191875,1.00255517194679,1.00153983389302,1.00090397799021,1.00042719134947,1.00014769982675,0.999201352357371,1.00035964337292,1.00047126695533,1.00064552111881,1.49444564884132,0.995965569953397,0.995773252708613,0.991920667852694,0.993159909036074,0.992301825881452,0.992937759628679,0.990296391088471,0.989791700772093,0.987311639933909,0.987963164975041,0.987922168642957,0.98750179404461,0.987499708538754,0.98784390448887,0.987824189339051,0.989384780154046,0.989036266094964,1.2497923330103,0.983257814830872,1.2481447687278,1.23368537556501,1.24833860075446,1.25016061091564,1.77061586306733,1.14368788548803,1.14593821987678,1.28100879217525,1.1541703320617,1.15691818203443,1.08894982755765,1.11113936224743,1.13357344892563,1.10580512467001,1.16845121110931,0.957233248444797,0.954805577099774,1.07707934214412,0.94435607635758,0.945521013203487,0.951495333905344,0.952785091144209
1.11209052693557,1.11308571985586,1.11297472434247,1.10476714155353,1.10154259608962,1.09103056248846,1.09078998995313,1.09058032503414,1.08997558022968,1.08907761777896,1.0880131742293,1.08514189138827,1.0827262436312,1.07675855107584,1.0756548465626,1.07533869204834,1.07578856728679,1.08072227934426,1.08186988131951,1.08326622464709,1.08498863464317,1.08769860920555,1.09096514208207,1.09514393589185,1.09970391931283,1.10403380397281,1.10765249244909,1.11006669532274,1.11161073176,1.11247321129646,1.15542045554983,1.19555291862759,1.19940845427427,1.13545450311883,1.11033027105042,1.0850907852114,1.05204505295222,1.04838990120423,1.04624471284105,1.04224648073365,1.04007500667781,1.03281624022298,1.03220743963283,1.0294877984918,1.02986194016284,1.03005012755792,1.02980793213316,1.02952269935504,1.02910501216332,1.0290218332889,1.02857007345778,1.02814635703072,1.02824559344127,1.02813791178905,1.02803445480295,1.02732335558573,1.02701292739783,1.02648217477139,1.02608529678666,1.02585958951291,1.02554567166907,1.02497006692351,1.02513576988779,1.02465426393179,1.02495839743962,1.02501130775704,1.02536321196973,1.02501546324908,1.02522508472561,1.0252560777565,1.02531387829247,1.02512131769207,1.02532521551982,1.02511395842883,1.02512433635695,1.02459248199324,1.02462882336188,1.02484740831624,1.0249173446255,1.02473275076453,1.02429513919307,1.02397640033945,1.02360016199559,1.02294165642669,1.02116851789444,1.0204951180673,1.02002244779752,1.02037741800628,1.02049235239979,1.02064526715939,1.02051944584646,1.01901691017054,1.01694927451776,1.01566762796665,1.01460894005718,1.01427579851339,1.0140461653344,1.01382447039669,1.01335570046068,1.01332409381423,1.01339191683257,1.01362848036303,1.01403181367338,1.01365255161613,1.01242063418448,1.01143141590189,1.01090658584842,1.01066625307567,1.01053872758628,1.01031518595657,1.01024347313344,1.01013225941581,1.0089075826109,1.00745831891079,1.00666208419716,1.00598660219154,1.00456320886496,1.00343584070798,1.00227142230557,1.00140198097728,1.00059738028588,1.00007815863497,0.999539594620253,0.999093364964339,0.998914811488254,0.999741623719402,0.999571260020507,0.998156169224394,0.996733197009573,0.994814650797347,0.993340753642912,0.992275423028683,0.991420474066848,0.991452600510226,0.989852183839697,0.989253646445654,0.987653117255507,0.98757774931859,0.987479896699277,0.987878397176459,0.987984115647968,0.988306935862579,0.990898689826342,0.994704213682606,0.999368082847167,1.02083976478125,1.21273750023654,1.21823189325658,1.22471142421077,1.23119343920445,1.23350225614308,1.18072974084943,1.16146688862439,1.14466549675599,1.14621654410111,1.14876331909983,1.15229610823841,1.15464098247198,1.15520484025018,1.15261455871107,1.14550192748718,1.04558244978482,1.01196022558976,0.956360959143382,0.954550030825323,0.952884621860288,0.953576774118029,0.95425499358036,0.953560426726497,0.953908937271535
1.09768551006913,1.18186430553426,1.11041553274348,1.11037098958827,1.12850755670398,1.08880129456751,1.08917353289798,1.08946081371873,1.08991115614442,1.08916438070187,1.08963503648479,1.08327491369189,1.0809165128532,1.07936253529901,1.07554573526955,1.07462330333989,1.07531362378061,1.12053661090975,1.13604570951639,1.13387715374552,1.13155619051912,1.1316050367021,1.13277116558007,1.11225525947007,1.11472750221621,1.11332582281152,1.11091540574343,1.10994580873625,1.09847919117307,1.10073348257669,1.18717408351472,1.19162678526032,1.20379851170654,1.07524354218237,1.0640329340869,1.05379949711984,1.05468585443168,1.05898303312832,1.04738543335033,1.04029088302343,1.0382673635096,1.03013142062489,1.03104510314156,1.02976894769895,1.03076462576389,1.03077249679762,1.03114232576123,1.03057757499904,1.02991203860885,1.03002137584229,1.02973962576239,1.02804853346469,1.02685403497105,1.02676108514083,1.02690309284699,1.02730694189122,1.02717395548493,1.02651192810754,1.02580438856066,1.02605208468622,1.02525103880565,1.02491207917671,1.02473432506451,1.02531313004786,1.02439168239649,1.02633174840778,1.02550131873978,1.02632174117595,1.02581526473619,1.02613315960466,1.0259422586187,1.02513966207646,1.024883683891,1.02529827768944,1.02490730338635,1.02496273054164,1.02471113214333,1.02646127415419,1.02587231642802,1.02611846393466,1.02594326028872,1.02520045659178,1.02620321150637,1.02468922772694,1.02203052115963,1.02089816376545,1.02147366057134,1.02173456865689,1.02209936690013,1.02179207344423,1.02211953770735,1.01927264642019,1.01774115938626,1.01563172307626,1.01511157922098,1.01451138490502,1.01501982875372,1.01513362336555,1.01474057364656,1.01427876710125,1.0146878894957,1.01511245188406,1.01496257486229,1.01456540392951,1.01397436197359,1.01147083822589,1.01046067640857,1.01026409119135,1.01033838562699,1.00976525392251,1.00996148326834,1.00976483959485,1.00859024070065,1.00388211890049,1.00539853981305,1.00407501359336,1.00338075253353,1.00185365837025,1.00086273605828,0.999959293244739,0.999545526199378,0.998932519261183,0.998691037564419,0.997422716065624,0.997443473623415,1.16817338688265,1.16849643832172,0.99598426257016,0.991405267299319,0.992178686310229,0.991186566685084,0.99024929539722,0.991052247989791,0.989325531672882,0.988533120536577,0.986439085117854,0.986076674004754,0.985956348493588,0.987105931497734,0.987310788674744,0.987931654998224,0.987788489276669,1.20285618942884,1.00728613227904,1.00512297281264,1.0416677630363,1.20888534163901,1.21821441049448,1.09092855704639,1.14768835360367,1.23746468736741,1.1375174208019,1.13915206098001,0.957429136332642,0.957270946791474,0.957790888023991,0.957127940375332,1.16487480627986,1.17252151114851,1.15530873486207,1.1811955884413,0.950333124256021,0.949185819242558,0.948609356774539,0.948916743126563,0.950545544696972,0.960469004813855,0.993799849499411,1.01466553937466,0.955066084120103
1.09867144367891,1.1060992575044,1.10771403838418,1.10865099337184,1.10799306061608,1.09639895962325,1.08909925734481,1.08891773388272,1.08822405186806,1.08762678884298,1.08671870618513,1.08431292476286,1.08339578245985,1.08409686296413,1.08736999744751,1.08884681636538,1.08939495399576,1.12925798167213,1.1349111016028,1.13400574784189,1.13314248800259,1.13340238343757,1.13415201680739,1.11998281902618,1.11530037126433,1.1145541797172,1.11355590166552,1.09934441778507,1.09471579802195,1.09410539611128,1.09339473726502,1.0766348633743,1.07406296436468,1.0662276625486,1.05502545306753,1.04993166187988,1.04690616709808,1.0449379415513,1.04203654776528,1.03859592174671,1.03606131832994,1.03323777208529,1.03226589397175,1.03205294974239,1.03176473280918,1.03180379101565,1.03150852701422,1.03145396775571,1.03132314318935,1.03125025344208,1.03093822483189,1.02979149171822,1.02825294477543,1.02514710684418,1.02518586086122,1.02798720072606,1.02807577053015,1.02743470088659,1.02673541099465,1.02672434507375,1.02668478971599,1.02650970576026,1.02662912544607,1.02636046262095,1.02666025881339,1.02646040237133,1.02679291643057,1.02642232772551,1.02686570670666,1.02687352061702,1.02696504434152,1.02639709304502,1.02629659150124,1.02609519582737,1.0266854805475,1.02686537882983,1.02748076733727,1.02802931512346,1.02825971959812,1.02799467973215,1.02778454634565,1.02767959739732,1.027197457994,1.02659937319223,1.02484892982045,1.02447633343243,1.02396998729449,1.02383993956628,1.02305045591849,1.02247783065105,1.02166287681407,1.02003593635669,1.01803411962263,1.01648097484383,1.01534154310972,1.01493841909766,1.01487454013714,1.0150142638068,1.01470154087561,1.01441651594234,1.0144548044532,1.01440247579975,1.01413394855925,1.01277568126305,1.01211608320118,1.01111066870292,1.01027893352293,1.00966474424563,1.00909974319733,1.00874619334561,1.00830923335791,1.00802124496996,1.00657455404735,1.00536222869728,1.00436300065336,1.00357306733461,1.00123282920025,1.00026164690648,0.998808984559948,0.998395624250082,0.997809209750395,0.997497960603096,0.996825908607126,0.995842780384015,0.994714424985576,0.992979374074946,0.99258276997563,0.992149923547465,0.991281761625032,0.991037351955985,0.989882149862485,0.989173033835672,0.988142404096091,0.987301258876405,0.985610118182891,0.985203338613728,0.984737417286366,0.986196989121213,0.986672428187916,0.986326473586866,0.987498007399643,0.987638897345536,0.998965729567674,1.01193807476786,1.01476382819547,1.03069293626543,1.02225153479056,1.01504788851609,1.01029107627359,1.00819582501717,1.00381279065079,0.993411220034858,0.980605061825257,0.958712102895469,0.958573432016616,0.958261145922852,0.957085789359548,0.956291693355159,0.956766916418405,0.957665123449599,0.956607507996085,0.953224845991,0.952092430852349,0.952876906008423,0.95536062283635,0.95861569262659,0.960145560322078,0.960490587692682,0.959690048473328,0.95756058627397
1.10011569122388,1.10498960697049,1.10580054273761,1.10873243437857,1.10791605799228,1.21105523495225,1.08914967864041,1.08879101073241,1.08634513041537,1.08623473632054,1.08494842857513,1.08432856625032,1.08435421713827,1.08543515710853,1.08728830643765,1.08778542399399,1.08838718271087,1.23970863843657,1.23133443255173,1.17661662678409,1.22102298459021,1.22177892500813,1.17601687935749,1.42398812998172,1.11574783895263,1.35720758185872,1.36246233795534,1.08999505827116,1.08971968278334,1.09052589996191,1.09091380455288,1.0684162200616,1.06671397700221,1.06015993867603,1.0492157103557,1.04713072967721,1.04478276960662,1.03724541278389,1.03494896080291,1.03588908569128,1.03450296265823,1.03354300701524,1.03375671021593,1.03325397717452,1.03355081633653,1.03217995390778,1.03244253821791,1.03169513722485,1.03289635349835,1.03241026327058,1.03272172671529,1.03193070826811,1.03114250728053,1.02108537677747,1.02114183976764,1.03181574834979,1.02935644766999,1.0286990406582,1.02662236312031,1.02770610883428,1.02744654879196,1.02906231467893,1.02723662006745,1.02871824146036,1.02738129951733,1.02798328101248,1.0270385026382,1.02706276056872,1.02746549599954,1.02794473363301,1.02804323276378,1.02803798784831,1.02677874813135,1.02724249459734,1.02772474740886,1.0294031775512,1.02898124460812,1.03278886828192,1.03038032628424,1.02974894896238,1.03003100208925,1.02960600400011,1.02959109830695,1.02819287936813,1.02787646012169,1.02668891013759,1.02738584328468,1.02553455058664,1.0242905758716,1.02294506871624,1.02220634262848,1.02062708843703,1.01838239936536,1.01624940242947,1.01548539548913,1.01443058568848,1.01505983822263,1.01499946842513,1.01485588338655,1.01416212149391,1.01435049512469,1.01388657060947,1.01475417908796,1.00987813970184,1.010644683287,1.0104398017442,1.00999714040372,1.00884795267625,1.00781733209529,1.00755670355069,1.00718388760486,1.00631475865264,1.00606798338921,1.00468072093431,1.00498982587276,1.00315307237329,0.998999208674009,0.99784405371411,0.996442352668718,0.996637565184101,0.9962246186842,0.995730114328139,0.995908791824036,0.993584374845596,0.993216504426738,0.991362289483277,0.989296246507898,0.989315851845702,0.990145537105016,0.989684925248576,0.988554289277629,0.986711467779387,0.986708044612835,0.983983037255546,0.983568923453587,0.980627678510285,0.982637968889177,1.05830682167854,1.05908214514128,0.982644458436415,0.980068830553616,0.977130967796258,0.975204983533106,1.06794990400437,1.01544912250084,1.10198660696281,1.00722252140585,0.958200814609082,0.958419161604114,0.959956674755696,0.958731488510975,0.960078043226216,0.959304894022579,0.959951424450539,0.959808622162742,0.959107589456814,0.955649942912777,0.953017312225224,0.953182970094282,0.956540924253873,0.955989150284085,0.953748950987217,0.95344072257628,1.32492117567872,1.25868916954526,0.960023550639976,0.960047156711483,0.960809283894712,0.960223885534601,0.958502176000458
1.09960058339872,1.10742830209386,1.11002203552557,1.11317352521627,1.11959015776788,1.12460658592157,1.08722344301195,1.08680365330002,1.08598650025014,1.08577279364442,1.0850013491398,1.08463703470588,1.08472360058514,1.08497552093284,1.08507348735038,1.08673137753611,1.08724850034168,1.11072351946517,1.12750133892035,1.14370090496255,1.15954195706829,1.17554778755411,1.18590629613905,1.28374083021459,1.2786276849048,1.27039482893114,1.16092433404385,1.11958874200811,1.10745744627388,1.08039080024419,1.07821793570761,1.07288692002047,1.06482386274302,1.05669046053698,1.04590122295966,1.04402591485327,1.04172963897622,1.03823599066017,1.03625766941796,1.03559930212833,1.03461957459889,1.03435520418365,1.03404425114687,1.03435833422205,1.03401954092421,1.03388900118258,1.03328724323882,1.0330454825463,1.03293353734557,1.03284026510968,1.0327309938537,1.03249627466568,1.03246745025473,1.03310541786587,1.0324712024507,1.03144257369172,1.03033481770081,1.02980745850339,1.02953132520532,1.02956161331122,1.02987678342468,1.02990327770334,1.02943681308427,1.02923504285944,1.02957837441102,1.02925488339996,1.02927684763777,1.02857016857065,1.02876352316194,1.02876562630989,1.02871794874551,1.02798185721724,1.02791654628121,1.02799381690687,1.02948615472392,1.03004582334393,1.03072989023156,1.03135476726765,1.03117109443962,1.03067335109966,1.03046842014115,1.03029541009905,1.0294648221619,1.02886608796123,1.02753645463165,1.02719722170562,1.02631503222742,1.02546626559649,1.02418240414234,1.02314441819226,1.02196460641619,1.02060702096823,1.01852199444028,1.01710983299924,1.01550985139358,1.0146012034113,1.01389589398401,1.01383806643982,1.01372632486422,1.01317715028568,1.01257723562187,1.01213353060937,1.01150550404255,1.00969678103406,1.00909705925194,1.00905969265969,1.00877448482373,1.00802546974868,1.00720471892212,1.00690394107967,1.0062776176656,1.00579763021176,1.00473450360538,1.00442134310896,1.00307709250678,1.00215081943379,0.999497145119533,0.99838255554054,0.996485019348433,0.996118780071091,0.995414097819125,0.995215605248727,0.994359577430266,0.993424240025879,0.992033208375327,0.99049471768546,0.988898448884738,0.988945468380386,0.989000648112122,0.989020179838664,0.9880285595489,0.986791008018187,0.98541611547545,0.984330291801908,0.98269404007259,0.981827803427578,0.981569491615059,0.981158596653809,0.980660174573874,0.980951624643199,0.979379471674775,0.97779489163504,0.976226881748649,0.974566869883722,0.97228563366487,0.96774824101364,0.965523191875928,0.96496299341072,0.964450918602317,0.962810514414632,0.96184082182785,0.961975875184185,0.961249138018938,0.960835032511674,0.959828434311116,0.958921335093564,0.95758996255779,0.957447384361145,0.957059525443665,0.95657422029797,0.956330032128268,0.957093115628365,0.958034905014879,1.01371848120552,1.04742274748735,0.96045554711371,0.960350635023295,0.960363198620012,0.959587625116737,0.958724810519768
