1.7364133728602,1.88356088963777,1.90689335265683,1.73570574898175,1.73512243740627,1.81073300506681,1.80721401064426,1.81252118973261,1.8104270055518,1.88371388939527,1.88528213690967,1.73142175577169,1.73173731777154,1.80405839064578,1.8022319560406,1.80228933094966,1.80291089246451,1.8027770176767,1.81138325403619,1.81385037512591,1.80073064592011,1.80203114385888,1.80125658258652,1.80050114628386,1.89731174284327,1.72806532359149,1.81689124530626,1.8162027463975,1.81428068694388,1.81501699827686,1.79997520961744,1.81963567845645,1.79987002228416,1.80411576555484,1.81868899245691,1.89447168484463,1.82099355130429,1.82238011160665,1.80788338458333,1.80635338700831,1.89760817987343,1.81095294221821,1.82032417736521,1.81315231373231,1.91254478119956,1.75756558933485,1.87209547030996,1.8965563065406,1.87198072049184,1.88590369842452,1.89527493357152,1.88591326090936,1.87416096703624,1.87620733879283,1.87372109273342,1.79971702252666,1.79999433458713,1.80216501864669,1.87511721552063,1.87518415291453,1.87586308933845,1.9024181097499,1.87604477655048,1.89621205708622,1.8778138362466,1.80357070391874,1.90275279671943,1.89676668120716,1.87856927254927,1.87840671030692,1.89664236890419,1.80749132270473,1.88000364527585,1.80917432003725,1.89849749096391,1.8831305778198,1.88521519951576,1.88698425921188,1.90644391586917,1.8856168238792,1.88579851109124,1.91206665695737,1.90979078556452,1.88829431963549,1.8874241335147,1.89314249945133,1.89969280156939,1.90902578677701,1.90291535896178,1.91755552325775,1.90833728786825,1.89985536381174,1.90276235920427,1.91251609374503,1.89994142617533,1.8898434421802,1.88920275569566,1.9007637998719,1.90096461205363,1.81968349088067,1.90685510271745,1.90274323423459,1.90637697847526,1.90327873338584,1.91603508816758,1.89211931357304,1.89854530338813,1.90979078556452,1.91243959386628,1.82007555275927,1.89396487314791,1.90316398356772,1.91698177416712,1.82120392597085,1.89741693017655,1.89702486829795,1.89735955526748,1.90255198453771,1.90118454920504,1.89560005805621,1.90255198453771,1.89906167756969,1.90136623641707,1.90646304083885,1.82421610869667,1.90540160502118,1.82790722784641,1.75963108606113,1.75805327606189,1.94975240972708,1.75756558933485,1.95647483657233,1.9429343580334,1.75563396739639,1.80892569543131,1.75956414866722,1.95222909330165,1.76048214721223,1.76102720884833,1.76354214236227,1.7627197686657,1.75943983636425,1.76664038745169,1.76358039230165,1.76598057599746,1.83879889808358,1.76814169757218,1.76681251217888,1.7681895099964,1.76700376187576,1.76969082011689,1.77016894435908,1.81953049112317,1.81812480585112,1.81858380512363,1.7709148181769,1.77211012878239,1.77063750611643,1.81898542948707,1.81775186894221,1.81794311863909,1.81825868063894,1.76808432266312,1.76807476017827,1.9587124580258,1.76792176042077,1.76650651266388,1.7670993867242,1.8147205612467,1.81275068936886,1.81592543433703,1.81310450130809,1.9462907902136,1.94634816512267,1.93911892658069,1.76506257745245,1.76731932387561,1.76647782520934,1.76584670120965,1.70301161330053,1.79266947119672,1.70057317966535,1.69712112263671,1.69181394354835,1.74455104746233,1.78794560368385,1.69230163027539,1.69163225633632,1.68927032257988,1.68722395082329,1.80439307761531,1.80380976603984,1.68327464458277,1.80093145810183,1.68206977149244,1.73362112728578,1.68422133058232,1.68217495882573,1.68422133058232,1.68132389767462,1.80375239113078,1.8010557704048,1.67773796585817,1.80409664058516,1.80252839307076,1.80161995701059,1.68103702312931,1.67838821482755,1.67730765404019,1.67618884331346,1.67220128713356,1.67493615779891,1.67729809155535,1.73537106201221
0,0,0,0,0,0,0,0,0,0,0,0,0,0,0,0,0,0,0,0,0,0,0,0,0,0,0,0,0,0,0,0,0,0,0,0,0,0,0,0,0,0,0,0,0,0,0,0,0,0,0,0,0,0,0,0,0,0,0,0,0,0,0,0,0,0,0,0,0,0,0,0,0,0,0,0,0,0,0,0,0,0,0,0,0,0,0,0,0,0,0,0,0,0,0,0,0,0,0,0,0,0,0,0,0,0,0,0,0,0,0,0,0,0,0,0,0,0,0,0,0,0,0,0,0,0,0,0,0,0,0,0,0,0,0,0,0,0,0,0,0,0,0,0,0,0,0,0,0,0,0,0,0,0,0,0,0,0,0,0,0,0,0,0,0,0,0,0,0,0,0,0,0,0,0,0,0,0,0,0,0,0,0,0,0,0,0,0,0,0,0,0,0,0,0,0,0,0,0,0,0,0,0,0,0,0,0,0,0,0,0,0,0,0
1.73727399649614,1.90659691562667,1.735629249103,1.90513385544556,1.73078106928715,1.88702250915125,1.91002984768562,1.80551188834205,1.90314485859803,1.81302800142934,1.7294614463787,1.73217719207436,1.88627663533343,1.8069175736141,1.81431893688326,1.81006363112773,1.88610451060624,1.88633401024249,1.90267629684068,1.80291089246451,1.80412532803969,1.80326470440374,1.72923194674244,1.80107489537449,1.81766580657862,1.82013292766834,1.80022383422338,1.89105787775537,1.81662349573063,1.79786190046695,1.80046289634448,1.72880163492447,1.79979352240541,1.81778055639674,1.82130911330413,1.73113488122638,1.73156519304435,1.9145146530774,1.80962375682492,1.80765388494708,1.82322161027291,1.90392898235523,1.8204963020924,1.81718768233642,1.74477098461374,1.90404373217335,1.89188025145194,1.89824886635797,1.79949708537525,1.87304215630951,1.80021427173854,1.8972543679342,1.872889156552,1.88617144800015,1.87535627764172,1.87856927254927,1.79861733676961,1.87032641061385,1.87126353412854,1.87350115558201,1.87927689642771,1.87405577970296,1.90062036259925,1.92296788967939,1.88096945624508,1.80433570270625,1.88656350987875,1.88928881805925,1.87775646133754,1.87894220945818,1.89393618569338,1.88293932812292,1.89223406339117,1.88185876733556,1.89759861738858,1.8814093305479,1.88401032642543,1.89006337933161,1.88403901387996,1.88485182509169,1.90278148417396,1.90391941987038,1.90674991538417,1.90610922889963,1.89589649508637,1.89684318108592,1.90464616871852,1.90249460962865,1.81656612082157,1.81733111960908,1.91422777853208,1.89327637423915,1.90237029732568,1.89392662320853,1.91086178386704,1.89994142617533,1.90191129805317,1.91528921434975,1.90071598744769,1.90547810489994,1.912334406533,1.91033584720063,1.9163889001068,1.91030715974609,1.91164590762424,1.90049605029628,1.89331462417852,1.82017117760771,1.91306115538113,1.82120392597085,1.91602552568273,1.91499277731959,1.8920236887246,1.89951111435736,1.89657543151029,1.8996736765997,1.89771336720671,1.90203561035614,1.8963172444195,1.89780899205515,1.89705355575248,1.90915966156483,1.90394810732492,1.82332679760619,1.91637933762196,1.90377598259773,1.91572908865257,1.76015702272754,1.75774727654688,1.75693446533516,1.76007096036395,1.76028133503051,1.8525115013497,1.75864615012221,1.75971714842472,1.75847402539502,1.76180177012069,1.76020483515176,1.94985759706037,1.76057777206067,1.76100808387865,1.76131408339365,1.76245201909007,1.76371426708946,1.76567457648246,1.76406807902869,1.9470749139708,1.76580845127027,1.76835207223874,1.77051319381346,1.77066619357096,1.95185615639274,1.77055144375284,1.84724257220073,1.76945175799579,1.93725424203614,1.93642230585472,1.77165112950988,1.95947745681331,1.81990342803208,1.81708249500314,1.85944430286151,1.76973863254111,1.76979600745017,1.7687345716325,1.76703244933029,1.76566501399761,1.93551386979455,1.7662292006034,1.76711851169388,1.76698463690607,1.76493826514948,1.76502432751307,1.76868675920828,1.94906391081833,1.7670133243606,1.76698463690607,1.76642045030028,1.76437407854369,1.76310226805946,1.69848855796938,1.69910055699939,1.69601187439482,1.74430242285639,1.69553375015262,1.78607135665445,1.69101069482147,1.7403818040704,1.73891874388929,1.7354762493455,1.68708051355064,1.68839057397425,1.80221283107091,1.68572264070281,1.68356151912809,1.68288258270417,1.80773038482583,1.80617169979628,1.8009888330109,1.68005208719039,1.67835952737302,1.67910540119084,1.67802484040348,1.7723970033277,1.67792921555505,1.72538782783521,1.7826384245955,1.77768505744637,1.77495018678102,1.67778577828239,1.67207697483059,1.6719048501034,1.6758924062833,1.67476403307172
1.88669738466656,1.73383150195235,1.81109637949087,1.73567706152722,1.88517694957639,1.73519893728502,1.80856232100725,1.73434787613392,1.80923169494632,1.80788338458333,1.81292281409605,1.81302800142934,1.81307581385356,1.80349420403999,1.8129993139748,1.80389582840343,1.81270287694464,1.81276025185371,1.80279614264639,1.88670694715141,1.80336989173702,1.81700599512439,1.80291089246451,1.72808444856118,1.7286773226215,1.90909272417092,1.80079758331402,1.80134264495012,1.80239451828295,1.81689124530626,1.88974781733176,1.80042464640511,1.72700388777382,1.81950180366864,1.82183504997055,1.8212804258496,1.82023811500162,1.90706547738402,1.82336504754557,1.82233229918243,1.822848673364,1.73932036825273,1.8191671166991,1.82017117760771,1.89806717914593,1.92199251622531,1.7991815233754,1.87117747176495,1.89419437278416,1.87265965691575,1.8001186468901,1.88597063581843,1.87294653146107,1.89243487557289,1.87346290564264,1.87520327788422,1.87461996630875,1.87177034582527,1.87160778358292,1.80184945664684,1.87680021285315,1.87652290079268,1.90220773508333,1.91008722259468,1.9105270968975,1.80547363840267,1.87329078091545,1.87440959164218,1.8744574040664,1.89137343975522,1.8789039595188,1.90372817017351,1.89000600442254,1.88063476927554,1.91594902580398,1.88409638878903,1.88508132472795,1.89207150114882,1.88989125460442,1.81266462700527,1.88314014030464,1.90565022962713,1.89775161714608,1.81397468742888,1.81520824797374,1.88157189279024,1.89715874308576,1.81467274882248,1.89064669090708,1.8875771332722,1.89082837811912,1.89210018860335,1.8959251825409,1.89931986466048,1.89353456132993,1.8926548127243,1.89166031430053,1.91443815319865,1.91074703404891,1.90861459992873,1.89584868266215,1.90722803962637,1.81951136615348,1.81819174324503,1.92285313986126,1.90581279186947,1.89610686975294,1.91308028035082,1.89784724199452,1.89329549920884,1.89871742811531,1.9153657142285,1.91505015222866,1.81875592985082,1.81959742851708,1.89582955769246,1.89593474502575,1.90065861253862,1.89937723956954,1.82210279954617,1.82243748651571,1.89693880593435,1.82529666948403,1.89741693017655,1.89702486829795,1.90058211265987,1.76033870993958,1.76022396012145,1.75819671333455,1.76040564733348,1.75921989921284,1.80608563743268,1.80847625864365,1.80704188591707,1.8071566357352,1.81406074979247,1.75981277327316,1.94139479797354,1.75943027387941,1.7624807065446,1.76388639181665,1.84314982868755,1.81236818997511,1.76523470217964,1.95825345875329,1.76595188854293,1.76717588660295,1.76863894678406,1.76691769951216,1.7691266335111,1.76884932145063,1.95365390354339,1.76822775993577,1.82450298324199,1.82301123560634,1.81966436591099,1.77276037775177,1.95848295838954,1.77140250490394,1.77089569320722,1.77014025690455,1.81748411936658,1.81962611597161,1.81763711912408,1.9579283342686,1.81828736809347,1.81651830839735,1.76985338235923,1.76813213508733,1.76510082739183,1.76414457890744,1.76639176284575,1.93754111658145,1.93618324373362,1.76664038745169,1.93393605979531,1.76541638939167,1.76627701302762,1.76589451363387,1.70283948857334,1.69998030560503,1.69770443421218,1.69846943299969,1.69857462033298,1.74227517606949,1.69233031772992,1.73980805497977,1.68936594742832,1.73746524619302,1.68651632694485,1.68621032742984,1.77348712659991,1.8069175736141,1.80453651488797,1.68720482585361,1.68293995761324,1.80112270779871,1.68010946209945,1.80969069421882,1.80541626349361,1.6808170859779,1.67851252713052,1.97863111395559,1.67897152640303,1.80233714337388,1.72674570068304,1.72522526559286,1.76785482302686,1.77884211811248,1.6757394065258,1.67485965792016,1.80259533046467,1.67550990688954,1.67680084234347
1.73657593510254,1.88839950696877,1.90370904520382,1.80709926082613,1.80706101088676,1.80673588640206,1.81076169252134,1.80970025670367,1.90403416968851,1.81065650518805,1.8073096354927,1.81161275367244,1.81050350543055,1.81413724967123,1.81688168282142,1.80447913997891,1.81383125015622,1.81558118488265,1.81469187379217,1.81424243700451,1.81612624651875,1.8912395649674,1.89123000248256,1.80092189561699,1.80288220500998,1.80048202131417,1.81673824554876,1.8181630557905,1.81932967894145,1.72522526559286,1.89945373944829,1.90372817017351,1.82016161512287,1.80179208173778,1.80176339428325,1.80297782985842,1.73122094358997,1.80607607494784,1.82261917372774,1.82371885948479,1.82384317178776,1.73893786885898,1.74081211588838,1.82603298081701,1.90370904520382,1.91243959386628,1.88941313036222,1.89560962054106,1.87291784400654,1.87348203061232,1.87388365497577,1.87548058994469,1.87542321503563,1.87747914927706,1.79991783470838,1.87514590297516,1.80008995943557,1.87673327545924,1.87610215145955,1.8727361567945,1.8824994538201,1.88212651691119,1.80372370367624,1.87636033855033,1.87667590055018,1.87625515121705,1.90454098138524,1.90322135847678,1.89521755866246,1.89524624611699,1.87741221188316,1.80827544646193,1.89887042787282,1.90344129562819,1.8097289441582,1.88277676588057,1.90073511241737,1.88285326575932,1.88235601654744,1.8168338703972,1.89363974866322,1.89914773993329,1.81611668403391,1.8146536238528,1.90312573362834,1.90207386029552,1.89207150114882,1.81692949524564,1.9084998501106,1.90922659895874,1.90063948756893,1.81842124288128,1.89926248975142,1.9036612327796,1.81927230403239,1.81920536663848,1.90646304083885,1.89141168969459,1.89200456375491,1.89552355817746,1.91054622186719,1.90012311338737,1.90822253805013,1.90632916605104,1.81975999075943,1.89490199666261,1.89381187339041,1.90942741114046,1.91173196998783,1.91549002653147,1.90852853756513,1.9142086535624,1.89639374429825,1.91478240265303,1.82007555275927,1.89875567805469,1.89454818472338,1.89980755138752,1.90091679962941,1.89997967611471,1.89971192653908,1.82325986021228,1.8237857968787,1.90088811217487,1.82349892233338,1.90537291756665,1.90218861011364,1.75864615012221,1.75782377642564,1.86030492649746,1.85932955304339,1.80783557215911,1.80794075949239,1.7592772741219,1.75841665048596,1.76079770921208,1.81088600482431,1.76138102078756,1.76140970824209,1.83682902620574,1.81008275609742,1.84593251177712,1.81289412664152,1.81243512736902,1.87231540746137,1.76520601472511,1.8615767369817,1.76693682448185,1.81623143385203,1.85759874328665,1.94639597754688,1.76992031975314,1.77279862769115,1.77101044302534,1.77109650538894,1.76877282157187,1.76977688248048,1.77112519284347,1.8602475515884,1.76999681963189,1.76879194654156,1.94312560773028,1.81934880391114,1.76918400842016,1.77020719429846,1.76763488587545,1.82019986506224,1.86321192189,1.76627701302762,1.76732888636045,1.76563632654308,1.76750101108764,1.76544507684621,1.76964300769267,1.76766357332999,1.76785482302686,1.7677113857542,1.76925094581407,1.76806519769343,1.79813921252742,1.79622671555864,1.69800087124234,1.69552418766778,1.79979352240541,1.6959640619706,1.69298056669931,1.69043694573084,1.73934905570727,1.68946157227676,1.78471348380662,1.68703270112642,1.68594257785421,1.68464207991545,1.68561745336952,1.89052237860411,1.77644193441666,1.6823662085226,1.67823521507005,1.6811230854929,1.67908627622115,1.67892371397881,1.67753715367645,1.68130477270493,1.67864640191834,1.80634382452347,1.7286773226215,1.72768282419774,1.72459414159316,1.67976521264507,1.77755118265855,1.72394389262378,1.67609321846502,1.677135529313,1.80109402034418
1.81044613052149,1.7369584344963,1.81016881846102,1.73636556043598,1.81073300506681,1.80853363355271,1.81256900215683,1.73409925152798,1.80705144840191,1.81372606282294,1.80602826252362,1.81272200191433,1.81349656318669,1.81481618609514,1.81359218803512,1.80363764131265,1.88900194351394,1.88872463145346,1.80032902155667,1.73061850704481,1.8162027463975,1.80280570513123,1.7273481372282,1.81903324191129,1.81974086578974,1.89520799617761,1.72557907753208,1.72738638716758,1.81957830354739,1.82065886433475,1.89917642738782,1.72809401104602,1.80166776943481,1.80174426931356,1.82294429821244,1.82283911087915,1.82366148457573,1.80747219773504,1.82422567118152,1.81011144355195,1.73701580940536,1.74020967934321,1.8232407352426,1.82341285996979,1.82233229918243,1.90194954799255,1.89222450090632,1.8735202805517,1.87492596582375,1.88891588115034,1.87395059236967,1.90029523811455,1.88526301193998,1.88295845309261,1.8746104038239,1.8030830171917,1.80053939622323,1.80022383422338,1.80374282864593,1.87448609152093,1.87323340600638,1.87068978503791,1.87422790443015,1.87903783430662,1.87959245842756,1.8792960213974,1.87949683357912,1.87969764576084,1.87723052467112,1.87986020800319,1.88267157854729,1.91227703162393,1.88269070351698,1.88215520436572,1.90975253562515,1.88471795030388,1.88568376127311,1.81351568815637,1.90478004350633,1.81148844136947,1.90599447908151,1.90039086296299,1.88862900660502,1.8883612570294,1.88739544606016,1.81587762191281,1.89954936429673,1.81437631179232,1.90240854726505,1.89358237375415,1.92006089428685,1.91594902580398,1.90191129805317,1.81934880391114,1.89251137545164,1.89387881078431,1.89943461447861,1.89451949726885,1.90822253805013,1.89322856181493,1.89290343733024,1.89347718642087,1.90831816289857,1.8194922411838,1.90860503744388,1.90262848441646,1.89635549435888,1.8207353642135,1.89403181054182,1.91031672223094,1.89396487314791,1.89548530823808,1.89524624611699,1.82325986021228,1.90642479089948,1.89307556205743,1.89544705829871,1.89667105635873,1.82183504997055,1.82410135887854,1.89699618084342,1.89518887120792,1.82316423536385,1.91928633301449,1.91008722259468,1.89724480544936,1.76152445806022,1.95200915615024,1.7599944604852,1.76070208436364,1.75976496084894,1.75987014818223,1.76327439278665,1.76031958496989,1.75969802345504,1.75987971066707,1.8100349436732,1.7601474602427,1.76158183296928,1.76027177254567,1.81181356585416,1.85937736546761,1.81114419191509,1.92587488507192,1.8142615619742,1.81366868791388,1.85625043292366,1.85953992770995,1.77029325666205,1.7689736337536,1.77018806932877,1.76790263545108,1.95743108505672,1.76794088539046,1.76698463690607,1.77025500672268,1.77062794363159,1.76806519769343,1.77049406884377,1.77168937944926,1.95976433135862,1.76941350805641,1.93521743276439,1.7710678179344,1.81770405651799,1.81684343288204,1.76974819502595,1.76772094823905,1.85612612062069,1.85899486607385,1.76835207223874,1.76786438551171,1.76790263545108,1.94295348300309,1.76814169757218,1.76558851411886,1.76977688248048,1.84652538583744,1.81632705870047,1.70240917675537,1.79998477210229,1.69723587245483,1.79713515161881,1.69622224906138,1.69435756451683,1.6940898149412,1.69227294282086,1.79460109313519,1.78063030277828,1.68352326918871,1.68829494912581,1.68770207506549,1.80410620307,1.68423089306716,1.68459426749123,1.68249052082557,1.68281564531027,1.68053021143258,1.80182076919231,1.80679326131113,1.80503376409986,1.67966002531179,1.72877294746994,1.67944008816038,1.67606453101049,1.67790052810051,1.8002047092537,1.67849340216083,1.67303322331498,1.67917233858475,1.79051791210685,1.72569382735021,1.80221283107091,1.79947796040556
0,0,0,0,0,0,0,0,0,0,0,0,0,0,0,0,0,0,0,0,0,0,0,0,0,0,0,0,0,0,0,0,0,0,0,0,0,0,0,0,0,0,0,0,0,0,0,0,0,0,0,0,0,0,0,0,0,0,0,0,0,0,0,0,0,0,0,0,0,0,0,0,0,0,0,0,0,0,0,0,0,0,0,0,0,0,0,0,0,0,0,0,0,0,0,0,0,0,0,0,0,0,0,0,0,0,0,0,0,0,0,0,0,0,0,0,0,0,0,0,0,0,0,0,0,0,0,0,0,0,0,0,0,0,0,0,0,0,0,0,0,0,0,0,0,0,0,0,0,0,0,0,0,0,0,0,0,0,0,0,0,0,0,0,0,0,0,0,0,0,0,0,0,0,0,0,0,0,0,0,0,0,0,0,0,0,0,0,0,0,0,0,0,0,0,0,0,0,0,0,0,0,0,0,0,0,0,0,0,0,0,0,0,0
1.73777124570803,1.73592568613316,1.80981500652179,1.81320968864137,1.88721375884813,1.73606912340582,1.80814157167411,1.81297062652027,1.81300887645965,1.7327318161953,1.80721401064426,1.80604738749331,1.73323862789203,1.80651594925066,1.8138695000956,1.80322645446436,1.72888769728806,1.81681474542751,1.9090449117467,1.81696774518501,1.80338901670671,1.80048202131417,1.80088364567761,1.80019514676885,1.89287474987571,1.72667876328913,1.79698215186131,1.79697258937647,1.80052027125355,1.80296826737358,1.82157686287976,1.80382889100953,1.80038639646573,1.82223667433399,1.80437395264563,1.80545451343299,1.80336989173702,1.89569568290465,1.80989150640054,1.81055131785477,1.81039831809727,1.89714918060092,1.81316187621715,1.82282954839431,1.90684554023261,1.76001358545488,1.87240146982497,1.87225803255231,1.88326445260761,1.88320707769855,1.87675240042893,1.87187553315855,1.87152172121933,1.872889156552,1.88447888818278,1.79965008513275,1.80143826979856,1.80241364325263,1.87926733394287,1.87866489739771,1.8772687746105,1.8034081416764,1.874849465945,1.80380020355499,1.88030964479085,1.80437395264563,1.89576262029856,1.80398189076703,1.88104595612383,1.87767996145879,1.89234881320929,1.89605905732872,1.88346526478933,1.88215520436572,1.80929863234022,1.88082601897242,1.81118244185447,1.89671886878294,1.81382168767138,1.81287500167183,1.90621441623291,1.89639374429825,1.89209062611851,1.81264550203558,1.88860988163534,1.88835169454455,1.81651830839735,1.89431868508713,1.89953980181189,1.90397679477945,1.89641286926794,1.90207386029552,1.81939661633536,1.90261892193162,1.91965926992341,1.9166948996218,1.91133034562439,1.81971217833521,1.90917878653452,1.90869109980748,1.90631004108135,1.89341024902696,1.81986517809271,1.91012547253406,1.9030301087799,1.82028592742584,1.82062061439537,1.90344129562819,1.90333610829491,1.89627899448013,1.89496893405652,1.82029548991068,1.82013292766834,1.82209323706133,1.82213148700071,1.89408918545088,1.89842099108515,1.89678580617685,1.81982692815333,1.81827780560862,1.8180769934269,1.82387185924229,1.82336504754557,1.89604949484387,1.9024181097499,1.90637697847526,1.76176352018131,1.76110370872709,1.9367665553091,1.93976917555008,1.76027177254567,1.76285364345351,1.75976496084894,1.75790983878923,1.75950677375816,1.85230112668314,1.76174439521162,1.76284408096867,1.76319789290789,1.76456532824057,1.76083595915146,1.86231304831468,1.86122292504247,1.7638098919379,1.7646800780587,1.81615493397328,1.76862938429922,1.76773051072389,1.93998911270149,1.94661591469829,1.77012113193486,1.76851463448109,1.93588680670346,1.77069488102549,1.76899275872328,1.81864118003269,1.77013069441971,1.96293907632679,1.77216750369145,1.77135469247972,1.96516713529541,1.77039844399533,1.76888757139,1.7686485092689,1.76743407369373,1.81691037027595,1.81695818270017,1.76847638454171,1.77007331951064,1.76688901205763,1.81569593470078,1.76519645224026,1.76491914017979,1.7676444483603,1.77007331951064,1.76891625884453,1.81667130815485,1.76623876308825,1.8164418085186,1.74930360242974,1.69810605857563,1.81329575100496,1.69818255845438,1.79673352725537,1.79773758816398,1.80289176749483,1.69106806973053,1.69115413209413,1.68755863779283,1.79865558670899,1.68907907288301,1.68514889161217,1.79964052264791,1.68357108161293,1.80294914240389,1.80045333385964,1.80430701525172,1.68239489597714,1.68054933640227,1.67919146355444,1.67852208961537,1.67707815440394,1.80283439258576,1.67618884331346,1.72440289189629,1.97624049274462,1.67828302749427,1.76393420424087,1.6757394065258,1.67484053295047,1.77655668423479,1.67578721895002,1.67756584113098,1.67754671616129
1.73550493680003,1.73721662158708,1.81176575342994,1.73673849734489,1.81088600482431,1.88699382169672,1.89066581587677,1.80782600967427,1.81326706355043,1.81026444330946,1.73470168807314,1.73331512777078,1.80679326131113,1.81320968864137,1.8148066236103,1.80750088518958,1.88912625581691,1.72999694552995,1.80381932852468,1.82026680245615,1.81904280439613,1.80170601937419,1.80292045494936,1.8026240179192,1.81954005360802,1.82089792645585,1.79697258937647,1.79725946392178,1.81950180366864,1.82121348845569,1.72467064147192,1.82453167069652,1.80150520719246,1.80274833022217,1.89573393284403,1.80383845349437,1.80431657773656,1.91979314471122,1.73366893971,1.8233076726365,1.82268611112165,1.81663305821548,1.82398660906042,1.74361392394763,1.90626222865713,1.76023352260629,1.87767996145879,1.8787509597613,1.80265270537373,1.80099839549574,1.88645832254546,1.89021637908911,1.87655158824721,1.87736439945894,1.87593002673236,1.80023339670823,1.80306389222202,1.80071152095042,1.80112270779871,1.80161039452575,1.87680021285315,1.80319776700983,1.80346551658546,1.87569096461126,1.89391706072369,1.87773733636785,1.88079733151789,1.89028331648302,1.89424218520838,1.89650849411638,1.87931514636709,1.88045308206351,1.80704188591707,1.90320223350709,1.90050561278112,1.90039086296299,1.89539924587449,1.90598491659666,1.90549722986962,1.81356350058059,1.81401293736826,1.81350612567153,1.90245635968927,1.89013987921036,1.90956128592827,1.88931750551378,1.9049904181729,1.89061800345255,1.89114394011896,1.81948267869895,1.81834474300253,1.81738849451814,1.90852853756513,1.90740016435355,1.90106023690206,1.903575170416,1.90530598017275,1.89458643466276,1.8941369978751,1.90694116508105,1.90403416968851,1.81938705385051,1.89568612041981,1.89385968581463,1.90368035774929,1.91297509301754,1.82041980221365,1.89951111435736,1.82038155227428,1.89652761908607,1.89913817744845,1.8917846266035,1.89472030945057,1.90798347592903,1.89472030945057,1.89285562490602,1.89521755866246,1.82192111233414,1.82235142415212,1.82047717712272,1.82166292524336,1.89663280641935,1.89608774478325,1.89765599229764,1.90003705102377,1.8973404302978,1.9070176649598,1.76268151872632,1.76133320836334,1.76091245903021,1.76343695502899,1.83247809560178,1.83265978281381,1.761476645636,1.80941338215835,1.80932731979476,1.86152892455748,1.81049394294571,1.76353257987743,1.76415414139228,1.76155314551475,1.7618687075146,1.76446970339213,1.93734030439973,1.76962388272298,1.76765401084514,1.9361354313094,1.76586582617934,1.85778043049868,1.81856468015394,1.81750324433627,1.93690999258176,1.77036019405596,1.81767536906346,1.81947311621411,1.76874413411734,1.81866986748722,1.76969082011689,1.77170850441894,1.81795268112393,1.94947509766661,1.95407465287652,1.76769226078452,1.93667093046066,1.93998911270149,1.76822775993577,1.76978644496533,1.76826600987515,1.76860069684468,1.8190141169416,1.8308046607541,1.81714943239705,1.76868675920828,1.94860491154582,1.76829469732968,1.76969082011689,1.76689857454247,1.85023562995686,1.769193570905,1.69818255845438,1.70144336578614,1.81662349573063,1.69878499499954,1.69779049657578,1.7951270298016,1.7403148666765,1.69164181882116,1.69086725754881,1.68869657348925,1.78006611617249,1.68861051112566,1.68639201464188,1.79394128168096,1.68501501682436,1.68495764191529,1.79356834477205,1.68405876833997,1.72795057377336,1.72774976159164,1.7870849800479,1.72887813480322,1.78742922950228,1.79940146052681,1.77482587447805,1.77255000308521,1.80297782985842,1.80336032925218,1.67668609252534,1.78752485435072,1.67749890373707,1.67470665816266,1.67491703282922,1.67492659531407,1.67730765404019
1.8105800053093,1.81026444330946,1.8894513803016,1.81352525064122,1.8124542523387,1.81319056367168,1.81398424991372,1.81728330718486,1.80832325888615,1.80772082234098,1.73549537431518,1.81721636979095,1.7340610015886,1.88900194351394,1.81640355857922,1.81738849451814,1.81797180609362,1.81699643263954,1.81913842924457,1.8039532033125,1.81783793130581,1.90206429781067,1.72740551213726,1.80023339670823,1.8006637085262,1.80044377137479,1.82356585972729,1.8012948325259,1.81994167797146,1.81987474057755,1.82055367700147,1.80135220743496,1.82117523851632,1.82413004633308,1.82382404681807,1.72901200959104,1.82348935984854,1.82536360687794,1.82383360930292,1.82420654621183,1.8244838582723,1.74099380310041,1.822848673364,1.82155773791007,1.89909992750907,1.89867917817594,1.89341024902696,1.87538496509626,1.88395295151637,1.8917846266035,1.87660896315627,1.87379759261217,1.87919083406412,1.80183033167716,1.87559533976282,1.7999656471326,1.80359939137327,1.80127570755621,1.80208851876794,1.80205983131341,1.88006102018491,1.88106508109352,1.87650377582299,1.88632444775765,1.89337199908759,1.89901386514548,1.90190173556833,1.87897089691271,1.8981914914489,1.80661157409909,1.88082601897242,1.88019489497273,1.88300626551683,1.80786425961364,1.90631004108135,1.81032181821852,1.81034094318821,1.89201412623976,1.89238706314867,1.81015925597617,1.81103900458181,1.81385037512591,1.89070406581615,1.90221729756817,1.81374518779263,1.81650874591251,1.81669043312454,1.81719724482127,1.89232968823961,1.89977886393299,1.89520799617761,1.88822738224158,1.90654910320245,1.91204753198768,1.89924336478173,1.89255918787586,1.90975253562515,1.90056298769018,1.90346042059788,1.89278868751211,1.89536099593511,1.90611879138448,1.9138835290777,1.91396002895645,1.89584868266215,1.8954661832684,1.81965480342614,1.82005642778959,1.91606377562211,1.90187304811379,1.9099820352614,1.90741928932324,1.90700810247496,1.8925687503607,1.89476812187479,1.8204963020924,1.8201042402138,1.82220798687946,1.82127086336476,1.82132823827382,1.82228448675821,1.89666149387388,1.82422567118152,1.9076487889595,1.89762730484311,1.91322371762348,1.90587016677853,1.80921256997663,1.76413501642259,1.9327120617353,1.9479259751219,1.76278670605961,1.76039608484864,1.81810568088143,1.81080950494556,1.9285715057979,1.76345607999868,1.76275801860508,1.76509126490698,1.76403939157416,1.76067339690911,1.76509126490698,1.76320745539274,1.76430714114978,1.76687944957279,1.76623876308825,1.76761576090577,1.77063750611643,1.81447193664076,1.76633438793669,1.8532956251069,1.77014025690455,1.93680480524848,1.77201450393395,1.77077138090424,1.77268387787302,1.77195712902489,1.76962388272298,1.77038888151049,1.85239675153158,1.7710678179344,1.77036019405596,1.77176587932801,1.8179239936694,1.76911707102625,1.76874413411734,1.94696972663752,1.76663082496685,1.76959519526845,1.76918400842016,1.76697507442123,1.76744363617858,1.77097219308597,1.76954738284423,1.76911707102625,1.76775919817842,1.76754882351186,1.76807476017827,1.84959494347232,1.80446957749407,1.80278658016154,1.7443693602503,1.74320273709935,1.78342254835269,1.7818543008383,1.74043917897947,1.73849799455616,1.8020789562831,1.68695620124767,1.80065414604136,1.68727176324751,1.6867458265811,1.68315989476465,1.79904764858759,1.80050114628386,1.68325551961309,1.68252877076495,1.73034119498433,1.72877294746994,1.79005891283434,1.78986766313747,1.72676482565272,1.67906715125147,1.6769825295555,1.67611234343471,1.77476849956898,1.67916277609991,1.72384826777534,1.7254738901988,1.72417339226003,1.79891377379977,1.67568203161673,1.67418072149625,1.67801527791864
1.73799118285944,1.8925687503607,1.73476862546705,1.81024531833977,1.80943250712804,1.81597324676125,1.81162231615729,1.90036217550846,1.81373562530778,1.88920275569566,1.80712794828066,1.80966200676429,1.804412202585,1.89549487072293,1.80793119700755,1.80575095046315,1.89223406339117,1.80392451585797,1.80494770173626,1.72971963346948,1.81971217833521,1.82116567603147,1.81992255300177,1.90200692290161,1.81972174082005,1.72846694795493,1.80069239598074,1.80215545616185,1.79964052264791,1.72856257280337,1.89684318108592,1.80255708052529,1.72722382492523,1.82275304851556,1.82316423536385,1.82435954596933,1.82586085608982,1.89879392799407,1.80941338215835,1.82619554305935,1.73744612122333,1.81999905288052,1.74270548788747,1.81493093591327,1.89940592702407,1.91611158804633,1.87112009685589,1.90036217550846,1.87357765546076,1.87429484182405,1.87284134412778,1.87877008473099,1.87250665715825,1.88638182266671,1.89661368144966,1.80243276822232,1.80113227028355,1.80047245882933,1.87485902842984,1.80410620307,1.88136151812368,1.8769627750955,1.8759395892172,1.87839714782208,1.87753652418613,1.80553101331174,1.87698190006518,1.8077016973713,1.80843800870428,1.89370668605712,1.80801725937114,1.88139976806305,1.90969516071609,1.90433060671867,1.88347482727418,1.88162926769931,1.90660647811151,1.89103875278568,1.91533702677397,1.87636033855033,1.88051045697257,1.81301843894449,1.9127934058055,1.8960112449045,1.89287474987571,1.9006108001144,1.89868874066078,1.89818192896406,1.88802657005986,1.81893761706285,1.91687658683384,1.89010162927098,1.90711328980824,1.90869109980748,1.89920511484235,1.90875803720139,1.90285798405271,1.91211446938159,1.90403416968851,1.8946820595112,1.90353692047663,1.89404137302666,1.89588693260153,1.89015900418005,1.90721847714152,1.89164118933085,1.89072319078583,1.91527965186491,1.9128794681691,1.90579366689978,1.90848072514091,1.89249225048195,1.89934855211501,1.89357281126931,1.81994167797146,1.89644155672247,1.89508368387464,1.82140473815257,1.82055367700147,1.82267654863681,1.82017117760771,1.89606861981356,1.90691247762652,1.91414171616849,1.90838510029247,1.90933178629202,1.7634178300593,1.85013044262358,1.93892767688382,1.9468358518497,1.76127583345428,1.76195476987819,1.76221295696898,1.80975763161273,1.76284408096867,1.7636568921804,1.76345607999868,1.76447926587697,1.7632648303018,1.81287500167183,1.81168925355119,1.81289412664152,1.7647470154526,1.81405118730763,1.85845936692259,1.85660424486288,1.76357082981681,1.76712807417873,1.81758930669986,1.81818218076019,1.77050363132862,1.81494049839811,1.76999681963189,1.7681034476328,1.76761576090577,1.77320025205459,1.82621466802904,1.8413520815369,1.77128775508581,1.77174675435832,1.94217892173073,1.76898319623844,1.81735980706361,1.76785482302686,1.76835207223874,1.77014981938939,1.95572896275451,1.95450496469449,1.76660213751231,1.77102956799503,1.76722369902717,1.76772094823905,1.94608041554704,1.94882484869723,1.93946317603507,1.81606887160969,1.76793132290561,1.82717091651343,1.76855288442047,1.700716616938,1.69978905590815,1.6946348765773,1.69408025245635,1.69411850239573,1.69432887706229,1.74129024013057,1.73891874388929,1.9832976065594,1.79799577525476,1.68879219833769,1.80291089246451,1.80004214701135,1.68399183094606,1.68139083506853,1.68569395324827,1.68446995518826,1.68115177294743,1.68009033712976,1.72939450898479,1.72738638716758,1.68135258512915,1.72666920080429,1.67763277852489,1.68075014858399,1.67813002773677,1.67720246670691,1.67606453101049,1.79868427416352,1.80261445543435,1.79985089731447,1.67727896658566,1.67533778216235,1.67612190591955,1.67743196634316
0,0,0,0,0,0,0,0,0,0,0,0,0,0,0,0,0,0,0,0,0,0,0,0,0,0,0,0,0,0,0,0,0,0,0,0,0,0,0,0,0,0,0,0,0,0,0,0,0,0,0,0,0,0,0,0,0,0,0,0,0,0,0,0,0,0,0,0,0,0,0,0,0,0,0,0,0,0,0,0,0,0,0,0,0,0,0,0,0,0,0,0,0,0,0,0,0,0,0,0,0,0,0,0,0,0,0,0,0,0,0,0,0,0,0,0,0,0,0,0,0,0,0,0,0,0,0,0,0,0,0,0,0,0,0,0,0,0,0,0,0,0,0,0,0,0,0,0,0,0,0,0,0,0,0,0,0,0,0,0,0,0,0,0,0,0,0,0,0,0,0,0,0,0,0,0,0,0,0,0,0,0,0,0,0,0,0,0,0,0,0,0,0,0,0,0,0,0,0,0,0,0,0,0,0,0,0,0,0,0,0,0,0,0
1.81021663088524,1.73865099431366,1.8140224998531,1.81619318391266,1.81704424506376,1.81416593712576,1.80857188349209,1.80767300991676,1.80882050809803,1.81733111960908,1.81693905773048,1.81735980706361,1.81671912057907,1.80664026155363,1.80503376409986,1.81914799172942,1.73093406904465,1.80383845349437,1.82313554790931,1.80553101331174,1.72769238668258,1.72793144880368,1.82070667675897,1.80005170949619,1.82013292766834,1.81921492912332,1.89605905732872,1.82325986021228,1.72735769971304,1.8227626110004,1.80352289149452,1.80088364567761,1.82455079566621,1.80198333143466,1.8061334498569,1.82306861051541,1.82166292524336,1.80448870246375,1.80689844864441,1.82622423051389,1.8116031911876,1.81390775003497,1.81424243700451,1.82334592257588,1.89866005320625,1.89800980423687,1.87428527933921,1.87605433903533,1.88349395224386,1.87482077849047,1.89364931114806,1.87652290079268,1.87842583527661,1.87575790200517,1.80052983373839,1.87281265667325,1.80295870488873,1.87568140212642,1.87583440188392,1.87573877703548,1.87586308933845,1.8064394493719,1.89227231333054,1.90093592459909,1.88003233273038,1.88016620751819,1.90650129077823,1.89681449363138,1.90504779308196,1.90629091611167,1.89635549435888,1.90192086053801,1.80937513221898,1.80782600967427,1.88562638636405,1.88606626066687,1.88571244872764,1.90971428568577,1.81279850179308,1.89457687217792,1.90412023205211,1.9004578003569,1.88700338418157,1.8133244384595,1.88616188551531,1.89582955769246,1.81616449645813,1.89701530581311,1.90945609859499,1.88931750551378,1.88951831769551,1.889365317938,1.89089531551302,1.89232012575476,1.89197587630038,1.91351059216879,1.91546133907694,1.90736191441418,1.91025934732187,1.9095899733828,1.90781135120184,1.89516974623824,1.90743841429293,1.89984580132689,1.89992230120564,1.91181803235143,1.8196452409413,1.90907359920123,1.89375449848134,1.91021153489765,1.89247312551226,1.82014249015318,1.91595858828882,1.89291299981508,1.82007555275927,1.82083098906194,1.81896630451738,1.82226536178852,1.82184461245539,1.82389098421198,1.89610686975294,1.89823930387312,1.89636505684372,1.89736911775233,1.89647980666185,1.92045295616545,1.76445057842244,1.8532956251069,1.94003692512571,1.76320745539274,1.76246158157492,1.80992019385508,1.76144795818146,1.75973627339441,1.93268337428077,1.76441232848307,1.76390551678634,1.76354214236227,1.76500520254339,1.82814628996751,1.76475657793745,1.81100075464243,1.81314275124746,1.76659257502747,1.82897822614892,1.85559062146943,1.76868675920828,1.77005419454095,1.76777832314811,1.8167478080336,1.84897338195747,1.81747455688174,1.81736936954846,1.81616449645813,1.84620982383759,1.7704558189044,1.77030281914689,1.76783569805717,1.77077138090424,1.77150769223722,1.76813213508733,1.76742451120889,1.81915755421426,1.86562166807066,1.86257123540546,1.76978644496533,1.76844769708718,1.76998725714705,1.7695856327836,1.76850507199625,1.76995856969252,1.77017850684392,1.84052970784033,1.83836858626561,1.76811301011765,1.76975775751079,1.76984381987439,1.81627924627625,1.76600926345199,1.70107999136207,1.79940146052681,1.79602590337692,1.69469225148636,1.69070469530647,1.7968482770735,1.69218688045727,1.78627216883617,1.68883044827707,1.79658052749787,1.68653545191453,1.7991145859815,1.6879220122169,1.68731957567173,1.68267220803761,1.68389620609762,1.79915283592087,1.68428826797622,1.67837865234271,1.67754671616129,1.68146733494728,1.68122827282618,1.67902890131209,1.67871333931224,1.67501265767766,1.80606651246299,1.67663828010112,1.80063502107167,1.67624621822252,1.76644913775481,1.6753473446472,1.76769226078452,1.67791009058536,1.80269095531311,1.80025252167792
1.81248293979323,1.81475881118608,1.73842149467741,1.73903349370742,1.88724244630266,1.89656586902544,1.81383125015622,1.80848582112849,1.81757974421502,1.81059913027899,1.80987238143086,1.80916475755241,1.81891849209316,1.81978867821396,1.81947311621411,1.80494770173626,1.81932967894145,1.81812480585112,1.80404882816094,1.82059192694084,1.82040067724396,1.82023811500162,1.80068283349589,1.7285912602579,1.72786451140977,1.8957721827834,1.82101267627397,1.79965008513275,1.72770194916742,1.72831394819743,1.82406310893917,1.80285351755545,1.82449342075714,1.82488548263574,1.80547363840267,1.80608563743268,1.82670235475608,1.80783557215911,1.80989150640054,1.92651557155646,1.91976445725669,1.74246642576637,1.82356585972729,1.9181770847726,1.90759141405043,1.76233726927195,1.80422095288813,1.89532274599574,1.80206939379825,1.8035611414339,1.88070170666945,1.87922908400349,1.88614276054562,1.87860752248864,1.87824414806457,1.80276745519186,1.87473471612687,1.87685758776221,1.87716358727722,1.87858839751895,1.87897089691271,1.87638902600486,1.87579615194454,1.80507201403923,1.89969280156939,1.87756521164066,1.8789900218824,1.87824414806457,1.87955420848819,1.89717786805545,1.89556180811684,1.80966200676429,1.88598019830327,1.89372581102681,1.89705355575248,1.89341981151181,1.81057044282446,1.89403181054182,1.80917432003725,1.89400312308728,1.89552355817746,1.90376642011288,1.89101006533115,1.90356560793116,1.81470143627701,1.90205473532583,1.90187304811379,1.90134711144738,1.89978842641783,1.91274559338128,1.89115350260381,1.89206193866398,1.89213843854273,1.90053430023565,1.89583912017731,1.82116567603147,1.90650129077823,1.90210254775005,1.81968349088067,1.90387160744616,1.89911905247876,1.91242046889659,1.89625030702559,1.82189242487961,1.903575170416,1.9028771090224,1.82116567603147,1.90147142375035,1.81992255300177,1.91156940774549,1.82060148942569,1.90976209810999,1.91001072271593,1.89965455163001,1.91401740386552,1.82050586457725,1.82196892475836,1.8227626110004,1.82171073766758,1.82128998833445,1.82379535936354,1.8226096112429,1.90728541453543,1.82180636251601,1.89628855696497,1.89785680447937,1.76317876793821,1.76230858181741,1.7616296453935,1.81002538118836,1.81074256755165,1.76416370387713,1.76393420424087,1.85356337468253,1.85848805437713,1.85675724462038,1.85932955304339,1.93568599452174,1.9351983077947,1.81342006330793,1.81287500167183,1.92035733131701,1.81295150155058,1.81631749621563,1.81513174809499,1.81865074251754,1.7677974481178,1.76697507442123,1.77005419454095,1.81706337003345,1.81607843409453,1.84934631886638,1.81738849451814,1.77135469247972,1.76905969611719,1.76977688248048,1.77007331951064,1.76806519769343,1.76970038260173,1.77026456920752,1.76756794848155,1.76972907005626,1.7671663241181,1.76789307296624,1.77049406884377,1.95077559560538,1.76665951242138,1.95977389384347,1.9420832968823,1.76706113678482,1.7687345716325,1.76975775751079,1.76735757381498,1.81605930912484,1.81477793615577,1.76624832557309,1.76555026417949,1.76700376187576,1.76726194896654,1.84492845086851,1.70053492972597,1.69789568390906,1.69508431336496,1.69520862566793,1.69216775548758,1.79681958961896,1.68851488627722,1.7999656471326,1.84537788765617,1.79650402761912,1.68815151185315,1.68576089064218,1.79426640616565,1.80305432973717,1.80115139525324,1.78068767768734,1.68085533591727,1.89576262029856,1.77123038017675,1.80086452070792,1.76999681963189,1.72574163977443,1.80046289634448,1.67583503137424,1.67299497337561,1.67528996973814,1.67483097046563,1.67662871761628,1.67427634634468,1.80076889585949,1.67740327888863,1.80055852119292,1.80596132512971,1.7998126473751
1.74183530176667,1.74014274194931,1.89121087751287,1.73788599552615,1.73717837164771,1.81605930912484,1.88581763606093,1.80836150882552,1.81639399609438,1.8204963020924,1.80987238143086,1.80728094803817,1.81791443118456,1.80657332415972,1.80743394779567,1.80650638676581,1.82131867578898,1.80392451585797,1.80387670343375,1.91014459750375,1.80350376652483,1.73004475795417,1.72894507219713,1.73019775771168,1.82297298566697,1.82233229918243,1.82346067239401,1.90372817017351,1.91189453223018,1.82193067481898,1.8267501671803,1.82626248045326,1.80140958234403,1.89923380229688,1.92236545313422,1.80455563985766,1.73500768758815,1.7329708783164,1.82566960639294,1.90229379744692,1.82576523124138,1.81488312348905,1.82640591772592,1.90042911290237,1.75177072351946,1.76299708072617,1.80360895385812,1.80455563985766,1.89425174769322,1.88371388939527,1.87751739921644,1.88333139000152,1.88172489254775,1.87496421576313,1.87527021527813,1.879382083761,1.87780427376176,1.87821546061004,1.88020445745757,1.87891352200365,1.80390539088828,1.87707752491362,1.8043452651911,1.89009206678614,1.88363738951652,1.89597299496512,1.87898045939755,1.8792960213974,1.90252329708318,1.89973105150877,1.896164244662,1.89647980666185,1.80775907228036,1.89133518981584,1.91636977513711,1.90478960599118,1.89641286926794,1.89625030702559,1.81079994246071,1.90275279671943,1.90303967126475,1.89276956254242,1.8964033067831,1.89889911532735,1.89045544121021,1.8903024414527,1.81610712154906,1.81598280924609,1.81648005845798,1.90640566592979,1.893591936239,1.90619529126323,1.90363254532507,1.90678816532355,1.90270498429521,1.90323092096162,1.8195591785777,1.81928186651723,1.90654910320245,1.82096486384975,1.92215507846766,1.81987474057755,1.82031461488037,1.89390749823885,1.91264996853284,1.90210254775005,1.90578410441494,1.82054411451662,1.90062992508409,1.91566215125866,1.89399356060244,1.893897935754,1.91203796950284,1.82019986506224,1.89563830799559,1.82022855251678,1.82427348360573,1.82343198493947,1.82080230160741,1.82187329990992,1.82029548991068,1.8989756152061,1.90966647326155,1.82375710942417,1.89871742811531,1.89677624369201,1.76394376672572,1.85536112183318,1.76424976624072,1.76378120448337,1.7648330778162,1.76133320836334,1.76348476745321,1.76239464418101,1.76388639181665,1.86312585952641,1.86156717449685,1.76130452090881,1.76255720642335,1.76370470460462,1.81316187621715,1.813477438217,1.81689124530626,1.81604018415516,1.84981488062373,1.76429757866494,1.76611445078528,1.94585091591078,1.76784526054202,1.81696774518501,1.8212804258496,1.81773274397252,1.77051319381346,1.76841900963265,1.77249262817614,1.76993944472283,1.76913619599594,1.94337423233622,1.76910750854141,1.8164418085186,1.76974819502595,1.94251360870027,1.81603062167031,1.7699107572683,1.76625788805793,1.76957607029876,1.7683425097539,1.76763488587545,1.76757751096639,1.76743407369373,1.76752969854217,1.94958984748474,1.76963344520782,1.76758707345123,1.76801738526921,1.76697507442123,1.76620051314887,1.76685076211826,1.76704201181513,1.7040061117243,1.70042017990784,1.69733149730327,1.79342490749939,1.69420456475932,1.79998477210229,1.69047519567021,1.69159400639695,1.79789058792148,1.68881132330738,1.8461906988679,1.84583688692868,1.68523495397577,1.73440525104298,1.68379101876434,1.68031983676602,1.68181158440166,1.67921058852413,1.67835952737302,1.68125696028071,1.67953571300882,1.67941140070585,1.72707082516773,1.67778577828239,1.67827346500943,1.7257129523199,1.72418295474488,1.85327650013721,1.87233453243106,1.67387472198124,1.67354003501171,1.67716421676754,1.67563421919252,1.67453453343547,1.79751765101257
1.74024792928259,1.81375475027747,1.81624099633688,1.9151457770771,1.82007555275927,1.81922449160817,1.81604974664,1.80986281894601,1.73677674728426,1.73478775043674,1.8198843030624,1.81922449160817,1.80765388494708,1.81903324191129,1.89948242690283,1.80426876531234,1.8034081416764,1.80331251682796,1.7309436315295,1.82036242730459,1.90541116750603,1.80595176264487,1.80439307761531,1.79862689925446,1.80042464640511,1.82480898275699,1.89840186611547,1.72871557256087,1.73029338256011,1.89713961811608,1.72746288704633,1.80119920767746,1.80291089246451,1.7303125075298,1.73030294504496,1.80640119943253,1.80725226058363,1.80841888373459,1.80880138312834,1.82619554305935,1.82621466802904,1.82734304124062,1.8177709939119,1.74472317218952,1.91952539513559,1.76330308024118,1.89695793090404,1.89325724926946,1.87700102503487,1.87605433903533,1.88660175981812,1.8849187624856,1.88266201606245,1.80358026640359,1.80357070391874,1.80461301476672,1.88178226745681,1.88252814127463,1.88030964479085,1.87791902357988,1.80436439016078,1.87858839751895,1.87947770860944,1.88067301921492,1.80546407591783,1.87878920970068,1.88303495297136,1.89022594157395,1.89042675375567,1.88647744751515,1.8090978201585,1.91268821847222,1.89668061884357,1.81192831567229,1.90484698090024,1.90359429538569,1.87909520921568,1.90339348320397,1.89934855211501,1.89565743296527,1.81553337245843,1.88677388454531,1.88722332133298,1.89642243175278,1.88893500612003,1.88895413108972,1.90299185884053,1.81766580657862,1.88678344703016,1.89285562490602,1.89933898963017,1.89840186611547,1.81888980463863,1.89218625096695,1.82008511524412,1.90281017162849,1.90915009907998,1.8988895528425,1.82121348845569,1.90494260574868,1.90960909835249,1.91457202798646,1.91603508816758,1.81977911572911,1.81501699827686,1.90128973653832,1.90351779550694,1.90667341550542,1.90899709932248,1.9060805414451,1.91858827162089,1.82026680245615,1.82063973936506,1.91559521386476,1.8203433023349,1.8207353642135,1.81986517809271,1.81944442875958,1.82070667675897,1.82075448918319,1.82015205263802,1.89648936914669,1.91001072271593,1.91004897265531,1.91334802992645,1.91496408986506,1.92282445240673,1.76317876793821,1.95203784360477,1.76360907975618,1.76406807902869,1.93689086761207,1.93986480039852,1.81196656561167,1.81113462943025,1.80997756876414,1.76362820472587,1.76243289412038,1.76381945442275,1.76451751581635,1.76419239133166,1.76555982666433,1.76653520011841,1.76773051072389,1.76645870023966,1.76519645224026,1.76732888636045,1.95241078051368,1.94157648518557,1.93986480039852,1.77014025690455,1.93364918525,1.94248492124574,1.76949000793516,1.76893538381422,1.77013069441971,1.953003654574,1.94728528863736,1.77054188126799,1.81637487112469,1.76992031975314,1.81766580657862,1.81539949767062,1.77026456920752,1.93220525003857,1.76681251217888,1.76875369660219,1.85023562995686,1.84913594419981,1.76952825787454,1.85846892940744,1.81611668403391,1.76571282642183,1.76674557478497,1.76756794848155,1.93225306246279,1.76554070169464,1.76454620327088,1.76000402297004,1.69878499499954,1.69816343348469,1.69793393384844,1.69562937500106,1.69232075524508,1.78724754229024,1.69149838154851,1.7374174337688,1.79027884998575,1.79840696210305,1.89689099351013,1.68619120246016,1.68752038785345,1.68828538664096,1.68289214518902,1.68237577100745,1.79980308489025,1.80435482767594,1.8048903268272,1.80235626834357,1.80030033410214,1.79845477452727,1.6787037768274,1.67732677900988,1.67653309276784,1.72597113941068,1.72420207971457,1.72592332698646,1.72447939177504,1.67531865719267,1.78985810065262,1.67428590882953,1.79416121883237,1.67467797070813,1.77621243478041
0,0,0,0,0,0,0,0,0,0,0,0,0,0,0,0,0,0,0,0,0,0,0,0,0,0,0,0,0,0,0,0,0,0,0,0,0,0,0,0,0,0,0,0,0,0,0,0,0,0,0,0,0,0,0,0,0,0,0,0,0,0,0,0,0,0,0,0,0,0,0,0,0,0,0,0,0,0,0,0,0,0,0,0,0,0,0,0,0,0,0,0,0,0,0,0,0,0,0,0,0,0,0,0,0,0,0,0,0,0,0,0,0,0,0,0,0,0,0,0,0,0,0,0,0,0,0,0,0,0,0,0,0,0,0,0,0,0,0,0,0,0,0,0,0,0,0,0,0,0,0,0,0,0,0,0,0,0,0,0,0,0,0,0,0,0,0,0,0,0,0,0,0,0,0,0,0,0,0,0,0,0,0,0,0,0,0,0,0,0,0,0,0,0,0,0,0,0,0,0,0,0,0,0,0,0,0,0,0,0,0,0,0,0
1.89066581587677,1.81730243215455,1.81965480342614,1.81433806185295,1.81892805457801,1.81104856706665,1.81962611597161,1.81473012373155,1.81434762433779,1.7342140013461,1.806678511493,1.73385062692204,1.80973850664304,1.73476862546705,1.7350841874669,1.80562663816018,1.90822253805013,1.90646304083885,1.80501463913017,1.80609519991753,1.80633426203862,1.80210764373763,1.82310686045478,1.82352760978791,1.72740551213726,1.802145893677,1.8038671409489,1.72816094843993,1.80016645931432,1.82450298324199,1.91936283289324,1.80270051779795,1.80327426688858,1.73128788098388,1.7316416929231,1.7318807550442,1.73284656601343,1.80811288421958,1.73667155995098,1.81249250227808,1.81213869033886,1.90859547495904,1.90674035289933,1.82758210336172,1.82797416524032,1.90985772295843,1.80426876531234,1.88207870448697,1.87997495782132,1.87817721067067,1.87768952394363,1.89989361375111,1.87920039654896,1.87794771103441,1.80630557458409,1.88017577000304,1.879994082791,1.87813896073129,1.87885614709458,1.8795350835185,1.88063476927554,1.87966895830631,1.89277912502727,1.8850048248492,1.88376170181949,1.88092164382086,1.88189701727494,1.89086662805849,1.89138300224006,1.89306599957258,1.89070406581615,1.89506455890495,1.90322135847678,1.91876995883292,1.88475620024326,1.90761053902012,1.88401032642543,1.88450757563731,1.89332418666337,1.92230807822516,1.88961394254394,1.89641286926794,1.89188981393679,1.81370693785325,1.88953744266519,1.90621441623291,1.90073511241737,1.8911726275735,1.90581279186947,1.90309704617381,1.81975999075943,1.81960699100192,1.90956128592827,1.89043631624052,1.90503823059712,1.90211211023489,1.8988226154486,1.8191671166991,1.820582364456,1.90537291756665,1.90699853999011,1.82183504997055,1.90487566835477,1.92006089428685,1.91600640071304,1.82036242730459,1.91129209568501,1.89506455890495,1.90505735556681,1.89548530823808,1.89548530823808,1.89681449363138,1.8197982406988,1.89493068411714,1.82018074009256,1.8204293646985,1.81909061682035,1.82407267142401,1.82227492427336,1.82026680245615,1.82083098906194,1.82306861051541,1.89783767950968,1.8954661832684,1.89569568290465,1.89586780763184,1.7638098919379,1.94283873318496,1.93656574312738,1.76469920302838,1.96420132432618,1.96258526438757,1.76440276599822,1.81177531591479,1.76375251702884,1.76276758108992,1.86089780055778,1.8629728597689,1.76371426708946,1.93717774215739,1.764048954059,1.93349618549249,1.96264263929663,1.76772094823905,1.76765401084514,1.76682207466372,1.76796001036015,1.93401255967406,1.76980556993501,1.7677113857542,1.77031238163174,1.94533454172921,1.76805563520858,1.82512454475684,1.76836163472359,1.77112519284347,1.76880150902641,1.93931017627757,1.76870588417797,1.76636307539122,1.76936569563219,1.94086886130712,1.95264028014994,1.76984381987439,1.93152631361466,1.76588495114902,1.76905969611719,1.93969267567133,1.94016123742868,1.76562676405824,1.76473745296776,1.95526040099716,1.76467051557385,1.93027362810011,1.92799775670727,1.93507399549173,1.76768269829967,1.76564588902793,1.7041591114818,1.69792437136359,1.69500781348621,1.69512256330434,1.79719252652788,1.84310201626333,1.79581552871036,1.79586334113458,1.69102025730631,1.68927988506473,1.68661195179329,1.84944194371482,1.79545215428629,1.67991821240257,1.7831834862316,1.68272002046183,1.78332692350425,1.78075461508125,1.68121871034134,1.68123783531103,1.7694326330261,1.67886633906975,1.67828302749427,1.77140250490394,1.68102746064446,1.67572028155611,1.80391495337312,1.7252348280777,1.67596890616205,1.67339659773905,1.67396078434484,1.67608365598018,1.67576809398033,1.67400859676906,1.67482140798079,1.79801490022445
1.74189267667574,1.8201903025774,1.81650874591251,1.81633662118532,1.81166056609666,1.81344875076247,1.81376431276231,1.81970261585036,1.80876313318897,1.81973130330489,1.80819894658318,1.82016161512287,1.82023811500162,1.82109873863757,1.80769213488645,1.80810332173474,1.73251187904389,1.80418270294875,1.80351332900968,1.7312496310445,1.82380492184838,1.82410135887854,1.825114982272,1.80024295919307,1.80295870488873,1.80353245397937,1.80326470440374,1.80095058307152,1.8023849557981,1.82321204778806,1.82340329748494,1.72949013383323,1.8287774139672,1.80538757603908,1.80600913755393,1.80627688712956,1.82742910360421,1.80907869518881,1.92636257179896,1.82684579202874,1.73938730564664,1.8147205612467,1.7464826694008,1.90339348320397,1.90303967126475,1.90001792605408,1.80390539088828,1.88230820412322,1.87738352442863,1.80470863961516,1.88226995418385,1.88268114103213,1.87658983818658,1.87540409006594,1.80429745276688,1.80439307761531,1.8814093305479,1.88090251885117,1.88167708012353,1.88055826939679,1.88160058024478,1.80440264010016,1.90084029975066,1.87784252370113,1.89822017890343,1.89077100321005,1.89288431236055,1.88671650963625,1.8949880590262,1.89466293454151,1.80730007300785,1.87254490709762,1.81117287936962,1.89531318351089,1.88723288381782,1.89033112890724,1.81282718924761,1.90043867538721,1.90643435338432,1.81100075464243,1.88622882290921,1.88726157127235,1.88809350745377,1.88848556933237,1.91898033349949,1.88951831769551,1.89049369114958,1.88942269284707,1.90007530096315,1.90832772538341,1.81663305821548,1.82015205263802,1.90434016920351,1.89284606242117,1.89297037472415,1.90315442108287,1.90258067199224,1.90156704859879,1.89920511484235,1.89281737496664,1.82011380269865,1.91066097168532,1.91580558853132,1.90549722986962,1.89173681417929,1.89096225290693,1.89699618084342,1.90436885665805,1.9059275416876,1.82072580172866,1.90901622429217,1.91118690835173,1.90537291756665,1.89306599957258,1.89353456132993,1.82274348603071,1.82248529893993,1.82092661391038,1.82014249015318,1.82059192694084,1.82054411451662,1.90203561035614,1.90017092581158,1.89605905732872,1.89937723956954,1.92172476664968,1.7674053862392,1.95257334275603,1.9422362966398,1.93070393991808,1.76423064127103,1.7649000152101,1.81246381482355,1.86272423516296,1.86065873843669,1.95251596784697,1.7646800780587,1.76520601472511,1.76613357575496,1.76261458133242,1.76315008048368,1.9588654577833,1.85921480322526,1.93279812409889,1.76626745054278,1.76847638454171,1.76845725957203,1.76969082011689,1.95196134372602,1.76994900720767,1.95059390839335,1.77086700575268,1.76947088296548,1.85409887383379,1.77000638211673,1.77117300526769,1.76773051072389,1.95558552548185,1.93222437500826,1.94711316391018,1.93031187803948,1.95200915615024,1.77018806932877,1.76708982423935,1.76598057599746,1.76726194896654,1.76658301254263,1.76457489072541,1.93494968318876,1.76650651266388,1.85491168504552,1.91808145992417,1.94540147912312,1.76369514211978,1.93884161452022,1.938487802581,1.93509312046142,1.76500520254339,1.6979052463939,1.69694899790952,1.69442450191073,1.69434800203198,1.69460618912277,1.79724990143694,1.84402001480834,1.68782638736846,1.68934682245863,1.68716657591423,1.68710920100517,1.68646851452063,1.68435520537013,1.68425958052169,1.78516292059428,1.68435520537013,1.68210802143182,1.67848383967599,1.72877294746994,1.7282852607429,1.67817784016099,1.67704946694941,1.67505090761704,1.67953571300882,1.67832127743364,1.80443132755469,1.67540471955626,1.67622709325284,1.80650638676581,1.80337945422186,1.6772215916766,1.67538559458657,1.67147453828543,1.67470665816266,1.8011418327684,1.80125658258652
1.81534212276155,1.81474924870123,1.8941369978751,1.81330531348981,1.82009467772896,1.81137369155135,1.80970025670367,1.81124937924837,1.81072344258196,1.81268375197496,1.81043656803665,1.8085527585224,1.82125173839507,1.80904044524944,1.7329708783164,1.80569357555408,1.80500507664532,1.80466082719094,1.82313554790931,1.80345595410062,1.80402970319125,1.82394835912104,1.82616685560482,1.90578410441494,1.80257620549498,1.80391495337312,1.80134264495012,1.80134264495012,1.73020732019652,1.82634854281686,1.80309257967655,1.80572226300861,1.8062195122205,1.80419226543359,1.80405839064578,1.82902603857314,1.73709230928411,1.80820850906802,1.8091838825221,1.81010188106711,1.74241861334215,1.81615493397328,1.82732391627093,1.74766841752144,1.90281973411334,1.9323869372506,1.90269542181037,1.90832772538341,1.80646813682644,1.89818192896406,1.80497638919079,1.88926013060472,1.87920039654896,1.8813232681843,1.80570313803893,1.80629601209925,1.8037141411914,1.8803861446696,1.88215520436572,1.88317839024402,1.88490920000076,1.88306364042589,1.8062195122205,1.88043395709382,1.88005145770007,1.87979327060928,1.89029287896786,1.89103875278568,1.89931986466048,1.80966200676429,1.80862925840115,1.89371624854197,1.90334567077975,1.89605905732872,1.89362062369353,1.89370668605712,1.90550679235447,1.90345085811303,1.90064905005378,1.87885614709458,1.90283885908303,1.88907844339269,1.88983387969535,1.89111525266443,1.91227703162393,1.88957569260457,1.91181803235143,1.91964970743856,1.89234881320929,1.90730453950512,1.89981711387236,1.9010889243566,1.90929353635264,1.81919580415364,1.81966436591099,1.81990342803208,1.90951347350405,1.8200373028199,1.82116567603147,1.82264786118228,1.89945373944829,1.89201412623976,1.90524860526368,1.92296788967939,1.8928078124818,1.89236793817898,1.82174898760695,1.8907805656949,1.90027611314487,1.89915730241813,1.90333610829491,1.89228187581539,1.90542072999087,1.89397443563275,1.89353456132993,1.81987474057755,1.8213664882132,1.82059192694084,1.82294429821244,1.82164380027367,1.82096486384975,1.82318336033353,1.91284121822972,1.9119423446544,1.89780899205515,1.82468467045402,1.76577976381574,1.85576274619662,1.76621963811856,1.76358995478649,1.81334356342918,1.81352525064122,1.76439320351338,1.86655879158536,1.7633508926654,1.76129495842396,1.95144496954445,1.85866974158916,1.76488089024042,1.76358995478649,1.76347520496837,1.76703244933029,1.76719501157263,1.76418282884681,1.77014025690455,1.93984567542883,1.76722369902717,1.76751057357248,1.76848594702656,1.771153880298,1.85418493619738,1.7694326330261,1.77049406884377,1.76875369660219,1.77101044302534,1.77048450635893,1.76659257502747,1.76840944714781,1.95610189966342,1.77019763181361,1.76957607029876,1.76664038745169,1.76705157429998,1.76831382229937,1.76672644981528,1.76732888636045,1.76511995236151,1.76540682690683,1.76596145102777,1.7656172015734,1.76680294969404,1.8656312305555,1.86224611092077,1.7662292006034,1.7631118305443,1.76371426708946,1.93686218015754,1.76402982908931,1.74677910643096,1.74522998388625,1.69476875136511,1.69380294039588,1.69728368487905,1.79737421373991,1.68843838639847,1.68619120246016,1.6901022587613,1.68743432548986,1.68818976179253,1.79461065562003,1.67935402579678,1.68305470743136,1.73238756674092,1.68192633421979,1.68130477270493,1.68176377197744,1.8014478322834,1.80060633361714,1.77764680750699,1.67750846622192,1.67664784258597,1.67772840337332,1.67911496367569,1.67797702797927,1.67525171979876,1.67583503137424,1.80333164179764,1.67411378410234,1.67412334658718,1.67297584840592,1.67511784501095,1.80040552143542,1.67592109373783,1.79932496064806
1.82086923900131,1.8138695000956,1.74093642819135,1.81716855736673,1.81587762191281,1.74111811540338,1.81361131300481,1.81099119215759,1.81120156682416,1.82352760978791,1.80974806912789,1.89548530823808,1.8223705491218,1.80859100846178,1.80726182306848,1.91002028520078,1.73517024983049,1.80704188591707,1.82553573160513,1.80432614022141,1.80389582840343,1.80424964034266,1.80368545373687,1.73084800668106,1.72932757159088,1.80388626591859,1.82691272942265,1.80305432973717,1.80319776700983,1.73089581910528,1.73068544443871,1.8069175736141,1.80368545373687,1.80285351755545,1.73361156480094,1.80625776215987,1.80835194634068,1.80905957021913,1.73872749419241,1.91159809520002,1.81609755906422,1.82959978766377,1.8275342909375,1.90255198453771,1.92805513161633,1.91657058731883,1.88116070594196,1.88200220460822,1.88012795757882,1.87928645891256,1.87738352442863,1.80596132512971,1.88197351715369,1.80688888615957,1.80443132755469,1.80472776458485,1.8045652023425,1.80467995216063,1.88091208133602,1.88189701727494,1.80657332415972,1.80501463913017,1.88643919757578,1.87911433418537,1.88419201363747,1.89924336478173,1.80472776458485,1.80716619822004,1.89324768678462,1.89358237375415,1.91196146962408,1.81014969349133,1.89984580132689,1.8924157506032,1.89669018132841,1.89748386757046,1.88683125945438,1.88623838539406,1.88747194593892,1.91237265647237,1.89622161957106,1.88933663048347,1.88948006775613,1.8903024414527,1.88981475472567,1.89020681660426,1.90784960114122,1.91031672223094,1.89237750066382,1.89220537593664,1.81929142900208,1.89266437520914,1.90639610344495,1.89950155187251,1.89332418666337,1.90046736284174,1.90044823787206,1.89954936429673,1.9026380469013,1.92155264192249,1.91538483919819,1.89998923859955,1.89364931114806,1.90970472320093,1.92079720561983,1.91588208841007,1.89362062369353,1.91515533956194,1.91528921434975,1.89360149872384,1.82128998833445,1.90894928689826,1.91128253320017,1.89390749823885,1.89636505684372,1.82189242487961,1.82219842439461,1.82228448675821,1.8238527342726,1.82242792403087,1.82632941784717,1.82342242245463,1.89778986708546,1.92436401246659,1.89877480302438,1.92123707992264,1.7667742622395,1.76640132533059,1.76769226078452,1.81583937197344,1.81338181336856,1.81326706355043,1.81248293979323,1.86342229655657,1.8564990575296,1.94172948494307,1.76355170484712,1.7632648303018,1.76477570290713,1.85690068189304,1.76417326636197,1.7636568921804,1.76412545393775,1.9401229874893,1.76598057599746,1.76558851411886,1.76667863739107,1.76625788805793,1.77123994266159,1.76868675920828,1.86028580152777,1.77039844399533,1.76891625884453,1.76954738284423,1.94721835124346,1.94871966136395,1.76552157672496,1.81701555760923,1.8427482043241,1.84007070856782,1.83875108565936,1.76702288684544,1.76514863981605,1.7671663241181,1.94552579142609,1.76496695260401,1.95586283754232,1.94783991275831,1.76675513726982,1.76621007563372,1.76649695017903,1.76390551678634,1.7653781394523,1.7649000152101,1.81234906500542,1.81282718924761,1.76442189096791,1.92274795252798,1.75025985091413,1.69695856039436,1.74422592297764,1.69099156985178,1.69430975209261,1.98306810692315,1.69122106948803,1.80403926567609,1.73811549516241,1.73436700110361,1.79570077889223,1.79937277307228,1.80041508392026,1.68265308306792,1.79508877986222,1.87058459770463,1.68119958537165,1.68031027428117,1.79956402276916,1.67813959022161,1.67828302749427,1.67931577585741,1.72736726219789,1.67976521264507,1.77063750611643,1.67692515464644,1.67337747276936,1.77050363132862,1.7681895099964,1.67591153125299,1.78522985798819,1.67606453101049,1.67465884573844,1.8030830171917,1.67251684913341,1.67313841064826
0,0,0,0,0,0,0,0,0,0,0,0,0,0,0,0,0,0,0,0,0,0,0,0,0,0,0,0,0,0,0,0,0,0,0,0,0,0,0,0,0,0,0,0,0,0,0,0,0,0,0,0,0,0,0,0,0,0,0,0,0,0,0,0,0,0,0,0,0,0,0,0,0,0,0,0,0,0,0,0,0,0,0,0,0,0,0,0,0,0,0,0,0,0,0,0,0,0,0,0,0,0,0,0,0,0,0,0,0,0,0,0,0,0,0,0,0,0,0,0,0,0,0,0,0,0,0,0,0,0,0,0,0,0,0,0,0,0,0,0,0,0,0,0,0,0,0,0,0,0,0,0,0,0,0,0,0,0,0,0,0,0,0,0,0,0,0,0,0,0,0,0,0,0,0,0,0,0,0,0,0,0,0,0,0,0,0,0,0,0,0,0,0,0,0,0,0,0,0,0,0,0,0,0,0,0,0,0,0,0,0,0,0,0
1.81818218076019,1.82322161027291,1.81974086578974,1.89470118448089,1.81334356342918,1.89695793090404,1.81186137827838,1.81067563015774,1.81161275367244,1.82285823584884,1.8072235731291,1.89555224563199,1.90652041574792,1.82470379542371,1.82323117275775,1.8239387966362,1.8046512647061,1.80391495337312,1.8272952288164,1.80502420161501,1.80410620307,1.80467995216063,1.7313356934081,1.82763947827078,1.72860082274275,1.83033609899675,1.82777335305859,1.90268585932552,1.80491901428173,1.80409664058516,1.80674544888691,1.80319776700983,1.72785494892493,1.80353245397937,1.80670719894753,1.80730007300785,1.8101210060368,1.81016881846102,1.83051778620879,1.9023320473863,1.90253285956802,1.81943486627473,1.82745779105875,1.82941810045174,1.82668322978639,1.76623876308825,1.88270982848667,1.89364931114806,1.89310424951196,1.88134239315399,1.87994627036679,1.87878920970068,1.87991758291225,1.80641076191737,1.80606651246299,1.88016620751819,1.8053493260997,1.80532063864517,1.80698451100801,1.88312101533495,1.88365651448621,1.88592282339421,1.88214564188088,1.89027375399817,1.90310660865865,1.90416804447632,1.89783767950968,1.87658983818658,1.90594666665729,1.88202132957791,1.89584868266215,1.88259507866854,1.87535627764172,1.81045569300633,1.89288431236055,1.90667341550542,1.89319031187555,1.88853338175659,1.9019399855077,1.90256154702255,1.89264525023945,1.90123236162925,1.89689099351013,1.91310896780535,1.92907831749462,1.90361342035538,1.89911905247876,1.89251137545164,1.90786872611091,1.91938195786293,1.90915009907998,1.91247784380565,1.90975253562515,1.90993422283718,1.89242531308804,1.89211931357304,1.9133384674416,1.91680008695509,1.92275751501282,1.89754124247952,1.91824402216651,1.82259048627321,1.90833728786825,1.90621441623291,1.89594430751059,1.90439754411258,1.90503823059712,1.89286518739086,1.8224566114854,1.89832536623672,1.90554504229384,1.90941784865561,1.90253285956802,1.89909992750907,1.8929608122393,1.8915646894521,1.82223667433399,1.82288692330337,1.82458904560558,1.8224566114854,1.89761774235827,1.89964498914517,1.823154672879,1.89541837084418,1.89932942714532,1.9192002706509,1.76691769951216,1.76836163472359,1.76414457890744,1.76526338963417,1.85028344238108,1.76643957526997,1.82915991336096,1.76488089024042,1.76545463933105,1.76406807902869,1.9383348028235,1.76563632654308,1.76303533066555,1.76163920787834,1.81787618124518,1.81868899245691,1.81896630451738,1.85953036522511,1.86031448898231,1.93194706294779,1.76671688733044,1.7679504478753,1.76697507442123,1.76606663836106,1.94217892173073,1.93940580112601,1.77044625641955,1.76980556993501,1.76851463448109,1.76705157429998,1.81755105676049,1.93616411876394,1.92609482222333,1.84310201626333,1.8420501429305,1.76802694775405,1.94965678487865,1.76512951484636,1.76536857696745,1.8140224998531,1.76770182326936,1.76397245418025,1.9290305050704,1.76402026660447,1.93638405591535,1.76656388757294,1.95067997075694,1.7652920770887,1.76329351775633,1.81164144112697,1.81387906258044,1.76205039472663,1.77962624186967,1.77914811762748,1.78268623701971,1.78207423798971,1.69316225391134,1.69256937985102,1.69156531894241,1.68739607555048,1.74057305376728,1.73457737577017,1.80591351270549,1.68634420221766,1.73093406904465,1.68592345288453,1.68527320391514,1.79421859374143,1.79674308974021,1.68173508452291,1.67877071422131,1.67867508937287,1.72784538644008,1.72757763686445,1.72454632916894,1.72792188631883,1.72746288704633,1.67557684428345,1.6747162206475,1.67694427961613,1.67488834537469,1.67393209689031,1.671990912467,1.80021427173854,1.79763240083069,1.677135529313,1.67446759604156,1.67302366083014
1.82012336518349,1.82267654863681,1.74188311419089,1.89610686975294,1.7410129280701,1.82374754693932,1.82360410966666,1.82307817300025,1.82287736081853,1.73754174607177,1.808638820886,1.80896394537069,1.73700624692052,1.80833282137099,1.73381237698266,1.73491206273971,1.73472081304283,1.90230335993177,1.806678511493,1.80514851391798,1.82646329263498,1.82638679275623,1.82681710457421,1.91634108768258,1.7312496310445,1.80336989173702,1.80658288664456,1.7308575691659,1.83234422081397,1.80448870246375,1.82926510069424,1.73091494407497,1.83221034602615,1.80609519991753,1.8064394493719,1.80759651003801,1.73675762231458,1.8304125988755,1.73961680528289,1.90184436065926,1.83114891020848,1.8298675372394,1.82944678790627,1.91937239537809,1.91295596804785,1.92135182974077,1.80650638676581,1.80717576070488,1.80798857191661,1.87873183479161,1.88227951666869,1.80733832294723,1.88114158097227,1.87961158339725,1.8798410830335,1.80597088761455,1.80624819967503,1.80608563743268,1.80577007543283,1.88007058266976,1.88427807600106,1.88785444533267,1.90068729999315,1.89838274114578,1.80708013585644,1.90223642253786,1.88290107818354,1.88168664260837,1.8799271453971,1.80938469470382,1.90445491902164,1.88447888818278,1.88401032642543,1.81202394052073,1.87948727109428,1.87912389667021,1.90993422283718,1.89672843126779,1.90363254532507,1.89948242690283,1.81413724967123,1.88862900660502,1.90267629684068,1.90644391586917,1.90652041574792,1.89035981636177,1.89643199423763,1.90380467005226,1.89891824029704,1.89366843611775,1.91307071786597,1.89319031187555,1.89894692775157,1.81975042827458,1.90051517526596,1.89426131017807,1.89310424951196,1.90361342035538,1.89126825242194,1.89901386514548,1.82166292524336,1.90222686005302,1.90189217308348,1.91517446453163,1.90689335265683,1.90377598259773,1.91542308913757,1.89392662320853,1.82312598542447,1.89372581102681,1.89291299981508,1.894203935269,1.89718743054029,1.89516018375339,1.89472030945057,1.89758905490374,1.89450037229917,1.8227626110004,1.82174898760695,1.82107005118304,1.82205498712196,1.82310686045478,1.82163423778882,1.92157176689218,1.91876039634808,1.82568873136263,1.7665543250881,1.86247561055702,1.81414681215607,1.94361329445732,1.76721413654232,1.76475657793745,1.76721413654232,1.94565010372906,1.76235639424163,1.76253808145367,1.85974073989167,1.76252851896882,1.76406807902869,1.76405851654384,1.84897338195747,1.82041023972881,1.82027636494099,1.85671899468101,1.76560763908855,1.76730976139076,1.76757751096639,1.76711851169388,1.76653520011841,1.76831382229937,1.76792176042077,1.76770182326936,1.76624832557309,1.77066619357096,1.76870588417797,1.76866763423859,1.76792176042077,1.76681251217888,1.76632482545184,1.81491181094358,1.95310884190729,1.93581986930956,1.76664994993653,1.7665543250881,1.81523693542827,1.81442412421654,1.81295150155058,1.76524426466448,1.76476614042229,1.7638959543015,1.92968075403979,1.76517732727058,1.76101764636349,1.81131631664228,1.81033138070336,1.76446014090729,1.76410632896806,1.81250206476292,1.74502917170453,1.77940630471827,1.69443406439558,1.74058261625213,1.74767798000628,1.68923207264051,1.78582273204851,1.78401542241301,1.68721438833845,1.73769474582928,1.73354462740703,1.73202419231686,1.73083844419622,1.68265308306792,1.79720208901272,1.79470628046847,1.73324819037687,1.73162256795341,1.79445765586253,1.7978523379821,1.67794834052473,1.67677215488894,1.72518701565348,1.67731721652504,1.72774976159164,1.67710684185847,1.67616015585893,1.67507959507157,1.67533778216235,1.80016645931432,1.67708771688878,1.67683909228284,1.79690565198256,1.67395122185999,1.67181878773981,1.67204828737606
1.74345136170529,1.74274373782684,1.8226956736065,1.82271479857618,1.74303061237216,1.74015230443415,1.73893786885898,1.81239687742964,1.82280086093978,1.82377623439385,1.8237857968787,1.82403442148464,1.81152669130885,1.82756297839203,1.80952813197648,1.80947075706741,1.80827544646193,1.80782600967427,1.80868663331022,1.82805066511907,1.82924597572455,1.80585613779643,1.90895884938311,1.82802197766453,1.80454607737282,1.82794547778578,1.80363764131265,1.90992466035234,1.72916500934854,1.83008747439081,1.80476601452423,1.83170353432943,1.83243028317756,1.806372511978,1.80992019385508,1.80793119700755,1.80710882331098,1.73868924425304,1.81305668888387,1.81421374954998,1.83165572190521,1.81779011888159,1.8204293646985,1.90735235192934,1.90895884938311,1.90346042059788,1.90128973653832,1.8936588736329,1.88896369357456,1.80711838579582,1.806372511978,1.88653482242422,1.88736675860563,1.88213607939603,1.87994627036679,1.88305407794104,1.80490945179688,1.80668807397785,1.88264289109276,1.88425895103137,1.88126589327524,1.88627663533343,1.89609730726809,1.8076156350077,1.88300626551683,1.90570760453619,1.88064433176039,1.88133283066915,1.89290343733024,1.88598976078812,1.88930794302894,1.89711093066154,1.8988226154486,1.89550443320777,1.89369712357228,1.88526301193998,1.89533230848058,1.89830624126703,1.8148735610042,1.90869109980748,1.90328829587069,1.89267393769399,1.90658735314183,1.90064905005378,1.89361106120868,1.89419437278416,1.90641522841464,1.81958786603224,1.90308748368897,1.90846160017123,1.81974086578974,1.89281737496664,1.90177742326536,1.90416804447632,1.90275279671943,1.90256154702255,1.89406049799635,1.89205237617913,1.89336243660274,1.90947522356468,1.91909508331762,1.8224566114854,1.90204517284098,1.902963171386,1.90566935459681,1.90945609859499,1.82285823584884,1.90337435823428,1.89946330193314,1.91102434610938,1.89774205466124,1.89651805660122,1.9092839738678,1.89950155187251,1.89614511969231,1.89565743296527,1.82253311136415,1.8972543679342,1.89739780520686,1.89800980423687,1.89949198938767,1.90291535896178,1.91092872126095,1.92243239052813,1.91759377319713,1.92065376834717,1.76817994751155,1.86150023710295,1.85933911552823,1.7667073248456,1.94562141627453,1.85592530843897,1.76392464175603,1.76364732969556,1.76485220278588,1.9323869372506,1.76421151630135,1.76471832799807,1.76409676648322,1.86066830092153,1.76395332921056,1.85936780298276,1.93776105373286,1.8198843030624,1.76534945199777,1.76745319866342,1.84774938389745,1.81615493397328,1.76772094823905,1.81814393082081,1.76995856969252,1.9423892963973,1.9331710610078,1.94257098360933,1.94360373197247,1.94565010372906,1.76831382229937,1.76699419939091,1.81661393324579,1.94847103675801,1.95154059439289,1.95205696857446,1.76760619842092,1.81358262555028,1.8451005755957,1.81373562530778,1.76411589145291,1.76441232848307,1.76390551678634,1.76447926587697,1.93290331143217,1.94537279166859,1.76401070411962,1.76363776721071,1.81013056852164,1.81036006815789,1.82343198493947,1.81055131785477,1.69619356160685,1.69423325221386,1.74221780116043,1.74075474097932,1.74069736607025,1.75825408824361,1.6904943206399,1.78784041635056,1.78697023022977,1.7906804743492,1.78784041635056,1.78636779368461,1.73252144152874,1.73211981716529,1.68176377197744,1.68153427234119,1.72752982444023,1.6783977773124,1.67951658803913,1.6772215916766,1.72621020153178,1.75899039957659,1.72757763686445,1.72507226583536,1.79662833992209,1.8002047092537,1.67596890616205,1.67505090761704,1.67426678385984,1.67458234585969,1.67085297677058,1.80194508149528,1.67451540846578,1.80315951707046,1.80634382452347,1.80421139040328
1.82139517566773,1.81899499197191,1.81878461730535,1.81328618852012,1.81734068209392,1.81384081264107,1.81494049839811,1.82130911330413,1.90403416968851,1.82442648336324,1.91201884453315,1.90290579647693,1.90857634998935,1.73600218601191,1.82732391627093,1.82873916402783,1.92304438955814,1.73685324716301,1.82884435136111,1.82935116305783,1.80769213488645,1.80692713609894,1.90269542181037,1.83329090681351,1.73222500449858,1.80404882816094,1.91546133907694,1.80660201161425,1.83122541008723,1.8313497223902,1.7324258166803,1.83020222420894,1.80694626106863,1.73473037552767,1.73409925152798,1.73461562570955,1.83165572190521,1.81200481555104,1.83232509584428,1.74243773831184,1.83347259402554,1.81958786603224,1.74763973006691,1.91743121095478,1.90637697847526,1.90410110708242,1.89340068654212,1.88899238102909,1.88058695685132,1.80656376167488,1.89008250430129,1.88981475472567,1.88110333103289,1.88223170424447,1.88356088963777,1.80804594682568,1.80727138555332,1.87817721067067,1.88120851836618,1.8776608364891,1.88540644921264,1.88550207406108,1.80799813440146,1.88139020557821,1.88192570472947,1.88084514394211,1.88987212963473,1.88230820412322,1.8948350592687,1.88291064066839,1.89286518739086,1.88392426406184,1.89657543151029,1.88598019830327,1.88710857151485,1.89914773993329,1.81439543676201,1.81474924870123,1.88913581830175,1.88649657248484,1.89540880835933,1.89026419151333,1.88847600684752,1.8176179941544,1.81696774518501,1.8960781822984,1.90327873338584,1.89453862223854,1.82068755178928,1.90583191683916,1.90084029975066,1.89556180811684,1.91082353392766,1.82261917372774,1.90867197483779,1.91387396659286,1.9020929852652,1.9066256030812,1.89896605272126,1.89721611799483,1.89485418423839,1.91183715732111,1.90869109980748,1.89751255502499,1.89628855696497,1.90281017162849,1.90376642011288,1.89953980181189,1.91562390131929,1.90898753683764,1.82281042342462,1.89630768193466,1.89669974381326,1.90249460962865,1.89698661835857,1.89729261787358,1.89751255502499,1.82306861051541,1.90270498429521,1.89956848926642,1.89870786563047,1.90011355090252,1.90699853999011,1.9015479236291,1.9185022092573,1.90087854969003,1.76876325908703,1.7686485092689,1.76802694775405,1.76712807417873,1.766621262482,1.94700797657689,1.7638959543015,1.81364000045934,1.84608551153462,1.76224164442351,1.85892792867994,1.85956861516448,1.76412545393775,1.95522215105778,1.76327439278665,1.93364918525,1.76427845369525,1.7652251396948,1.81416593712576,1.8141754996106,1.76853375945078,1.81705380754861,1.76999681963189,1.84707044747354,1.84665926062525,1.76941350805641,1.76729063642107,1.76711851169388,1.77016894435908,1.76885888393547,1.95589152499685,1.94370891930575,1.76635351290637,1.76682207466372,1.76793132290561,1.94323079506356,1.94179642233698,1.81560030985234,1.81403206233794,1.76551201424011,1.82318336033353,1.81385037512591,1.76351345490774,1.76484264030104,1.76231814430226,1.76216514454476,1.76307358060492,1.93483493337064,1.76119933357552,1.81092425476368,1.7616296453935,1.76087420909083,1.69467312651667,1.692999691669,1.69413762736542,1.69057082051865,1.69129756936679,1.68905038542847,1.68753951282314,1.68665020173266,1.68683188894469,1.68322683215855,1.68631551476313,1.68547401609686,1.68228014615901,1.68253833324979,1.68056846137196,1.73012125783292,1.72738638716758,1.67889502652428,1.67661915513143,1.67920102603928,1.67678171737378,1.75851227533439,1.72672657571335,1.7254738901988,1.80021427173854,1.79625540301318,1.67520390737454,1.67532821967751,1.72388651771472,1.67470665816266,1.67437197119312,1.80052027125355,1.67296628592107,1.67171360040653,1.67261247398185,1.6749552827686
0,0,0,0,0,0,0,0,0,0,0,0,0,0,0,0,0,0,0,0,0,0,0,0,0,0,0,0,0,0,0,0,0,0,0,0,0,0,0,0,0,0,0,0,0,0,0,0,0,0,0,0,0,0,0,0,0,0,0,0,0,0,0,0,0,0,0,0,0,0,0,0,0,0,0,0,0,0,0,0,0,0,0,0,0,0,0,0,0,0,0,0,0,0,0,0,0,0,0,0,0,0,0,0,0,0,0,0,0,0,0,0,0,0,0,0,0,0,0,0,0,0,0,0,0,0,0,0,0,0,0,0,0,0,0,0,0,0,0,0,0,0,0,0,0,0,0,0,0,0,0,0,0,0,0,0,0,0,0,0,0,0,0,0,0,0,0,0,0,0,0,0,0,0,0,0,0,0,0,0,0,0,0,0,0,0,0,0,0,0,0,0,0,0,0,0,0,0,0,0,0,0,0,0,0,0,0,0,0,0,0,0,0,0
1.82257136130353,1.82070667675897,1.82341285996979,1.82407267142401,1.81466318633764,1.81530387282218,1.82293473572759,1.8129323765809,1.81596368427641,1.81055131785477,1.73794337043522,1.81130675415744,1.82764904075562,1.81036006815789,1.80977675658242,1.82889216378533,1.91463896538037,1.91688614931868,1.73321950292234,1.80615257482659,1.8282323523311,1.80460345228188,1.8046512647061,1.83135928487505,1.73119225613544,1.80391495337312,1.83293709487429,1.80380976603984,1.83309009463179,1.83229640838975,1.832831907541,1.83278409511679,1.83284147002585,1.73371675213422,1.809250819916,1.81334356342918,1.80884919555256,1.81298975148996,1.9052964176879,1.83442884250993,1.83418021790399,1.82356585972729,1.8335490939043,1.83012572433019,1.83351084396492,1.76994900720767,1.90314485859803,1.90509560550618,1.8802331449121,1.91090959629126,1.89385012332978,1.80835194634068,1.80729051052301,1.8907805656949,1.87973589570022,1.80663069906878,1.80720444815941,1.80826588397709,1.88214564188088,1.88303495297136,1.88686950939375,1.88446932569794,1.88552119903077,1.90427323180961,1.89327637423915,1.88231776660807,1.89870786563047,1.88243251642619,1.80978631906726,1.88275764091088,1.89762730484311,1.81139281652103,1.81204306549042,1.89323812429977,1.88849513181721,1.89667105635873,1.89464380957182,1.81418506209544,1.90048648781143,1.81612624651875,1.88908800587753,1.89910948999391,1.8907805656949,1.91206665695737,1.81972174082005,1.81946355372926,1.9020929852652,1.90682641526292,1.89881305296375,1.90020917575096,1.89534187096543,1.90962822332218,1.90009442593283,1.89472987193542,1.90266673435584,1.89978842641783,1.90252329708318,1.90469398114274,1.82124217591023,1.89641286926794,1.89503587145042,1.90937959871624,1.90784003865637,1.9095230359889,1.90634829102073,1.90345085811303,1.90685510271745,1.89653718157091,1.91564302628898,1.90739060186871,1.82275304851556,1.82283911087915,1.89730218035842,1.90651085326307,1.89589649508637,1.89702486829795,1.89461512211729,1.89992230120564,1.89567655793496,1.89822017890343,1.90126104908379,1.8233937350001,1.89608774478325,1.92054858101389,1.89671886878294,1.89891824029704,1.76723326151201,1.94202592197323,1.81461537391342,1.76558851411886,1.76357082981681,1.76304489315039,1.76219383199929,1.81508393567077,1.8148066236103,1.76345607999868,1.76436451605885,1.76458445321026,1.94362285694216,1.94312560773028,1.76465139060416,1.76512951484636,1.76039608484864,1.76791219793593,1.76720457405748,1.76578932630059,1.76450795333151,1.84672619801916,1.81609755906422,1.8169868701547,1.81624099633688,1.76467051557385,1.7667742622395,1.93493055821908,1.76691769951216,1.76694638696669,1.76935613314735,1.77030281914689,1.95192309378665,1.76649695017903,1.7670993867242,1.769193570905,1.76654476260325,1.76550245175527,1.76417326636197,1.76527295211902,1.95207609354415,1.76600926345199,1.76419239133166,1.85129706577453,1.76220339448413,1.75997533551551,1.93719686712707,1.7632648303018,1.76216514454476,1.92834200616165,1.76122802103006,1.76044389727286,1.69365950312322,1.6942428146987,1.79686740204318,1.79288940834813,1.68855313621659,1.68868701100441,1.68609557761172,1.68770207506549,1.79005891283434,1.68535926627874,1.68435520537013,1.96103614184286,1.68079796100821,1.787324042169,1.77404175072085,1.67952615052397,1.74284892516012,1.67984171252382,1.67882808913037,1.68028158682664,1.67656178022237,1.67804396537317,1.67584459385908,1.74969566430834,1.67820652761552,1.67555771931376,1.78789779125963,1.67415203404171,1.72412557983581,1.79806271264867,1.79657096501302,1.67236384937591,1.79995608464776,1.6759784686469,1.67416159652656,1.79721165149756
1.90356560793116,1.9059275416876,1.81645137100344,1.82609991821092,1.82712310408921,1.81676693300329,1.82777335305859,1.82783072796766,1.8293224756033,1.73965505522227,1.81272200191433,1.73861274437429,1.82903560105799,1.81073300506681,1.82969541251221,1.82938941299721,1.82893997620955,1.80654463670519,1.80668807397785,1.83043172384519,1.80660201161425,1.80635338700831,1.73350637746766,1.80414445300937,1.80396276579734,1.80387670343375,1.80317864204014,1.83277453263194,1.80398189076703,1.90680729029323,1.83246853311694,1.73370718964938,1.73324819037687,1.91923852059027,1.83371165614664,1.83414196796462,1.73740787128396,1.74029574170681,1.83352996893461,1.81538037270093,1.83689596359965,1.74935141485396,1.83368296869211,1.82600429336248,1.83480177941884,1.90384291999163,1.8832835775773,1.90436885665805,1.91282209326003,1.90601360405119,1.8840677013345,1.88250901630494,1.80674544888691,1.88362782703168,1.80959506937038,1.80928906985538,1.8826524535776,1.88266201606245,1.88270026600182,1.80738613537145,1.88517694957639,1.8799271453971,1.88025226988179,1.89391706072369,1.8955331206623,1.89604949484387,1.8853108243642,1.88326445260761,1.88416332618293,1.88441195078888,1.88438326333434,1.89957805175126,1.89902342763032,1.89715874308576,1.81398424991372,1.90259023447709,1.91658014980368,1.89705355575248,1.81657568330641,1.88991994205895,1.90750535168684,1.81705380754861,1.89013031672551,1.88856206921112,1.81899499197191,1.90523904277884,1.90417760696117,1.9113972830183,1.89434737254166,1.89417524781447,1.91887514616621,1.90946566107983,1.912334406533,1.90583191683916,1.90238942229536,1.90966647326155,1.89664236890419,1.89927205223626,1.91611158804633,1.92172476664968,1.82240879906118,1.90720891465668,1.82270523609134,1.9066256030812,1.8967953686617,1.9232547642247,1.89973105150877,1.91064184671563,1.93024494064558,1.89653718157091,1.89604949484387,1.89833492872156,1.91227703162393,1.91352015465364,1.822848673364,1.89714918060092,1.89881305296375,1.8995206768422,1.89584868266215,1.90256154702255,1.90086898720519,1.90222686005302,1.89910948999391,1.82395792160589,1.91223878168456,1.89941548950892,1.76794088539046,1.76628657551247,1.76480439036167,1.76667863739107,1.76533988951292,1.7646800780587,1.76319789290789,1.81658524579126,1.8179239936694,1.81808655591175,1.81918624166879,1.85676680710523,1.76331264272602,1.76386726684697,1.94621429033485,1.85148831547141,1.76354214236227,1.81974086578974,1.82171073766758,1.82120392597085,1.76584670120965,1.81652787088219,1.76652563763356,1.76731932387561,1.93982655045914,1.95866464560158,1.76589451363387,1.94865272397004,1.76665951242138,1.93269293676561,1.7653781394523,1.76743407369373,1.76734801133014,1.77054188126799,1.763742954544,1.94281960821527,1.93225306246279,1.9302927530698,1.76675513726982,1.76509126490698,1.76487132775557,1.76246158157492,1.76336045515024,1.76100808387865,1.76105589630287,1.76050127218192,1.7605395221213,1.76042477230317,1.76036739739411,1.75899039957659,1.76019527266692,1.69101069482147,1.69060907045803,1.69368819057775,1.6918235060332,1.79373090701439,1.68780726239877,1.6868988263386,1.68682232645985,1.68513932912733,1.68686057639923,1.73096275649919,1.68450820512763,1.6831503322798,1.68121871034134,1.68056846137196,1.68144820997759,1.78945647628918,1.68099877318993,1.67949746306944,1.79146459810639,1.6780726528277,1.6780057154338,1.68055889888711,1.67660003016175,1.67635140555581,1.67457278337484,1.67536646961689,1.67088166422511,1.67591153125299,1.67429547131437,1.79417078131721,1.67445803355672,1.67279416119388,1.67267941137576,1.72210789553376,1.67391297192062,1.67119722622496
1.90194954799255,1.82512454475684,1.92875319300993,1.81929142900208,1.81665218318516,1.83084291069348,1.83412284299493,1.82750560348297,1.82752472845265,1.81445281167107,1.81388862506528,1.82915991336096,1.8128463142173,1.82983884978487,1.82953285026987,1.81092425476368,1.8083997587649,1.91374965428989,1.80779732221974,1.73550493680003,1.73395581425532,1.80699407349285,1.73189988001389,1.80536845106939,1.80615257482659,1.80632469955378,1.91888470865105,1.73206244225623,1.80692713609894,1.80373326616109,1.90624310368745,1.80636294949315,1.91973576980216,1.80872488324959,1.80914563258272,1.80963331930976,1.81084775488493,1.91064184671563,1.81784749379065,1.81832561803284,1.74574635806782,1.8194922411838,1.82087880148616,1.83389334335867,1.83360646881336,1.90570760453619,1.886793009515,1.88332182751667,1.8834365773348,1.88445020072825,1.88331226503183,1.89426131017807,1.90275279671943,1.89284606242117,1.89419437278416,1.80990106888539,1.88371388939527,1.80849538361334,1.80721401064426,1.80635338700831,1.80669763646269,1.80753913512895,1.88295845309261,1.88213607939603,1.88088339388148,1.89917642738782,1.88329314006214,1.89563830799559,1.89633636938919,1.88599932327296,1.88602801072749,1.88892544363519,1.88873419393831,1.81314275124746,1.89762730484311,1.813477438217,1.90585104180885,1.81377387524716,1.90684554023261,1.90695072756589,1.90361342035538,1.89227231333054,1.89133518981584,1.90927441138295,1.89001556690739,1.82063017688022,1.82041980221365,1.90648216580854,1.91244915635112,1.81973130330489,1.89338156157243,1.82013292766834,1.91046972198844,1.90246592217411,1.9113112206547,1.90362298284022,1.90012311338737,1.82349892233338,1.89621205708622,1.91019240992797,1.90271454678006,1.90770616386856,1.90673079041448,1.91092872126095,1.89569568290465,1.89581043272278,1.82377623439385,1.91289859313878,1.89777074211577,1.8240917963937,1.89835405369125,1.89537055841996,1.91847352180276,1.89637461932857,1.89665193138904,1.89864092823656,1.89818192896406,1.89526537108668,1.89729261787358,1.89963542666033,1.90031436308424,1.82492373257512,1.90008486344799,1.89942505199376,1.90906403671639,1.91393134150192,1.76931788320798,1.85065637928999,1.76458445321026,1.92565494792052,1.76510082739183,1.76462270314963,1.76487132775557,1.76337958011993,1.76156270799959,1.76384814187728,1.76371426708946,1.76223208193866,1.85827767971056,1.76249983151429,1.85744574352914,1.85432837347004,1.76554070169464,1.76667863739107,1.82129955081929,1.82061105191053,1.8203433023349,1.76717588660295,1.95587240002717,1.76619095066403,1.93815311561146,1.76689857454247,1.76705157429998,1.95028790887834,1.76829469732968,1.76758707345123,1.9581673963897,1.9519135313018,1.81513174809499,1.85761786825633,1.85655643243866,1.76823732242062,1.76584670120965,1.76760619842092,1.76439320351338,1.7629588307868,1.76521557720995,1.84660188571619,1.84519620044414,1.76507213993729,1.76213645709022,1.75781421394079,1.9423032340337,1.76026221006082,1.76070208436364,1.76176352018131,1.85512205971208,1.75880871236455,1.69240681760868,1.79121597350045,1.69126888191225,1.78955210113762,1.68844794888331,1.68806544948956,1.79277465853001,1.68758732524736,1.73208156722592,1.73028382007527,1.74812741679394,1.68196458415916,1.68119958537165,1.79136897325796,1.78968597592543,1.68216539634088,1.7967622147099,1.67934446331194,1.68030071179633,1.79317628289345,1.79045097471294,1.78893053962277,1.80539713852392,1.67501265767766,1.67403728422359,1.67535690713204,1.67463972076875,1.6744102211325,1.79695346440678,1.67493615779891,1.7930997830147,1.67260291149701,1.67359740992077,1.67288978604232,1.76805563520858,1.67281328616357
1.82765860324047,1.82709441663468,1.82630073039264,1.82723785390734,1.82461773306011,1.8168338703972,1.9185691466512,1.90398635726429,1.90319267102225,1.82811760251297,1.82870091408845,1.81083819240009,1.81085731736978,1.81173706597541,1.73603087346644,1.81125894173322,1.73627949807238,1.83025003663316,1.83098634796614,1.73416618892188,1.80692713609894,1.83087159814801,1.73364025225547,1.8326119703896,1.80547363840267,1.91922895810543,1.83399853069196,1.8068315112505,1.73373587710391,1.73458693825502,1.80616213731143,1.80630557458409,1.83334828172257,1.83356821887398,1.73714012170833,1.73594481110285,1.91011591004922,1.81355393809575,1.81461537391342,1.81832561803284,1.82006599027443,1.82408223390886,1.75047978806554,1.82902603857314,1.93596330658221,1.91615940047055,1.89385968581463,1.89901386514548,1.80931775730991,1.81096250470306,1.8854638241217,1.88388601412246,1.8855498864853,1.88102683115414,1.80979588155211,1.88542557418233,1.88368520194074,1.88901150599878,1.80801725937114,1.80657332415972,1.88530126187936,1.88222214175963,1.80960463185523,1.90291535896178,1.89628855696497,1.88226995418385,1.81125894173322,1.9096760357464,1.81242556488417,1.91570996368288,1.88783532036298,1.88688863436344,1.81370693785325,1.91615940047055,1.89927205223626,1.89603036987419,1.815743747125,1.88841863193846,1.89352499884509,1.88938444290769,1.90828947544404,1.89211931357304,1.81888024215379,1.90861459992873,1.89034069139208,1.90273367174974,1.89800980423687,1.89575305781371,1.91794758513635,1.90410110708242,1.82329811015166,1.90292492144662,1.90575541696041,1.91640802507649,1.90811735071685,1.90375685762804,1.82331723512135,1.82331723512135,1.82303992306087,1.89990317623596,1.89450037229917,1.89229143830023,1.91029759726125,1.89718743054029,1.89681449363138,1.82489504512059,1.8241778587573,1.82350848481822,1.8232407352426,1.91530833931944,1.91043147204906,1.89674755623748,1.89850705344875,1.89973105150877,1.8999127387208,1.89959717672095,1.89966411411486,1.89893736526672,1.90250417211349,1.9016339859927,1.82420654621183,1.90410110708242,1.90317354605256,1.9034221706585,1.91221965671487,1.91057490932172,1.76995856969252,1.76992031975314,1.92799775670727,1.76812257260249,1.76658301254263,1.85866017910432,1.76603795090653,1.76527295211902,1.76394376672572,1.81133544161197,1.81007319361258,1.76321701787758,1.76358039230165,1.76345607999868,1.76644913775481,1.76439320351338,1.76458445321026,1.76393420424087,1.82030505239553,1.82077361415288,1.82623379299873,1.76793132290561,1.76739582375436,1.76851463448109,1.76792176042077,1.81911930427489,1.7672523864817,1.94239885888214,1.76636307539122,1.76714719914842,1.76884932145063,1.93573380694596,1.76762532339061,1.76700376187576,1.844469451596,1.81396512494404,1.81343918827762,1.76985338235923,1.94822241215206,1.76364732969556,1.93532262009768,1.76092202151505,1.76136189581787,1.76083595915146,1.75996577303066,1.7611515211513,1.75844533794049,1.93577205688534,1.92757700737413,1.75877046242518,1.75876089994034,1.69474006391058,1.79334840762064,1.79090997398545,1.69205300566945,1.68834276155003,1.68821844924706,1.68764470015642,1.73464431316408,1.73155563055951,1.68434564288529,1.76667863739107,1.78642516859367,1.78574623216976,1.72836176062165,1.78892097713792,1.78664510574508,1.78654948089664,1.68055889888711,1.67553859434408,1.67766146597942,1.6795548379785,1.6780726528277,1.67577765646517,1.67790052810051,1.78939910138012,1.67508915755641,1.78959035107699,1.7915315355003,1.76745319866342,1.76638220036091,1.79731683883085,1.86347967146563,1.67456322089,1.67340616022389,1.79294678325719,1.79250690895438,1.6730810357392
0,0,0,0,0,0,0,0,0,0,0,0,0,0,0,0,0,0,0,0,0,0,0,0,0,0,0,0,0,0,0,0,0,0,0,0,0,0,0,0,0,0,0,0,0,0,0,0,0,0,0,0,0,0,0,0,0,0,0,0,0,0,0,0,0,0,0,0,0,0,0,0,0,0,0,0,0,0,0,0,0,0,0,0,0,0,0,0,0,0,0,0,0,0,0,0,0,0,0,0,0,0,0,0,0,0,0,0,0,0,0,0,0,0,0,0,0,0,0,0,0,0,0,0,0,0,0,0,0,0,0,0,0,0,0,0,0,0,0,0,0,0,0,0,0,0,0,0,0,0,0,0,0,0,0,0,0,0,0,0,0,0,0,0,0,0,0,0,0,0,0,0,0,0,0,0,0,0,0,0,0,0,0,0,0,0,0,0,0,0,0,0,0,0,0,0,0,0,0,0,0,0,0,0,0,0,0,0,0,0,0,0,0,0
