1.75188, 1.86164, 1.75412, 1.7548, 1.75217, 1.75259, 1.75359, 2.01679, 1.7485, 1.74812, 1.74782, 1.74603, 1.74876, 1.74699, 1.79896, 1.74738, 1.74836, 1.75063, 1.74763, 1.74674, 1.74698, 2.01802, 1.74763, 1.74648, 1.74489, 1.74651, 1.74479, 1.74511, 1.74543, 1.74499, 1.92732, 2.03191, 1.74165, 1.79324, 1.74687, 1.84725, 1.85179, 1.80526, 1.80766, 1.73792, 1.73759, 1.73769, 1.85133, 1.73558, 1.73513, 1.7372, 1.73852, 1.84917, 1.85119, 1.73677, 1.73922, 1.74051, 1.82004, 1.81916, 1.81751, 1.8955, 1.89587, 1.81616, 1.97502, 1.98707, 1.81716, 1.81678, 1.8178, 1.81728, 1.97293, 1.81547, 1.81497, 1.97251, 1.9995, 1.81453, 1.89394, 1.88914, 1.89657, 1.97307, 1.89676, 1.90006, 1.97775, 1.88625, 1.89607, 1.89348, 1.99064, 1.88931, 1.90247, 1.90443, 1.81065, 1.81105, 1.88846, 1.88888, 1.88955, 1.90356, 1.89244, 1.89264, 1.98329, 1.89595, 1.90627, 1.98639, 1.90748, 1.90655, 2.01842, 1.99711, 1.97021, 2.00638, 1.88582, 1.96516, 1.97284, 1.88728, 1.88631, 1.88635, 1.96362, 1.97259, 1.88675, 1.96619, 1.97242, 1.97035, 1.99228, 1.8888, 1.96719, 1.96956, 1.96932, 1.89278, 1.96912, 1.98801, 1.9943, 1.89591, 1.97287, 1.97253, 1.99247, 1.97292, 1.99718, 2.00172, 1.97602, 1.97742, 2.00052, 1.98254, 1.98, 2.00986, 1.98041, 1.98209, 2.00427, 1.98989, 1.98309, 1.99962, 2.00554, 1.99299, 1.98321, 1.99138, 1.98448, 2.00083, 2.00796, 1.91041, 1.90983, 1.99368, 1.98345, 1.98683, 1.98891, 1.99242, 2.00356, 1.99959, 1.98956, 1.98732, 1.91098, 1.98999, 1.99083, 1.91288, 1.91332, 1.91306, 1.9128, 1.91396, 1.99526, 1.91507, 1.99677, 1.91694, 2.00589, 1.84716, 1.90341, 1.84401, 1.84711, 1.848, 1.84875, 1.8964, 1.89761, 1.84929, 1.89844, 1.95832, 1.95656, 1.84986, 1.85132, 1.92454, 1.85423, 1.85269, 2.03237, 1.85329, 1.85543, 1.85564, 1.85776, 1.85443, 1.85498, 2.03793, 2.05169, 1.85348, 1.85754, 1.90572, 1.8548, 2.049, 1.85261, 1.85333, 1.84879, 1.85265, 1.85092, 1.85107, 1.84975, 1.85107, 1.8477, 2.03493, 1.84918, 2.03496, 1.84933, 1.85159, 1.93983, 1.85186, 1.78531, 1.88321, 1.77967, 1.77874, 1.87445, 1.88694, 1.87989, 1.77393, 1.82329, 1.77051, 1.76974, 1.76797, 1.76537, 1.83048, 1.76794, 1.76396, 1.7623, 1.85888, 1.76261, 1.89407, 1.81397, 1.81288, 1.88003, 1.80902, 1.76249, 1.7601, 1.76028, 1.76029, 1.7602, 1.75889, 1.75811, 2.07243, 1.88981, 1.75807, 1.75687, 1.75395, 1.87399, 1.75656, 1.75495, 1.90034, 1.75028, 1.8891, 1.74807, 1.74435, 1.74298, 1.74296, 1.7406, 1.73606, 1.95168, 1.74462
1.93318, 1.75297, 1.75461, 1.75524, 1.75603, 1.75233, 1.75353, 1.75425, 1.92694, 1.75439, 2.02275, 2.04158, 1.74767, 1.85059, 1.74876, 1.75031, 1.85475, 1.748, 1.75107, 1.74689, 1.74706, 1.75065, 1.74767, 1.74563, 1.74866, 1.74779, 1.74602, 1.79627, 1.79893, 1.74618, 1.85088, 1.74406, 1.86477, 1.86564, 1.8696, 1.7414, 1.84521, 1.8468, 1.73923, 1.92134, 1.73597, 1.73591, 1.73329, 1.73693, 1.73656, 1.73206, 1.73709, 1.7345, 1.73649, 1.7372, 1.73883, 1.80348, 1.8038, 1.89951, 1.82044, 1.82034, 1.82003, 1.9736, 1.9749, 1.89961, 1.96983, 1.81753, 1.81701, 2.00429, 1.893, 1.97224, 1.89578, 1.89602, 1.97394, 1.89256, 1.8969, 1.81481, 1.89255, 1.894, 1.8941, 1.8969, 1.88887, 1.89927, 1.90017, 1.90221, 1.81163, 1.88439, 1.88819, 1.88237, 1.90339, 1.81226, 1.88788, 1.90465, 1.99055, 1.81414, 1.90607, 1.90688, 1.90981, 1.89607, 1.99734, 1.82489, 1.9026, 1.98664, 1.98608, 1.98245, 1.96336, 1.95885, 1.98561, 1.96137, 1.98888, 1.96405, 1.88615, 1.96546, 1.9713, 1.9724, 1.97114, 1.88725, 1.97196, 1.97274, 1.96651, 1.96656, 1.96927, 1.99922, 1.99272, 1.89265, 1.98209, 1.99327, 1.99066, 1.89449, 1.8964, 1.99226, 1.99366, 1.9754, 1.89873, 2.00062, 2.01009, 2.00248, 1.99567, 1.99373, 1.98361, 1.98099, 2.00393, 2.00006, 2.00737, 2.00322, 2.00411, 1.98215, 2.0039, 1.98951, 1.98742, 1.98999, 1.90906, 1.99505, 1.99891, 2.00149, 1.99359, 1.98934, 1.90793, 2.00794, 1.90976, 2.01515, 1.90926, 1.98388, 1.91017, 1.99402, 1.99129, 1.98974, 1.90996, 1.91102, 1.91039, 1.91175, 1.91383, 1.91408, 1.91448, 2.01042, 2.00729, 1.99263, 1.93804, 1.84471, 1.84403, 1.84275, 2.02786, 1.8477, 1.89686, 1.92025, 1.8975, 1.84781, 1.91725, 1.91632, 1.84895, 1.84805, 1.85259, 1.85261, 1.85449, 1.90353, 1.85374, 2.04413, 1.85564, 1.85468, 2.0427, 2.03901, 2.04878, 1.85636, 1.85538, 1.855, 1.85565, 1.90848, 1.90704, 1.85192, 1.85167, 2.03826, 2.03268, 1.85283, 1.85105, 1.84973, 1.84738, 1.84549, 1.84965, 2.04159, 1.84666, 1.85059, 1.851, 1.851, 1.85162, 1.90255, 1.78607, 1.77991, 1.88643, 1.78012, 1.77511, 1.77532, 1.88868, 1.77125, 1.77511, 1.88757, 1.89373, 1.82699, 1.76649, 1.77077, 1.76523, 1.8901, 1.76504, 1.89228, 1.76423, 1.76471, 1.76237, 1.76329, 1.80995, 1.80999, 1.80934, 1.7607, 1.7593, 1.89564, 1.89274, 1.8857, 1.7563, 1.75615, 1.75646, 1.80537, 1.75562, 1.88702, 1.88927, 1.75492, 1.75421, 1.87902, 1.75113, 1.87119, 1.7978, 1.74377, 1.74787, 1.88189, 1.88348, 1.74069, 1.89266, 1.74466
1.75745, 1.75766, 1.75473, 1.7573, 1.75786, 1.75818, 1.75611, 2.01439, 1.75149, 1.7505, 1.75157, 1.7522, 1.75061, 1.7503, 1.75148, 1.75116, 1.75034, 1.74633, 1.74715, 1.74823, 1.74876, 1.79959, 1.74745, 1.75026, 1.74772, 1.74724, 1.74748, 1.74789, 1.74785, 2.00955, 1.85612, 1.85783, 1.74348, 1.79537, 1.79606, 1.79046, 1.8199, 1.74025, 1.73805, 1.73872, 1.73489, 1.73825, 1.73418, 1.73532, 1.73306, 1.73367, 1.73508, 1.73374, 1.73496, 2.02297, 1.7378, 1.73822, 1.89622, 1.97247, 1.97334, 1.82065, 1.89651, 1.81861, 1.97811, 1.97341, 2.00256, 1.99112, 1.81771, 1.81646, 1.81645, 1.81702, 1.89874, 1.89804, 1.97658, 1.81684, 2.00309, 1.97664, 1.88907, 1.88731, 1.81589, 1.81361, 1.81292, 1.98959, 1.90011, 1.98737, 1.98623, 1.9068, 1.88872, 1.88827, 1.81074, 1.88657, 1.90675, 1.90576, 1.98213, 1.81294, 1.90977, 1.90787, 1.89558, 1.81718, 2.00356, 1.90673, 1.90198, 1.90954, 2.01412, 2.00462, 1.96577, 1.88608, 1.88679, 1.97094, 1.97892, 1.9836, 1.88844, 1.88588, 1.88566, 1.88934, 1.88907, 1.8879, 1.96568, 1.96631, 1.97943, 1.88999, 1.96948, 1.9684, 1.98935, 1.99435, 1.89457, 1.98852, 1.89608, 1.98737, 1.89855, 1.99112, 1.97543, 2.00036, 1.97575, 1.90023, 1.99691, 1.99697, 1.98297, 2.00001, 1.90116, 2.00001, 1.98915, 1.99092, 1.99699, 1.90557, 1.98416, 1.98626, 1.90603, 2.00782, 1.9981, 1.99777, 1.99446, 1.99971, 2.00613, 1.98294, 1.9842, 1.98366, 1.90947, 1.98941, 1.91092, 1.99755, 1.98797, 1.9972, 1.91102, 1.98611, 1.98806, 1.99199, 1.99134, 1.98864, 1.91297, 1.91579, 1.91133, 1.91682, 1.99073, 2.01066, 2.0109, 1.91417, 1.8418, 1.84189, 1.84448, 2.03337, 1.84222, 1.8444, 1.84548, 1.93935, 2.03601, 2.03393, 2.04629, 2.04153, 1.84872, 1.90209, 1.84986, 1.85538, 1.85438, 1.90692, 1.90742, 1.85445, 2.03867, 1.85416, 2.03204, 1.85774, 1.85774, 2.05218, 1.85671, 1.85501, 1.85674, 1.85488, 1.94982, 1.85494, 1.85499, 1.90253, 1.85471, 1.85208, 2.0525, 1.85, 1.89909, 1.85025, 1.84959, 2.02794, 1.91647, 1.84594, 1.84957, 1.8509, 1.85071, 1.85113, 1.78537, 1.78266, 1.77697, 1.77575, 1.77666, 1.77591, 1.77333, 1.9392, 1.77103, 1.88775, 1.8617, 1.76814, 1.94224, 1.76651, 1.85904, 1.89313, 1.76164, 1.76436, 1.81447, 1.81427, 1.76114, 1.8136, 1.87901, 1.8111, 1.76144, 1.75904, 1.75976, 1.80849, 1.8082, 1.75743, 1.75575, 1.75552, 1.75716, 1.80715, 1.86132, 1.88696, 1.75318, 1.75355, 1.75358, 1.75371, 1.75121, 1.74929, 1.74899, 1.74805, 1.74743, 1.83955, 1.74761, 1.86588, 1.74515, 1.79532
1.75956, 1.7612, 1.75623, 1.75819, 1.7562, 1.75612, 1.75452, 1.75734, 1.75264, 1.75251, 1.75054, 1.85122, 1.75054, 1.85246, 1.75422, 1.75131, 1.80226, 1.80347, 1.84354, 1.75209, 1.74851, 1.75056, 1.75044, 1.74831, 1.74868, 1.7477, 1.79875, 1.74909, 1.74808, 1.74779, 1.74567, 1.74502, 1.79601, 1.74463, 1.74197, 1.74249, 1.84911, 1.73986, 1.73725, 1.73656, 1.73615, 1.73713, 1.73366, 1.73252, 1.73498, 1.7334, 1.73319, 1.73299, 1.73644, 1.73766, 1.78748, 1.73768, 1.73844, 1.97428, 1.82044, 1.81835, 1.89824, 1.9767, 1.81924, 1.81802, 1.89615, 1.89686, 1.97289, 1.81716, 1.97498, 1.89656, 1.89971, 1.89633, 1.89653, 1.8971, 1.81418, 1.90039, 1.90005, 1.81384, 1.90048, 1.90083, 1.97974, 1.89746, 1.90024, 1.90448, 1.88655, 1.88789, 1.81139, 1.8854, 1.99079, 1.81129, 1.90789, 1.90645, 1.90918, 1.98451, 1.90829, 1.90989, 1.89616, 1.90846, 1.91012, 1.90117, 1.90257, 1.90958, 1.98726, 1.98536, 1.97625, 1.97459, 1.9751, 1.97682, 1.97866, 1.99337, 1.96743, 1.88722, 1.88647, 1.889, 1.88707, 1.88749, 1.97512, 1.96989, 1.89029, 1.96737, 1.88943, 1.96816, 1.97047, 1.99439, 1.96886, 1.96989, 1.89592, 1.97257, 1.97235, 1.97296, 1.99985, 1.99313, 1.98297, 1.89934, 1.99424, 1.994, 2.00722, 1.99645, 1.98573, 1.90395, 2.00022, 1.90606, 1.98645, 1.9863, 1.98853, 1.98367, 1.98439, 1.90775, 1.90652, 1.90795, 2.00116, 2.00621, 1.9859, 1.98259, 1.99338, 1.99595, 2.01021, 2.00709, 1.90943, 1.98706, 1.9094, 1.98891, 1.98791, 1.99023, 2.00338, 1.98898, 1.98988, 1.99016, 1.98884, 1.98925, 1.9893, 1.98894, 1.98803, 1.99637, 2.00172, 2.01435, 2.04256, 1.84533, 1.84287, 1.84191, 1.84003, 1.84465, 1.90129, 1.84478, 2.02868, 1.847, 1.84589, 2.04968, 1.84434, 1.85016, 1.8497, 1.8525, 1.85213, 1.85231, 1.8544, 1.94732, 1.90641, 1.85477, 2.03567, 1.85582, 1.85301, 1.85812, 1.85877, 1.85491, 1.90628, 1.90476, 1.85614, 1.85344, 1.94049, 1.90342, 2.06181, 1.84715, 1.85061, 1.90167, 1.85246, 1.85163, 2.01445, 1.92079, 1.91968, 1.84903, 1.85029, 1.85366, 1.8544, 1.85116, 1.78203, 1.89405, 1.88625, 1.87219, 1.83415, 1.77361, 1.82383, 1.82037, 1.77159, 1.76658, 1.88996, 1.76705, 1.76505, 1.76976, 1.76675, 1.76176, 1.76206, 1.76213, 1.76293, 1.75935, 1.7626, 1.75941, 1.7621, 1.8939, 1.89273, 1.75654, 1.75828, 1.76204, 1.76011, 1.75792, 1.88878, 1.75491, 1.88663, 1.75762, 1.88724, 1.75605, 1.7555, 1.88897, 1.75266, 1.75202, 1.88102, 1.75135, 1.89012, 1.88581, 1.75041, 1.7486, 1.74778, 1.87138, 1.8683, 1.7478
1.76097, 1.84078, 1.80753, 1.76064, 1.82639, 1.82783, 1.75621, 1.75624, 2.00868, 1.75429, 1.75451, 1.75378, 1.75362, 1.7545, 1.75494, 1.85299, 1.75163, 1.75034, 1.74916, 1.75245, 2.00462, 1.75122, 1.75022, 1.74878, 1.74791, 1.80177, 1.75068, 1.75177, 1.79734, 1.79737, 1.85521, 1.84948, 1.74506, 1.74574, 1.74514, 1.85272, 1.74429, 1.79198, 1.73711, 1.73767, 1.85915, 1.93601, 1.73781, 1.73871, 1.73457, 1.73555, 2.02234, 1.73467, 1.73825, 1.73535, 1.73702, 1.83783, 1.97186, 1.97719, 1.90114, 1.81997, 1.97737, 1.97654, 1.97454, 1.98949, 1.98745, 1.82037, 1.97571, 1.81842, 1.89525, 1.99786, 1.89907, 1.97622, 1.90148, 1.90312, 1.89286, 1.89035, 1.8913, 1.90049, 1.90256, 1.89809, 1.99451, 1.88955, 1.90381, 1.88971, 1.90762, 1.88723, 1.81056, 1.90378, 1.90641, 1.88758, 1.90692, 1.88686, 1.89058, 1.90716, 1.98624, 1.91043, 1.89438, 1.89489, 1.98938, 1.90849, 1.90852, 1.90237, 1.91308, 1.98938, 1.96393, 1.96311, 1.97601, 1.9784, 1.98714, 1.97496, 1.98019, 1.88942, 1.88735, 1.88964, 1.88857, 1.96764, 1.96886, 1.96569, 1.99216, 1.89056, 1.96882, 1.89134, 1.99702, 1.98467, 1.96946, 1.97956, 1.89637, 1.89732, 1.97242, 1.97355, 1.99006, 1.97624, 1.97417, 1.97704, 1.90183, 2.00743, 1.9794, 1.99671, 1.90378, 1.98885, 1.97866, 1.99764, 1.99405, 2.00057, 1.99304, 1.99187, 1.99928, 1.98913, 1.98283, 1.98124, 1.99465, 1.99904, 1.99719, 1.90835, 1.98728, 1.98584, 1.99302, 1.98411, 1.98311, 2.00712, 2.00685, 1.90969, 1.91147, 1.98642, 1.90959, 1.99059, 1.98856, 1.99247, 1.99099, 1.98765, 1.99622, 1.99434, 1.99539, 1.99246, 1.91304, 2.00232, 1.84797, 1.84483, 2.04834, 1.84438, 1.84427, 1.84286, 1.84225, 1.84134, 1.84615, 2.04841, 2.03897, 1.84744, 1.84652, 1.84549, 1.85202, 1.85003, 1.85169, 1.85485, 1.85418, 1.85506, 1.85462, 1.85348, 1.85566, 1.9093, 1.90751, 1.85672, 2.03453, 1.85811, 1.90783, 1.85504, 1.90809, 1.94762, 1.85539, 1.85359, 2.07271, 2.06599, 1.85366, 1.85282, 1.85167, 1.9015, 1.90159, 1.84984, 2.04119, 2.02849, 1.85241, 1.85473, 1.85207, 1.85256, 1.78247, 1.78065, 1.77838, 1.77508, 1.87688, 1.87596, 1.87253, 1.77339, 1.81965, 1.76897, 1.94314, 1.89046, 1.76578, 1.7648, 1.76239, 1.89246, 1.76346, 1.7653, 1.76251, 1.76159, 1.76023, 1.89184, 1.86152, 1.75925, 2.07718, 1.75872, 1.75768, 1.75792, 1.75787, 1.88783, 1.81983, 1.80887, 1.75482, 1.75216, 1.75504, 1.7549, 1.75372, 1.75635, 1.8872, 1.80586, 1.75441, 1.75391, 1.85616, 1.87999, 1.74975, 1.87655, 1.87566, 1.74875, 1.74868, 1.8575
1.84457, 1.81069, 1.76305, 1.75911, 1.75814, 1.75686, 1.76136, 1.93497, 1.75623, 1.75426, 1.75684, 1.75763, 1.75766, 1.86188, 1.86234, 1.75414, 1.75187, 1.75088, 1.93237, 1.75194, 1.85059, 1.85129, 1.74923, 1.74922, 1.80215, 1.80137, 1.80016, 1.81296, 1.80057, 1.74782, 1.74986, 1.74882, 1.84466, 1.74473, 1.747, 1.74497, 1.74456, 1.85642, 1.85814, 1.85844, 1.85841, 1.73998, 1.85748, 1.73541, 1.73791, 2.02461, 1.7375, 1.74011, 1.74121, 1.79036, 1.74079, 1.79053, 1.74397, 1.97616, 1.82164, 1.8221, 1.89967, 1.97731, 1.89949, 1.97682, 1.8193, 1.81975, 1.81913, 1.89982, 1.81786, 1.895, 1.89475, 1.90065, 1.89301, 1.89287, 1.97943, 1.89089, 1.9964, 1.9004, 1.90124, 1.97902, 1.88951, 1.8904, 1.98026, 1.81221, 1.81248, 1.90409, 1.88759, 1.90701, 1.88802, 1.88915, 1.81069, 1.81103, 1.90729, 1.90864, 1.90784, 1.8139, 1.9102, 1.98701, 1.89978, 1.90997, 1.90706, 1.90738, 2.01155, 1.96512, 1.88582, 1.96188, 1.88891, 1.88746, 1.96364, 1.97918, 1.9811, 1.98291, 1.88736, 1.96359, 1.96201, 1.97231, 1.96735, 1.96713, 1.96498, 1.99441, 1.8934, 1.89256, 1.96519, 1.96535, 1.96573, 1.97193, 1.97154, 1.89516, 1.97211, 1.89734, 1.9758, 1.99362, 1.98221, 1.99355, 1.99137, 1.99068, 1.98881, 1.9868, 1.97423, 1.9977, 2.00021, 1.9931, 1.99302, 1.98044, 1.97974, 1.99807, 1.98792, 1.98467, 1.99758, 1.98342, 1.99217, 2.00148, 1.99839, 1.9851, 1.99696, 1.99221, 1.91024, 1.98853, 1.98877, 1.99887, 1.98602, 1.98632, 1.98619, 1.98697, 1.98426, 1.99057, 1.98625, 1.91011, 1.98987, 1.99801, 1.91036, 1.91178, 2.00129, 1.98905, 1.98877, 1.99597, 1.89438, 1.84482, 1.84388, 1.8438, 1.89391, 1.89571, 1.89536, 2.02011, 1.84604, 1.84775, 2.0356, 1.84813, 1.8487, 1.9414, 1.90088, 1.85164, 1.85026, 1.85203, 1.95127, 1.8528, 2.0312, 2.04331, 2.04801, 2.05525, 1.91305, 1.85464, 1.90777, 1.85772, 1.85816, 1.85603, 1.85603, 1.90644, 1.93867, 1.85227, 2.04559, 1.90505, 1.90485, 1.85406, 1.85145, 1.85487, 1.85092, 2.03131, 2.02912, 1.85267, 1.85313, 1.85214, 1.85245, 1.85246, 1.78246, 1.7804, 1.78093, 1.77998, 1.8267, 1.77478, 1.82336, 1.87525, 1.7696, 1.76757, 1.85922, 1.894, 1.89209, 1.76634, 1.76511, 1.76139, 1.76159, 1.89615, 1.76114, 1.87174, 1.89396, 1.76074, 1.88924, 1.81003, 1.85438, 1.86528, 1.86248, 1.75796, 1.75625, 1.7555, 1.75794, 1.75503, 1.75591, 1.75711, 1.75593, 1.81476, 1.80409, 1.75403, 1.75296, 1.86807, 1.75242, 1.88121, 1.8851, 1.75016, 1.75218, 1.75089, 1.75062, 1.74882, 1.75134, 1.75119
1.76528, 1.76155, 1.76251, 1.76272, 1.76257, 1.76094, 1.76199, 1.76135, 1.75733, 1.75669, 1.75661, 1.75751, 1.75721, 1.75608, 1.75402, 1.85135, 1.75533, 1.85984, 1.7552, 1.75098, 1.75479, 1.75188, 1.8548, 1.85767, 1.75214, 1.75137, 1.74871, 1.84614, 1.80034, 1.75024, 1.74998, 1.74952, 1.74852, 1.74775, 1.74428, 1.74432, 1.74445, 1.74419, 1.74362, 1.74456, 1.85888, 1.85684, 1.85739, 1.84783, 1.74078, 1.73782, 1.79064, 1.74022, 1.7416, 1.7415, 1.74232, 1.74497, 1.97619, 1.97551, 1.82147, 1.82423, 1.82391, 1.8209, 1.89696, 1.8963, 1.97681, 1.89472, 1.89539, 1.89461, 1.89751, 1.90042, 1.89886, 1.89093, 1.89955, 1.89432, 1.90233, 1.89213, 1.90121, 1.97979, 1.88991, 1.90282, 1.81413, 1.89031, 1.98397, 1.81264, 1.89044, 1.88946, 1.98287, 1.9903, 1.90602, 1.91015, 1.89052, 1.89052, 1.90938, 1.90923, 1.8149, 1.89283, 1.98631, 1.91286, 1.90235, 1.89973, 1.91173, 1.9108, 2.00633, 1.99645, 1.96346, 1.88851, 1.96535, 1.99774, 1.98076, 1.96752, 1.9755, 1.88904, 1.88993, 1.88962, 1.88732, 1.97205, 1.97192, 1.97534, 1.99737, 1.89047, 1.96949, 1.96832, 1.96942, 1.96945, 1.96914, 1.96969, 1.97505, 1.97309, 1.99696, 2.00262, 2.00043, 1.97605, 1.97355, 2.00367, 1.89951, 1.9906, 1.90317, 1.90335, 1.90374, 1.90327, 2.0073, 1.90616, 1.99796, 2.00713, 2.01459, 1.90848, 1.99116, 1.98985, 2.00393, 1.9927, 1.98422, 2.00306, 2.00245, 1.99323, 1.99512, 1.99032, 1.98458, 1.99046, 1.99124, 1.90796, 1.9819, 2.0043, 1.98653, 1.98947, 1.98948, 1.98605, 1.98572, 1.99103, 1.91141, 1.91039, 1.98998, 1.98548, 1.985, 1.9952, 1.99319, 1.99747, 1.84583, 1.84508, 1.84334, 1.84437, 1.89626, 1.84725, 1.96136, 1.84407, 1.84469, 1.90012, 1.84583, 1.84779, 1.89764, 1.89821, 1.90351, 1.90323, 1.8528, 1.94536, 1.95322, 1.8534, 1.95045, 1.8552, 1.85523, 1.85908, 1.85767, 1.85753, 1.85759, 1.85555, 1.85483, 1.85719, 1.85609, 1.85541, 1.85425, 1.85545, 1.85573, 1.85512, 1.85547, 1.85251, 1.85587, 1.85385, 1.85299, 1.85443, 2.02984, 1.85503, 1.85514, 1.85332, 1.90364, 1.85352, 1.88492, 1.88372, 1.89009, 1.77749, 1.77489, 1.77595, 1.77135, 1.77181, 1.77225, 1.77016, 1.76815, 1.76747, 1.7662, 1.76327, 1.76059, 1.76282, 1.88846, 1.88973, 1.761, 1.89612, 1.76113, 1.75863, 1.76064, 1.88339, 1.76002, 1.7583, 1.75619, 1.80939, 1.75464, 1.75656, 1.75211, 1.75477, 1.7535, 1.75794, 1.75418, 1.75491, 1.80405, 1.80368, 1.87166, 1.75368, 1.7528, 1.87875, 1.75505, 1.75461, 1.75107, 1.74994, 1.87603, 1.87927, 1.85153, 1.75077
1.7625, 1.76549, 1.76611, 1.76215, 1.7599, 1.86213, 1.75985, 1.76233, 1.76208, 1.75848, 1.8546, 1.76011, 1.75868, 1.844, 1.84604, 1.75482, 1.80497, 1.75396, 1.75566, 1.75194, 1.75121, 1.75289, 1.75211, 1.75265, 1.75096, 1.75406, 1.85775, 1.93353, 1.75244, 1.75254, 1.80233, 1.87085, 1.87156, 1.74855, 1.80303, 1.74874, 1.74911, 1.74778, 1.86156, 1.7443, 1.74452, 1.8616, 1.85869, 1.74366, 1.74225, 1.74307, 1.80498, 1.79547, 1.74261, 1.74554, 1.74613, 1.74529, 1.97533, 1.97792, 1.97705, 1.82159, 1.82246, 1.89847, 1.82217, 1.81997, 1.89717, 1.90053, 1.98171, 1.82014, 1.89681, 1.89948, 1.90311, 1.89369, 1.89355, 1.81704, 1.89281, 1.89275, 1.89069, 1.90494, 1.90614, 1.89073, 1.89029, 1.88708, 1.88698, 1.90662, 1.9071, 1.90711, 1.88394, 1.88543, 1.88942, 1.90973, 1.89111, 1.81251, 1.91034, 1.89249, 1.8925, 1.90998, 1.91356, 1.8982, 1.8989, 1.91354, 1.90158, 1.91022, 1.99845, 1.8458, 1.97876, 1.96338, 1.97386, 1.88889, 1.96377, 1.96258, 1.96377, 1.96501, 1.88723, 1.88932, 1.88898, 1.97202, 1.96966, 1.89071, 1.96612, 1.89112, 1.97193, 1.99292, 1.96908, 1.8925, 1.98689, 1.96876, 1.99019, 1.97577, 1.97305, 1.97376, 1.97381, 1.98941, 1.98972, 1.98312, 1.90243, 1.90317, 1.98381, 1.90083, 1.98012, 1.98016, 1.99634, 2.00413, 2.00423, 1.99576, 2.00674, 2.00061, 1.99631, 2.00486, 1.98287, 2.0027, 1.99178, 1.99694, 2.00143, 1.9858, 1.99106, 2.00109, 1.99626, 1.91007, 1.99066, 1.99699, 1.99663, 1.98732, 1.98541, 1.90886, 1.98615, 1.98625, 1.98681, 1.98791, 1.99013, 1.90841, 1.90686, 1.91016, 1.91182, 1.91341, 1.91612, 1.99228, 1.8478, 2.03288, 1.84891, 1.84684, 1.8481, 1.84609, 1.8445, 1.94516, 1.84702, 1.84994, 1.8497, 1.8505, 1.84807, 1.9537, 1.95205, 1.85074, 1.85067, 1.85229, 1.85559, 1.85238, 2.05225, 1.85652, 1.85512, 1.85589, 1.8577, 1.85535, 1.90679, 1.85742, 1.85603, 1.85898, 1.85816, 1.85811, 1.85617, 1.85484, 1.85297, 1.9061, 1.8549, 2.05244, 1.85441, 1.90406, 1.85195, 1.84949, 1.85353, 1.85584, 1.85287, 1.8524, 1.90591, 1.7849, 1.83538, 1.90239, 1.78052, 1.88387, 1.88568, 1.88907, 1.82332, 1.82073, 1.88698, 1.88526, 1.76644, 1.88597, 1.76562, 1.88948, 1.89193, 1.89025, 1.76244, 1.76247, 1.76016, 1.75856, 1.89072, 1.7594, 1.80812, 1.89088, 1.88898, 1.84785, 1.88761, 1.75552, 1.75765, 1.75809, 1.75761, 1.75429, 1.75753, 1.75811, 1.75292, 1.75612, 1.75627, 1.87409, 1.87681, 1.81111, 1.95934, 1.75749, 1.75418, 1.75322, 1.75158, 1.75333, 1.87477, 1.75271, 1.75271, 1.87859
1.76471, 1.76541, 1.76691, 1.7641, 1.76267, 1.76249, 1.76089, 1.76131, 1.76272, 1.76169, 1.76086, 1.7618, 1.75867, 1.75554, 1.75773, 1.75939, 1.75562, 1.75661, 1.75801, 1.93537, 1.7552, 1.75478, 1.75586, 1.75583, 1.75431, 1.75472, 1.85268, 1.75486, 1.75365, 1.84999, 1.8595, 1.74989, 1.7506, 1.75229, 1.74845, 1.79949, 1.74929, 1.86266, 1.86532, 1.74746, 1.87182, 1.86632, 1.74466, 1.84413, 1.79607, 1.85404, 1.74631, 1.74599, 1.74755, 1.74613, 1.74959, 1.75079, 1.82514, 1.82514, 1.81768, 1.81788, 1.82383, 1.82353, 1.82356, 1.82033, 1.90064, 1.99912, 1.89716, 1.97756, 1.97736, 1.99943, 1.89513, 1.89441, 1.90162, 1.89074, 1.97912, 1.98622, 1.90185, 1.98297, 1.90466, 1.90723, 1.90434, 1.81401, 1.9078, 1.8929, 1.8108, 1.90859, 1.90989, 1.88591, 1.88707, 1.90759, 1.80997, 1.88913, 1.91016, 1.8948, 1.91107, 1.91179, 1.9125, 1.89582, 1.89952, 1.90429, 1.90458, 1.90693, 1.98984, 1.98881, 1.972, 1.9733, 1.96829, 1.98678, 1.99743, 1.96682, 1.96854, 1.88933, 1.88786, 1.88922, 1.88853, 1.89072, 1.97118, 1.97169, 1.89114, 1.96675, 1.9678, 1.99726, 1.98072, 1.96972, 1.98305, 1.97143, 1.96988, 1.97271, 2.01329, 1.99999, 1.98702, 1.89789, 1.90029, 1.97926, 1.9803, 1.98978, 1.9025, 1.99816, 1.99548, 1.90403, 1.90334, 1.98581, 1.98445, 1.98989, 1.98915, 1.9933, 1.99314, 1.90701, 1.9831, 1.99947, 1.99612, 1.98726, 1.99632, 1.90993, 1.98586, 1.9864, 1.99522, 1.98799, 1.99998, 2.00641, 1.9907, 1.9102, 1.91062, 2.0005, 1.99651, 1.98418, 1.91026, 1.90944, 1.90925, 1.91032, 1.9111, 1.91038, 1.99048, 1.98922, 1.99281, 1.99238, 1.89716, 1.84969, 1.84911, 1.84721, 1.84734, 1.84562, 1.89816, 1.84547, 2.02731, 1.95224, 1.90041, 1.89908, 1.84668, 1.84825, 1.85053, 1.85488, 1.85297, 1.85173, 1.85463, 1.8527, 1.85426, 1.85484, 1.85274, 1.85727, 1.85791, 2.02959, 1.85734, 1.85702, 1.85628, 1.85638, 1.85757, 1.85525, 1.85473, 1.90462, 2.04234, 2.04277, 1.85592, 1.85675, 1.85504, 1.85556, 1.90879, 1.85628, 1.85473, 1.85778, 1.85113, 1.92068, 1.92052, 1.78309, 1.88946, 1.77898, 1.87331, 1.7782, 1.87895, 1.82401, 1.82114, 1.77014, 1.76889, 1.88634, 1.76878, 1.7646, 1.76456, 1.8861, 1.76572, 1.7647, 1.81307, 1.81269, 1.87475, 1.81764, 1.75963, 1.86282, 1.87525, 1.76059, 1.76021, 1.75793, 1.87186, 1.80797, 1.7582, 1.75784, 1.75751, 1.75614, 1.88958, 1.75466, 1.88618, 1.85471, 1.81014, 1.75533, 1.75613, 1.75332, 1.7549, 1.75607, 1.75477, 1.87624, 1.75504, 1.75136, 2.06561, 1.75201, 1.75127, 1.87362
1.86685, 1.76772, 2.0202, 1.76266, 1.76237, 1.76306, 2.03941, 1.7623, 1.86532, 1.76395, 1.7625, 1.76032, 1.8133, 1.81028, 1.83204, 1.75874, 2.02342, 1.75848, 1.75805, 2.02508, 1.75785, 1.76009, 1.75467, 1.80961, 1.75639, 1.8234, 1.75728, 1.75715, 1.75195, 1.75435, 1.75666, 1.75345, 1.75538, 1.80452, 1.75282, 1.8716, 1.75274, 1.8666, 1.84551, 1.8512, 1.74956, 1.84816, 1.84769, 1.7474, 1.74562, 1.86263, 1.74838, 1.85584, 1.74962, 2.03767, 1.74987, 1.74929, 1.82671, 1.82396, 1.82514, 1.82328, 1.82402, 1.90078, 1.82358, 1.82332, 1.98909, 1.90053, 1.89602, 1.90318, 1.90366, 1.90356, 1.81997, 1.97996, 1.89638, 1.89341, 1.89445, 1.90605, 1.89121, 1.89173, 1.89203, 1.8917, 1.90664, 1.90818, 1.88786, 1.88664, 1.81348, 1.90665, 1.91009, 1.98669, 1.98653, 1.89003, 1.99114, 1.81227, 1.81348, 1.91281, 1.91419, 1.81778, 1.89769, 1.99093, 1.82202, 1.90109, 1.8279, 1.91185, 2.0083, 2.01468, 1.96487, 1.96586, 1.96563, 1.96533, 1.96985, 1.96414, 1.9638, 1.89143, 1.88909, 1.88959, 1.96697, 1.89192, 1.97036, 1.97609, 1.96681, 1.97725, 1.8924, 1.9861, 1.96955, 2.01335, 1.89678, 1.89652, 1.97405, 1.99288, 1.97645, 1.97544, 1.97565, 2.01406, 1.99947, 1.96893, 2.0015, 1.97899, 1.99938, 1.9878, 1.9884, 1.98555, 1.90408, 1.9932, 1.90666, 1.98766, 1.98141, 1.99556, 2.00292, 1.908, 1.98364, 1.98548, 2.00672, 1.98938, 1.99454, 1.98633, 1.99195, 1.99273, 1.98998, 1.98977, 1.9929, 1.99005, 1.9859, 1.98555, 1.98573, 1.98461, 1.986, 1.9889, 1.98894, 1.91026, 1.90999, 1.91032, 1.90954, 1.90906, 1.99313, 1.99945, 2.00411, 1.98976, 1.85112, 2.03108, 1.84764, 1.84883, 1.84757, 1.84646, 1.94952, 1.94809, 1.84983, 1.8491, 1.85025, 1.90093, 1.9017, 1.90247, 1.85142, 1.91839, 1.94849, 1.94763, 1.85291, 1.85487, 1.90598, 1.90484, 1.857, 1.90363, 1.85788, 1.85425, 1.91471, 1.90658, 1.94576, 1.85675, 2.03577, 1.85575, 1.85585, 1.85441, 1.85823, 1.85596, 1.85368, 1.85562, 1.85372, 1.85505, 1.94282, 1.92797, 1.85382, 1.85315, 1.85452, 1.85302, 1.91593, 1.78324, 1.78289, 1.78008, 1.77856, 1.88434, 1.77659, 1.82514, 1.7689, 1.77224, 1.77053, 1.7688, 1.76679, 1.81684, 1.76527, 1.76462, 1.76134, 1.76434, 1.76093, 1.81329, 1.76188, 1.81264, 1.80957, 1.7589, 1.89295, 1.75561, 1.75898, 1.88809, 1.8903, 1.75572, 1.75694, 1.75783, 1.75541, 1.75421, 1.82014, 1.80633, 1.80557, 1.88675, 1.75539, 1.87986, 1.88117, 1.85752, 1.75534, 1.75515, 1.87631, 1.75427, 1.75369, 1.75138, 1.75213, 1.85126, 1.75204, 1.74949
1.76922, 1.76905, 1.76983, 1.76664, 1.76813, 1.76717, 1.76898, 1.76298, 1.7667, 1.76421, 1.84832, 1.76371, 1.81225, 1.81267, 1.75839, 1.76001, 1.76041, 2.02532, 1.75779, 1.76139, 1.75933, 1.76104, 1.75782, 1.75768, 1.75789, 1.75708, 1.80797, 1.75885, 1.75608, 1.75666, 1.75686, 1.75337, 1.7557, 1.80713, 1.85135, 1.75385, 1.85555, 1.75372, 1.75448, 1.75404, 1.75108, 1.85777, 1.85602, 1.8573, 1.75074, 1.75202, 1.74823, 1.74829, 1.75198, 1.75256, 1.86123, 1.75519, 1.82324, 1.82361, 1.90068, 1.89891, 1.89906, 1.82559, 1.90318, 1.89975, 1.98073, 1.82292, 1.82288, 1.90026, 1.89702, 1.89449, 1.89742, 1.8971, 1.89704, 1.90683, 1.90705, 1.90932, 1.89212, 1.90643, 1.89102, 1.89025, 1.90862, 1.81052, 1.89026, 1.88707, 1.81105, 1.91084, 1.90839, 1.88698, 1.88898, 1.91195, 1.88906, 1.89053, 1.89103, 1.894, 1.81575, 1.91483, 1.89686, 2.01861, 1.99107, 1.82684, 1.913, 1.91327, 1.99945, 1.84776, 1.98297, 1.88972, 1.89149, 1.89233, 1.97543, 1.96785, 1.96885, 1.88989, 1.96899, 1.96764, 1.9689, 1.9691, 1.96847, 1.96955, 1.9676, 1.89259, 1.9696, 1.96888, 1.96971, 1.97244, 1.97252, 1.97278, 1.89783, 1.98259, 1.8975, 1.997, 1.99912, 1.98526, 1.99583, 1.98605, 1.98712, 1.98027, 2.00676, 1.99437, 2.00034, 1.99581, 1.99336, 2.0038, 1.98569, 1.98253, 1.98251, 1.98302, 1.99963, 1.90942, 1.90952, 1.99011, 1.90764, 1.90762, 2.00361, 2.00306, 1.98857, 1.9098, 1.99765, 1.98678, 1.98618, 1.99389, 2.00254, 1.91006, 2.00191, 2.00298, 1.99375, 1.99076, 1.91236, 1.90984, 1.90978, 1.91001, 1.90914, 1.98885, 2.0011, 1.91028, 1.9889, 1.98882, 1.9138, 1.84678, 1.84968, 1.8487, 1.84972, 1.84737, 1.84803, 1.85088, 1.94773, 1.849, 2.02859, 2.0289, 1.90025, 1.90042, 1.93512, 1.90253, 1.90475, 1.90639, 1.85308, 2.02725, 1.85499, 1.90403, 2.01688, 1.90633, 1.85773, 1.85482, 1.90719, 1.8578, 1.85251, 1.85516, 1.855, 1.85557, 1.8545, 1.90547, 1.85539, 1.85769, 2.05487, 1.85505, 1.85333, 1.85826, 1.85432, 1.85335, 1.90348, 1.90289, 1.85121, 1.85118, 1.85198, 1.93419, 1.78333, 1.78063, 1.77872, 1.77727, 1.77388, 1.88277, 1.77123, 1.76927, 1.86324, 1.76993, 1.76812, 1.76855, 1.8896, 1.88779, 1.86597, 1.88682, 1.85797, 1.75926, 1.85528, 1.80964, 1.88718, 1.75708, 1.76186, 1.75824, 1.75674, 1.75769, 1.75609, 1.75894, 1.75751, 1.89266, 1.88704, 1.75702, 1.75601, 1.75406, 1.75606, 1.75577, 1.7548, 1.75778, 1.75628, 1.75592, 1.75455, 1.80445, 1.80916, 1.80669, 1.75278, 1.86907, 1.75026, 1.80331, 1.87396, 1.87868
2.0235, 1.77531, 1.76915, 1.76932, 1.77017, 1.77089, 1.76902, 1.76801, 1.76851, 1.76592, 1.76521, 1.81427, 1.7619, 1.81398, 1.81349, 1.76397, 1.76261, 1.76105, 1.94433, 1.94262, 1.76233, 1.8582, 1.9383, 1.86869, 1.75808, 1.75899, 1.75906, 1.80708, 1.8479, 1.85252, 1.8539, 1.75667, 1.75788, 1.76028, 1.75504, 1.75561, 1.75131, 1.86192, 1.86478, 1.86403, 1.855, 1.75522, 1.75277, 1.80514, 1.7497, 1.87593, 1.75239, 1.80401, 1.75494, 1.75305, 1.75308, 1.85765, 1.89992, 1.82553, 1.90409, 1.90197, 1.82459, 1.9007, 1.82371, 1.82449, 1.90288, 1.89843, 1.89868, 1.89783, 1.8975, 1.90452, 1.89609, 1.89761, 1.89443, 1.90671, 1.89616, 1.89616, 1.81571, 1.90968, 1.98649, 1.81475, 1.99887, 1.99877, 1.88938, 1.98744, 1.88738, 1.88883, 1.98987, 1.88715, 1.98886, 1.99678, 1.81369, 1.8138, 1.81422, 1.81568, 1.89259, 1.91648, 1.9152, 1.89787, 1.91327, 1.8273, 1.91555, 1.91518, 2.00074, 1.8496, 1.99118, 1.98523, 1.97607, 1.97013, 1.97572, 1.97741, 1.97951, 1.96796, 1.97272, 1.9683, 1.96817, 1.97036, 1.89211, 1.96866, 1.89281, 1.97007, 1.9698, 1.9722, 1.98994, 2.00661, 1.98635, 2.01334, 1.89721, 2.00108, 1.98462, 1.99668, 1.99716, 1.98794, 1.98902, 1.99369, 1.99597, 1.99402, 1.90341, 2.00371, 1.97951, 1.98, 1.98037, 1.90574, 1.90755, 1.99277, 1.99075, 1.90691, 1.90713, 1.98834, 2.00074, 1.99607, 1.99275, 1.99129, 1.9087, 1.99915, 2.00573, 2.00228, 2.00331, 1.91008, 1.99288, 1.9091, 2.00849, 1.98656, 1.98797, 1.90921, 1.9977, 1.90788, 1.9096, 1.91017, 1.90989, 1.91038, 1.91072, 1.99182, 2.00015, 1.99307, 2.0138, 2.0066, 1.94671, 1.94589, 1.85115, 1.8507, 1.94358, 1.84888, 1.84744, 1.94236, 1.84823, 1.84529, 1.8474, 1.90057, 1.90131, 1.85017, 1.91524, 1.85132, 1.8492, 1.85194, 1.8528, 1.85253, 2.03405, 1.85761, 1.85598, 1.85455, 2.0428, 1.85541, 1.85597, 2.03587, 2.04308, 1.85519, 1.8571, 1.90629, 1.90496, 1.85306, 1.85354, 1.85408, 1.8522, 1.90373, 1.85559, 1.85492, 1.90275, 1.85387, 2.0499, 1.85339, 1.85246, 1.85161, 2.02499, 1.78508, 1.77978, 1.78187, 1.77945, 1.77643, 1.77544, 1.77256, 1.77507, 1.76997, 1.77001, 1.93528, 1.76667, 1.76694, 1.88639, 1.88486, 1.88575, 1.7593, 1.88785, 1.88743, 1.88939, 1.76052, 1.75808, 1.7602, 1.80754, 1.80652, 1.80742, 1.75629, 1.75525, 1.8803, 1.7587, 1.75888, 1.88718, 1.88717, 1.75818, 2.07602, 1.7543, 1.88286, 1.88098, 1.889, 1.88319, 1.88284, 1.75827, 1.87669, 1.75474, 1.75307, 1.75202, 1.75367, 1.87711, 1.80467, 1.80245, 1.7518
1.77409, 1.77186, 1.77101, 1.77482, 1.76968, 1.77118, 1.77118, 2.02461, 2.02585, 1.7687, 1.76754, 1.7668, 1.94167, 1.76621, 1.9434, 1.76495, 1.84776, 1.8587, 1.76555, 1.86522, 1.76308, 1.76308, 1.76023, 1.76141, 1.76221, 1.75864, 1.86569, 1.86708, 1.86126, 1.86091, 1.7575, 1.75844, 1.75795, 1.75766, 1.75479, 1.75535, 1.75756, 1.75815, 1.86209, 1.86191, 1.75395, 1.75501, 1.75567, 1.75621, 1.75505, 1.75435, 1.75592, 1.75893, 1.75543, 1.75538, 1.7612, 1.76127, 1.82531, 1.82713, 1.82856, 1.90178, 1.82543, 1.824, 1.98303, 1.90122, 1.90688, 1.9019, 1.905, 1.89838, 1.89894, 1.90228, 1.89379, 1.89371, 1.89511, 1.89813, 1.89538, 1.90842, 1.81718, 1.89262, 1.89303, 1.89299, 1.81413, 1.88965, 1.89042, 1.8076, 1.89047, 1.89013, 1.91457, 1.81304, 1.887, 1.81395, 1.88986, 1.89039, 1.892, 1.81519, 1.81679, 1.81773, 1.82227, 1.89791, 1.8998, 1.90445, 1.9911, 1.91777, 2.0081, 2.0033, 1.97313, 1.9732, 1.96986, 1.96856, 1.97343, 1.97103, 1.96997, 1.89544, 1.97018, 1.97046, 1.97032, 1.97135, 1.97223, 1.97252, 1.96889, 1.97365, 1.97359, 1.97207, 1.9732, 1.98265, 1.99747, 1.98343, 1.98681, 1.99047, 2.006, 1.97583, 2.00083, 1.9761, 1.98316, 1.99311, 1.99345, 1.97972, 1.9017, 1.98275, 1.98161, 2.00029, 1.98339, 1.98353, 1.99704, 1.90794, 1.98932, 1.98435, 1.99097, 1.98374, 1.99368, 1.99474, 1.98615, 2.00274, 1.99341, 1.91027, 1.99726, 2.01454, 2.00799, 1.9931, 1.98996, 1.98685, 1.98801, 1.90987, 1.90971, 1.99648, 1.99811, 1.91036, 1.90886, 1.9092, 1.91208, 1.9104, 1.90981, 1.91318, 1.99076, 2.00441, 1.98847, 1.91396, 1.85088, 2.02399, 1.85113, 1.84905, 2.06073, 1.89985, 1.90018, 1.94835, 1.84834, 1.9544, 1.84968, 2.031, 1.85114, 2.04194, 2.05777, 1.85454, 1.85443, 1.85301, 2.02759, 1.9281, 2.02736, 1.85776, 2.04038, 1.85427, 1.91384, 1.85484, 1.85797, 1.8546, 1.85467, 1.85329, 1.85634, 1.8547, 1.85542, 1.85441, 1.85222, 2.03798, 1.85551, 2.02622, 1.85193, 1.85074, 1.93082, 1.85173, 2.02397, 2.02109, 2.02885, 1.85198, 1.8513, 1.78155, 1.77932, 1.7755, 1.8859, 1.93285, 1.88263, 1.88287, 1.77317, 1.76899, 1.76837, 1.88231, 1.7655, 1.81398, 1.76492, 1.86948, 1.86691, 1.76345, 1.85581, 1.76108, 1.7603, 1.85817, 1.88944, 1.75638, 1.89226, 1.75792, 1.75627, 1.75435, 1.75775, 1.8542, 1.75644, 1.88646, 1.88498, 1.88857, 1.88911, 1.75011, 1.75529, 1.88409, 1.88277, 1.75548, 1.87862, 1.84854, 1.84649, 1.75184, 1.75458, 1.7547, 1.75455, 1.804, 1.80371, 1.75425, 1.87239, 1.80299
1.77688, 1.86634, 1.77269, 1.77411, 1.77304, 1.77477, 1.86826, 1.77086, 1.77057, 2.04545, 1.76756, 1.76844, 1.76915, 1.7664, 1.94764, 1.76771, 1.76608, 1.76775, 1.76547, 1.86878, 1.76517, 1.76268, 1.76371, 1.76147, 1.76157, 1.85621, 1.75927, 1.76117, 1.85886, 1.75876, 1.86593, 1.86326, 1.76147, 1.76031, 1.94381, 1.75863, 1.75919, 1.80915, 1.75887, 1.80847, 1.80727, 1.84787, 1.85235, 1.75547, 1.85972, 1.85918, 1.75878, 1.75781, 1.9387, 1.75881, 1.75971, 1.76093, 1.82734, 1.90738, 1.90393, 1.90629, 1.90078, 1.9019, 1.90133, 1.90093, 1.98379, 1.9006, 1.98601, 1.90731, 1.82272, 1.89712, 1.90799, 1.90957, 1.90608, 1.90949, 1.89333, 1.9124, 1.89627, 1.89101, 1.91196, 1.89089, 1.89098, 1.91096, 1.89045, 1.91297, 1.88952, 1.88892, 1.89289, 1.91449, 1.99349, 1.91384, 1.88908, 1.89287, 1.81456, 1.91728, 1.91785, 1.91622, 1.91667, 1.89598, 1.91683, 1.90317, 1.91082, 1.91141, 1.99161, 2.01171, 1.99031, 1.99847, 1.89368, 1.96865, 1.96938, 1.96942, 1.97002, 1.89295, 1.97188, 1.97307, 1.97056, 1.97295, 1.97497, 1.9751, 1.97489, 1.97011, 1.9702, 1.97243, 1.98366, 1.89676, 1.89617, 1.89612, 1.96906, 1.89799, 1.89901, 1.97265, 1.97248, 2.01298, 1.99403, 1.90266, 1.90305, 1.99275, 1.90501, 1.98284, 1.98277, 1.98247, 1.98252, 2.00363, 2.00299, 2.01197, 1.98536, 1.98426, 2.00449, 1.99036, 2.00313, 1.99997, 1.9106, 1.99383, 1.99755, 1.9827, 1.99688, 1.9999, 1.98564, 1.98376, 1.90972, 1.91001, 1.91045, 1.99656, 1.99387, 1.99247, 1.98454, 1.98339, 1.91039, 1.90942, 1.90975, 1.90889, 1.91167, 1.9114, 2.01239, 1.99065, 1.98965, 2.00652, 1.85014, 2.04665, 1.85228, 1.85088, 1.84902, 1.84973, 1.95564, 1.95206, 1.84828, 1.85265, 1.8519, 1.85484, 1.84843, 1.85265, 1.85154, 1.85552, 1.85433, 2.03381, 1.85551, 1.85456, 1.85636, 1.85531, 1.94098, 1.90428, 1.85657, 1.85674, 1.85566, 1.85641, 2.04324, 1.85613, 1.85536, 1.85298, 1.85203, 1.85316, 1.85348, 2.04526, 1.84994, 2.03523, 1.85107, 1.85173, 1.84994, 1.85016, 1.85066, 1.8506, 1.85154, 2.03081, 1.84947, 1.83033, 1.82825, 1.77915, 1.77843, 1.88383, 1.88269, 1.77269, 1.77229, 1.77015, 1.76865, 1.76786, 1.81716, 1.81652, 1.76375, 1.76207, 1.7618, 1.88668, 1.88278, 1.76164, 1.88454, 1.88068, 1.75851, 1.75884, 1.75791, 1.75929, 1.75677, 1.75331, 1.75476, 1.75685, 1.75412, 1.75578, 1.75665, 1.88903, 1.75467, 1.75726, 1.753, 1.75758, 1.88264, 1.75172, 1.75593, 1.80611, 1.75568, 1.75733, 1.87896, 1.87942, 1.75453, 1.75473, 1.86559, 1.75394, 1.75421, 1.7535
1.88308, 1.77678, 1.8274, 1.77642, 1.7755, 1.86526, 1.77584, 1.7729, 1.87147, 1.77235, 1.77144, 1.77057, 1.77112, 2.02528, 1.76822, 1.76839, 1.76572, 1.76881, 1.76846, 1.7691, 1.7624, 1.76445, 1.76793, 1.76633, 1.81389, 1.76512, 1.81395, 1.86819, 1.76201, 1.76349, 1.7616, 1.76139, 1.7598, 1.76153, 1.75966, 1.75934, 1.81203, 1.84973, 1.76058, 1.84763, 1.75958, 1.75954, 1.75862, 1.75953, 1.94122, 1.75814, 1.75846, 1.81037, 1.76028, 1.76115, 1.76185, 1.76362, 1.82769, 1.98926, 1.90444, 1.90355, 1.8276, 1.90342, 1.90836, 1.91044, 1.90997, 1.90978, 1.90519, 1.98737, 1.89921, 1.89668, 1.89902, 1.89887, 1.91396, 1.99204, 1.89413, 1.81719, 1.91062, 1.8901, 2.00428, 1.8928, 1.8142, 1.89113, 1.9928, 1.91453, 1.81373, 1.99266, 1.88908, 1.88924, 1.81503, 1.89283, 1.91688, 2.01098, 1.89027, 1.81881, 1.89552, 1.89702, 1.89789, 1.82383, 1.99573, 1.82802, 1.91669, 2.0116, 2.01463, 1.85137, 2.00313, 1.97983, 1.98751, 1.97249, 1.97057, 1.9717, 1.96814, 1.8942, 1.89363, 1.89276, 1.97553, 1.97176, 1.97534, 1.97517, 1.97139, 1.97163, 1.98568, 1.89511, 1.99648, 1.968, 1.98228, 1.98627, 1.98344, 2.00005, 1.98552, 1.98304, 2.00714, 1.98606, 1.97972, 1.99062, 2.00125, 1.99438, 1.90693, 1.98246, 1.98286, 1.99726, 2.01294, 2.0051, 1.98529, 1.98627, 1.98605, 1.98463, 1.98674, 1.99732, 1.99477, 1.98895, 1.91005, 1.99389, 2.00937, 1.98832, 1.98703, 2.00032, 1.98662, 1.98776, 1.99566, 1.98593, 1.99361, 1.98646, 1.99334, 2.00053, 1.98667, 1.98632, 1.91413, 1.911, 1.9102, 1.90946, 1.99032, 1.9889, 1.98768, 1.91373, 2.01695, 1.91302, 1.85406, 1.85392, 1.95533, 1.85093, 1.84984, 1.95527, 1.85148, 1.84882, 2.03533, 1.94876, 1.84928, 1.94877, 1.85176, 1.85113, 1.85047, 2.03313, 1.85453, 1.8523, 1.85429, 1.85308, 1.85243, 1.95117, 1.85772, 1.85689, 2.03323, 2.04312, 1.85374, 1.90653, 1.90587, 1.93098, 1.92976, 1.85352, 1.85171, 2.04128, 1.90057, 1.85153, 1.85361, 2.03222, 1.8524, 1.85197, 1.85158, 1.85085, 1.89969, 1.89916, 1.9018, 1.93051, 1.89845, 1.83095, 1.77932, 1.86633, 1.77496, 2.07997, 1.77323, 1.89249, 1.8198, 1.76889, 1.76775, 1.87946, 1.76558, 1.76461, 1.76513, 1.8812, 1.76182, 1.8875, 1.80955, 1.76141, 1.80949, 1.875, 1.80857, 1.75604, 1.88636, 1.88918, 1.75493, 1.75636, 1.87131, 1.88287, 1.75559, 1.75443, 1.75458, 1.75512, 1.80339, 1.8719, 1.87162, 1.80442, 1.75319, 1.75584, 1.88448, 1.75461, 1.75291, 1.81346, 1.81275, 1.81156, 1.86974, 1.75433, 1.75484, 1.91059, 1.8496, 1.75508
1.78066, 1.7796, 1.95142, 1.87614, 1.77825, 1.77668, 1.77682, 1.77659, 1.77223, 1.77578, 1.77503, 1.77276, 1.87613, 1.8781, 1.77212, 1.7695, 1.81992, 1.77029, 1.8722, 1.86783, 1.7686, 1.76786, 1.87156, 1.76699, 1.81634, 1.94551, 1.76685, 1.7681, 1.76703, 1.7655, 1.76481, 1.76523, 1.76482, 1.76108, 1.76302, 1.8125, 1.81265, 1.81268, 1.81129, 1.76132, 1.81041, 1.81166, 1.81366, 1.86477, 1.76233, 1.76156, 1.76188, 1.94362, 1.76394, 1.76483, 1.76388, 1.81642, 1.98397, 1.9046, 1.99034, 1.90516, 1.90804, 1.90977, 1.91008, 1.9097, 1.90675, 1.90879, 1.82519, 1.91092, 1.82428, 1.90874, 1.82139, 1.8961, 1.89581, 1.89549, 1.89632, 1.89875, 1.81912, 1.89284, 1.9173, 1.89348, 1.89221, 1.91538, 1.89289, 1.9965, 1.88952, 1.99757, 1.89322, 1.89365, 1.89215, 1.89283, 2.01031, 1.92044, 1.89288, 1.89358, 1.89562, 1.8218, 1.89899, 1.8236, 1.99461, 1.91954, 1.99668, 2.005, 1.99663, 2.01419, 1.98176, 1.89448, 1.98011, 1.97218, 1.89466, 1.97267, 1.97052, 1.97143, 1.89322, 1.89448, 1.89348, 1.97121, 1.97603, 1.97864, 1.97426, 1.9899, 1.89564, 1.89608, 1.9797, 1.97159, 1.97108, 2.0039, 1.97555, 1.97458, 1.89988, 1.97016, 1.9029, 1.99304, 1.99697, 1.99415, 1.90413, 1.97958, 1.90518, 2.00709, 1.98221, 1.98264, 1.90772, 2.00042, 1.98382, 1.98889, 1.98437, 1.98808, 1.99546, 1.99186, 1.98647, 1.9837, 1.98137, 1.98616, 1.90987, 1.9922, 1.99533, 1.99421, 2.00036, 1.99492, 1.99459, 1.99353, 1.98598, 1.98546, 1.98672, 1.98829, 1.9877, 1.98706, 1.98626, 1.91138, 1.91146, 1.9107, 1.91132, 1.99014, 1.91016, 2.01394, 1.91487, 1.98992, 1.85422, 1.85417, 2.02146, 1.94484, 1.85237, 1.85164, 2.02421, 2.02128, 1.84795, 1.94927, 1.84829, 1.85126, 1.85092, 1.85294, 1.9092, 1.85311, 1.85172, 1.85397, 1.85422, 1.85424, 1.85352, 1.85722, 1.85437, 1.85172, 1.85315, 1.85338, 1.8552, 1.85399, 1.85361, 2.03112, 2.04568, 2.04607, 1.85323, 1.90392, 1.90417, 1.90182, 1.90096, 2.02454, 1.85038, 2.03207, 1.85166, 1.84909, 1.89975, 1.90014, 1.85011, 1.85003, 1.83155, 1.91725, 1.77847, 1.86926, 1.83319, 1.77137, 1.76842, 1.88048, 1.76953, 1.76945, 1.81628, 1.81605, 1.76546, 1.76389, 1.76197, 1.81674, 1.81571, 1.8787, 1.88415, 1.75864, 1.87186, 1.75818, 1.811, 1.75812, 1.75742, 1.75767, 1.75665, 1.75562, 1.75631, 1.88897, 1.75451, 1.75321, 1.75245, 1.7517, 1.80379, 1.80314, 1.80478, 1.80407, 1.75499, 1.75373, 1.75244, 1.75545, 1.75477, 1.81661, 1.81184, 1.87218, 1.88041, 1.8768, 1.87701, 1.75131, 1.80284, 1.86727
1.8338, 1.8332, 1.78185, 1.7808, 1.77901, 1.77576, 1.77631, 1.77619, 2.02839, 1.77742, 1.77718, 1.77521, 2.03013, 1.77495, 1.77374, 1.77209, 1.8224, 1.77492, 1.82394, 1.86829, 2.0313, 1.77142, 1.77116, 1.76961, 1.81882, 1.76957, 1.76464, 1.76944, 1.76661, 1.87149, 1.76217, 1.76378, 1.76577, 1.76602, 1.76632, 1.76308, 1.76307, 1.76246, 1.94036, 1.76217, 1.7647, 1.85254, 1.76267, 1.87285, 1.87557, 1.76472, 1.76442, 1.76332, 1.87926, 1.76426, 1.76669, 1.76843, 1.90785, 1.83062, 1.90745, 1.91035, 1.91008, 1.91045, 1.90511, 1.9064, 1.90151, 1.9116, 2.00805, 1.90082, 1.99701, 1.91248, 1.91313, 1.9134, 1.91453, 1.91553, 1.81837, 1.81848, 1.91628, 1.8978, 1.91778, 1.9178, 1.89374, 1.89332, 1.89225, 1.89102, 1.81454, 1.88961, 1.91862, 1.89066, 1.88903, 2.0122, 1.89354, 2.00535, 1.81673, 1.89676, 1.89627, 1.89884, 1.90034, 1.9205, 1.92216, 2.00298, 1.90765, 2.00487, 2.00253, 1.99619, 1.97916, 1.98081, 1.97522, 1.97622, 1.98106, 1.97974, 1.97158, 1.97094, 1.97033, 1.97054, 1.97034, 1.89573, 1.97909, 1.97192, 1.9719, 1.97593, 1.97333, 1.98475, 1.98028, 1.97228, 1.97897, 1.97496, 2.00097, 1.97923, 1.98744, 1.98692, 1.97866, 1.9903, 1.99, 1.90455, 1.97856, 1.90471, 1.98942, 1.90348, 1.9935, 1.99723, 1.99622, 1.98634, 1.99044, 1.99349, 1.90786, 1.98217, 1.9995, 2.00134, 2.0066, 2.00427, 2.00292, 1.99355, 1.98652, 1.91088, 1.98965, 1.9963, 1.91087, 1.99795, 2.01814, 1.98792, 2.00344, 1.9887, 1.99994, 2.00672, 2.00064, 1.9888, 1.98981, 1.98893, 1.99121, 1.99124, 1.98949, 1.99165, 1.9974, 2.0082, 2.00752, 1.99121, 1.85319, 1.85387, 1.85338, 1.85178, 2.02395, 1.85133, 1.85206, 1.85141, 1.9489, 1.8497, 1.85135, 2.03512, 1.94863, 1.85464, 1.85006, 1.90975, 2.01193, 1.85407, 1.85399, 1.85434, 1.93714, 1.93499, 1.85458, 1.85159, 1.85266, 2.04484, 1.85449, 1.8524, 1.85051, 1.85539, 2.04481, 2.03457, 2.03501, 1.90152, 1.90392, 1.90283, 1.93353, 1.8496, 1.89986, 1.84874, 1.84824, 1.84764, 1.84634, 1.89957, 1.89931, 1.84661, 1.84631, 1.77475, 1.86702, 1.86617, 1.77306, 1.77337, 1.76924, 1.8767, 1.88241, 1.76654, 1.76545, 1.87376, 1.81376, 1.81255, 1.81362, 1.76226, 1.88235, 1.8792, 1.75953, 1.75873, 1.76005, 1.80904, 1.75847, 1.88674, 1.75831, 1.7562, 1.80611, 1.75585, 1.88752, 1.75506, 1.75333, 1.89603, 1.75621, 1.75517, 1.88383, 1.8834, 2.06699, 1.75501, 1.75172, 1.7541, 1.75572, 1.75228, 1.87355, 1.75514, 1.87145, 1.86918, 1.75433, 1.87713, 1.7536, 1.75446, 1.87209, 1.75402
1.78101, 1.78227, 1.7825, 1.78291, 1.78062, 1.78124, 1.78187, 1.82937, 1.78071, 1.88208, 1.77853, 1.77625, 1.7749, 1.82776, 1.77596, 1.87415, 1.87224, 1.86559, 1.77502, 1.87032, 1.77193, 1.7745, 1.77413, 1.77454, 1.7697, 1.77203, 1.77137, 1.76882, 1.77051, 1.7704, 1.76894, 1.76862, 1.76869, 1.87045, 1.8681, 1.76612, 1.76677, 1.76628, 1.76525, 1.76805, 2.02546, 1.76519, 1.76438, 1.86919, 1.7653, 1.76455, 1.86535, 1.76612, 1.76667, 1.86906, 1.76823, 1.94198, 1.83309, 1.90792, 1.908, 1.90895, 1.91028, 1.90279, 1.99123, 1.90627, 1.91299, 1.90262, 1.90135, 1.90453, 1.90764, 1.90098, 1.90268, 1.90352, 1.89935, 1.91678, 1.89782, 1.89775, 1.91688, 2.00588, 1.81718, 1.8171, 1.81668, 1.89218, 1.89251, 1.89151, 2.01068, 1.81495, 1.92104, 1.92061, 1.92172, 1.8146, 1.81622, 1.92208, 1.81807, 1.89611, 1.89585, 1.89732, 1.92185, 1.89933, 1.92386, 1.92299, 1.91045, 1.91762, 1.9238, 1.85657, 1.99598, 1.97184, 2.00396, 1.97218, 1.97192, 1.89566, 1.89503, 1.9762, 1.89595, 1.89545, 1.97275, 1.97583, 1.89693, 1.9753, 1.9762, 1.99463, 1.98358, 1.97371, 1.97357, 1.97292, 1.97483, 1.99029, 1.9913, 1.90002, 1.90018, 1.98775, 1.98907, 1.90291, 1.99657, 1.90404, 1.99359, 1.997, 1.97975, 1.98727, 1.90809, 1.90887, 2.00046, 1.99058, 1.98321, 1.98841, 2.00372, 1.99398, 1.98653, 1.99337, 2.01333, 1.91125, 1.98855, 1.98801, 1.98786, 1.98864, 2.00064, 2.00102, 1.9997, 1.9967, 1.99971, 1.9862, 2.00948, 1.91256, 1.91112, 1.99952, 2.00123, 1.98895, 1.98892, 1.9899, 1.91203, 1.98779, 1.9906, 1.99608, 1.98834, 2.01426, 1.98948, 2.00355, 2.02806, 1.85368, 1.90267, 1.85217, 1.8491, 1.84794, 1.90666, 1.90372, 1.85058, 1.85137, 1.85141, 1.94802, 2.02777, 2.04074, 1.84841, 1.85411, 1.85442, 1.94612, 1.90519, 1.9041, 1.90542, 1.90422, 1.85128, 2.03082, 2.02984, 1.85264, 1.85237, 2.04566, 1.85459, 1.85289, 1.85331, 1.91232, 1.85204, 1.85267, 1.84987, 1.85052, 1.84904, 1.85086, 1.94132, 1.84857, 1.84551, 2.03107, 1.84932, 2.02198, 2.02078, 1.84707, 1.84555, 1.77766, 1.88273, 1.88014, 1.7707, 1.77144, 1.76872, 1.87847, 1.87826, 1.76633, 2.05609, 1.76322, 1.87516, 1.86099, 1.76175, 1.8266, 1.76136, 1.76117, 1.87999, 1.8797, 1.75794, 1.83509, 1.75926, 1.75646, 1.93454, 1.75551, 1.75336, 1.88492, 1.75549, 1.75224, 1.88655, 1.75511, 1.88409, 1.88262, 1.75133, 1.75513, 1.75526, 1.88191, 1.85473, 1.75511, 1.75514, 1.75505, 1.75388, 1.86494, 1.80387, 1.80259, 1.75572, 1.75388, 1.85186, 1.87204, 1.75249, 1.75106
1.78666, 1.78802, 1.7855, 1.86571, 1.7851, 1.86521, 1.8645, 1.83276, 1.78073, 1.78105, 1.77867, 1.7779, 1.77832, 1.77978, 1.77839, 1.77439, 2.05138, 1.77545, 1.82574, 1.77589, 1.77374, 1.77538, 1.77384, 1.77632, 1.7737, 1.77381, 1.77161, 1.93599, 1.7694, 1.87328, 1.76814, 1.76856, 1.76897, 1.86765, 1.768, 1.76812, 1.76757, 1.76833, 1.86931, 1.87052, 1.87762, 1.87902, 1.81657, 1.76812, 1.76855, 1.76722, 1.76618, 1.76886, 1.94362, 1.76768, 1.76943, 1.76889, 1.91375, 1.91705, 1.91072, 1.90898, 1.91321, 1.99378, 1.90625, 1.99681, 1.91315, 1.90474, 1.90294, 1.91986, 1.92184, 1.9157, 1.9173, 1.90092, 1.91717, 1.91846, 1.9179, 1.91867, 1.89973, 1.92219, 1.89603, 1.8949, 1.8196, 1.81669, 1.81675, 1.89486, 1.89385, 1.89261, 2.01609, 1.89362, 1.89588, 1.92349, 1.81752, 1.81835, 2.01479, 1.99954, 1.92377, 1.8996, 2.00311, 1.90702, 1.90636, 1.90797, 1.91068, 1.92389, 2.00256, 1.99777, 1.8972, 1.97324, 1.97713, 1.97293, 2.00418, 1.98898, 1.97606, 1.97617, 1.89619, 1.89797, 1.89766, 1.89415, 1.89483, 1.89472, 1.97422, 1.97585, 1.89693, 1.97565, 1.98508, 1.97554, 1.97801, 1.97673, 1.99395, 1.99321, 1.99249, 1.9909, 1.99283, 1.98999, 1.98676, 1.99192, 1.99279, 1.98378, 1.98246, 1.98209, 1.98217, 1.90867, 1.90878, 1.99295, 1.98627, 1.98681, 1.90981, 1.91052, 1.98599, 1.91318, 2.0007, 1.99074, 1.91158, 1.9887, 1.99245, 1.98919, 2.0058, 1.9999, 1.98822, 1.9134, 2.00802, 1.98928, 2.00032, 1.98859, 1.98791, 1.99457, 1.9897, 1.98705, 1.9886, 1.99298, 1.99272, 1.99053, 1.99281, 1.99376, 1.9904, 1.99283, 2.0029, 1.99216, 1.85529, 2.02071, 2.01776, 1.85146, 2.04261, 1.85139, 1.90741, 1.84761, 1.85109, 1.94386, 1.84854, 1.8511, 1.84955, 1.94262, 1.85146, 1.91072, 1.9086, 1.90941, 1.90965, 1.85304, 2.02904, 2.0315, 1.85497, 1.85123, 2.03595, 1.85252, 1.854, 2.04591, 1.85417, 1.85267, 1.902, 2.02193, 1.85159, 1.852, 1.84898, 2.0357, 2.03649, 1.93464, 1.93357, 1.84995, 1.84643, 1.84593, 1.84832, 2.03932, 1.84585, 1.84535, 1.77633, 1.7747, 1.77134, 1.76959, 1.88349, 1.87986, 1.7686, 1.76832, 1.81612, 1.81636, 1.76624, 1.76543, 1.87695, 1.87535, 1.76233, 1.95495, 1.75963, 1.87703, 1.88223, 1.75871, 1.75498, 1.75848, 1.75817, 1.80625, 1.7552, 1.75791, 1.88306, 1.80663, 1.75544, 1.75245, 1.75414, 1.75407, 1.75261, 1.75378, 1.75302, 1.7525, 1.75341, 1.75119, 1.75457, 1.75423, 1.88247, 1.88038, 1.75361, 1.75573, 1.86484, 1.80458, 1.87958, 1.8762, 1.87468, 1.84969, 1.75373, 1.75428
1.85431, 1.78738, 1.78877, 1.78852, 1.78341, 1.78702, 1.84443, 1.84708, 1.78246, 1.78131, 1.78131, 1.87887, 1.77936, 1.78096, 1.77953, 1.77801, 1.88195, 1.77923, 1.77865, 1.87852, 1.87169, 1.77735, 1.7751, 1.77574, 1.86164, 1.88506, 1.77231, 2.05222, 1.77216, 1.77267, 1.86936, 1.8218, 1.77009, 1.82071, 1.82862, 1.77101, 1.76998, 1.76974, 1.87147, 1.76827, 1.76818, 1.81825, 1.77071, 1.7711, 1.76811, 1.76909, 1.76854, 1.76912, 1.76878, 2.02844, 1.77126, 1.7708, 1.99521, 1.83484, 1.91408, 1.99987, 1.99508, 1.99849, 1.99932, 1.91719, 1.82798, 1.90435, 1.90388, 2.01484, 2.01084, 1.82518, 1.9183, 1.9182, 1.91878, 1.821, 1.92055, 1.92037, 1.81929, 1.82004, 1.91867, 2.01344, 1.89507, 1.92279, 2.01758, 1.92258, 1.89452, 1.89288, 1.89381, 1.81685, 1.89285, 1.92227, 1.89299, 1.89401, 1.89596, 1.82174, 1.92476, 1.92425, 1.92376, 1.90438, 1.92447, 1.92567, 1.92509, 1.83939, 2.00326, 2.004, 1.97622, 1.8992, 1.98534, 1.99387, 1.97316, 1.98197, 1.89691, 1.97891, 1.89727, 1.98176, 1.8967, 1.89629, 1.89664, 1.89759, 1.98279, 1.97434, 1.98679, 1.97462, 1.89819, 1.99405, 1.99365, 1.98763, 1.90096, 1.90226, 2.00029, 1.98307, 1.9035, 1.99336, 1.90527, 1.98008, 2.00994, 1.99929, 1.99645, 1.98323, 2.00026, 1.99001, 1.99226, 1.91036, 2.01107, 1.90617, 1.98635, 1.98557, 2.00708, 1.9955, 1.99795, 1.99383, 1.91328, 2.01564, 1.99437, 2.00856, 2.01084, 2.01178, 1.98959, 1.98804, 1.99067, 1.98897, 1.91263, 2.0036, 2.00442, 1.98941, 1.99118, 1.9906, 1.99173, 1.99277, 1.99419, 1.9927, 1.99281, 1.99729, 1.9995, 1.9909, 2.01493, 1.9134, 1.85785, 1.85493, 1.85308, 1.85206, 1.95062, 1.84895, 1.84828, 1.85009, 1.89984, 1.84882, 1.84866, 1.94923, 1.8514, 1.84792, 1.85078, 1.94023, 1.91068, 1.91024, 1.91035, 1.85403, 2.04157, 2.04585, 1.8516, 1.85058, 1.85399, 1.85153, 1.8544, 2.03502, 2.03019, 1.85264, 1.93558, 1.85317, 1.90282, 1.85078, 1.85034, 1.84905, 1.84767, 1.84738, 1.84496, 1.94158, 2.03815, 1.84534, 1.84637, 2.03048, 1.84701, 1.84552, 1.77788, 1.87897, 1.77186, 1.77136, 1.76989, 1.76726, 1.81888, 1.85793, 1.81458, 1.76453, 1.83977, 1.81421, 1.76256, 1.87749, 1.87399, 1.76337, 1.75762, 1.76245, 1.76106, 1.87492, 1.75847, 1.87723, 1.87691, 1.87561, 1.87675, 1.85449, 1.85404, 1.75306, 1.95353, 1.75407, 1.75418, 1.8791, 1.75483, 1.88355, 1.88484, 1.86305, 1.8598, 1.75514, 1.75331, 1.75288, 1.75391, 1.86336, 1.86306, 1.75776, 1.7539, 1.8065, 1.8032, 1.75282, 1.75549, 1.75456, 1.87449, 1.87118
1.78944, 1.78674, 1.79206, 1.78765, 1.78815, 1.78785, 1.78687, 1.78709, 1.78403, 1.78581, 1.78586, 1.78576, 2.03933, 2.04542, 1.88076, 1.78194, 1.78128, 1.78157, 1.77971, 1.77535, 1.77668, 1.77849, 1.77982, 1.82692, 1.77626, 1.77653, 1.87764, 1.77666, 1.77556, 1.77353, 1.77372, 1.77505, 1.87661, 1.77491, 1.77222, 1.77136, 1.77243, 1.77194, 1.7736, 1.87174, 1.77189, 1.77004, 1.86838, 1.77027, 1.85907, 1.77161, 1.77201, 1.94924, 1.95147, 1.85801, 1.93139, 1.8233, 1.99331, 1.92049, 1.99336, 2.00182, 2.00253, 2.00108, 1.91877, 1.99668, 1.9101, 2.01719, 1.92047, 1.99585, 1.90372, 1.82584, 1.92017, 1.90285, 1.99633, 1.99731, 1.82072, 1.92376, 1.92303, 1.92443, 1.9236, 1.92358, 1.89973, 1.81893, 1.9247, 1.92373, 1.92425, 1.89408, 1.81715, 1.9264, 1.92704, 1.89286, 2.00118, 1.89622, 1.82054, 2.00334, 1.90009, 1.90349, 1.90474, 1.90374, 1.83095, 1.92387, 1.92613, 1.92483, 1.84239, 2.03104, 1.98028, 2.00012, 1.99702, 1.97747, 1.99213, 1.97578, 1.9794, 1.98003, 1.97711, 1.97919, 1.8981, 1.89608, 1.89844, 1.89767, 1.97629, 1.89935, 1.99664, 1.98966, 1.97447, 1.90005, 1.97935, 1.99086, 1.98073, 1.90142, 1.90208, 2.00189, 1.90535, 1.98123, 1.99219, 1.98935, 1.98255, 1.98499, 1.98559, 2.00091, 1.98388, 1.98312, 1.98704, 2.01201, 2.00064, 1.9995, 1.98989, 1.91343, 1.99673, 2.00693, 1.99067, 1.98964, 2.00549, 1.99901, 2.00291, 2.01141, 2.00926, 1.99029, 2.00806, 2.01024, 1.99467, 1.99062, 1.99005, 1.99974, 2.00098, 1.98936, 2.00393, 1.99057, 1.99057, 1.91318, 1.99573, 1.99549, 1.99592, 1.9156, 2.0018, 1.99259, 1.99023, 2.01039, 1.85428, 1.85221, 2.02391, 1.85054, 1.85019, 1.8521, 1.84984, 2.02243, 2.02355, 1.84992, 2.04084, 1.84888, 1.94902, 1.84967, 1.84983, 1.84927, 2.02822, 2.0254, 2.024, 1.85152, 1.85096, 1.85506, 1.85385, 1.94459, 1.90577, 1.85462, 2.02409, 2.02381, 1.85494, 1.85527, 2.04175, 1.85354, 1.85511, 1.85128, 1.8514, 2.03176, 1.84719, 1.84768, 1.8454, 1.89726, 1.89598, 1.84719, 2.0444, 2.02184, 1.84435, 1.84551, 1.77524, 1.82663, 1.82312, 1.76974, 1.77029, 1.86852, 1.81744, 1.81667, 1.877, 1.76468, 1.81368, 1.85943, 1.86185, 1.81254, 1.81311, 1.81143, 1.8108, 1.75957, 1.76099, 1.75655, 1.75781, 1.75723, 1.8489, 1.75534, 1.7557, 1.7546, 1.84932, 1.75556, 1.75471, 1.88235, 1.8071, 1.75114, 1.75342, 1.75305, 1.80619, 1.75114, 1.75202, 1.7536, 1.75316, 1.80649, 1.8047, 1.75479, 1.80593, 1.80351, 1.80595, 1.86248, 1.75232, 1.75634, 1.87875, 1.75504, 1.75454, 1.75325
2.06963, 2.04495, 2.06282, 1.78979, 1.78994, 2.06389, 1.78831, 1.78748, 1.837, 1.78662, 1.78735, 1.78408, 1.78438, 1.78384, 1.78084, 1.88258, 1.78052, 1.78301, 1.77924, 1.78113, 1.88023, 1.78016, 1.78074, 1.78019, 1.77918, 1.8735, 1.87469, 1.86484, 1.77516, 1.77705, 1.89691, 1.82813, 1.77586, 1.7781, 1.8766, 1.77443, 1.8247, 1.82463, 1.77514, 1.89308, 1.77331, 1.82499, 1.82381, 1.77488, 1.77125, 1.77502, 1.77489, 1.77297, 1.77353, 1.77271, 1.8266, 1.77384, 1.91454, 1.91456, 1.91323, 1.912, 1.91683, 1.91029, 1.9103, 1.91965, 1.83038, 1.90817, 1.92317, 1.90483, 1.906, 1.90312, 1.90364, 1.92214, 1.92418, 1.82364, 1.90096, 1.92366, 1.89959, 1.8993, 1.92692, 2.01786, 1.81936, 1.92297, 1.81997, 1.9246, 1.92501, 1.92662, 1.89599, 2.02092, 1.89755, 2.02766, 1.89706, 1.89882, 1.82171, 1.89933, 1.90291, 1.89958, 1.93096, 1.93, 1.92794, 2.00501, 1.91333, 1.91942, 2.02894, 1.86016, 2.00719, 1.99627, 2.02502, 2.01361, 1.97793, 1.97637, 1.99041, 1.90174, 1.89941, 1.89734, 1.89896, 1.89877, 1.89926, 1.97772, 1.97777, 1.90089, 1.97627, 1.89897, 1.90098, 1.99276, 1.90153, 1.99338, 1.99061, 2.0054, 1.97904, 1.90356, 2.01772, 2.00756, 1.98295, 1.98283, 2.01582, 1.98544, 1.98648, 2.00345, 2.01212, 1.98616, 1.91281, 1.91134, 2.01982, 1.99138, 1.99636, 2.00995, 1.9141, 1.9906, 1.99162, 1.91423, 2.00022, 1.99678, 2.00644, 2.03454, 2.00221, 1.9916, 1.99203, 1.99497, 1.99314, 1.99062, 1.99323, 1.99147, 1.9902, 2.00271, 2.01537, 1.99473, 1.99753, 1.99152, 1.99723, 1.99981, 1.99672, 1.99621, 1.9152, 2.0095, 2.00693, 2.0165, 1.85147, 1.85198, 1.8546, 1.85216, 1.85104, 1.84856, 1.89873, 1.89783, 1.84823, 1.84761, 1.84733, 1.94984, 1.84816, 1.84825, 1.84655, 2.02806, 1.84771, 1.85002, 1.85149, 2.0484, 1.90448, 1.90452, 1.85589, 1.85466, 1.8567, 1.85524, 2.02571, 1.85416, 1.93718, 1.85488, 1.85428, 1.85449, 2.04606, 1.91119, 1.85281, 2.05255, 1.85025, 1.84755, 1.84739, 1.84672, 1.84669, 1.84504, 1.84401, 1.84221, 1.84292, 1.84266, 1.77448, 1.82351, 1.82292, 1.8661, 1.86735, 1.76766, 1.76266, 1.86972, 1.76688, 1.7652, 1.86129, 1.86239, 1.85968, 1.75715, 1.85268, 1.81155, 1.81043, 1.80953, 1.75658, 1.86886, 1.75734, 1.75863, 1.75693, 1.83708, 1.80667, 1.80522, 1.75456, 1.75512, 1.75433, 1.75161, 1.87989, 1.87862, 1.88181, 1.74988, 1.8238, 1.75434, 1.7514, 1.74953, 1.75334, 1.75228, 1.75412, 1.88176, 1.75311, 1.87911, 1.87872, 1.75675, 1.75326, 1.75137, 1.75498, 1.75475, 1.75294, 1.75184
1.84395, 1.79326, 1.79471, 1.79492, 1.79253, 1.79276, 1.79293, 1.79265, 2.06031, 1.7859, 2.04485, 1.78338, 1.78617, 1.78675, 1.78476, 1.78487, 1.7822, 1.78412, 1.78522, 2.04149, 1.78561, 1.96128, 1.78233, 1.78223, 1.77682, 1.77865, 1.78135, 1.78123, 1.77577, 1.78142, 1.78146, 1.77869, 1.86646, 1.82714, 1.87125, 1.87218, 1.77683, 1.77647, 1.82712, 1.87554, 1.86384, 1.82538, 1.86612, 1.77607, 1.87197, 1.77725, 1.77493, 1.82466, 1.77604, 1.77695, 1.77519, 1.77666, 1.99846, 1.99964, 2.00132, 1.9154, 1.91232, 1.91418, 1.91168, 1.91288, 1.91107, 1.91054, 1.90603, 1.99994, 1.90613, 1.82934, 1.92482, 1.92445, 1.92416, 1.92513, 1.90029, 1.92731, 1.89966, 1.89782, 1.8202, 1.92745, 1.89836, 1.89714, 1.8963, 1.89967, 1.89656, 1.92844, 1.81958, 1.81994, 2.02805, 1.89676, 2.01739, 1.82155, 2.01383, 2.01484, 1.82507, 1.90277, 1.90301, 1.83103, 2.03466, 1.92823, 1.92986, 2.03856, 2.00754, 2.00441, 1.98059, 1.9811, 1.99738, 1.97873, 2.00311, 1.90062, 1.97973, 1.89939, 1.89963, 1.90006, 1.89942, 1.89907, 1.97898, 1.97928, 1.89964, 1.9789, 1.98232, 1.99256, 1.9996, 1.90302, 1.90299, 2.00329, 1.99631, 1.97612, 1.97557, 1.90802, 1.90599, 1.98596, 2.00065, 1.98613, 1.98623, 1.98588, 1.91028, 2.01399, 1.98894, 1.91379, 1.98956, 2.01001, 2.01466, 2.02111, 2.01306, 2.0197, 1.91372, 1.99017, 1.99402, 2.00161, 2.00405, 2.00765, 2.00026, 2.00434, 2.00374, 1.9154, 2.00962, 2.01057, 2.01329, 1.91475, 1.91406, 2.00732, 2.00604, 1.91405, 1.99369, 1.992, 1.9978, 1.99073, 1.99932, 2.00019, 1.99389, 1.99453, 1.9943, 1.99234, 1.99312, 1.99319, 1.85454, 1.94468, 2.03863, 1.90078, 1.9344, 1.95148, 1.93614, 1.84552, 1.84724, 1.84814, 1.84454, 1.84619, 1.84742, 2.04659, 1.84773, 1.84967, 1.84919, 1.85084, 1.85021, 1.85444, 1.8529, 1.85227, 2.0487, 2.03457, 2.04686, 2.04368, 1.94865, 1.94711, 1.85551, 1.85445, 2.03916, 2.0547, 2.04459, 2.03166, 1.85133, 1.85117, 1.84883, 1.84706, 1.89937, 1.8976, 1.89581, 1.84703, 1.84381, 1.92897, 1.84028, 1.84066, 1.82685, 1.76939, 1.77315, 1.92141, 1.76983, 1.76862, 1.76697, 1.76666, 1.76519, 1.87845, 1.8593, 1.86183, 1.86176, 1.86491, 1.85983, 1.76115, 1.75849, 1.86854, 1.76047, 1.86547, 1.86683, 1.75773, 1.84959, 1.80749, 1.80575, 1.80365, 1.80616, 1.85966, 1.80498, 1.97831, 1.8823, 1.75188, 1.87537, 1.75448, 1.75029, 1.75308, 1.85208, 1.80471, 1.80401, 1.7517, 1.75166, 1.87873, 1.75134, 1.75021, 1.75546, 1.75121, 1.92344, 1.75203, 1.92455, 1.84741, 1.75476, 1.75079
1.79603, 1.79679, 1.84881, 1.79257, 1.7934, 1.7923, 1.88588, 1.79082, 1.79203, 1.79006, 1.78706, 1.8974, 1.7878, 1.87503, 2.04502, 1.78658, 1.96614, 1.88364, 1.78555, 1.78487, 2.04509, 1.78369, 1.78599, 1.78358, 1.78326, 1.78097, 1.77966, 2.06615, 1.78069, 1.78111, 1.88163, 1.78074, 1.77901, 1.77878, 1.87343, 1.77694, 1.87745, 1.8768, 1.77575, 1.77829, 1.82777, 1.7755, 1.77699, 1.7787, 1.77842, 1.77548, 1.77755, 1.77865, 1.94761, 1.94832, 1.95322, 1.91733, 2.00114, 1.91562, 1.9248, 1.91472, 1.91372, 1.91165, 1.91207, 1.91271, 1.83388, 1.92495, 2.02513, 1.90786, 1.93043, 1.90479, 1.92758, 1.90589, 2.02452, 1.9067, 1.90338, 2.03083, 1.92752, 1.89935, 1.92798, 2.0147, 1.93032, 1.89683, 1.82169, 1.93129, 1.90061, 1.93072, 1.82095, 1.82073, 1.8207, 1.93012, 2.00695, 2.00774, 1.90373, 1.90305, 1.90189, 1.90436, 1.90932, 1.83266, 1.83428, 1.91798, 1.91747, 1.9203, 2.04433, 1.90488, 2.00963, 2.00375, 1.98266, 1.97942, 1.9808, 2.0064, 2.00362, 1.98661, 1.98316, 1.90316, 1.90165, 1.89998, 1.98256, 1.98193, 1.9843, 1.97859, 1.9789, 1.97924, 1.97883, 1.90333, 1.97237, 1.90312, 1.90614, 1.99455, 2.00612, 1.90678, 1.90761, 1.90863, 1.99441, 1.99518, 2.01051, 1.99716, 2.00725, 2.01844, 2.00329, 1.98877, 1.98983, 1.99075, 1.91295, 1.98943, 2.01888, 1.99116, 1.91463, 1.99162, 2.00711, 2.01604, 1.99272, 2.00633, 1.99982, 1.99199, 2.00216, 1.98988, 1.9996, 2.0243, 1.91732, 2.00183, 1.99398, 1.91729, 1.9933, 1.99296, 1.99239, 1.99329, 1.9981, 2.00153, 1.99317, 1.99851, 1.99977, 1.99752, 1.99975, 2.00329, 1.99288, 1.8546, 1.94571, 1.90273, 1.90304, 1.90103, 1.9004, 1.9349, 1.97209, 1.84569, 1.89798, 1.89607, 1.94195, 1.84812, 1.8472, 1.85043, 1.95288, 2.02749, 1.84761, 1.84833, 1.85045, 1.85132, 1.95298, 1.85288, 2.02743, 1.85469, 1.85327, 1.96023, 1.90662, 1.85797, 1.85723, 1.85789, 1.85559, 1.90423, 1.85462, 1.85407, 1.85366, 1.85089, 2.03377, 1.84776, 1.89993, 1.89668, 1.84631, 2.03309, 2.02098, 1.84358, 1.84116, 1.83936, 1.77643, 1.84723, 1.77355, 1.77098, 1.76605, 1.76611, 1.81669, 1.7678, 1.76693, 1.76492, 1.76215, 1.81294, 1.85866, 1.85855, 1.84455, 1.76115, 1.7592, 1.75806, 1.85802, 1.75826, 1.86887, 1.83704, 1.80689, 1.80771, 1.80607, 1.8684, 1.80612, 1.7506, 1.75487, 1.75382, 1.75554, 1.87543, 1.75357, 1.75298, 1.7516, 1.75408, 1.7515, 1.74914, 1.8041, 1.75275, 1.86269, 1.85847, 1.7531, 1.74995, 1.75388, 1.75223, 1.75438, 1.80439, 1.80303, 1.75133, 1.75366, 1.75314
1.8506, 1.7965, 1.7949, 1.79514, 1.89578, 1.79667, 1.7974, 1.79571, 1.84406, 1.84301, 1.79388, 1.79151, 1.7918, 1.78941, 1.79217, 1.88697, 1.79041, 1.89227, 1.85425, 1.79024, 1.78707, 1.83723, 1.785, 1.78618, 1.78238, 1.78307, 1.88391, 1.88569, 1.88516, 1.7804, 1.78106, 1.7827, 2.049, 1.7767, 1.88031, 1.78028, 1.77937, 1.78121, 1.88124, 1.77931, 1.78099, 1.82953, 1.82938, 1.77975, 1.77878, 1.82997, 1.77896, 1.78006, 1.77943, 1.77886, 1.83025, 1.83005, 1.92424, 1.91853, 1.92439, 1.92416, 1.92592, 1.91546, 1.92337, 1.91301, 1.83527, 1.83458, 1.92688, 1.83076, 1.92699, 1.92747, 1.92737, 1.92723, 1.82696, 1.90083, 1.9038, 1.90354, 1.90605, 1.93094, 1.89851, 1.82338, 1.93184, 1.93223, 1.89915, 1.93375, 1.82189, 1.89742, 1.93184, 1.89609, 1.89793, 2.01289, 1.93452, 2.01375, 1.90023, 1.90244, 1.90359, 1.90671, 1.90686, 1.93379, 1.93432, 1.93255, 1.84154, 1.93217, 2.01391, 2.01185, 1.98911, 1.98221, 1.98123, 1.99715, 1.98255, 2.00058, 1.98345, 1.90236, 1.90342, 1.90225, 1.90149, 1.90286, 1.98202, 1.98938, 1.99342, 1.98987, 1.98098, 1.98041, 1.99781, 1.98159, 1.98315, 1.99293, 1.90673, 2.0087, 1.98921, 1.99174, 1.90825, 1.9756, 1.99753, 1.99419, 2.01453, 2.00117, 1.91387, 1.91412, 2.00726, 2.01356, 2.00108, 2.00041, 1.99321, 1.91406, 2.01072, 1.99265, 1.99302, 2.01351, 1.9154, 2.01263, 1.99051, 1.91587, 2.00506, 1.91758, 1.9909, 2.00086, 1.91692, 1.9931, 2.00518, 1.99657, 1.99673, 1.996, 2.03095, 1.99397, 1.99426, 1.91598, 1.99887, 1.99891, 1.99799, 2.00039, 1.99969, 1.99371, 1.9156, 2.01013, 1.99242, 2.00624, 1.85234, 1.85306, 1.85141, 1.84829, 1.84535, 1.95185, 1.8465, 1.84872, 1.84802, 1.95174, 1.8479, 1.84762, 1.84777, 1.95145, 1.84777, 1.84834, 1.84753, 1.89973, 1.90087, 1.90185, 1.90065, 1.85435, 1.8521, 1.85109, 1.85463, 1.85558, 2.03358, 2.03228, 1.85598, 1.93784, 1.8563, 1.85368, 1.94179, 1.85394, 1.85079, 1.84956, 1.84896, 2.02042, 1.84745, 1.84539, 2.03494, 1.84512, 1.84281, 1.84209, 1.84475, 1.77935, 1.77806, 1.87591, 1.85868, 1.85815, 1.77005, 1.81835, 1.81553, 1.76626, 1.85888, 1.8447, 1.76484, 1.76323, 1.76161, 1.85756, 1.85504, 1.7627, 1.8411, 1.86212, 1.80989, 1.80879, 1.75645, 1.75806, 1.75793, 1.75601, 1.75258, 1.75234, 1.75186, 1.87481, 1.75536, 1.75323, 1.75113, 1.75423, 1.87601, 1.75239, 1.75274, 1.80156, 1.75199, 1.80414, 1.75325, 1.75217, 1.74997, 1.75253, 1.75238, 1.80398, 1.80209, 1.7535, 1.75245, 1.75428, 1.75075, 1.7538, 1.87271, 1.75202
1.80198, 1.80255, 1.80169, 1.803, 1.79965, 1.85013, 1.84819, 1.79558, 1.79757, 1.79562, 1.79447, 1.84394, 1.79365, 1.7938, 1.79385, 1.79258, 1.79155, 1.79011, 1.79073, 1.83966, 1.83822, 1.8376, 1.78828, 1.78904, 1.78652, 1.78324, 1.78377, 1.78486, 1.87857, 1.78246, 1.78337, 1.78575, 1.87909, 1.7797, 1.88433, 1.78127, 1.78031, 1.88202, 1.77863, 1.78049, 1.77987, 1.96084, 1.77838, 1.83099, 1.83101, 1.86587, 1.86683, 1.78123, 1.78269, 1.7833, 2.04567, 1.84416, 1.92857, 1.9191, 1.91839, 1.91885, 1.93105, 1.93133, 1.91442, 1.93405, 1.83676, 1.83519, 1.91025, 2.0315, 1.92888, 1.91088, 1.83158, 1.92934, 1.90508, 1.82826, 1.82747, 1.93397, 1.9031, 1.90328, 1.82412, 1.82469, 1.82334, 1.90256, 1.9032, 1.90426, 1.93369, 1.90266, 1.89915, 1.93699, 1.90176, 1.89971, 2.01703, 1.93595, 1.90252, 2.01405, 2.02137, 1.90646, 1.90503, 2.01433, 1.91463, 1.84061, 1.92012, 1.92056, 1.93714, 2.03794, 1.99399, 1.99078, 1.98284, 1.98442, 1.9857, 1.98011, 1.98764, 1.90604, 1.90434, 1.90418, 1.9049, 1.97867, 1.9833, 1.98534, 1.991, 1.99045, 2.00814, 2.00479, 1.99976, 2.00723, 1.98449, 1.98443, 2.00394, 1.97353, 2.00764, 2.0038, 1.99785, 1.91049, 2.01039, 2.00409, 1.9105, 1.91303, 2.00316, 2.01848, 1.91398, 1.91371, 2.00446, 2.01326, 1.91675, 1.9157, 2.01151, 1.99272, 2.00629, 2.00988, 2.00733, 2.0031, 1.99632, 1.99988, 2.00142, 2.00143, 1.99345, 2.00379, 1.91687, 1.99289, 1.99823, 1.99452, 1.99459, 1.99641, 2.01439, 2.00252, 1.99293, 1.99613, 1.99964, 1.99886, 1.99943, 2.00084, 1.996, 2.00109, 1.99405, 1.99348, 2.01377, 1.91688, 1.9458, 1.85122, 1.84994, 1.8497, 1.85133, 1.9588, 1.94331, 1.89662, 1.89696, 1.84589, 1.94096, 1.84526, 1.8464, 1.8489, 1.84615, 1.84692, 1.89845, 1.93749, 1.93703, 1.89902, 1.85201, 1.85149, 1.85483, 1.85456, 1.8511, 2.02762, 2.02517, 2.03529, 2.03922, 2.04513, 2.02053, 1.94141, 1.8521, 1.84979, 1.85078, 1.84903, 2.05279, 1.84497, 2.02468, 1.84533, 1.84474, 2.02028, 1.84376, 1.84291, 1.84121, 1.838, 1.77488, 1.77363, 1.77145, 1.77157, 1.76965, 1.76665, 1.76899, 1.76593, 1.85253, 1.85158, 1.76422, 1.76182, 1.85174, 1.76143, 1.76247, 1.7606, 1.7615, 1.75816, 1.8097, 1.75839, 1.75619, 1.75811, 1.80624, 1.80614, 1.80532, 1.80315, 1.75419, 1.87523, 1.75177, 1.75113, 1.87895, 1.87592, 1.876, 1.87447, 1.87522, 1.75281, 1.9658, 1.87991, 1.87681, 1.87396, 1.84817, 1.75455, 1.75203, 1.75151, 1.87517, 1.86757, 1.87172, 1.86916, 1.86677, 1.86623, 1.92053, 1.866
1.8042, 1.80422, 1.8045, 1.89723, 1.8995, 1.85289, 1.85082, 1.80027, 1.79703, 1.79966, 1.80041, 1.79895, 2.0755, 1.79647, 1.84525, 1.79441, 1.792, 1.79274, 1.89584, 1.79574, 1.79259, 1.8862, 1.78965, 1.79031, 1.78754, 1.78668, 1.89346, 1.83662, 1.83532, 1.78554, 1.78445, 1.87656, 1.83252, 1.7834, 1.88641, 1.78112, 1.78098, 1.78014, 1.88405, 1.78439, 1.88965, 1.78383, 1.78387, 1.7834, 1.85899, 1.8323, 1.83335, 1.78209, 1.78313, 1.78527, 1.78596, 1.78539, 1.92095, 2.01065, 1.91898, 1.92842, 1.9289, 1.93042, 1.84118, 1.92938, 1.93206, 2.011, 2.01076, 1.83351, 1.83358, 1.93398, 2.01084, 2.01373, 1.90642, 1.8274, 1.93415, 1.90296, 1.82691, 1.82784, 1.82419, 1.82479, 1.93839, 1.9012, 1.90157, 1.82356, 1.93623, 1.93611, 1.90016, 1.89959, 2.02546, 1.82425, 1.82508, 1.90616, 1.90456, 1.93786, 1.93733, 1.83101, 2.02876, 1.93845, 1.8373, 1.92001, 1.92003, 1.93462, 2.02227, 1.86759, 2.00046, 2.0076, 1.90781, 2.02161, 2.00016, 1.99605, 1.90717, 1.90716, 1.90749, 1.90601, 1.98218, 1.98268, 1.98618, 1.98477, 1.98607, 1.98374, 1.98502, 1.9855, 1.98559, 1.98518, 2.00528, 2.00662, 2.00381, 1.98002, 1.989, 1.98644, 1.98639, 1.98996, 1.99837, 1.91358, 1.91269, 1.91306, 1.9132, 2.01085, 2.00313, 2.00448, 1.91617, 1.99419, 1.99342, 2.01115, 2.00439, 2.00412, 2.00777, 2.00607, 1.99676, 1.99507, 1.99635, 2.00458, 2.00319, 2.00633, 2.01108, 2.01398, 2.01797, 1.99152, 2.00284, 1.99417, 2.00509, 1.99574, 1.99658, 1.99677, 2.01041, 1.99404, 1.99834, 2.00071, 1.99937, 1.99759, 2.00068, 1.91495, 1.9938, 1.99516, 1.99378, 1.91803, 1.90748, 1.90657, 1.95121, 1.85084, 1.84986, 1.84898, 1.849, 1.95177, 1.84482, 1.8448, 1.84424, 1.84548, 1.84821, 1.84795, 1.8479, 1.84741, 1.84668, 1.8991, 1.85098, 1.84927, 1.85119, 1.85226, 1.85287, 2.02555, 1.85338, 1.85359, 1.85255, 1.85428, 1.85233, 1.85333, 1.9487, 1.85177, 2.05252, 1.85014, 2.03952, 2.02332, 1.84794, 1.8992, 1.84779, 1.84501, 2.0318, 1.84546, 1.8446, 1.84382, 1.84248, 1.82916, 1.82799, 1.77483, 1.77266, 1.76942, 1.82006, 1.81821, 1.81718, 1.76367, 1.76523, 1.76295, 1.76226, 1.81376, 1.76082, 1.76065, 1.7611, 1.84772, 1.75809, 1.75683, 1.75743, 1.85192, 1.75882, 1.7566, 1.75886, 1.80448, 1.81367, 1.7565, 1.75519, 1.75351, 1.84406, 1.84324, 1.84065, 1.80296, 1.80241, 1.80144, 1.75392, 1.753, 1.75167, 1.87693, 1.75153, 1.75209, 1.7474, 1.74888, 1.75158, 1.87167, 1.75193, 1.75127, 1.75109, 1.75079, 1.75245, 1.86785, 1.86429, 1.85611
1.80926, 1.80979, 1.80586, 1.80542, 1.80543, 1.80647, 1.80352, 1.8519, 1.89712, 1.80121, 1.80038, 1.79953, 2.05791, 2.06807, 1.79886, 1.79581, 1.79859, 1.7939, 1.79089, 1.79169, 1.7927, 1.79248, 1.79556, 1.79188, 1.79059, 1.78971, 1.83795, 1.83906, 1.7887, 1.83753, 1.95216, 1.83645, 1.83713, 1.78387, 1.78519, 1.78556, 1.78417, 1.78315, 1.78334, 1.78604, 1.83379, 1.78324, 1.78383, 1.96521, 1.78457, 1.78474, 1.78557, 1.78244, 1.78242, 1.83415, 1.78626, 1.78535, 1.92907, 1.9222, 2.01078, 1.84448, 1.91659, 1.93084, 1.91728, 1.93528, 1.91715, 1.934, 1.93469, 1.9133, 2.01141, 1.83508, 1.83287, 1.93435, 1.83116, 1.93569, 1.93533, 1.90714, 1.90539, 1.91053, 1.93772, 1.90278, 1.82683, 1.82536, 1.90287, 1.90112, 1.90188, 1.90097, 1.82434, 1.94073, 1.90195, 1.90339, 1.90285, 1.90356, 1.82751, 1.90629, 1.9074, 1.93843, 1.83518, 1.8382, 1.93767, 1.84413, 1.84547, 1.93729, 2.02627, 2.02864, 1.99094, 2.00032, 1.99777, 1.99757, 1.90972, 2.0028, 1.98611, 1.98587, 1.90811, 1.9074, 1.98033, 1.99083, 1.98308, 1.98643, 1.90745, 2.01849, 1.98506, 1.98535, 2.00816, 2.01363, 2.00818, 2.00421, 2.00257, 2.01425, 1.99058, 1.99563, 1.98911, 1.91302, 1.91296, 2.00378, 1.99681, 1.91384, 2.00061, 2.00316, 2.01059, 1.91545, 2.00338, 1.9172, 2.00062, 2.01246, 2.00133, 1.99358, 2.0038, 1.99532, 2.00584, 1.91769, 2.00201, 2.01415, 1.99692, 1.9168, 2.01096, 1.99176, 2.0002, 1.99232, 2.01719, 1.91723, 1.99619, 1.99525, 2.01256, 1.99323, 1.91735, 1.99551, 1.99675, 1.99244, 1.99847, 1.99765, 1.99424, 1.91697, 1.91769, 1.99341, 1.99689, 2.00722, 1.85244, 1.85149, 2.05002, 1.85154, 1.84521, 1.84753, 1.84647, 1.84808, 1.95233, 1.95134, 1.84817, 2.03059, 1.84597, 1.84633, 1.8463, 1.84538, 1.84926, 1.84834, 1.85001, 1.84826, 1.94946, 1.85081, 1.85074, 1.84833, 1.85452, 1.8531, 1.85447, 1.85328, 1.92375, 1.92176, 1.85287, 1.90276, 1.9014, 1.90283, 1.93357, 1.89939, 1.89973, 1.8477, 1.84512, 1.84585, 1.84336, 1.8455, 1.84255, 1.8445, 1.84149, 1.84027, 1.77687, 1.77585, 1.7751, 1.77168, 1.86241, 1.76816, 1.81649, 1.76825, 1.84085, 1.81464, 1.81258, 1.83797, 1.81121, 1.76089, 1.84966, 1.8517, 1.76033, 1.7582, 1.75663, 1.86509, 1.86229, 1.84983, 1.86236, 1.86979, 1.86912, 1.75403, 1.75647, 1.8689, 1.75198, 1.87607, 1.86528, 1.75447, 1.85247, 1.87514, 1.75151, 1.87486, 1.87051, 1.80075, 1.87172, 1.86869, 1.87461, 1.86534, 1.80275, 1.75375, 1.75392, 1.75382, 1.87075, 1.75152, 1.75021, 1.75192, 1.80898, 1.80162
1.81167, 1.8095, 1.80903, 1.80617, 1.80576, 1.80715, 1.80636, 1.80634, 1.80318, 1.80301, 1.8531, 1.80139, 1.80114, 1.86215, 1.84953, 1.8504, 1.8863, 1.84925, 1.85138, 1.79563, 1.91418, 1.79601, 1.88976, 1.79319, 1.79186, 1.9123, 1.84151, 1.84025, 1.85065, 1.85233, 1.83993, 1.78815, 1.7869, 1.78376, 1.78605, 1.78641, 1.78625, 1.88684, 1.78531, 1.88582, 1.78197, 1.78484, 1.78554, 1.9635, 1.78382, 1.87736, 1.78543, 1.7859, 1.96855, 1.78544, 1.83696, 1.83773, 1.92393, 1.92342, 2.01752, 2.01689, 1.84409, 1.93757, 2.01495, 2.01361, 1.91749, 1.91575, 1.91394, 1.83626, 2.02948, 1.91129, 1.93897, 2.02088, 1.90771, 1.90922, 1.93807, 1.90727, 1.93898, 1.9423, 1.90589, 1.94107, 1.90346, 1.90335, 1.90307, 1.82525, 1.8981, 2.0356, 1.82535, 1.90331, 1.90269, 1.8277, 1.82734, 2.03219, 1.91002, 1.90621, 1.94061, 1.94062, 1.93965, 1.94113, 1.94028, 1.92263, 1.84714, 1.93823, 2.02917, 1.869, 1.98835, 2.00235, 2.01009, 1.91156, 2.00658, 2.00772, 1.99601, 1.91279, 1.99148, 1.99291, 1.98742, 1.99537, 1.9923, 2.00082, 1.91034, 1.98851, 1.98774, 1.98798, 2.00604, 1.98798, 1.98803, 2.00743, 2.02034, 2.00437, 1.98931, 1.98883, 1.98695, 2.00852, 2.00048, 2.01168, 2.01046, 1.99365, 1.98959, 2.00703, 1.91507, 2.00632, 2.00644, 1.92028, 2.00292, 1.91622, 2.00157, 1.99856, 1.99731, 2.01407, 2.0149, 2.02, 1.99595, 1.91701, 2.00371, 2.00116, 2.00383, 2.0046, 2.0028, 1.99323, 2.01554, 2.01351, 2.00172, 1.99981, 2.01324, 1.99351, 2.02526, 1.99519, 1.99973, 1.99875, 1.99543, 1.99951, 2.00076, 1.9981, 1.99684, 1.99587, 1.99241, 1.85429, 1.94846, 1.84821, 2.0285, 1.8498, 2.0447, 2.04448, 1.84908, 1.8466, 1.94946, 1.84571, 1.84865, 1.84764, 1.84754, 1.84746, 1.84642, 1.84794, 1.95439, 1.84852, 1.84829, 2.0292, 2.03226, 1.85243, 1.85135, 2.04683, 2.0465, 1.84921, 1.9496, 1.94859, 1.8534, 2.0318, 1.85466, 1.85219, 1.85304, 1.94428, 1.8476, 1.8513, 1.84955, 1.84894, 1.84808, 1.84626, 2.02749, 2.03586, 1.84097, 1.84351, 1.84063, 1.78225, 1.77619, 1.77294, 1.77254, 1.86304, 1.76788, 1.7709, 1.76616, 1.76593, 2.05805, 1.76351, 1.76145, 1.85562, 1.85421, 1.75663, 1.761, 1.75815, 1.75829, 1.75887, 1.75785, 1.86061, 1.75742, 1.86166, 1.85862, 1.75321, 1.84692, 1.86782, 1.87592, 1.87557, 1.87178, 1.80355, 1.75001, 1.80245, 1.75085, 1.75368, 1.86955, 1.801, 1.75258, 1.80189, 1.74855, 1.87856, 1.75196, 1.75208, 1.87248, 1.75281, 1.75134, 1.87078, 1.86678, 1.87024, 1.86936, 1.8038, 1.80044, 1.74826
1.81601, 1.81181, 1.81135, 1.90728, 1.90805, 1.80939, 1.81126, 2.07388, 1.80634, 1.80653, 1.80631, 2.06226, 2.06574, 2.06525, 1.85121, 1.8025, 1.80099, 1.96393, 1.88902, 1.84828, 1.90045, 1.79626, 1.79397, 1.79593, 1.8988, 1.79123, 1.79427, 1.79049, 1.79132, 1.79241, 1.79531, 1.8975, 1.88533, 1.78924, 1.88341, 1.88592, 1.9743, 1.89708, 1.88974, 1.87613, 1.84695, 1.83503, 1.78609, 1.78337, 1.9713, 1.78534, 1.78832, 1.78738, 1.78711, 1.78643, 1.8372, 1.83836, 1.92459, 1.92506, 1.92474, 1.92351, 1.92337, 1.93721, 1.92134, 1.84188, 1.91941, 1.93796, 1.91693, 1.91652, 1.83684, 1.91219, 1.93767, 1.93827, 1.83446, 1.91115, 1.90878, 1.90844, 1.90791, 2.02496, 1.90481, 1.90373, 1.90903, 1.9037, 1.94441, 1.82683, 1.90336, 1.90168, 1.94395, 1.82717, 1.90615, 1.90596, 1.94408, 1.94243, 1.83047, 1.90999, 1.91122, 1.91301, 1.91299, 1.91519, 1.84379, 1.92189, 1.92447, 1.94202, 2.02205, 2.02766, 2.00785, 1.99057, 1.99297, 2.00202, 2.0212, 2.00998, 1.91212, 1.99407, 1.9931, 1.99805, 1.99639, 1.91206, 1.99296, 1.91052, 1.91146, 1.98885, 1.98917, 1.99958, 2.01407, 2.0131, 2.00183, 1.91119, 2.00389, 1.91325, 2.0066, 2.0006, 1.99097, 2.00027, 2.00056, 1.91725, 2.00877, 2.00141, 2.00011, 1.99617, 1.99634, 1.99625, 1.9902, 2.01126, 2.00451, 2.00266, 1.91863, 2.01249, 2.00476, 2.01094, 2.01076, 2.00409, 2.01181, 1.99704, 2.0043, 1.99613, 2.00577, 2.00282, 1.99712, 1.99471, 1.99516, 2.01145, 1.99408, 2.00135, 2.01118, 1.99304, 1.99359, 1.99713, 1.99402, 1.99715, 1.99965, 1.99604, 1.99876, 1.99486, 2.01658, 1.9941, 2.0119, 2.00854, 1.94829, 2.03832, 2.0493, 2.0621, 1.95411, 2.03798, 1.84887, 1.85148, 1.84787, 2.04685, 1.94176, 1.84892, 1.84881, 1.84759, 1.85025, 1.84985, 1.84844, 2.04582, 1.84834, 1.84949, 1.85026, 2.05046, 1.84878, 1.851, 1.84942, 1.84882, 1.85136, 1.85173, 1.85057, 2.02401, 2.04803, 2.05124, 1.85248, 2.04864, 2.04766, 1.8478, 1.84783, 1.84679, 1.84665, 1.84566, 1.84421, 1.84285, 2.02031, 1.89545, 1.89378, 1.89271, 1.86884, 1.82406, 1.82297, 1.76852, 1.76862, 1.76628, 1.76599, 1.85078, 1.76373, 1.76422, 1.7622, 1.76185, 1.81273, 1.84719, 1.75849, 1.75773, 1.85544, 1.75708, 1.85882, 1.75505, 1.75272, 1.75144, 1.75309, 1.86605, 1.86887, 1.75175, 1.75419, 1.7499, 1.80152, 1.82819, 1.74946, 1.7518, 1.7527, 1.75411, 1.7509, 1.87416, 1.86883, 1.75479, 1.75028, 1.75202, 1.75197, 1.85857, 1.74922, 1.75109, 1.75104, 1.75053, 1.74866, 1.86868, 1.74901, 1.80303, 1.75138, 1.74758
1.81584, 1.81606, 1.86347, 1.86301, 1.86372, 1.81071, 1.91039, 1.90478, 1.8095, 1.80717, 1.80827, 1.80795, 1.80655, 1.80574, 1.90779, 1.8042, 1.85402, 1.80291, 1.85073, 1.85102, 1.8008, 1.79932, 1.7994, 1.84799, 1.89472, 1.89796, 1.79624, 1.84591, 1.89686, 1.90005, 1.79215, 1.98278, 1.79228, 1.78939, 1.8404, 1.79073, 1.78927, 1.78709, 1.84061, 1.83918, 1.78744, 1.83716, 1.83746, 1.7868, 1.78649, 1.78604, 1.88973, 1.78765, 1.97275, 1.78878, 1.78933, 1.79042, 1.92579, 1.92753, 1.92708, 1.94064, 1.93957, 1.93912, 1.92062, 1.91854, 1.91971, 1.84251, 1.94081, 1.91569, 1.91422, 1.91445, 1.83644, 1.9135, 1.94041, 1.94273, 1.91256, 1.91079, 2.04328, 2.02154, 2.02719, 1.82876, 2.02059, 1.90629, 1.90635, 1.9033, 1.90436, 1.94118, 1.94458, 1.94377, 1.8306, 1.94725, 1.83085, 1.83168, 1.90776, 1.94446, 1.8341, 1.94421, 1.94421, 1.94472, 1.94787, 1.94415, 1.9239, 1.85294, 1.9453, 2.03933, 2.0232, 2.01194, 2.01424, 2.00061, 2.00735, 1.9912, 2.00465, 1.99021, 1.99288, 1.99261, 1.99361, 1.99395, 1.99319, 1.99028, 1.91319, 2.01155, 2.01454, 1.9129, 2.00924, 2.00022, 1.99297, 1.99177, 1.91398, 1.99501, 1.91451, 1.91373, 2.0046, 2.00846, 1.99973, 1.99039, 1.9178, 2.00679, 1.91749, 1.91857, 2.00386, 2.0049, 1.99687, 2.00697, 2.01845, 2.00476, 2.00141, 1.92013, 2.02127, 2.02139, 2.00584, 2.01989, 1.91922, 1.9995, 1.9975, 1.91963, 2.0109, 2.02329, 2.02033, 2.02487, 1.99616, 2.00711, 1.99553, 2.01312, 1.99526, 2.01125, 1.99595, 1.99986, 1.99999, 1.99863, 1.99701, 1.91852, 1.99663, 2.00632, 1.99529, 1.92017, 1.99669, 1.99507, 1.85457, 1.85178, 1.85107, 1.84778, 1.84761, 1.85063, 1.84763, 1.84827, 1.84786, 1.89886, 1.89797, 1.95217, 1.951, 2.04548, 1.84936, 1.89798, 1.89834, 1.89929, 1.84871, 1.89929, 1.84747, 2.04144, 2.02408, 1.85101, 1.84975, 1.95136, 1.85181, 1.85084, 1.85093, 1.9445, 2.02333, 1.85069, 2.02354, 1.85429, 1.84935, 1.84905, 2.03601, 1.84838, 1.9441, 1.84375, 2.0401, 1.84425, 1.8425, 1.93024, 1.84202, 1.77847, 1.82526, 1.82381, 1.82358, 1.85854, 1.86446, 1.76639, 1.81625, 1.76489, 1.76288, 1.76303, 1.76049, 1.81157, 1.75898, 1.85936, 1.75777, 1.75871, 1.75634, 1.8645, 1.86174, 1.86266, 1.75118, 1.7545, 1.86503, 1.86865, 1.75225, 1.75072, 1.86846, 1.84599, 1.80109, 1.75271, 1.75314, 1.75282, 1.75424, 1.75234, 1.87597, 1.87506, 1.74838, 1.87539, 1.75106, 1.74826, 1.80183, 1.83776, 1.80076, 1.74957, 1.80004, 1.75159, 1.75034, 1.87156, 1.75103, 1.75115, 1.74983, 1.74811
1.81753, 1.81815, 1.86688, 1.86684, 1.88238, 1.86659, 1.8141, 1.81447, 1.91335, 1.80859, 1.81049, 2.06921, 1.80854, 1.91011, 1.98977, 1.90668, 1.80254, 1.80412, 1.8032, 1.8046, 1.80189, 1.80008, 1.98614, 1.80057, 1.79916, 1.89926, 1.79805, 1.79764, 1.79538, 1.79348, 1.89879, 1.79198, 1.79091, 1.79236, 1.79265, 1.79076, 1.78961, 1.84266, 1.84127, 1.84026, 1.84034, 1.78937, 1.84013, 1.78677, 1.78769, 1.9747, 1.88391, 1.79038, 1.78836, 1.78871, 1.97323, 1.85116, 2.02019, 1.92708, 1.92716, 1.84933, 1.84888, 1.92448, 2.02101, 1.92455, 1.92072, 1.9207, 1.9188, 1.91727, 1.94193, 1.94355, 1.91336, 1.91372, 1.91193, 1.91051, 1.83466, 1.94474, 1.91455, 1.90382, 1.90615, 1.946, 1.90715, 1.9471, 1.90988, 1.83022, 1.90728, 1.90663, 1.94445, 1.90752, 1.90407, 1.90627, 1.90575, 2.02765, 1.91092, 1.9483, 1.91428, 1.9452, 1.84063, 1.94656, 1.92107, 1.84638, 1.85329, 1.8535, 2.04511, 1.87458, 2.02784, 1.918, 2.02912, 2.01739, 2.01486, 1.91505, 1.91611, 1.91463, 1.99674, 1.91476, 1.91434, 1.91468, 1.91556, 1.9918, 2.00019, 1.993, 1.99668, 1.99255, 1.91353, 1.99377, 2.00079, 2.02024, 2.00064, 1.99387, 2.00771, 1.91648, 1.91743, 1.91863, 2.00036, 1.91915, 2.01039, 2.0108, 2.00556, 2.00621, 2.00285, 2.00119, 1.99618, 1.92084, 1.91851, 2.02105, 2.00123, 2.02145, 1.92235, 1.99966, 2.01373, 2.00871, 2.01839, 1.92163, 1.99795, 1.99702, 2.01477, 1.92105, 1.92157, 2.00989, 2.0253, 1.9988, 1.99755, 1.99669, 1.99716, 2.00482, 2.00359, 1.99797, 1.99627, 2.00227, 2.00128, 1.99986, 1.99968, 2.00084, 2.01386, 1.9206, 2.0055, 2.00755, 1.85454, 1.85111, 1.85059, 1.85001, 1.95166, 1.90019, 2.03872, 1.95216, 1.84893, 2.04469, 1.94966, 1.84816, 2.04876, 1.8488, 1.8484, 1.85006, 1.90046, 1.85017, 1.89771, 1.84884, 1.84874, 1.84947, 2.05574, 1.85114, 1.85116, 1.85096, 1.84998, 2.02687, 2.0322, 1.84929, 1.94213, 1.84879, 1.85008, 1.84989, 1.84991, 2.02398, 1.84793, 1.89689, 1.84885, 1.89713, 1.89577, 1.89339, 2.0396, 1.84314, 1.84175, 1.86592, 1.82576, 1.82411, 2.05934, 1.76816, 1.76726, 1.81757, 1.86908, 1.76302, 1.83414, 1.83698, 1.83415, 1.759, 1.75776, 1.75764, 1.75636, 1.75579, 1.7551, 1.75431, 1.75214, 1.84322, 1.86848, 1.74847, 1.87034, 1.75148, 1.75439, 1.75128, 1.74969, 1.80585, 1.85482, 1.80039, 1.8684, 1.75171, 1.75031, 1.80271, 1.80244, 1.87184, 1.75062, 1.85785, 1.75141, 1.75103, 1.75011, 1.74686, 1.75126, 1.75127, 1.74951, 1.7499, 1.74895, 1.75006, 1.75027, 1.75067, 1.75011, 1.74485
1.81867, 1.82104, 1.82038, 1.9032, 1.86872, 1.81829, 1.81383, 1.81616, 1.86486, 1.86672, 1.91695, 1.91519, 1.91013, 1.98937, 1.91335, 1.91419, 1.907, 1.80592, 1.80697, 1.80303, 1.99074, 1.80267, 1.98905, 1.80021, 1.98702, 1.90743, 1.91661, 1.79898, 1.79911, 1.79744, 1.9794, 1.79741, 1.79682, 1.79715, 1.79546, 1.98311, 1.79259, 1.79133, 1.89979, 1.89667, 1.79206, 1.89227, 1.97847, 1.78905, 1.79166, 1.7905, 1.79267, 1.79014, 1.79081, 1.7897, 1.7909, 1.93182, 1.9324, 2.02728, 2.02697, 2.02796, 2.0216, 1.92675, 1.92373, 1.9246, 1.945, 1.92101, 1.84191, 1.84173, 1.91864, 1.92032, 1.94489, 1.94596, 1.91561, 1.91258, 1.83664, 1.83385, 1.83147, 1.94728, 1.90925, 1.91008, 1.83159, 1.90791, 1.90954, 1.90798, 1.90836, 1.83017, 1.94943, 1.90767, 1.90699, 1.83126, 1.94932, 1.94943, 1.91009, 1.91411, 1.94969, 2.0354, 1.84052, 1.92077, 1.94802, 1.84894, 1.94745, 1.9352, 1.94774, 2.02794, 1.92105, 2.02782, 1.92041, 1.99461, 2.01117, 1.99743, 2.01418, 1.99989, 2.00024, 1.91678, 1.91648, 1.99655, 1.9927, 1.99302, 1.91544, 1.99355, 2.00492, 1.99315, 1.99335, 2.0104, 2.02204, 2.017, 1.91924, 2.00412, 2.00896, 1.91766, 1.99755, 2.01021, 2.00054, 2.01103, 2.009, 2.00376, 2.00818, 1.92042, 1.92073, 1.99815, 1.92313, 2.01094, 2.01053, 2.01037, 1.92252, 2.01649, 2.02116, 2.00528, 2.00745, 2.01372, 2.01411, 2.00001, 2.01688, 1.92167, 1.92183, 2.01006, 2.0179, 2.00301, 1.9202, 2.00909, 2.01801, 1.92071, 1.99734, 1.99841, 2.01693, 1.99437, 2.00051, 2.00014, 2.00683, 1.99672, 1.99641, 1.99591, 1.99407, 2.00619, 1.91987, 1.91913, 1.85245, 1.85182, 1.8496, 1.8489, 1.84804, 1.8491, 1.84867, 1.84752, 1.85043, 1.84748, 1.84788, 1.84634, 1.84538, 1.95077, 1.84809, 1.95116, 1.94874, 2.02603, 1.85097, 1.94899, 2.02902, 2.02967, 1.84848, 1.94929, 1.84797, 1.84912, 2.03169, 1.90032, 1.84783, 1.85254, 1.8499, 1.85122, 1.8497, 2.05914, 1.84776, 1.84743, 1.84759, 1.84577, 1.84618, 1.84455, 2.04301, 1.84082, 1.8453, 1.84536, 1.84361, 1.77928, 1.77567, 1.8689, 1.8583, 1.76995, 1.87135, 1.86832, 1.8151, 1.81318, 1.8129, 1.81026, 1.75726, 1.75787, 1.75493, 1.87334, 1.75578, 1.80615, 1.84499, 1.8027, 1.80268, 1.75382, 1.80082, 1.85208, 1.80014, 1.75035, 1.75119, 1.75084, 1.75094, 1.80104, 1.75243, 1.8595, 1.85666, 1.87198, 1.86932, 1.86977, 1.86858, 1.87197, 1.8719, 1.87356, 1.74903, 1.85957, 1.75171, 1.86886, 1.75252, 1.74796, 1.7544, 1.87494, 1.86984, 1.75002, 1.75355, 1.87021, 2.07731, 1.74991
1.91782, 1.92012, 1.82349, 1.82165, 2.09354, 1.81827, 1.81995, 1.86704, 1.90447, 1.86662, 1.81476, 1.81284, 1.81494, 1.99605, 1.91084, 1.86133, 1.80943, 1.80829, 1.80798, 1.85512, 1.85555, 1.80601, 1.80383, 1.98647, 1.80222, 1.80289, 1.90164, 1.79983, 1.79999, 1.8507, 1.79705, 1.79722, 1.79617, 1.79725, 1.79556, 1.79682, 1.79554, 1.98192, 1.79333, 1.90053, 1.8883, 1.79163, 1.84161, 1.7923, 1.79238, 1.7922, 1.79185, 1.793, 1.79203, 1.8941, 1.79436, 1.9335, 2.02447, 2.03022, 2.02957, 1.9297, 1.92786, 1.92776, 2.03375, 1.92533, 1.92433, 1.84676, 1.94985, 1.94891, 2.04836, 1.92397, 1.92048, 1.91628, 1.91708, 1.83736, 1.94934, 1.91583, 1.95081, 1.83575, 1.83501, 1.94838, 1.83687, 1.8316, 1.95115, 1.90988, 1.83082, 1.90966, 1.95146, 1.83364, 1.95288, 1.83083, 1.83408, 1.91422, 1.94999, 1.91419, 1.95122, 1.95102, 1.92195, 2.03951, 1.92366, 1.92469, 1.93269, 1.95081, 2.02441, 2.01772, 2.00991, 2.0139, 1.99956, 1.92041, 1.92102, 1.99622, 1.99706, 1.99639, 1.9966, 1.99774, 1.99772, 2.00103, 2.00007, 1.99596, 1.99612, 1.99623, 2.01121, 1.99614, 2.01847, 1.99491, 2.01808, 2.02507, 2.02838, 2.01737, 2.02514, 2.01174, 2.01406, 2.01155, 2.00148, 2.00578, 2.0042, 1.92114, 1.9223, 2.01094, 1.9236, 2.01164, 2.00311, 2.01143, 2.01484, 2.00377, 1.92341, 2.02784, 2.0079, 2.0117, 1.92359, 2.02461, 1.92191, 1.92234, 2.00068, 2.0006, 2.0087, 2.01838, 2.00425, 1.92331, 2.00402, 1.92194, 1.99779, 1.92097, 2.01276, 1.99851, 1.92009, 2.00026, 1.99748, 2.00371, 2.00323, 2.00216, 2.00263, 2.00064, 1.99679, 1.99738, 1.99643, 1.9035, 1.85268, 2.05052, 1.85156, 2.03074, 2.03812, 1.84801, 1.84805, 1.96171, 1.84593, 1.84957, 1.84805, 1.84872, 1.8478, 1.90337, 1.84802, 1.9101, 1.90658, 1.90523, 2.04856, 1.84779, 2.04252, 2.05606, 2.02519, 2.03874, 1.8473, 1.8436, 1.85123, 1.84573, 1.84958, 1.84889, 1.94807, 1.84852, 1.84868, 1.84604, 1.8459, 1.84549, 1.84661, 1.8468, 1.84813, 1.84428, 1.84287, 2.04958, 1.84661, 1.84436, 1.84405, 1.87199, 1.87146, 1.7737, 1.77179, 1.86545, 1.76588, 1.87049, 1.76304, 1.76183, 1.873, 1.76124, 1.75864, 1.75842, 1.80691, 1.85775, 1.75442, 1.7534, 1.75421, 1.75483, 1.80084, 1.80122, 1.80166, 1.75187, 1.74932, 1.75052, 1.7483, 2.08032, 1.74952, 1.75017, 1.75163, 1.86816, 1.80053, 1.87273, 1.86951, 1.7522, 1.75325, 1.80136, 1.80154, 1.79938, 1.87268, 1.75039, 1.75138, 1.75136, 1.75167, 1.75212, 1.74925, 1.74633, 1.74994, 1.74848, 1.74935, 1.79985, 1.8701, 1.75078
1.99664, 1.82371, 1.87532, 1.90977, 1.99602, 1.89347, 1.82182, 2.09927, 1.86943, 1.8711, 1.86838, 1.93102, 1.81372, 1.91634, 1.81329, 1.91706, 1.81308, 1.92742, 1.92829, 1.90961, 1.91626, 1.99, 1.91377, 1.98765, 1.80413, 1.91261, 1.85426, 1.80374, 1.80465, 1.96864, 1.88957, 1.85064, 1.79719, 1.85435, 1.79735, 1.79574, 1.79753, 1.79929, 1.98974, 1.79524, 1.89242, 1.844, 1.79266, 1.88514, 1.84384, 1.85909, 1.79353, 1.98294, 1.79357, 1.79362, 1.79535, 1.858, 1.93361, 2.0308, 1.93365, 1.85502, 1.85295, 1.95246, 1.85167, 2.03198, 1.9501, 1.92527, 1.84839, 1.9211, 1.92031, 1.84412, 1.9197, 1.84177, 1.91613, 1.91764, 1.91427, 1.91687, 1.91457, 1.94948, 1.95401, 1.9538, 1.90773, 1.90742, 2.03939, 1.91024, 1.90863, 1.90945, 1.83433, 1.91167, 1.83373, 1.83369, 1.91057, 1.91184, 1.91408, 1.95226, 1.91496, 1.91895, 1.92017, 1.8477, 1.92424, 1.92806, 1.85493, 1.93496, 1.95255, 2.03854, 1.92355, 2.02824, 2.01521, 1.99965, 1.99724, 2.01703, 1.99673, 1.99467, 1.92127, 1.91957, 1.99822, 2.00014, 2.00196, 1.99643, 2.01111, 2.00294, 1.99703, 1.92094, 2.01894, 1.99581, 2.03024, 1.91875, 1.9184, 2.00521, 1.99617, 1.99595, 2.02078, 1.92354, 1.92235, 1.92092, 2.02099, 2.00753, 1.92051, 1.92423, 2.01434, 2.011, 2.00839, 2.00765, 2.01577, 2.00764, 1.92438, 2.00957, 2.01882, 2.00669, 2.00649, 2.01537, 2.01732, 2.00044, 2.01399, 2.01488, 2.00155, 2.02244, 1.92366, 1.92157, 2.0002, 1.9994, 2.02481, 1.99965, 2.01532, 2.02147, 1.9973, 1.99751, 2.00228, 2.0028, 2.00104, 2.00312, 1.91719, 1.9175, 1.91986, 2.0205, 1.92098, 1.92106, 1.926, 1.90078, 1.85154, 2.05402, 1.8497, 1.84809, 2.038, 1.8471, 1.84658, 1.95393, 1.84773, 1.9523, 2.02984, 1.90025, 1.90242, 1.84488, 1.94477, 1.84791, 1.84929, 1.84994, 2.03127, 2.04457, 1.84752, 1.94608, 1.85099, 1.84916, 1.94385, 1.84757, 2.01027, 1.84934, 1.84821, 1.8995, 1.8984, 1.89838, 1.84607, 1.84833, 1.84439, 2.03901, 1.84612, 1.84573, 1.84554, 1.84673, 2.02055, 1.84561, 1.84467, 1.82706, 1.82317, 1.8921, 1.77334, 1.82953, 1.76505, 1.76562, 1.76455, 1.87609, 1.87491, 1.76101, 1.75611, 1.84892, 1.75833, 1.7548, 1.75426, 1.87223, 1.87895, 1.74832, 1.75176, 1.75143, 1.75042, 1.87627, 1.87531, 1.87247, 1.7502, 1.75211, 1.7508, 1.74766, 1.74951, 1.87306, 1.87249, 1.87292, 1.80009, 1.74941, 1.7499, 1.75101, 1.75107, 1.75095, 1.7497, 1.75244, 1.86865, 1.7497, 1.87207, 1.85999, 1.75147, 1.87163, 1.7495, 1.87038, 1.86754, 1.87228, 1.74812, 1.87297
1.82694, 1.8279, 1.91366, 1.91524, 1.92338, 1.99653, 1.82234, 1.82299, 1.81992, 1.82031, 1.9841, 1.82036, 1.90785, 1.90955, 1.86736, 1.81634, 1.92008, 1.81304, 1.8132, 1.86232, 1.80932, 1.99724, 1.90831, 1.80878, 1.91818, 2.09392, 1.80638, 1.80388, 1.80628, 1.80337, 1.80333, 1.85257, 1.80153, 1.80246, 1.89568, 1.90116, 1.90172, 1.79616, 1.87289, 1.7977, 1.79759, 1.90342, 1.90607, 1.89993, 1.99239, 1.79611, 1.89683, 1.79633, 1.97514, 1.98939, 1.7962, 2.03139, 1.85818, 1.93413, 1.93425, 2.03769, 2.03789, 1.95413, 1.95421, 1.9282, 1.92827, 1.84827, 1.84829, 1.84759, 2.03768, 1.92218, 1.92079, 1.92022, 1.91853, 1.8419, 1.95122, 2.03941, 2.03574, 1.91658, 1.91768, 1.83551, 1.95548, 1.91275, 1.83381, 1.83372, 1.91112, 1.83422, 1.83487, 1.83607, 1.91116, 1.83489, 1.95529, 1.83679, 1.83831, 1.91726, 1.9548, 2.04527, 1.84566, 1.84854, 1.84911, 1.95377, 1.95113, 1.95288, 2.05078, 2.04054, 1.92552, 1.92528, 1.92706, 2.01462, 2.00103, 1.92453, 1.92371, 1.92288, 1.92206, 1.92351, 1.92175, 1.99994, 2.00374, 2.00436, 1.99625, 1.99477, 1.92123, 2.00343, 1.92081, 2.00723, 2.00416, 1.99775, 1.99717, 1.99597, 2.016, 2.00761, 1.9215, 2.00398, 2.02441, 1.92349, 2.01378, 2.01322, 2.01118, 2.04253, 2.01842, 2.00695, 2.00599, 2.0165, 1.9243, 2.02386, 2.00713, 2.01106, 2.0203, 2.00498, 2.01218, 1.92364, 1.92433, 2.01345, 1.92358, 2.01487, 1.92811, 2.01838, 2.0151, 1.92414, 1.92343, 2.01119, 2.00016, 2.01084, 2.00315, 2.00319, 1.99726, 1.99668, 2.00585, 1.9214, 2.00705, 2.00457, 1.9968, 1.99694, 2.02046, 1.92231, 2.01451, 1.8512, 1.8507, 1.8509, 1.85051, 1.84854, 1.84948, 1.84951, 1.84767, 1.84685, 1.8461, 1.95146, 1.9497, 1.8478, 1.84727, 2.03109, 1.9524, 1.84884, 1.84771, 1.84726, 1.94897, 1.94621, 1.84957, 1.84891, 1.84828, 1.84929, 1.84905, 1.9329, 1.93086, 1.8487, 1.84786, 1.85124, 1.84806, 2.04614, 1.84942, 1.94497, 1.9424, 1.84812, 1.84642, 1.84613, 2.03427, 1.84571, 1.84712, 1.84718, 2.02022, 1.84682, 1.84383, 1.87283, 1.77581, 1.77143, 1.8201, 1.86121, 1.86061, 1.81342, 1.8615, 1.86252, 1.87509, 1.75921, 2.0555, 1.85435, 1.75487, 1.8052, 1.75288, 1.75161, 1.74809, 1.75199, 1.74959, 1.75052, 1.87208, 1.74592, 1.87496, 1.74888, 1.87338, 1.8735, 1.87318, 1.74841, 1.7504, 1.74701, 1.75131, 1.84735, 1.75068, 1.87563, 1.87204, 1.75118, 1.74764, 1.86585, 1.7479, 1.75117, 1.87218, 1.87172, 1.74819, 1.85806, 1.74868, 1.87087, 1.75123, 1.74811, 1.80499, 1.80488, 1.74636, 1.74632
1.87941, 1.83036, 1.88063, 1.87961, 1.83043, 1.93154, 1.92666, 1.82561, 1.82382, 1.82251, 1.91173, 1.82113, 1.82083, 1.82045, 1.81771, 1.92233, 1.99982, 1.81381, 1.81513, 1.91669, 1.81355, 1.81403, 1.81345, 1.8109, 1.81081, 1.99385, 1.80854, 1.85561, 1.8068, 1.80583, 1.80521, 1.80345, 1.8013, 1.8017, 1.80302, 1.80164, 1.80162, 1.90014, 1.90728, 1.79745, 1.79897, 1.98624, 1.7953, 1.97942, 1.79569, 1.79487, 1.99048, 1.97629, 1.79708, 1.79811, 1.96935, 2.03124, 1.95518, 1.93553, 1.95809, 2.03612, 2.03552, 1.95508, 1.95808, 1.93254, 1.95823, 1.93275, 1.92673, 1.84831, 1.84776, 1.956, 1.9556, 1.92191, 1.92174, 1.84248, 1.91552, 1.84069, 1.84046, 1.95462, 1.91447, 1.83738, 1.91604, 1.91274, 1.83583, 1.91316, 1.91117, 1.95413, 2.03793, 1.83514, 1.95493, 1.91426, 1.8371, 1.95843, 1.95609, 1.91653, 1.95599, 1.95652, 1.92318, 1.84961, 1.85136, 1.95493, 1.93499, 1.9545, 1.95433, 2.03883, 2.01706, 1.92776, 2.02737, 1.92546, 1.92445, 2.00081, 1.99848, 1.92421, 1.92404, 1.92174, 1.92205, 1.9225, 1.92192, 2.00263, 2.02222, 2.00013, 1.99829, 2.00597, 2.0085, 2.0345, 1.99969, 2.02053, 1.92233, 2.01669, 2.01868, 2.0084, 1.92476, 1.92357, 2.02388, 2.02002, 2.0163, 1.92401, 2.01567, 2.02034, 2.00038, 1.92641, 2.00402, 2.0163, 1.92545, 2.0168, 2.00997, 2.0129, 2.02004, 2.00815, 2.01366, 1.92409, 2.0165, 2.01494, 2.02726, 2.02924, 1.92726, 2.01817, 2.03626, 2.0032, 2.00307, 2.01717, 1.99993, 2.00287, 1.92109, 2.00692, 2.00715, 2.00001, 2.00276, 2.00111, 2.00651, 1.92061, 2.00364, 2.00134, 2.01055, 2.00728, 2.01108, 1.96799, 1.96698, 1.8506, 1.84873, 1.85099, 1.84909, 1.89819, 1.93827, 1.89611, 1.89597, 1.89794, 1.89716, 1.84759, 1.84715, 1.84756, 2.03196, 1.85036, 1.84766, 1.84838, 1.84985, 1.84969, 1.84655, 1.84903, 1.84847, 1.94903, 1.9137, 1.94046, 1.958, 1.94242, 1.85098, 1.85038, 1.84898, 1.848, 2.02801, 1.84805, 1.84826, 1.84826, 1.84896, 2.02146, 1.84604, 1.89801, 2.02094, 1.84376, 1.92773, 1.9338, 1.84499, 1.77899, 1.87572, 1.77311, 1.77161, 1.76922, 1.85247, 1.76488, 1.8784, 1.87705, 1.75803, 1.75669, 1.75792, 1.75735, 1.75554, 1.75292, 1.87416, 1.75195, 1.80128, 1.74795, 1.8827, 1.88116, 1.75066, 1.87533, 1.79978, 1.85879, 1.79817, 1.74941, 1.87661, 1.87296, 1.84489, 1.87818, 1.87513, 1.7498, 1.8656, 1.74915, 1.75137, 1.80108, 1.8023, 1.75051, 1.74821, 1.74913, 1.85766, 1.74982, 1.74696, 1.75292, 1.75025, 1.74838, 1.74766, 1.75057, 1.80446, 1.75072, 1.74777, 1.846
1.83138, 1.83142, 1.9172, 2.07297, 1.83123, 1.93261, 1.93449, 1.8263, 1.92005, 1.82334, 1.82499, 1.82615, 1.82325, 1.87204, 1.91646, 1.8718, 1.82008, 1.90949, 1.81854, 1.86684, 1.86747, 1.92097, 1.86461, 2.00091, 2.00091, 1.81121, 1.91388, 1.80995, 1.8097, 1.80776, 1.90309, 1.9963, 1.99582, 1.80476, 1.80581, 1.85303, 1.80353, 1.90939, 1.80352, 1.85114, 1.7965, 1.79824, 1.90522, 1.9061, 1.79828, 1.90158, 1.79619, 1.7993, 1.79857, 1.84927, 1.79926, 1.94199, 1.9413, 1.9394, 2.03841, 1.93665, 1.95761, 1.9348, 2.0348, 1.93156, 1.85357, 1.93173, 1.95824, 1.92666, 1.92564, 1.92784, 1.92209, 1.84524, 1.92121, 1.91998, 1.91999, 1.91935, 1.95826, 1.91558, 1.84104, 2.05124, 1.91453, 1.91371, 1.83682, 1.83779, 1.91401, 1.91557, 1.83695, 1.91765, 1.83798, 1.91651, 1.91672, 1.91679, 1.91851, 1.95836, 1.91782, 1.92671, 1.84853, 2.04945, 1.93466, 1.93405, 1.93466, 2.02698, 2.04299, 1.8823, 2.01733, 2.01945, 2.01755, 1.92815, 1.92721, 2.02822, 2.00203, 1.92377, 1.92448, 1.92487, 1.92379, 1.92316, 2.00657, 2.00621, 2.00061, 2.02697, 2.01657, 2.02872, 1.92334, 1.92262, 1.92448, 1.92591, 2.02423, 2.02142, 2.01227, 2.00787, 1.9241, 1.92445, 2.00308, 2.02473, 1.92567, 2.00507, 1.92666, 2.01765, 2.02197, 1.92749, 2.01562, 2.02129, 2.01741, 2.01099, 1.92777, 2.03893, 2.02108, 2.01471, 2.01983, 2.01395, 1.92748, 2.01572, 2.02804, 2.00756, 2.0123, 2.02463, 1.92418, 1.92561, 2.02112, 2.00815, 2.02771, 2.00678, 2.01875, 2.01163, 2.00254, 1.9202, 1.92243, 1.99674, 1.92074, 1.91987, 1.9219, 1.92166, 2.01434, 2.00324, 2.02091, 1.96591, 1.96388, 1.85096, 1.84975, 2.05213, 1.84932, 1.84834, 1.8476, 1.84761, 1.84368, 1.94085, 1.89701, 1.8962, 1.84735, 1.89765, 1.89706, 1.84698, 1.84833, 1.84778, 1.84949, 1.8479, 1.84554, 2.04656, 1.84903, 2.05208, 1.84904, 2.02357, 1.94048, 1.89935, 1.94988, 1.89807, 1.84833, 1.84758, 2.04203, 2.02158, 1.84774, 1.84827, 1.84767, 2.03922, 1.84896, 1.84684, 1.84887, 1.84809, 1.9392, 1.93762, 1.87604, 1.77517, 1.87624, 1.87636, 1.87423, 1.76538, 1.87745, 1.87516, 1.76217, 1.87977, 1.75822, 1.761, 1.75707, 1.75626, 1.8777, 1.87194, 1.80245, 1.87702, 1.75317, 1.75079, 1.74875, 1.75081, 1.87591, 1.74881, 1.87573, 1.74749, 1.74482, 1.87197, 1.86294, 1.87342, 1.74666, 1.79998, 1.79964, 1.7499, 1.84635, 1.87492, 1.74586, 1.74953, 1.74947, 1.74988, 1.75015, 1.7514, 1.75085, 1.86926, 1.87472, 1.87172, 1.74723, 1.75093, 1.9216, 1.74911, 1.74782, 1.8055, 1.87202, 1.87458
1.88431, 1.88509, 1.88512, 1.8335, 1.83255, 1.93368, 1.82801, 1.82684, 2.01076, 1.82821, 2.00817, 1.82734, 1.82655, 2.00521, 2.00303, 1.9132, 1.82286, 1.82121, 1.82221, 1.81888, 2.00391, 2.00743, 2.00057, 1.86476, 1.81344, 1.99679, 1.9203, 1.81317, 1.81106, 1.80774, 1.80924, 1.91397, 1.90711, 1.85616, 1.85558, 1.80611, 1.89962, 1.80455, 1.80608, 1.80271, 1.80302, 1.80222, 1.79801, 1.80036, 1.80238, 1.80174, 1.89707, 1.79969, 1.79998, 1.79992, 1.85264, 1.86645, 1.93912, 2.03884, 1.86268, 1.93834, 1.93775, 1.93602, 1.93448, 1.93717, 1.93461, 2.03789, 1.95957, 1.92745, 1.9284, 1.96184, 2.06281, 1.84818, 1.92378, 2.0386, 1.95646, 1.96043, 1.91698, 1.91943, 1.91823, 2.06278, 2.0521, 1.91618, 1.96174, 1.95951, 1.83951, 2.04813, 1.83789, 2.05135, 1.91546, 1.84009, 1.84351, 1.91689, 1.95963, 1.95878, 1.92106, 1.95928, 1.9277, 1.92927, 1.85487, 1.85734, 1.86192, 1.93899, 2.04178, 2.06638, 2.02194, 2.00483, 2.03146, 2.02749, 2.01036, 2.01053, 2.00426, 2.00708, 1.92465, 2.00345, 2.00323, 1.92531, 2.00747, 2.00345, 1.92547, 2.01499, 2.00124, 2.00219, 2.01142, 1.92389, 2.02415, 2.01786, 2.0126, 1.99406, 1.92378, 2.01183, 1.92711, 2.01795, 2.01539, 2.03203, 1.92635, 1.92683, 1.92719, 2.0109, 2.02075, 1.92815, 1.92646, 2.01388, 2.01467, 2.03113, 2.01109, 2.01095, 2.00415, 2.01751, 1.92812, 1.92721, 1.92793, 2.01751, 2.01222, 2.02237, 2.00837, 2.02191, 2.01879, 2.02378, 2.00344, 1.92423, 2.02063, 2.0211, 2.01133, 2.0002, 1.99935, 2.00159, 2.00022, 1.92104, 1.92054, 1.92133, 1.9236, 1.92178, 2.00618, 1.99832, 2.00005, 2.00096, 1.85234, 2.03378, 1.84983, 1.84777, 1.84567, 2.03184, 1.84703, 2.03487, 1.84616, 1.84546, 1.84611, 1.89624, 1.89619, 1.84858, 1.8475, 1.84835, 2.0472, 1.94982, 1.8506, 1.94337, 1.85143, 1.85125, 1.84912, 1.85206, 1.85149, 1.95345, 1.84839, 1.85097, 1.84921, 1.84946, 1.94266, 1.849, 1.8465, 1.84755, 1.84952, 2.02472, 2.02169, 1.84936, 1.84766, 2.02523, 1.84586, 2.017, 2.01844, 1.8477, 1.82761, 1.82616, 1.77384, 1.77176, 1.76655, 1.8864, 1.8788, 1.7623, 1.76117, 1.88136, 1.75835, 1.85843, 1.80767, 1.80487, 1.80287, 1.75285, 1.80025, 1.7506, 1.7504, 1.87651, 1.87478, 1.7492, 1.74922, 1.88243, 1.88123, 1.74839, 1.74623, 1.74732, 1.87261, 1.87206, 1.75075, 1.8006, 1.7504, 1.87184, 1.7501, 1.75021, 1.75129, 1.74934, 1.74817, 1.86976, 1.86554, 1.75036, 1.75026, 1.74963, 1.87355, 1.74579, 1.74699, 1.8726, 1.79797, 1.74925, 1.74911, 1.74827, 1.85621, 1.74614
