1.72893272819099,1.72887509966132,1.82744869966478,1.72714624377117,1.90479579123917,1.72418797924802,1.72465861224034,1.83448898503968,1.72432244581725,1.77164507343267,1.72335236556778,1.72151785737323,1.89700633497854,1.72047093908419,1.71963532540395,1.71958730162923,1.71999070133693,1.82245422709324,1.71633128970277,1.71590868048518,1.71484255268625,1.81839141575138,1.71615840411376,1.71633128970277,1.71789686475886,1.71389168194667,1.71075092707956,1.81225397734134,1.80911322247423,1.81231160587101,1.71563014259177,1.76200189946761,1.71510188106978,1.71340183944446,1.71491939072582,1.71742623176654,1.77574630379431,1.77549658016573,1.94201421665215,1.94091927458839,1.77161625916784,1.93829717648833,1.93798021957513,1.94157239792467,1.8626597312942,1.84166373698381,1.84131796580578,1.8411738944816,1.83883033427495,1.76485451168636,1.83883033427495,1.8382060252035,1.76215557554673,1.76107984299286,1.86485922017667,1.83403756155725,1.83323076214185,1.83430649469572,1.83422005190121,1.75500963786744,1.86414846831072,1.82764079476369,1.86435016816457,1.8278328898626,1.82727581407577,1.82669952877905,1.86768301813059,1.82702609044719,1.8273238378505,1.75214742089374,1.86478238213711,1.82737186162522,1.86604060503494,1.75258923962123,1.86564681008219,1.86633835243825,1.83012842629452,1.82917755555494,1.75869786376643,1.83396072351769,1.93828757173338,1.76139679990605,1.94031417502684,1.76796645228863,1.95473091219971,1.86422530635028,1.77445926663164,1.8506345781027,1.86515696757998,1.94809402653252,1.91589888795592,1.91174963381956,1.91166319102505,1.93055574400243,1.91031852533271,1.92577257603967,1.91158635298549,1.91380505137785,1.91443896520424,1.91370900382839,1.91079876307997,1.83723594495403,1.91115413901295,1.91161516725032,1.90843599336343,1.90715856095571,1.90736986556451,1.90871453125685,1.90817666497991,1.90802298890079,1.90801338414584,1.92453356265173,1.92518668598801,1.92534036206714,1.92188265028683,1.9199040707681,1.91750288203178,1.92097980332198,1.92990262066615,1.92537878108692,1.83649637882324,1.92144083155935,1.91876110492961,1.92597427589352,1.83833088701779,1.92478328628031,1.92743419864521,1.92728052256608,1.92075889395823,1.91312311377673,1.84101061364753,1.9283658598749,1.9236787394616,1.91834810046697,1.91859782409555,1.83940661957166,1.93261116156072,1.83927215300243,1.92121031744066,1.92109506038132,1.84076089001895,1.92828902183534,1.91409319402621,1.9314201719475,1.83847495834197,1.83948345761123,1.91368018956356,1.92216118818025,1.9411978124818,1.9152169503548,1.83738962103315,1.92852914070897,1.91525536937459,1.92481210054515,1.91854019556587,1.9126716902943,1.91264287602947,1.91295022818772,1.91527457888448,1.91554351202294,1.9144101509394,1.91579323565152,1.91443896520424,1.91174963381956,1.9109524391591,1.91073152979536,1.91383386564268,1.91149991019098,1.92067245116373,1.83732238774854,1.77270159647666,1.77081906450738,1.7709727405865,1.76947439881504,1.8702090686812,1.76973372719856,1.7707806454876,1.76850431856557,1.76952242258977,1.76918625616668,1.86834574622181,1.81816090163269,1.81772868766015,1.84420899704431,1.86688582347013,1.76948400356998,1.76836024724139,1.76748621454137,1.85757881592815,1.76909020861723,1.77042526955462,1.76908060386228,1.94379109631703,1.76884048498865
1.72948019922287,1.72816434779537,1.90273076892593,1.81857390609534,1.72668521553379,1.82837075613953,1.84064563295961,1.83320194787701,1.83660203112764,1.72256477566226,1.81975529095361,1.82586391509881,1.82773684231314,1.82882217962196,1.72185402379631,1.72156588114795,1.72065342942815,1.72097038634135,1.71764714113028,1.71518832386428,1.716994017794,1.81913098188217,1.71640812774234,1.71494820499065,1.81608627456451,1.81576931765132,1.81740212599202,1.71473690038186,1.88763209415194,1.71278713512796,1.71460243381262,1.89743854895108,1.71450638626317,1.76439348344898,1.7646720213424,1.76650652953695,1.93755761035754,1.77854128748339,1.94455947671265,1.93881583325537,1.7731146009393,1.94207184518182,1.8454384056773,1.94471315279178,1.85942292887764,1.841279546786,1.84101061364753,1.84089535658818,1.95396253180409,1.7649697687457,1.86330324987554,1.83880152001011,1.8387150772156,1.9519071142458,1.86436937767446,1.83179004890005,1.86483040591184,1.83141546345719,1.75776620253674,1.75601813713669,1.8297634456066,1.86714515185365,1.86775985617015,1.75214742089374,1.82836115138459,1.86681859018551,1.9425328734192,1.82738146638017,1.86617507160418,1.82523000127242,1.75295422030915,1.75476951899381,1.8279193326571,1.94106334591257,1.83132902066268,1.86736606121739,1.83061826879673,1.86425412061512,1.86554115777779,1.83296182900338,1.94255208292909,1.83774499696613,1.83860942491121,1.76809131410292,1.76831222346666,1.77268238696676,1.84979896442246,1.86492645346129,1.95650779186459,1.94654766098633,1.91466947932292,1.91282536637343,1.93132412439805,1.91086599636459,1.91112532474811,1.83675570720677,1.91050101567667,1.91242196666573,1.91124058180746,1.91452540799874,1.91257564274485,1.83395111876274,1.91246038568551,1.91359374676905,1.90814785071507,1.90823429350958,1.91075073930525,1.90895465013048,1.90919476900411,1.93499314078715,1.90949251640741,1.92353466813742,1.91680173492078,1.92130636499012,1.91485196966688,1.93488748848275,1.92850032644413,1.91803114355377,1.93780733398612,1.91585086418119,1.91606216878999,1.9228719400462,1.91166319102505,1.91724355364826,1.83866705344088,1.8394354338365,1.9275590604595,1.92395727735501,1.91384347039763,1.91375702760312,1.91374742284818,1.84098179938269,1.92726131305619,1.84152927041457,1.92149846008902,1.92570534275506,1.92988341115626,1.92899016894634,1.93142977670245,1.84102021840247,1.93976670399495,1.91191291465363,1.92341941107808,1.9318235716552,1.92193067406156,1.91371860858334,1.92750143192982,1.93452250779483,1.92777996982324,1.92677147055398,1.83827325848812,1.92828902183534,1.83886875329473,1.93011392527494,1.92271826396707,1.91212421926242,1.83875349623539,1.93368689411459,1.91660963982187,1.91417003206577,1.91802153879883,1.91831928620213,1.91878031443951,1.91663845408671,1.91171121479978,1.91126939607229,1.9110580914635,1.91762774384607,1.83616021240016,1.77462254746571,1.77242305858324,1.77010831264143,1.95920672800421,1.94377188680714,1.77172191147224,1.77029080298539,1.76969530817878,1.8753860315967,1.86441740144919,1.76818736165237,1.76855234234029,1.76930151322602,1.76796645228863,1.76822578067215,1.76759186684576,1.86759657533608,1.82780407559776,1.76790882375896,1.86741408499212,1.76941677028537,1.7679184285139,1.76964728440405,1.76931111798097,1.94195658812248
1.77777290708777,1.77764804527348,1.73070960785587,1.72826039534482,1.90207764558965,1.84245132688932,1.72642588715027,1.72711742950633,1.82097509483166,1.72403430316889,1.72457216944583,1.77223096348434,1.72151785737323,1.72195007134577,1.72025002972045,1.72205572365016,1.72008674888638,1.72046133432925,1.90129005568414,1.72021161070067,1.90090586548633,1.90069456087753,1.81411729980073,1.8087674512962,1.71619682313354,1.76410534080062,1.76429743589953,1.71607196131925,1.71690757499949,1.71644654676212,1.71589907573024,1.71605275180936,1.71607196131925,1.71668666563575,1.76483530217647,1.71858840711492,1.85195042953021,1.94402161043572,1.94401200568077,1.94427133406429,1.84806050377737,1.84740738044109,1.84694635220371,1.84496777268498,1.84436267312343,1.84338298811901,1.84369034027726,1.8407704947739,1.86744289925695,1.86617507160418,1.9623859018911,1.8416829464937,1.84058800442993,1.83499803705178,1.83532459871992,1.95715131044592,1.93746156280809,1.86752934205146,1.83430649469572,1.86813444161301,1.75815039273455,1.86801918455367,1.86666491410639,1.75613339419604,1.75465426193446,1.82916795079999,1.96237629713616,1.82875494633734,1.75378983398939,1.82828431334502,1.86864349362511,1.75522094247624,1.87004578784713,1.75249319207177,1.83057984977695,1.83457542783419,1.75657521292352,1.86752934205146,1.8681728606328,1.86805760357345,1.86801918455367,1.86742368974706,1.84181741306293,1.84189425110249,1.84246093164427,1.84831983216089,1.85067299712248,1.8675581563163,1.95467328367004,1.93099756272991,1.92417818671876,1.92923028781998,1.92783759835291,1.91376663235807,1.91403556549653,1.83963713369035,1.91132702460196,1.91228750009649,1.91158635298549,1.91187449563385,1.91053943469645,1.83538222724959,1.91579323565152,1.91525536937459,1.90937725934807,1.91121176754262,1.9108467868547,1.91155753872065,1.92522510500779,1.91081797258986,1.93281286141457,1.91067390126568,1.91013603498875,1.93369649886953,1.9418125167983,1.93077665336617,1.93117044831892,1.91935659973622,1.92637767560123,1.92526352402757,1.92574376177484,1.91652319702736,1.91632149717351,1.91845375277137,1.83844614407714,1.83938741006177,1.92426462951326,1.92548443339131,1.93114163405409,1.92767431751884,1.91761813909113,1.92599348540342,1.9346857886289,1.92888451664195,1.84090496134313,1.93568468314321,1.9212391317055,1.92666581824959,1.84067444722444,1.84123152301127,1.92546522388142,1.84037669982114,1.91366098005367,1.93463776485417,1.91540904545371,1.91527457888448,1.93133372915299,1.92409174392425,1.91229710485144,1.84070326148928,1.9182904719373,1.8393297815321,1.84072247099917,1.91160556249538,1.92676186579904,1.91509208854052,1.94519339053904,1.91496722672623,1.91535141692404,1.91865545262522,1.91782944369992,1.91825205291751,1.91717632036364,1.9161486115845,1.91296943769761,1.91355532774927,1.9118648908789,1.91082757734481,1.917464463012,1.8218107085119,1.77250950137775,1.7727112012316,1.77183716853158,1.94408884372033,1.96486392866699,1.76878285645898,1.76867720415458,1.76833143297655,1.87759512523412,1.76637206296771,1.77003147460187,1.76837945675128,1.76922467518646,1.76833143297655,1.76801447606336,1.82195477983608,1.76957044636449,1.82767921378347,1.82425992102295,1.82372205474601,1.76575735865121,1.76841787577106,1.94186054057303,1.96137740262185
1.73078644589543,1.73240004472624,1.72998925123497,1.73039265094267,1.73163166433061,1.72591683513817,1.72852932848329,1.72523489753705,1.7260513017074,1.77246147760302,1.77345076736239,1.77377732903053,1.77452649991626,1.72475465978979,1.71990425854242,1.72179639526664,1.90244262627757,1.90753314639858,1.90180871245119,1.8206005093888,1.82117679468551,1.71805054083798,1.71626405641816,1.81012172174349,1.76550763502264,1.80493515407303,1.71874208319404,1.76425901687975,1.76433585491931,1.76510423531493,1.81383876190731,1.71816579789732,1.81402125225127,1.8139636237216,1.81160085400506,1.88632584747939,1.9617711975746,1.85065378761259,1.94380070107197,1.86500329150085,1.86578127665142,1.85144137751811,1.84842548446529,1.77274962025138,1.94538548563795,1.95815020496023,1.86660728557671,1.8433157548344,1.84273946953768,1.76729411944246,1.76795684753368,1.86674175214595,1.9368276489817,1.94927541139079,1.86555076253273,1.83660203112764,1.83752408760239,1.75992727239943,1.75850576866752,1.86797116077894,1.75918770626864,1.86772143715037,1.86770222764048,1.75538422331031,1.82773684231314,1.86841297950643,1.86925819794161,1.75472149521908,1.87068930642846,1.8285340369736,1.82761198049885,1.86980566897349,1.75526896625096,1.82861087501316,1.82963858379231,1.82920636981977,1.83243356748139,1.87073733020319,1.75916849675875,1.83406637582209,1.83452740405946,1.83808116338922,1.83923373398265,1.77102076436123,1.77102076436123,1.86826890818225,1.86771183239542,1.85508157964237,1.86838416524159,1.95546087357555,1.93230380940247,1.93736551525863,1.92237249278904,1.83993488109366,1.93767286741688,1.93106479601453,1.93715421064984,1.91731078693288,1.91820402914279,1.83787946353536,1.91381465613279,1.91412200829104,1.91016484925358,1.91366098005367,1.91442936044929,1.91762774384607,1.8358720697518,1.91851138130104,1.91061627273601,1.83462345160891,1.93027720610901,1.83770657794635,1.91841533375158,1.91763734860102,1.92804890296171,1.83673649769688,1.9231696874495,1.91057785371623,1.93180436214531,1.91961592811975,1.92542680486164,1.92939356865405,1.91825205291751,1.9182904719373,1.83945464334639,1.84008855717278,1.92868281678809,1.92181541700222,1.94424251979946,1.841980693897,1.84151966565963,1.9197119756692,1.92491775284954,1.93129531013321,1.93021957757934,1.92617597574738,1.92767431751884,1.92145043631429,1.92776076031335,1.93055574400243,1.84090496134313,1.84150045614974,1.92275668298685,1.91299825196244,1.91465026981303,1.91588928320097,1.93434962220581,1.8416829464937,1.945375880883,1.92229565474948,1.9213447840099,1.93146819572223,1.93045969645297,1.9256092952056,1.93381175592888,1.92628162805177,1.92672344677926,1.92417818671876,1.91519774084491,1.91450619848885,1.91473671260754,1.91652319702736,1.917464463012,1.91658082555703,1.91611979731966,1.91426607961522,1.83830207275296,1.83836930603757,1.92829862659028,1.82256948415258,1.77325867226348,1.81871797741952,1.8177382924151,1.77015633641615,1.94821888834681,1.94095769360817,1.76705400056883,1.76779356669961,1.76671783414574,1.76748621454137,1.76565170634682,1.76788000949412,1.76764949537543,1.87111191564605,1.81822813491731,1.81911177237228,1.76923427994141,1.76892692778316,1.76810091885786,1.76813933787764,1.76624720115342,1.86319759757114,1.86284222163816,1.7712896974997
1.83113692556377,1.73499332856146,1.83052222124728,1.73036383667784,1.90566021918425,1.72777055284261,1.72855814274812,1.72694454391731,1.83114653031872,1.72752082921403,1.72803948598108,1.8854806290442,1.81118784954242,1.77270159647666,1.77369088623602,1.72272805649633,1.77686045536796,1.72182520953148,1.72202690938533,1.72437046959198,1.72108564340069,1.72140260031388,1.71938560177537,1.71898220206767,1.7663912724776,1.76667941512596,1.76602629178968,1.80563630118404,1.76425901687975,1.78100010474938,1.71839631201601,1.71878050221382,1.71849235956546,1.71777200294457,1.71889575927316,1.72184441904137,1.78047184322739,1.85244027203242,1.8545148991006,1.85409228988301,1.85099955879062,1.84964528834334,1.84887690794772,1.7739406098646,1.84574575783555,1.86770222764048,1.84512144876411,1.8450350059696,1.84483330611575,1.84084733281346,1.84018460472223,1.96143503115152,1.76453755477316,1.86711633758881,1.76450874050833,1.83692859279578,1.76167533779947,1.76104142397308,1.75885153984555,1.75964873450601,1.86758697058113,1.83266408160007,1.87166899143288,1.82915834604504,1.82779447084281,1.82880297011207,1.9545388171008,1.82926399834944,1.8288317843769,1.82815945153073,1.86774064666026,1.86855705083061,1.75634469880483,1.75605655615648,1.86841297950643,1.75849616391258,1.83227028664732,1.94073678424443,1.83449858979462,1.8344505660199,1.95462525989531,1.83886875329473,1.83921452447276,1.8677502514152,1.86853784132072,1.77542934688112,1.85238264350275,1.85871217701169,1.8702090686812,1.95471170268982,1.84153887516952,1.93689488226631,1.92339059681324,1.91412200829104,1.91653280178231,1.93427278416625,1.93486827897286,1.91179765759428,1.91853059081093,1.83934899104199,1.83886875329473,1.91295022818772,1.91465026981303,1.91711869183397,1.91479434113721,1.91041457288216,1.91046259665689,1.91862663836038,1.91270050455914,1.91036654910744,1.94092887934333,1.92521550025285,1.91274852833387,1.83758171613206,1.92106624611648,1.8376105303969,1.92865400252326,1.91148070068109,1.91111571999317,1.84109705644203,1.84104903266731,1.92535957157703,1.9274534081551,1.83991567158376,1.92823139330567,1.84028065227169,1.93079586287606,1.91319034706135,1.93076704861122,1.92697317040783,1.84295077414648,1.92286233529125,1.93817231467404,1.92697317040783,1.92387083456051,1.84281630757724,1.9213447840099,1.84234567458492,1.92793364590236,1.92131596974506,1.93140096243761,1.93077665336617,1.84120270874643,1.91490959819656,1.9310167722398,1.92855795497381,1.93557903083881,1.93831638599822,1.93435922696076,1.92840427889468,1.91575481663174,1.83960831942552,1.91514011231524,1.91421805584049,1.91447738422402,1.92248774984839,1.93474341715857,1.83894559133429,1.9146214555482,1.91424687010533,1.91752209154167,1.91760853433618,1.91300785671739,1.9209221747923,1.91821363389773,1.91214342877231,1.91068350602063,1.91068350602063,1.92707882271223,1.77138574504915,1.8438248068465,1.84182701781788,1.77268238696676,1.76971451768867,1.76984898425791,1.76913823239195,1.76765910013038,1.9508890102216,1.86915254563721,1.76725570042268,1.86882598396907,1.86864349362511,1.76763989062049,1.86898926480314,1.94266733998843,1.81897730580304,1.96014799398885,1.86872993641962,1.86138229888648,1.76832182822161,1.77051171234913,1.77066538842825,1.76978175097329,1.77133772127442
1.83470989440342,1.83829246799801,1.73249609227569,1.9140067512317,1.73139154545698,1.83757211137712,1.83766815892657,1.99141147133576,1.72908640427011,1.72772252906788,1.72827960485471,1.72613774450191,1.72367892723592,1.72549422592058,1.77947294871308,1.72431284106231,1.77956899626253,1.772816853536,1.77379653854042,1.77191400657114,1.77135693078432,1.79323656254968,1.76800487130841,1.71998109658198,1.71670587514564,1.71885734025338,1.71904943535229,1.71842512628085,1.76642969149738,1.71938560177537,1.71958730162923,1.71798330755336,1.7188189212336,1.72043252006441,1.90462290565015,1.71923192569625,1.86928701220645,1.94358939646318,1.86991132127789,1.94498208593024,1.77795539743173,1.85311260487859,1.84924188863564,1.94464591950716,1.94460750048738,1.77329709128326,1.94421370553462,1.87110231089111,1.96457578601863,1.86931582647128,1.95157094782271,1.84100100889258,1.84082812330357,1.83870547246066,1.94748892697096,1.86895084578336,1.83502685131661,1.86862428411522,1.76296237496214,1.95110991958534,1.83483475621771,1.8345562183243,1.75882272558072,1.75815999748949,1.83114653031872,1.83146348723191,1.83059905928684,1.75777580729168,1.95853439515804,1.96068586026579,1.75494240458282,1.82990751693078,1.83040696418793,1.83140585870224,1.83491159425727,1.94784430290394,1.75909165871919,1.83823483946834,1.83443135651001,1.83836930603757,1.87258144315268,1.76703479105894,1.84322931203989,1.8719283198164,1.87058365412406,1.8477915706389,1.85185438198075,1.85125888717415,1.96220341154714,1.79886494894761,1.93895029982461,1.84372875929704,1.92535957157703,1.9147078983427,1.91372821333829,1.84207674144645,1.84234567458492,1.91246999044045,1.91412200829104,1.83976199550464,1.91423726535039,1.83947385285628,1.91678252541089,1.91687857296034,1.91709948232408,1.91381465613279,1.9113558388668,1.92532115255725,1.91126939607229,1.9457792805907,1.91121176754262,1.91163437676021,1.92746301291004,1.91239315240089,1.92748222241993,1.92894214517162,1.83818681569361,1.83932017677716,1.83992527633871,1.91789667698454,1.83976199550464,1.93030602037385,1.84224962703547,1.84189425110249,1.94210065944666,1.84129875629589,1.84081851854862,1.93251511401126,1.9275590604595,1.92396688210996,1.91635991619329,1.92167134567804,1.9315258242519,1.84410334473991,1.84170215600359,1.92033628474064,1.93528128343551,1.92753024619466,1.84379599258166,1.84209595095634,1.92936475438921,1.84047274737059,1.84388243537617,1.84199990340689,1.84007895241783,1.92770313178368,1.93903674261911,1.92725170830125,1.9444634291632,1.91548588349327,1.91440054618446,1.91463106030314,1.92793364590236,1.91528418363942,1.92165213616815,1.91516892658008,1.83880152001011,1.83867665819582,1.91415082255588,1.83803313961449,1.91775260566036,1.91570679285701,1.91504406476579,1.91780062943509,1.83409519008692,1.93082467714089,1.83966594795519,1.91358414201411,1.93398464151789,1.77198123985576,1.84540959141247,1.82206043214048,1.95110031483039,1.9513980622337,1.76922467518646,1.76901337057767,1.96397068645707,1.76836024724139,1.76905178959745,1.76822578067215,1.94430975308407,1.94357979170823,1.94481880509617,1.76850431856557,1.76806249983808,1.77019475543594,1.86544511022833,1.86880677445918,1.76811052361281,1.93688527751137,1.86432135389974,1.7692534894513,1.77110720715574,1.8609212706491
1.78518777790553,1.83503645607156,1.83372060464406,1.78173006612522,1.73229439242184,1.73348538203505,1.72984517991079,1.83670768343204,1.9113558388668,1.91141346739647,1.72855814274812,1.72972992285145,1.72896154245582,1.7743440095723,1.77327788177337,1.72617616352169,1.82644980515047,1.81861232511512,1.82231015576906,1.72301619914469,1.72170034771719,1.81899651531293,1.7679184285139,1.81791117800412,1.72033647251496,1.82574865803947,1.82777526133292,1.90801338414584,1.82144572782398,1.8206869521833,1.76931111798097,1.72162350967763,1.89145478662017,1.90557377638974,1.90589073330293,1.94708552726326,1.94695106069403,1.94743129844129,1.85422675645224,1.9460962375039,1.9506777056128,1.85197924379504,1.87115993942078,1.94562560451158,1.84917465535102,1.87127519648012,1.84637967166194,1.84686951416415,1.77115523093046,1.87222606721971,1.87279274776148,1.84339259287396,1.8715249201087,1.76516186384461,1.84014618570245,1.76330814614017,1.83436412322539,1.86905649808776,1.87164978192299,1.83663084539248,1.83753369235733,1.83786985878042,1.83160755855609,1.8320974010583,1.83109850654399,1.83119455409345,1.8312906016429,1.83128099688795,1.83081036389563,1.82815945153073,1.75811197371477,1.83235672944182,1.75908205396424,1.75765094547739,1.83226068189237,1.83206858679347,1.87249500035817,1.76230925162586,1.8371879211793,1.83634270274412,1.84087614707829,1.87014183539658,1.87105428711638,1.84530393910807,1.84624520509271,1.84784919916857,1.85274762419067,1.85468778468961,1.96510404754062,1.96703460328462,1.84510223925422,1.84467963003663,1.93238064744203,1.91718592511859,1.91595651648559,1.93478183617835,1.91456382701853,1.84020381423212,1.84025183800685,1.840050138153,1.84016539521234,1.83988685731893,1.83865744868593,1.91516892658008,1.91243157142067,1.91155753872065,1.91198975269319,1.93020036806945,1.92089336052747,1.91261406176463,1.83845574883208,1.93402306053767,1.91928936645161,1.92632004707156,1.93533891196518,1.92778957457818,1.92818336953094,1.93355242754535,1.84049195688048,1.84110666119698,1.93380215117393,1.92045154179999,1.92899016894634,1.84125073252116,1.92519629074296,1.92817376477599,1.84133717531567,1.92720368452652,1.84224962703547,1.92268944970224,1.92440870083744,1.93010432052,1.84239369835965,1.92850032644413,1.92238209754399,1.9214312268044,1.92226684048464,1.93384057019371,1.92703079893751,1.92402451063963,1.84183662257282,1.84261460772339,1.84405532096518,1.92420700098359,1.93215973807829,1.93283207092446,1.92131596974506,1.92951843046833,1.91805995781861,1.91526497412953,1.84093377560796,1.91442936044929,1.91997130405272,1.92182502175716,1.92441830559239,1.92201711685607,1.91271971406903,1.91340165167015,1.83873428672549,1.91461185079325,1.91752209154167,1.91915489988237,1.91256603798991,1.91251801421518,1.91215303352726,1.92777036506829,1.92628162805177,1.9329473279838,1.93171791935081,1.77110720715574,1.77346997687228,1.7745553141811,1.77174112098213,1.7710783928909,1.77026198872055,1.76840827101611,1.76655455331167,1.76933032749086,1.76815854738753,1.86921977892183,1.7667946721853,1.86687621871518,1.76867720415458,1.76867720415458,1.86163202251506,1.95672870122833,1.87042037328999,1.77004107935681,1.94308994920602,1.7687444374392,1.864801591647,1.77112641666563,1.77011791739637,1.77096313583156
1.73832617852748,1.73778831225054,1.78221030387249,1.78333406020109,1.78415046437144,1.73310119183724,1.73313961085702,1.73208308781304,1.73202545928337,1.73029660339322,1.73001806549981,1.73026778912838,1.72851972372834,1.72480268356452,1.83393190925285,1.72655074896456,1.91120216278767,1.77257673466237,1.72456256469088,1.72322750375349,1.83824444422329,1.72186362855126,1.81756540682608,1.72258398517215,1.7223822853183,1.82215647968993,1.82163782292289,1.81969766242394,1.71647536102695,1.82135928502947,1.72163311443257,1.72114327193036,1.72179639526664,1.72318908473371,1.7228913373304,1.72182520953148,1.782997893778,1.78380469319341,1.78207583730325,1.85383296149948,1.85455331812038,1.95099466252599,1.87136163927463,1.87211081016036,1.84896335074222,1.87223567197465,1.85097074452579,1.84478528234102,1.84511184400916,1.84352705944319,1.84453555871245,1.87215883393509,1.87239895280872,1.84144282762006,1.84079930903873,1.7648641164413,1.83874389148044,1.83770657794635,1.83730317823865,1.83645795980346,1.87266788594719,1.76132956662144,1.87242776707356,1.83395111876274,1.83459463734408,1.75818881175433,1.75802553092026,1.83317313361217,1.8695943643647,1.87331140452852,1.75618141797076,1.75790066910597,1.75879391131588,1.82881257486701,1.75823683552905,1.83569918416278,1.83511329411112,1.76113747152253,1.76183861863354,1.83676531196171,1.83965634320024,1.8722452767296,1.84210555571129,1.77183716853158,1.8469655617136,1.9588225378064,1.77849326370866,1.85793419186112,1.96398989596697,1.79937400095971,1.84467002528168,1.93871978570592,1.84424741606409,1.93404227004756,1.93617452564542,1.91714750609881,1.92365952995171,1.84206713669151,1.84099140413764,1.84115468497171,1.84257618870361,1.84090496134313,1.84474686332124,1.91815600536806,1.91741643923728,1.91898201429336,1.93270720911017,1.93023878708923,1.9537320176854,1.91398754172181,1.93455132205966,1.93193882871455,1.84040551408597,1.91384347039763,1.93327388965194,1.95124438615457,1.93459934583439,1.93695251079599,1.84237448884976,1.93177554788048,1.93130491488816,1.94009326566309,1.92216118818025,1.84205753193656,1.93039246316836,1.92973933983208,1.92834665036501,1.92802969345182,1.9374231437883,1.9249081480946,1.92116229366594,1.92955684948812,1.9249081480946,1.84199990340689,1.93099756272991,1.9253115478023,1.9162542638889,1.91821363389773,1.92776076031335,1.92933594012437,1.93202527150905,1.93490669799264,1.93794180055535,1.84282591233219,1.93044048694308,1.9268387038386,1.84372875929704,1.84314286924538,1.84291235512669,1.84105863742225,1.84102982315742,1.9272421035463,1.9149192029515,1.92994103968593,1.91418924157566,1.91811758634828,1.91850177654609,1.92219000244508,1.83872468197055,1.91959671860985,1.91193212416352,1.92019221341646,1.9204131227802,1.92072047493845,1.92136399351979,1.91401635598664,1.92104703660659,1.92555166667593,1.91199935744813,1.88299299751337,1.77178914475685,1.77031961725022,1.9484301929556,1.77085748352716,1.94512615725442,1.81735410221729,1.7682353854271,1.85410189463795,1.76690992924465,1.8175269878063,1.81678742167552,1.81542354647329,1.81680663118541,1.81528907990405,1.76880206596887,1.96241471615594,1.77119364995025,1.76813933787764,1.94503971445992,1.77098234534145,1.77080945975243,1.77003147460187,1.86084443260954,1.85918281000401
1.83722634019908,1.83748566858261,1.83771618270129,1.83884954378484,1.73733688876811,1.73570408042741,1.90960777346676,1.91087560111954,1.77890626817131,1.77890626817131,1.73136273119215,1.73142035972182,1.72987399417563,1.72820276681515,1.72646430617005,1.72479307880957,1.72635865386565,1.7734315578525,1.72612813974696,1.72576315905904,1.83460424209902,1.72406311743373,1.72271845174139,1.72321789899854,1.8258831246087,1.72141220506883,1.72037489153474,1.82158019439321,1.82178189424707,1.71828105495667,1.71888615451822,1.72367892723592,1.72311224669415,1.90712014193593,1.72373655576559,1.85473580846434,1.78599457732093,1.85473580846434,1.85535051278084,1.85514881292699,1.95177264767656,1.8508458827115,1.85164307737196,1.85077864942688,1.85140295849833,1.77612088923718,1.77617851776685,1.84737856617625,1.77338353407777,1.96510404754062,1.84216318424096,1.84241290786954,1.87395492310986,1.84145243237501,1.83970436697497,1.84003092864311,1.87302326188016,1.96162712625043,1.87300405237027,1.96112767899327,1.95457723612059,1.8348539657276,1.76018660078295,1.83418163288143,1.8342392614111,1.7589667969049,1.83381665219351,1.8326064530704,1.83263526733524,1.75899561116973,1.95451960759091,1.76020581029284,1.87460804644614,1.83253921978579,1.8329234099836,1.83396072351769,1.83542064626937,1.83746645907272,1.83658282161775,1.76514265433472,1.83896480084418,1.96091637438447,1.76998345082714,1.87551089341099,1.84875204613343,1.85341035228189,1.85331430473244,1.87413741345382,1.87493460811428,1.96343282018014,1.84513105351905,1.84538077714763,1.8479836657378,1.84781078014879,1.91636952094824,1.91878031443951,1.9158316546713,1.91342086118004,1.84281630757724,1.84325812630472,1.84336377860912,1.84142361811017,1.84105863742225,1.84159650369919,1.91929897120655,1.93038285841341,1.92852914070897,1.91373781809323,1.91325758034597,1.91549548824822,1.91610058780977,1.91673450163616,1.91516892658008,1.93572310216299,1.9156395595724,1.9328416756794,1.84144282762006,1.93679883471686,1.84123152301127,1.92402451063963,1.91669608261638,1.8418750415926,1.921853836022,1.93103598174969,1.84421860179925,1.92697317040783,1.93188120018488,1.92812574100127,1.93056534875737,1.84211516046624,1.92413016294403,1.92437988657261,1.84418978753442,1.84392085439595,1.93093993420024,1.92566692373528,1.92575336652978,1.91742604399222,1.92782799359796,1.94246564013458,1.94154358365983,1.92862518825842,1.92823139330567,1.93151621949695,1.84201911291678,1.927645503254,1.84400729719046,1.93038285841341,1.94592335191488,1.93150661474201,1.91811758634828,1.91600454026032,1.91497683148117,1.94656687049622,1.91463106030314,1.93134333390794,1.9152361598647,1.91683054918561,1.91358414201411,1.92052837983955,1.91851138130104,1.83868626295077,1.83942582908156,1.83975239074969,1.91685936345045,1.83914729118814,1.83930096726727,1.91370900382839,1.91219145254704,1.88396307776284,1.88326193065184,1.85634940729515,1.77206768265027,1.77095353107661,1.77114562617552,1.76833143297655,1.76897495155788,1.76828340920182,1.76739016699191,1.81589417946561,1.93031562512879,1.8167201883909,1.76767830964027,1.85397703282366,1.81502975152053,1.76831222346666,1.96082993158997,1.95551850210522,1.76899416106778,1.76967609866889,1.76993542705241,1.76840827101611,1.76749581929631,1.77005068411176
0,0,0,0,0,0,0,0,0,0,0,0,0,0,0,0,0,0,0,0,0,0,0,0,0,0,0,0,0,0,0,0,0,0,0,0,0,0,0,0,0,0,0,0,0,0,0,0,0,0,0,0,0,0,0,0,0,0,0,0,0,0,0,0,0,0,0,0,0,0,0,0,0,0,0,0,0,0,0,0,0,0,0,0,0,0,0,0,0,0,0,0,0,0,0,0,0,0,0,0,0,0,0,0,0,0,0,0,0,0,0,0,0,0,0,0,0,0,0,0,0,0,0,0,0,0,0,0,0,0,0,0,0,0,0,0,0,0,0,0,0,0,0,0,0,0,0,0,0,0,0,0,0,0,0,0,0,0,0,0,0,0,0,0,0,0,0,0,0,0,0,0,0,0,0,0,0,0,0,0,0,0,0,0,0,0,0,0,0,0,0,0,0,0
1.74193756638691,1.78814604242867,1.91576442138669,1.7858601107517,1.83486357048254,1.73645325131315,1.84467002528168,1.7353198902296,1.73517581890542,1.7321791353625,1.72967229432178,1.73115142658335,1.82292486008555,1.72917284706462,1.72833723338438,1.72838525715911,1.7294225706932,1.77450729040637,1.77518922800748,1.82818826579557,1.82717976652632,1.72561908773486,1.77283606304589,1.82522039651748,1.72192125708093,1.82632494333619,1.82480739205483,1.72206532840511,1.81762303535576,1.82116718993057,1.72051896285892,1.7217867905117,1.72525410704694,1.7238229985601,1.77133772127442,1.86030656633261,1.85895229588532,1.85557142214458,1.85559063165447,1.95400095082387,1.8512492824192,1.87371480423622,1.85286288125001,1.95376083195024,1.87602955017804,1.85100916354557,1.85057694957303,1.87643294988574,1.848300622651,1.84542880092236,1.87524196027253,1.77074222646782,1.84126994203105,1.84059760918488,1.84061681869477,1.83884954378484,1.83857100589142,1.8389263818244,1.84121231350138,1.83572799842762,1.83554550808366,1.76233806589069,1.83276973390447,1.83416242337154,1.83467147538364,1.8322030533627,1.75899561116973,1.87463686071097,1.8342392614111,1.8338358617034,1.75929335857304,1.96727472215825,1.97586137307934,1.83426807567594,1.83450819454957,1.83540143675948,1.83619863141994,1.83782183500569,1.87527077453736,1.83425847092099,1.84409373998496,1.87461765120108,1.95799652888111,1.95793890035144,1.84963568358839,1.85069220663238,1.85154702982251,1.9424272211148,1.95605636838216,1.96498879048128,1.93141056719256,1.93239025219698,1.93802824334986,1.93087270091562,1.91803114355377,1.84437227787838,1.91618703060428,1.91520734559986,1.9149192029515,1.84274907429262,1.84339259287396,1.8411738944816,1.84146203712996,1.9179735150241,1.91929897120655,1.92146004106924,1.84100100889258,1.93470499813879,1.9336676846047,1.83786025402547,1.92760708423422,1.84131796580578,1.84131796580578,1.84275867904757,1.8424897459091,1.84097219462775,1.93110321503431,1.9309111199354,1.84254737443877,1.84207674144645,1.84203832242667,1.91737802021749,1.92137359827473,1.8427010505179,1.91860742885049,1.84451634920256,1.84459318724212,1.92879807384744,1.93633780647949,1.84498698219488,1.92600309015836,1.92515787172317,1.84522710106851,1.92624320903199,1.93211171430356,1.92474486726053,1.95379925097002,1.92715566075179,1.84460279199706,1.84424741606409,1.92886530713206,1.84487172513553,1.93044048694308,1.92919186880019,1.92133517925495,1.94346453464889,1.84360389748275,1.84387283062122,1.93167950033102,1.84400729719046,1.84216318424096,1.92882688811227,1.92421660573854,1.93770168168172,1.93142977670245,1.84064563295961,1.91808877208344,1.91457343177347,1.91535141692404,1.91457343177347,1.84170215600359,1.83989646207387,1.83966594795519,1.83909926741342,1.83963713369035,1.83753369235733,1.91597572599548,1.92466802922097,1.92267984494729,1.88257038829578,1.88023643284407,1.7725191061327,1.77117444044035,1.97304717988037,1.77117444044035,1.76866759939964,1.77075183122276,1.76937835126559,1.76741898125675,1.76786079998423,1.76530593516879,1.85758842068309,1.92919186880019,1.81767105913048,1.8168258406953,1.81586536520077,1.8154043369634,1.76913823239195,1.76828340920182,1.87160175814826,1.76979135572823,1.81788236373928,1.86712594234376,1.76933993224581
1.74007424392752,1.7896155699353,1.74142851437481,1.73974768225938,1.73671257969667,1.73681823200107,1.91528418363942,1.83320194787701,1.73538712351422,1.73521423792521,1.73462834787354,1.73067118883609,1.73261134933503,1.91836730997686,1.72944178020309,1.72938415167342,1.73087288868994,1.89379834682682,1.77547737065584,1.77517001849759,1.72726150083051,1.83412400435176,1.77427677628768,1.7745361046712,1.72386141757988,1.90466132466994,1.72442809812165,1.82506672043835,1.72387102233482,1.72373655576559,1.72478347405462,1.77127048798981,1.72235347105347,1.77274001549644,1.81742133550191,1.78221990862743,1.87552049816594,1.85864494372707,1.85864494372707,1.78462109736376,1.78158599480104,1.87669227826926,1.85246908629725,1.95366478440078,1.95257944709197,1.77882943013175,1.84901137451695,1.84857916054441,1.87587587409891,1.84546721994214,1.84409373998496,1.77129930225464,1.84459318724212,1.84328694056956,1.87378203752084,1.8414716418849,1.95324217518319,1.87455041791646,1.87618322625716,1.76466241658745,1.95198395228536,1.83432570420561,1.83579523171224,1.76142561417089,1.83745685431777,1.87551089341099,1.87541484586154,1.83447938028473,1.82833233711975,1.9638266151329,1.96367293905377,1.83520934166057,1.83460424209902,1.76065723377527,1.76103181921813,1.83633309798917,1.8747905367901,1.96407633876147,1.8752995888022,1.83864784393099,1.84186543683766,1.77142416406893,1.8751939364978,1.77626496056136,1.85199845330493,1.7772926693405,1.85601324087206,1.95527838323159,1.97580374454967,1.96552665675821,1.9350891883366,1.84782998965868,1.9196063233648,1.91860742885049,1.8454384056773,1.93531009770034,1.91866505738016,1.91835770522191,1.91885715247907,1.84454516346739,1.91867466213511,1.91500564574601,1.91693620149001,1.92467763397591,1.91844414801642,1.92096059381209,1.91405477500643,1.84308524071571,1.92391885833523,1.93581914971244,1.93140096243761,1.93338914671128,1.93474341715857,1.9396706564455,1.92805850771665,1.84254737443877,1.94296508739174,1.92848111693424,1.94510694774453,1.91595651648559,1.91843454326148,1.93496432652231,1.92213237391541,1.92832744085512,1.92146004106924,1.92500419564405,1.84556326749159,1.92884609762217,1.84583220063006,1.84458358248717,1.84506382023444,1.92631044231661,1.92886530713206,1.94148595513016,1.93118005307387,1.93740393427841,1.93250550925632,1.91776221041531,1.92120071268572,1.92784720310786,1.93269760435522,1.9325439282761,1.84637967166194,1.93160266229146,1.84506382023444,1.84424741606409,1.92562850471549,1.84205753193656,1.84294116939153,1.94308034445108,1.91656161604714,1.9175701153164,1.93470499813879,1.92495617186932,1.84078970428379,1.92751103668477,1.91424687010533,1.84119310399149,1.91405477500643,1.84046314261565,1.8390320341288,1.83936820055188,1.83894559133429,1.84112587070687,1.84199029865195,1.83932017677716,1.84220160326074,1.92454316740668,1.93462816009923,1.77359483868657,1.77363325770635,1.77249029186786,1.96479669538237,1.96414357204609,1.7686387851348,1.76912862763701,1.7681297331227,1.95482695974916,1.95808297167561,1.76693874350948,1.81629757917331,1.81490488970624,1.94190856434775,1.76810091885786,1.76707321007872,1.81813208736786,1.81674900265574,1.76742858601169,1.76545000649296,1.8159133889755,1.76958965587438,1.76810091885786,1.8680672083284,1.8555330031248
1.7423601756045,1.92432225804294,1.92369794897149,1.84311405498054,1.7383742023022,1.78688781953084,1.84125073252116,1.83879191525517,1.7376730551912,1.73707756038459,1.73284186345372,1.73150680251632,1.73286107296361,1.73369668664385,1.83440254224517,1.77808025924602,1.73017174157893,1.72886549490637,1.72997964648002,1.81974568619866,1.72818355730526,1.72945138495803,1.72616655876675,1.90264432613143,1.72663719175907,1.91760853433618,1.72254556615237,1.72511003572276,1.72549422592058,1.72556145920519,1.72313145620404,1.72368853199086,1.72467782175023,1.72448572665132,1.7245241456711,1.77467057124044,1.85761723494793,1.8581839154897,1.95401055557881,1.78408323108682,1.85696411161165,1.85687766881714,1.85478383223907,1.87806575822644,1.87907425749569,1.85314141914342,1.85217133889395,1.7763802176207,1.87700923518246,1.84636046215205,1.84751303274549,1.95122517664468,1.84596666719929,1.87731658734071,1.84193267012227,1.95303087057439,1.97453591689689,1.87414701820876,1.87757591572423,1.83588167450674,1.87741263489016,1.83723594495403,1.96841768799674,1.83887835804967,1.95218565213921,1.83411439959681,1.83527657494519,1.87593350262859,1.761406404661,1.76210755177201,1.7600905532335,1.76040751014669,1.9579100860866,1.83522855117047,1.76277027986323,1.96647752749779,1.83574720793751,1.76493134972592,1.87572219801979,1.76795684753368,1.84104903266731,1.97113583364626,1.84769552308945,1.97089571477263,1.77736950738006,1.96787021696486,1.78276737965931,1.78528382545498,1.95518233568214,1.98031797937395,1.9374423532982,1.84813734181693,1.92043233229009,1.84712884254767,1.92085494150769,1.9397763087499,1.91898201429336,1.91956790434502,1.84366152601243,1.84248014115416,1.91776221041531,1.91803114355377,1.91838651948675,1.92098940807692,1.92117189842088,1.91812719110323,1.9310167722398,1.91751248678673,1.91610058780977,1.91725315840321,1.93406147955746,1.8417885987981,1.93041167267825,1.92499459088911,1.93196764297938,1.92482170530009,1.91570679285701,1.84183662257282,1.91745485825706,1.84447793018278,1.93154503376179,1.93448408877505,1.92919186880019,1.84500619170477,1.84421860179925,1.93070942008155,1.92502340515394,1.84531354386302,1.93455132205966,1.93020036806945,1.84396887817068,1.92839467413974,1.92879807384744,1.93037325365847,1.93382136068382,1.9252058954979,1.92430304853305,1.93702934883555,1.9315258242519,1.84565931504105,1.84457397773223,1.84548642945203,1.93845085256745,1.92593585687374,1.9344744840201,1.92336178254841,1.92391885833523,1.93494511701242,1.93228459989258,1.93791298629051,1.9184825670362,1.93065179155188,1.92862518825842,1.93472420764868,1.92527312878252,1.91319034706135,1.91424687010533,1.91286378539321,1.91482315540205,1.9158316546713,1.8387150772156,1.83952187663101,1.8391376864332,1.84064563295961,1.83936820055188,1.92913424027052,1.92091257003736,1.91321916132619,1.92681949432871,1.91550509300316,1.772816853536,1.77438242859208,1.77012752215132,1.96174238330977,1.7714817925986,1.96084914109986,1.94604821372917,1.95173422865678,1.96505602376589,1.76712123385344,1.76643929625233,1.76727490993257,1.81518342759965,1.81526026563922,1.76903258008756,1.76885969449854,1.76846589954578,1.76909020861723,1.95807336692067,1.77058855038869,1.77128009274475,1.76763989062049,1.77175072573707,1.77147218784366
1.74408903149465,1.92462961020118,1.84486212038059,1.918693871645,1.73821092146813,1.92070126542856,1.92189225504178,1.73906574465826,1.73282265394383,1.73789396455494,1.82803458971645,1.73336052022076,1.73278423492405,1.79273711529252,1.79369759078705,1.77985713891089,1.77913678229,1.77774409282293,1.77844523993394,1.82812103251095,1.72858695701296,1.72688691538764,1.82515316323286,1.83416242337154,1.82804419447139,1.82713174275159,1.72499477866342,1.72560948297992,1.72314106095898,1.72455295993594,1.72221900448423,1.82541249161638,1.82852443221866,1.91427568437017,1.89410569898507,1.728404466669,1.86200660795792,1.78693584330557,1.85921162426884,1.86081561834471,1.87741263489016,1.78292105573844,1.85560023640942,1.85631098827537,1.85469738944456,1.85478383223907,1.87869967205283,1.7762745653163,1.9612621455625,1.87700923518246,1.8480028752477,1.84612994803336,1.7720964969151,1.87840192464952,1.97093413379241,1.76905178959745,1.7682353854271,1.76917665141174,1.83904163888374,1.76569973012154,1.83740883054304,1.83466187062869,1.83499803705178,1.76449913575338,1.83662124063753,1.87725895881104,1.87715330650664,1.83433530896055,1.8344505660199,1.83479633719793,1.83200135350885,1.833029062288,1.96754365529672,1.83458503258913,1.83497882754189,1.83647716931335,1.83730317823865,1.83987725256398,1.8434021976289,1.76716925762817,1.76970491293373,1.8754916839011,1.87656741645497,1.87563575522528,1.85130691094887,1.77864693978779,1.85459173714016,1.87406057541426,1.9749201070947,1.95077375316225,1.85083627795655,1.92411095343414,1.92136399351979,1.8485983700543,1.84770512784439,1.92617597574738,1.84633164788722,1.92049956557471,1.9152169503548,1.92098940807692,1.9216425314132,1.92050917032966,1.92156569337364,1.92065324165384,1.92107585087143,1.91834810046697,1.915533907268,1.84394006390584,1.91766616286585,1.92778957457818,1.93758642462237,1.92781838884302,1.84386322586628,1.96130056458229,1.90796536037111,1.84428583508387,1.92104703660659,1.9166576635966,1.93342756573107,1.93719262966962,1.84612034327842,1.84574575783555,1.84625480984765,1.93423436514647,1.84612034327842,1.93164108131124,1.92701158942762,1.92860597874853,1.92853874546392,1.92781838884302,1.91784865320981,1.92275668298685,1.92585901883418,1.9297009208123,1.92012498013185,1.92533075731219,1.94385832960165,1.84735935666636,1.93805705761469,1.84897295549717,1.927645503254,1.84544801043225,1.94528943808849,1.9214312268044,1.91747406776695,1.92916305453536,1.93065179155188,1.92739577962543,1.92950882571339,1.92026905145602,1.93543495951463,1.91589888795592,1.94075599375432,1.93268799960028,1.93195803822444,1.9235730871572,1.93746156280809,1.91525536937459,1.916763315901,1.83990606682882,1.84041511884092,1.84089535658818,1.83888796280462,1.83960831942552,1.8386286344211,1.93490669799264,1.93470499813879,1.93188120018488,1.92441830559239,1.85825114877431,1.77467057124044,1.77156823539311,1.95077375316225,1.95157094782271,1.76763989062049,1.94856465952484,1.94865110231934,1.95420265067772,1.953626365381,1.76404771227095,1.76566131110176,1.76801447606336,1.76640087723255,1.86350494972939,1.76409573604568,1.76438387869404,1.96767812186595,1.76829301395677,1.96131016933723,1.76824499018204,1.82793854216699,1.8821093600584,1.81807445883818,1.7714817925986
1.92021142292635,1.84731133289163,1.83267368635502,1.74212966148581,1.92341941107808,1.92528273353746,1.84831983216089,1.84355587370803,1.73899851137365,1.7393058635319,1.90228895019845,1.8273046283406,1.73503174758124,1.89712159203789,1.78064472881641,1.89514301251916,1.73043106996245,1.82705490471203,1.82878376060218,1.83060866404178,1.72941296593825,1.89396162766089,1.77768646429326,1.72561908773486,1.72954743250749,1.83033973090331,1.82839957040437,1.72772252906788,1.72578236856893,1.82775605182303,1.7256479019997,1.72651232994478,1.72831802387449,1.72836604764922,1.72851972372834,1.72920166132946,1.95803494790089,1.8623619838909,1.85863533897213,1.85831838205893,1.85770367774243,1.88158109853641,1.88452015354967,1.88254157403094,1.85296853355441,1.85376572821487,1.8797754046067,1.85097074452579,1.77759041674381,1.96806231206377,1.77420954300307,1.77490108535913,1.84550563896192,1.84639888117183,1.84384401635639,1.8428931456168,1.84151006090468,1.84082812330357,1.84011737143762,1.8389263818244,1.83778341598591,1.87742223964511,1.87719172552642,1.83826365373318,1.83758171613206,1.83459463734408,1.83528617970014,1.87858441499348,1.87759512523412,1.95436593151179,1.83920491971781,1.88015959480451,1.83520934166057,1.97163528090341,1.83529578445508,1.83549748430893,1.83938741006177,1.840751285264,1.76491214021603,1.95866886172728,1.95879372354157,1.84364231650254,1.84488132989048,1.96184803561417,1.77775369757788,1.87454081316152,1.95056244855346,1.87730698258576,1.79244897264416,1.80466622093457,1.84960686932356,1.94517418102915,1.92355387764731,1.93837401452789,1.93652990157839,1.93165068606619,1.92471605299569,1.91592770222076,1.84497737743993,1.84481409660586,1.92488893858471,1.92477368152536,1.8444203016531,1.84413215900475,1.92292956857587,1.91989446601316,1.84364231650254,1.93353321803546,1.93550219279925,1.93725025819929,1.92140241253957,1.93191961920466,1.95104268630072,1.93702934883555,1.84471804905641,1.9410921601774,1.91748367252189,1.93246709023654,1.93206369052884,1.84702319024328,1.94501090019508,1.93381175592888,1.9348778837278,1.93382136068382,1.92827941708039,1.92636807084628,1.93003708723538,1.93124728635849,1.92817376477599,1.84582259587512,1.92426462951326,1.9283658598749,1.91968316140436,1.93263037107061,1.92729012732103,1.84625480984765,1.94040061782134,1.92819297428589,1.95130201468424,1.84555366273665,1.93072862959144,1.93210210954862,1.94105374115762,1.92820257904083,1.84573615308061,1.93391740823328,1.9286636072782,1.92079731297802,1.93985314678946,1.93012353002989,1.84287393610691,1.84273946953768,1.8415772941893,1.93167950033102,1.93409029382229,1.93352361328052,1.92728052256608,1.92551324765615,1.91547627873833,1.84161571320908,1.84131796580578,1.8422976508102,1.84006934766289,1.84072247099917,1.84007895241783,1.91506327427568,1.83869586770571,1.83816760618372,1.92801048394193,1.77477622354484,1.77325867226348,1.95850558089321,1.77229819676895,1.77104957862607,1.77184677328652,1.76833143297655,1.76999305558208,1.76882127547876,1.76756305258093,1.76760147160071,1.76797605704357,1.76780317145456,1.76845629479084,1.76545961124791,1.76501779252043,1.76529633041384,1.76717886238312,1.76889811351832,1.86740448023717,1.86558918155251,1.7712896974997,1.77007949837659,1.88150426049685,1.81874679168436
1.74708571503758,1.84776275637406,1.83188609644951,1.83274091963964,1.74422349806388,1.74340709389353,1.92861558350348,1.92759747947928,1.78709912413964,1.90250985956219,1.73679902249118,1.73596340881094,1.73630917998897,1.73494530478674,1.73433060047024,1.78206623254831,1.73390799125265,1.73224636864711,1.8350652703364,1.82312655993941,1.73050790800202,1.7776960690482,1.77865654454273,1.72735754837996,1.77833958762954,1.72571513528432,1.72769371480305,1.72558066871508,1.72702138195688,1.7268773106327,1.7264547014151,1.72875023784703,1.72818355730526,1.82771763280325,1.72849090946351,1.72861577127779,1.78934663679684,1.78867430395067,1.860412218637,1.86064273275569,1.85983593334029,1.8580782631853,1.85845284862817,1.78103852376916,1.85628217401053,1.852161734139,1.85439003728631,1.96551705200327,1.85231541021813,1.85076904467194,1.77521804227232,1.88120651309355,1.84754184701032,1.8476859183345,1.84769552308945,1.84516947253884,1.88247434074633,1.84213436997613,1.84215357948602,1.88160991280125,1.88070706583639,1.84078009952884,1.83738001627821,1.83947385285628,1.83867665819582,1.83665965965731,1.76236688015553,1.8804957612276,1.83714950215952,1.8791607002902,1.83726475921887,1.83676531196171,1.83620823617488,1.87931437636933,1.88062062304189,1.76590142997539,1.8796697523023,1.88087034667046,1.76713083860839,1.76787040473918,1.8477915706389,1.8776335442539,1.9514845050282,1.95174383341173,1.96438369091972,1.87757591572423,1.87960251901769,1.78839576605725,1.95522075470192,1.97112622889131,1.9324382759717,1.92437028181766,1.92423581524843,1.95347268930188,1.8484927177499,1.94185093581808,1.92770313178368,1.93493551225748,1.84590903866962,1.84634125264216,1.84635085739711,1.84547682469708,1.84344061664868,1.84507342498938,1.91931818071644,1.91816561012301,1.91841533375158,1.91968316140436,1.9200097230725,1.94463631475221,1.84560168651137,1.91562995481745,1.84456437297728,1.93324507538711,1.9316314765563,1.949765253893,1.93459934583439,1.92467763397591,1.93574231167288,1.84683109514437,1.93657792535312,1.93484906946297,1.93457053156956,1.84566891979599,1.93373491788932,1.93361966082997,1.94351255842362,1.93432080794098,1.84825259887627,1.94069836522465,1.93288969945413,1.92088375577252,1.84569773406083,1.9292783115947,1.84627401935754,1.92919186880019,1.92344822534291,1.93762484364216,1.84837746069056,1.93414792235196,1.93316823734754,1.93604966383113,1.92928791634965,1.94038140831145,1.9346857886289,1.93437843647065,1.93065179155188,1.93782654349601,1.93722144393445,1.93738472476852,1.93960342316089,1.94176449302357,1.93561744985859,1.91528418363942,1.8428931456168,1.92462000544624,1.84094338036291,1.84138519909039,1.91645596374275,1.84240330311459,1.84204792718162,1.83933938628705,1.84468923479157,1.9179735150241,1.91618703060428,1.9168497586955,1.91489038868666,1.92275668298685,1.93128570537827,1.77523725178221,1.77320104373381,1.77352760540195,1.77142416406893,1.94871833560396,1.96077230306029,1.76615115360397,1.76687151022487,1.95551850210522,1.97070361967372,1.7687444374392,1.76768791439522,1.76576696340616,1.94786351241383,1.76799526655347,1.76603589654463,1.76898455631283,1.7686387851348,1.76936874651064,1.94157239792467,1.76843708528095,1.76896534680294,1.86894124102842,1.76909020861723,1.81745014976674
1.74775804788375,1.74842077597497,1.85138374898844,1.74545290669688,1.84409373998496,1.91759892958124,1.84616836705315,1.85101876830051,1.74237938511439,1.7888087705199,1.82872613207251,1.73915218745277,1.82871652731756,1.78430414045056,1.78500528756157,1.73570408042741,1.73584815175159,1.83882072952,1.85262276237638,1.7323712304614,1.73142035972182,1.82166663718772,1.81890046776348,1.81964003389427,1.73097854099433,1.72861577127779,1.72839486191405,1.77752318345919,1.77643784615037,1.77706215522182,1.72872142358219,1.72908640427011,1.82579668181419,1.72946098971298,1.73068079359103,1.73159324531083,1.88390544923317,1.88404952055735,1.86137269413153,1.86097889917878,1.88269525011007,1.78550473481872,1.78533184922971,1.88331955918151,1.88220540760786,1.8839534730079,1.96590124220108,1.85206568658955,1.88505801982661,1.85081706844666,1.77590958462838,1.84984698819719,1.96400910547686,1.88223422187269,1.88124493211333,1.88112007029904,1.76982977474801,1.84126994203105,1.88268564535512,1.84271065527284,1.84137559433545,1.84199029865195,1.76565170634682,1.76477767364679,1.838119582409,1.88056299451221,1.76422059785997,1.76590142997539,1.83548787955399,1.83776420647602,1.8352573654353,1.83749527333755,1.83628507421445,1.76436466918415,1.88013078053968,1.83838851554746,1.83795630157493,1.83800432534965,1.87942963342867,1.88129295588806,1.76921507043152,1.8792663525946,1.96312546802189,1.97089571477263,1.77952097248781,1.85649347861933,1.85823193926442,1.78780027125064,1.87800812969677,1.97851228544424,1.95443316479641,1.94136109331587,1.92392846309018,1.94890082594792,1.9219402788165,1.8479836657378,1.93133372915299,1.93309139930798,1.84695595695866,1.8466678143103,1.84598587670919,1.84597627195424,1.845140658274,1.8456497102861,1.92784720310786,1.9203266799857,1.92046114655493,1.91955829959007,1.91976960419887,1.93496432652231,1.84741698519603,1.93463776485417,1.91958711385491,1.94559679024674,1.84529433435312,1.94057350341036,1.84607231950369,1.84721528534218,1.9323326236673,1.93707737261027,1.84736896142131,1.93746156280809,1.93092072469035,1.9379321958004,1.93166029082113,1.93931528051253,1.94091927458839,1.93683725373664,1.92462000544624,1.95004379178641,1.93595361628168,1.92801048394193,1.92579178554956,1.94070796997959,1.92426462951326,1.93090151518046,1.84727291387185,1.93686606800148,1.84810852755209,1.94774825535449,1.94502050495003,1.93390780347833,1.84570733881577,1.93116084356398,1.93512760735638,1.93364847509481,1.93431120318603,1.92789522688258,1.93372531313437,1.93387898921349,1.91617742584933,1.93777851972128,1.84381520209155,1.91768537237574,1.91903003806808,1.93868136668614,1.91671529212627,1.93491630274759,1.92151766959891,1.84288354086186,1.9335620323003,1.841980693897,1.8428067028223,1.84002132388816,1.84039590933103,1.93322586587722,1.92345783009786,1.93736551525863,1.91486157442183,1.82299209337017,1.82137849453936,1.81914058663711,1.77325867226348,1.81837220624149,1.76819696640732,1.76573814914132,1.76875404219414,1.76788961424907,1.76787040473918,1.76838906150622,1.767726333415,1.76673704365563,1.768427480526,1.7676206811106,1.76765910013038,1.76788000949412,1.76759186684576,1.77079025024254,1.8720339721208,1.9444634291632,1.76917665141174,1.76953202734471,1.95119636237984,1.77000266033703
1.85132612045876,1.74934283244972,1.85065378761259,1.74727781013648,1.74538567341226,1.92481210054515,1.92461040069129,1.84701358548833,1.74025673427148,1.7896155699353,1.7952151420684,1.73965163470993,1.73799961685934,1.78635955800885,1.73799001210439,1.91711869183397,1.91509208854052,1.73486846674717,1.92017300390657,1.92873084056282,1.73180454991963,1.78113457131862,1.73118984560313,1.72939375642836,1.89375032305209,1.72986438942068,1.72658916798434,1.73131470741742,1.72914403279978,1.77711978375149,1.82171466096245,1.81403085700622,1.7287022140723,1.77863733503284,1.72947059446792,1.86787511322949,1.79096984038259,1.96483511440215,1.96091637438447,1.96153107870097,1.86097889917878,1.86019130927326,1.78837655654736,1.88393426349801,1.88440489649033,1.95785245755693,1.85463015615994,1.85197924379504,1.77978990562628,1.97413251718919,1.77825314483503,1.96343282018014,1.88525011492551,1.84814694657187,1.8475802660301,1.95350150356671,1.88227264089247,1.84306603120582,1.8843568727156,1.76793763802379,1.88285853094414,1.88285853094414,1.88386703021339,1.76654494855673,1.83926254824749,1.8379082778002,1.83877270574528,1.88421280139142,1.88327153540678,1.76326972712038,1.83754329711228,1.83747606382766,1.84092417085302,1.83968515746508,1.88155228427158,1.88208054579357,1.88185963642983,1.88145623672213,1.96670804161648,1.7705693408788,1.84835825118067,1.84876165088837,1.77653389369982,1.88042852794298,1.85460134189511,1.78308433657251,1.78901047037375,1.96110846948338,1.87823864381545,1.96781258843519,1.85068260187743,1.9417068644939,1.9414091170906,1.94500129544014,1.93758642462237,1.93684685849159,1.93719262966962,1.9360016400564,1.84708081877295,1.84723449485207,1.84848311299496,1.84657176676085,1.84485251562564,1.92096059381209,1.92005774684723,1.92152727435386,1.93753840084765,1.84493895842015,1.92192106930661,1.94445382440825,1.92036509900548,1.92042272753515,1.9213447840099,1.92016339915163,1.91986565174832,1.84588982915973,1.84637967166194,1.92787601737269,1.93395582725306,1.92483131005504,1.94409844847528,1.93028681086396,1.84781078014879,1.8484927177499,1.849001769762,1.84782038490373,1.93065179155188,1.93728867721907,1.84818536559166,1.93804745285975,1.93643385402894,1.94135148856093,1.84809892279715,1.92721328928147,1.93836440977294,1.92447593412206,1.93138175292772,1.93166029082113,1.84604350523886,1.84810852755209,1.8481949703466,1.8473881709312,1.93408068906735,1.93507958358166,1.94328204430493,1.93387898921349,1.9346857886289,1.93863334291141,1.93490669799264,1.84620678607293,1.8455440579817,1.93457053156956,1.93149700998706,1.91907806184281,1.93841243354767,1.93474341715857,1.84264342198823,1.92697317040783,1.84091456609807,1.84278749331241,1.84119310399149,1.8407704947739,1.92005774684723,1.92131596974506,1.84070326148928,1.93388859396844,1.92451435314184,1.93547337853441,1.93522365490583,1.77618812252179,1.77450729040637,1.84814694657187,1.76977214621834,1.87055483985923,1.77113602142057,1.7692534894513,1.95493261205356,1.76787040473918,1.76829301395677,1.85271880992583,1.81450148999854,1.81405967127106,1.81561564157219,1.81432860440952,1.76812012836775,1.76544040173802,1.94873754511385,1.76852352807546,1.95879372354157,1.87183227226695,1.7655844730622,1.94420410077968,1.770886297792,1.7706749931832
1.75136943574318,1.74910271357609,1.74828630940574,1.74820947136618,1.74789251445298,1.85056734481809,1.74505911174412,1.8480028752477,1.74119800025612,1.74223531379021,1.74292685614627,1.78875114199023,1.78799236634955,1.78814604242867,1.73931546828684,1.73552159008345,1.84491014415531,1.83987725256398,1.73434980998013,1.83953148138595,1.73437862424497,1.73358142958451,1.78148034249665,1.89527747908839,1.82241580807345,1.73150680251632,1.77977069611639,1.77977069611639,1.77963622954715,1.77951136773286,1.73158364055589,1.73251530178558,1.73171810712512,1.81477042313701,1.78021251484387,1.8221276654251,1.86512815331514,1.79408178098486,1.95847676662837,1.88753604660249,1.88861177915636,1.86293826918761,1.86111336574801,1.886393080764,1.88852533636186,1.78464030687365,1.96467183356808,1.85270920517089,1.85530248900611,1.88608572860575,1.85498553209292,1.77748476443941,1.88702699459039,1.88560549085849,1.88434726796066,1.77428638104263,1.77255752515248,1.8826184120705,1.76922467518646,1.76865799464469,1.84140440860028,1.84228804605525,1.84209595095634,1.88257999305072,1.97161607139352,1.88252236452105,1.83792748731009,1.8376105303969,1.76464320707756,1.76444150722371,1.83906084839363,1.76612233933913,1.83938741006177,1.76616075835892,1.76724609566773,1.88187884593972,1.84263381723328,1.84364231650254,1.84381520209155,1.95302126581945,1.96107965521854,1.88190766020455,1.88156188902652,1.77939611067352,1.85427478022697,1.78465951638354,1.88094718471003,1.78878956101001,1.87869006729788,1.97561164945076,1.94729683187206,1.95132122419413,1.92983538738153,1.95131161943919,1.85065378761259,1.8511436301148,1.93667397290257,1.93739432952347,1.84904018878179,1.84805089902242,1.84760908029494,1.84766670882461,1.92427423426821,1.92668502775948,1.92690593712322,1.92729012732103,1.93810508138942,1.84741698519603,1.84710963303778,1.93776891496634,1.92086454626263,1.92035549425053,1.92175778847254,1.94520299529399,1.93522365490583,1.93177554788048,1.84875204613343,1.84763789455977,1.93383096543877,1.93754800560259,1.93431120318603,1.94120741723675,1.84916505059607,1.92133517925495,1.92126794597033,1.94033338453673,1.94379109631703,1.84898256025211,1.85041366873896,1.84911702682135,1.84987580246203,1.93832599075316,1.92641609462101,1.92522510500779,1.93189080493982,1.9305077202277,1.93590559250695,1.84721528534218,1.94494366691046,1.93128570537827,1.84751303274549,1.84839667020045,1.8484062749554,1.92971052556724,1.9313145196431,1.93136254341783,1.9375287960927,1.9405831081653,1.84581299112017,1.93611689711575,1.94513576200937,1.91806956257355,1.91825205291751,1.91912608561754,1.94398319141594,1.91931818071644,1.91757972007134,1.84264342198823,1.84241290786954,1.84264342198823,1.84200950816184,1.91472710785259,1.9204131227802,1.91718592511859,1.91862663836038,1.91741643923728,1.91681133967572,1.84074168050906,1.93094953895518,1.77593839889322,1.77788816414711,1.77142416406893,1.86538748169866,1.77171230671729,1.77092471681178,1.77022356970077,1.76907099910734,1.8737724327659,1.76506581629515,1.76478727840174,1.81443425671392,1.81361785254357,1.76698676728421,1.76548842551275,1.76778396194467,1.76833143297655,1.94896805923254,1.96086835060975,1.95438514102168,1.96608373254504,1.7685331328304,1.76836985199633,1.76774554292489,1.87168820094277
0,0,0,0,0,0,0,0,0,0,0,0,0,0,0,0,0,0,0,0,0,0,0,0,0,0,0,0,0,0,0,0,0,0,0,0,0,0,0,0,0,0,0,0,0,0,0,0,0,0,0,0,0,0,0,0,0,0,0,0,0,0,0,0,0,0,0,0,0,0,0,0,0,0,0,0,0,0,0,0,0,0,0,0,0,0,0,0,0,0,0,0,0,0,0,0,0,0,0,0,0,0,0,0,0,0,0,0,0,0,0,0,0,0,0,0,0,0,0,0,0,0,0,0,0,0,0,0,0,0,0,0,0,0,0,0,0,0,0,0,0,0,0,0,0,0,0,0,0,0,0,0,0,0,0,0,0,0,0,0,0,0,0,0,0,0,0,0,0,0,0,0,0,0,0,0,0,0,0,0,0,0,0,0,0,0,0,0,0,0,0,0,0,0
1.79839431595529,1.75304066310366,1.75108129309482,1.79819261610144,1.79935479144982,1.8359777220562,1.92527312878252,1.74692243420351,1.74565460655073,1.7450110879694,1.91757972007134,1.74190875212207,1.84429543983881,1.74143811912975,1.8442282065542,1.73736570303295,1.73755779813185,1.84817576083671,1.84156768943435,1.84102021840247,1.73385996747792,1.84734014715647,1.84776275637406,1.78099049999444,1.78042381945266,1.78094247621971,1.78115378082851,1.73029660339322,1.73235202095151,1.83092562095498,1.83211661056819,1.73148759300643,1.82882217962196,1.73410008635155,1.73493570003179,1.8666264950866,1.8885349411168,1.96218420203725,1.88868861719593,1.79089300234303,1.89044628735091,1.88771853694645,1.86281340737333,1.88824679846844,1.78773303796603,1.88949541661133,1.85761723494793,1.88622979992993,1.88574956218267,1.85358323787091,1.88568232889805,1.88644110453873,1.88476987717825,1.84867520809387,1.97434382179798,1.84826220363122,1.77175072573707,1.84428583508387,1.84469883954652,1.8429987979212,1.88619138091015,1.84381520209155,1.96679448441099,1.83987725256398,1.83921452447276,1.88383821594856,1.83989646207387,1.76495055923581,1.84000211437827,1.76342340319951,1.83823483946834,1.83869586770571,1.8399444858486,1.76594945375012,1.88276248339468,1.76801447606336,1.96160791674053,1.84282591233219,1.8427010505179,1.77193321608103,1.7743440095723,1.77633219384597,1.97097255281219,1.85117244437964,1.85463015615994,1.85760763019298,1.88036129465836,1.97132792874516,1.88088955618035,1.97330650826389,1.94072717948948,1.9340710843124,1.93427278416625,1.96086835060975,1.93882543801032,1.85122046815437,1.94433856734891,1.84848311299496,1.84661979053557,1.84864639382903,1.8487040223587,1.84873283662354,1.9264353041309,1.92862518825842,1.92749182717488,1.92733815109576,1.84764749931472,1.9366163443729,1.84772433735428,1.93636662074432,1.84764749931472,1.84780117539384,1.93705816310038,1.9501686536007,1.93497393127726,1.93800903383997,1.93291851371897,1.8485983700543,1.8487040223587,1.84890572221255,1.84856955578947,1.84863678907408,1.92893254041667,1.93391740823328,1.93837401452789,1.93773049594655,1.93592480201684,1.85066339236754,1.9438487248467,1.93819152418393,1.93606887334102,1.92574376177484,1.94122662674664,1.93093032944529,1.92864439776831,1.94070796997959,1.93262076631566,1.9350891883366,1.91714750609881,1.93486827897286,1.93032522988374,1.93130491488816,1.84729212338174,1.84777236112901,1.92414937245392,1.92347703960775,1.92115268891099,1.84552484847181,1.84585141013995,1.84667741906525,1.84572654832566,1.93740393427841,1.84582259587512,1.84393045915089,1.92807771722654,1.84195187963217,1.84376717831682,1.92766471276389,1.84330615007945,1.84427623032892,1.84353666419814,1.84225923179041,1.91874189541972,1.92070126542856,1.91562995481745,1.91598533075043,1.91752209154167,1.91645596374275,1.92461040069129,1.85831838205893,1.86854744607566,1.77124167372497,1.86901807906798,1.77166428294256,1.77177954000191,1.9656515185725,1.96790863598464,1.76672743890069,1.76792803326885,1.76610312982924,1.76575735865121,1.76607431556441,1.7650754210501,1.76498897825559,1.76719807189301,1.96544981871865,1.76775514767983,1.87410859918898,1.7648641164413,1.86047945192162,1.86477277738216,1.76836985199633,1.7691478371469,1.87107349662627
1.92863479301337,1.85484146076874,1.79941241997949,1.79874969188827,1.75168639265637,1.83783143976064,1.74968860362775,1.92559008569571,1.74692243420351,1.92209395489563,1.83762013515184,1.93081507238595,1.74135167633524,1.92842348840457,1.82911992702526,1.92375557750116,1.74042001510555,1.73811487391868,1.73823973573297,1.73627076096919,1.73703914136481,1.73658771788238,1.9323326236673,1.7336870818889,1.73532949498455,1.73487807150212,1.73202545928337,2.02856266346412,1.73025818437344,1.73113221707346,1.8340471663122,1.73384075796803,1.73380233894825,1.73265937310976,1.88687331851127,1.88759367513216,1.96847531652641,1.89092652509818,1.8884292888124,1.8887462457256,1.89054233490037,1.86373546384807,1.86189135089858,1.86151676545571,1.88841007930251,1.85863533897213,1.85908676245455,1.85766525872265,1.85498553209292,1.85442845630609,1.88756486086733,1.9602440415383,1.84860797480925,1.84944358848949,1.77723504081083,1.77522764702727,1.7730089486349,1.96097400291415,1.77193321608103,1.84601469097402,1.88550944330904,1.88419359188153,1.84053037590026,1.8425953982135,1.84273946953768,1.76849471381062,1.84152927041457,1.7668138816952,1.84196148438711,1.84213436997613,1.8408569375684,1.88422240614637,1.84116428972665,1.88492355325737,1.8412603372761,1.84207674144645,1.96706341754946,1.88464501536396,1.84447793018278,1.84588022440479,1.84777236112901,1.77577511805915,1.85184477722581,1.85265157664121,1.85849126764795,1.88114888456388,1.86411965404588,1.8650128962558,1.88174437937048,1.97347939385291,1.85493750831819,1.94484761936101,1.94804600275779,1.85377533296981,1.92452395789679,1.93184278116509,1.94041982733123,1.85037524971918,1.84930912192025,1.85096113977084,1.84955884554883,1.8488096746631,1.92636807084628,1.9282602075705,1.92382281078578,1.92192106930661,1.84858876529936,1.93179475739037,1.94073678424443,1.93850848109712,1.84869441760376,1.849001769762,1.94465552426211,1.93751919133776,1.93889267129493,1.93704855834544,1.92216118818025,1.92060521787911,1.94463631475221,1.84977975491257,1.94774825535449,1.94009326566309,1.93430159843109,1.85143177276316,1.93841243354767,1.94157239792467,1.85073062565216,1.92819297428589,1.94220631175106,1.84957805505872,1.94154358365983,1.94412726274011,1.9410921601774,1.84991422148181,1.94077520326421,1.84846390348507,1.94046785110596,1.93826836222349,1.94138030282576,1.95215683787437,1.92647372315068,1.92845230266941,1.92788562212764,1.94185093581808,1.94408884372033,1.949765253893,1.92718447501663,1.93877741423559,1.8454384056773,1.92807771722654,1.94342611562911,1.93400385102778,1.92982578262658,1.93116084356398,1.92638728035617,1.92810653149138,1.92931673061448,1.91865545262522,1.91863624311533,1.8408569375684,1.92034588949559,1.84189425110249,1.91877070968456,1.91815600536806,1.91693620149001,1.92502340515394,1.93088230567057,1.91812719110323,1.84255697919372,1.82403901165921,1.77591918938333,1.77201005412059,1.77186598279642,1.77058855038869,1.95894739962069,1.77004107935681,1.76799526655347,1.76787040473918,1.76788000949412,1.76804329032819,1.76718846713806,1.765267516149,1.97362346517709,1.766496924782,1.76613194409408,1.7678319857194,1.76796645228863,1.87572219801979,1.76742858601169,1.76729411944246,1.86285182639311,1.81499133250075,1.76959926062933,1.95594111132282
1.75310789638827,1.75614299895098,1.93772089119161,1.79851917776958,1.79936439620477,1.75138864525307,1.79701123124317,1.74832472842552,1.74678796763427,1.74864168533871,1.92772234129357,1.84869441760376,1.7428692276166,1.84839667020045,1.74250424692868,1.74298448467594,1.74124602403084,1.74184151883745,1.73975728701433,1.73758661239669,1.73723123646372,1.7357424994472,1.92050917032966,2.01482786389236,1.84155808467941,1.84152927041457,1.73482044297245,1.9126716902943,1.73264016359987,1.73488767625707,1.7345130908142,1.73479162870761,1.90423871545234,1.73361024384934,1.73473400017794,1.86816325587785,1.86945989779546,1.79339984338375,1.96423961959554,1.86657847131188,1.86519538659976,1.89378874207187,1.89218474799601,1.86270775506893,1.89059996343004,1.88835245077284,1.97161607139352,1.8558307505281,1.8559364028325,1.78163401857577,1.85504316062259,1.88712304213984,1.77821472581525,1.85073062565216,1.88768011792667,1.89152201990478,1.88852533636186,1.88803549385965,1.84491014415531,1.8854806290442,1.77213491593488,1.84265302674317,1.84149085139479,1.84293156463658,1.76818736165237,1.8417885987981,1.76812012836775,1.84087614707829,1.76666020561607,1.84321970728494,1.76792803326885,1.76946479406009,1.886393080764,1.8846738296288,1.84404571621024,1.84499658694982,1.8457553625905,1.77269199172171,1.84641809068172,1.84782038490373,1.97171211894297,1.84963568358839,1.85194082477526,1.85647426910944,1.96772614564068,1.85924043853368,1.88458738683429,1.86362981154368,1.96719788411869,1.81089010213911,1.85615731219624,1.93097835322002,1.85266118139616,1.85441885155115,1.92556127143088,1.95355913209638,1.92452395789679,1.85276683370056,1.85239224825769,1.851460587028,1.92710763697707,1.92705961320234,1.92841388364963,1.8489153269675,1.92477368152536,1.93077665336617,1.92359229666709,1.94131306954115,1.93643385402894,1.93590559250695,1.93041167267825,1.85018315462027,1.85083627795655,1.85139335374338,1.85150861080272,1.94841098344571,1.85068260187743,1.94450184818298,1.92543640961659,1.92235328327915,1.92449514363195,1.92494656711438,1.94568323304125,1.85088430173128,1.85011592133566,1.8504424830038,1.94729683187206,1.93126649586838,1.94733525089184,1.92124873646044,1.85230580546318,1.9306133725321,1.93927686149275,1.93686606800148,1.93338914671128,1.93602084956629,1.93512760735638,1.93319705161238,1.94034298929167,1.93014273953978,1.84735935666636,1.93342756573107,1.93532930721023,1.93476262666846,1.84848311299496,1.93545416902452,1.94146674562027,1.94550074269729,1.92553245716604,1.92372676323633,1.93521405015089,1.84729212338174,1.93791298629051,1.92395727735501,1.94177409777852,1.84513105351905,1.93126649586838,1.84303721694098,1.93043088218814,1.84392085439595,1.92002893258239,1.92047075130988,1.92141201729451,1.9216425314132,1.92027865621097,1.91679213016583,1.84205753193656,1.91822323865268,1.84169255124864,1.77771527855809,1.96181922134933,1.77258633941731,1.7714817925986,1.96431645763511,1.96407633876147,1.97403646963973,1.76810091885786,1.96698657950989,1.9612621455625,1.76581498718089,1.76443190246876,1.95861123319761,1.97055954834954,1.76375956962259,1.7658822204655,1.76499858301054,1.76795684753368,1.76668901988091,1.76510423531493,1.76886929925349,1.81539473220845,1.8173348927074,1.87133282500979,1.76855234234029
1.75448137634545,1.75548027085976,1.86170886055462,1.75408758139269,1.80211135611912,1.92793364590236,1.8551296034171,1.75170560216626,1.74680717714416,1.74660547729031,1.92696356565289,1.93493551225748,1.74254266594846,1.74466531679137,1.74285001810671,1.9184825670362,1.78874153723528,1.74171665702316,1.91874189541972,1.73886404480441,1.84396887817068,1.73870076397034,1.73596340881094,1.73702953660986,1.73599222307577,1.78448663079452,1.84134678007061,1.73610748013512,1.78204702303842,1.73494530478674,1.78298828902306,1.73366787237901,1.73664534641205,1.90501670060291,1.73635720376369,1.73800922161428,1.96783179794508,1.79597391770908,1.86864349362511,1.86782708945477,1.89117624872675,1.7918630825925,1.79103707366721,1.89161806745424,1.86395637321181,1.86100771344361,1.97093413379241,1.78466912113848,1.78512054462091,1.85772288725232,1.78154757578126,1.8889383408245,1.85178714869614,1.97794560490247,1.85117244437964,1.84846390348507,1.84872323186859,1.84767631357956,1.84520789155862,1.98776166445655,1.84436267312343,1.77194282083598,1.88474106291341,1.76915744190184,1.77013712690626,1.84121231350138,1.88697897081566,1.84120270874643,1.84203832242667,1.88666201390247,1.88664280439258,1.8871134373849,1.84207674144645,1.77072301695793,1.84396887817068,1.84498698219488,1.85106679207524,1.77276882976127,1.84588982915973,1.88692134228599,1.88769932743656,1.85057694957303,1.85585956479294,1.85515841768193,1.85696411161165,1.88499078654199,1.88412635859691,1.96791824073959,1.9673899792176,1.96850413079125,1.85646466435449,1.94648042770171,1.94868952133913,1.92789522688258,1.94534706661817,1.92709803222212,1.92766471276389,1.85232501497307,1.8522673864434,1.85106679207524,1.92733815109576,1.92718447501663,1.92862518825842,1.92703079893751,1.92600309015836,1.92496577662427,1.93576152118277,1.92074928920329,1.94129386003126,1.94041982733123,1.94980367291278,1.92179620749233,1.93871018095097,1.954855774014,1.94637477539731,1.94499169068519,1.95349189881177,1.9245047483869,1.92518668598801,1.93694290604104,1.85142216800822,1.85171031065658,1.85184477722581,1.93329309916183,1.94664370853578,1.85223857217857,1.93342756573107,1.94035259404662,1.93128570537827,1.93151621949695,1.93819152418393,1.93353321803546,1.85199845330493,1.93577112593772,1.93526207392562,1.93361005607503,1.85058655432798,1.94440580063353,1.93541575000474,1.92819297428589,1.93674120618719,1.9316314765563,1.92852914070897,1.93792259104546,1.9349835360322,1.95127320041941,1.94103453164773,1.94444421965331,1.94040061782134,1.93940172330703,1.92900937845623,1.93059416302221,1.84695595695866,1.84567852455094,1.84441069689816,1.84511184400916,1.84383441160144,1.93376373215415,1.84393045915089,1.84283551708713,1.84813734181693,1.92422621049348,1.92099901283187,1.9188859667439,1.91934699498128,1.92665621349464,1.91723394889331,1.92110466513626,1.92211316440552,1.95778522427231,1.77492989962396,1.77216373019972,1.77326827701843,1.76943597979526,1.76879246121392,1.76694834826443,1.8776335442539,1.87477132728021,1.76644890100727,1.96369214856366,1.76512344482482,1.76703479105894,1.76736135272708,1.76613194409408,1.76500818776548,1.76458557854789,1.85711778769077,1.81403085700622,1.76556526355231,1.96459499552852,1.76750542405126,1.8713136154999,1.76826419969193,1.76785119522929
1.75482714752348,1.75643114159934,1.94038140831145,1.75506726639711,1.75483675227842,1.85734830180946,1.85618612646108,1.74921797063543,1.75145587853768,1.74850721876948,1.74899706127169,1.83812918716394,1.79447557593762,1.79443715691784,1.74222570903526,1.83446977552979,1.81537552269856,1.7916517779837,1.79082576905841,1.90788852233155,1.93495472176737,1.7394979586308,1.73821092146813,1.73655890361755,1.84467002528168,1.86241961242057,1.73727926023844,1.73840301656704,1.73815329293846,1.73739451729779,1.78336287446592,1.8364867740683,1.73432099571529,1.73787475504505,1.73829736426264,1.7393923063264,1.87147689633397,1.89454751771255,1.89551759796202,1.89397123241583,1.79568577506072,1.8925017049092,1.89096494411796,1.864801591647,1.86202581746781,1.86189135089858,1.86159360349527,1.8610269229535,1.85742513984902,1.85637822155998,1.78302670804284,1.78321880314174,1.95581624950853,1.85399624233355,1.85100916354557,1.85231541021813,1.97149120957923,1.96394187219224,1.88852533636186,1.97605346817824,1.84679267612459,1.84606271474875,1.84545761518719,1.84420899704431,1.77082866926232,1.84277788855746,1.84343101189374,1.84073207575411,1.84276828380251,1.84233606982998,1.84119310399149,1.77019475543594,1.7719044018162,1.84162531796403,1.84322931203989,1.77008910313154,1.84496777268498,1.84571694357072,1.84699437597844,1.77521804227232,1.85041366873896,1.78039500518783,1.78170125186039,1.88531734821013,1.88474106291341,1.95951408016246,1.88445292026505,1.88402070629252,1.96668883210659,1.97661054396507,1.93766326266194,1.95432751249201,1.93736551525863,1.85587877430283,1.9508698007117,1.93594401152673,1.93686606800148,1.93725986295424,1.92977775885186,1.9322461808728,1.85231541021813,1.85261315762143,1.85217133889395,1.92901898321118,1.92772234129357,1.93429199367614,1.93292811847391,1.85078825418183,1.94542390465773,1.93360045132008,1.93794180055535,1.92200751210112,1.92443751510228,1.9243990960825,1.8509515350159,1.95585466852831,1.94952513501936,1.92417818671876,1.92571494751,1.94328204430493,1.93777851972128,1.85225778168846,1.94803639800285,1.93253432352115,1.93439764598054,1.92623360427705,1.93782654349601,1.94077520326421,1.94753695074569,1.9312280768486,1.85177754394119,1.93634741123443,1.85100916354557,1.93424396990142,1.93761523888721,1.9362129446652,1.94683580363468,1.93076704861122,1.93087270091562,1.94735446040173,1.94064073669498,1.94401200568077,1.93078625812111,1.93402306053767,1.8481949703466,1.8481949703466,1.84844469397518,1.8473881709312,1.84799327049275,1.8489153269675,1.94470354803683,1.84703279499822,1.93157384802663,1.93717342015973,1.84556326749159,1.84556326749159,1.93188120018488,1.92319850171434,1.84418018277947,1.84444911591794,1.84334456909923,1.84227844130031,1.92060521787911,1.92258379739784,1.91991367552305,1.92481210054515,1.84054958541015,1.92270865921213,1.84336377860912,1.77437282383714,1.77431519530746,1.77314341520414,1.89142597235533,1.76850431856557,1.81959201011954,1.76909020861723,1.76868680890953,1.76810091885786,1.76796645228863,1.87444476561207,1.87358994242194,1.87566456949012,1.87399334212964,1.76460478805778,1.76476806889185,1.8928186618224,1.76786079998423,1.76586301095561,1.76597826801496,1.76499858301054,1.76476806889185,1.76796645228863,1.76801447606336,1.95181106669634
1.92805850771665,1.80495436358292,1.80522329672139,1.75670967949275,1.75321354869267,1.75458702864985,1.85123967766426,1.85244987678736,1.7516287641267,1.94064073669498,1.75069710289701,1.79700162648823,1.82084062826243,1.7452031830683,1.85431319924675,1.92242051656377,1.74192796163196,1.74118839550117,1.83232791517699,1.83289459571876,1.74016068672203,1.84813734181693,1.84860797480925,1.83723594495403,1.83805234912438,1.8343449137155,1.73872957823518,1.7386911592154,1.84213436997613,1.7380764548989,1.73827815475275,1.78518777790553,1.78619627717478,1.7390945589231,1.73891206857914,1.89502775545981,1.89741933944119,1.8943458178587,1.79763554031462,1.87052602559439,1.86945989779546,1.89400965143561,1.86539708645361,1.86546431973822,1.86435977291952,1.86445582046897,1.86359139252389,1.86414846831072,1.89200225765205,1.78557196810334,1.85494711307314,1.85508157964237,1.8547069941995,1.85424596596213,1.77961702003726,1.89172371975864,1.96521930459996,1.8497221263829,1.77500673766352,1.84704239975317,1.84608192425864,1.84643730019161,1.7705693408788,1.89091692034323,1.84614915754325,1.84640848592678,1.84466042052674,1.8444203016531,1.76815854738753,1.84277788855746,1.84304682169593,1.9709533433023,1.8896586974454,1.84397848292562,1.88793944631019,1.77131851176453,1.8879202368003,1.85071141614227,1.77439203334703,1.8875168370926,1.85147019178294,1.85332390948738,1.8882371937135,1.88727671821897,1.88555746708376,1.88427042992109,1.8824263169716,1.88413596335186,1.88432805845077,1.81187939189848,1.95188790473591,1.95523996421181,1.9635096582197,1.93148740523212,1.94172607400379,1.85519683670171,1.93039246316836,1.92783759835291,1.85297813830935,1.92652174692541,1.92846190742435,1.8541979421874,1.85273801943572,1.93041167267825,1.9314201719475,1.9442521245544,1.85189280100054,1.94108255542246,1.94059271292025,1.85116283962469,1.93406147955746,1.85185438198075,1.92549403814626,1.85168149639174,1.92759747947928,1.92789522688258,1.85414031365773,1.92471605299569,1.946605289516,1.94132267429609,1.9418125167983,1.95089861497654,1.94351255842362,1.93004669199033,1.9334563799959,1.94462670999727,1.93195803822444,1.947306436627,1.93187159542993,1.93017155380461,1.94419449602473,1.93349479901568,1.94054468914552,1.93703895359049,1.93358124181019,1.93740393427841,1.93348519426074,1.94748892697096,1.93134333390794,1.93917120918835,1.9232753397539,1.94591374715994,1.92801048394193,1.84917465535102,1.849001769762,1.92757826996939,1.84846390348507,1.84833904167078,1.84821417985649,1.85045208775874,1.93336993720139,1.84782038490373,1.93435922696076,1.94043903684112,1.93495472176737,1.93709658212017,1.93596322103662,1.84508302974433,1.84506382023444,1.84655255725096,1.84603390048391,1.84566891979599,1.91991367552305,1.91530339314931,1.91998090880767,1.92685791334849,1.91751248678673,1.91630228766362,1.91414121780093,1.77612088923718,1.77494910913385,1.89376953256198,1.89359664697297,1.77063657416342,1.76879246121392,1.76846589954578,1.7692534894513,1.76764949537543,1.85904834343477,1.86744289925695,1.89384637060154,1.89315482824548,1.89104178215752,1.87393571359997,1.763336960405,1.87566456949012,1.76463360232262,1.76429743589953,1.86482080115689,1.84793564196308,1.94977485864794,1.7667946721853,1.85810707745014,1.76901337057767
1.84419939228936,1.75847695440269,1.80487752554336,1.80425321647192,1.80547302034997,1.85824154401937,1.75601813713669,1.84553445322676,1.85844324387322,1.74967899887281,1.75088919799591,1.7494869037739,1.74869931386839,1.84060721393983,1.74661508204526,1.79416822377937,1.74358958423749,1.923784391766,1.92462000544624,1.79008620292762,1.79101786415732,1.84646611445645,1.8477915706389,1.74040080559566,1.8617472795744,1.73894088284398,1.73778831225054,1.73954598240553,1.83968515746508,1.90850322664805,1.78561999187806,1.78649402457809,1.79787565918825,1.73863353068573,1.78861667542099,1.80138139474328,1.89703514924338,1.89802443900274,1.87091982054715,1.8710158680966,1.86934464073612,1.89565206453126,1.7921608299958,1.86476317262722,1.86402360649643,1.8621506792821,1.7880019711045,1.85927885755346,1.78416006912638,1.85985514285018,1.78549513006378,1.85798221563585,1.78207583730325,1.85448608483576,1.85431319924675,1.85449568959071,1.85144137751811,1.85116283962469,1.85045208775874,1.84893453647739,1.85051932104336,1.84574575783555,1.77324906750854,1.84860797480925,1.77202926363049,1.89141636760039,1.77085748352716,1.89044628735091,1.89059996343004,1.84446832542783,1.8441225542498,1.89090731558829,1.84528472959818,1.84358468797286,1.84513105351905,1.77415191447339,1.84424741606409,1.77521804227232,1.88856375538164,1.77804184022623,1.85246908629725,1.88831403175306,1.8576748634776,1.8575692111732,1.86168965104473,1.78963477944519,1.86950792157019,1.88382861119361,1.88428003467604,1.88539418624969,1.85883703882598,1.94782509339405,1.94084243654883,1.93908476639384,1.93169870984091,1.9426385257236,1.93246709023654,1.93119926258376,1.92575336652978,1.92854835021886,1.85455331812038,1.85273801943572,1.85230580546318,1.85375612345992,1.92828902183534,1.93353321803546,1.93145859096728,1.94701829397865,1.94496287642035,1.93564626412343,1.93551179755419,1.92617597574738,1.9367219966773,1.93571349740804,1.96025364629325,1.94819007408197,1.94804600275779,1.85253631958187,1.94508773823464,1.85414031365773,1.854620551405,1.85438043253137,1.85414991841268,1.85275722894561,1.85409228988301,1.9249081480946,1.94115939346202,1.93556942608386,1.9335620323003,1.94361821072801,1.92979696836175,1.93348519426074,1.94727762236217,1.9477290458446,1.85208489609944,1.93827796697844,1.92777036506829,1.93809547663448,1.92446632936711,1.85053853055325,1.93465697436406,1.93346598475085,1.94289785410712,1.85132612045876,1.85037524971918,1.84939556471476,1.85077864942688,1.8504424830038,1.93226539038269,1.94492445740057,1.94074638899937,1.94448263867309,1.91788707222959,1.84732093764658,1.93826836222349,1.91835770522191,1.93194843346949,1.93110321503431,1.84522710106851,1.84283551708713,1.84184622732777,1.91697462050979,1.84304682169593,1.8456497102861,1.91992328027799,1.84388243537617,1.92020181817141,1.91880912870434,1.8424897459091,1.77658191747455,1.77595760840311,1.88178279839026,1.77274962025138,1.8740701801692,1.87153452486365,1.87510749370329,1.87598152640331,1.85367928542036,1.76633364394793,1.76484490693141,1.76280869888301,1.76292395594235,1.81231160587101,1.81422295210513,1.86816325587785,1.75980241058514,1.85969186201611,1.87231251001421,1.96506562852084,1.86542590071844,1.94627872784786,1.76605510605452,1.76554605404242,1.7667946721853
1.84443951116299,1.75774699302685,1.8055210441247,1.75908205396424,1.75801592616531,1.75535540904547,1.75526896625096,1.75340564379158,1.84295077414648,1.75197453530473,1.75153271657725,1.83829246799801,1.74898745651674,1.9256092952056,1.74642298694635,1.74619247282767,1.74481899287049,1.74346472242321,1.74161100471877,1.84929951716531,1.92395727735501,1.7409386718726,1.7412364192759,1.73995898686818,1.73905613990332,1.73964202995498,1.83057984977695,1.74131325731546,1.84120270874643,1.914304498635,1.83770657794635,1.78762738566163,1.74146693339459,1.78845339458692,1.74013187245719,1.89512380300927,1.87441595134723,1.79947004850917,1.89872558611375,1.87133282500979,1.89756341076537,1.89800522949285,1.86894124102842,1.7941970380442,1.86233316962606,1.86567562434702,1.89743854895108,1.89613230227852,1.78755054762207,1.8943458178587,1.85751158264353,1.78508212560113,1.98426553365646,1.89513340776421,1.85448608483576,1.85571549346876,1.85620533597097,1.78027974812849,1.84686951416415,1.89335652809933,1.89274182378284,1.77448808089648,1.77297052961512,1.9844000002257,1.76992582229747,1.84558247700148,1.84495816793004,1.77261515368215,1.84500619170477,1.84323891679483,1.84398808768057,1.84496777268498,1.77103997387112,1.84499658694982,1.96435487665489,1.8893609500421,1.84499658694982,1.89059996343004,1.77607286546245,1.8501255260906,1.85316062865331,1.85511039390721,1.88918806445308,1.78642679129347,1.86164162727,1.86218909830188,1.86926780269656,1.8689796600482,1.97788797637279,1.97467038346612,1.94726801760722,1.85901952916994,1.95768917672286,1.94368544401263,1.95751629113384,1.85573470297865,1.94321481102031,1.8554273508204,1.8549182988083,1.85421715169729,1.85369849493025,1.85311260487859,1.85281485747528,1.85256513384671,1.92616637099243,1.92644490888584,1.93422476039152,1.95230090919855,1.94343572038405,1.85402505659839,1.92571494751,1.94646121819182,1.94727762236217,1.92816416002105,1.94707592250832,1.85394821855883,1.85416912792257,1.8540058470885,1.85269960041594,1.85496632258303,1.94172607400379,1.93534851672012,1.85507197488743,1.94846861197538,1.94102492689279,1.94718157481272,1.94150516464005,1.94219670699611,1.85373691395003,1.8518639867357,1.93088230567057,1.93721183917951,1.93874859997075,1.85152782031262,1.93536772623001,1.93364847509481,1.851460587028,1.94774825535449,1.85062497334776,1.94392556288626,1.85106679207524,1.85052892579831,1.92626241854188,1.94036219880156,1.92873084056282,1.94270575900821,1.8505481353082,1.93135293866288,1.93160266229146,1.85080746369172,1.93532930721023,1.84569773406083,1.84479488709597,1.84787801343341,1.93087270091562,1.92870202629799,1.93816270991909,1.84810852755209,1.84603390048391,1.8443338588586,1.92151766959891,1.84491974891026,1.84455476822234,1.84486212038059,1.84411294949485,1.84346943091352,1.91974078993403,1.91763734860102,1.84307563596076,1.77589037511849,1.96724590789342,1.77382535280525,1.77242305858324,1.8755973362055,1.77165467818762,1.87629848331651,1.87476172252526,1.7662856201732,1.87231251001421,1.87178424849222,1.8606235232458,1.81108219723802,1.76109905250275,1.76196348044783,1.76138719515111,1.76157929025001,1.87506907468351,1.76479688315669,1.87516512223296,1.76376917437754,1.86447502997886,1.76457597379294,1.76499858301054,1.76578617291605
1.76369233633798,1.75948545367194,1.93599203530146,1.83102166850443,1.80468543044446,1.80459898764995,1.86117099427768,1.93585756873222,1.75562434218394,1.75282935849486,1.75329999148718,1.8005169667982,1.75085077897613,1.74883378043762,1.74971741789259,1.75118694539922,1.92891333090678,1.74324381305946,1.74546251145183,1.83433530896055,1.85404426610828,1.85397703282366,1.74259068972318,1.83846535358703,1.83953148138595,1.7888087705199,1.79083537381335,1.74024712951653,1.74226412805505,1.74239859462428,1.74213926624076,1.83800432534965,1.74229294231988,1.9078981270865,1.74191835687701,1.74202400918141,1.87604875968793,1.8748961890945,1.8750882841934,1.8716305724131,1.87106389187133,1.8712271727054,1.79485976613543,1.79422585230904,1.86404281600632,1.79279474382219,1.79091221185292,1.86285182639311,1.86359139252389,1.86152637021066,1.8605178709414,1.85811668220508,1.8585873151974,1.89529668859828,1.98841478779283,1.98779047872138,1.97217314718035,1.85420754694235,1.85259394811154,1.85035604020929,1.77693729340753,1.84791643245319,1.84822378461144,1.89463396050706,1.85034643545435,1.773518000647,1.84523670582345,1.84576496734544,1.77153942112828,1.84560168651137,1.84349824517836,1.89228079554546,1.7751508089877,1.77614970350201,1.84458358248717,1.89416332751474,1.96458539077357,1.84824299412133,1.89073442999927,1.77763844051853,1.85356402836102,1.89003328288827,1.88937055479704,1.86096929442383,1.86176648908429,1.889553045141,1.86458068228326,1.7957434035904,1.88828521748822,1.88840047454757,1.93853729536196,1.95131161943919,1.94735446040173,1.93500274554209,1.93171791935081,1.85784774906661,1.85737711607429,1.93187159542993,1.9353869357399,1.85522565096655,1.85458213238522,1.93148740523212,1.93109361027936,1.93015234429472,1.92949922095844,1.85456292287533,1.94032377978178,1.92940317340899,1.92920147355514,1.92681949432871,1.92808732198149,1.93608808285091,1.93496432652231,1.94755616025558,1.94465552426211,1.95121557188974,1.95325177993814,1.85548497935007,1.85397703282366,1.95155173831282,1.93881583325537,1.94299390165657,1.94479959558628,1.85478383223907,1.95205118556998,1.96369214856366,1.94099611262795,1.94088085556861,1.85545616508524,1.94778667437427,1.85509118439732,1.95146529551831,1.92680028481882,1.85308379061375,1.93599203530146,1.92883649286722,1.8531798381632,1.94814205030724,1.92812574100127,1.92503300990889,1.85139335374338,1.95178225243151,1.93106479601453,1.92125834121539,1.9213447840099,1.85123007290931,1.92907661174085,1.85087469697634,1.93776891496634,1.84937635520487,1.84915544584113,1.94281141131261,1.8446316062619,1.92233407376926,1.92368834421655,1.92243012131871,1.93798021957513,1.84757066127516,1.92000011831756,1.84735935666636,1.84581299112017,1.84603390048391,1.84425702081903,1.84442990640805,1.84612994803336,1.84462200150695,1.92096059381209,1.93741353903336,1.9260319044232,1.77593839889322,1.87513630796813,1.77389258608987,1.7695512368546,1.87654820694508,1.87480014154504,1.95211841885459,1.7682353854271,1.76567091585671,1.87920872406493,1.76201150422255,1.81151441121055,1.76241490393025,1.76258778951927,1.76399968849623,1.96711144132418,1.76155047598518,1.76238608966542,1.76121430956209,1.76284711790279,1.76215557554673,1.76464320707756,1.76427822638964,1.76311605104126,1.87450239414174
0,0,0,0,0,0,0,0,0,0,0,0,0,0,0,0,0,0,0,0,0,0,0,0,0,0,0,0,0,0,0,0,0,0,0,0,0,0,0,0,0,0,0,0,0,0,0,0,0,0,0,0,0,0,0,0,0,0,0,0,0,0,0,0,0,0,0,0,0,0,0,0,0,0,0,0,0,0,0,0,0,0,0,0,0,0,0,0,0,0,0,0,0,0,0,0,0,0,0,0,0,0,0,0,0,0,0,0,0,0,0,0,0,0,0,0,0,0,0,0,0,0,0,0,0,0,0,0,0,0,0,0,0,0,0,0,0,0,0,0,0,0,0,0,0,0,0,0,0,0,0,0,0,0,0,0,0,0,0,0,0,0,0,0,0,0,0,0,0,0,0,0,0,0,0,0,0,0,0,0,0,0,0,0,0,0,0,0,0,0,0,0,0,0
1.94375267729725,1.86494566297118,1.76127193809177,1.76022501980273,1.76041711490163,1.75775659778179,1.75750687415321,1.75837130209829,1.75496161409271,1.75388588153884,1.75303105834871,1.80178479445098,1.75230109697287,1.85975909530073,1.751225364419,1.74871852337828,1.74652863925075,1.74790211920793,1.74831512367057,1.85147979653789,1.92625281378694,1.74507832125401,1.7434839319331,1.83998290486838,1.74227373280999,1.79038395033093,1.80220740366857,1.74201440442647,1.74339748913859,1.74299408943089,1.74180309981767,1.74288843712649,1.74363760801222,1.74381049360124,1.90960777346676,1.87829627234513,1.98994194382913,1.80205372758945,1.80163111837186,1.80103562356525,1.89992618048191,1.79868245860365,1.79530158486291,1.8950469649697,1.90033918494456,1.86741408499212,1.86468633458766,1.79024948376169,1.86216988879199,1.86141111315131,1.86151676545571,1.78588892501653,1.7877906664957,1.85726185901495,1.78301710328789,1.89618993080819,1.85444766581598,1.90055048955335,1.7796458343021,1.85097074452579,1.89752499174559,1.77773448806798,1.77496831864374,1.97814730475632,1.89826455787638,1.84588982915973,1.84495816793004,1.97127030021549,1.84591864342457,1.89419214177957,1.97092452903746,1.84899216500706,1.89225198128063,1.89164688171907,1.96700578901979,1.84947240275432,1.8937311135422,1.89177174353336,1.7783107733647,1.77888705866142,1.85579233150832,1.78149955200654,1.85765565396771,1.78741608105283,1.86164162727,1.86448463473381,1.88876545523549,1.88725750870908,1.87484816531977,1.98818427367414,1.95377043670518,1.86117099427768,1.93709658212017,1.86089245638427,1.94067915571476,1.95146529551831,1.94452105769287,1.9603496938427,1.93086309616068,1.9343688317157,1.93119926258376,1.85675280700285,1.85661834043362,1.93139135768267,1.85466857517972,1.85554260787974,1.85422675645224,1.93526207392562,1.85459173714016,1.9515901573326,1.94454987195771,1.93894069506966,1.8547069941995,1.85503355586764,1.93798982433008,1.95551850210522,1.85569628395887,1.85515841768193,1.94349334891373,1.85599403136217,1.85538893180062,1.93987235629935,1.93852769060701,1.9385469001169,1.94673015133029,1.85555221263469,1.96040732237237,1.96480630013731,1.9409000650785,1.94127465052136,1.94138990758071,1.85448608483576,1.94104413640268,1.92661779447486,1.94852624050506,1.85374651870498,1.94025654649716,1.96143503115152,1.95433711724695,1.85194082477526,1.94076559850926,1.92717487026169,1.9454815331874,1.94370465352252,1.94146674562027,1.92860597874853,1.85187359149065,1.85028880692467,1.93414792235196,1.94406963421044,1.93100716748485,1.84807010853231,1.84649492872129,1.93766326266194,1.93836440977294,1.92126794597033,1.93057495351232,1.93103598174969,1.93143938145739,1.84315247400033,1.92106624611648,1.92076849871318,1.917464463012,1.84365192125748,1.84451634920256,1.92431265328799,1.93090151518046,1.843911249641,1.8438248068465,1.88378058741888,1.88251275976611,1.87623125003189,1.87474251301537,1.77096313583156,1.7678127762095,1.96193447840867,1.76625680590837,1.8783539008748,1.76412455031051,1.76606471080946,1.76426862163469,1.75838090685323,1.75922612528842,1.76204031848739,1.96418199106587,1.75962952499612,1.96175198806471,1.76327933187533,1.8105059119413,1.76203071373244,1.81041946914679,1.86405242076127,1.76463360232262,1.76392285045666
