1.6901672470398,1.68920399506354,1.68709806182134,1.68772134251186,1.7335419169117,1.7324181229394,1.68284842074963,1.77685992490265,1.68039307257487,1.68049695268995,1.94215207529844,1.67934482777718,1.77131650421577,1.68036474163439,1.67991144658674,1.67794716804693,1.67694614148337,1.6748874264753,1.67522739776104,1.67402805461413,1.67246985288784,1.67337644298314,1.67306480263788,1.67469855353878,1.67088332022107,1.67061889810994,1.76979607707678,1.67176157937589,1.67466077895148,1.67615287514999,1.73587449767773,1.8067868416943,1.80303771390437,1.80382153659093,1.80871334564681,1.8128118883693,1.80202724369398,1.79976076845574,1.79886362200727,1.79728653298732,1.79681435064602,1.89691700700182,1.81634381228223,1.81774147201248,1.79124259901867,1.79363184166565,1.79090262773293,1.79139369736789,1.82006460913168,1.8195640958499,1.72194511860935,1.79605885889994,1.7991280441184,1.82011182736581,1.80836393071424,1.8174581626077,1.75787819478235,1.89195909241816,1.86786834936498,1.8761504276314,1.87892685979825,1.79461398093556,1.79635161195155,1.87240129984147,1.86875605216663,1.88273264946914,1.86926600909523,1.88005065377055,1.86982318425797,1.79994964139226,1.88146720079445,1.89419723671592,1.89689811970816,1.80374598741632,1.87760474924261,1.89957067175993,1.89176077583481,1.88515966670342,1.88748280382262,1.8858396092749,1.88167496102462,1.90697449087153,1.9083815942486,1.88490468823912,1.81034709654771,1.8930262245095,1.89393281460479,1.88182605937384,1.89345118861667,1.89262014769598,1.88365812685809,1.88294985334614,1.88627401702889,1.88850271767983,1.884205858374,1.90711614557392,1.88528243411216,1.91451996468551,1.75403463052416,1.7506726922541,1.80303771390437,1.75184370446052,1.75411962334559,1.9283454636388,1.75360022277016,1.75616889470684,1.75481845321072,1.80448259186875,1.80525697090848,1.75480900956389,1.92181990368203,1.75514898084963,1.75681106269101,1.75672606986957,1.75542284660758,1.75365688465112,1.75295805478599,1.75371354653207,1.75146595858748,1.74680079705543,1.75093711436523,1.74832122419442,1.74928447617067,1.68224402735277,1.78181783948631,1.67771107687628,1.67712557077307,1.67358420321331,1.94692111694558,1.77504674471205,1.6670491996097,1.668390197459,1.66742694548275,1.66553821611754,1.73722493917385,1.7762272005653,1.7727424948865,1.78444317330394,1.66044809047832,1.66269567842291,1.78380100531977,1.66024033024815,1.66182686291492,1.66069362529579,1.6628373331253,1.66319619170469,1.66431998567699,1.77466899883901,1.66228960160939,1.75175871163909
1.69119660454383,1.68986505034136,1.68704139994039,1.73519455510625,1.73396688101887,1.73391021913791,1.68351891967428,1.68417053130528,1.68239512570198,1.77698269231138,1.68013809411057,1.68297118815837,1.67854211779697,1.68009087587644,1.67952425706687,1.77104263845782,1.67659672655081,1.77493342095014,1.76972052790218,1.67607732597538,1.7729596987635,1.76871005769179,1.67439635684035,1.67155381914572,1.76820954441001,1.67322534463392,1.67195989595923,1.67357475956648,1.67544460163803,1.67612454420951,1.80709848203956,1.81196196015496,1.81083816618266,1.81105537005966,1.81055485677788,1.81211305850417,1.81135756675809,1.81408678069081,1.79811757390801,1.72436269219681,1.72417381926029,1.8165515725124,1.79324465214579,1.7968426815865,1.81770369742517,1.79200753441158,1.79214918911397,1.79203586535206,1.89743640757725,1.72142571803392,1.72387162256186,1.79690878711428,1.72697858236762,1.80128119559473,1.81275522648834,1.81679710732988,1.88462137883434,1.86960598038097,1.86948321297223,1.86953043120636,1.86893548145632,1.79721098381271,1.79649326665394,1.79712599099128,1.87240129984147,1.88031507588168,1.87028592295244,1.87041813400801,1.79784370815006,1.89559489644617,1.88136332067936,1.8856224053979,1.89262014769598,1.80536085102357,1.87808637523074,1.8758576745798,1.8913924736086,1.8824304527707,1.88653843914002,1.90347089789907,1.88600015127094,1.88372423238587,1.889579293418,1.88233601630244,1.81130090487713,1.88375256332635,1.88596237668363,1.89501883398979,1.8916474520729,1.81067762418662,1.88616069326698,1.88324260639774,1.88881435802509,1.88444194954465,1.88521632858438,1.88560351810425,1.88608514409237,1.75434627086942,1.75775542737361,1.75258975255978,1.80421816975762,1.80637132123395,1.8453358080381,1.84690345341122,1.8427199178673,1.75485622779802,1.84592131414132,1.80460535927749,1.75670718257592,1.75843536994508,1.92421858997584,1.75505454438137,1.75486567144485,1.75576281789332,1.75542284660758,1.75336413159951,1.75370410288525,1.75215534480578,1.9229720285948,1.91922290080487,1.74782071091264,1.74820790043251,1.74779237997216,1.68096913503126,1.67761664040802,1.67501963753086,1.78077903833544,1.71839430740277,1.67297980981644,1.67057167987581,1.77810648628368,1.66694531949462,1.66964620248686,1.78141176267279,1.66428221108968,1.66493382272068,1.66458440778811,1.66264846018878,1.66168520821253,1.66313952982373,1.66306398064912,1.66006090095845,1.66112803304979,1.7567355135164,1.6600420136648,1.66084472364501,1.76829453723145,1.66391390886347,1.77558503258113,1.77636885526769
1.69220707475422,1.6913288155994,1.68968562105167,1.68946841717467,1.73528899157451,1.68674864688878,1.6859931551427,1.68351891967428,1.68376445449176,1.67942037695179,1.9407921901555,1.68265010416629,1.68179073230512,1.68093136044395,1.68062916374552,1.67991144658674,1.67513296129278,1.67555792539995,1.67392417449905,1.76155177339767,1.7717981302039,1.67453801154274,1.67449079330861,1.77734155089077,1.67361253415379,1.67410360378874,1.67365975238792,1.67424525849113,1.67432080766574,1.67647395914207,1.81335961988521,1.80792007931342,1.81351071823442,1.81326518341695,1.81066818053979,1.73153986378458,1.82014960195311,1.79841032695962,1.81547499677423,1.79681435064602,1.72615698509375,1.79735263851511,1.79402847483235,1.79434011517761,1.72019804394654,1.7938679328363,1.79173366865362,1.79349018696326,1.82136783239367,1.82035736218329,1.79518059974512,1.82175502191354,1.8214150506278,1.80423705705127,1.80866612741267,1.8207634389968,1.89860741978367,1.87598988563536,1.79754151145163,1.79511449421734,1.87109807657948,1.87237296890099,1.7961532953682,1.79516171245147,1.87605599116314,1.87186301197239,1.87174968821048,1.8823549035961,1.87311901700025,1.87615987127823,1.88651955184637,1.80374598741632,1.88585849656855,1.88955096247752,1.87751031277435,1.87661316632588,1.80732512956338,1.883554246743,1.88201493231036,1.80913830975398,1.89819189932333,1.81060207501201,1.81076261700805,1.89472608093818,1.88267598758818,1.8981824556765,1.81334073259155,1.90167660500213,1.88469692800895,1.88884268896557,1.8988718418948,1.88312928263583,1.8861323623265,1.88673675572337,1.8884554994457,1.8132840707106,1.89482051740644,1.84002847852188,1.91114858276863,1.75461069298055,1.80749511520625,1.8077689809642,1.75145651494066,1.75135263482557,1.83972628182345,1.80761788261499,1.80894943681746,1.75564949413141,1.92205599485268,1.75777431466726,1.75637665493701,1.75502621344089,1.75755711079026,1.75532841013932,1.91558709677685,1.75467679850833,1.7521270138653,1.83291741246189,1.75098433259936,1.75012496073819,1.74910504688098,1.74926558887702,1.75055936849218,1.68130910631699,1.67680448678098,1.7801463139981,1.674415244134,1.67479299000704,1.67285704240771,1.77790816970033,1.66984451907021,1.66731362172083,1.78113789691483,1.66310175523643,1.66558543435167,1.7098761379657,1.6630923115896,1.66270512206974,1.66157188445061,1.65995702084336,1.78395210366899,1.66078806176405,1.66007034460528,1.65756777819638,1.66024033024815,1.78141176267279,1.71212372591029,1.70879011858071,1.77796483158129,1.77485787177553
1.69306644661539,1.7546673548615,1.69346307978208,1.69164045594466,1.68996893045645,1.68710750546817,1.73491124570147,1.68751358228169,1.7794569277798,1.68409498213067,1.68274454063455,1.68424608047988,1.68305618097981,1.6814224300789,1.77417792920406,1.74256059963055,1.67727666912228,1.67671949395955,1.76765236924728,1.76182563915562,1.67545404528486,1.67584123480473,1.76539533765586,1.78004243388301,1.78076959468862,1.67549181987217,1.6764834027889,1.84124670896244,1.67671949395955,1.67585067845155,1.88713338889006,1.73632779272537,1.80861890917854,1.80723069309512,1.80643742676173,1.81623993216714,1.73111489967741,1.89312066097776,1.80267885532498,1.8153522293655,1.81628715040127,1.81731650790531,1.79544502185625,1.81876138586969,1.79336741955453,1.79668213959046,1.91006256338363,1.79498228316177,1.82090509369919,1.82103730475476,1.79582276772929,1.79824978496358,1.72977390182812,1.82285048494535,1.80927996445637,1.81515391278215,1.89210074712055,1.90121386630765,1.87911573273477,1.87309068605977,1.87234463796052,1.86931322732936,1.79789092638419,1.79617218266185,1.79703155452302,1.87609376575045,1.87014426825005,1.79896750212235,1.88956040612435,1.8747716551948,1.80114898453916,1.88320483181044,1.89899460930354,1.87602766022266,1.88034340682215,1.89470719364453,1.89815412473602,1.89867352531146,1.89458442623579,1.81055485677788,1.90247931498234,1.88935264589418,1.88906933648939,1.88256266382627,1.90574681678414,1.89021201775534,1.88341259204061,1.90341423601812,1.88400754179065,1.88859715414809,1.88596237668363,1.88356369038983,1.88586794021537,1.8882005209814,1.88377145062,1.88679341760432,1.9016671613553,1.83941464147819,1.75613112011954,1.93236845718669,1.75290139290504,1.75507343167502,1.84619517989927,1.75098433259936,1.75507343167502,1.80790119201977,1.80847725447615,1.75592335988936,1.75564949413141,1.75610278917906,1.84684679153027,1.925077961837,1.75512064990915,1.75486567144485,1.80024239444387,1.75200424645657,1.752306443155,1.83568440098191,1.75098433259936,1.74852898442459,1.75119209282953,1.74862342089285,1.7451198279204,1.680223086932,1.77873921062102,1.6774655420588,1.72072688816879,1.67125162244728,1.67242263465371,1.77471621707314,1.67013727212181,1.6690795836773,1.78043906704971,1.66567987081993,1.66397057074442,1.6621101723197,1.66333784640708,1.78259221852604,1.66164743362522,1.6614207861014,1.66363059945869,1.66211961596652,1.65639676598996,1.66035365401006,1.66066529435532,1.70913008986644,1.66113747669662,1.76558421059238,1.77930582943058,1.77685992490265
1.77880531614881,1.75489400238533,1.69084718961127,1.69314199578999,1.69240539133756,1.68758913145629,1.76798289688619,1.68684308335704,1.68379278543224,1.68381167272589,1.68372667990445,1.68131854996382,1.68082748032887,1.68194183065434,1.728206256455,1.7433066477298,1.67937315871766,1.78064682727988,1.67711612712624,1.67690836689607,1.72593033756993,1.67421692755065,1.67649284643572,1.67614343150316,1.6769555851302,1.67660617019764,1.67614343150316,1.67520851046738,1.91927956268583,1.67650229008255,1.88872936520366,1.81378458399238,1.81387902046064,1.81529556748454,1.81322740882964,1.8142662099805,1.73071826651072,1.88896545637431,1.81621160122666,1.7984386579001,1.79918470599935,1.79783426450323,1.81744871896087,1.79458564999508,1.81812866153235,1.82070677711585,1.82079176993728,1.8206878898222,1.82051790417933,1.79363184166565,1.72516540217702,1.72379607338725,1.82154726168336,1.82371930045335,1.81141422863905,1.74240950128133,1.89769138604155,1.89231795099754,1.79820256672945,1.87649039891714,1.79697489264206,1.87311901700025,1.7968804561738,1.79567166938007,1.86945488203175,1.86900158698411,1.86978540967067,1.88477247718356,1.88227935442149,1.88462137883434,1.88601903856459,1.88378089426682,1.87486609166306,1.80740067873799,1.80746678426577,1.89636927548591,1.88973983541404,1.88375256332635,1.89415001848179,1.88963595529896,1.89520770692631,1.88711450159641,1.81192418556765,1.88925820942592,1.87937071119907,1.88531076505264,1.88451749871925,1.81199973474226,1.89837132861302,1.88521632858438,1.88737892370754,1.88817219004092,1.88629290432255,1.88927709671957,1.89151524101733,1.88520688493755,1.9043869316412,1.75806706771887,1.75547950848854,1.84644071471675,1.75526230461154,1.79958133916605,1.75203257739704,1.75246698515104,1.75223089398039,1.75166427517083,1.8084583671825,1.75659385881401,1.75628221846875,1.75549839578219,1.75586669800841,1.75617833835367,1.92324589435276,1.7550639880282,1.80234832768607,1.75428960898846,1.75221200668674,1.75122986741683,1.75103155083349,1.74845343524998,1.9218482346225,1.74880285018255,1.74617751636491,1.77855978133133,1.67743721111832,1.67698391607068,1.71990529089493,1.71912146820837,1.77212865784281,1.77795538793446,1.77581168010496,1.66938178037573,1.66774802947483,1.66505659012941,1.77679381937486,1.77791761334716,1.7537229901789,1.78094902397831,1.84901883030025,1.78033518693462,1.83321960916032,1.78402765284359,1.76214672314771,1.66097693470057,1.6598248097878,1.70911120257279,1.66324340993882,1.66296010053404,1.66170409550618,1.66265790383561
1.69423745882181,1.69302867202808,1.69496461962741,1.69332142507969,1.6896950646985,1.73914199947953,1.68954396634928,1.68771189886503,1.6862103590197,1.68765523698408,1.6838872219005,1.92769385200781,1.68272565334089,1.6830184063925,1.7293300504273,1.78697407065331,1.67923150401527,1.67921261672162,1.6788065399081,1.67936371507083,1.73320194562596,1.67817381557075,1.91876960575722,1.67533127787612,1.72345610210151,1.67857989238427,1.67751276029293,1.7244665723119,1.67787161887232,1.67951481342005,1.73865092984458,1.89531158704139,1.89364950520001,1.89549101633109,1.81776980295296,1.73302251633627,1.88855937956079,1.80719291850782,1.72953781065747,1.72539204970085,1.81986629254833,1.72508985300241,1.81983796160785,1.79671047053094,1.79504838868956,1.79417012953474,1.72024526218067,1.72167125285139,1.82091453734602,1.79456676270143,1.82388928609622,1.80044071102721,1.72988722559003,1.73213481353462,1.73536454074912,1.90583180960558,1.90957149374868,1.79857086895566,1.88580183468759,1.89507549587074,1.87541382317897,1.87224075784543,1.79739041310241,1.79813646120166,1.87202355396843,1.871938561147,1.88535798328677,1.89775749156933,1.87358175569472,1.8736100866352,1.8033776851901,1.8847158153026,1.88429085119543,1.87659427903222,1.88178828478653,1.87829413546091,1.89557600915252,1.81026210372627,1.89245960569994,1.88421530202082,1.89453720800166,1.88880491437827,1.81277411378199,1.81157477063509,1.89020257410852,1.8911752697316,1.88651955184637,1.90007118504171,1.89868296895828,1.88928654036639,1.88908822378305,1.888927681787,1.88955096247752,1.88868214696953,1.88606625679872,1.89519826327948,1.89993897398614,1.75670718257592,1.75631054940923,1.84936824523281,1.75133374753192,1.75106932542079,1.75217423209943,1.75268418902804,1.75220256303991,1.75433682722259,1.75425183440116,1.75539451566711,1.7566977389291,1.7544501509845,1.75665996434179,1.93745858282591,1.75631054940923,1.75518675543693,1.75505454438137,1.75347745536142,1.80072402043199,1.80037460549943,1.75060658672631,1.75048381931758,1.74830233690077,1.7507482414287,1.74861397724602,1.68143187372573,1.6790992929597,1.67427358943161,1.72037747323623,1.71970697431158,1.74240950128133,1.7168833239106,1.71570286805735,1.66633148245093,1.66684143937953,1.66702086866923,1.78057127810527,1.78027852505366,1.66228015796257,1.77916417472819,1.66320563535152,1.66091082917279,1.66174187009348,1.66085416729184,1.66080694905771,1.65948483850206,1.76871950133862,1.7089317732831,1.6630545370023,1.76375214310813,1.6618929684427,1.6581532842996
1.69772216450061,1.69354807260351,1.69470964116311,1.69592787160367,1.69121549183749,1.68990282492867,1.69283979909156,1.68917566412307,1.68565318385696,1.68601204243635,1.68661643583321,1.68350947602745,1.68182850689242,1.68394388378145,1.73046328804642,1.6825084494639,1.68306562462663,1.68027974881296,1.67999643940818,1.7805807217521,1.67893875096366,1.67714445806672,1.67976034823753,1.77171313738247,1.67552959445947,1.67842879403506,1.67798494263423,1.77080654728717,1.72520317676433,1.82836557469175,1.81623048852032,1.88797387345758,1.89356451237858,1.89595375502556,1.80781619919833,1.80792007931342,1.81968686325864,1.72989666923686,1.80094122430899,1.8909958404419,1.82213276778658,1.79770205344767,1.82154726168336,1.82040458041742,1.7949539522213,1.72418326290712,1.79466119916969,1.82356820210413,1.79325409579261,1.79559612020547,1.89754973133916,1.72616642874058,1.89947623529167,1.80554028031326,1.82400260985813,1.82176446556036,1.90802273566921,1.87086198540883,1.87199522302795,1.89521715057313,1.87504552095276,1.87559325246867,1.79761706062623,1.80078068231295,1.87250517995656,1.88343147933426,1.88558463081059,1.8814483135008,1.86872772122615,1.80143229394394,1.8016683851146,1.89584987491048,1.87649039891714,1.88053227975867,1.8832992682787,1.87938959849273,1.87850189569108,1.90535962726428,1.88600959491776,1.89894739106941,1.81040375842866,1.89290345710076,1.89885295460115,1.88474414624308,1.88939042048148,1.89864519437098,1.90537851455793,1.90633232288736,1.88642511537811,1.89646371195417,1.88462137883434,1.88582072198124,1.88903156190209,1.88900323096161,1.89176077583481,1.90473634657376,1.88643455902494,1.91639925040389,1.75309026584156,1.7534680117146,1.92285870483289,1.75269363267486,1.75172093705178,1.75276918184947,1.75117320553588,1.75201369010339,1.91942121738822,1.75276918184947,1.75405351781781,1.75748156161566,1.80431260622588,1.91837297259053,1.93461604513128,1.75592335988936,1.7562633311751,1.75444070733768,1.75177759893274,1.74969055298419,1.75202313375022,1.74832122419442,1.93627812697266,1.74920892699606,1.74760350703564,1.72725244812557,1.67688003595559,1.67341421757044,1.72181290755378,1.71950865772824,1.67056223622898,1.75881311581812,1.71740272448603,1.71482460890253,1.66645424985967,1.6671908543121,1.66385724698251,1.82994266371169,1.75275029455582,1.66354560663725,1.78143064996644,1.71120769216817,1.66070306894262,1.66313952982373,1.65944706391476,1.65967371143858,1.7778231768789,1.71020666560461,1.70867679481879,1.70885622410849,1.76568809070747,1.66107137116884
1.69704222192914,1.69500239421472,1.6955029074965,1.69294367920665,1.69301922838126,1.69241483498439,1.69159323771053,1.68867515084129,1.6886090453135,1.68913788953576,1.78160063560931,1.78093013668466,1.68557763468235,1.68640867560304,1.73170984942745,1.68362279978937,1.68153575384082,1.68072360021378,1.6802608615193,1.76596195646542,1.77476343530727,1.67942982059861,1.67956203165418,1.77434791484692,1.67938260236448,1.67904263107875,1.72561869722467,1.75721713950453,1.75787819478235,1.72836679845104,1.81671211450844,1.81386013316699,1.81029043466675,1.89465053176357,1.89721920370025,1.80360433271393,1.80315103766628,1.80231999674559,1.80344379071789,1.79918470599935,1.80370821282902,1.79698433628889,1.89305455544997,1.89512271410487,1.72260617388717,1.72270061035543,1.79420790412204,1.72153904179583,1.79457620634826,1.79605885889994,1.90161049947435,1.82462589054865,1.80225389121781,1.82633519062416,1.82387984244939,1.9023187729863,1.80147951217808,1.80036516185261,1.87252406725021,1.87177801915096,1.8861323623265,1.87293014406373,1.79909971317792,1.79747540592384,1.87997510459594,1.89155301560464,1.80017628891608,1.8014511812376,1.80146062488442,1.80226333486463,1.88117444774284,1.88899378731479,1.8858396092749,1.80594635712678,1.90767332073665,1.88298762793344,1.89773860427568,1.88589627115585,1.89489606658105,1.81177308721843,1.89466941905722,1.88419641472717,1.901846590645,1.81368070387729,1.8128118883693,1.81321796518282,1.88737892370754,1.89921181318054,1.88694451595354,1.89500939034296,1.88640622808446,1.89080696750538,1.89175133218798,1.89206297253324,1.89238405652533,1.81484227243689,1.81421899174637,1.75540395931393,1.75479956591707,1.75222145033356,1.75343968077412,1.7490767159405,1.8459874196691,1.75172093705178,1.74952056734132,1.75268418902804,1.92055445500734,1.75407240511146,1.75442182004403,1.75584781071475,1.75637665493701,1.75543229025441,1.75791596936965,1.75820872242126,1.75445959463133,1.75478067862341,1.75471457309563,1.75194758457561,1.74814179490472,1.74741463409912,1.74764128162294,1.74472319475371,1.74569589037679,1.76423376909626,1.67719167630085,1.67287592970136,1.71951810137506,1.67239430371323,1.76321385523905,1.75930418545308,1.75918141804434,1.71511736195414,1.66742694548275,1.77461233695805,1.66449941496668,1.66438609120477,1.66402723262538,1.66088249823231,1.6618929684427,1.77465011154536,1.65884267051789,1.66034421036323,1.66044809047832,1.66115636399027,1.78046739799018,1.78121344608944,1.6621101723197,1.66325285358565,1.77116540586656,1.6607313998831
1.698515430834,1.69765605897283,1.6943791135242,1.69594675889732,1.69581454784176,1.69219763110739,1.6915837940637,1.69059221114697,1.68979894481358,1.68945897352785,1.7820350433633,1.78162896654978,1.68661643583321,1.68743803310708,1.68456716447197,1.77397961262071,1.68373612355128,1.68316006109489,1.68082748032887,1.68237623840833,1.68256511134485,1.72876343161773,1.68056305821774,1.79261192780844,1.72780017964148,1.67823992109854,1.67941093330496,1.7599652407309,1.67878765261445,1.72908451560982,1.81380347128603,1.81695764932592,1.81069651148027,1.82065955888172,1.7331075091577,1.81983796160785,1.80401040952745,1.80245220780115,1.82084843181824,1.72727133541922,1.80019517620974,1.82112229757619,1.79605885889994,1.91196073639566,1.82097119922698,1.79701266722937,1.79539780362212,1.7968426815865,1.79696544899524,1.82531527676695,1.82660905638211,1.79994019774543,1.82738343542184,1.80812783954359,1.89871129989876,1.74555423567439,1.76223171596914,1.89159079019194,1.89040089069186,1.87278848936134,1.89169467030703,1.8005445911423,1.79751318051115,1.87177801915096,1.87444112755589,1.87220298325813,1.87994677365546,1.80085623148756,1.80132841382886,1.88581127833442,1.80417095152349,1.91170575793136,1.88280819864374,1.89524548151361,1.80806173401581,1.81042264572231,1.90546350737936,1.90535962726428,1.89451832070801,1.89293178804124,1.8965109301883,1.90560516208175,1.81415288621859,1.8870011778345,1.90573737313732,1.81318963424234,1.89824856120428,1.88604736950507,1.88620791150111,1.90468912833963,1.89866408166463,1.81340683811934,1.89245960569994,1.89248793664041,1.89210074712055,1.81399234422255,1.91212127839171,1.75482789685754,1.75658441516718,1.75265585808756,1.75402518687733,1.7507104668414,1.84678068600248,1.84622351083975,1.75411962334559,1.92105496828912,1.75217423209943,1.84682790423661,1.8042842752854,1.7567732881037,1.75595169082984,1.75593280353619,1.7574248997347,1.75748156161566,1.75649942234575,1.75467679850833,1.94373860796521,1.75054048119853,1.75106932542079,1.75006829885723,1.74623417824587,1.74822678772616,1.74475152569418,1.72885786808599,1.76822843170366,1.67425470213796,1.67120440421315,1.6714404953838,1.76187285738975,1.76084349988572,1.71621282498596,1.71461684867236,1.66460329508177,1.66715307972479,1.66561376529215,1.66493382272068,1.71015944737048,1.66267679112926,1.66064640706166,1.66054252694658,1.65992868990289,1.72721467353827,1.66084472364501,1.71711941508125,1.6611658076371,1.78176117760535,1.77923028025598,1.66237459443083,1.6616379899784,1.66272400936339
1.69781660096887,1.69925203528643,1.69988475962377,1.69674002523071,1.69447354999246,1.78231835276808,1.78756902040335,1.69040333821045,1.69325531955191,1.93181128202395,1.68720194193643,1.68583261314666,1.68657866124591,1.68633312642843,1.68745692040073,1.78082625656957,1.68569095844426,1.9340777572622,1.68124300078921,1.72986833829638,1.68093136044395,1.68288619533694,1.76449819120739,1.68096913503126,1.68051583998361,1.67950536977322,1.84643127106992,1.68063860739235,1.68059138915821,1.68248956217024,1.81546555312741,1.89336619579523,1.81169753804383,1.81020544184532,1.90566182396271,1.73483569652686,1.73348525503074,1.82039513677059,1.80432204987271,1.80154561770586,1.89551934727157,1.7993830225827,1.82265216836201,1.89689811970816,1.82281271035805,1.82380429327478,1.79549224009038,1.72324834187134,1.82625964144955,1.7963327246579,1.8274023227155,1.7284612349193,1.82639185250511,1.80786341743246,1.74068131391217,1.82807282164014,1.89557600915252,1.80315103766628,1.89299789356902,1.88377145062,1.80056347843595,1.87305291147247,1.79814590484849,1.79933580434857,1.8012717519479,1.80149839947173,1.87283570759547,1.88931487130687,1.88969261717991,1.89178910677529,1.87654706079809,1.89290345710076,1.90483078304202,1.80859057823807,1.9039525238872,1.89281846427932,1.88219436160005,1.88250600194531,1.900977775137,1.9056240493754,1.90422638964515,1.88687841042576,1.89841854684715,1.89601041690652,1.81320852153599,1.90204490722834,1.89084474209269,1.81347294364712,1.88680286125115,1.89291290074758,1.88912599837035,1.89137358631494,1.89566100197396,1.89287512616028,1.8883799502711,1.8884554994457,1.88844605579888,1.75564005048458,1.75532841013932,1.80074290772565,1.79852365072153,1.75130541659144,1.75129597294461,1.7518342608137,1.75126764200414,1.75221200668674,1.75129597294461,1.75451625651229,1.80444481728144,1.75770820913948,1.75863368652843,1.75725491409183,1.81769425377835,1.80384042388458,1.75360966641699,1.75433682722259,1.75179648622639,1.75292028019869,1.75119209282953,1.75032327732153,1.74741463409912,1.74767905621025,1.73053883722103,1.80770287543642,1.67736166194372,1.67568069280869,1.67105330586394,1.67298925346327,1.67047724340755,1.66985396271703,1.66574597634771,1.66956120966543,1.667955789705,1.66633148245093,1.66708697419701,1.71092438276339,1.70903565339818,1.66075973082358,1.66058974518071,1.65889933239885,1.65961704955763,1.77556614528748,1.76908780356483,1.763922128751,1.65944706391476,1.66241236901813,1.66065585070849,1.66285622041895,1.66086361093866,1.77395128168023
1.6981187976673,1.70169793981437,1.70039471655238,1.69794881202444,1.69578621690128,1.69590898431002,1.6913288155994,1.95656308035495,1.69147047030179,1.68989338128184,1.68995948680963,1.68828796132142,1.6880990883849,1.85679095163806,1.68687141429752,1.68454827717832,1.68653144301178,1.6851243396347,1.68517155786883,1.76630192775116,1.77151482079912,1.68242345664246,1.72900896643521,1.68241401299564,1.68108245879317,1.84979320933998,1.68363224343619,1.72828180562961,1.68354725061476,1.6814224300789,1.81772258471883,1.89275235875154,1.81935633561973,1.81083816618266,1.80931773904367,1.82054623511981,1.73443906336017,1.8039915222338,1.8213772760405,1.89554767821204,1.79984576127717,1.79857086895566,1.79711654734445,1.79815534849532,1.79706932911032,1.79679546335237,1.79468008646334,1.79576610584833,1.79490673398717,1.7970598854635,1.90620955547862,1.80080901325343,1.80408595870206,1.73507178769751,1.89972177010914,1.82805393434649,1.89786137168442,1.87632041327427,1.86975707873019,1.80025183809069,1.87240129984147,1.878180811699,1.79950578999144,1.87237296890099,1.87358175569472,1.87395005792094,1.88535798328677,1.80220667298368,1.88942819506878,1.889579293418,1.87006871907545,1.88043784329041,1.88011675929833,1.88074003998885,1.88188272125479,1.90144051383148,1.88385644344143,1.90538795820475,1.88251544559214,1.90593568972066,1.88447028048512,1.88891823814018,1.8983996595535,1.89333786485475,1.81463451220672,1.89142080454907,1.89337563944206,1.88598126397729,1.89632205725178,1.89832411037889,1.88850271767983,1.8849330191796,1.89398003283892,1.89464108811675,1.81516335642898,1.91657867969359,1.81617382663936,1.75530952284567,1.80072402043199,1.75172093705178,1.79977965574939,1.75156039505574,1.74888784300398,1.75364744100429,1.75022884085327,1.75079545966284,1.75191925363513,1.75549839578219,1.7553567410798,1.93489935453606,1.75689605551244,1.84526970251032,1.80659796875778,1.80504921067831,1.93107467757152,1.91622926476102,1.80079012595978,1.79990242315813,1.79773982803497,1.75156039505574,1.74677246611495,1.83730870823599,1.68299951909885,1.68010031952326,1.67767330228898,1.67480243365387,1.67290426064184,1.77799316252177,1.67033558870516,1.76409211439387,1.66800300793913,1.66659590456206,1.66677533385175,1.66430109838333,1.66683199573271,1.66280900218482,1.66331895911343,1.76236392702471,1.70795907766002,1.66026866118862,1.66024977389497,1.77532061047,1.75457291839324,1.65810606606547,1.65770943289877,1.66079750541088,1.65820994618055,1.66016478107354,1.66288455135943,1.74905782864685
1.74814179490472,1.75072935413505,1.74777349267851,1.69540847102824,1.69791103743713,1.6951062743298,1.69441688811151,1.7412384890749,1.74095517967012,1.69222596204787,1.69161212500418,1.68903400942068,1.68798576462299,1.68781577898012,1.68783466627377,1.68580428220618,1.93089524828183,1.68570040209109,1.6855209728014,1.73186094777667,1.77318634628732,1.77886197802976,1.68357558155524,1.76647191339403,1.68056305821774,1.68316006109489,1.68317894838854,1.68320727932902,1.6834528141465,1.68262177322581,1.81359571105586,1.81959242679038,1.81195251650813,1.8188369350443,1.80954438656749,1.80766510084912,1.89599152961287,1.80418039517032,1.80432204987271,1.80510587255927,1.89936291152975,1.79994964139226,1.79880696012631,1.82652406356068,1.79761706062623,1.79739985674924,1.79687101252698,1.79606830254677,1.79603997160629,1.82957436148548,1.8274023227155,1.80046904196769,1.80354767083297,1.80815617048407,1.81164087616287,1.90088333866874,1.90447192446263,1.87954069684194,1.90406584764911,1.89524548151361,1.80077123866612,1.87694369396479,1.8010167734836,1.87533827400436,1.88313872628266,1.88618902420746,1.8758954491671,1.80250886968211,1.89656759206925,1.88993815199739,1.88506523023516,1.80808062130946,1.89017424316804,1.88242100912388,1.90837215060178,1.88524465952486,1.88445139319147,1.81184863639304,1.90467024104598,1.88532020869947,1.91154521593532,1.88603792585824,1.88659510102098,1.90189380887913,1.88973039176722,1.89840910320033,1.80917608434128,1.88651955184637,1.81360515470268,1.89046699621965,1.89527381245409,1.8863117916162,1.88679341760432,1.89229906370389,1.89071253103712,1.88866325967588,1.90263985697838,1.84303155821256,1.80347212165837,1.83410731196197,1.86581907800374,1.75181537352004,1.75123931106366,1.74912393417463,1.9537866481881,1.75292028019869,1.7532885824249,1.75304304760743,1.93235901353986,1.7573871251474,1.75598946541715,1.75761377267122,1.8072967986229,1.75813317324665,1.75612167647271,1.75377965205986,1.75206090833752,1.75201369010339,1.79759817333258,1.83325738374763,1.74651748765065,1.79423623506252,1.7711087439856,1.67813604098345,1.67930705318988,1.67353698497918,1.67283815511405,1.67271538770532,1.67264928217753,1.67163881196715,1.74844399160316,1.76434709285817,1.76302498230253,1.66325285358565,1.66251624913322,1.72293670152608,1.66381947239521,1.7588036721713,1.70828960529893,1.78330993568482,1.66130746233949,1.66068418164897,1.77925861119645,1.65882378322424,1.76009745178646,1.77860699956546,1.77421570379136,1.77451790048979,1.6584460373512,1.66078806176405
1.7806562709267,1.70051748396111,1.74853842807142,1.69704222192914,1.78583138938736,1.69583343513541,1.69631506112354,1.69338753060747,1.77423459108501,1.69299089744078,1.69219763110739,1.69065831667475,1.93576817004406,1.69088496419858,1.68865626354763,1.68890179836511,1.68503934681327,1.6874474767539,1.68488824846405,1.68471826282118,1.68321672297585,1.77860699956546,1.68277287157503,1.77074988540621,1.68277287157503,1.77933416037106,1.68423663683306,1.68441606612275,1.84331486761734,1.84687512247075,1.82364375127874,1.82126395227858,1.8128496629566,1.82245385177866,1.81028099101992,1.82387984244939,1.80702293286495,1.82116951581032,1.80470923939257,1.80559694219422,1.82454089772721,1.79899583306283,1.90522741620871,1.79769260980084,1.82853556033462,1.82677904202498,1.72406049549838,1.72457989607381,1.90871212188751,1.90763554614935,1.80249942603529,1.72950947971699,1.82958380513231,1.73601615238012,1.90174271052991,1.7467535788213,1.90081723314096,1.89613318431526,1.89957067175993,1.87549881600041,1.87838857192917,1.80164949782094,1.80195169451938,1.87513051377419,1.87893630344508,1.88284597323105,1.88981538458865,1.89462220082309,1.88870103426318,1.80470923939257,1.89523603786678,1.89864519437098,1.89781415345029,1.91839185988418,1.9027909553276,1.90892932576451,1.90590735878019,1.88453638601291,1.90099666243066,1.88780388781471,1.8865289954932,1.81464395585354,1.8854052015209,1.90227155475217,1.88617013691381,1.89229906370389,1.89940068611706,1.89552879091839,1.81635325592905,1.88764334581867,1.88657621372733,1.89252571122772,1.89021201775534,1.89296956262854,1.89142080454907,1.81460618126624,1.90501965597854,1.80242387686068,1.82990488912439,1.8001101833883,1.86739616702368,1.79818367943579,1.75160761328987,1.75011551709136,1.75207035198435,1.74979443309928,1.75456347474642,1.75410073605194,1.75545117754806,1.75633888034971,1.75594224718302,1.80669240522604,1.75845425723874,1.92626786133708,1.75792541301648,1.75434627086942,1.75391186311542,1.92820380893641,1.79790981367784,1.74851954077776,1.74645138212287,1.74280613444802,1.74213563552338,1.74824567501981,1.67813604098345,1.67526517234834,1.67412249108239,1.67207321972115,1.76433764921135,1.76016355731425,1.76160843527863,1.66759693112561,1.76854007204892,1.76920112732674,1.66291288229991,1.71189707838647,1.70934729374344,1.75835037712365,1.66272400936339,1.66216683420065,1.66057085788706,1.65770943289877,1.65983425343463,1.71001779266809,1.65973037331954,1.75954027662373,1.76075850706428,1.6602969921291,1.66041975953784,1.7078079793108
1.75158872599622,1.70229288956441,1.7006213640762,1.69969588668725,1.6999697524452,1.69814712860778,1.69722165121883,1.69402969859164,1.69439800081785,1.69322698861143,1.69146102665496,1.80300938296389,1.80347212165837,1.73843372596758,1.6901672470398,1.6878818845079,1.68814630661903,1.68637090101574,1.6867580905356,1.68692807617847,1.77716212160108,1.78059016539892,1.68343392685285,1.68390610919415,1.68354725061476,1.73119044885202,1.73164374389967,1.68575706397205,1.68570040209109,1.68565318385696,1.82046124229837,1.81710874767514,1.74103072884473,1.82027236936185,1.73923643594779,1.81107425735331,1.80648464499586,1.82410648997322,1.80444481728144,1.901846590645,1.80331157966232,1.82695847131467,1.79849531978105,1.82969712889422,1.79715432193176,1.829546030545,1.79729597663415,1.79447232623317,1.79486895939986,1.830197642176,1.80048792926134,1.829763234422,1.73208759530049,1.83107590133082,1.81684432556401,1.7481323512579,1.92528572206718,1.87628263868697,1.87547048505993,1.88271376217548,1.80297160837659,1.80305660119802,1.80119620277329,1.87854911392521,1.87973901342529,1.8756782452901,1.8926295913428,1.89212907806102,1.89314899191823,1.89047643986647,1.80711736933321,1.90360310895464,1.89805968826776,1.89075030562443,1.81034709654771,1.81231137508752,1.88416808378669,1.81323685247647,1.81362404199633,1.9055862747881,1.88630234796937,1.90596402066114,1.89198742335863,1.88581127833442,1.88620791150111,1.88602848221142,1.90534073997062,1.89482996105327,1.88808719721949,1.89764416780742,1.88849327403301,1.88701062148132,1.89363061790636,1.89238405652533,1.81481394149641,1.81452118844481,1.8955665655057,1.7550639880282,1.75423294710751,1.75194758457561,1.83945241606549,1.75153206411526,1.74893506123811,1.75008718615088,1.74808513302377,1.75060658672631,1.83338015115636,1.75304304760743,1.75418572887338,1.75733046326644,1.75581003612745,1.91614427193959,1.80517197808705,1.75870923570304,1.75786875113552,1.75399685593686,1.75271251996852,1.75004941156358,1.79790981367784,1.74927503252385,1.93354891303994,1.91293343201874,1.73643167284046,1.68274454063455,1.67965646812244,1.67627564255872,1.67446246236813,1.67345199215775,1.71879094056946,1.67106274951076,1.74852898442459,1.76007856449281,1.6667564465581,1.66342283922851,1.66456552049446,1.71000834902126,1.77369630321593,1.65971148602589,1.77811592993051,1.77892808355754,1.7810529040934,1.66030643577593,1.65846492464485,1.65788886218847,1.76510258460425,1.65860657934724,1.65895599427981,1.77421570379136,1.6605519705934,1.66016478107354
1.75080490330966,1.75110710000809,1.75120153647635,1.70234955144536,1.70107465912385,1.69923314799277,1.74570533402361,1.69653226500053,1.78823007568117,1.69545568926237,1.6943413389369,1.69324587590508,1.69346307978208,1.73971806193592,1.69240539133756,1.78794676627639,1.78378211802612,1.7838859981412,1.68889235471829,1.78461315894681,1.7806184963394,1.68538876174583,1.68640867560304,1.68564374021013,1.73171929307428,1.68494491034501,1.68574762032522,1.68570984573792,1.68410442577749,1.73329638209422,1.82228386613579,1.82398372256448,1.82323767446522,1.8214528252151,1.81076261700805,1.73637501095951,1.82540971323521,1.82527750217964,1.80393486035284,1.73141709637585,1.80299993931706,1.80437871175366,1.79833477778501,1.82969712889422,1.79798536285245,1.83111367591812,1.79746596227702,1.79644604841981,1.83004654382678,1.79744707498337,1.79911860047157,1.80617300465061,1.80554028031326,1.83084925380699,1.82990488912439,1.91287677013779,1.91239514414966,1.87691536302431,1.87670760279414,1.87761419288943,1.87852078298473,1.8014889558249,1.80265996803133,1.80439759904731,1.88407364731843,1.89111860785064,1.88920154754496,1.87663205361953,1.90742778591917,1.80745734061894,1.88521632858438,1.88576406010029,1.89299789356902,1.80995046338101,1.89305455544997,1.91533211831255,1.81202806568274,1.90245098404186,1.90647397758975,1.88533909599312,1.90445303716898,1.88756779664406,1.90361255260146,1.90857046718512,1.90095888784335,1.89763472416059,1.89412168754131,1.88638734079081,1.81361459834951,1.91214960933218,1.88824773921553,1.8926295913428,1.89295067533489,1.89381949084288,1.89499050304931,1.90469857198646,1.81638158686953,1.9306308261707,1.7527786254963,1.83801698174794,1.79815534849532,1.75125819835731,1.93507878382576,1.75123931106366,1.74990775686119,1.81189585462717,1.75102210718666,1.80013851432878,1.75487511509167,1.75514898084963,1.75637665493701,1.75778375831409,1.75818983512761,1.81348238729394,1.75534729743298,1.75496010791311,1.93668420378618,1.7511448745954,1.74851954077776,1.92457744855522,1.74621529095222,1.74619640365856,1.68536043080535,1.77583056739861,1.67560514363408,1.72305002528799,1.67354642862601,1.67055279258216,1.71918757373615,1.66923068202652,1.6700239483599,1.66873961239156,1.75825594065539,1.66395168345077,1.66381947239521,1.66206295408557,1.76414877627482,1.66091082917279,1.65944706391476,1.65820050253373,1.77812537357733,1.78161952290296,1.70663696710437,1.70775131742984,1.76652857527498,1.66381947239521,1.70868623846562,1.65992868990289,1.77077821634669,1.66024977389497
1.70573037700908,1.70423828081056,1.79225306922906,1.79445343893952,1.7035961128264,1.70122575747306,1.69777882638157,1.69857209271495,1.69788270649665,1.69618285006797,1.69572955502032,1.75786875113552,1.69287757367886,1.73903811936444,1.69102661890097,1.69012002880567,1.69012947245249,1.68797632097616,1.6890056784802,1.68598371149587,1.68701306899991,1.68711694911499,1.776189425978,1.68732470934517,1.7330697345704,1.73334360032835,1.73312639645135,1.85558216484433,1.84731897387157,1.73520399875308,1.89655814842243,1.81640047416318,1.74180510788447,1.74169178412255,1.82669404920354,1.73700773529685,1.73587449767773,1.80550250572596,1.82668460555672,1.80418039517032,1.80324547413454,1.80305660119802,1.80144173759077,1.79907138223744,1.83185028037055,1.72619475968106,1.7984386579001,1.72551481710958,1.72573202098658,1.79816479214214,1.80183837075746,1.83184083672372,1.80595580077361,1.81134812311126,1.81288743754391,1.74873674465476,1.90284761720856,1.87943681672686,1.90180881605769,1.87863410674664,1.80370821282902,1.80292439014246,1.80204613098764,1.87794472052835,1.87698146855209,1.80404818411475,1.87763308018309,1.87757641830213,1.89515104504535,1.88890879449335,1.8764054060957,1.88598126397729,1.80890221858333,1.89916459494641,1.91499214702681,1.89232739464437,1.81217916403195,1.90367865812924,1.90212990004978,1.89635983183908,1.91098804077258,1.90822105225256,1.81395456963525,1.88616069326698,1.81431342821463,1.88896545637431,1.88830440109649,1.88930542766005,1.81510669454802,1.8156072078298,1.89067475644982,1.88836106297744,1.89249738028724,1.89464108811675,1.88895601272748,1.9063134355937,1.88947541330291,1.7567732881037,1.75479012227024,1.74972832757149,1.84769671974461,1.7513620784724,1.75098433259936,1.93452160866302,1.8490377175939,1.74997386238897,1.75106932542079,1.75260863985343,1.80248053874163,1.75574393059967,1.75532841013932,1.91898680963422,1.80666407428556,1.75779320196091,1.75516786814328,1.75783097654822,1.75148484588113,1.9135000508283,1.9289970752698,1.93189627484539,1.74776404903168,1.74314610573376,1.68492602305136,1.75636721129019,1.67519906682056,1.67759775311437,1.71971641795841,1.76155177339767,1.66790857147087,1.66984451907021,1.66868295051061,1.75564005048458,1.75878478487765,1.71305864694607,1.66418777462142,1.75787819478235,1.66064640706166,1.66064640706166,1.66043864683149,1.66012700648623,1.65762444007734,1.66015533742671,1.65985314072828,1.66050475235927,1.76846452287432,1.65836104452977,1.7075530008465,1.6595698313235,1.66028754848228,1.65803996053768
1.95236065751737,1.70692027650915,1.70504099079078,1.70563594054082,1.75088045248427,1.74880285018255,1.70029083643729,1.74566755943631,1.69825100872287,1.6975710661514,1.6988081838856,1.69606952630606,1.74222062834481,1.74121015813443,1.69407691682577,1.69259426427408,1.68960062823024,1.77781373323207,1.68948730446832,1.68706973088086,1.68576650761887,1.78144009361326,1.68449161529736,1.68965729011119,1.8562243328285,1.73458071806256,1.73488291476099,1.68779689168647,1.68890179836511,1.85264519068144,1.82595744475111,1.81774147201248,1.82714734425119,1.82491864360025,1.82711901331071,1.7384431696144,1.80806173401581,1.80869445835315,1.80504921067831,1.73038773887181,1.83118922509273,1.80194225087255,1.72730911000653,1.83055650075539,1.80254664426942,1.79897694576918,1.79821201037627,1.83459838159692,1.80081845690025,1.72854622774074,1.90640787206196,1.90482133939519,1.73321138927279,1.83102868309669,1.74331609137663,1.83313461633889,1.90923152246294,1.88588682750903,1.87870965592125,1.88792665522345,1.80643742676173,1.80431260622588,1.80415206422984,1.88169384831827,1.87898352167921,1.88364868321126,1.8758954491671,1.88218491795323,1.87881353603634,1.86885048863489,1.901412182891,1.80830726883329,1.89608596608113,1.88913544201718,1.81142367228587,1.8983996595535,1.90447192446263,1.81477616690911,1.90007118504171,1.88626457338207,1.90526519079602,1.91568153324511,1.90195991440691,1.89431056047783,1.88898434366796,1.88797387345758,1.88770000769962,1.89996730492662,1.88687841042576,1.90272484979982,1.88873880885048,1.8914680227832,1.89279013333885,1.89344174496984,1.89501883398979,1.90202601993469,1.90711614557392,1.75444070733768,1.94338919303265,1.75249531609152,1.85384453382835,1.75229699950817,1.74794347832138,1.75004941156358,1.74947334910719,1.75001163697628,1.79738096945558,1.7986558617771,1.80130952653521,1.75526230461154,1.75410073605194,1.91745693884841,1.9278355067102,1.75655608422671,1.83976405641075,1.75218367574626,1.75190980998831,1.74918059605559,1.93742080823861,1.91405722599104,1.74479874392831,1.74506316603944,1.68092191679713,1.72937726866143,1.76751071454489,1.67655895196351,1.67397139273318,1.67081721469329,1.6702789268242,1.75361911006381,1.66981618812973,1.66713419243114,1.74925614523019,1.66477328072463,1.66495271001433,1.70961171585457,1.70921508268788,1.65894655063298,1.77617053868435,1.65787941854164,1.6604764214188,1.77813481722416,1.65864435393455,1.77918306202185,1.65830438264881,1.66146800433553,1.66079750541088,1.77482009718823,1.76808677700127,1.66024977389497
1.95522208250565,1.94657170201302,1.70659919251707,1.75318470230982,1.70371888023513,1.78473592635554,1.70248176250093,1.70067802595716,1.70056470219524,1.69762772803235,1.69974310492138,1.69655115229419,1.74225840293211,1.74198453717416,1.86566797965452,1.69071497855571,1.692273180282,1.69299089744078,1.73609170155472,1.68738137122612,1.68743803310708,1.68572873303157,1.78411264566503,1.6865031120713,1.68587038773396,1.68808964473807,1.76910669085848,1.68745692040073,1.68847683425794,1.6873719275793,1.81696709297275,1.81805311235774,1.81773202836565,1.81458729397259,1.81253802261134,1.9016671613553,1.81064929324614,1.82719456248532,1.80401985317427,1.83131199250147,1.73085047756628,1.9208660953526,1.80103566077725,1.80088456242804,1.8007617950193,1.79908082588427,1.79704099816985,1.8012717519479,1.80078068231295,1.8012717519479,1.80416150787666,1.80709848203956,1.80583303336487,1.73886813372157,1.91312230495526,1.83292685610872,1.87835079734186,1.87879464874269,1.90411306588324,1.80657908146413,1.87630152598062,1.80545528749183,1.80394430399967,1.8787285432149,1.80443537363462,1.89612374066843,1.89830522308524,1.80680572898795,1.88029618858802,1.80853391635711,1.89257292946185,1.89845632143446,1.90126108454178,1.88520688493755,1.88737892370754,1.89570822020809,1.90081723314096,1.90771109532395,1.88840828121157,1.88825718286236,1.88744502923532,1.89568933291443,1.88736003641389,1.90156328124022,1.90505743056584,1.89010813764026,1.90482133939519,1.89029701057678,1.89736085840264,1.88838939391792,1.88980594094182,1.8923746128785,1.88950374424339,1.89413113118814,1.89221407088246,1.88766223311232,1.91452940833234,1.84451421076424,1.84611018707784,1.79913748776522,1.85673428975711,1.79832533413819,1.7484251043095,1.74987942592071,1.75057825578584,1.75286361831773,1.75064436131362,1.83558996451365,1.80147951217808,1.75603668365128,1.75577226154015,1.92044113124543,1.93845016574264,1.75857702464747,1.75706604115531,1.75202313375022,1.75200424645657,1.94592009038202,1.9162198211142,1.74861397724602,1.74511038427357,1.74574310861091,1.68364168708302,1.6828012025155,1.67707835253894,1.67518962317373,1.67358420321331,1.67095886939568,1.88016397753246,1.66973119530829,1.67090220751472,1.66960842789956,1.66729473442718,1.66557599070485,1.71182152921186,1.71220871873172,1.66343228287534,1.65889933239885,1.6605141960061,1.66024977389497,1.75990857884994,1.7556117195441,1.65848381193851,1.65740723620034,1.65851214287898,1.66397057074442,1.65905043074807,1.77012660471569,1.7692577892077,1.66038198495054
1.70628755217181,1.70766632460841,1.7091867517474,1.79704099816985,1.75249531609152,1.70521097643364,1.70517320184634,1.70230233321123,1.70317114871922,1.6983360015443,1.69574844231397,1.69813768496096,1.69689112357992,1.78574639656593,1.69417135329403,1.79202642170523,1.69312310849634,1.69037500726997,1.73871703537236,1.73580839214994,1.6873719275793,1.68730582205151,1.68740025851977,1.78430151860155,1.68863737625398,1.68862793260716,1.73537398439595,1.6888262491905,1.68996893045645,1.69046944373823,1.82654295085433,1.82591967016381,1.82720400613215,1.82667516190989,1.81402067516303,1.90335757413716,1.81318963424234,1.83060371898952,1.80957271750797,1.80470923939257,1.83153864002529,1.80129063924155,1.72874454432408,1.80144173759077,1.80121509006695,1.7987314109517,1.72695969507396,1.91776857919366,1.83406009372784,1.80181003981699,1.80368932553536,1.91133745570515,1.83643044908117,1.73839595138027,1.83556163357318,1.91184741263375,1.91495437243951,1.80664518699191,1.89351729414445,1.89343230132302,1.80661685605143,1.80677739804747,1.80643742676173,1.88098557480632,1.87984289354038,1.87988066812768,1.87888908521095,1.88108001127458,1.88130665879841,1.90307426473238,1.88141053891349,1.90178048511722,1.89253515487454,1.81261357178595,1.89809746285507,1.8137562530519,1.89899460930354,1.91355671270926,1.88579239104077,1.89946679164484,1.8884554994457,1.8898342718823,1.88838939391792,1.89694533794229,1.89604819149382,1.89208185982689,1.88677453031067,1.89559489644617,1.88886157625922,1.89056143268791,1.888927681787,1.88995703929104,1.89337563944206,1.89550045997791,1.81706152944101,1.88930542766005,1.81747704990135,1.80694738369034,1.75091822707157,1.75301471666695,1.92168769262646,1.75131486023827,1.74834011148807,1.75122042377001,1.75090878342475,1.74986053862706,1.75037049555566,1.79937357893587,1.79931691705492,1.91845796541196,1.91904347151518,1.75487511509167,1.75472401674246,1.75616889470684,1.91818409965401,1.75309970948838,1.93165074002791,1.79762650427306,1.74799069655551,1.93590038109962,1.74620584730539,1.74545979920613,1.73248422846719,1.68179073230512,1.67624731161825,1.72556203534371,1.67357475956648,1.67076999645916,1.66971230801464,1.96405189228798,1.75422350346068,1.66518880118498,1.66591596199058,1.66519824483181,1.66313952982373,1.70955505397361,1.70913008986644,1.66250680548639,1.74603586166252,1.74288168362263,1.70729802238219,1.65918264180363,1.65983425343463,1.77542449058509,1.65974926061319,1.77442346402153,1.65880489593059,1.66027810483545,1.65649120245822,1.6605519705934
1.70971559596966,1.7094417302117,1.70998946172761,1.70907342798549,1.75547006484171,1.75291083655186,1.70365277470735,1.94510793675499,1.70161294699293,1.94486240193751,1.69957311927851,1.69766550261966,1.6989876131753,1.94305866539374,1.79069486750276,1.79402847483235,1.69088496419858,1.77753042382729,1.69047888738506,1.69262259521456,1.78855115967326,1.78648300101836,1.68880736189685,1.78448094789124,1.68932676247228,1.68615369713874,1.73625224355077,1.76988106989822,1.73790488174532,1.6903844509168,1.83016931123552,1.90198824534739,1.81742983166722,1.82869610233066,1.82864888409653,1.81492726525833,1.80919497163493,1.80728735497608,1.73558174462612,1.83311572904524,1.80644687040856,1.73187039142349,1.92041280030495,1.83439062136675,1.80316048131311,1.83483447276757,1.79786259544371,1.8005445911423,1.80001574692004,1.80285828461467,1.91871294387627,1.91772136095953,1.81031876560723,1.91533211831255,1.83660987837086,1.82033847488963,1.92806215423402,1.80924218986906,1.81335017623838,1.87977678801259,1.8919024305372,1.80699460192447,1.87907795814747,1.87911573273477,1.87904018356016,1.91508658349507,1.80681517263478,1.88027730129437,1.88374311967952,1.87900240897286,1.89589709314461,1.88372423238587,1.89675646500577,1.89454665164849,1.81351071823442,1.81465339950037,1.81371847846459,1.91827853612227,1.88718060712419,1.90211101275613,1.88871992155683,1.89037255975139,1.8919024305372,1.90170493594261,1.81764703554422,1.81731650790531,1.89596319867239,1.89987286845836,1.9044247062285,1.81750538084183,1.8898342718823,1.89270514051741,1.89219518358881,1.81713707861561,1.81555054594884,1.88521632858438,1.90642675935562,1.75469568580198,1.75225922492087,1.752089239278,1.75156983870257,1.84941546346694,1.9218104600352,1.74829289325394,1.75125819835731,1.75013440438501,1.74812290761107,1.75244809785739,1.75516786814328,1.94080163380232,1.758114285953,1.75500732614724,1.75464846756785,1.92093220088038,1.91834464165005,1.75449736921863,1.79997797233274,1.79821201037627,1.74579032684505,1.74582810143235,1.74772627444438,1.74483651851562,1.68412331307115,1.67968479906292,1.67698391607068,1.72255895565304,1.72016971300606,1.67029781411786,1.66977841354242,1.67030725776468,1.66823909910978,1.66762526206609,1.66453718955398,1.66038198495054,1.66465995696272,1.76412044533435,1.71157599439438,1.77166591914834,1.66315841711739,1.66088249823231,1.70761910637428,1.65880489593059,1.65989091531558,1.77676548843439,1.65809662241864,1.65803996053768,1.65991924625606,1.65856880475994,1.7717981302039,1.6586632412282
1.94932924688622,1.71203873308886,1.70896010422357,1.70913008986644,1.70881844952118,1.75443126369085,1.70529596925508,1.80060125302326,1.94796936174327,1.94816767832662,1.70175460169532,1.70026250549681,1.69719332027836,1.6978260446157,1.69653226500053,1.69440744446468,1.7412007144876,1.69222596204787,1.74043577909469,1.6892228823572,1.68995948680963,1.69032778903584,1.69064887302792,1.85653597317376,1.69001614869058,1.68852405249207,1.68967617740484,1.69015780339297,1.77537727235096,1.69230151122248,1.902063794522,1.83022597311647,1.90199768899421,1.81547499677423,1.83123644332686,1.83200137871977,1.81043208936914,1.80994101973419,1.83298351798967,1.80733457321021,1.80789174837294,1.80455814104336,1.80957271750797,1.72956614159795,1.72787572881609,1.83593937944622,1.80128119559473,1.83704428612486,1.80197058181303,1.80201780004716,1.83688374412882,1.8049736615037,1.83568440098191,1.74191843164638,1.74751851421421,1.8206878898222,1.92114940475738,1.89809746285507,1.88527299046534,1.80825060695233,1.88279875499692,1.8072590240356,1.88131610244523,1.88548075069551,1.88271376217548,1.90774886991126,1.8784357901633,1.90876878376847,1.89935346788293,1.89893794742258,1.90624733006592,1.88421530202082,1.89876796177972,1.89642593736686,1.90317814484747,1.89533991798187,1.90506687421267,1.91146966676071,1.88956984977117,1.89837132861302,1.89768194239472,1.90156328124022,1.89595375502556,1.8979652517995,1.90509520515315,1.89922125682736,1.90936373351851,1.89388559637066,1.88997592658469,1.88745447288215,1.81706152944101,1.89320565379919,1.89292234439441,1.89269569687059,1.88864437238222,1.88722782535832,1.88834217568379,1.75478067862341,1.75258030891295,1.75008718615088,1.74965277839689,1.84893383747882,1.74935058169845,1.74839677336903,1.74885006841668,1.7483873297222,1.75141874035335,1.752306443155,1.75236310503595,1.75116376188905,1.75456347474642,1.75652775328623,1.75536618472663,1.83928243042263,1.75349634265508,1.75332635701221,1.80102621713043,1.74899172311907,1.74763183797612,1.74601697436887,1.7460264180157,1.74338219690441,1.68265010416629,1.68118633890825,1.76415821992165,1.67383918167761,1.67334811204266,1.74239061398768,1.74364661901554,1.75182481716687,1.75116376188905,1.66641647527236,1.66455607684764,1.76436598015182,1.76302498230253,1.77091042740225,1.66156244080379,1.66296954418086,1.66301676241499,1.66134523692679,1.65764332737099,1.6600420136648,1.77466899883901,1.65934318379967,1.6568122864503,1.76798289688619,1.66036309765688,1.66024033024815,1.6572466942043,1.66028754848228
1.81362404199633,1.76102292917541,1.71106603746578,1.71116991758086,1.70977225785061,1.70797796495367,1.70707137485837,1.70620255935038,1.79491617763399,1.74974721486515,1.7488595120635,1.6980432484927,1.79653104124124,1.69684390534579,1.69665503240927,1.69765605897283,1.69606952630606,1.69284924273839,1.69474741575042,1.79830644684453,1.69166878688513,1.69281146815108,1.69024279621441,1.68990282492867,1.68961951552389,1.68974228293263,1.69029945809536,1.68888291107146,1.68956285364293,1.85217300834014,1.81802478141726,1.82024403842137,1.90889155117721,1.8172031841434,1.8165893470997,1.81314241600821,1.81333128894473,1.81152755240096,1.73516622416577,1.80837337436107,1.80504921067831,1.83487224735488,1.80464313386479,1.83379567161671,1.72913173384395,1.80316048131311,1.80143229394394,1.72920728301856,1.80358544542028,1.80363266365441,1.80563471678152,1.8065696378173,1.7384431696144,1.74201286811464,1.74590365060696,1.74971888392467,1.91902458422152,1.88268543123501,1.89203464159276,1.88348814121522,1.88155219361588,1.80815617048407,1.88077781457615,1.87973901342529,1.8793423802586,1.88298762793344,1.90583180960558,1.89892850377576,1.88288374781835,1.90145940112513,1.81081927888901,1.88400754179065,1.90201657628787,1.8140112315162,1.90813605943113,1.89985398116471,1.81507836360754,1.81522946195676,1.90267763156569,1.89799358273998,1.81888415327843,1.90100610607748,1.8944805461207,1.81792090130217,1.9042075023515,1.89938179882341,1.88792665522345,1.89849409602176,1.89900405295037,1.88928654036639,1.89020257410852,1.89536824892235,1.89561378373983,1.89522659421996,1.89553823456522,1.89756861863281,1.89229906370389,1.75272196361534,1.75222145033356,1.84902827394708,1.7486423081865,1.92480409607905,1.7518342608137,1.75127708565096,1.74896339217859,1.92487964525366,1.7548467841512,1.75206090833752,1.75214590115896,1.75444070733768,1.75236310503595,1.75770820913948,1.75588558530206,1.75769876549265,1.80248998238846,1.80189503263842,1.751654831524,1.92539904582909,1.74782071091264,1.79493506492764,1.74400547759493,1.74461931463862,1.76963553508074,1.68034585434074,1.67919372942796,1.67457578613004,1.67157270643937,1.72002805830367,1.74317443667424,1.74053021556295,1.66702086866923,1.6672286288994,1.66534934318102,1.6644333094389,1.66451830226033,1.66360226851821,1.66078806176405,1.66104304022836,1.65890877604568,1.65946595120841,1.65715225773604,1.65716170138286,1.65823827712103,1.65685950468443,1.65914486721633,1.65627399858122,1.65920152909728,1.65900321251394,1.65875767769646,1.7713259478626
1.80516253444022,1.71351194199371,1.7915070211298,1.71356860387467,1.7101688910173,1.70906398433866,1.70659919251707,1.70610812288212,1.70563594054082,1.75122986741683,1.75162650058352,1.74957722922228,1.69979032315551,1.69960145021899,1.69790159379031,1.69707055286962,1.69704222192914,1.74186176976542,1.69436022623055,1.69292479191299,1.68945897352785,1.69083774596444,1.77702991054551,1.69197098358357,1.68927010059133,1.68930787517863,1.6896950646985,1.69069609126205,1.69263203886139,1.739821942051,1.83282297599363,1.82013071465946,1.83300240528332,1.90594513336749,1.8154277785401,1.81170698169065,1.73879258454697,1.83541997887079,1.73640334189998,1.80696627098399,1.80767454449594,1.80684350357525,1.80389708576554,1.83678930766056,1.80189503263842,1.72818736916135,1.836222688851,1.83713872259312,1.79990242315813,1.73138876543537,1.80442592998779,1.90909931140738,1.8373842574106,1.74267392339246,1.74841566066268,1.82352098387,1.77088209646178,1.89299789356902,1.89936291152975,1.88400754179065,1.88315761357631,1.88400754179065,1.80781619919833,1.88410197825891,1.87979567530624,1.88259099476675,1.9088537765899,1.88216603065958,1.88038118140946,1.90913708599468,1.88368645779856,1.88320483181044,1.90109109889892,1.8807589272825,1.88478192083038,1.89628428266447,1.89655814842243,1.90429249517294,1.91211183474488,1.90787163732,1.88960762435848,1.81709930402831,1.8900514757593,1.81616438299253,1.88995703929104,1.89813523744237,1.88605681315189,1.90189380887913,1.8914680227832,1.89940068611706,1.88967372988626,1.89755917498599,1.89158134654512,1.8937911599024,1.89120360067207,1.90110998619257,1.91303731213383,1.75521508637741,1.75258975255978,1.75052159390488,1.75162650058352,1.91757970625714,1.75169260611131,1.74961500380958,1.75000219332945,1.7497661021588,1.75228755586135,1.92219764955507,1.7532508078376,1.75405351781781,1.75275029455582,1.75593280353619,1.75567782507189,1.75511120626233,1.75508287532185,1.75241976691691,1.75195702822244,1.75144707129383,1.74898227947224,1.75014384803184,1.74493095498388,1.74269281068611,1.68379278543224,1.67942982059861,1.6781171536898,1.67667227572542,1.67192212137193,1.67088332022107,1.66959898425273,1.75490344603215,1.66969342072099,1.66497159730798,1.73452405618161,1.66302620606182,1.66358338122456,1.76517813377886,1.66105248387518,1.77556614528748,1.65824772076786,1.70632532675911,1.77772874041064,1.65917319815681,1.70611756652894,1.65997590813702,1.77806871169638,1.6584082627639,1.77266694571189,1.65739779255351,1.76897447980292,1.76796400959254
1.83097202121573,1.71678888744234,1.71286033036272,1.71228426790633,1.71210483861664,1.71237870437459,1.70934729374344,1.70687305827502,1.79735263851511,1.70511653996538,1.7521270138653,1.75033272096836,1.7964082738325,1.70009251985394,1.78806953368513,1.69747662968314,1.69460576104803,1.69465297928216,1.6957578859608,1.69480407763137,1.69316088308365,1.78084514386323,1.69253760239313,1.69316088308365,1.73723438282067,1.78454705341902,1.77912640014089,1.69102661890097,1.69266981344869,1.69336864331382,1.82312435070331,1.9111769137091,1.83438117771992,1.8174581626077,1.83349347491828,1.81525779289724,1.81492726525833,1.83305906716428,1.835788281097,1.83630768167243,1.80980880867862,1.73280531245927,1.80469035209892,1.83917855030754,1.80309437578532,1.83681763860104,1.80154561770586,1.80372710012267,1.80397263494014,1.73202148977271,1.73206870800684,1.73636556731268,1.83870636796624,1.74263614880515,1.74651748765065,1.91020421808602,1.90862712906608,1.89606707878747,1.88376200697317,1.88289319146518,1.89417834942227,1.88879547073144,1.88319538816361,1.89028756692995,1.88696340324719,1.88476303353673,1.90211101275613,1.88326149369139,1.8847158153026,1.89909848941863,1.88584905292172,1.88411142190574,1.8954249108033,1.81692931838544,1.89507549587074,1.81467228679402,1.90127997183544,1.90636065382783,1.9055862747881,1.90801329202239,1.89853187060907,1.8886349287354,1.89581210032317,1.90846658707004,1.90311203931968,1.90200713264104,1.89805024462094,1.88985315917595,1.81679710732988,1.8999956358671,1.8165893470997,1.88987204646961,1.89496217210883,1.89127914984668,1.88939986412831,1.8900892503466,1.75747211796883,1.75360022277016,1.94463575441369,1.74986053862706,1.92831713269833,1.84940601982012,1.75009662979771,1.74956778557545,1.84226662281965,1.75125819835731,1.92358586563849,1.7537229901789,1.75238199232961,1.75262752714708,1.75309970948838,1.84629906001436,1.7532508078376,1.75482789685754,1.75562116319093,1.75232533044865,1.75417628522655,1.75108821271444,1.74915226511511,1.74837788607537,1.74625306553952,1.74463820193227,1.6841799749521,1.67954314436053,1.67612454420951,1.67429247672526,1.67099664398298,1.67026948317738,1.6690795836773,1.66718141066527,1.66881516156617,1.66400834533173,1.66408389450633,1.66053308329975,1.66048586506562,1.66090138552597,1.76688743385437,1.65999479543067,1.65769054560512,1.65735057431938,1.66088249823231,1.65938095838698,1.70746800802506,1.70713748038615,1.66050475235927,1.65990980260923,1.66028754848228,1.77414959826358,1.65795496771625,1.65884267051789
1.71624115592643,1.71528734759701,1.7142674337398,1.715938959228,1.71212372591029,1.87867188133395,1.71042386948161,1.7089695478704,1.96073717225205,1.70647642510833,1.75218367574626,1.75157928234939,1.79824978496358,1.7011313210048,1.79724875840002,1.69966755574677,1.69755217885774,1.69680613075849,1.79714487828493,1.69446410634564,1.78404654013725,1.86819887700389,1.69184821617483,1.77720933983521,1.69106439348827,1.86461973485683,1.86248547067415,1.69291534826617,1.73970861828909,1.73968028734861,1.82323767446522,1.83395621361275,1.83342736939049,1.83498557111679,1.83441895230723,1.81639103051636,1.7395669635867,1.81081927888901,1.81146144687318,1.8100543434961,1.80684350357525,1.83960351441471,1.80477534492036,1.80454869739653,1.73042551345911,1.83965073264884,1.73033107699085,1.83935797959723,1.8400001475814,1.83959407076788,1.92889319515471,1.81004489984927,1.8112159120557,1.83945241606549,1.82102786110793,1.84026456969253,1.9173813896738,1.90010895962901,1.81424732268685,1.89652037383512,1.81131034852396,1.88634012255668,1.89149635372368,1.88714283253689,1.88894656908066,1.88352591580252,1.88293096605248,1.81183919274622,1.88550908163599,1.90195991440691,1.89177966312846,1.89153412831099,1.88657621372733,1.88736003641389,1.88986260282278,1.89063698186251,1.89131692443399,1.90528407808967,1.89828633579159,1.81714652226244,1.90948650092725,1.890013701172,1.90504798691902,1.89895683471624,1.91430276080852,1.89764416780742,1.90866490365338,1.89102417138238,1.88864437238222,1.81739205707992,1.89227073276342,1.89466941905722,1.89216685264833,1.89205352888642,1.88994759564421,1.89973121375597,1.90199768899421,1.93154685991282,1.75251420338517,1.92913872997219,1.75102210718666,1.91906235880883,1.75126764200414,1.75196647186926,1.75093711436523,1.75186259175418,1.74937891263893,1.75190980998831,1.75251420338517,1.75286361831773,1.75291083655186,1.75490344603215,1.75411017969877,1.91771191731271,1.91499214702681,1.75390241946859,1.75043660108345,1.74993608780167,1.74834011148807,1.74893506123811,1.74511038427357,1.79400958753869,1.77084432187447,1.67735221829689,1.67627564255872,1.67365975238792,1.75267474538121,1.67116662962585,1.67028837047103,1.71428632103345,1.66635036974458,1.757679878199,1.6639989016849,1.66312064253008,1.65934318379967,1.76846452287432,1.7685306284021,1.65824772076786,1.73192705330445,1.65842715005755,1.77129761692212,1.6600797882521,1.65767165831147,1.65890877604568,1.66034421036323,1.7776059730019,1.6600042390775,1.65664230080743,1.65963593685128,1.76572586529477
1.71802600517655,1.71702497861299,1.71784657588686,1.71431465197393,1.71398412433502,1.71105659381895,1.71043331312843,1.71005556725539,1.70854458376323,1.70777964837032,1.70638198864007,1.75167371881765,1.75176815528591,1.70230233321123,1.7008763425405,1.6973916368617,1.79722987110637,1.69745774238948,1.69952590104438,1.86831220076581,1.69479463398455,1.79659714676902,1.6940863604726,1.69297201014712,1.73817874750327,1.86321263147976,1.69126271007162,1.691621568651,1.69331198143286,1.69329309413921,1.7509276707184,1.82336044187396,1.8214528252151,1.81752426813548,1.8190541389213,1.81783590848074,1.81335961988521,1.81412455527811,1.81046986395644,1.80909109151985,1.81343516905981,1.8076934317896,1.8063524339403,1.80401985317427,1.80352878353932,1.7298400073559,1.80623911017839,1.842030531649,1.80452036645605,1.80543640019818,1.80801451578168,1.81040375842866,1.81340683811934,1.81647602333779,1.82080121358411,1.84035900616079,1.91523768184429,1.89705866170421,1.88361090862396,1.8854052015209,1.8124152552026,1.88712394524324,1.89136414266812,1.88643455902494,1.88246822735801,1.88537687058042,1.89312066097776,1.81175419992478,1.88586794021537,1.88748280382262,1.88586794021537,1.81420010445272,1.81656101615923,1.81664600898066,1.89377227260875,1.81681599462353,1.88980594094182,1.8867839739575,1.90038282538696,1.81889359692525,1.9111013645345,1.89211019076737,1.90672895605405,1.88948485694974,1.81754315542913,1.9014499574783,1.8972380909939,1.89034422881091,1.89140191725542,1.88933375860052,1.8896170680053,1.89546268539061,1.89474496823183,1.89182688136259,1.89010813764026,1.91197018004249,1.88955096247752,1.93473881254002,1.84939657617329,1.75134319117874,1.7502760590874,1.94482462735021,1.75128652929779,1.75139040941287,1.74962444745641,1.75271251996852,1.79787203909054,1.75342079348047,1.93486157994876,1.75309026584156,1.75176815528591,1.75361911006381,1.75500732614724,1.91868461293579,1.75293916749234,1.74993608780167,1.75169260611131,1.74830233690077,1.74982276403976,1.74865175183333,1.74466653287275,1.79347129966961,1.68318839203537,1.72831013657009,1.75925696721895,1.67306480263788,1.67147826997111,1.6730364716974,1.67023170859007,1.66733250901449,1.71351194199371,1.66460329508177,1.76179730821515,1.66319619170469,1.77043824506095,1.66059918882753,1.76604694928685,1.66015533742671,1.65901265616076,1.65874823404963,1.65956038767667,1.66027810483545,1.65980592249415,1.65774720748608,1.66024033024815,1.6570294903273,1.65926763462507,1.6560851256447,1.65627399858122,1.65609456929152
1.71896092621233,1.71930089749806,1.71857373669246,1.764139332628,1.80669240522604,1.80741012238481,1.71287921765637,1.75772709643313,1.70981003243792,1.70913008986644,1.7553189664925,1.75310915313521,1.75242921056374,1.80063902761056,1.79371683448709,1.87483776072259,1.74803791478964,1.79764539156671,1.87633930056792,1.69573899866715,1.69662670146879,1.69418079694086,1.74114405260664,1.74140847471777,1.74005803322165,1.69188599076213,1.6929625665003,1.86352427182502,1.69219763110739,1.69467186657581,1.82491864360025,1.82607076851303,1.83676097672008,1.8216322545048,1.81713707861561,1.93400220808759,1.81602272829014,1.81351071823442,1.83826251656542,1.8128118883693,1.83938631053771,1.80711736933321,1.73386300090378,1.73218203176875,1.84076508297431,1.80372710012267,1.84020790781158,1.80457702833701,1.73255977764179,1.80520975267435,1.73514733687212,1.84141669460531,1.84063287191875,1.7437032808965,1.82129228321906,1.8392352121885,1.93423829925824,1.90455691728406,1.89653926112878,1.88597182033046,1.81427565362733,1.81269856460738,1.88852160497349,1.88973983541404,1.88590571480268,1.90499132503806,1.88594348938998,1.89484884834692,1.88619846785429,1.81334073259155,1.89940068611706,1.89657703571608,1.89288456980711,1.88594348938998,1.81647602333779,1.91206461651075,1.88891823814018,1.908088841197,1.90744667321283,1.89686034512086,1.81959242679038,1.89895683471624,1.9051140924468,1.8169859802664,1.89841854684715,1.89907960212497,1.89951400987897,1.90207323816882,1.81860084387365,1.89053310174743,1.81810033059187,1.8949149538747,1.89452776435483,1.89574599479539,1.89230850735072,1.81965853231816,1.88966428623943,1.75513009355598,1.75431793992894,1.75137152211922,1.75035160826201,1.75022884085327,1.75117320553588,1.84788559268113,1.93724137894891,1.75182481716687,1.80020461985656,1.7989108402414,1.75237254868278,1.75359077912334,1.75278806914312,1.7537229901789,1.75424239075433,1.7535057863019,1.75180592987322,1.75223089398039,1.75246698515104,1.75019106626597,1.74698022634512,1.93785521599261,1.829111622791,1.79471786105065,1.68448217165053,1.72731855365335,1.67760719676119,1.76378991769544,1.67041113787977,1.76521590836616,1.71560843158909,1.66646369350649,1.66379114145473,1.66394223980394,1.76462095861613,1.66380058510155,1.7687856068664,1.66050475235927,1.65998535178384,1.75566838142506,1.66012700648623,1.66064640706166,1.65894655063298,1.775537814347,1.65617011846613,1.77564169446209,1.65983425343463,1.65527297201766,1.65598124552961,1.65639676598996,1.70749633896554,1.7690405853307
1.72193567496252,1.72151071085535,1.72000917101002,1.76505536637012,1.76447930391374,1.80608801182917,1.71525901665653,1.71289810495002,1.71213316955712,1.80821283236503,1.75519619908376,1.70654253063611,1.8039915222338,1.70512598361221,1.70288783931444,1.70240621332632,1.70128241935402,1.70020584361585,1.69584287878223,1.69573899866715,1.74463820193227,1.79058154374085,1.74267392339246,1.6940863604726,1.6930003410876,1.69334975602017,1.69091329513905,1.69303811567491,1.69369917095273,1.69559734396476,1.83679875130738,1.82497530548121,1.8376770104622,1.82026292571503,1.74555423567439,1.83917855030754,1.81572053159171,1.81469117408767,1.8154277785401,1.81373736575825,1.84067064650605,1.73603503967377,1.92140438322168,1.7339763246657,1.84160556754183,1.80391597305919,1.73160596931237,1.80416150787666,1.80683405992843,1.73359857879266,1.80762732626181,1.9150960271419,1.84276713610143,1.81493670890515,1.82397427891765,1.75781208925457,1.92536127124178,1.88941875142196,1.88856882320762,1.91173408887184,1.90570904219684,1.8137562530519,1.8107059551271,1.88675564301702,1.88554685622329,1.90591680242701,1.81238692426213,1.8119430728613,1.81424732268685,1.89979731928375,1.89613318431526,1.89884351095432,1.81534278571867,1.89614262796208,1.89691700700182,1.89593486773191,1.90429249517294,1.9081266157843,1.90027894527188,1.90118553536718,1.91507713984825,1.9056240493754,1.9083438196613,1.89856964519637,1.81758093001644,1.90032616350601,1.90840992518908,1.81837419634982,1.8186197311673,1.89152468466416,1.89075974927125,1.89438610965244,1.89486773564057,1.89584987491048,1.81732595155213,1.81741094437357,1.89050477080695,1.75446903827816,1.75172093705178,1.74900116676589,1.74995497509532,1.75188147904783,1.79961911375335,1.75194758457561,1.75141874035335,1.90543517643888,1.75221200668674,1.75106932542079,1.7493316944048,1.9197423013803,1.75318470230982,1.7553189664925,1.75309970948838,1.75523397367106,1.75251420338517,1.7528164000836,1.75178704257957,1.74847232254363,1.74959611651593,1.93916788290142,1.746064192603,1.74557312296805,1.68359446884889,1.76880449416005,1.67484020824117,1.67195045231241,1.67153493185206,1.67033558870516,1.66822021181613,1.66488660448655,1.66333784640708,1.66373447957377,1.66085416729184,1.76568809070747,1.65837048817659,1.77068377987843,1.65923930368459,1.76804900241397,1.75706604115531,1.76894614886244,1.70842181635449,1.65791719312895,1.77543393423192,1.65859713570042,1.70672195992581,1.70620255935038,1.75490344603215,1.70384164764387,1.65905987439489,1.76898392344975
1.72250229377208,1.71971641795841,1.79955300822557,1.76752960183854,1.7164111415693,1.71830931458133,1.81131979217079,1.71358749116832,1.71222760602538,1.70931896280296,1.70798740860049,1.7080629577751,1.70754355719967,1.70373776752879,1.7509654453057,1.70424772445739,1.7008385679532,1.7011313210048,1.70259508626284,1.69657948323466,1.69675891252436,1.78721960547079,1.74361828807506,1.78015575764493,1.85062425026067,1.69260370792091,1.78415986389916,1.69491740139328,1.87136249869061,1.69490795774646,1.91455773927282,1.9213382776939,1.82384206786209,1.82195333849688,1.82228386613579,1.8188747096316,1.8399245984068,1.92255650813446,1.92393528057105,1.81053596948423,1.73946308347161,1.81329351435742,1.8040670714084,1.805880251599,1.80654130687682,1.80498310515053,1.84330542397051,1.80479423221401,1.80482256315449,1.91766469907858,1.81006378714293,1.81368070387729,1.74332553502345,1.82045179865155,1.92477576513857,1.84183221506565,1.92657005803551,1.89167578301338,1.91417054975295,1.88890879449335,1.88939042048148,1.88796442981075,1.81372792211142,1.88858771050127,1.89011758128708,1.88548075069551,1.88510300482247,1.81203750932956,1.90218656193073,1.89584987491048,1.8933189775611,1.81634381228223,1.89601986055334,1.90502909962537,1.89957067175993,1.90154439394657,1.8968036832399,1.88999481387834,1.90126108454178,1.81967741961181,1.82131117051271,1.90874989647482,1.9032253630816,1.82059345335394,1.90548239467301,1.90190325252595,1.89516048869218,1.89958955905358,1.8907030873903,1.89093917856095,1.89947623529167,1.89439555329927,1.89475441187866,1.89359284331906,1.89423501130323,1.89524548151361,1.90214878734343,1.75427072169481,1.75240087962326,1.75084267789697,1.75103155083349,1.75180592987322,1.75130541659144,1.75120153647635,1.75179648622639,1.841596123895,1.79856142530884,1.79840088331279,1.75072935413505,1.75293916749234,1.75293916749234,1.75378909570668,1.93591926839327,1.75219311939309,1.75047437567075,1.75297694207965,1.93725082259574,1.74823623137298,1.74876507559524,1.79536002903482,1.74630028377365,1.74471375110688,1.72888619902647,1.76154232975084,1.67404694190778,1.67383918167761,1.76864395216401,1.73851871878901,1.75499788250041,1.76522535201299,1.66345117016899,1.66293176959356,1.65996646449019,1.65996646449019,1.77141094068403,1.7692577892077,1.66106192752201,1.71146267063247,1.70718469862028,1.65756777819638,1.65715225773604,1.70729802238219,1.65904098710124,1.65919208545046,1.65832326994246,1.6552163101367,1.70598535547338,1.65769054560512,1.65697282844634,1.76982440801726
1.72396605903012,1.8112159120557,1.76905947262435,1.76800178417984,1.7177899140059,1.81004489984927,1.71548566418035,1.71598617746213,1.71092438276339,1.71235037343411,1.7096211595014,1.70997057443396,1.80510587255927,1.80404818411475,1.70361500012005,1.70460658303678,1.70118798288576,1.70278395919936,1.80338712883693,1.69963922480629,1.87476221154798,1.69572955502032,1.79777760262228,1.69445466269881,1.87356286840107,1.69346307978208,1.79080819126467,1.69551235114332,1.69469075386946,1.69604119536558,1.82485253807247,1.84055732274414,1.82414426456052,1.82359653304461,1.84022679510523,1.81995128536977,1.81646657969097,1.8169859802664,1.8408689630894,1.73845261326123,1.91614427193959,1.73511900593164,1.92394472421788,1.73477903464591,1.80965771032941,1.8072967986229,1.80697571463082,1.80701348921812,1.80581414607122,1.8457702157921,1.80953494292067,1.84355095878799,1.8434093040856,1.74691412081734,1.75470512944881,1.84470308370076,1.93155630355965,1.89016479952121,1.88994759564421,1.81627770675445,1.88938097683465,1.88507467388199,1.81532389842502,1.81555998959567,1.88858771050127,1.90012784692266,1.88727504359245,1.89086362938634,1.8983996595535,1.81598495370284,1.89644482466051,1.81740150072674,1.90126108454178,1.81740150072674,1.90582236595875,1.90415084047055,1.89163800842607,1.89141136090225,1.90178992876404,1.82028181300868,1.90676673064135,1.90891988211769,1.82173613461988,1.89247849299359,1.89235572558485,1.82069733346902,1.81857251293317,1.91412333151882,1.89132636808081,1.89062753821569,1.89213852170785,1.89415001848179,1.8978897026249,1.89213852170785,1.89511327045805,1.89477329917231,1.91473716856251,1.75524341731789,1.7525991962066,1.84986875851459,1.75097488895253,1.75115431824222,1.74982276403976,1.84995375133603,1.75209868292483,1.75452570015911,1.80005352150735,1.75449736921863,1.75315637136934,1.91912846433661,1.85286239455844,1.75465791121468,1.92452078667427,1.75279751278995,1.75163594423035,1.75229699950817,1.92884597692058,1.74844399160316,1.91519046361016,1.74786792914677,1.793612954372,1.74646082576969,1.76226004690962,1.68021364328517,1.67666283207859,1.67334811204266,1.71883815880359,1.73857538066997,1.7142674337398,1.6653776741215,1.6660670603398,1.66306398064912,1.66197796126413,1.65722780691065,1.65807773512499,1.6575394472559,1.65806829147816,1.75560227589728,1.65817217159325,1.8202912566555,1.70879011858071,1.65662341351378,1.65753000360908,1.6600797882521,1.65973981696637,1.65794552406942,1.65895599427981,1.65641565328361,1.66009867554576,1.65764332737099
1.8111781374684,1.81122535570253,1.72474043806985,1.76941833120374,1.72231342083556,1.71866817316072,1.71610894487087,1.81369014752412,1.71300198506511,1.80999768161514,1.70985725067205,1.71010278548952,1.71218983143807,1.8063524339403,1.70506932173125,1.81377514034555,1.75156039505574,1.70378498576292,1.70003585797299,1.70012085079442,1.80118675912647,1.69667391970292,1.7977492716818,1.69861931094908,1.69560678761158,1.79296134274101,1.69578621690128,1.69633394841719,1.8747716551948,1.69674002523071,1.75514898084963,1.91853351458657,1.75133374753192,1.91877904940405,1.82092398099285,1.81987573619516,1.7442132378251,1.81733539519896,1.81386957681381,1.84317321291495,1.81158421428191,1.73615780708251,1.80721180580147,1.80711736933321,1.84697900258583,1.84653515118501,1.80737234779751,1.80672073616652,1.73297529810214,1.84604408155006,1.8093649572778,1.740039145928,1.91771191731271,1.7484251043095,1.84368316984355,1.84407035936342,1.92530460936083,1.89414057483497,1.88897490002113,1.89161912113242,1.89068420009664,1.88726559994563,1.81741094437357,1.89084474209269,1.88572628551298,1.88838939391792,1.88812497180679,1.90436804434754,1.89900405295037,1.89774804792251,1.89652981748195,1.90735223674457,1.81774147201248,1.90581292231193,1.90169549229578,1.90677617428818,1.89386670907701,1.90842881248273,1.82080121358411,1.91833519800323,1.82028181300868,1.89842799049398,1.90045837456157,1.82011182736581,1.89217629629515,1.81967741961181,1.8186575057546,1.90633232288736,1.89673757771212,1.89249738028724,1.89345118861667,1.89527381245409,1.89566100197396,1.89514160139852,1.88978705364817,1.89300733721584,1.81791145765535,1.75389297582177,1.75236310503595,1.75263697079391,1.75189092269465,1.75125819835731,1.79834422143184,1.8255513679376,1.75175871163909,1.74947334910719,1.74930336346432,1.75217423209943,1.74928447617067,1.75156039505574,1.93138631791678,1.80118675912647,1.75513009355598,1.75290139290504,1.75209868292483,1.75180592987322,1.7491144905278,1.74915226511511,1.74822678772616,1.74890673029763,1.74803791478964,1.74708410646021,1.76902169803705,1.76976774613631,1.67615287514999,1.67406582920144,1.71730828801777,1.71654335262487,1.66414055638729,1.66300731876817,1.66347005746264,1.66194018667683,1.70624977758451,1.70637254499324,1.6595698313235,1.77130706056895,1.65826660806151,1.65709559585508,1.76089071811985,1.75844481359191,1.66039142859736,1.65756777819638,1.74966222204371,1.65682173009713,1.65812495335912,1.65749222902177,1.65749222902177,1.66010811919258,1.65790774948212,1.65707670856143
1.77215698878329,1.72386217891503,1.81599439734967,1.9601044479147,1.71948032678776,1.72005638924415,1.76821898805684,1.81512558184167,1.7145601867914,1.71342694917228,1.81420010445272,1.71074495347369,1.71048997500939,1.70821405612432,1.70611756652894,1.81515391278215,1.7041438443423,1.79851420707471,1.80677739804747,1.70222678403662,1.7008385679532,1.69775049544109,1.69749551697679,1.69669280699658,1.79580388043564,1.69606952630606,1.8629387657218,1.69460576104803,1.69385026930194,1.69805269213952,1.75839759535778,1.91781579742779,1.824172595501,1.92009171631286,1.91834464165005,1.82014015830629,1.81908246986177,1.81718429684974,1.84324876208955,1.84383426819277,1.81170698169065,1.84526970251032,1.84500528039919,1.80984658326593,1.84729064293109,1.73546842086421,1.80742900967847,1.8063524339403,1.73506234405069,1.84637460918897,1.81098926453188,1.74207897364242,1.74345774607902,1.82056512241346,1.84595908872862,1.8308870283943,1.92099830640816,1.89890017283528,1.89028756692995,1.89128859349351,1.90782441908587,1.8940083637794,1.88978705364817,1.89160023383877,1.88811552815997,1.88820996462823,1.88802109169171,1.8984374341408,1.89532103068822,1.90196935805374,1.89003258846565,1.89600097325969,1.8902686796363,1.89761583686694,1.81926189915147,1.90295149732364,1.89344174496984,1.90593568972066,1.82378540598113,1.90978869762568,1.90212990004978,1.92211265673363,1.89174188854116,1.91197962368932,1.89254459852137,1.91515268902286,1.89195909241816,1.90878767106212,1.91062918219319,1.89206297253324,1.91200795462979,1.89221407088246,1.89779526615664,1.89297900627537,1.8198190743142,1.89071253103712,1.75583836706793,1.75456347474642,1.75175871163909,1.7528164000836,1.751437627647,1.84509027322063,1.75117320553588,1.74904838500002,1.84816890208591,1.75013440438501,1.75115431824222,1.75164538787718,1.92147993239629,1.8432298747959,1.752523647032,1.75201369010339,1.75048381931758,1.75310915313521,1.93526765676228,1.75220256303991,1.74866119548015,1.75087100883744,1.74959611651593,1.74922781428972,1.74601697436887,1.74953945463497,1.77138260974355,1.77187367937851,1.76734072890202,1.7711087439856,1.71769547753764,1.71673222556139,1.66708697419701,1.77694491772408,1.66333784640708,1.77161870091421,1.70594758088607,1.70551317313208,1.75564949413141,1.656340104109,1.65883322687107,1.65551850683514,1.65660452622013,1.656340104109,1.77272360759285,1.77375296509689,1.77277082582698,1.65932429650602,1.77414015461675,1.77410238002945,1.65738834890669,1.65945650756159,1.65683117374395,1.70366221835418
1.75013440438501,1.77402683085484,1.72534483146672,1.72623253426836,1.81462506855989,1.7676618128941,1.76850229746162,1.81615493934571,1.71888537703772,1.71493793266444,1.71184986015234,1.71059385512448,1.75661274610766,1.8854052015209,1.81938466656021,1.70722247320759,1.70594758088607,1.751437627647,1.88181661572701,1.70286895202079,1.70089522983415,1.70125408841354,1.87438446567494,1.78532143245876,1.69753329156409,1.6973538622744,1.69498350692107,1.69577677325445,1.79348074331644,1.6992048170523,1.82957436148548,1.92280204295193,1.82639185250511,1.82476754525104,1.82149059980241,1.84579854673258,1.81944132844116,1.74343885878537,1.74221118469798,1.84600630696275,1.73865092984458,1.847838374447,1.73679997506668,1.81106481370648,1.8098371396191,1.80811839589677,1.80708903839273,1.80673962346017,1.81063040595249,1.84750784680809,1.84786670538748,1.84696011529218,1.81966797596499,1.82182112744132,1.92229208602333,1.84610074343101,1.82055567876663,1.9053690709111,1.89231795099754,1.89213852170785,1.89600097325969,1.89045755257282,1.81572997523854,1.8949149538747,1.89037255975139,1.88987204646961,1.81509725090119,1.88837050662427,1.90192213981961,1.90900487493912,1.81696709297275,1.89665258489069,1.8961142970216,1.91967619585252,1.82000794725072,1.89786137168442,1.89533991798187,1.82074455170315,1.91267845355444,1.91189463086788,1.92251873354715,1.82133950145319,1.91169631428453,1.90294205367682,1.91761748084445,1.82172669097306,1.90105332431161,1.89964622093454,1.90094944419653,1.82026292571503,1.91714529850315,1.89533047433504,1.89645426830734,1.89388559637066,1.81959242679038,1.89193076147768,1.89649204289465,1.9426809195207,1.92316090153132,1.75062547401997,1.74997386238897,1.85693260634045,1.75220256303991,1.92386917504327,1.74896339217859,1.80935551363097,1.80500199244418,1.92840212551976,1.75151317682161,1.75462013662737,1.84446699253011,1.75246698515104,1.75293916749234,1.75059714307949,1.75000219332945,1.74943557451989,1.74845343524998,1.74884062476985,1.74776404903168,1.74783015455947,1.74946390546037,1.74604530530935,1.77296914241033,1.77149593350547,1.72266283576813,1.77134483515625,1.66978785718925,1.6677008112407,1.66617094045489,1.7112549104023,1.66312064253008,1.66307342429595,1.66023088660132,1.70562649689399,1.6572844687916,1.65768110195829,1.76142900598893,1.65830438264881,1.6581910588869,1.65948483850206,1.77420626014453,1.65832326994246,1.70587203171147,1.77371519050958,1.65715225773604,1.6588804451052,1.65806829147816,1.65487633885097,1.65670840633521,1.70439882280661
1.72550537346276,1.72685581495888,1.72806460175261,1.7242493684349,1.80817505777772,1.72416437561346,1.76834175546558,1.76741627807663,1.71711941508125,1.81567331335758,1.80680572898795,1.71303975965241,1.75814261689348,1.70863902023149,1.70723191685441,1.70618367205672,1.70624977758451,1.75243865421056,1.70398330234626,1.88154274996906,1.70059303313572,1.88189216490162,1.69860042365543,1.78913666577647,1.74591309425378,1.6992425916396,1.74499706051166,1.6973538622744,1.79229084381636,1.69946923916343,1.7580765113657,1.75558338860363,1.92398249880518,1.82414426456052,1.9252573911267,1.74876507559524,1.84557189920875,1.84608185613736,1.81641936145684,1.81457785032576,1.74113460895982,1.73935920335653,1.7381881911501,1.84627072907388,1.7353550971023,1.80930829539684,1.7354306462769,1.80870390199998,1.80854336000394,1.8091099788135,1.84980265298681,1.81342572541299,1.74564867214265,1.82342654740174,1.84615740531197,1.84678068600248,1.93127299415487,1.89500939034296,1.91049697113763,1.9083815942486,1.8935361814381,1.89358339967223,1.81683488191718,1.89523603786678,1.89475441187866,1.9148410486776,1.88974927906087,1.88999481387834,1.90569015490319,1.90247931498234,1.81915801903638,1.90180881605769,1.91668255980867,1.90661563229214,1.90739001133187,1.90432082611341,1.82276549212392,1.91184741263375,1.90161049947435,1.90193158346643,1.82300158329457,1.90120442266083,1.90407529129594,1.89207241618007,1.91291454472509,1.90831548872082,1.89210074712055,1.91159243416945,1.90411306588324,1.91213072203853,1.90172382323626,1.89553823456522,1.89694533794229,1.89582154397,1.89282790792615,1.81986629254833,1.89134525537446,1.75452570015911,1.75474290403611,1.93579650098453,1.74873674465476,1.74872730100794,1.95093466684664,1.84811224020495,1.8021783420432,1.84104839237909,1.74966222204371,1.84351318420068,1.75178704257957,1.75210812657165,1.751437627647,1.74941668722624,1.75186259175418,1.75207035198435,1.75111654365492,1.74955834192863,1.74837788607537,1.74859508995237,1.74996441874215,1.7481323512579,1.9326612102383,1.74696133905147,1.68470881917436,1.6802608615193,1.67509518670547,1.67283815511405,1.66872072509791,1.75581947977428,1.66554765976437,1.66354560663725,1.66268623477608,1.65906931804172,1.65826660806151,1.70626866487816,1.65667063174791,1.65716170138286,1.65560349965657,1.6584082627639,1.65755833454956,1.70613645382259,1.77431958390645,1.77558503258113,1.70633477040594,1.65825716441468,1.75741545608787,1.6577188765456,1.65778498207338,1.76847396652114,1.65779442572021,1.65638732234313
1.72888619902647,1.72852734044708,1.7743384712001,1.72695969507396,1.79198864711793,1.72278560317686,1.77111818763243,1.76842674828701,1.81512558184167,1.71719496425586,1.80774065002373,1.82618409227494,1.81370903481777,1.71032943301335,1.70935673739027,1.70907342798549,1.70883733681484,1.75431793992894,1.75465791121468,1.88451749871925,1.70279340284618,1.70218900944932,1.70189625639771,1.80074290772565,1.74563922849583,1.69946923916343,1.69916704246499,1.79411346765378,1.70198124921915,1.70075357513176,1.83115145050542,1.9227170501305,1.82807282164014,1.82479587619151,1.82480531983834,1.82404982809226,1.84695067164535,1.93061193887705,1.81508780725437,1.84726231199061,1.74100239790425,1.81230193144069,1.7389153519557,1.80866612741267,1.81049819489692,1.80789174837294,1.80800507213485,1.80801451578168,1.73653555295555,1.73861315525727,1.81300076130582,1.81477616690911,1.81785479577439,1.75102210718666,1.82689236578689,1.83403176278736,1.92449245573379,1.90896710035182,1.89575543844222,1.89236516923168,1.88999481387834,1.89666202853751,1.81743927531405,1.817930344949,1.89243127475946,1.81740150072674,1.8919024305372,1.81801533777043,1.90496299409758,1.9013744083037,1.81851585105221,1.91237625685601,1.82101841746111,1.90096833149018,1.82037624947694,1.82280326671122,1.82294492141361,1.91142244852658,1.9085987981256,1.8232660054057,1.90535962726428,1.91076139324876,1.91141300487975,1.90571848584367,1.8965487047756,1.92291536671384,1.89367783614049,1.89361173061271,1.89335675214841,1.91013811255824,1.89201575429911,1.89704921805738,1.89550045997791,1.89846576508128,1.89366839249367,1.90879711470895,1.80405762776158,1.75520564273059,1.75312804042886,1.75125819835731,1.75115431824222,1.84977432204633,1.74953001098815,1.84747007222078,1.80011962703513,1.84739452304618,1.74955834192863,1.75135263482557,1.92210321308681,1.75439348910355,1.7525991962066,1.83321960916032,1.75228755586135,1.75261808350026,1.79728653298732,1.7975320678048,1.74897283582541,1.93219847154382,1.75207035198435,1.91496381608634,1.74875563194841,1.74664969870621,1.76876671957275,1.67976034823753,1.72257784294669,1.67259262029658,1.67050557434803,1.66672811561762,1.75123931106366,1.66323396629199,1.6602592175418,1.77811592993051,1.65781331301386,1.65790774948212,1.65618900575978,1.65600957647009,1.70365277470735,1.6568122864503,1.65713337044239,1.66002312637115,1.77395128168023,1.77689769948995,1.76571642164794,1.65742612349399,1.65894655063298,1.76877616321957,1.65730335608525,1.65813439700594,1.77161870091421,1.76903114168388
1.69006336692471,1.89073141833077,1.81728817696483,1.72853678409391,1.72681804037157,1.7261003232128,1.72263450482765,1.77000383730696,1.71812044164481,1.71883815880359,1.71609950122404,1.82605188121937,1.81322740882964,1.71224649331903,1.71036720760065,1.71079217170782,1.81155588334144,1.70628755217181,1.79168645041949,1.75760432902439,1.75796318760378,1.74983220768658,1.70212290392154,1.70217012215567,1.74732019763086,1.74598864342839,1.70044193478651,1.70086689889368,1.69960145021899,1.69923314799277,1.76145733692941,1.83581661203748,1.85277740173701,1.82900774267592,1.84696011529218,1.82325656175887,1.82061234064759,1.81980963066738,1.81986629254833,1.81721262779022,1.81400178786938,1.74143680565825,1.73951974535257,1.81192418556765,1.73776322704293,1.80941217551193,1.80864724011902,1.84893383747882,1.81140478499222,1.739604738174,1.92510629277748,1.74254171233689,1.82001739089755,1.82612743039398,1.82730788624724,1.85018039885985,1.93256677377003,1.82315268164379,1.89188354324355,1.89352673779128,1.90757888426839,1.81992295442929,1.81947910302847,1.89482996105327,1.89490551022787,1.8942633422437,1.81990406713564,1.89170411395385,1.81825142894108,1.89212907806102,1.89922125682736,1.90811717213747,1.90496299409758,1.82028181300868,1.90814550307795,1.82081065723093,1.82371930045335,1.91770247366588,1.91841074717783,1.90519908526823,1.90974147939155,1.82223664790166,1.90450969904993,1.89613318431526,1.9120457292171,1.89623706443034,1.90611511901036,1.82060289700076,1.89482996105327,1.89442388423975,1.81977185608007,1.81917690633003,1.90163883041483,1.81914857538956,1.89165689571972,1.89177021948164,1.75301471666695,1.8246447778423,1.75288250561138,1.75181537352004,1.74935058169845,1.74892561759128,1.74986053862706,1.7488595120635,1.75063491766679,1.74852898442459,1.75152262046844,1.75218367574626,1.75257086526613,1.74979443309928,1.75117320553588,1.83696873695025,1.74992664415484,1.75206090833752,1.79982687398352,1.82924383384657,1.7506726922541,1.74762239432929,1.74819845678568,1.74942613087306,1.74885006841668,1.73267310140371,1.73013276040751,1.6783343575668,1.73871703537236,1.67293259158231,1.77592500386687,1.66815410628835,1.71285088671589,1.66233681984352,1.66126024410536,1.65977759155367,1.77796483158129,1.66022144295449,1.776406629855,1.655688492478,1.65950372579572,1.77397016897388,1.77556614528748,1.65668007539474,1.65685950468443,1.65996646449019,1.65932429650602,1.66062751976801,1.65757722184321,1.77431014025962,1.65629288587487,1.65788886218847,1.65647231516456,1.65432860733506
1.73062383004246,1.81719374049657,1.7305293935742,1.73013276040751,1.72926394489951,1.72699746966127,1.72383384797455,1.7708915401086,1.80637132123395,1.76781291124332,1.71878149692263,1.71667556368043,1.81361459834951,1.81440786468289,1.71098104464434,1.81437953374242,1.70978170149744,1.70843126000132,1.75450681286546,1.70558872230669,1.75282584373043,1.75220256303991,1.70194347463184,1.74799069655551,1.70092356077463,1.6998942032706,1.70090467348098,1.7003663856119,1.88293096605248,1.83301184893015,1.84989708945507,1.83137809802925,1.84924547782408,1.82988600183074,1.82522084029869,1.75042715743662,1.74890673029763,1.81974352513959,1.93385110973837,1.93836517292121,1.9292520537341,1.81440786468289,1.74183343882494,1.7381881911501,1.81049819489692,1.81002601255562,1.73646000378094,1.81045097666279,1.85192747352266,1.73936864700335,1.7412007144876,1.81869528034191,1.85100199613372,1.85032205356224,1.84940601982012,1.83326682739445,1.94402191737,1.82387984244939,1.89991064304566,1.90908986776055,1.89135469902129,1.8207256644095,1.82150004344923,1.89659592300973,1.89089196032682,1.9074750041533,1.89313010462458,1.89131692443399,1.89165689571972,1.90563349302223,1.81997017266342,1.82006460913168,1.90876878376847,1.90563349302223,1.90153495029974,1.89784248439077,1.90286650450221,1.82366263857239,1.82345487834222,1.82358708939778,1.90530296538332,1.90620955547862,1.90249820227599,1.82414426456052,1.9083438196613,1.92331199988054,1.89503772128344,1.91831631070957,1.89600097325969,1.89554767821204,1.89235572558485,1.89199686700546,1.89800302638681,1.9004678182084,1.81845918917126,1.90634176653418,1.93292563234942,1.8332101655135,1.75274085090899,1.75106932542079,1.94561789368359,1.74936002534528,1.84676179870883,1.74944501816671,1.93450272136937,1.84590242684767,1.75186259175418,1.75347745536142,1.75324136419077,1.92005394172556,1.75173038069861,1.8292910520807,1.75246698515104,1.7523442177423,1.75266530173439,1.83030152229108,1.94701555341384,1.92843990010707,1.74833066784124,1.74818901313885,1.75022884085327,1.74750907056738,1.68259344228533,1.72598699945088,1.72253062471256,1.67269650041166,1.6702789268242,1.66686032667318,1.66302620606182,1.77835202110116,1.66048586506562,1.65858769205359,1.65700115938682,1.77427236567232,1.77722822712886,1.6556507178907,1.77380018333102,1.65646287151774,1.6558679217677,1.74925614523019,1.6581532842996,1.77260084018411,1.65752055996225,1.65882378322424,1.65577348529944,1.65533907754544,1.65702004668047,1.65702004668047,1.65736001796621,1.65447026203745
