1.74886203615431,1.75079269048589,1.92001218819248,1.74690312834471,1.74374815663213,1.74568822878971,1.74351271098193,1.74241082533903,1.78905731755523,1.91987092080237,1.91940944732799,1.83165414458812,1.73433033062441,1.78108983675271,1.73324728063353,1.73044076848323,1.7273517215527,1.81248886866242,1.72441335983829,1.72092876421544,1.71915821292599,1.82461902856036,1.89691026099556,1.71550409643499,1.71550409643499,1.71796214902301,1.81293150648479,1.71761368946072,1.76467456602126,1.71737824381053,1.87250867380958,1.84579971925171,1.87051209469594,1.84452831274066,1.8382183693155,1.87089822556226,1.76290401473181,1.83095722546355,1.82941270199828,1.83025088851297,1.75578413826998,1.86698982776906,1.75002984657927,1.74679953225862,1.82169008467196,1.74776956833742,1.81839384556926,1.82016439685871,1.74857950137408,1.93911153933613,1.75318481829185,1.82563615376919,1.82975174373456,1.76340315951022,1.83791699888325,1.84482968317291,1.946278504928,1.83471493804063,1.91717742256416,1.91649933909161,1.83123976024378,1.90527329049041,1.82900773547995,1.82794352114108,1.9013460570452,1.90833408394292,1.82996835373274,1.92084095688116,1.90162859182543,1.82978941503859,1.82974232590855,1.82996835373274,1.83119267111374,1.92300705686294,1.91643341430955,1.91386234780945,1.82856509765759,1.82991184677669,1.91325960694496,1.9092852843697,1.82795293896709,1.91965431080419,1.82645550463186,1.89778611881428,1.90622449091719,1.91401303302557,1.9166123530037,1.82170892032398,1.82225515423242,1.91378700520139,1.82292381987897,1.89739057012196,1.89361402189287,1.82089898728731,1.81979710164441,1.89416967362732,1.75418310784867,1.75195108308484,1.85192130615672,1.85045212529952,1.744812370971,1.84798465488549,1.74074387013566,1.73967023797079,1.73969849144881,1.85060281051564,1.74171390621446,1.74120534361004,1.74259918185918,1.74390825967426,1.79221228926782,1.74467110358088,1.74426613706255,1.85002832312917,1.74483120662301,1.74350329315592,1.74660175791246,1.74556579705161,1.79273968752425,1.74655466878242,1.74741169094913,1.76371394776848,1.66526941250985,1.66310331252808,1.66298088078998,1.66070176689611,1.65770689822566,1.65719833562124,1.65435415216691,1.65381733608447,1.65509816042152,1.65264010783351,1.65306391000386,1.65248942261738,1.77073022814422,1.77019341206178,1.64772400265748,1.64940037568685,1.75775246390559,1.65025739785356,1.6489671556905,1.64901424482054,1.76080383953209,1.77135180466073,1.64706475483694,1.75088686874597,1.69471895443597,1.64675396657869,1.69181826402559,1.64588752658598
1.75125416396027,1.83849148626972,1.85501035308725,1.74858891920009,1.74686545704068,1.74534918705344,1.74344678619988,1.74474644618894,1.74503839879518,1.84439646317656,1.74070619883163,1.73880379797808,1.73999044405505,1.80613183610722,1.7793663745933,1.83554370672931,1.73080806369753,1.77547681245211,1.72581661591344,1.72478065505259,1.7208816750854,1.72168219029605,1.82927143460817,1.81333647300312,1.76441086689305,1.71621985121158,1.7186873216256,1.71878149988568,1.7180751629351,1.71828235510727,1.77682356157121,1.84707112576275,1.84601632924988,1.84444355230659,1.76769768816974,1.83793583453526,1.83579798803151,1.83252058458083,1.87001294991754,1.87269703032973,1.82817896679127,1.75346735307209,1.7531188935098,1.82459077508234,1.86718760211522,1.82077655554921,1.82130395380564,1.75029354570749,1.82146405684777,1.87038966295784,1.82476971377648,1.82782108940298,1.86380660257845,1.83512932238497,1.86369358866636,1.86172526303075,1.86275180606559,1.83447007456443,1.92761237378071,1.8338296623959,1.90509435179627,1.90907809219753,1.83063701937929,1.90309777268263,1.90307893703062,1.90332380050682,1.90155324921737,1.82950688025836,1.91785550603672,1.91585892692308,1.91995568123644,1.91660293517769,1.91861834994334,1.91593426953115,1.92506956075863,1.9153880356227,1.90777843220847,1.90479298136402,1.829064242436,1.91290172955666,1.91106525348516,1.90285290920643,1.92370397598751,1.89648645882522,1.91005754610233,1.82734078027659,1.82561731811718,1.82226457205843,1.92230071991236,1.89794622185641,1.8235736498735,1.89635460926111,1.82208563336428,1.82263186727273,1.82132278945766,1.82097432989537,1.75423961480472,1.75244081003724,1.85185538137466,1.85374836440222,1.74404010923836,1.74093222665582,1.78860526190686,1.74092280882981,1.85225093006699,1.73999986188106,1.74027297883528,1.74289113446542,1.85066873529769,1.79141177405716,1.7918261584015,1.83111732850568,1.9295524459383,1.84374663318202,1.74478411749297,1.74424730141053,1.84120382015994,1.74633805878425,1.7929280440444,1.93005159071671,1.74703497790882,1.67027969594595,1.83159763763207,1.66383790295668,1.66028738255177,1.65822487865608,1.78216346891759,1.65714182866519,1.65571031911202,1.65477795433726,1.65215038088111,1.65109558436824,1.65325226652401,1.65265894348552,1.64969232829309,1.649579314381,1.65059643958983,1.64924027264472,1.69765731615038,1.65099198828216,1.64953222525096,1.76272507603767,1.64699883005489,1.6467728022307,1.64576509484788,1.76272507603767,1.76638861035467,1.64871287438829,1.6460382118021,1.64613239006218
1.8232063546592,1.85683741133275,1.8548314143931,1.92622795335758,1.74637573008828,1.74773189703339,1.74678069660661,1.74595192791793,1.74671477182456,1.74064027404958,1.92274335773472,1.73911458623633,1.92291287860286,1.73685430799448,1.7333414588936,1.83696579845647,1.73017706935501,1.77670112983311,1.83341527805156,1.72609915069367,1.72391421505988,1.72469589461852,1.72206832116237,1.71973270031246,1.76611549340044,1.7190546168399,1.72065564726121,1.72013766683079,1.72035427682897,1.96303281739572,1.77706842504741,1.87409086857888,1.84679800880852,1.77081498857829,1.84098721016176,1.8387080962679,1.83628771498391,1.76199048560907,1.83172006937017,1.82854626200557,1.75656581782862,1.8258904350714,1.86835541254018,1.75083036178993,1.82424231552005,1.82096491206937,1.75039714179357,1.86721585559324,1.75260091307938,1.82484505638454,1.86739479428739,1.75573704913994,1.83273719457901,1.76298877516588,1.84128858059401,1.86195129085493,1.96857991691426,1.92569113727514,1.83587333063958,1.91616029735533,1.90532037962045,1.90622449091719,1.83219096067056,1.90650702569742,1.8310137324196,1.82950688025836,1.83145637024196,1.91218597478008,1.8307688689434,1.83170123371816,1.91877845298547,1.83148462371998,1.91437091041386,1.83142811676394,1.83131510285184,1.90389828789329,1.91590601605312,1.83107965720165,1.90103526878694,1.92251732991054,1.91881612428951,1.82788701418503,1.90101643313493,1.91648050343959,1.90723219830002,1.82664386115202,1.82729369114655,1.82435532943214,1.91281696912259,1.89605323882886,1.90436917919367,1.82021148598875,1.89529981274825,1.82026799294479,1.89187172408144,1.81985360860046,1.85982286217719,1.85061222834165,1.74942710571478,1.74547161879154,1.85290076006152,1.74340911489585,1.73929352493048,1.73774900146521,1.93670057587815,1.73986801231695,1.74001869753307,1.73967023797079,1.93080501679732,1.92252674773654,1.84247522667098,1.84480142969489,1.91621680431138,1.84508396447512,1.74164798143241,1.74540569400948,1.92695312596017,1.74504781662119,1.74461459662483,1.74322075837569,1.74848532311401,1.761915143001,1.76323363864208,1.66534475511791,1.78205045500549,1.65976940212135,1.65645432736663,1.65588925780617,1.7703346794519,1.74669593617254,1.77575934723234,1.65278137522362,1.77231242291352,1.65167007175471,1.6506812000239,1.77355557594654,1.64917434786267,1.7719168742212,1.77068313901419,1.74332435446178,1.76135007344054,1.76744340686753,1.76634152122463,1.77261379334577,1.75296820829368,1.76663347383087,1.64661269918857,1.64641492484241,1.64560499180575,1.64635841788636
1.82424231552005,1.75621735826634,1.85478432526306,1.75108464309213,1.74743994442715,1.74606494183002,1.74555637922561,1.92811151855912,1.92923223985404,1.92022879819066,1.74242966099105,1.74015996492319,1.84342642709776,1.83745552540887,1.78194685891941,1.73371817193391,1.73352981541376,1.72785086633111,1.73023357631106,1.77580643636238,1.89903868967331,1.82653084723992,1.82850859070154,1.72126780595171,1.7675281673016,1.82432707595412,1.72057088682714,1.76737748208548,1.72167277247005,1.85149750398637,1.7796206558955,1.84602574707589,1.84877575227014,1.84436820969853,1.84171238276436,1.8743639855331,1.83673035280628,1.87384600510268,1.76139716257058,1.95254135922313,1.83024147068696,1.87231089946342,1.75424903263073,1.9451860371111,1.82732194462457,1.75136717787237,1.82058819902906,1.82331936857129,1.75062316961776,1.75119765700423,1.75372163437429,1.82903598895798,1.83123034241777,1.9399308901988,1.83875518539794,1.93962010194054,1.95427423920855,1.92506014293262,1.91747879299641,1.91968256428222,1.92765946291075,1.83356596326769,1.8347996984747,1.83384849804792,1.91435207476185,1.91519026127654,1.92254558338856,1.83224746762661,1.8312680137218,1.9167347847418,1.91664060648172,1.9175823890825,1.91678187387184,1.91292998303468,1.91361748433325,1.90730754090808,1.9042750009336,1.90352157485298,1.91639574300552,1.90971850436605,1.9106320334888,1.83014729242689,1.90387003441526,1.82870636504771,1.92314832425305,1.82620122332965,1.91288289390465,1.82793410331507,1.91426731432778,1.90398304832736,1.90338972528887,1.82302741596506,1.82346063596141,1.82205737988626,1.82174659162801,1.81944864208212,1.85857970914417,1.7515366987405,1.74727984138502,1.74663001139049,1.74297589489949,1.85771326915146,1.7406591097016,1.73794677581137,1.84781513401736,1.78707015626761,1.78751279408997,1.74131835752214,1.74087571969977,1.74368223185007,1.79067718362856,1.74252383925112,1.83823720496751,1.74621562704615,1.79479277359393,1.74596134574394,1.74558463270363,1.74641340139231,1.74453925401677,1.80152651918945,1.79364379882099,1.71519330817674,1.71311196862903,1.73255036150895,1.66170005645293,1.6570288147531,1.65601168954427,1.65621888171644,1.778999079379,1.65086955654406,1.65330877348006,1.77374393246669,1.77487407158762,1.65097315263014,1.77102218075046,1.77384752855278,1.64989010263926,1.6492120191667,1.64795003048167,1.64900482699453,1.7696000890233,1.6477428383095,1.69480371487004,1.64648084962446,1.69299549227656,1.6460382118021,1.6453036213735,1.64548256006765,1.69146980446331,1.64584985528195
1.88436571675329,1.75488944479925,1.75320365394387,1.80047172267658,1.75205467917093,1.83849148626972,1.85460538656892,1.92964662419838,1.74666768269452,1.74599901704797,1.8484743818379,1.8420043353706,1.73841766711176,1.73676954756041,1.73572416887355,1.78165490631317,1.73287056759322,1.72887740936595,1.77674821896315,1.77466687941545,1.81772517992271,1.7243003459262,1.72170102594807,1.83120208893975,1.72167277247005,1.72095701769346,1.72071215421726,1.72133373073377,1.88636229586693,1.87835714376037,1.85235452615307,1.84914304748444,1.84813534010162,1.84585622620775,1.84410451057032,1.84121323798595,1.83557196020733,1.7636197695084,1.76086976431415,1.75912746650272,1.7575170182554,1.87388367640671,1.82555139333512,1.82945037330232,1.82260361379471,1.82248118205661,1.87009771035161,1.75107522526613,1.94254904582894,1.9423795249608,1.86834599471417,1.86853435123433,1.83191784371634,1.83825604061953,1.93703019978842,1.86504033778546,1.94584528493164,1.83845381496569,1.92988206984857,1.92597367205537,1.90771250742641,1.83495980151683,1.83233222806068,1.83243582414676,1.83195551502037,1.83136219198188,1.91019881349245,1.83185191893428,1.83292555109916,1.83170123371816,1.91600961213921,1.92236664469441,1.92056783992694,1.92974080245845,1.83299147588122,1.91967314645621,1.91593426953115,1.90546164701057,1.90969025088803,1.91081097218295,1.83031681329502,1.92273393990871,1.91412604693766,1.82957280504042,1.90302243007457,1.90118595400307,1.91330669607499,1.89691026099556,1.91926817993788,1.82373375291563,1.90718510916998,1.82172775597599,1.89222960146973,1.82166183119394,1.82131337163165,1.89934947793156,1.86035967825963,1.94522370841513,1.93639920544591,1.74374815663213,1.74404010923836,1.85406857048648,1.7404236640514,1.85465247569896,1.83715415497662,1.84763619532321,1.78702306713757,1.78694772452951,1.93393173503189,1.8475043457591,1.74343736837387,1.84522523186523,1.74215654403682,1.74175157751849,1.79171314448941,1.74441682227867,1.74428497271456,1.83353770978966,1.74745878007916,1.74581066052781,1.74539627618348,1.71568303512914,1.71235854254842,1.71041847039083,1.77251961508569,1.65906306517077,1.65571973693803,1.70355287523121,1.70067102047285,1.65260243652948,1.65438240564493,1.65313925261192,1.64972058177112,1.77453502985134,1.65153822219061,1.64943804699089,1.64888239525643,1.74093222665582,1.64771458483147,1.64751681048531,1.76600247948835,1.64733787179117,1.64706475483694,1.76664289165688,1.64483273007311,1.76822508642617,1.64636783571237,1.6453036213735,1.76916686902694,1.64526595006947
1.85430401613667,1.8556790187338,1.83509165108094,1.8407894358156,1.84089303190169,1.75127299961229,1.7482404596378,1.74953070180086,1.74685603921467,1.7465264153044,1.74375757445813,1.74227897577492,1.83345294935559,1.83463959543257,1.73656235538824,1.73660944451828,1.81704709645016,1.7311376876078,1.77681414374521,1.82031508207483,1.72479949070461,1.81808305731101,1.8251558446428,1.7236881872357,1.89935889575757,1.71815992336917,1.72236027376861,1.72115479203962,1.7235751733236,1.88907462975715,1.85301377397361,1.85373894657621,1.84856856009797,1.84815417575363,1.84292728231935,1.84158995102626,1.84160878667827,1.76660522035285,1.83622179020186,1.831503459372,1.82829198070337,1.82756680810077,1.8269923207143,1.82587159941938,1.87416621118694,1.75291170133763,1.82176542728002,1.8703331560018,1.75304355090174,1.8704555877399,1.86931603079297,1.9493392983805,1.83371664848381,1.83653257846012,1.84199491754459,1.77650335548695,1.95148656271026,1.92428788119999,1.93193515591825,1.90885206437334,1.90674247134762,1.83585449498756,1.83544952846923,1.83117383546173,1.83204027545444,1.90487774179809,1.90459520701786,1.83159763763207,1.91834523298912,1.91976732471628,1.83384849804792,1.9210104777493,1.90582894222487,1.91214830347604,1.9249188755425,1.91924934428586,1.83284079066509,1.91188460434783,1.9196637286302,1.91616029735533,1.91325960694496,1.92111407383539,1.8288193789598,1.91904215211369,1.8282072202693,1.91401303302557,1.92371339381352,1.91527502171061,1.91912691254776,1.91302416129476,1.82395978073982,1.82444950769222,1.82379025987168,1.82272604553281,1.82426115117207,1.90241968921008,1.85825950305991,1.74953070180086,1.85352233657803,1.74197760534268,1.74272161359728,1.74072503448365,1.73822931059161,1.94855761882186,1.7376077340751,1.73885088710811,1.73697673973258,1.73910516841032,1.73695790408056,1.74191168056062,1.74096989795985,1.74083804839574,1.91716800473816,1.80347600917304,1.74184575577857,1.79099738971282,1.74377641011015,1.74647932617436,1.74681836791064,1.74630980530622,1.74502898096917,1.66575913946225,1.66253824296761,1.70857257649332,1.77342372638243,1.6578764190938,1.65614353910838,1.65268719696355,1.65577624389408,1.74953070180086,1.74375757445813,1.77294341725604,1.76751874947559,1.65001253437736,1.64934386873081,1.77138005813876,1.65032332263561,1.64908016960259,1.64906133395058,1.64611355441016,1.77147423639883,1.69507683182426,1.6431092679137,1.76726446817338,1.64584043745594,1.64546372441563,1.6438344405163,1.76762234556168,1.77063604988415,1.64385327616831
1.86100950825416,1.85776977610751,1.8349315480388,1.80258131570231,1.75497420523332,1.75067025874779,1.74814628137773,1.79556503532656,1.7442096301065,1.79998199572418,1.7995111044238,1.79167547318538,1.8565360409005,1.84209851363067,1.7372498566868,1.7349236536629,1.83898121322212,1.73329436976356,1.72872672414982,1.72786028415711,1.72486541548666,1.81858220208941,1.72355633767159,1.82823547374732,1.722840582895,1.72327380289136,1.82229282553645,1.89225785494775,1.72572243765336,1.85560367612573,1.85696926089685,1.7798561015457,1.88282119328803,1.7754579768001,1.84379372231206,1.8421267671087,1.84125090928998,1.76578586949017,1.83757795714697,1.83510106890694,1.8749761442236,1.82816954896527,1.82825430939934,1.82758564375279,1.87386484075469,1.82476029595047,1.87233915294144,1.75218652873504,1.82636132637179,1.8262577302857,1.94134356409996,1.83424404674024,1.83526117194907,1.86955147644316,1.84291786449335,1.86684856037894,1.95862527482411,1.83929200148038,1.92074677862109,1.83839730800964,1.91875019950745,1.83557196020733,1.83830312974957,1.83374490196183,1.83435706065233,1.9046517139739,1.83377315543986,1.91699848387002,1.91409779345964,1.91678187387184,1.9318692311362,1.90716627351796,1.91299590781674,1.91325018911895,1.83485620543074,1.91318426433689,1.91642399648355,1.90641284743735,1.91703615517405,1.91729985430226,1.83119267111374,1.91715858691215,1.83168239806614,1.83091955415952,1.91009521740636,1.82920550982611,1.91325960694496,1.91727160082424,1.92067143601303,1.91446508867394,1.89663714404134,1.89995221879606,1.82362073900354,1.82249059988262,1.91678187387184,1.90579127092084,1.93845229151559,1.93298995243111,1.74590483878789,1.74682778573665,1.94932046272849,1.74001869753307,1.73950071710265,1.73825756406963,1.85154459311641,1.85118671572812,1.73713684277471,1.85081000268781,1.73859660580591,1.84463190882675,1.74168565273644,1.74146904273826,1.7438423348922,1.74403069141236,1.74389884184825,1.90287174485845,1.74441682227867,1.74400243793433,1.74246733229508,1.74519850183731,1.92302589251495,1.94973484707283,1.66204851601521,1.6615493712368,1.65884645517259,1.6572736782293,1.65323343087199,1.65386442521451,1.77565575114626,1.65344062304416,1.74404952706437,1.65267777913754,1.65024798002755,1.75667883174072,1.69734652789212,1.6512839408884,1.64881647047438,1.64645259614644,1.64766749570144,1.64830790786996,1.64673513092667,1.64843033960806,1.64393803660238,1.64468204485699,1.76979786336946,1.64583101962993,1.76930813641706,1.64549197789365,1.64404163268847,1.64404163268847
1.75902387041664,1.76018226301558,1.8874265102058,1.80337241308696,1.80258131570231,1.79931333007763,1.7991532270355,1.74989799701516,1.75002984657927,1.84013960582107,1.82128511815363,1.79199567926964,1.83791699888325,1.73920876449641,1.73829523537366,1.7359031075677,1.73673187625638,1.73378409671596,1.77682356157121,1.73037484370117,1.82102141902541,1.77409239202898,1.7243003459262,1.90634692265529,1.7241779141881,1.72398013984194,1.82306508726909,1.89360460406686,1.77232184073953,1.78518659106606,1.78321826543045,1.85184596354866,1.88170988981912,1.84698636532868,1.95144889140623,1.77004272684566,1.87842306854242,1.76676532339498,1.87675611333906,1.87706690159731,1.82847091939751,1.87651124986286,1.82864044026565,1.8277269111429,1.87421330031698,1.82539129029299,1.82623889463368,1.75404184045856,1.82548546855307,1.87111483556044,1.93981787628671,1.83177657632622,1.76345024864026,1.8378510741012,1.8698528468754,1.86730061602731,1.95599770136796,1.92118941644345,1.92058667557896,1.91566115257692,1.91633923604948,1.83580740585752,1.833952094134,1.83296322240319,1.9069684991718,1.91986150297636,1.83384849804792,1.93034354332295,1.9250318894546,1.92029472297272,1.83447007456443,1.93143601113984,1.91956013254411,1.92964662419838,1.9258889116213,1.90961490827997,1.90613973048312,1.9197861603683,1.91639574300552,1.91974848906427,1.91933410471993,1.91129128130934,1.83234164588668,1.93054131766911,1.91583067344506,1.83066527285731,1.82867811156968,1.91276046216655,1.91670653126378,1.90058321313857,1.89753183751207,1.91096165739907,1.82266953857676,1.82233049684048,1.82280138814087,1.90918168828362,1.75119765700423,1.74725158790699,1.74667710052052,1.7417609953445,1.74230722925295,1.7379750292894,1.73506492105301,1.73918051101838,1.85420983787659,1.7367601297344,1.73508375670503,1.7378620153773,1.73925585362645,1.73803153624544,1.78887837886109,1.91938119384997,1.74379524576216,1.74206236577674,1.83452658152047,1.74395534880429,1.7443226440186,1.74597076356995,1.74180808447454,1.74450158271274,1.74501956314317,1.66551427598605,1.66519406990179,1.66212385862328,1.65925142169092,1.65744319909744,1.77305643116813,1.77135180466073,1.65480620781528,1.65301682087382,1.65058702176383,1.65537127737574,1.69755372006429,1.69779858354049,1.69823180353685,1.64735670744318,1.64559557397974,1.77435609115719,1.77053245379806,1.6460382118021,1.77555215506017,1.64593461571602,1.643467145302,1.75742283999532,1.77061721423213,1.77052303597205,1.76692542643711,1.64437125659874,1.76596480818432,1.76571994470812
1.76104870300829,1.75835520477009,1.8089195126055,1.76030469475368,1.75621735826634,1.80461556611998,1.79941692616372,1.75229012482112,1.75051015570566,1.84062933277347,1.85186479920067,1.79242889926599,1.74263685316322,1.74280637403135,1.8475043457591,1.73740054190293,1.73702382886262,1.82300858031304,1.7339536175841,1.77736037765365,1.7764374307049,1.72762483850692,1.90681781395568,1.72689024807832,1.72424383897015,1.72446044896833,1.72709744025049,1.72700326199041,1.72679606981824,1.85781686523755,1.95527252876536,1.95757989613725,1.85077233138378,1.84905828705037,1.88014653070184,1.77284923899596,1.84037505147126,1.76709494730525,1.87723642246545,1.87543761769798,1.83283137283908,1.7598338034533,1.83112674633169,1.82800002809713,1.87965680374943,1.87628522203867,1.87456175987926,1.82646492245787,1.82851800852755,1.87393076553674,1.82919609200011,1.76047421562182,1.83579798803151,1.87086055425823,1.84177830754641,1.86878863253653,1.94932046272849,1.92620911770556,1.84117556668192,1.91260035912441,1.83738960062682,1.83794525236127,1.83701288758651,1.91260035912441,1.83383908022191,1.91635807170149,1.83523291847105,1.92249849425852,1.92535209553886,1.91810036951292,1.83722949758469,1.83722949758469,1.83530826107911,1.91944711863202,1.91715858691215,1.92326133816515,1.91076388305291,1.83544952846923,1.83454541717249,1.9228375359948,1.92689661900412,1.92484353293444,1.91577416648901,1.90692141004176,1.91092398609504,1.91180926173977,1.91055669088074,1.90192054443167,1.90131780356717,1.90012173966419,1.90710976656192,1.82492981681861,1.82340412900536,1.82235875031851,1.82449659682226,1.9094077161078,1.75288344785961,1.74698788877878,1.81537072342078,1.74285346316139,1.74174215969248,1.86018073956548,1.85724237785108,1.85535881264953,1.73678838321243,1.73502724974898,1.7371274249487,1.73757948059707,1.73939712101656,1.93587180718947,1.74035773926935,1.78763522582807,1.74100756926388,1.79569688489067,1.74119592578404,1.74388000619623,1.74452983619077,1.74496305618712,1.7428628809874,1.74618737356812,1.91046251262066,1.66517523424977,1.66207676949324,1.66109731558843,1.65757504866155,1.65355363695626,1.6540904530387,1.77905558633504,1.65368548652036,1.65208445609905,1.76310178907798,1.76015400953756,1.69761964484635,1.65049284350375,1.69676262267964,1.76959067119729,1.64770516700547,1.77027817249585,1.64782759874357,1.64675396657869,1.77482698245758,1.74036715709536,1.64398512573242,1.64313752139173,1.84275776145121,1.64424882486064,1.6439662900804,1.7644767916751,1.6433447135639,1.64544488876362
1.782672031522,1.76258380864755,1.76156668343872,1.76035178388372,1.7579973273818,1.80205391744588,1.75550160348975,1.75222420003907,1.75060433396574,1.85550008003965,1.84075176451157,1.74752470486122,1.791213999711,1.74177041317051,1.73999044405505,1.74113941882799,1.91479471258421,1.7371180071227,1.84358653013989,1.77826448895039,1.7772944528716,1.72856662110769,1.7283311754575,1.72592021199952,1.72490308679069,1.77367800768464,1.72647586373398,1.72749298894281,1.7274835711168,1.85817474262584,1.8835181124126,1.8536070970121,1.78020456110798,1.95816380134973,1.84792814792945,1.88041964765606,1.77015574075775,1.87840423289041,1.83786990975321,1.76592713688029,1.95144889140623,1.87743419681161,1.82907366026201,1.75682009913083,1.8280942063572,1.82761389723081,1.7555581104458,1.87504206900565,1.82770807549089,1.82925259895615,1.82959164069243,1.83390500500396,1.83735192932279,1.87216021424729,1.84712763271879,1.84822010053569,1.94036411019515,1.93588122501548,1.84122265581196,1.92306356381898,1.92314832425305,1.91100874652911,1.83598634455167,1.83558137803334,1.83697521628248,1.83597692672566,1.90954898349792,1.91021764914446,1.83634422193996,1.92343085903329,1.83510106890694,1.83758737497298,1.83769097105906,1.91393769041751,1.9222253773043,1.9200310238445,1.92314832425305,1.91333494955302,1.92572880857917,1.90632808700328,1.91464402736809,1.91105583565915,1.83255825588486,1.91226131738814,1.91893855602761,1.82981766851662,1.90602671657103,1.82837674113744,1.91229898869217,1.82783050722899,1.82761389723081,1.8257680033333,1.8245531037783,1.82383734900172,1.82372433508963,1.90975617567009,1.79795716313252,1.79565921358664,1.74484062444902,1.74209061925477,1.74132777534814,1.73914283971435,1.73753239146703,1.73691081495053,1.73762656972711,1.73722160320878,1.78318059412642,1.73774900146521,1.739933937099,1.7391993466704,1.73710858929669,1.74015054709718,1.7414031179562,1.74056493144152,1.80069775050077,1.74236373620899,1.74361630706802,1.7445675074948,1.79055475189046,1.74328668315775,1.7443226440186,1.66197317340715,1.66281135992184,1.66045690341991,1.6583661460462,1.65264010783351,1.65627538867249,1.65545603780981,1.65046459002573,1.6512933587144,1.6505493504598,1.77012748727973,1.69904173657351,1.69696981485181,1.64874112786631,1.64875996351833,1.64901424482054,1.64670687744865,1.64897657351651,1.69510508530229,1.64686698049078,1.64566149876179,1.64524711441745,1.75996565301741,1.6435989948661,1.74697847095277,1.68968983534785,1.76453329863115,1.64256303400526,1.64135755227627
1.87337511380229,1.76330898125015,1.76303586429592,1.86725352689728,1.75794082042575,1.75636804348246,1.86033142478161,1.92905330115989,1.7540983474146,1.85808056436576,1.93266032852084,1.8543416874407,1.74430380836658,1.74465226792887,1.84061049712146,1.78594943497269,1.73692965060254,1.73706150016665,1.7344433445365,1.82507108420873,1.78574224280052,1.83793583453526,1.730167651529,1.77474222202351,1.72664538460212,1.7273611393787,1.72753066024684,1.72837826458754,1.72844418936959,1.78872769364496,1.8604444386937,1.78336895064657,1.88510030718189,1.88075868939234,1.77688006852726,1.88151211547295,1.84474492273884,1.84111905972587,1.95894548090837,1.8350539797769,1.8814461906909,1.832727776753,1.88025012678792,1.8317577406742,1.82986475764665,1.82897948200193,1.82885705026383,1.82622005898167,1.8277174933169,1.82917725634809,1.83132452067785,1.83404627239408,1.96204394566491,1.87181175468501,1.8459127331638,1.77886722981489,1.95903024134244,1.84381255796408,1.92024763384268,1.84141101233211,1.91193169347787,1.83868926061588,1.83763446410302,1.83707881236856,1.90792911742459,1.9102647382745,1.93515605241289,1.91698906604401,1.92892145159578,1.90934179132575,1.91704557300006,1.92309181729701,1.83759679279899,1.92370397598751,1.92063376470899,1.8355342889033,1.92279986469077,1.9095301478459,1.92679302291804,1.83439473195636,1.83429113587028,1.91448392432596,1.91265686608046,1.91263803042845,1.91806269820889,1.83134335632987,1.92171681469988,1.82936561286825,1.92376048294355,1.91244967390829,1.8282072202693,1.82609762724357,1.82519351594683,1.8245531037783,1.90726986960405,1.8967030688234,1.79652565357935,1.79541435011044,1.74426613706255,1.74136544665217,1.78752221191598,1.73766424103114,1.7373722884249,1.8548314143931,1.93593773197153,1.7371180071227,1.73583718278565,1.73618564234793,1.73740995972893,1.93484526415463,1.78606244888478,1.78598710627672,1.7407909592657,1.74346562185189,1.74324901185372,1.74350329315592,1.84204200667463,1.74154438534632,1.74320192272368,1.74453925401677,1.79230646752789,1.66342351861234,1.66193550210312,1.77957356676547,1.65852624908833,1.774120645507,1.77598537505653,1.65345004087017,1.6534877121742,1.7759571215785,1.65085072089204,1.77699308243935,1.77457270115537,1.64911784090662,1.73856835232788,1.6980528648427,1.64699883005489,1.69333453401284,1.77421482376708,1.64657502788454,1.644691462683,1.77223708030546,1.64499283311524,1.64380618703827,1.76624734296455,1.6919406957637,1.64409813964451,1.64275139052541,1.76580470514219,1.68922836187347
1.78790834278229,1.76124647735446,1.76183980039294,1.76063431866396,1.86370300649237,1.75834578694408,1.82132278945766,1.7565375643506,1.8036643656932,1.8606893021699,1.7504348130976,1.79630904358117,1.74650757965239,1.74401185576034,1.85009424791122,1.85323038397179,1.73654351973622,1.84134508755006,1.91332553172701,1.73182518890636,1.73305892411337,1.93157727852996,1.72935771849234,1.72709744025049,1.83523291847105,1.72669247373216,1.7271068580765,1.72868905284579,1.73018648718102,1.85932371739878,1.85794871480166,1.78399994498909,1.88412085327709,1.96188384262278,1.95656277092842,1.95457560964079,1.7713141333567,1.77063604988415,1.84026203755917,1.83780398497116,1.83490329456078,1.75982438562729,1.76015400953756,1.88005235244176,1.82850859070154,1.82810362418321,1.75793140259974,1.8279623567931,1.82823547374732,1.83039215590309,1.75737575086529,1.83428171804427,1.87405319727484,1.87238624207148,1.84545125968942,1.86989051817944,1.94818090578156,1.92975963811047,1.92849764942543,1.921867499916,1.9360224924056,1.91280755129658,1.91236491347422,1.91000103914629,1.91232724217019,1.91192227565186,1.91549163170878,1.83692812715244,1.91048134827268,1.91609437257328,1.83784165627519,1.9197861603683,1.92519199249673,1.9289497050738,1.92042657253682,1.9172245116942,1.92579473336122,1.91863718559536,1.91525618605859,1.92245140512848,1.92932641811411,1.91116884957124,1.9068460674337,1.91326902477096,1.91630156474545,1.83186133676029,1.91011405305838,1.91054727305473,1.90798562438064,1.91342912781309,1.89999930792609,1.90304126572659,1.82475087812447,1.82447776117024,1.90063972009462,1.91262861260244,1.7976840461783,1.74752470486122,1.93306529503918,1.94240777843883,1.78661810061924,1.80726197522814,1.80617892523726,1.73733461712087,1.73384060367201,1.85735539176317,1.7361479710439,1.85075349573176,1.78506415932796,1.78512066628401,1.73781492624727,1.83188017241231,1.73835174232971,1.78836039843066,1.7888972145131,1.84205142450064,1.74217537968884,1.74272161359728,1.74364456054604,1.84080827146762,1.74363514272003,1.66695520336523,1.6626418390537,1.6597128951653,1.70559654347488,1.65700056127508,1.65530535259369,1.65344062304416,1.65215979870711,1.77591945027447,1.77118228379259,1.64959815003302,1.77529787375796,1.64885414177841,1.77043827553798,1.64742263222523,1.64747913918128,1.76931755424307,1.64649968527648,1.64614180788819,1.77029700814787,1.64588752658598,1.64277964400343,1.76612491122645,1.64279847965545,1.7255246633072,1.64143289488433,1.64308101443568,1.64393803660238,1.69149805794133
1.76429785298096,1.76406240733076,1.76385521515859,1.76359151603038,1.76109579213833,1.86613280560236,1.75670708521874,1.75746992912536,1.85328689092784,1.85377661788024,1.75057608048772,1.74704439573482,1.79262667361216,1.79261725578615,1.84850263531592,1.85138449007428,1.91980499602032,1.73601612147979,1.91543512475274,1.73389711062806,1.78660868279323,1.73099642021768,1.72798271589521,1.77630558114079,1.7757028402763,1.83420637543621,1.78538436541223,1.77757698765183,1.82265070292475,1.88720048238161,1.85618758133821,1.95797544482958,1.85792046132363,1.96401227130052,1.7794888063314,1.84813534010162,1.84544184186341,1.8421267671087,1.84114731320389,1.76623792513854,1.95551739224156,1.83498805499485,1.88042906548207,1.88026896243994,1.75773362825358,1.75816684824993,1.82915842069608,1.82708649897438,1.82962931199646,1.75979613214927,1.87706690159731,1.76345966646627,1.84076118233758,1.84346409840179,1.84549834881946,1.94350024625572,1.87062510860804,1.84516872490919,1.92044540818884,1.93292402764906,1.91552930301281,1.91528443953661,1.83548719977326,1.91206354304198,1.92875193072764,1.92012520210458,1.93509012763083,1.92304472816697,1.91195052912988,1.91931526906791,1.83831254757557,1.83844439713968,1.9268683655261,1.83813360888143,1.83807710192538,1.8382277871415,1.90908751002354,1.91581183779305,1.90829641263889,1.9202758873207,1.92586065814327,1.92717915378436,1.91561406344688,1.9149077264963,1.92169797904787,1.92532384206084,1.91133837043938,1.91748821082242,1.91803444473087,1.92041715471082,1.89989571184001,1.89846420228684,1.89934006010555,1.90112002922101,1.90100701530892,1.90913459915358,1.74947419484481,1.74687487486669,1.7439647666303,1.74145962491225,1.78737152669985,1.73856835232788,1.73771133016118,1.73537570931127,1.85380487135826,1.73654351973622,1.73487656453286,1.73619506017394,1.85467131135097,1.73501783192298,1.73665653364832,1.93828277064745,1.73888855841215,1.73788085102932,1.78839806973469,1.79123283536302,1.7407815414397,1.84113789537789,1.74333377228779,1.74337144359182,1.7442002122805,1.66479852120947,1.66217094775331,1.78064719893035,1.76001274214745,1.65573857259005,1.65572915476404,1.65377024695443,1.77836808503648,1.77324478768828,1.64888239525643,1.77308468464615,1.64812896917581,1.64719660440105,1.77451619419932,1.76997680206361,1.77105043422849,1.64728136483512,1.64461612007494,1.75035947048954,1.74718566312494,1.77015574075775,1.64228049922502,1.64446543485881,1.64606646528012,1.64324111747781,1.76741515338951,1.63972826837693,1.69002887708413,1.6407924827158
1.83488445890877,1.76669939861292,1.81231934779428,1.76565401992607,1.76328072777212,1.93583413588544,1.86490848822136,1.75725331912719,1.75747934695137,1.85380487135826,1.85501035308725,1.75073618352985,1.74690312834471,1.74697847095277,1.74122417926206,1.74071561665764,1.73929352493048,1.7379750292894,1.73720276755676,1.78666518974927,1.788774782775,1.73170275716826,1.77623965635874,1.83107965720165,1.72993220587881,1.84952917835076,1.73023357631106,1.73174042847229,1.73420789888631,1.9647186082511,1.8575154948053,1.85952149174494,1.9593410296007,1.95792835569954,1.77930986763725,1.9565345174504,1.84539475273337,1.84369954405199,1.8832826667624,1.83414045065416,1.76248963038747,1.83522350064504,1.83172948719618,1.83284079066509,1.83128684937382,1.88025954461393,1.82852742635356,1.82886646808984,1.82898889982794,1.7593440765009,1.83268068762296,1.87737768985557,1.8396875501727,1.8731396681521,1.84510280012713,1.85284425310547,1.85959683435301,1.94526137971916,1.93018344028082,1.91596252300917,1.92649165248579,1.91579300214103,1.91410721128565,1.91482296606224,1.92119883426946,1.93473225024254,1.92348736598933,1.91261919477643,1.91300532564275,1.93612608849168,1.91818512994699,1.91721509386819,1.92324250251313,1.9203983190588,1.92312948860104,1.91898564515764,1.8368810380224,1.91437091041386,1.91419197171972,1.83605226933372,1.91379642302739,1.83457367065051,1.92266801512666,1.91578358431502,1.90658236830549,1.92427846337398,1.9114890556555,1.92282811816879,1.91407895780763,1.90108235791698,1.91114059609322,1.90116711835105,1.82693581375826,1.82578683898531,1.907203944822,1.89649587665123,1.74946477701881,1.74690312834471,1.79065834797654,1.74138428230419,1.95172200836046,1.73894506536819,1.84815417575363,1.73673187625638,1.73637399886809,1.73449985149255,1.78187151631135,1.73527211322518,1.73678838321243,1.73588427191568,1.73629865626002,1.78257785326193,1.78518659106606,1.73734403494688,1.84627061055209,1.79237239230995,1.7410264049159,1.74126185056609,1.74038599274737,1.74404952706437,1.74358805358999,1.66509989164171,1.70937309170397,1.70850665171126,1.65427880955885,1.70200835176594,1.65521117433361,1.80568919828485,1.76992029510756,1.64915551221065,1.64752622831132,1.64940979351286,1.64637725353838,1.77158725031093,1.64514351833137,1.69320268444873,1.64600054049807,1.64320344617378,1.644691462683,1.69190302445966,1.74968138701698,1.64522827876544,1.69147922228932,1.68983110273797,1.63931388403259,1.76730213947742,1.64362724834413,1.69091415272885,1.71778321032886,1.64221457444297
1.88111656678063,1.76846994990237,1.8130727738749,1.76489117601944,1.76407182515677,1.86599153821224,1.85338106918791,1.75974904301923,1.75539800740367,1.9368795145723,1.84528173882128,1.75083036178993,1.74759062964327,1.92826220377524,1.74401185576034,1.74386117054422,1.73982092318691,1.73825756406963,1.78469686411366,1.73600670365379,1.73598786800177,1.78044000675818,1.77891431894493,1.91281696912259,1.83428171804427,1.83127743154781,1.73214539499062,1.73134487977997,1.73380293236798,1.73342621932767,1.86042560304168,1.85962508783103,1.78512066628401,1.96485987564122,1.85380487135826,1.84953859617677,1.88488369718371,1.84428344926446,1.84271067232118,1.84187248580649,1.83770980671108,1.8835275302386,1.96208161696894,1.76012575605954,1.83200260415041,1.83247349545079,1.82957280504042,1.88062683982823,1.96481278651118,1.87728351159549,1.83280311936106,1.8349221302128,1.8398099819108,1.87633231116871,1.77612664244664,1.87144445947071,1.87667135290499,1.92572880857917,1.91948478993605,1.91604728344324,1.84263532971311,1.84085536059766,1.84098721016176,1.83996066712692,1.93198224504829,1.91055669088074,1.91372108041933,1.93603191023161,1.93888551151194,1.92680244074405,1.92511664988867,1.92810210073311,1.92017229123462,1.83928258365437,1.91967314645621,1.92865775246757,1.92900621202985,1.92272452208271,1.83803943062135,1.83807710192538,1.8382183693155,1.9356646150173,1.91750704647443,1.91272279086252,1.91692314126195,1.91999335254047,1.83262418066691,1.91276046216655,1.91956013254411,1.92330842729518,1.91956013254411,1.82895122852391,1.82834848765941,1.9008657479188,1.82589985289741,1.91438974606588,1.8573930630672,1.74724217008099,1.74272161359728,1.74387058837023,1.74051784231148,1.94692833492253,1.73689197929851,1.73693906842855,1.73421731671232,1.78221055804763,1.73595019669774,1.8505557213856,1.73488598235887,1.82630481941574,1.73626098495599,1.78346312890665,1.73770191233517,1.73562057278747,1.74032948579133,1.84378430448605,1.73814455015754,1.83628771498391,1.74093222665582,1.74265568881523,1.74052726013749,1.78191860544139,1.71043730604284,1.77335780160038,1.77542030549606,1.65576682606807,1.76767885251772,1.70010595091238,1.76974135641341,1.6488447239524,1.77235009421755,1.64903308047255,1.64600054049807,1.64613239006218,1.69401261748539,1.64659386353656,1.69143213315928,1.7433526079398,1.8167363081919,1.76971310293539,1.76717028991331,1.64262895878731,1.69080113881676,1.68945438969766,1.6423746774851,1.64110327097406,1.64068888662972,1.74414370532445,1.64277964400343,1.64254419835324
1.7686300529445,1.89204124494958,1.76951532858923,1.86856260471235,1.76634152122463,1.86806345993394,1.85413449526853,1.75967370041117,1.75676359217478,1.7554356787077,1.75318481829185,1.86163108477067,1.86360882823229,1.85760025523937,1.74471819271092,1.79003677146004,1.85378603570625,1.74083804839574,1.73670362277836,1.73658119104026,1.78134411805492,1.73411372062623,1.73087398847958,1.73019590500703,1.73088340630559,1.833952094134,1.72919761545021,1.73210772368659,1.73415139193027,1.73573358669956,1.86720643776724,1.78882187190504,1.9620345278389,1.85501977091326,1.85256171832524,1.85191188833071,1.77578760071037,1.95854051439004,1.77037235075593,1.7691103620709,1.83833138322759,1.88421503153717,1.83473377369264,1.96593350780609,1.83273719457901,1.83269010544897,1.83103256807161,1.758251608684,1.96870234865236,1.83140928111192,1.83605226933372,1.83625004367988,1.87782032767793,1.84724064663089,1.87596501595441,1.85310795223369,1.96242065870522,1.84693927619864,1.8467697553305,1.92464575858828,1.9249188755425,1.84186306798048,1.84442471665458,1.84262591188711,1.83927316582836,1.84090244972769,1.93589064284149,1.91641457865754,1.93268858199887,1.92647281683378,1.84113789537789,1.84194782841455,1.9324813898267,1.93074850984128,1.9203983190588,1.91916458385179,1.84028087321119,1.83932967278441,1.91023648479648,1.92618086422754,1.83714473715062,1.92044540818884,1.90909692784955,1.91291114738267,1.92635980292168,1.90683664960769,1.93204816983034,1.91647108561359,1.92532384206084,1.91681012734986,1.82751030114473,1.82606937376555,1.82653084723992,1.89903868967331,1.89850187359087,1.82516526246881,1.74987916136315,1.74659234008645,1.7426180175112,1.74154438534632,1.73983034101292,1.8536070970121,1.83100431459359,1.73600670365379,1.73552639452739,1.73377467888996,1.83781340279716,1.73318135585147,1.73479180409879,1.73482947540282,1.85098894138196,1.78305816238832,1.73741937755494,1.73768307668316,1.7401788005752,1.7377301658132,1.74288171663942,1.92429729902599,1.78852050147279,1.74071561665764,1.78827563799659,1.66563670772415,1.75959835780311,1.77141772944279,1.6551923386816,1.65442949477497,1.65388326086653,1.77197338117724,1.64965465698906,1.6477428383095,1.64891064873445,1.64881647047438,1.77287749247398,1.64604762962811,1.69215730576187,1.69192186011168,1.64228991705103,1.64521886093943,1.73813513233153,1.81689641123403,1.81605822471935,1.64380618703827,1.64277964400343,1.76551275253595,1.64294916487157,1.64325053530382,1.7340760493222,1.64021799532933,1.63953049403077,1.68909651230937
1.78994259319996,1.77201105248127,1.87308316119605,1.76762234556168,1.86742304776541,1.76591771905428,1.7626403156036,1.76269682255964,1.75722506564916,1.80258131570231,1.75423961480472,1.94514836580707,1.75088686874597,1.93191632026623,1.83501630847287,1.74617795574212,1.74204353012473,1.93363036459964,1.73960431318873,1.73831407102567,1.7373628705989,1.84535708142934,1.84146751928816,1.73021474065904,1.91594368735715,1.73059145369935,1.73157090760415,1.73088340630559,1.79313523621657,1.79375681273308,1.89017651540005,1.89013884409602,1.78591176366866,1.78405645194514,1.88939483584141,1.77830216025443,1.84572437664364,1.77347081551247,1.88752068846587,1.84053515451339,1.88696503673142,1.76559751297002,1.95705249788082,1.88322615980636,1.83144695241595,1.83219096067056,1.83243582414676,1.75940058345694,1.83304798283726,1.83254883805885,1.83803943062135,1.83717299062864,1.76754700295362,1.84229628797684,1.7774168846097,1.85451120830884,1.95310642878359,1.84804116184154,1.92425020989596,1.84483910099892,1.91713975126013,1.84295553579738,1.84235279493288,1.83983823538882,1.83970638582471,1.93205758765635,1.84101546363979,1.9319916628743,1.84076118233758,1.92338376990325,1.84063875059948,1.93052248201709,1.93060724245116,1.92143427991965,1.92018170906062,1.90973734001807,1.91938119384997,1.91881612428951,1.92290346077685,1.91300532564275,1.93502420284878,1.91655584604765,1.9378589684771,1.83585449498756,1.91505841171243,1.91804386255687,1.93035296114895,1.92392058598569,1.83219096067056,1.91223306391011,1.82974232590855,1.82866869374368,1.82815071331325,1.82691697810624,1.82609762724357,1.91821338342501,1.93649338370598,1.74768480790335,1.74559405052964,1.7429853127255,1.73828581754765,1.7384647562418,1.73540396278929,1.73619506017394,1.73475413279476,1.73457519410061,1.73379351454197,1.73058203587334,1.82929968808619,1.82751030114473,1.73347330845771,1.73664711582231,1.73643050582413,1.73664711582231,1.73801270059343,1.73904866145428,1.91952246124008,1.73765482320513,1.78835098060465,1.78794601408632,1.83816186235945,1.77944171720136,1.66369663556656,1.65939268908104,1.65638840258458,1.65965638820925,1.65511699607354,1.65260243652948,1.64987126698724,1.69539703790853,1.69371124705315,1.94373569190591,1.64582160180392,1.77146481857283,1.69466244747992,1.64425824268664,1.76842286077233,1.76813090816609,1.6427419726994,1.76917628685295,1.76718912556532,1.63953049403077,1.76451446297913,1.76321480299007,1.64299625400161,1.643467145302,1.64117861358212,1.76617200035649,1.76054014040388,1.64149881966638
1.7967140100995,1.7730187598641,1.77105043422849,1.7683851894683,1.76879015598663,1.76811207251408,1.76145366952663,1.84341700927175,1.80558560219877,1.75731924390924,1.86665078603278,1.75418310784867,1.75136717787237,1.75089628657198,1.74531151574941,1.83705055889054,1.85648895177046,1.74157263882434,1.73903924362827,1.73951013492865,1.83972522147673,1.73552639452739,1.73375584323794,1.7329741636793,1.73032775457113,1.83815244453344,1.73485772888084,1.90072448052869,1.79437838924959,1.79611126923501,1.86455061083306,1.89014826192203,1.86128262520839,1.85737422741518,1.88995990540187,1.78008212936988,1.84865332053204,1.77468571506746,1.88850956019668,1.84385964709412,1.88668250195119,1.9593410296007,1.83646665367806,1.76187747169697,1.83552487107729,1.88451640196941,1.831512877198,1.8322380498006,1.83146578806797,1.83212503588851,1.76419425689487,1.83790758105724,1.8384726506177,1.8410342992918,1.95553622789358,1.96027339437546,1.87678436681708,1.93379988546778,1.92893086942179,1.91902331646168,1.84397266100621,1.84448122361063,1.84288961101532,1.84108138842184,1.91325960694496,1.91293940086069,1.9293075824621,1.93215176591643,1.92791374421296,1.84094012103173,1.92839405333935,1.84223036319478,1.93100279114349,1.92426904554797,1.93648396587998,1.93002333723868,1.92807384725509,1.92493771119452,1.93911153933613,1.92254558338856,1.93350793286154,1.92059609340496,1.92409010685382,1.83702230541252,1.91646166778758,1.92068085383903,1.91402245085158,1.91668769561176,1.83133393850386,1.91608495474727,1.83049575198917,1.82903598895798,1.83100431459359,1.82630481941574,1.90910634567555,1.91672536691579,1.74986974353714,1.74671477182456,1.74320192272368,1.74107349404593,1.7372498566868,1.78622255192691,1.78518659106606,1.73585601843766,1.73501783192298,1.73486714670685,1.73536629148526,1.82742554071066,1.73362399367383,1.82673803941209,1.9455439144994,1.73388769280205,1.73478238627278,1.73491423583689,1.78459326802758,1.78432956889936,1.73873787319602,1.73857777015389,1.73985859449094,1.84132625189804,1.73998102622904,1.66659732597694,1.66253824296761,1.66174714558297,1.77096567379442,1.65523942781164,1.650794213936,1.65164181827669,1.64897657351651,1.69592443616496,1.69418213835353,1.64577451267388,1.64588752658598,1.64368375530017,1.64287382226351,1.77398879594289,1.64253478052723,1.6437120087782,1.77007098032368,1.64129162749421,1.64263837661332,1.64052878358759,1.64068888662972,1.76424134602491,1.64502108659327,1.64265721226533,1.64207330705285,1.6418849505327,1.75767712129753,1.64002963880918
1.88808575802634,1.77261379334577,1.77308468464615,1.77291516377801,1.76749049599757,1.85818416045185,1.865699585606,1.8470146188067,1.86483314561329,1.75963602910714,1.75524732218754,1.75193224743283,1.75123532830826,1.74969080484299,1.74663942921649,1.74488771357906,1.83518582934101,1.7428628809874,1.73958547753672,1.74015996492319,1.73546046974534,1.84704287228472,1.73338854802364,1.7335769045438,1.73132604412795,1.73385002149802,1.90714743786595,1.73572416887355,1.79430304664153,1.79517890446025,1.86560540734593,1.89141966843307,1.86095300129812,1.85614049220817,1.85687508263678,1.85413449526853,1.77880130503283,1.84953859617677,1.8912124762609,1.77244427247763,1.88782205889812,1.83838789018364,1.83621237237585,1.83598634455167,1.76214117082519,1.83158821980607,1.88385715414887,1.88279293981,1.76249904821348,1.76358209820437,1.95469804137889,1.83923549452433,1.87971331070548,1.77380985724875,1.77705900722141,1.8540968239645,1.96111158089015,1.92865775246757,1.93639920544591,1.91984266732435,1.9318786489622,1.92312948860104,1.84381255796408,1.8417688897204,1.93182214200616,1.93477933937258,1.84137334102808,1.92296938555891,1.93266032852084,1.9394411632464,1.92252674773654,1.84126032711599,1.93396940633592,1.92972196680644,1.91980499602032,1.92687778335211,1.92345911251131,1.91115001391923,1.91402245085158,1.92148136904969,1.83928258365437,1.92615261074951,1.83747436106089,1.83586391281357,1.92263976164864,1.8346866845626,1.91608495474727,1.91198820043391,1.92237606252042,1.9101423065364,1.90214657225585,1.82999660721076,1.82903598895798,1.82826372722534,1.82807537070519,1.82656851854396,1.74980381875508,1.86375951344841,1.85179887441862,1.80181847179568,1.85528347004147,1.7389544831942,1.7854785436723,1.73562057278747,1.7361479710439,1.73457519410061,1.73434916627643,1.73142022238803,1.73084573500156,1.81708476775419,1.7333414588936,1.73433974845042,1.78148538544503,1.81865754469748,1.78295456630224,1.73683547234246,1.73726869233882,1.92298822121092,1.739933937099,1.84154286189622,1.8350445619509,1.7727738963879,1.66311273035409,1.65944919603708,1.65878994821654,1.75498362305933,1.65083188524003,1.64966407481507,1.64925910829674,1.69566073703674,1.69591501833895,1.69397494618136,1.77114461248856,1.64272313704739,1.64320344617378,1.64300567182762,1.76993913075958,1.64265721226533,1.74718566312494,1.64195087531475,1.64292091139355,1.63986953576705,1.64069830445573,1.64388152964633,1.74045191752943,1.643467145302,1.64166834053452,1.64088666097588,1.64149881966638,1.63902193142635
1.8000102492022,1.77342372638243,1.77286807464797,1.77284923899596,1.77121995509662,1.81443835864602,1.81297859561482,1.76292285038383,1.76074733257605,1.80597173306509,1.75765828564552,1.80200682831584,1.7528740300336,1.84561136273155,1.79647856444931,1.74678069660661,1.85691275394081,1.74202469447271,1.74069678100563,1.7405366779635,1.91972965341225,1.73702382886262,1.92255500121457,1.73466937236069,1.73414197410426,1.73517793496511,1.73468820801271,1.7366376979963,1.73837999580773,1.86879805036254,1.86713109515918,1.89109946234881,1.78910440668527,1.89087343452462,1.78416004803122,1.85271240354137,1.89030836496416,1.84894527313828,1.84537591708136,1.84526290316927,1.84476375839086,1.84037505147126,1.83899063104813,1.76583295862021,1.83622179020186,1.76228243821531,1.8349315480388,1.76186805387097,1.8343193893483,1.83489387673477,1.76606840427041,1.83924491235034,1.84235279493288,1.8800994415718,1.87777323854789,1.87677494899107,1.87603094073646,1.85090418094789,1.9293075824621,1.93881016890388,1.84576204794767,1.84466016230477,1.84522523186523,1.84404800361427,1.92331784512119,1.93279217808495,1.92998566593465,1.92816802551516,1.92248907643251,1.91098049305109,1.93160553200798,1.84208909580467,1.92963720637237,1.92895912289981,1.84158053320025,1.8414015945061,1.91957896819613,1.84120382015994,1.92924165768004,1.84076118233758,1.83913189843824,1.92261150817061,1.9203983190588,1.92945826767822,1.92555928771103,1.83567555629341,1.92695312596017,1.92013461993059,1.92009694862655,1.92057725775295,1.83012845677487,1.83097606111556,1.82884763243782,1.8296764011265,1.91057552653276,1.9160001943132,1.75005810005729,1.86384427388248,1.79511297967819,1.80227052744405,1.74195876969066,1.73827639972164,1.7366376979963,1.73606321060983,1.73398187106213,1.94022284280504,1.73157090760415,1.73281406063717,1.73298358150531,1.73009230892094,1.73279522498515,1.73463170105666,1.73353923323976,1.73598786800177,1.7822953184817,1.73601612147979,1.73593136104572,1.73649643060619,1.82604112028752,1.73795619363738,1.83173890502219,1.66468550729737,1.66267009253172,1.76658638470083,1.76568227340409,1.76559751297002,1.7674057355635,1.7705795429281,1.64772400265748,1.64637725353838,1.69389018574729,1.69348521922896,1.64480447659509,1.6433541313899,1.64244060226715,1.64306217878366,1.77043827553798,1.70361880001326,1.69085764577281,1.68979343143394,1.68844668231483,1.76407182515677,1.76292285038383,1.64099025706197,1.74101698708989,1.64157416227445,1.6399260427231,1.64040635184949,1.76392113994065,1.63938922664066
1.90217482573388,1.77511893506382,1.77267030030181,1.88020303765788,1.76915745120094,1.76854529251043,1.81344948691521,1.87437340335911,1.76147250517864,1.80857105304322,1.75730040825722,1.80191265005576,1.75295879046767,1.74972847614702,1.74985090788512,1.74452041836476,1.74436031532263,1.7420058588207,1.82728427332054,1.85145041485633,1.73877554450005,1.78615662714486,1.73713684277471,1.85022609747533,1.73597845017576,1.7349236536629,1.73801270059343,1.90805154916269,1.73817280363556,1.8959778962208,1.7953672609804,1.79351194925688,1.86329803997404,1.78892546799113,1.85572610786383,1.89156093582318,1.85366360396815,1.85122438703215,1.89042137887625,1.84293670014536,1.84395382535419,1.84051631886138,1.8385856645298,1.83731425801876,1.76430727080696,1.76336548820619,1.8352988432531,1.83807710192538,1.88384773632287,1.83592983759562,1.88294362502613,1.84084594277165,1.8413921766801,1.880344305048,1.8800994415718,1.85744957002325,1.87693505203321,1.9305318998431,1.93036237897496,1.84806941531956,1.84744783880305,1.84642129576821,1.84535708142934,1.84321923492559,1.92935467159214,1.92533325988684,1.92743343508656,1.93159611418197,1.92255500121457,1.92268685077868,1.92595483640335,1.8431062210135,1.93610725283967,1.93351735068755,1.92553103423301,1.84158995102626,1.84147693711417,1.84134508755006,1.92572880857917,1.92898737637784,1.92059609340496,1.92963720637237,1.83807710192538,1.83727658671472,1.91942828298001,1.9199085921064,1.83640072889601,1.93066374940721,1.91400361519956,1.9101423065364,1.8310231502456,1.8294315376503,1.82987417547266,1.82811304200922,1.91686663430591,1.91565173475091,1.75142368482841,1.7483534735499,1.79273968752425,1.84760794184519,1.74267452446725,1.73824814624362,1.73722160320878,1.7351685171391,1.83137160980789,1.73307775976539,1.73344505497969,1.73348272628372,1.73324728063353,1.72876439545385,1.85061222834165,1.7335863223698,1.73193820281845,1.73434916627643,1.73535687365925,1.78447083628948,1.73704266451463,1.73527211322518,1.73680721886444,1.73588427191568,1.78550679715033,1.66720006684143,1.66199200905917,1.76675590556897,1.76524905340773,1.70243215393629,1.76734922860745,1.6475073926593,1.7649665186275,1.76983553467349,1.64641492484241,1.64551081354567,1.64496457963722,1.77014632293175,1.64266663009134,1.64067946880371,1.64388152964633,1.64341063834595,1.64339180269393,1.64048169445755,1.68910593013537,1.6406700509777,1.63821199838969,1.6415176553184,1.64074539358577,1.64064179749968,1.64107501749604,1.7302806654411,1.7647216551513,1.63908785620841
1.79779706009039,1.77725678156757,1.77282098551794,1.77051361814605,1.87468419161736,1.81510702429257,1.76971310293539,1.76668056296091,1.811970888232,1.80923971868976,1.84773979140929,1.80411642134157,1.85091359877389,1.80015151659232,1.7505572448357,1.86356173910225,1.74617795574212,1.74755295833924,1.93886667585993,1.85422867352861,1.74029181448729,1.78529018715215,1.73753239146703,1.73530036670321,1.83575089890148,1.73771133016118,1.83686220237039,1.90851302263707,1.74057434926753,1.89799331098645,1.79567804923866,1.86531345473969,1.86089649434207,1.89303011668039,1.85728004915511,1.85534939482353,1.85426634483264,1.85094185225192,1.97015269385755,1.77368742551065,1.77025933684384,1.84135450537606,1.84090244972769,1.83867042496387,1.97246947905545,1.8360240158557,1.88589140456654,1.83549661759927,1.83198376849839,1.88508147152988,1.83715415497662,1.88106947765059,1.77014632293175,1.95342663486785,1.88150269764695,1.87737768985557,1.87731176507351,1.9323589580886,1.93943174542039,1.94270914887107,1.9180721160349,1.92180157513395,1.84714646837081,1.84569612316562,1.93591889631951,1.84422694230842,1.9156328990989,1.91648050343959,1.91519967910254,1.84364303709594,1.84387848274613,1.91891972037559,1.84458481969671,1.93856530542768,1.92647281683378,1.93201991635232,1.94447028233452,1.92604901466343,1.92063376470899,1.84074234668556,1.92634096726967,1.91753529995246,1.8379735058393,1.92517315684471,1.92043599036283,1.92055842210093,1.91431440345782,1.92651990596381,1.90529212614243,1.91664060648172,1.91528443953661,1.83109849285367,1.82924318113015,1.82800944592314,1.90100701530892,1.91444625302193,1.85881515479436,1.74789200007552,1.74548103661754,1.74377641011015,1.7984186366069,1.73910516841032,1.7370049932106,1.73599728582778,1.83186133676029,1.77929103198523,1.73097758456567,1.85432285178869,1.73300241715732,1.73051611109129,1.94479048841878,1.93938465629035,1.84828602531774,1.73048785761327,1.73427382366837,1.73468820801271,1.73382176802,1.83018496373092,1.73485772888084,1.73698615755859,1.76978844554345,1.66697403901725,1.77044769336399,1.65929851082096,1.65612470345636,1.70230972219819,1.69911707918157,1.76425076385092,1.64672571310066,1.76779186642982,1.64582160180392,1.77081498857829,1.64470088050901,1.69140387968126,1.64128220966821,1.64259128748328,1.64266663009134,1.64002963880918,1.7510469717881,1.64155532662243,1.6980528648427,1.63938922664066,1.63793888143547,1.63886182838422,1.68723178275984,1.64162125140448,1.63671456405446,1.64055703706561,1.64047227663154,1.63995429620112
1.79862582877907,2.0468891401684,1.88165338286307,1.77555215506017,1.77170968204903,1.77058896075411,1.87622871508263,1.76697251556715,1.81278082126866,1.76258380864755,1.75724390130118,1.85793929697565,1.75554869261979,1.75365570959224,1.75111289657016,1.75277043394751,1.74727042355901,1.74350329315592,1.85227918354501,1.78970714754977,1.84369954405199,1.74063085622357,1.73869078406598,1.8501884261713,1.84870982748809,1.82640841550182,1.73976441623086,1.73840824928575,1.74072503448365,1.80191265005576,1.89921762836745,1.86603862734228,1.89472532536178,1.86158399564063,1.89400957058519,1.97212101949316,1.85234510832707,1.85342815831795,1.84936907530863,1.96834447126407,1.89260631451004,1.77015574075775,1.89382121406503,1.76665230948288,1.76365744081243,1.88970562409966,1.76384579733259,1.83667384585023,1.83393325848199,1.88397016806097,1.88380064719283,1.84138275885409,1.77035351510392,1.88172872547113,1.88130492330078,1.87934601549118,1.96187442479677,1.93918688194419,1.93717146717854,1.94226651104871,1.92053958644892,1.91969198210822,1.92033239427675,1.84547009534144,1.84451889491466,1.93058840679915,1.84514047143117,1.91903273428768,1.84495211491101,1.9294300142002,1.93006100854272,1.84412334622233,1.84409509274431,1.84296495362338,1.92880843768369,1.93347967938351,1.92810210073311,1.91604728344324,1.91324077129294,1.92104814905333,1.84135450537606,1.84093070320572,1.91981441384632,1.91947537211005,1.83685278454438,1.92346853033732,1.8365137428081,1.92053958644892,1.92567230162312,1.92409952467983,1.92049249731888,1.83081595807343,1.82803769940116,1.82911133156604,1.90347448572294,1.91653701039564,1.75278926959953,1.74846648746199,1.7466488470425,1.74210003708078,1.82886646808984,1.85766618002142,1.73685430799448,1.73646817712816,1.7348012219248,1.77896140807496,1.73075155674148,1.73189111368841,1.73307775976539,1.85228860137102,1.73014881587699,1.85121496920614,1.73069504978543,1.733831185846,1.81857278426341,1.84838020357782,1.73498957844495,1.73404779584418,1.92987265202256,1.92211236339221,1.78446141846347,1.66631479119671,1.8782723833263,1.65953395647115,1.70453232913601,1.65454250868707,1.65180192131882,1.74129010404411,1.76612491122645,1.64607588310613,1.76477816210735,1.64309985008769,1.64538838180757,1.64278906182944,1.64084898967185,1.64050994793557,1.64007672793922,1.69017956230025,1.6895014788277,1.68953915013173,1.63965292576887,1.7197797894425,1.74932350962869,1.64108443532204,1.6873071253679,1.63938922664066,1.6407924827158,1.639813028811,1.63921028794651,1.64058529054364
1.80152651918945,1.88314139937229,1.77648451983494,1.77596653940451,1.77526020245393,1.77261379334577,1.9488495714281,1.76668056296091,1.88068334678427,1.87437340335911,1.75829869781404,1.75941000128295,1.75558636392382,1.94475281711475,1.75124474613426,1.74904097484846,1.74740227312312,1.86141447477249,1.74239198968701,1.7434750396779,1.84810708662359,1.73998102622904,1.84869099183607,1.85143157920432,1.7888972145131,1.7856009754104,1.78652392235916,1.74129010404411,1.74281579185736,1.87224497468136,1.77883897633686,1.86710284168115,1.86518160517558,1.86170642737873,1.89690084316956,1.85697867872286,1.8934068297207,1.8509230165999,1.77651277331296,1.98475032416951,1.84362420144392,1.84297437144939,1.83967813234669,1.7665487133968,1.8379735058393,1.83796408801329,1.83588274846558,1.83475260934466,1.83472435586663,1.8379735058393,1.83947094017452,1.84072351103355,1.8420137531966,1.88028779809195,1.85198723093877,1.96183675349274,1.80551967741672,1.85382370701028,1.94220058626666,1.93874424412183,1.92299763903693,1.92598308988138,1.84873808096611,1.92103873122733,1.92732983900048,1.84606341837992,1.93550451197517,1.92926991115807,1.84447180578462,1.84482968317291,1.91689488778393,1.93397882416192,1.92244198730248,1.91601902996521,1.92216887034825,1.84411392839632,1.92728274987044,1.9278478194309,1.84157111537424,1.84113789537789,1.92235722686841,1.84231512362885,1.84137334102808,1.92031355862473,1.91972965341225,1.83763446410302,1.83561904933737,1.92221595947829,1.92446681989413,1.83268068762296,1.83190842589033,1.83203085762843,1.8297988328646,1.82958222286642,1.9107544652269,1.82837674113744,1.74970964049501,1.74914457093454,1.8575154948053,1.74215654403682,1.74122417926206,1.73899215449823,1.7371180071227,1.73355806889178,1.73315310237345,1.73165566803822,1.72991337022679,1.73081748152354,1.77743572026172,1.73008289109493,1.72899042327804,1.73142964021404,1.73069504978543,1.73350156193573,1.94109870062376,1.84710879706678,1.73459402975263,1.83780398497116,1.73462228323065,1.83931083713239,1.76723621469536,1.66866924769864,1.66198259123316,1.65909131864879,1.70382599218543,1.75042539527159,1.65093548132611,1.6487222922143,1.7686300529445,1.76608723992242,1.87191535077109,1.6421298140089,1.64257245183126,1.68969925317386,1.64111268880007,1.76643569948471,1.76992971293357,1.76267798690763,1.64034042706743,1.75417369002266,1.63845686186589,1.76219767778124,1.63942689794469,1.63819316273768,1.63870172534209,1.6387111431681,1.64002963880918,1.76244254125744,1.76090743561818,1.63919145229449
1.79902137747139,1.77660695157304,1.77605129983858,1.86709342385514,1.88260458328985,1.772896328126,1.7717944424831,1.76758467425765,1.81152825040964,1.87486313031151,1.76113346344236,1.87114308903846,1.86731945167933,1.84727831793492,1.75195108308484,1.79801367008857,1.79698712705373,1.79435013577157,1.74589542096188,1.7434750396779,1.85369185744617,1.74312658011562,1.84981171313099,1.82945979112832,1.74044249970342,1.8418913214585,1.7405460957895,1.74153496752031,1.74378582793616,1.87059685513001,1.79746743618012,1.86782801428375,1.8675266438515,1.79239122796196,1.7864579975771,1.896222759697,1.89574245057061,1.77908383981307,1.85386137831431,1.8501884261713,1.97564328642005,1.84520639621322,1.84276717927722,1.89062857104842,1.89044021452827,1.83753086801693,1.8354118571652,1.83719182628066,1.83738960062682,1.88665424847317,1.76860179946648,1.84207026015265,1.88473301196759,1.88162512938505,1.85277832832342,1.78689121757346,1.96135644436635,1.93547625849715,1.93537266241107,1.93865948368776,1.94013808237097,1.92219712382627,1.8481165044496,1.84761735967119,1.93534440893304,1.92825278594923,1.84575263012167,1.84601632924988,1.93351735068755,1.93850879847163,1.92328959164317,1.84476375839086,1.92670826248397,1.91590601605312,1.84409509274431,1.935287901977,1.84379372231206,1.9258889116213,1.91482296606224,1.93196340939627,1.9283375463833,1.93396940633592,1.94260555278499,1.92293171425488,1.92645398118176,1.83899063104813,1.9175918069085,1.8355342889033,1.83488445890877,1.83285962631711,1.83215328936653,1.8318707545863,1.83073119763936,1.83165414458812,1.90896507828544,1.8285745154836,1.75068909439981,1.93924338890024,1.74351271098193,1.74177983099651,1.78744686930791,1.73806920754947,1.73489540018487,1.85853262001413,1.73336029454562,1.73148614717008,1.72975326718466,1.73131662630194,1.72989453457478,1.73003580196489,1.73082689934954,1.73191936716644,1.73124128369388,1.73163683238621,1.73239967629283,1.73190053151442,1.78319001195243,1.9179496842968,1.7352909488772,1.73438683758046,1.66851856248251,1.665448351204,1.66098430167634,1.65812128257,1.74986974353714,1.75121649265624,1.71201008298613,1.64911784090662,1.6466503704926,1.76357268037836,1.6456709165878,1.76368569429045,1.64144231271034,1.64112210662607,1.64291149356754,1.64050053010957,1.64109385314805,1.64002022098317,1.76417542124286,1.76210349952116,1.63957758316081,1.64036868054546,1.75680126347882,1.94330247190956,1.68696808363162,1.63801422404353,1.6859603762488,1.68587561581473,1.63749624361311,1.68530112842826
1.79928507659961,1.77775592634598,1.77667287635509,1.82319693683319,1.88492136848775,1.88007118809377,1.76999563771562,1.87794275941603,1.76925162946101,1.76400590037472,1.80907019782162,1.94369802060188,1.75847763650819,1.75672592087075,1.75354269568015,1.75322248959588,1.79918148051353,1.74827813094184,1.94272798452309,1.7449348027091,1.7431077444636,1.83489387673477,1.74226955794891,1.82801886374914,1.74049900665946,1.73965140231877,1.74098873361187,1.74119592578404,1.82543837942303,1.87378949814663,1.97769637248973,1.79905904877542,1.89969793749385,1.86242218215532,1.78871827581896,1.97820493509415,1.85557542264771,1.98456196764935,1.84824835401371,1.84954801400278,1.84556427360151,1.77110694118453,1.84145810146215,1.83894354191809,1.76727388599939,1.83842556148767,1.83681511324035,1.83618411889783,1.88708746846952,1.83779456714515,1.88688969412336,1.77089033118635,1.8433510844897,1.77882014068485,1.85614991003418,1.88113540243264,1.88045731896009,1.93837694890753,1.85354117223005,1.93881958672989,1.92312007077503,1.84967986356688,1.84978345965297,1.85071582442773,1.9216132186138,1.91920225515582,1.84763619532321,1.94194630496445,1.92886494463974,1.92982556289252,1.84421752448241,1.93166203896403,1.93699252848439,1.93573995762537,1.84403858578826,1.92537093119087,1.84496153273702,1.92519199249673,1.91452159562999,1.93282043156297,1.93268858199887,1.842494062323,1.93402591329196,1.93323481590731,1.93448738676634,1.94930162707647,1.91397536172154,1.92836579986133,1.92592658292533,1.91625447561541,1.83349062065962,1.83061818372727,1.82913016721805,1.82993068242871,1.91738461473633,1.90807980264071,1.75083977961593,1.92597367205537,1.74552812574758,1.78988608624391,1.78777649321818,1.83416870413218,1.73415139193027,1.73263512194302,1.7310152558697,1.73002638413889,1.73049727543927,1.72741764633475,1.72777552372304,1.72825583284944,1.73059145369935,1.73131662630194,1.8515257574644,1.73009230892094,1.84786222314739,1.77906500416105,1.84534766360334,1.73429265932038,1.84236221275889,1.78057185632228,1.75654698217661,1.66522232337981,1.76135007344054,1.65859217387038,1.76291343255782,1.71249039211253,1.65097315263014,1.64767691352744,1.64570858789183,1.74193993403864,1.763130042556,1.64342005617196,1.64311868573971,1.64123512053817,1.64067946880371,1.63937980881465,1.64198854661878,1.63939864446666,1.64099967488797,1.76197164995705,1.64048169445755,1.63706302361675,1.63842860838787,1.63874881447213,1.63902193142635,1.63904076707837,1.63965292576887,1.63666747492443,1.68619582189899,1.63936097316263
1.80402224308149,1.82591868854942,1.87710457290134,1.77630558114079,1.82194436597417,1.87812169811018,1.77029700814787,1.87915765897103,1.76700076904517,1.76330898125015,1.76274391168968,1.76005041345148,1.84742900315104,1.75803499868583,1.86860969384239,1.75304355090174,1.75314714698782,1.86347697866818,1.86168759172672,1.80812841522085,1.74468052140689,1.74276870272732,1.74072503448365,1.74080979491772,1.74350329315592,1.74142195360822,1.74177041317051,1.74278753837934,1.83123976024378,1.80321231004483,1.87280062641582,1.97526657337974,1.86780917863173,1.86177235216079,1.86102834390618,1.85760025523937,1.78557272193238,1.89705152838568,1.89677841143146,1.84919955444049,1.84829544314375,1.89484775709988,1.77223708030546,1.7689973481588,1.83826545844553,1.89325614450457,1.97806366770403,1.83681511324035,1.83873634974592,1.83897179539611,1.84081768929362,1.77118228379259,1.77393228898685,1.85054630355959,1.85454887961287,1.7888972145131,1.97513472381563,1.9455439144994,1.93790605760714,1.94845402273578,1.93172796374608,1.85099835920796,1.8496986992189,1.84796581923348,1.84733482489096,1.84767386662724,1.93214234809042,1.84618585011802,1.9322459441765,1.93704903544044,1.92352503729336,1.84458481969671,1.84578088359969,1.92461750511026,1.84650605620228,1.9293075824621,1.84447180578462,1.92166972556984,1.84451889491466,1.93530673762901,1.92312007077503,1.93867831933977,1.91265686608046,1.93112522288159,1.83929200148038,1.83792641670926,1.83811477322941,1.91189402217384,1.91379642302739,1.91476645910619,1.90681781395568,1.90112002922101,1.8316258911101,1.82977999721259,1.91360806650724,1.82828256287736,1.85186479920067,1.74717624529893,1.74400243793433,1.74255209272915,1.73934061406052,1.73518735279111,1.8558108682979,1.73353923323976,1.73287056759322,1.72776610589704,1.85420983787659,1.93523139502095,1.72790737328715,1.72777552372304,1.72742706416076,1.72940480762238,1.72991337022679,1.72800155154723,1.7306479606554,1.73062912500338,1.73021474065904,1.73294591020128,1.73136371543198,1.7335863223698,1.74725158790699,1.66580622859229,1.65979765559937,1.65879936604255,1.76008808475551,1.71170871255389,1.71055973778094,1.6476204065714,1.64536012832955,1.76028585910167,1.64553906702369,1.76039887301376,1.64120686706014,1.63955874750879,1.64027450228538,1.64026508445937,1.64073597575976,1.63874881447213,1.75973962519322,1.63942689794469,1.64131046314623,1.63604589840792,1.63782586752338,1.63605531623393,1.63823083404171,1.75148019178446,1.63708185926877,1.63751507926512,1.68659137059131,1.7437199031541
1.82571149637725,1.82663444332601,2.07038661605764,1.77784068678005,1.77418657028905,1.77257612204174,1.8212474468496,1.76999563771562,1.95516893267928,1.76419425689487,1.76107695648632,1.8064708778435,1.75665057826269,1.80389981134339,1.85667730829061,1.75426786828274,1.75259149525337,1.74776015051141,1.74864542615614,1.844933279259,1.74465226792887,1.79085612232271,1.85211908050288,1.73967023797079,1.8350445619509,1.83790758105724,1.84521581403923,1.7443226440186,1.90953956567191,1.87523984335182,1.8721696320733,1.87062510860804,1.90118595400307,1.86529461908767,1.86236567519927,1.86236567519927,1.89761659794614,1.85566960090779,1.9680148473538,1.89738115229595,1.8475043457591,1.84388790057214,1.89506436709805,1.84058224364343,1.83881169235398,1.97807308553004,1.83843497931367,1.83802059496933,1.76782011990784,1.76580470514219,1.84085536059766,1.84418927100439,1.97035988602972,1.85021667964932,1.85489733917516,1.7891420779893,1.88131434112679,1.85570727221182,1.93630502718583,1.92465517641429,1.94384870581801,1.92642572770374,1.8492183900925,1.84875691661813,1.93135125070577,1.93166203896403,1.84894527313828,1.93265091069484,1.93113464070759,1.84721239315286,1.91677245604583,1.91556697431684,1.93784955065109,1.92691545465614,1.84595040446783,1.84509338230113,1.84466016230477,1.9229599677329,1.94437610407444,1.84507454664911,1.93434611937622,1.9147758769322,1.91335378520503,1.92926049333206,1.84033738016723,1.92204643861015,1.83787932757922,1.9125815234724,1.91698906604401,1.83276544805703,1.83263359849292,1.83033564894704,1.83124917806979,1.83083479372545,1.82866869374368,1.91980499602032,1.75223361786507,1.74770364355536,1.85989820478525,1.85646069829244,1.73845533841579,1.8573930630672,1.73537570931127,1.77927219633322,1.73067621413342,1.73046902196125,1.85469956482899,1.72921645110222,1.85339990483993,1.7302806654411,1.72825583284944,1.85399322787842,1.84760794184519,1.84906770487638,1.72940480762238,1.73011114457296,1.7302806654411,1.73165566803822,1.82558906463915,1.81935446382205,1.66623944858865,1.66234988644746,1.65993892298949,1.76134065561453,1.76209408169515,1.71265991298066,1.64955106090298,1.64859044265019,1.64611355441016,1.64248769139719,1.64299625400161,1.76017284518958,1.64173426531658,1.63983186446302,1.76580470514219,1.63667689275043,1.64022741315534,1.7615384299607,1.63916319881647,1.6387111431681,1.63707244144276,1.75977729649725,1.758251608684,1.76072849692403,1.63641319362222,1.76394939341867,1.63656387883834,1.63849453316992,1.63672398188047,1.74612144878607
1.7929186262184,1.78036466415011,1.78070370588639,1.77822681764636,1.77504359245576,1.82138871423971,1.77328245899231,1.77110694118453,1.81690582906004,1.87955320766335,1.80962584955608,1.80970119216414,1.75989031040935,1.85661138350856,1.857148199591,1.86355232127624,1.86747955472146,1.75083977961593,1.74960604440892,1.79398284055727,1.74425671923654,1.79222170709383,1.74164798143241,1.74213770838481,1.74339969706984,1.84390673622415,1.83889645278805,1.74532093357541,1.74624388052417,1.87449583509721,1.87258401641764,1.86796928167386,1.8676490755896,1.8655771538679,1.79003677146004,1.85884340827239,1.85977577304715,1.85464305787295,1.9725354038375,1.84905828705037,1.77555215506017,1.84523464969124,1.84462249100074,1.76895967685477,1.83860450018181,1.89531864840026,1.83841614366166,1.8379735058393,1.83781340279716,1.84198549971858,1.88978096670773,1.9587382887362,1.84649663837628,1.77897082590097,1.88305663893822,1.88323557763237,1.89029894713815,1.93572112197335,1.92810210073311,1.92416544946189,1.92380757207359,1.92946768550423,1.92480586163041,1.84924664357053,1.92327075599115,1.91981441384632,1.93109696940356,1.94199339409449,1.91705499082606,1.84712763271879,1.92925107550605,1.925521616407,1.92943943202621,1.92706613987226,1.92947710333024,1.84529115664729,1.8453099922993,1.92953361028628,1.9354103337151,1.93470399676452,1.92976905593648,1.9317562172241,1.9225926725186,1.92667059117994,1.84062933277347,1.92970313115442,1.92498480032456,1.91298648999073,1.91923992645985,1.91964489297818,1.90354041050499,1.8981722496806,1.831503459372,1.82982708634262,1.8284520837455,1.92595483640335,1.75333550350798,1.79445373185765,1.74593309226591,1.85801463958371,1.82530652985892,1.73664711582231,1.7310152558697,1.77965832719954,1.73131662630194,1.73088340630559,1.72901867675606,1.72831233980548,1.7284536071956,1.72745531763878,1.82946920895433,1.82830139852937,1.72868905284579,1.73073272108947,1.72940480762238,1.8488510948782,1.84712763271879,1.72988511674877,1.73179693542834,1.73112826978179,1.72905634806009,1.66368721774056,1.66068293124409,1.65603994302229,1.75697078434695,1.65304507435184,1.6522633947932,1.64621715049625,1.64540721745958,1.75982438562729,1.75668824956672,1.75365570959224,1.64291149356754,1.6404157696755,1.64018974185131,1.63974710402895,1.76268740473364,1.76147250517864,1.75972078954121,1.63683699579257,1.76397764689669,1.63653562536032,1.63474623841885,1.76022935214562,1.63947398707473,1.63672398188047,1.63881473925418,1.63892775316628,1.63661096796838,1.68541414234035
1.80290152178657,1.78240833239379,1.77793486504012,1.77882955851086,1.77542972332207,1.77496824984769,1.77580643636238,1.81892124382569,1.77009923380171,1.76655813122281,1.81240410822835,1.87816878724022,1.7573945865173,1.75766770347153,1.75718739434513,1.75455982088898,1.75390057306844,1.75169680178264,1.75018053179539,1.74459576097282,1.79379448403711,1.74549987226956,1.74216596186283,1.74451100053875,1.85045212529952,1.91988975645438,1.91444625302193,1.74558463270363,1.74739285529711,1.90600788091902,1.87493847291957,1.97878884030662,1.86824239862809,1.8655771538679,1.86355232127624,1.86108485086222,1.78659926496722,1.85432285178869,1.85258055397726,1.8511678800761,1.85047096095153,1.84670383054845,1.77146481857283,1.77242543682561,1.8407894358156,1.76804614773203,1.89513970970611,1.89313371276647,1.769232793809,1.8398099819108,1.88965853496963,1.77303759551611,1.77537321636603,1.85170469615854,1.78573282497451,1.88452581979542,1.95523485746133,1.95450026703273,1.92917573289799,1.94637268318807,1.92877076637966,1.92533325988684,1.85077233138378,1.84943500009068,1.84852147096793,1.94308586191138,1.92679302291804,1.9192964334159,1.92972196680644,1.92035122992876,1.84776804488732,1.93660639761808,1.94626908710199,1.92254558338856,1.93041888593101,1.84626119272608,1.84463190882675,1.93343259025348,1.93344200807948,1.92612435727149,1.93673824718218,1.92365688685747,1.92592658292533,1.91084864348698,1.93925280672624,1.93266974634685,1.92658583074587,1.91653701039564,1.83561904933737,1.83300089370722,1.83244524197277,1.90619623743917,1.82945037330232,1.82885705026383,1.82852742635356,1.82791526766306,1.85205315572083,1.74942710571478,1.74085688404776,1.85803347523572,1.73782434407327,1.73586543626367,1.73066679630741,1.77963007372151,1.73060087152536,1.72812398328533,1.72742706416076,1.72758716720289,1.72737997503072,1.79645031097129,1.72849127849963,1.78894430364314,1.7762019850547,1.7266265489501,1.73009230892094,1.73033717239714,1.82834848765941,1.72969676022862,1.77840575634051,1.73134487977997,1.75714030521509,1.7551908152315,1.65781049431174,1.7569048595649,1.65420346695079,1.69654601268147,1.69614104616314,1.64813838700182,1.64484214789912,1.64247827357119,1.75603841957219,1.64210156053088,1.639803610985,1.64106559967003,1.63872056099411,1.64018974185131,1.75976787867125,1.63905960273039,1.75929698737086,1.63673339970648,1.76224476691127,1.76005041345148,1.63774110708931,1.63629076188412,1.63862638273403,1.63731730491896,1.75761119651548,1.63843802621388,1.63691233840063,1.75697078434695
1.79120458188499,1.77932870328927,1.77796311851815,1.77882014068485,1.7792533606812,1.82136046076169,1.82002312946859,1.87333744249826,1.76921395815698,1.7678954625159,1.811970888232,1.76103928518229,1.75992798171338,1.76024818779764,1.75767712129753,1.75396649785049,1.80155477266747,1.80218576700999,1.80128165571325,1.8625163604154,1.74538685835747,1.7451796661853,1.74142195360822,1.7446993570589,1.74372932098011,1.74370106750209,1.74447332923472,1.74661117573847,1.74855124789606,1.99113561020273,1.80263782265836,1.97527599120575,1.90425616528158,1.97977771203743,1.7931729075206,1.90204297616977,1.787550465394,1.85524579873744,1.78295456630224,1.77971483415558,1.84769270227926,1.96830679996004,1.84828602531774,1.84412334622233,1.84381255796408,1.84124149146397,1.76988262380353,1.89333148711263,1.84080827146762,1.76917628685295,1.84393498970218,1.77282098551794,1.847381914021,1.8870686328175,1.85588621090597,1.8837723937148,1.97293095252983,1.93881958672989,1.93094628418744,1.92800792247303,1.93304645938716,1.92438205946006,1.92630329596564,1.85040503616948,1.92263034382263,1.94218175061464,1.93937523846434,1.91693255908796,1.93023994723686,1.93472283241653,1.92924165768004,1.93534440893304,1.9349206067627,1.93962010194054,1.92763120943273,1.84786222314739,1.84558310925353,1.92898737637784,1.93682300761625,1.84438704535055,1.92774422334482,1.92987265202256,1.91633923604948,1.84137334102808,1.83880227452797,1.93070142071124,1.91605670126925,1.83843497931367,1.83606168715973,1.92468342989231,1.8322380498006,1.83231339240866,1.82923376330414,1.82641783332783,1.82899831765394,1.90047961705249,1.750915122224,1.74756237616525,1.74169507056244,1.74098873361187,1.73801270059343,1.73685430799448,1.7335769045438,1.85453946178686,1.77687065070125,1.7285760389337,1.72727637894463,1.72653237069003,1.93914921064016,1.72542106722112,1.72754949589886,1.85369185744617,1.7280863119813,1.7282087437194,1.72741764633475,1.84764561314922,1.81898716860775,1.77954531328744,1.72754007807285,1.84104371711781,1.66906479639096,1.71069158734505,1.65828138561213,1.65581391519811,1.65231048392324,1.6517736678408,1.74182692012655,1.69295782097253,1.74970964049501,1.63961525446484,1.75626444739638,1.64064179749968,1.63986011794104,1.639803610985,1.64094316793193,1.6399354605491,1.75737575086529,1.63892775316628,1.63469914928881,1.75724390130118,1.6354149040654,1.63677107101051,1.63720429100687,1.6360270627559,1.69454943356783,1.63664863927241,1.63565034971559,1.75674475652277,1.75990914606136,1.63855104012597
1.80713954349004,1.78112750805674,1.77773709069396,1.77945113502737,1.77930986763725,1.77605129983858,1.77429016637514,1.77373451464068,1.76926104728702,1.76964717815334,1.76639802818068,1.81488099646838,1.76134065561453,1.87556004943608,1.87651124986286,1.75659407130665,1.80227052744405,1.85523638091143,1.80155477266747,1.9382262636914,1.74805210311765,1.74556579705161,1.74328668315775,1.74422846575852,1.74354096445996,1.7446993570589,1.74466168575487,1.91379642302739,1.79434071794556,1.87964738592343,1.97968353377736,1.90448219310577,1.79904963094942,1.79653507140536,1.90283407355442,1.86136738564246,1.8600771434794,1.85896584001049,1.85469956482899,1.89979211575392,1.77918743589915,1.97251656818549,1.8455548557755,1.77273622508387,1.84238104841091,1.77017457640977,1.8411567310299,1.89242737581589,1.84293670014536,1.84074234668556,1.84244697319296,1.84492386143299,1.84878517009615,1.88734174977173,1.85648895177046,1.86425865822682,1.95547972093753,1.85918245000867,1.92916631507198,1.92713206465432,1.85513278482535,1.85358826136008,1.85147866833436,1.92607726814145,1.92352503729336,1.9289402872478,1.95196687183666,1.84980229530498,1.93341375460146,1.93238721156662,1.92058667557896,1.92963720637237,1.93319714460328,1.84796581923348,1.92879901985768,1.92452332685018,1.84528173882128,1.9338281389458,1.93363978242565,1.93103104462151,1.8431062210135,1.9256440481451,1.93610725283967,1.84204200667463,1.83885878148402,1.92861066333753,1.91653701039564,1.92730158552246,1.83499747282086,1.9295524459383,1.83091013633351,1.83103256807161,1.83049575198917,1.82605053811353,1.8995189987997,1.90047019922648,1.75342968176805,1.74659234008645,1.79167547318538,1.79698712705373,1.73946304579862,1.7344339267105,1.7317498462983,1.85669614394263,1.72885857371393,1.72940480762238,1.72738939285673,1.72764367415894,1.7278414485051,1.78156072805309,1.72776610589704,1.851045448338,1.84934082183061,1.72887740936595,1.77549564810413,1.72841593589157,1.72897158762602,1.8139297960416,1.72848186067362,1.84455656621869,1.85097010572994,1.66087128776425,1.65805535778794,1.65589867563218,1.86341105388613,1.69729002093608,1.69468128313194,1.64508701137532,1.64326937095583,1.64581218397792,1.64099967488797,1.64206388922685,1.75395708002449,1.63761867535121,1.63975652185496,1.64007672793922,1.63706302361675,1.68605455450887,1.68481140147586,1.63567860319362,1.63946456924872,1.63548082884745,1.63689350274861,1.75698020217296,1.63658271449036,1.69492614660814,1.75035947048954,1.63886182838422,1.63635668666617,1.76050246909985
1.80640495306144,1.78111809023073,1.78029873936806,1.77797253634415,1.96846690300217,1.8886508275868,1.77408297420297,1.77309410247216,1.77044769336399,1.87014479948164,1.87324326423818,1.81834675643922,1.76214117082519,1.80702652957795,1.75673533869676,1.87426980727302,1.87064394426005,1.75407951176259,1.7527515982955,1.74780723964145,1.74960604440892,1.85700693220088,1.85725179567708,1.74363514272003,1.74568822878971,1.85834426349398,1.74438856880065,1.74661117573847,1.74833463789788,1.90711918438793,1.87860200723657,1.87682203812111,1.87323384641217,1.86786568558778,1.86550181125984,1.86232800389524,1.78808728147644,1.90199588703973,1.78292631282421,1.85350350092601,1.84940674661266,1.84807883314557,1.89924588184548,1.89972619097187,1.84311563883951,1.84320981709958,1.84102488146579,1.84143926581013,1.89648645882522,1.8414015945061,1.77415831681103,1.84437762752454,1.88988456279381,1.85234510832707,1.88817051846041,1.79181674057549,1.88558061630829,1.94193688713844,1.93153018939992,1.9449411736349,1.92582298683924,1.85520812743341,1.85256171832524,1.92695312596017,1.92390175033367,1.94142832453402,1.94011924671895,1.94561925710746,1.85045212529952,1.94561925710746,1.93611667066567,1.92746168856459,1.92971254898043,1.93245313634867,1.84768328445325,1.92541802032091,1.92107640253136,1.93880075107787,1.9274805242166,1.92705672204625,1.9247964438044,1.93164320331201,1.92250791208453,1.92340260555526,1.9241842851139,1.92635980292168,1.8385856645298,1.92413719598386,1.92294113208088,1.92213119904422,1.8317577406742,1.83082537589944,1.82952571591038,1.82844266591949,1.91701731952203,1.91243083825628,1.75012402483935,1.74840056267994,1.79226879622386,1.74037657492136,1.73781492624727,1.7349236536629,1.73325669845953,1.73158974325617,1.7273517215527,1.72700326199041,1.725279799831,1.77259495769375,1.72742706416076,1.78060952762631,1.72484657983465,1.93010809767275,1.7282087437194,1.72766250981095,1.72945189675242,1.72577894460941,1.72818049024138,1.72742706416076,1.72829350415347,1.72773785241901,1.66420519817098,1.66318807296215,1.65637898475857,1.75865657520234,1.75511547262344,1.73787143320331,1.64592519789001,1.73819163928757,1.64537896398156,1.74300414837752,1.63949282272674,1.64213923183491,1.7551908152315,1.63991662489709,1.74879611137226,1.7516591304786,1.75034063483752,1.74421904793251,1.74460517879883,1.6362719262321,1.63671456405446,1.63677107101051,1.63424709364044,1.63448253929064,1.63705360579074,1.63547141102145,1.75184748699876,1.69108367359699,1.63617774797203,1.63897484229632
2.10111698232081,1.78186209848534,1.77992202632775,1.77929103198523,1.77873538025078,1.96613128215226,1.77376276811871,1.88516623196395,1.8206447059851,1.76768827034373,1.76644511731071,1.7649665186275,1.76299819299189,1.80738440696624,1.75955126867307,1.87345045641035,1.75315656481383,1.75274218046949,1.79977480355201,1.74971905832102,1.74997333962322,1.74852299441804,1.74651699747839,1.84802232618953,1.80597173306509,1.85437935874473,1.74630038748022,1.74840056267994,1.74976614745105,1.9089179891554,1.87835714376037,1.90815514524877,1.79943576181573,1.86810113123797,1.86683914255294,1.90688373873773,1.97463557903722,1.85757200176135,1.98273490940385,1.85211908050288,1.85097010572994,1.90035718531439,1.90265513486027,1.77272680725786,1.8431062210135,1.77026875466985,1.84118498450793,1.83981939973681,1.89351984363279,1.84174063624238,1.84399149665822,1.89079809191656,1.89147617538911,1.85307028092966,1.78624138757893,1.86074580912595,1.86626465516647,1.94027934976108,1.9437168562539,1.92761237378071,1.94837868012772,1.85355059005605,1.85230743702304,1.8537295287502,1.93793431108516,1.93435553720223,1.85053688573359,1.93301820590914,1.85027318660537,1.94211582583259,1.93252847895674,1.93286752069301,1.92883669116171,1.93906445020609,1.94098568671166,1.9329711167791,1.9461560731899,1.93547625849715,1.92871425942361,1.92860124551152,1.9355327654532,1.92923223985404,1.92267743295267,1.93167145679003,1.83982881756282,1.84010193451704,1.83778514931914,1.93022111158485,1.91867485689939,1.90577243526882,1.8306558550313,1.83107965720165,1.90022533575028,1.82779283592496,1.90355924615701,1.92005927732252,1.75164029482659,1.7451796661853,1.79239122796196,1.7896318049417,1.73742879538095,1.73554523017941,1.73328495193756,1.72841593589157,1.82731252679856,1.81535188776877,1.72738939285673,1.72651353503801,1.72460171635844,1.85599922481806,1.7271162759025,1.72583545156545,1.72705976894646,1.72797329806921,1.82199145510421,1.72557175243724,1.72496901157275,1.72741764633475,1.77359324725057,1.83722949758469,1.6656932146802,1.66008960820561,1.65679336910291,1.65561614085195,1.65040808306968,1.64746972135527,1.69431398791764,1.69441758400372,1.64265721226533,1.64083957184584,1.6405476192396,1.63905018490438,1.6400578922872,1.63857929360399,1.74935176310671,1.63900309577434,1.68531054625427,1.74153496752031,1.63743973665706,1.63490634146098,1.63555617145552,1.63561267841156,1.63448253929064,1.63557500710753,1.63859812925601,1.75440913567286,1.68598862972682,1.63648853623028,1.63788237447942,1.75729099043122
1.80583988350098,1.78073195936442,1.78057185632228,1.78002562241384,1.89659947273731,1.77605129983858,1.77270797160584,1.82103083685142,1.77227475160949,1.7682627577302,1.86169700955273,1.76595539035831,1.88129550547478,1.75906154172067,1.75954185084706,1.94300110147731,1.7561702691363,1.75456923871499,1.79990665311612,1.75052899135768,1.74889970745834,1.7476188831213,1.8577603582815,1.74805210311765,1.80901369086558,1.85364476831613,1.74704439573482,1.74740227312312,1.79607359793098,1.98831026240042,1.87895046679886,1.87714224420537,1.80063182571871,1.86782801428375,1.90594195613696,1.86051978130176,1.86092474782009,1.78908557103326,1.7840093628151,1.78117459718678,1.778999079379,1.899886294014,1.84520639621322,1.84488619012896,1.97108505863231,1.84116614885591,1.97108505863231,1.77101276292445,1.84358653013989,1.89531864840026,1.89316196624449,1.77451619419932,1.84880400574817,1.85403089918245,1.86058570608382,1.86453177518105,1.8842527028412,1.95208930357476,1.85841018827603,1.94523312624114,1.94478107059277,1.85479374308907,1.85420983787659,1.85240161528311,1.92375106511755,1.93612608849168,1.93897027194601,1.93844287368958,1.93753876239284,1.93638036979389,1.94882131795008,1.92253616556255,1.84938791096064,1.93612608849168,1.92915689724597,1.84690160489461,1.92486236858646,1.84670383054845,1.92767829856276,1.92304472816697,1.94861412577791,1.92477760815239,1.92392058598569,1.84191957493653,1.84191957493653,1.92383582555162,1.92309181729701,1.91933410471993,1.91449334215197,1.83310448979331,1.83222863197459,1.83136219198188,1.82946920895433,1.82807537070519,1.82722776636449,1.91898564515764,1.80312754961076,1.85778861175952,1.74317366924565,1.74122417926206,1.7371180071227,1.73460344757864,1.77898024372698,1.72831233980548,1.80145117658138,1.72742706416076,1.94900025664423,1.72414024288407,1.72426267462217,1.72582603373945,1.85365418614214,1.85132798311823,1.72688083025231,1.7261368219977,1.72557175243724,1.77769941938993,1.72730463242266,1.80628252132334,1.7269844263384,1.727719016767,1.66507163816369,1.65806477561395,1.75667883174072,1.65557846954791,1.76023876997163,1.64915551221065,1.69270353967032,1.73821047493959,1.6409054966279,1.64309985008769,1.7512824174383,1.63966234359488,1.63949282272674,1.75007693570931,1.63719487318086,1.73527211322518,1.68484907277989,1.74111116534997,1.68387903670109,1.63558442493354,1.76192456082701,1.75814801259792,1.63290034452134,1.63593288449582,1.63258013843708,1.63335240016971,1.63555617145552,1.63587637753978,1.63417175103238,1.63816490925965
1.79565921358664,1.97856281248244,1.78157956370511,1.78103332979666,1.77986551937171,1.77886722981489,1.77374393246669,1.77409239202898,1.77299050638607,1.81792295426887,1.81505993516253,1.76610607557444,1.88219961677152,1.76161377256876,1.88017478417986,1.75764886781951,1.75695194869494,1.80203508179386,1.75416427219666,1.75210176830097,1.74984149005912,1.74882436485028,1.74846648746199,1.85919186783467,1.79834329399884,1.85077233138378,1.74744936225316,1.74867367963416,1.75051015570566,1.88062683982823,1.87780149202591,1.87440165683713,1.87723642246545,1.86827065210611,1.86896757123068,1.86420215127078,1.86198896215896,1.85731772045914,1.78426364411731,1.85500093526124,1.85335281570989,1.85027318660537,1.98815015935829,1.77381927507475,1.77320711638425,1.84238104841091,1.84268241884315,1.77013690510574,1.84211734928269,1.84421752448241,1.8455548557755,1.77689890417928,1.77782185112803,1.85452062613485,1.78594001714668,1.88659774151712,1.89308662363643,1.93695485718036,1.94870830403799,1.95152423401429,1.95182560444654,1.85502918873926,1.85462422222093,1.85387079614032,1.85333398005788,1.92409010685382,1.85229801919703,1.94852936534384,1.92534267771285,1.93934698498632,1.92359096207542,1.91912691254776,1.92974080245845,1.93049422853907,1.84720297532685,1.92649165248579,1.84693927619864,1.92852590290346,1.84635537098616,1.92660466639788,1.93844287368958,1.92441031293809,1.84272009014718,1.92672709813598,1.92659524857188,1.92429729902599,1.83812419105542,1.83549661759927,1.83514815803698,1.91724334734622,1.8348091163007,1.82995893590673,1.82947862678034,1.89717396012378,1.93060724245116,1.92728274987044,1.80421059960164,1.74841939833195,1.74239198968701,1.79529191837234,1.7940205118613,1.73376526106395,1.73148614717008,1.73014881587699,1.72815223676335,1.72630634286584,1.72664538460212,1.72639110329991,1.72420616766612,1.72494075809472,1.85140332572629,1.85356942570807,1.72421558549213,1.7275965850289,1.72608031504166,1.83498805499485,1.81478681820831,1.8063578639314,1.7263816854739,1.72474298374856,1.66339526513432,1.65707590388314,1.75675417434878,1.65547487346183,1.8081849221769,1.75935349432691,1.64606646528012,1.64318461052176,1.8672817803753,1.64018974185131,1.74234490055698,1.63824966969372,1.75393824437247,1.63462380668075,1.86902407818673,1.75214885743101,1.68420866061136,1.68277715105819,1.74242966099105,1.63500051972106,1.63436010755254,1.63583870623575,1.63156301322825,1.75764886781951,1.63312637234553,1.63347483190781,1.63354075668987,1.63636610449218,1.6344354501606,1.75180039786872
1.79356845621293,1.78561981106242,1.78182442718131,1.78070370588639,1.82921492765212,1.89384004971705,1.7759571215785,1.86990935383145,1.77380985724875,1.76921395815698,1.76953416424124,1.96486929346722,1.76395881124468,1.7623954521274,1.75994681736539,1.75607609087622,1.75668824956672,1.87236740641946,1.87117134251648,1.75319423611786,1.86178176998679,1.7969494557497,1.84998123399913,1.74735518399308,1.79942634398973,1.85185538137466,1.74939885223675,1.74843823398397,1.75115056787419,1.8127054786606,1.87945902940327,1.91033066305656,1.8030616248287,1.87069103339009,1.79563096010862,1.86477663865725,1.86164992042269,1.90548990048859,1.85818416045185,1.85591446438399,1.85157284659443,1.90599846309301,1.84587506185977,1.84672266620046,1.84702403663271,1.77318828073224,1.84386906492012,1.84567728751361,1.8417594718944,1.84280485058125,1.84668499489643,1.98470323503947,1.77750164504377,1.78338778629859,1.88966795279563,1.97481451773137,1.87034257382781,1.95028108098128,1.8601995752175,1.94804905621745,1.92961837072035,1.85579203264589,1.85487850352314,1.85342815831795,1.85279716397544,1.85171411398455,1.8528725065835,1.94409356929421,1.93168087461604,1.94211582583259,1.93896085412,1.93678533631222,1.94018517150101,1.93490177111068,1.93549509414917,1.93624852022978,1.84638362446418,1.91755413560447,1.92677418726602,1.9262562068356,1.93606016370963,1.93561752588727,1.92926991115807,1.92261150817061,1.92514490336669,1.92413719598386,1.91914574819978,1.91826047255505,1.92570055510114,1.9190515699397,1.910876896965,1.82946920895433,1.82859335113561,1.82839557678945,1.82568324289923,1.82670036810806,1.75132008874233,1.74934234528071,1.7446899392329,1.74115825448,1.73635516321607,1.85227918354501,1.77855644155663,1.73185344238438,1.9359094784935,1.72593904765154,1.7275965850289,1.7268714124263,1.7721711555234,1.72509144331085,1.72604264373762,1.72431918157821,1.72435685288224,1.72611798634569,1.72579778026142,1.72551524548119,1.7258919585215,1.82475087812447,1.82300858031304,1.81640668428163,1.66186015949506,1.87169874077292,1.65659559475675,1.65202794914301,1.64963582133705,1.64723427570508,1.64471029833501,1.63996371402713,1.64137638792828,1.63880532142818,1.6407830648898,1.6377316892633,1.63970943272492,1.6374868257871,1.86643417603461,1.68520695016818,1.68389787235311,1.68304085018641,1.68343639887873,1.63584812406176,1.63556558928152,1.63562209623757,1.63448253929064,1.63570685667164,1.63594230232183,1.63434127190052,1.75732866173525,1.63620600145005,1.63612124101598,1.73192878499245
