0.200985922924077,0.189401650225405,0.154702180343052,0.193020723667923,0.207582996907161,0.296233856393139,0.570674790688836,0.577135248617809,0.701955000000333,0.274181239965902,0.208670540118783,0.195273318398375,0.158326004026794,0.198069251976266,0.209629778460164,0.360728961996455,0.569037994652653,0.541783664717242,0.606006000000333,0.249747577301358,0.169650530321735,0.181183405781703,0.214324852385706,0.257339109287096,0.43928817274581,0.418278126628024,0.410271923910712,0.154869805377041,0.0060818724166615,0.0324542681650814,0.0240006047571311,0.05929632250822,0.127040001831628,0.20943389772346,0.248276467280853,0.249952447680532,0.218898300496285,0.199543805107334,0.00568248995761957,0.0488353326597258,0.0489356001491613,0.085340658236703,0.0486312050748086,0.198141807871656,0.461933128768457,0.469539033113961,0.522918996508107,0.183099346101554,0.110745003651003,0.177651622889662,0.225462623141719,0.226137754388733,0.504925734174179,0.513113317182363,0.589761997846287,0.401871419575498,0.201043000229019,0.25975514144225,0.259515167033988,0.287099883064951,0.367868764854263,0.440732002482557,0.472763998778706,0.54184859455657,0.621334997734391,0.560911925646991,0.318576004285353,0.360826241097931,0.407848517672364,0.406474460161897,0.466926998341344,0.51462437943919,0.549870235668335,0.567131877014155,0.567972786575035,0.577771761969565,0.606265713769162,0.453047090764915,0.284987999999667,0.419289836192075,0.405414063350334,0.543878723289506,0.557784122935942,0.577924860914763,0.634428995183382,0.50641439122184,0.378605004705961,0.421753482463096,0.460280998836189,0.502780689943962,0.544787796522504,0.626810359134003,0.793978334618463,0.795647400647749,0.954578997178666,0.90954009704966,1.01125000000033,0.53061995751378,0.531173962073089,0.530130189733341,0.541392345773112,0.537612190243746,0.536648845610825,0.639432290811626,0.904062000000333,0.541303767148765,0.527679994458326,0.445359101175092,0.432056006827016,0.532164640044881,0.560645243054448,0.634946829695416,0.848429995820124,0.785726327382785,0.77279507651173,0.575572007638138,0.450533999999667,0.520292894143165,0.509118956008942,0.602414838294044,0.613755999787989,0.753046122697769,0.916094000000333,0.665709263443376,0.645511528419224,0.646171973234227,0.639047256608919,0.747948535992953,0.782906222306824,0.789073761274123,0.80562507373725,0.786045905828484,0.737852001713735,0.800120011717386,0.922483997569187,0.95109549937666,0.991935912925043,1.01255374393483,1.12449999694067,1.10600618335548,1.21191000000033,0.855569336175529,0.770463998116437,0.75791234921387,0.713908003968717,0.805664162724134,0.829255006701931,0.904350831392229,0.930464832119525,0.931086290535956,1.05162000000033,0.850300771082025,0.804784746230456,0.827884161204661,0.832595439591468,0.860330570792609,0.858391991105338,0.962947481479697,1.06199481523441,1.06993662998362,1.08242318360836,0.929815759922361,0.880646950687459,0.884365282648286,0.898718998202823,0.899178704269473,0.910302632424427,0.949631162202944,1.06489068254041,1.07255588489522,1.18261000000033,0.987233820880058,0.95020815225632
0.189568431805624,0.183170309410079,0.171864064518169,0.182060022573393,0.190961496337014,0.246366007588691,0.274220823328418,0.302044726125627,0.329904659670934,0.252331688797624,0.194851012390136,0.188372269813586,0.179423778304743,0.190308349174855,0.26591257172829,0.387243886003452,0.534051010461344,0.528842797977802,0.526806286987845,0.249730642625029,0.174558101643094,0.177132189617272,0.19688684333124,0.246002273283968,0.430669010550513,0.422833068141364,0.418367150097023,0.180028341832703,0.0441517116396245,0.0370296521778199,0.0306526752738945,0.0551959626598717,0.104499487721523,0.224210064479047,0.249764088409129,0.250386456939141,0.228276795344295,0.202963398127893,0.0486227164630484,0.0488200051550659,0.0488350979978424,0.0992666415280247,0.130960117094491,0.206576661980753,0.456126608576293,0.476415145308787,0.480485434960312,0.192042207386923,0.177958381467388,0.178384212250824,0.225120661261509,0.226117060912633,0.501934286848973,0.521552674269172,0.54218903765241,0.380473406498327,0.244043807272815,0.259133437648941,0.259078167895732,0.288369782267711,0.388953803977241,0.458812400833191,0.506792722899405,0.55527143522583,0.574220696214214,0.562105489469557,0.338435445944287,0.352139985222415,0.372319986231559,0.405570028821334,0.495804605198777,0.524582809426542,0.564008801732309,0.578414285413178,0.581592071405619,0.585504527770845,0.591810494819316,0.442843952339689,0.407389606228017,0.429064780643805,0.467308677155225,0.550165479983741,0.574222667553191,0.586044895345837,0.598985701113173,0.501804156998632,0.421591235814804,0.4220119686998,0.47656120578158,0.500706673008852,0.537597211624519,0.625895646958781,0.779741100504292,0.783369015309173,0.79863691547539,0.798263403322497,0.797951953812499,0.530682720971313,0.530775638297967,0.530883878480661,0.532209722073949,0.534111625694199,0.550387985247032,0.614470360605624,0.641681795770069,0.53605640535359,0.496600921640455,0.441255610492551,0.439920262221507,0.538757858230721,0.573547651254461,0.659142343710987,0.821693377404305,0.80324580646713,0.7901040158298,0.584147090214946,0.513330839137627,0.530849409972945,0.536122779552515,0.608573396502887,0.65594210606916,0.7414242687027,0.760079905878074,0.670311207320922,0.646412362664703,0.647147859215487,0.647817763412548,0.75199797414054,0.78807645894454,0.792040707754053,0.805875058177176,0.80563728086355,0.804468126728235,0.802979594644557,0.878871173132862,0.949952828740933,0.98331915869881,1.0089610537889,1.08635378337163,1.09243541272501,1.12216566114119,0.880030440290233,0.826355379498286,0.792942610548283,0.781333194066802,0.806137235604335,0.852045519432842,0.905031003713574,0.931306346189068,0.931494589470548,0.910806116469696,0.863540690795648,0.820827653189737,0.837863885833797,0.841734849182366,0.863535806795255,0.864251353480939,0.960292167510757,1.05445553230694,1.06057277459384,1.0657599434253,0.933657857616338,0.881451952357708,0.881885409566997,0.891564311633365,0.900567503952295,0.918901721889644,0.950416254161202,1.07505560833128,1.0803167242805,1.11204728862821,0.983057874832172,0.932324507426634
0.150027296994887,0.148925679718443,0.141480315482512,0.158846757182802,0.167603709901828,0.182226551040887,0.166210003933257,0.272957059297419,0.635858000000333,0.230267691602768,0.191993373007049,0.174560245335386,0.0952239013605849,0.185017550905457,0.476130000000333,0.414420308107449,0.541700657557013,0.526804355754685,0.522939045517336,0.250314799915372,0.156727006081585,0.172997117538916,0.173944274109934,0.235343925450276,0.563721000000333,0.454563399829585,0.669322000000333,0.20559043041661,0.0591154264073345,0.0441967436390475,0.0254637903130498,0.0527241726811803,0.0511782020188635,0.243232866730719,0.391428918450225,0.401775460445384,0.450169997358746,0.21103700395694,0.0484265135263381,0.0488893423818299,0.0238094069430621,0.112940056890396,0.169009563234988,0.215053839376303,0.450457661048018,0.482300277313388,0.581060000000333,0.203043224780762,0.152313008848385,0.179186774119221,0.223123868876528,0.225997799702707,0.498976938454309,0.530049974183936,0.638831000000333,0.360733117617768,0.22651600538026,0.257977361888999,0.258170091065455,0.291059332685917,0.404441996755996,0.477686134001971,0.559547005222999,0.571353957248531,0.635381995014128,0.562318567919778,0.294301159157859,0.288735790586997,0.274828243368735,0.40415618732216,0.530763567623149,0.533541117314524,0.604312995085752,0.604619206720835,0.691652000000333,0.589227818854329,0.601065408754284,0.432766290692218,0.351768000067258,0.437759433900873,0.581868994731466,0.55838535409297,0.616424997055825,0.598593292917996,0.657898000000333,0.497435838785604,0.375213000995639,0.42269379957885,0.499449284887459,0.499212422360053,0.530564172934352,0.623981902002749,0.770721891586702,0.779496185256245,0.799156522795519,0.798368746320851,0.797794068650025,0.521190636621868,0.407473005273332,0.427713262249678,0.43499096085037,0.527903784658227,0.572342689260882,0.590623432536325,0.869389000000333,0.529810542059092,0.414687003510071,0.439919659884497,0.422102007090772,0.545057854013358,0.586907997680376,0.684331459453933,0.846387203151876,0.839522916373695,0.838118089737902,0.592756369389176,0.470304003332552,0.536549924801875,0.548127608711266,0.615081475761868,0.69177187004744,0.726052140234907,0.903425000000333,0.672797071390451,0.604003000498699,0.647838960250887,0.648454344292592,0.756613826529753,1.14839000000033,0.861608000008686,0.818807684740858,0.810615868154222,0.804170825376092,0.805620560155083,0.830088207977624,0.948365536275701,0.975294823769198,1.00500927223835,1.07378000062719,1.08477584553692,1.20696000000033,1.05963927897389,1.27188000000033,0.794909863203094,0.738658003483781,0.80747217059276,0.86611600004081,0.905475134765816,1.01568999595236,0.94551860449387,0.876968577188256,0.871308013594312,0.788863002902906,0.843729852395141,0.851645437681341,0.865665356801263,0.874463091175253,0.956647550382711,1.04245212201136,1.05451275546368,1.20402000000033,0.936761709457049,0.881129902235882,0.880911483422309,0.882625836021999,0.902231912922203,0.93915599698988,0.951643101342077,1.10584915749261,1.09196405763659,1.17527000000033,0.978382130510463,0.928120741700725
0.149248254081776,0.14790725125309,0.145061224081283,0.153319629102002,0.188717162799021,0.199809981562892,0.215149084491184,0.231013581571403,0.230955262423599,0.208051610762205,0.176424403055798,0.161437350746837,0.148032935799698,0.165954598176336,0.206144825616578,0.234052153147906,0.2619424329291,0.498246921326471,0.498843937886708,0.251472386982427,0.170445097441157,0.171897571413747,0.172997110349114,0.225460736277751,0.291037726576049,0.380622734824233,0.407390778893001,0.231645267039907,0.128593030728016,0.127438672876312,0.124637095329543,0.160119937458389,0.188024776930916,0.262360323594254,0.396526242098156,0.407773216043667,0.417624423494665,0.219118027828633,0.0540143833845377,0.0571798959745245,0.0580775112890517,0.126421875587119,0.170956444361935,0.222311945254587,0.473552548322982,0.48681201023125,0.494823094078645,0.206688564954743,0.17826005394422,0.180286593345086,0.225871022310339,0.226874297723469,0.522938693889048,0.538568070386718,0.573402786268245,0.342236253250382,0.255325764121303,0.25616104468241,0.292605486364767,0.295263574101362,0.436665756265009,0.497312736911744,0.576139430564657,0.586388346653298,0.601041974502139,0.561925080423968,0.288735790834038,0.286699341329497,0.283218722009394,0.40196850187161,0.533526683859058,0.536135816263165,0.604078649363776,0.604500450701672,0.591660856354636,0.587264689371182,0.582177046665348,0.423780060741958,0.419887804965454,0.443522364260421,0.536678047107873,0.529428892413852,0.518564412578936,0.508210719748113,0.502176481658624,0.493767379971003,0.422781485414966,0.424023902864955,0.47588681053708,0.49808636009467,0.558194075849819,0.621024676998246,0.62376306672926,0.62421822384691,0.646668091441156,0.670325112669134,0.689025495833836,0.518839724654576,0.419846117361626,0.42488133456186,0.427713071626269,0.523716102480104,0.573226112169993,0.574549468653616,0.538500627595407,0.522611783224093,0.458303155029553,0.459032974560767,0.459722395582943,0.550596254631576,0.628639578709739,0.710562155791534,0.843661839219671,0.841175514137347,0.815555508491825,0.601380939538791,0.572250286175979,0.571988152832361,0.584609088055496,0.62128334202519,0.691574816720827,0.691706530508154,0.687831885094836,0.685453596869374,0.685437386002798,0.686720583872754,0.687667864543821,0.761391195670589,0.925334465056597,0.898836421901377,0.873319345349755,0.848097921616784,0.808431653178164,0.808713833850723,0.845343360540516,0.946288513134796,0.973127657438417,1.00085474645847,1.00637812279525,1.01720129063917,1.01685858017694,1.01699577261393,1.00622250384784,0.805057831421908,0.804540551275008,0.809164509396194,0.880411537874537,0.905587395277309,0.975480904065005,0.960220148766549,0.920684020510561,0.886149645120427,0.874353682679185,0.869152275778153,0.859808192190033,0.867243347851235,0.873136236192331,0.952262407206415,0.989330820991421,1.01759447583757,1.04526627527481,0.940367042592755,0.92107524904501,0.878748916891702,0.880374674129971,0.903657265605078,0.918276705107,0.953423599099387,0.970715621752003,0.970570706744433,0.971238678150223,0.971012204510914,0.921695049739055
0.0756972011258344,0.125397212308291,0.103697004782558,0.148623295787346,0.234059996155729,0.211089431316658,0.255296987024267,0.230955604897881,0.230804025222681,0.192272573651381,0.106150005690877,0.127168646137967,0.133992323575511,0.125114929030561,0.107013196705397,0.196990590895678,0.167051005718908,0.498622926100913,0.500226914907908,0.252997913064892,0.169387182473898,0.170726854904487,0.139623005018306,0.205981780324388,0.209195358944944,0.354957928558713,0.518515000000333,0.258277695030302,0.129518694447114,0.128763949646935,0.121756248482017,0.188024780455046,0.236754003321482,0.281502880811588,0.402127982206464,0.414967503165978,0.441510912962031,0.229840224359096,0.0514715043538846,0.0589913197077887,0.0589878945030788,0.13969551396945,0.172905563090982,0.223544992107226,0.486756938397192,0.491414381172534,0.516978494688441,0.206995902204876,0.149249002874395,0.184197733183984,0.228580430048272,0.227710308175966,0.574172997176058,0.554340269091868,0.669768000000333,0.324470516702574,0.254217137256503,0.254818729224189,0.313938493383621,0.311938952267021,0.466351,0.517613130482212,0.608711715834274,0.60935708761908,0.693855000000333,0.561710964753018,0.277912605288205,0.278132750717463,0.277159545888714,0.398964778926645,0.553523010037753,0.542256213983327,0.603200733904587,0.604395698632994,0.574572958087798,0.575499022764027,0.57612745022078,0.416573452459321,0.374178005003695,0.44861573051034,0.546404264071429,0.523079856328299,0.472522005942957,0.497234849033184,0.488151233454361,0.490791270051467,0.403656004575875,0.427390265523218,0.460474367624705,0.497600901485474,0.607176461420385,0.617725476924427,0.507415999999627,0.563606258745506,0.501027999999667,0.64836434159875,0.734088997281773,0.517087641932428,0.414541467575927,0.421235576712379,0.41554532234244,0.520753239782865,0.579181946390239,0.576543161807124,0.497919341170317,0.514887600418599,0.457475734873989,0.458964378138368,0.46031427276046,0.557863337577885,0.760900278806759,0.76821762195841,0.862346993699914,0.844657296739798,0.790808007673956,0.610092996823821,0.572821388046313,0.572107506575592,0.594292703218231,0.62674408457562,0.918322000000333,0.693378473734005,0.685971063993201,0.685043294463585,0.683555753773921,0.686234161841736,0.687849346077685,0.7687041256975,1.12407010917491,1.13877956082074,1.19447999801669,0.871259562127253,0.774589001037158,0.812190323895424,0.871554992926587,0.944306593261279,0.970855195297377,0.996894712424434,0.99042474162084,1.01695703911487,1.01620814724616,1.01681466731397,1.00603842059726,0.804692470721021,0.804468292668217,0.811566894259204,0.902981712170054,0.905304182014375,1.07502999763023,1.043477699641,1.21923000000033,0.89359565893398,0.881632780905865,0.875321294948624,0.832462009129548,0.868974105972311,0.871581314037494,0.947511509498996,0.956806754053696,0.994978792091661,1.14828000000033,0.943814811029626,0.936101999444484,0.875810004315488,0.872293654123625,0.904877443954656,0.908995771048657,0.955799307489061,0.970454287700243,0.971109299515455,0.968938331789478,0.97126133446304,0.900829006115025
0.149551607617571,0.135473913035945,0.120216457811246,0.144721844731942,0.176639565006276,0.199094137341547,0.223480266357775,0.205334730269283,0.191590628096443,0.178319844421893,0.156991658482058,0.122658500678821,0.117326781329936,0.113269430674165,0.111541361535771,0.21329799403602,0.23939120627162,0.498246921326319,0.498843937886556,0.254602797433137,0.175057678805742,0.179364678714403,0.181576934727458,0.202916877927716,0.218500432713248,0.330290968207116,0.357269658091254,0.285539188359656,0.24436554745221,0.196780575014853,0.196516986930443,0.224378843509363,0.251948895667807,0.300652778085075,0.380954370782069,0.42044917823465,0.428845306265773,0.241426152977325,0.12243900485912,0.119367948063488,0.113621680814841,0.152640250044991,0.200296041195879,0.224703338472864,0.489090182350733,0.493568116900125,0.506633896773382,0.207713931294454,0.196090501082428,0.188556768705893,0.212973127853117,0.214156727877168,0.416819217020596,0.388908428354547,0.360997643252352,0.306916986174029,0.25414275075027,0.25392198724498,0.287764355601505,0.309542403830738,0.494261850975424,0.538471084372305,0.609551294574361,0.610679146738805,0.624296541085802,0.562147288152796,0.278922952704842,0.280289474708997,0.282182244207067,0.395192183880258,0.448431932722758,0.533936593082015,0.604494351616275,0.604956171534714,0.585378877234362,0.56095951368216,0.465386883646655,0.412006734337835,0.407549337674485,0.452136988481193,0.49771477865314,0.517617313899848,0.512714618858783,0.505179785997158,0.50064439001701,0.497296062080167,0.435321698821967,0.433907668602945,0.44879460030535,0.497623811937412,0.546208317579679,0.622129197667095,0.625217462182841,0.627246758522326,0.628313613227162,0.628923708584807,0.557582814324568,0.516018853730844,0.482015368135293,0.470487268045854,0.451061765844477,0.516420925662842,0.577522070001259,0.576588186902224,0.542068577889815,0.529036587889194,0.479527085117097,0.478052698227374,0.47521308119174,0.566055832016355,0.659815656287241,0.774052803102797,0.847676946800698,0.845448708733921,0.811673446597147,0.618843437558435,0.572149736908037,0.571882525018334,0.582544546270998,0.631498444318118,0.685050978521225,0.695493119159385,0.697511840609349,0.699613748062679,0.701609111128464,0.70555360191901,0.707932479154215,0.778831522850669,1.14015489713342,1.14906471551677,1.16007251380835,0.894796151573828,0.816162508084836,0.815622708540514,0.847975157098532,0.942481321411106,0.966795017959228,1.00774930196311,1.00835747884451,1.01720151101576,1.01691312371608,1.01711362071313,0.867951900171503,0.804557826452344,0.80449239507285,0.816092660208737,0.884938783880424,0.906965178149808,0.968052955876322,1.04276637788368,1.04380281489083,0.896090725631739,0.88917376527552,0.889860308450979,0.890152073238472,0.890554302913143,0.891039991215768,0.942776011769648,0.946082353303946,0.960463901652093,0.959989646674568,0.948939232898009,0.947002452958513,0.873908147846118,0.873605034909292,0.906276918917512,0.914532714054244,0.958658171491429,0.966858429936048,0.970397652125699,0.970949712966359,0.970656349709763,0.95723009403032
0.166100634417905,0.147928422382388,0.0999444086921265,0.137261278502171,0.117843004194534,0.186329923479639,0.462596000000333,0.18313391157654,0.124672255019446,0.161965007899558,0.586611000000333,0.115561728584897,0.0718679524531757,0.0798103255931675,0.075488209988934,0.22765489025705,0.560406746213023,0.560041127014555,0.571294993643957,0.256026024728562,0.168969838502569,0.181578756719009,0.183560825356433,0.200293171395132,0.22760018097727,0.307429402729333,0.541087000000333,0.33343673770924,0.528986000000333,0.197023195962266,0.196305744941588,0.242474976655139,0.268738999193531,0.319760998374706,0.36029700517763,0.434791769282291,0.538160999162038,0.253454856583253,0.127548942831587,0.122446292168862,0.106887400545006,0.165067017148167,0.231795665217925,0.234949318688436,0.493622765150782,0.496575023277963,0.513587785060365,0.208932806160721,0.204419651524834,0.185588663344217,0.179840757205704,0.211660177989319,0.507163000000333,0.360997643540694,0.280620739719102,0.267649991384388,0.243557008939035,0.252798243941039,0.276692588003421,0.306781961836469,0.607560997948012,0.55973794347097,0.617571551710014,0.613778893140058,0.636957995527288,0.563078806117384,0.271615055540146,0.281756555154446,0.283139925372869,0.390844901523933,0.390711548472389,0.528803889201603,0.65348799604826,0.635534362087844,0.645439992815063,0.548299853472428,0.368102002593305,0.409869794940009,0.368437003771468,0.456951286521956,0.464046057763567,0.53266209018785,0.619196003070099,0.632310117489889,0.702902996542945,0.511994175507393,0.437477915171328,0.435584636187807,0.435831316821273,0.498010690568194,0.498601193820902,0.624313673030111,0.781272120443028,0.776759477855554,0.844057000000333,0.651679938570961,0.495247002142801,0.511806864206803,0.495235998164903,0.48447725670863,0.427263005728476,0.510212210379442,0.841847000000333,0.73605181327217,0.855612000000333,0.537952833250497,0.480448854262145,0.479020394042554,0.471511684716629,0.574179683343395,0.621893999405894,0.778090171853976,0.850816726114361,0.857564008828743,0.91542699582286,0.627416905704825,0.548895008883318,0.567721663822,0.559724617943018,0.635710593984652,0.642509416855167,0.74794577736138,1.21277000000033,0.741991662786819,0.703273338552295,0.707301325918161,0.712531417764351,0.790218903662918,1.15622349536488,1.16404626503982,1.18189991551484,0.919663862006602,0.816379903102477,0.818215189226623,0.820472794455191,0.94082678082235,0.962484201867773,1.01358614449336,1.04350000077653,1.06839753861275,1.17993000000033,1.03848561314113,0.772094001958494,0.793544242098544,0.784540009284998,0.821785474247914,0.872087998462683,0.908074668015745,0.936140997160612,1.04020161411311,1.12356000000033,0.89590789361494,0.889173698570363,0.890380182785362,0.896378562213813,0.89387619103922,0.891298879218995,0.938304197593115,0.934104726141479,0.960371501264671,0.958329761805478,0.958572784201038,0.976912785589526,0.872241436313419,0.873999665063611,0.907368198641246,0.924027420530828,0.961769198643112,0.962881083668582,1.01301743406144,1.33926000000033,0.98515290556385,0.983754977098997
0.167721151352443,0.169077859626164,0.169846421098683,0.17050766272587,0.171250407442291,0.17170953543258,0.158271675163234,0.144475976753306,0.124318329352697,0.123428125893378,0.112791347150251,0.109774863171742,0.0833077254332572,0.0826621394781647,0.0828708017200452,0.241135622298043,0.548469121931918,0.559294801703323,0.560969610182401,0.257121878325101,0.23418721281658,0.209421012479603,0.195927790321287,0.198382118258143,0.211314717334562,0.285159015836053,0.333436737709042,0.305860994868078,0.258626611616256,0.197618734016827,0.197192476611586,0.261597792341922,0.288221601018263,0.338775707519556,0.416993283718893,0.460181540862007,0.485537080257219,0.265208820115381,0.149885341181768,0.151716090555824,0.152676291566932,0.17688512767944,0.21674843497056,0.237256954357466,0.497537140007818,0.500503765534509,0.505918337654229,0.210687977028504,0.192551242872053,0.18364667968952,0.182685942011758,0.210533452237426,0.252613654801003,0.264626395230556,0.266852147697735,0.262634676848686,0.251863446546744,0.251961297112407,0.274226662931774,0.304163685970339,0.383982678323994,0.518169146279084,0.557021029576574,0.56701941116366,0.566011338840905,0.563942477767886,0.396069284445377,0.3468090652445,0.346521829399051,0.38667195696048,0.389502482839745,0.524957946166153,0.555934855288799,0.635350238815707,0.635534027146071,0.536508471328563,0.421478247239926,0.433072804897567,0.459753828284591,0.482996416922755,0.503198187717427,0.540495673910613,0.632824667467426,0.64133795344501,0.660296828393895,0.526488763855596,0.511423276529243,0.513038783009635,0.515537086315496,0.534759399263084,0.577048310688028,0.625670918228519,0.776759504938455,0.775639215549666,0.764322940672996,0.677514975682995,0.582629782873997,0.539671239195975,0.520634903380126,0.499687647399842,0.497829751699823,0.501086357610013,0.564268270536366,0.725961730474783,0.725752640771565,0.553880897455342,0.523320893891505,0.527309614313855,0.529149416976407,0.58394876151686,0.608984361308546,0.781837057091607,0.849563709603493,0.862441129160372,0.875586263365058,0.635498172811412,0.590297508515763,0.606197163509901,0.626284672693497,0.659484782650548,0.705706956430607,0.774519338479055,0.801765371780621,0.764452622521492,0.723292032334637,0.726074728601227,0.727408114218923,0.801868937895939,1.16403257322263,1.16625957763076,1.16953639267666,0.946388845006654,0.919172379480316,0.896104958426824,0.880224645683026,0.939272836633608,0.992932018802511,1.01897945017307,1.0683834842597,1.09439854563149,1.12116999677897,1.04801428663282,0.866345030604747,0.823671197465122,0.815933371763407,0.828191464894533,0.85439859590777,0.908631284940093,0.920387678991002,1.03709434953226,1.04037335632541,0.895583765629453,0.890427863491075,0.891928825270892,0.894077356710663,0.903182333964583,0.909370430393863,0.946951439602622,0.950774731431128,0.962602156732119,0.964263580414365,0.964642860216397,0.968795627510316,0.869579476335251,0.871357926974934,0.908089261610585,0.946125273886128,0.964069363309538,1.00384012704513,1.03757069286793,1.06363175194468,0.998472204858293,0.963866770210315
0.091939701591687,0.168974956348459,0.169237317240518,0.173853415242566,0.19007439988907,0.171378345276534,0.128447132607142,0.129689742336986,0.117459937738551,0.121135685578873,0.104030028528363,0.107963813990292,0.0839758002604942,0.0833060173048324,0.0832956725550967,0.254205424603659,0.531187489224047,0.558082936516523,0.563169152973854,0.257916047812182,0.259026200809848,0.21692120134291,0.182741550519736,0.197217215492254,0.19641477583676,0.26306120593705,0.574671000000333,0.27890933409588,0.14263600052881,0.188747564608131,0.142774000564847,0.282012065527741,0.303312996752928,0.357661844264648,0.526102321372558,0.53677425495348,0.553321209352445,0.281446920019645,0.148337981037359,0.152653796330656,0.153888873983488,0.192293446077221,0.202703001196117,0.238609628707841,0.628340999643245,0.573886793131658,0.628242999617653,0.212635935718859,0.177852726443082,0.17862662512533,0.177527366441253,0.184475086188446,0.185443762445549,0.258298762376637,0.577742000000333,0.25723933267454,0.252383751611596,0.251525583272364,0.272400038785136,0.301693797127047,0.29862751763845,0.491507933577337,0.552791017703403,0.567048646754216,0.56513301564612,0.564163570157015,0.562268407152396,0.346651877061047,0.345874796819086,0.383212667619566,0.378672237353722,0.517060311975952,0.497078002526248,0.634711020928584,0.712248000000333,0.525472067742786,0.383013004390286,0.434080934202132,0.505780880858421,0.510663072144577,0.517578967249187,0.549958408738085,0.6744159960074,0.648641006503498,0.717209998545429,0.537968422482863,0.509344928986731,0.511737438443549,0.516890975356166,0.55151543252671,0.634496757103332,0.638893257050752,0.794690989470927,0.772500235888969,0.752803482207321,0.735763454883813,0.720566005716765,0.548790728952519,0.541279104911284,0.500868080330206,0.478374006830297,0.490780990066359,0.477733004205677,0.727699632023244,0.725549977106953,0.56549688308,0.519040241743699,0.529132452070994,0.530708719882054,0.593395507606775,0.596983852166507,0.785057338792703,0.848346767706922,0.868549911897513,0.982830000000333,0.641207715630214,0.539984001442941,0.621809586107646,0.645524998837832,0.676925757634986,1.21164999981653,1.18059878156582,1.20143999672686,0.783421837316698,0.720053016258537,0.72721565157865,0.728369379333218,0.816096899673155,1.17349296423889,1.1734461934273,1.1734358762355,1.17475525244522,1.18647800775642,0.907664817811556,0.84621600550938,0.937579701635866,1.03929863823911,1.02409550198598,1.15266999396256,1.12420148365986,1.22843000000033,1.05754292118776,1.23306000000033,0.83338033685563,0.781606005682753,0.834189790467382,0.841765502019811,0.908793961506625,0.906148568490222,1.03372343797362,1.08023999941862,0.895417624060383,0.878192317433171,0.878357769414691,0.846797006102644,0.914981544478553,0.921911975533361,0.955542954811993,1.11167488962747,1.10683594695596,1.30628000000033,1.09465439886519,1.17605000000033,0.866315219598263,0.851016001863927,0.908714779916891,0.967349581318825,0.966377292943087,1.13711000000033,1.07702851046876,1.25798000000033,1.01161928447746,0.953557037408502
0.141712907188796,0.168162199508823,0.172757632347379,0.175275357002435,0.181352927641356,0.170307806280043,0.129631930719897,0.130432084095509,0.122112657335035,0.121755871221193,0.111428145302803,0.108794440088161,0.0879849772957317,0.0933285567971969,0.0985663868727979,0.271182057266867,0.546991243824835,0.556373841335869,0.555343975371674,0.25747892122926,0.238601672833792,0.219067637242704,0.213021555761678,0.208609029581748,0.198168068056797,0.198502566054356,0.200644498851533,0.215316164525449,0.214537021791763,0.260895369697709,0.283742025139853,0.306538056317865,0.328881422070252,0.376397722616684,0.535610676095444,0.541744494952551,0.547386187633822,0.299587447917521,0.191778413406372,0.184014433864787,0.171772451876613,0.202227591678657,0.228017218840734,0.238981082503113,0.527108794617338,0.548242098665533,0.56486386754302,0.214385883991497,0.179421267059094,0.180276545479714,0.181970309089084,0.183526277963381,0.183924724331486,0.238154298629948,0.248631122527505,0.248990875664511,0.250326776098435,0.250343821613874,0.264489206772044,0.308736818290599,0.34874925300709,0.465987882473445,0.492875564259478,0.569312541452068,0.567226592841436,0.504705420992826,0.395961131307436,0.346855285369308,0.346568050289391,0.389968920742549,0.469331920944341,0.535132894762848,0.557295276354376,0.634304328470126,0.634349924372663,0.515042536684746,0.434069928568304,0.433856286284422,0.509363562470053,0.512264378752702,0.518175323480377,0.559780396097405,0.621018030342259,0.635367009154327,0.666510817720648,0.547058886093413,0.513833553779584,0.513564843377586,0.515632171712016,0.569123539231283,0.638737475232279,0.64070825995222,0.765425771759937,0.769541003971586,0.757370526500592,0.745956705233159,0.735554736204103,0.56115305127782,0.523945377229624,0.508741485320154,0.506338264060052,0.540898671147788,0.570662140568338,0.731485910054008,0.728954875557523,0.575045482849182,0.551681522620512,0.545079133002175,0.536410849329351,0.610426538888667,0.647633955882519,0.787703767454656,0.866515345094527,0.875299263739827,0.906724558604238,0.644683183888007,0.622594073458137,0.633864905451078,0.666964932088959,0.69440692550931,1.15805613050822,1.15872365039467,1.1595694421002,0.802092711916968,0.758409337876295,0.757388285267473,0.756360457992765,0.834486691016952,1.17439363788404,1.17570182236964,1.17761810951905,1.18029623061253,1.1830206969314,0.916015666568266,0.908581853875285,0.935457294549844,0.986745323969063,1.01557532440631,1.08954426958977,1.10740047235842,1.13689145440141,1.01359268449342,0.93573712968178,0.836599755315008,0.819958744712904,0.837224648412346,0.843364445488892,0.911458251634245,0.945240335277109,1.02871111721017,1.02999052542644,0.895701488189074,0.878281163391623,0.878492637704835,0.916717313989721,0.922110387053031,0.92662007536419,0.965519256543818,1.05284324055017,1.10172211233532,1.10608844598989,1.09359015705275,0.943536223738903,0.865153151794597,0.863844736807304,0.909374942187005,0.961065938094802,0.96779880390354,1.01548818140989,1.0639798027124,1.07396816077887,1.02420957869145,0.962384226604474
0.0887768007681014,0.167037467209072,0.242105992844126,0.215744274771536,0.439315000000333,0.169727152020187,0.129588523170714,0.132487305867165,0.135727112288452,0.173788467151708,0.538627000000333,0.151953486964063,0.0631528032931624,0.0985176893332406,0.110899256189345,0.290067805818945,0.562669995633564,0.555343356642947,0.554129810188224,0.257108728137838,0.200651006609822,0.226968252002736,0.238225431578563,0.223299723456561,0.191664004984376,0.194460492490229,0.193883345536505,0.214536605830364,0.214234753493693,0.287644444268273,0.332086063487903,0.332164359609555,0.342048004146354,0.394975656812375,0.53910971332482,0.546236131279203,0.588758994182337,0.319322343476421,0.203647672480607,0.191846450055529,0.156104002874236,0.215628326581793,0.245560846045511,0.247858885681679,0.509364004424475,0.527108794617338,0.606573996315275,0.21771190928198,0.173542264823602,0.222515590870436,0.471899000000333,0.201050164175113,0.182856866361906,0.199519269762823,0.192349006551859,0.24294136339931,0.622663000000333,0.249818437933537,0.185418003101618,0.315028469855209,0.388560997321998,0.44171719393744,0.411830006675102,0.573879180057533,0.581086993622839,0.483347766338192,0.269269002604519,0.315122109237022,0.260234000708144,0.393739881074828,0.582462608507647,0.570973551917933,0.582869115660236,0.633740243880875,0.712595000000333,0.505421530210076,0.400393002806265,0.433252673528752,0.556709245839722,0.539275236927336,0.520229364314701,0.569093158016293,0.595906237017623,0.62473751100349,0.807390000000333,0.556576440381061,0.51267450220897,0.51292504592276,0.505068860299569,0.575845076165088,0.659674879505143,0.646388970238339,0.760482974924258,0.778040373342227,0.820504934126681,0.829052463390191,0.935847000000333,0.569315296166996,0.514905275584019,0.511264548664319,0.502906775096892,0.560348771693327,0.613824,0.736839524512585,0.746574995094805,0.584202966735126,0.563088249702344,0.551203712089879,0.520718003497595,0.630690124497925,0.707359002243796,0.789955199651031,0.89575872965639,0.882443759975719,0.986759000000333,0.647667738517528,0.579007003207064,0.648310566156554,0.693485994082718,0.7118953809409,1.15775940431134,1.15889941274912,1.16078606907307,0.82150288530583,0.759413888325676,0.757376780624782,0.755316397756123,0.854962313660777,1.21718999514951,1.19199709436236,1.31622000000033,1.24083444702772,1.30834000000033,0.928988724441038,0.873620006592419,0.932606653048766,0.953928995892202,1.00855117718461,1.06871000047126,1.09613994976109,1.25216000000033,0.994420964632026,0.901923804585431,0.836977128392837,0.788257007733092,0.841106178505937,0.844823377174253,0.914121683146451,1.01638500197079,1.02512173091954,1.08531999916329,0.896611301895724,0.853455003150416,0.879287900676372,0.9314829816291,0.935134640854885,0.939457033939122,0.975872031139002,1.01472000304968,1.09516142604476,1.25107000000033,1.09132430241634,0.860731110034661,0.867323437545807,0.863948649983257,0.910049213203928,0.954466128308913,0.969187400863137,0.968387896299052,1.05870439713651,1.09441999057739,1.03713577822885,0.974951615212615
0.165536082323287,0.166239044049749,0.166847417114332,0.167337187675682,0.168056325163541,0.16930217471592,0.170406170091516,0.171775914173926,0.173586522932666,0.175987761635255,0.17850430256026,0.180416842753072,0.181288691917694,0.181129225443026,0.181171289881438,0.311045886716761,0.480868055109275,0.479908277185922,0.331800661727892,0.256830793866509,0.257405310473554,0.256002081500517,0.254735721649435,0.25916166451894,0.268126379582832,0.277289403629144,0.287335894013457,0.298019744040829,0.309316369675502,0.319799700620941,0.331950110302806,0.332026905677911,0.385630386331659,0.413127206994635,0.530588523934803,0.555056791043287,0.56092255245337,0.340667821456578,0.232368971152399,0.217215076659903,0.217565462803067,0.228090931625083,0.243180781191293,0.249534463349411,0.256013084975631,0.25688184667387,0.238563834271284,0.222453520993984,0.22176393516186,0.224603811224744,0.291952517694562,0.202162024482444,0.200935146980294,0.200540525874122,0.237523320682907,0.238856824021811,0.234573728204177,0.231088412035802,0.225782682634836,0.319925327237029,0.356948701392139,0.456622995719815,0.482364003191112,0.577720880330463,0.579909059567578,0.463118711268015,0.362630861055429,0.32887598982497,0.31374553780845,0.397460722472463,0.553721304798718,0.560385406307574,0.586512850601246,0.632549922711373,0.634356770304313,0.495525480806301,0.432689077807593,0.432641203610387,0.563730672183041,0.568078327621364,0.571434930574705,0.573978346129978,0.599090199975964,0.601445909470027,0.577819526479521,0.568033829306147,0.56766165851383,0.568278321855237,0.577424784795008,0.579750764270561,0.629751548844331,0.638645059407682,0.778930018243456,0.783599526645221,0.829045991966365,0.833889664606394,0.842629211077457,0.577742840205725,0.527296958261343,0.538674387691402,0.546526623707576,0.579166580117349,0.641734967999109,0.74086985360216,0.742286063497814,0.590954844344329,0.57752928329419,0.590610434347843,0.622847633295908,0.651100624024306,0.719470025789718,0.791498886092977,0.863094274198427,0.862237134771878,0.698983415520981,0.663079457085226,0.663005942122501,0.663599949857302,0.672847472645532,0.727821318661314,1.15804830321839,1.15871566958222,1.15956163761826,0.841871985709089,0.808601824492693,0.825175659532561,0.841630575285116,0.877519804078942,1.17410827011306,1.18328813215627,1.2033319617262,1.2204008712597,1.24074271037825,0.937148558335423,0.911154194012722,0.92877641000314,0.932578810213684,1.00128221436478,1.05813263422598,1.08749987985734,1.09838707834809,0.986579746174662,0.895326570624276,0.837394049428638,0.825256240226289,0.844985433170177,0.85066126984849,0.916874442240541,1.00623239980512,1.01024464110795,1.03281687429583,0.898270160104489,0.882396574769733,0.881087086257177,0.935699406342471,0.936360844837988,0.95114962683252,0.986066997038452,1.04710928245608,1.08787686363355,1.10626150379534,1.08785073207981,0.879254787763814,0.879088021327779,0.878804756441171,0.910634695595461,0.942554179712956,0.971248557188565,0.998650018271099,1.0536505233523,1.05954323419654,1.05164254488055,1.01158939366651
0.165578230725298,0.166068522848192,0.167084944029595,0.167203313928679,0.156272002989468,0.258972969735688,0.550307792292111,0.546729682518155,0.549875064174956,0.21057805504257,0.154996010258188,0.18945777542677,0.193875545603947,0.18983632928509,0.180578318374441,0.33425613916259,0.625748000000333,0.480108354577916,0.220881007203535,0.256152775843426,0.257273426137944,0.256618486751444,0.253146220587554,0.261628858511967,0.521320000000333,0.348231356300325,0.535596000000333,0.370058688649665,0.534260000000333,0.322364130170651,0.332030515619233,0.331537043000897,0.429452820021192,0.430228178757091,0.520585828775583,0.561132244521511,0.603457994301343,0.363638823066126,0.241110680291951,0.217038072254209,0.217724231299358,0.233048783890008,0.24091323611202,0.251590678399691,0.255371288147631,0.256394568249618,0.233547690551044,0.228284332440891,0.199396012093142,0.225080021209858,0.460692000000333,0.205390066383252,0.194644006320704,0.202240775093499,0.555057000000333,0.246636811194876,0.212018606930536,0.223274683962333,0.180762002753164,0.321522509832963,0.324072802559234,0.470090277491653,0.525755701931527,0.580613162223412,0.670791000000333,0.444011561831975,0.415119997909696,0.341784862482043,0.264451001705832,0.401813492287231,0.533907567282163,0.553697249425883,0.589997536746918,0.628539782393153,0.658846992490017,0.485059199897203,0.407489004273236,0.432148187056435,0.587984000048665,0.572193982471047,0.573575832372339,0.575006547288637,0.598568229687237,0.601425019325073,0.567412905504949,0.566811489351657,0.571542032546121,0.567627113853093,0.725285000000333,0.587708619820379,0.60030163171236,0.632901876099097,0.800667651276913,0.799965034256806,0.913266000000333,0.85114487451305,0.85152911389047,0.583216422546229,0.483260000838363,0.547160900319152,0.557754609506015,0.597088288700498,0.846513000000333,0.742127242725079,0.946997000000333,0.591411591367045,0.528412000935509,0.602166475257232,0.662122394842926,0.668163187000299,0.731580997756222,0.791118854951252,0.865079298388474,0.862776807734811,0.00458996999693092,0.662616433045621,0.661621766748153,0.663086312808107,0.628933005473767,0.744544166554204,1.18638768382619,1.1835771425489,1.18630352038159,0.863548804955908,0.775536005434332,0.841630644293497,0.857286994689498,0.902108174061959,1.16107000084501,1.17489190875967,1.18449000218698,1.19959992659595,1.32187000000033,0.945908609691533,0.891549008330304,0.924293760290798,0.920335961065543,0.993696872219378,1.04090955508335,1.07396547150751,1.14348999725443,0.979572033145195,0.887380139368271,0.838494136528047,0.7821420023555,0.844509604049046,0.855604160388781,0.919728433426215,0.999332227852608,1.00628158008535,1.08216999834071,0.900752992576777,0.884126690541244,0.882439226331268,0.940331917830634,0.940838696046502,0.973763932874721,0.995063925328071,1.07788362825272,1.08180252478861,1.30101000000033,1.08357024633571,0.8789265162366,0.878780838577063,0.878028112900386,0.911104570561478,0.932178117064836,0.973125869484553,1.02116999261194,1.04638853400814,1.28580000000033,1.06039434111157,1.08890999211081
0.204009644110427,0.204081845437427,0.254727429632441,0.282415254989911,0.310036970145108,0.337728214095645,0.53575599238018,0.541672250027086,0.545838667903276,0.222268282567038,0.188404330282438,0.194196693735178,0.197272805805727,0.220671897995795,0.285683424332664,0.359792906702943,0.481960636924486,0.481177135989378,0.247162348187791,0.253795145240252,0.2584403133958,0.257624724927793,0.258471808373607,0.264589319220289,0.285645468689225,0.291763825559234,0.294737611217391,0.300837212448133,0.308613491916156,0.31573090679251,0.33042621583752,0.330746200754856,0.431353808671022,0.431209180719724,0.540615693015618,0.565814186028608,0.577574168547605,0.388248289139134,0.331224144512609,0.21664449168438,0.216934755141168,0.237710428461491,0.242318611384249,0.253140835742499,0.254639197549161,0.256225081061291,0.245420904476717,0.235952005387813,0.221905637186375,0.226276290436728,0.30037892542748,0.2093912698005,0.204685169831774,0.205140543769334,0.316939406998667,0.249374886358389,0.234256544763961,0.23325143736019,0.232165556745634,0.331790063799455,0.370057198639804,0.483099394362478,0.52671367165296,0.582448582807904,0.583509717923562,0.425982271001793,0.38122393184789,0.344804925700483,0.351384665683706,0.407706627016679,0.535568185704891,0.547703088465178,0.602765374093182,0.624370424808763,0.626052713724641,0.474718876444288,0.431721977193679,0.432163261885301,0.570748009843429,0.571133707150726,0.575615131436753,0.577640758191395,0.600757517719035,0.602095258710154,0.576095721143058,0.566529558657554,0.567026643765464,0.567958119986161,0.580212896056047,0.586639550757186,0.591048728879626,0.629203898056074,0.799463782347112,0.799367089633788,0.864616057536632,0.850768098276286,0.850782930482667,0.590153384407228,0.563601046035662,0.569492820361459,0.57231635548218,0.614931992383302,0.685389897670876,0.685792748654331,0.686267762260377,0.593582225518829,0.584335810218651,0.608618995254642,0.65551497353972,0.680715787116912,0.762862734263069,0.808603411026271,0.863094815149856,0.862237675723014,0.73322674459633,0.705063905621244,0.681719011851174,0.693521494387092,0.701937711124242,0.76256202925417,1.17722714519945,1.17897002476101,1.18040153887306,0.886768428168659,0.850871409965231,0.874797351230405,0.900981956260116,0.928601785993107,1.13763722585474,1.13853275567873,1.13879622122833,1.13994018536177,1.13232711561971,0.947588099192732,0.905205285334384,0.927696765336973,0.928954934557701,0.986007420189919,1.04364426440184,1.06370828489339,1.08773121809484,0.969790986631311,0.8967792285245,0.840680173134715,0.835813283607815,0.845321914016435,0.86184909987004,0.922620117753571,0.973267328886973,0.988662819904371,1.02577217156013,0.903951689975155,0.883396427321259,0.883047694243483,0.941134958516881,0.941229036389457,0.971115244059576,1.00475595990385,1.06795652768874,1.06944260298018,1.11023345160064,1.0791591777198,0.906876175938503,0.900019581774646,0.890857250866483,0.911641256406302,0.932032361802468,0.974817228274539,1.00026142487686,1.0305082973329,1.0316691033285,1.03292891233128,1.03364239174302
0.201551966042062,0.20319842746598,0.385664752497944,0.38125569931246,0.439755283367104,0.444180633258252,0.523904673340252,0.535774737430552,0.55919699479982,0.227693448772293,0.181023458203106,0.197274765424135,0.203185405694625,0.230706194322009,0.489941738091882,0.484992772833935,0.535220998234433,0.481274036947819,0.241642184411702,0.251088851383236,0.25877864274725,0.258645946854891,0.334755997488816,0.273724304242731,0.200284001211074,0.28954737522023,0.290079782379887,0.286010387521408,0.267472222414977,0.304040184627233,0.328830391998093,0.329880231942288,0.433547348814866,0.432275380945475,0.606478994983042,0.576517315302301,0.680817000000333,0.414505843422996,0.554908000000333,0.214362925114585,0.156527003890119,0.242083333121616,0.310212806002826,0.279314336796358,0.272938235308944,0.262731642543719,0.252082223448347,0.236985915731328,0.182052001677424,0.228293540271721,0.422158000000333,0.213956005719392,0.204599008889727,0.20944982632146,0.631435000000333,0.252302993515968,0.235063260251349,0.233112328744638,0.230880781989974,0.337628873914524,0.528324993399319,0.495985439797808,0.527682901664192,0.58276122870299,0.681080000000333,0.40882558229025,0.293096001976244,0.338545533151113,0.359020784568461,0.413953078466884,0.537071018855622,0.542845269313447,0.612835074287275,0.6183690859516,0.708277000000333,0.4652046898389,0.385544001328392,0.433164021530116,0.570677299738236,0.570759504427082,0.658009762406815,0.654496229115875,0.705763108274973,0.711180572235392,0.838235000000333,0.563835023202457,0.450398001907303,0.500097519423632,0.50831244285397,0.575850753195995,0.57482370407922,0.626425688073382,0.798451519431726,0.798823866896049,0.891461994613769,0.85040159961803,0.850071568915827,0.597512232203795,0.556052121075623,0.572328482086976,0.577783103978472,0.632577391821271,0.685157808666887,0.685915259774125,0.686920512247813,0.597899815126624,0.524723999999667,0.610142419785835,0.648942114508657,0.69207925510103,0.808712159859693,0.829304824217931,0.936132019046979,0.93633520120315,0.990136000000333,0.723912121350975,0.662646003414873,0.702146663707315,0.712091004454926,0.782231702511278,1.17541295816351,1.17731967443272,1.18074207903711,0.911577309136032,0.800850001611334,0.901545222364596,1.10270878031816,1.08874681132133,1.13702007689711,1.13696847786271,1.14170256774492,1.13930182259823,1.12057017630601,0.946174973576134,0.891512005548136,0.92955105360739,0.933133173550747,0.978437115394042,1.04643754588313,1.05649576085454,1.15764000000033,0.957989819926309,0.905010020099987,0.843885603889635,0.795822004121891,0.847744387745352,0.871095971217478,0.925424657679147,0.95296462397951,0.978505583756091,1.14379000000033,0.907391122077456,0.877766009300273,0.884394312288626,0.941994182047487,0.942162369868583,0.968422332257836,1.0123729371607,1.05998073020903,1.06576890191034,1.31588000000033,1.0749734991926,0.918442826050847,0.907544405041886,0.842443000688666,0.912577068223114,0.932361320270955,0.976331870044254,0.977906003691705,1.02943365438149,1.02833701308434,1.03367290161765,1.03493618452437
0.210041730272343,0.211530581145921,0.375353262140015,0.377963200701319,0.383973914162502,0.447955788636359,0.510342443882746,0.50946483862022,0.50856941802655,0.230305940903711,0.228155988979834,0.209061342753536,0.205902495251137,0.23959174471889,0.440921970851251,0.481636304926024,0.486164844415159,0.481232531078252,0.245699431471919,0.248633450462909,0.251017522702755,0.254288757999079,0.295346561689113,0.283773040434771,0.251415030814149,0.288516550041653,0.289062121456672,0.282857708369759,0.275996821947585,0.294805359878987,0.304582694526692,0.321621165595245,0.365298683259952,0.409863507441081,0.452571810159621,0.452126577791568,0.376972519741147,0.338551693841618,0.266356896704718,0.204356863305029,0.19511996510444,0.245768028173701,0.294037208281005,0.282633975566088,0.27585417773148,0.27103064467848,0.244959351433926,0.23855525265651,0.234408206609558,0.231063435430041,0.230907494189675,0.218651396644942,0.211431148138581,0.214620401114556,0.255363136250401,0.256413803397884,0.259500557854715,0.263809283830247,0.268941053849445,0.342967703832182,0.452895763747862,0.477159924275846,0.544728274488619,0.583867807606142,0.584052633602714,0.392306453198527,0.330656477662413,0.333581379392668,0.360194054593847,0.420441892568598,0.515907625107116,0.51665708815494,0.498895195232158,0.492638356417689,0.490488386264775,0.454640112028904,0.436089306365546,0.434796988135975,0.524257656230988,0.557601245956652,0.650620332681283,0.651661785882994,0.711090865346917,0.714667739226201,0.744305543136933,0.561442218147935,0.491958250038383,0.494374755743448,0.544738728146439,0.577136660954995,0.588000307403316,0.624347565495246,0.766589331187637,0.784521504878099,0.805829533380233,0.664574655062765,0.636730588868979,0.604272358408317,0.608568231414156,0.611531057107781,0.630592152946168,0.644121663273367,0.669271379545876,0.660101211896722,0.64269030991949,0.60915257081193,0.6133525937691,0.613849882765015,0.674611145043731,0.701690814192231,0.808133144912795,0.850227071001414,0.936335201203333,0.935787130612023,0.801607602075456,0.737457066964638,0.704904673891594,0.713492398321029,0.718908663452698,0.803834202825074,1.17549010921468,1.17584126731612,1.17519358405839,0.938810907482044,0.926449285377089,0.942705792636133,1.06635064336241,1.08030337270562,1.1337813782478,1.13570936027906,1.1392386550397,1.13996224053315,1.13213116703747,0.945609547842533,0.946493834047718,0.940250513605958,0.938287408826481,0.970963240556325,1.00664549593576,0.990415215676664,0.971618011912316,0.945586910218477,0.929222022816687,0.848019817008921,0.849831622360544,0.850958161258393,0.864871681862711,0.927948583349011,0.961306970201208,0.967594664178233,0.948268237544828,0.910328425533119,0.886399043476986,0.887465264829622,0.921058925466784,0.943784829243344,0.994778748600139,1.01556397954985,1.05369959216177,1.06474590293075,1.06494623322248,1.07079547401499,0.960513890972195,0.922684543203964,0.913470592176084,0.914136534046569,0.924005987789438,0.977677564737411,1.0152980869563,1.03033942395157,1.03158391556154,1.03287316360498,1.03358203743342
0.20985677131299,0.212338862514311,0.372907646544701,0.37503814609276,0.193111999999667,0.450247131067923,0.511176464391371,0.509434601565247,0.507631580803887,0.237241153974829,0.25665955293918,0.212428071289374,0.203363467753311,0.247342752212875,0.415193734149306,0.479817305181706,0.573089000000333,0.481163939919034,0.210336148729004,0.209495745307831,0.208512428270446,0.241024135835943,0.320691991275825,0.2928847147001,0.205175002488286,0.286620237472354,0.417535000000333,0.264827763685918,0.239462096022475,0.260871873069827,0.263330932577964,0.277158127402268,0.287779003442063,0.389735886445918,0.453302099753465,0.452117879890109,0.334361999999833,0.310716201338669,0.175317213561508,0.175513797051893,0.138766003430867,0.248575543613121,0.532238000000333,0.411085896669787,0.528638000000333,0.286274326223651,0.222972005495626,0.276441632419661,0.300583226540583,0.281066311407564,0.230169374831912,0.223197810771877,0.205071006695839,0.220199607365018,0.226224797962794,0.27897695646571,0.615882000000333,0.279131264912709,0.277313288751162,0.347828756722591,0.430555002440121,0.452895763747862,0.5922729983642,0.585048624735357,0.622571996689534,0.376163079299757,0.305086010259767,0.328533423619292,0.361362917195716,0.427219561109002,0.513996611145395,0.516210839988284,0.496803820936047,0.492087415754122,0.488356587028245,0.44630324989451,0.381418002322409,0.436171678454688,0.485737003324097,0.546842354924168,0.649531869612829,0.650331162421492,0.736252087334226,0.725239707228937,0.790728995916775,0.559020162505102,0.430993999999657,0.491545262645016,0.56258199991946,0.579148048066219,0.604810779998636,0.61817064270629,0.751630005975424,0.765806221342171,0.85298799773959,0.628914777234385,0.506523000930753,0.600455311856309,0.623755581325765,0.620626874795089,0.66193897959563,0.660677787357235,0.919170000000333,0.649928636581166,0.597921182633251,0.605778908154449,0.617075348771174,0.61808902867376,0.701447724647741,0.709950332056454,0.80755535992111,0.873206081738644,1.06801000000033,0.948408431952971,0.75666099947109,0.747072981949503,0.696713568827451,0.71890727949442,0.729717450613679,0.82756244070179,1.17515167410173,1.175149128798,1.17436684520224,0.951073345274539,0.898079006998515,0.962640802548529,1.049552787046,1.07213714430517,1.13159514629534,1.13420030769203,1.17187999280161,1.148222535688,1.28667000000033,0.945665487841179,0.948920224120484,0.94232786323319,0.884868001281096,0.963182290916457,1.04053999476766,0.975724623604132,0.92537335747138,0.934028114009545,1.27393000000033,0.850842811926776,0.850553331821731,0.855102716220348,0.858768666266306,0.929898140326864,1.03346000000033,0.972749556481735,0.925165492896006,0.912662382364301,0.853623002376008,0.892890101572247,0.898013642377934,0.945844429097964,1.02111066840546,1.02527619081829,1.04570404436186,1.06379354093154,1.06027010989358,1.07206442555335,1.07451860473393,0.935464562595146,0.898230932827836,0.916082612573809,0.917859504254415,0.978868303245886,1.13740999716603,1.11825846183388,1.24676000000033,1.17065855121224,1.19546000000033
0.209998272154028,0.2141260823668,0.292937039237388,0.377313872440196,0.381000717578079,0.450992198677978,0.452445545271107,0.453420469792566,0.461897192887383,0.230349378069906,0.227316951269304,0.21526867240696,0.217400452239627,0.248577011015325,0.404491520779586,0.477310928151159,0.487284051460121,0.480784905180147,0.210004095841563,0.209566491119051,0.209087846040897,0.23696380319202,0.30169839265674,0.300343461353232,0.279900441416419,0.281260567342911,0.26936076532897,0.263771579109061,0.253144776292749,0.258464023832819,0.26086292963267,0.268871680544852,0.315928911823757,0.369617293382453,0.452082350225052,0.451557266526486,0.376228171978369,0.282943583392841,0.175551412926204,0.175614462457137,0.161619116582374,0.252133333945094,0.319642458639825,0.383684672149879,0.411085896669788,0.304822881330007,0.303996849822618,0.302619562849215,0.299625339108108,0.29574104228425,0.29209039867253,0.288811061758885,0.285923971236135,0.28343862988138,0.281530672288582,0.28030094426967,0.279651940929004,0.279536928341745,0.279764399230523,0.354528462606691,0.396058185259411,0.397098356437884,0.372062787914286,0.369687072452895,0.368902863702447,0.362094299185744,0.322355758035828,0.324492068251969,0.345724812634882,0.434288393960166,0.516091174281935,0.51686759793468,0.498813060399291,0.478788417651586,0.455970776755819,0.436363438890984,0.418804843489214,0.437526781837769,0.503871033582653,0.534609642677242,0.581868552003169,0.623956104583936,0.710772802635103,0.724802097470622,0.744287373743604,0.556728826698047,0.486374437496242,0.489723182799658,0.578822901873035,0.582196022361192,0.598265381000424,0.609401628351715,0.608976637171267,0.609326925414603,0.596706101375659,0.595071099399029,0.559019675558393,0.594450051943063,0.618164393811179,0.618880232088439,0.659843047477025,0.659664781887638,0.711025572574255,0.638317335376073,0.600550163428055,0.603400566114928,0.610865314880811,0.623475199304784,0.702031019281961,0.72173789435748,0.841155597361128,0.898571137516028,0.957034414675254,0.954376068818713,0.827188859040215,0.800835733826569,0.777467887456854,0.799692538134467,0.825681148637944,0.853480977357779,1.13400353823912,1.13348785859268,0.99314576186987,0.960540704280941,0.969074250770952,0.97440831810974,1.04409311457253,1.06438434295495,1.10223283544418,1.12801684273972,1.14981432600817,1.14044362575731,1.12853880804207,0.943602599518328,0.945792522232939,0.946032005064509,0.947253184379493,0.947246703891515,0.947480658808106,0.947528219315014,0.921787141938134,0.918782269436632,0.911749447880136,0.854120718802242,0.855836105785115,0.85606083168515,0.873615094034502,0.93105735489849,0.982308040897192,0.979756790141113,0.95203304308679,0.915497713384813,0.892314914003921,0.893857517390648,0.931230469983025,0.948156622243664,1.02439640442546,1.02637033548352,1.05128172426206,1.06709842783511,1.06983554888173,1.07182001811876,1.07303274651692,0.945957533366109,0.917238344954172,0.923039889561463,0.934017716338548,0.979932738864073,1.02367832671534,1.11855814816873,1.16224938792321,1.1657151430267,1.004224542601
0.227770907646215,0.220263788385561,0.208288004707801,0.379717298948803,0.446510887051734,0.449563531714852,0.188319002380841,0.285240948159576,0.560574000000333,0.228650099630034,0.194086079219645,0.20534455673597,0.219868426682924,0.248336078274685,0.39302917223127,0.473573079081686,0.568129000000333,0.480001693180728,0.198280604336511,0.188882103511746,0.141145001585464,0.234839368068147,0.354940997773804,0.304784582712817,0.277272892027737,0.27897522890839,0.188669497361094,0.200913553865009,0.162902004384571,0.204872418004974,0.217528998207042,0.25506499446463,0.341704997841955,0.349506335247114,0.544688000000333,0.462029582518749,0.538697000000333,0.255200609151772,0.175657504773171,0.175678241242741,0.148742005468455,0.256423903159339,0.262432784976146,0.357281994875502,0.510098000000333,0.304850056605803,0.304376912490682,0.303765449115165,0.303730371340741,0.355836436172496,0.47323994813535,0.472372918388598,0.547259870802184,0.549196733626992,0.672235000000333,0.293277672539564,0.241389004077056,0.279937409081638,0.280408568393487,0.362048517058322,0.393418376590757,0.396325135540882,0.348007006967939,0.369075733064084,0.315081006160846,0.347134797947243,0.311845438292545,0.322329123188058,0.305843005867905,0.441370150172933,0.600897999254167,0.547907204872634,0.602114999571971,0.45759714002828,0.3575550045959,0.394935705204577,0.407897555527079,0.438518638056155,0.520717931555617,0.517169988844571,0.515451965315394,0.600449315017001,0.698609001912504,0.723700573778628,0.863951000000333,0.554880574470084,0.414482999999667,0.488055917258158,0.607653996794184,0.586106007298264,0.590339263412121,0.609083478427095,0.609063618956518,0.609030575713279,0.579006717978305,0.591511676905935,0.501248002225242,0.590360108366165,0.615675644618369,0.617511022489482,0.658107725443172,0.658756795753632,0.879596000000333,0.625883450638763,0.576818092675547,0.5845231177029,0.535915003491052,0.627882047619647,0.702615724853924,0.73277522453242,0.998577004359625,1.01786605156011,1.28527000000033,0.955359393229638,0.866790999999969,0.827188868347943,0.73576300385563,0.825185634381316,1.19302000000033,1.1417593635266,1.20536000000033,1.13257975189511,0.904808005388251,0.952454090771266,0.998218805206643,0.981971181806337,1.03888954098745,1.05766778478573,1.08032398350629,1.12602965344107,1.35149000000033,1.13061472165406,1.11196100046412,0.941165659781399,0.919057011436152,0.94635507484462,0.947600996408926,0.947704376570534,0.945792453386014,0.947492923441466,0.911123227743737,0.915682366025492,0.853731908242359,0.855360146357415,0.857195372680461,0.856945653492062,0.885302092765366,0.931523906725652,0.990590295255539,0.982351164163551,1.20721000000033,0.917396844507861,0.879483007761239,0.895298864918822,0.952935412059192,0.95062232174726,1.03152295495753,1.03367440289345,1.07745999681551,1.11600887611049,1.26685000000033,1.16075518107016,1.16118848457028,0.950206515447774,0.868123000431624,0.925260848667416,0.953252332925955,0.9809217904648,0.980927519698926,1.11872006421563,1.15725555384001,1.16363772783361,0.960789000002651
0.238896344547902,0.243020894756947,0.289778172355986,0.381763476616017,0.448920200782547,0.450669985079002,0.197468303519371,0.197216603051229,0.196541102107911,0.195160764757966,0.194836525455063,0.203587624070903,0.210118185469032,0.248049408237173,0.420291412393485,0.469795947266714,0.482925634563325,0.479669829171406,0.27263940341444,0.182491682325449,0.180877530448866,0.234316624770367,0.3195273002173,0.307014788244889,0.29013086312494,0.28802992633435,0.216378426393556,0.212346050962883,0.184363941355212,0.197465892403225,0.206579374682801,0.234224235472278,0.293547534391147,0.281170564679526,0.272407429068057,0.266463645428685,0.250455326655207,0.227461592054061,0.187012480818349,0.197551867871554,0.209267841198063,0.279257287858307,0.304857686028238,0.331328153634234,0.317382444088179,0.305100413268272,0.304695638799417,0.30450064713799,0.355836436172398,0.383416853330477,0.472373332198969,0.472040236408358,0.491186421828713,0.551026493492963,0.558690703850161,0.294496703880674,0.283038735738303,0.291396484415606,0.30293394943881,0.369316476150363,0.396038386616713,0.397079356753242,0.371753190446377,0.369440067379241,0.368400414752017,0.362523415541983,0.327052286592437,0.328764497949737,0.408288757274511,0.447937822514792,0.493301176074046,0.473809698795978,0.459262957046404,0.443537068084306,0.377899264594002,0.387779525746779,0.395023610123197,0.439148291327823,0.512575754518901,0.513345749596126,0.514170551339585,0.577012193788015,0.60475850237836,0.721911459227091,0.724221575928224,0.552130828507658,0.48569841913781,0.486500027112349,0.529746009441567,0.549501097663018,0.569278872049318,0.609545406914936,0.60913741444298,0.609505169441116,0.599889634229978,0.599472289363179,0.548662599523481,0.584772475399186,0.591275986843379,0.606941839777032,0.605994178129957,0.606447914251583,0.605599317719123,0.606329477929695,0.592092177202758,0.590076589661205,0.566396378522401,0.630807702153297,0.678862828417533,0.743334323803272,1.01786605154994,1.04259091327276,1.06630028880358,0.956398244786396,0.895380195203286,0.861878166715129,0.833448174341054,0.838001044796995,0.899565376688264,1.14206033818897,1.14176581086644,1.13150660989578,0.926410516107321,0.941679858361289,0.961367128744627,0.972902771532782,1.03073268642381,1.05157836738265,1.07766713478438,1.11885282715539,1.11918280464184,1.1210698950702,1.11749455954328,0.94123926399834,0.943179431851402,0.944717196052395,0.946877320270222,0.947199045945207,0.947406919617826,0.94736504362765,0.93958973058163,0.938011943994488,0.922897943236769,0.885076674622053,0.857597807667855,0.857941468425063,0.894978511614303,0.932981289089985,0.953024457434523,0.954118468448075,0.931398991206041,0.918218036618623,0.89451768431248,0.897102127429011,0.929885971154657,0.950873385212137,1.03355559439737,1.03528623382265,1.11443449566853,1.14396634956004,1.18857475339813,1.160923399042,1.15128490168954,0.951444449209065,0.93241323157155,0.934996507845793,0.942740604313423,0.981876961242601,1.0038465601607,1.11874424193152,1.16246108119981,1.16559584874404,1.00505797548892
0.259806197737404,0.26108664167601,0.322512638157084,0.383073218981305,0.452868139745248,0.452649894248766,0.197697397390345,0.197405484087953,0.190434665982202,0.192382423393223,0.158852005510636,0.191964151714053,0.191113986161734,0.24814737056244,0.455869280099706,0.465391375109238,0.538458999926172,0.480302129003098,0.528764000000333,0.179836722146157,0.137600000659731,0.226553972034741,0.337733993202549,0.311578237473272,0.387121000000333,0.29191427916834,0.229129999972989,0.221677565193037,0.148297232992439,0.147872169387689,0.141792990292853,0.21156847537906,0.309564640970848,0.277436126327823,0.26824216437746,0.263516911978886,0.210463921664266,0.200131389104065,0.128952999999667,0.206185829390429,0.22407499601739,0.29153160633394,0.458921000000333,0.348776443198516,0.269869006333812,0.269323736668167,0.182440999999667,0.290014975169754,0.457514997709558,0.410363898727503,0.491825993796046,0.447998217269156,0.220315999999667,0.552703773335335,0.662066000000333,0.297145496246058,0.240046002417288,0.291678856259347,0.31944099662342,0.376126199460824,0.432430003589446,0.452093515823547,0.591389995826426,0.51491067234611,0.496590004173894,0.3777556031901,0.310083005101547,0.332320125503551,0.469205359682398,0.455890457213959,0.518026993638657,0.461594169083372,0.421986838962756,0.434246756598736,0.370730106796537,0.374878469635638,0.351499005273658,0.439486604486208,0.511016220735995,0.512044964242353,0.487399007785357,0.553865968048967,0.504116001598953,0.718947341444486,0.740899992629615,0.549526124428015,0.466980563714001,0.485408802317271,0.494374616428629,0.508932352543201,0.00487317999693991,0.631374705148183,0.64868299648731,0.68435193342273,0.895175000000333,0.608819190207944,0.493375000764395,0.57788728737147,0.560439169745418,0.606235987388948,0.607181317616772,0.605072922573489,0.607366756398374,0.605992717688327,0.594943453170404,0.592499626629913,0.538816006268647,0.632417152285249,0.652781554587193,0.753986799538084,1.24274000000033,1.16596300317318,1.24542000000033,0.994144644343937,1.05662000000033,0.882650635241422,0.814654004416486,0.84375580887018,0.853101855008314,1.1428707245568,1.23769000000033,1.1305549683235,0.867644999999418,0.901646387653649,0.901504010734792,0.965998921238787,1.02103998558079,1.0435306025904,1.07503598338262,1.11831139794042,1.11770778042655,1.12229196750906,1.12457485141852,0.94134678745862,0.944712741109086,0.943167721447896,0.967340170838109,0.992876501453743,1.00911000036178,1.0285717462767,1.30535000000033,1.06874973691302,1.0683769057171,0.899678386946036,0.853364345385945,0.859058082257532,0.919758992159746,0.936142072075697,0.95038523065323,0.953309691127836,0.918836049990485,0.918565460895551,0.870769006946183,0.89885814026487,0.900661780744429,0.951228334389817,1.0353512470708,1.03684961621548,1.2052199980534,1.19183853244267,1.24106999927775,1.16189600848417,1.13919135978403,0.952779539204017,0.929978376983984,0.937117151556469,0.937371079504967,0.982814901156832,1.02547999298109,1.11889101797631,1.24539000000033,1.16928539818823,1.24509000000033
0.242098434334549,0.261890212868983,0.311931884735178,0.383429938922908,0.453693077532002,0.453519648914214,0.300270457533517,0.272359525297028,0.199422489768428,0.197104887309968,0.195003367361968,0.19296860221767,0.191953033219093,0.248951118675541,0.401372675632451,0.461990008165788,0.462367689794063,0.405500373744889,0.273923295063414,0.178035783592517,0.174047006097886,0.217250381896664,0.28760243864899,0.302440975935579,0.302013243232465,0.294995889553507,0.248192458566824,0.230911889006608,0.147045210132381,0.14620676301356,0.143577919549564,0.188509671337311,0.221203167547302,0.264290178043287,0.26508509571965,0.264062784139744,0.199840855848165,0.193171135530346,0.183647517494922,0.214352053475619,0.258159291770866,0.303385894937744,0.39420711334767,0.366552046308646,0.268567008556243,0.268654224837833,0.243937025947287,0.281886290114905,0.364544209158388,0.388293246556445,0.413129947407336,0.431867230336972,0.464865851789885,0.554272281807668,0.565563175485539,0.301406091329174,0.291323183489385,0.291308054030942,0.35395893424642,0.381635035394781,0.452093515805986,0.472179009318439,0.551551987794641,0.536428040500826,0.51491067234611,0.392569077416124,0.353665532780001,0.353804320727248,0.399728820358885,0.427355878894688,0.452822531429251,0.452727956903041,0.44815202965048,0.443038168129436,0.379058744989212,0.378027957997045,0.360440791393549,0.439580445329294,0.525858140240869,0.53110450814634,0.563552800431651,0.591122180773068,0.618800782480862,0.714446521827743,0.719335909048164,0.545410742194234,0.473620431160739,0.484114926757826,0.489638963772456,0.519945296082582,0.564703809904171,0.658240169801692,0.685297327507352,0.712498042193643,0.740080805323079,0.615497532381677,0.546414891037802,0.583873906168568,0.598971271981885,0.606845384535965,0.605982286395814,0.606623186666072,0.606062921326272,0.60704911181548,0.596456955651253,0.594717474650478,0.579599968811781,0.635943396240284,0.65062396138877,0.765036937682313,1.16593496161068,1.16586919170785,0.994172428062322,0.967707311160261,0.941871247336998,0.883568888662189,0.880210763658179,0.911823153221235,0.938642292334035,1.14365406735353,1.14413966047709,1.12999575426811,0.966895257070012,0.902138312834253,0.90164991820427,0.959634819674117,1.0155335470731,1.0351136948586,1.09067235117594,1.11905407363678,1.12062678555678,1.12192581534422,1.12291894221173,0.939791492490494,0.94143485045295,0.940186979618733,0.996547486603147,1.01498024380421,1.02910379238962,1.03938497012082,1.05288024033489,1.06889291985866,1.06874973691302,0.910384495882953,0.858317843693914,0.859226980265372,0.896013733157394,0.939917001272686,0.952685234708742,0.953823477165794,0.928878661850508,0.925421741235915,0.91578754535537,0.912497607593283,0.908247256768902,0.951656346647424,0.998279743657226,1.03773790868544,1.14272207229008,1.1663051084224,1.16581276973625,1.16360400707969,1.15999387155345,0.954550729092185,0.932780614937518,0.937983233145481,0.938934828825251,0.983781679067365,1.00525628197804,1.11920265485349,1.11930427551656,1.03570228701365,0.944381192033626
0.211903999024623,0.262038901377434,0.301335361005012,0.382716538713528,0.471946519517164,0.478628348816409,0.544283000000333,0.305507206764334,0.201868638370105,0.208058683992671,0.226758319297602,0.199259419152633,0.188974600493343,0.250635986821134,0.36023000094434,0.45801868309845,0.49450299464023,0.379539932727008,0.186805783908785,0.176218029054079,0.163281626999315,0.205078349912334,0.280282911597057,0.30218693284056,0.301026427244346,0.297123804814764,0.277202995198619,0.238748490009039,0.120993004362238,0.132122186628374,0.114829007068382,0.147084311125111,0.139657732137302,0.262584194642512,0.405307000000333,0.262378174005383,0.144076004372488,0.177122096706308,0.171141930393668,0.221858539582172,0.29173900278231,0.314611530629121,0.466423997035529,0.384843696804919,0.26708859095786,0.26793333565979,0.190613000669436,0.274080207555897,0.342675002506178,0.364971491535121,0.386976997449582,0.41557673726366,0.55751560792793,0.555850947480259,0.619545999550815,0.307043438987492,0.280163009241881,0.291167633984908,0.39711507603099,0.395379528232659,0.49393376838165,0.489571433094911,0.614123840364828,0.620654432390843,0.684495997827476,0.406605418609856,0.352029493154084,0.352782525589798,0.307554002088459,0.416327671061579,0.45323811066127,0.452979010433684,0.453005774131139,0.446858312643281,0.380285734523866,0.379521262286697,0.351004005008949,0.439452292003681,0.545159855231001,0.551769596191634,0.704504998015008,0.65618544445643,0.702098263681726,0.709465159210427,0.891899000000333,0.541026637613751,0.454913009645586,0.4827483160598,0.486699938199139,0.532341479156629,0.710700704286925,0.694696161325477,0.75777841075232,0.758127037402276,0.856345000000333,0.620345125078129,0.486630999999667,0.58835478600109,0.654819654964622,0.661562706189217,0.756325996697762,0.667344969557224,0.585477006634428,0.607873493104967,0.616170791228387,0.602807643317861,0.538791002874672,0.641052783019985,0.648301304611868,0.776402451797552,1.20458000000033,1.16566112453693,0.882520999997932,0.94186387580973,0.898072745879137,0.888817231158021,0.877086494576563,0.929842825531322,1.19082070392064,1.19363205936778,1.19522465402088,1.20038213636905,1.28017000000033,0.903713674549954,0.868387001838876,0.950048211119513,1.00967019989185,1.02680401760366,1.09858000955846,1.13092882942208,1.25386999513254,1.22576379475588,1.30053000000033,0.938456773627713,0.912345001589017,0.935932003980661,1.02651049725435,1.03384798305831,1.19578011870275,1.07538731448923,0.997358999997924,1.09504007382749,1.27515000000033,0.92018866428083,0.856891853811818,0.859776655080081,0.865706624513409,0.943898215654339,1.12511999963935,1.10943882531726,1.11546999509406,0.945671035986807,0.921762190026869,0.915787103655151,0.901692556935954,0.952045989306223,0.95716332093511,1.03839075075668,1.10846000236628,1.16697283516322,1.16776749030282,1.20227228625729,1.35188000000033,0.957214530095675,0.930087643433878,0.939527107067173,0.941410679989576,0.984891289367374,0.992924807826443,1.1193999384206,1.20859000000033,1.02682314370887,0.846531001520267
0.198111163962146,0.261567248103738,0.333842996301347,0.380912669637868,0.467966480070408,0.482494103802233,0.485843111691829,0.33786831850255,0.309763408066991,0.250111444965396,0.214027612409092,0.207232173644927,0.207211321431649,0.253313991471798,0.39847993769512,0.453833876550518,0.458586423085808,0.355331488653032,0.179171665232347,0.174144363993857,0.170199773136988,0.190685734298851,0.232713302623699,0.30245869078172,0.302023683094704,0.298208325220724,0.260278529201039,0.247867771085654,0.209386825562122,0.168416160679605,0.151171017083798,0.15160556046736,0.170787840289393,0.26025465362999,0.278230745816036,0.260197992058147,0.185431725009571,0.181250761792063,0.177125677589842,0.229009577336691,0.308977979886889,0.323593057819038,0.422022305693771,0.403351532097321,0.347295614474215,0.300820349607208,0.25073177270385,0.260350968907954,0.300229515902678,0.341999352528678,0.369460106850844,0.395633593747573,0.543736901867163,0.540663467433273,0.539320472243424,0.313150823505865,0.290729279477042,0.291678816023175,0.359544716875188,0.393400939257218,0.48370549564519,0.485524803041957,0.614840655551202,0.625384772429345,0.637085074994017,0.420716464217782,0.352359549878172,0.351476724566197,0.350288672442488,0.406255605149575,0.419938764171102,0.453079002186586,0.453154184420281,0.449921196499197,0.392430751874525,0.393311915853339,0.394219731160155,0.43909426570154,0.487613545463923,0.556124946158214,0.610034866848811,0.632714537968406,0.631254154710792,0.63158654977114,0.627500808914202,0.537029213803805,0.473433538497663,0.481506731130851,0.483064076483695,0.541815588920117,0.674787075647173,0.682194257482734,0.713006763606286,0.758683413126073,0.771189946907308,0.623874057145393,0.561813744697997,0.594981492285002,0.633785378262657,0.666388545011565,0.712982470321615,0.694806642439682,0.675826125939745,0.656180086080406,0.627042344887938,0.627738646026993,0.628409933375571,0.676378519732939,0.703883286910081,0.787741368577655,1.16537957018089,1.16548045201066,1.0066220883906,0.981585117702404,0.9589198433191,0.926049906161863,0.925349337552248,0.944348746879093,1.01029162527122,1.1939236616966,1.20109933109879,1.20383274741445,0.963777576237691,0.905746942008711,0.893738953605123,0.93798053490502,0.967455935811812,1.01866080236958,1.11568532465484,1.13472115962846,1.1979541996198,1.20848243678154,1.23204269904061,0.93918748008441,0.929045916023018,0.931993708525374,1.03500624906988,1.03921089419877,1.19960235828511,1.20116502176823,1.21677127801182,1.22390190355646,1.22806145278082,0.929715149425673,0.858673990868366,0.860488307402422,0.863562692144692,0.947581398237141,0.999111836270454,1.1081768424784,1.1094342865066,0.95909817112071,0.924334924911089,0.926721779086601,0.941065440627096,0.95229674755609,0.955151151655144,1.03928641304493,1.14816228603696,1.18889685116854,1.2036574872196,1.22514098036699,1.24635691551577,0.965797546017464,0.966103863478259,0.966298792171865,0.969634718669388,0.986283624911378,0.995050900210304,1.11941710524631,1.11957135910511,1.02664485219456,0.907977140187574
0.151873111407523,0.26063859903877,0.372871542751399,0.378109272253439,0.46231829081024,0.483378620819407,0.488724338598672,0.488231602356411,0.488909081916319,0.265528203564475,0.197254625245289,0.207226145191411,0.207090931409899,0.257019315082177,0.444124572507459,0.449736550706227,0.538609000000333,0.332572863497158,0.151804628873698,0.164587003110754,0.148000007618201,0.171361517503751,0.158376528019224,0.308069019242705,0.46545022228443,0.328717282176409,0.178387999999667,0.270811883732743,0.537943994862606,0.182216253912853,0.130165007928318,0.155809038373975,0.189350154610526,0.257461579675242,0.438256000000333,0.257796465578606,0.191427602587632,0.185423445828286,0.150027006485637,0.236207236474835,0.344938395761766,0.347667605696524,0.53447132074758,0.53559287913469,0.533829212325712,0.327371969124409,0.20390400277214,0.233067974696209,0.233191172175146,0.319438230473691,0.35494100486041,0.373673495367143,0.547586855307128,0.539583580437026,0.538671394664578,0.319041251136564,0.253402002180125,0.293858363437175,0.32453085826769,0.391291403570405,0.482224417786132,0.483698291009151,0.615279632348509,0.627912452868865,0.697470999841207,0.435260018750202,0.335195290338631,0.349347117722266,0.348300194175303,0.388244726862662,0.377319815539462,0.461983082054879,0.715169000000333,0.465527076732471,0.391597241141102,0.39335828278292,0.395338375149515,0.438399903593084,0.442089287303889,0.559209582405298,0.570644001017634,0.631899004016517,0.635360266037384,0.630670951328465,0.62472876627871,0.531614634667473,0.468302525829198,0.477258114978658,0.478784787752036,0.551954579693791,0.652596009844357,0.671912285565627,0.657201205385523,0.759578351839952,0.890038000000333,0.627250365885003,0.507134000311898,0.604648159805509,0.612437935106548,0.67048356906614,0.760743210217012,0.753567527227064,0.830362999983459,0.682858425779657,0.626285607741829,0.627696184049684,0.62902086917268,0.703883292828315,0.743097001757331,0.802297837983825,1.20202213950863,1.2033833754062,1.21609240208486,1.0645830413682,1.08124999718459,0.928185458360247,0.89420700656249,0.955030651581742,0.963870999277412,1.19207702839962,1.36281000000033,1.20739956885092,0.908538001438919,0.906968513636078,0.873231003894775,0.916998583805055,0.915240113332306,1.01041726348425,1.14028302238091,1.13743154765864,1.18143000354541,1.19246405950142,1.34042000000033,0.940957416438036,0.92486200755012,0.928619714916922,1.06693894579061,1.04854484099157,1.20155718461747,1.20406699913476,1.24770085563647,1.26737960385347,1.30875999972941,0.937963411179528,0.858176900591524,0.859633627956921,0.846203006315674,0.952032026868272,0.954359999296246,1.10447225558877,1.30447000000033,0.971725472941637,0.881376001977382,0.927533032094969,0.95526453081846,0.951187567103621,0.930363206067277,1.04071479521487,1.25421250388708,1.26834323862342,1.33504222325835,1.3357791939807,1.33662778211965,0.965970342023516,0.966766910110471,0.96646290573523,0.974381117003003,0.988060848201088,0.997116012249222,1.11878519081224,1.20132000000033,1.02630396704592,0.901491808158905
0.205135977305932,0.25952065283178,0.34545874921742,0.379775051055559,0.448976035220101,0.484466419526879,0.486613292261349,0.487231525278727,0.448679121038196,0.280151675603336,0.222966632181632,0.223146434525475,0.256982769144157,0.261678669648541,0.338367302966343,0.331753014825504,0.32327589265952,0.31796212441407,0.180444714252513,0.173313121777001,0.165622939674506,0.183228315756742,0.189106302484595,0.318715475433331,0.474574467439052,0.479979082717535,0.485773566395119,0.494784208084148,0.50814288789588,0.194033836623661,0.154016030465324,0.162033512205098,0.182195500770665,0.254564205670809,0.253445239020734,0.254799790253405,0.197356668916244,0.201684035643959,0.202869580290639,0.243654815246648,0.315443584996628,0.349966255246083,0.418059718783503,0.537778507281736,0.536433698829991,0.354099376695186,0.309409379586883,0.233320458973074,0.23306823114436,0.296948700069544,0.321705066185915,0.34682731419056,0.348441708286706,0.346032123349205,0.339493230288647,0.325120750343608,0.295999242097321,0.296366685485014,0.354168568840553,0.389355320200955,0.426109695782905,0.453651321326085,0.486661779739872,0.632833729428822,0.642857359792343,0.45053599529561,0.351621466063549,0.347556423684449,0.348125408280895,0.396543866115054,0.422317154542326,0.473101290335307,0.520640612944761,0.492272811475435,0.407591163604415,0.40543050454615,0.401405779327133,0.434927391112941,0.470269111569326,0.561190864545412,0.609871414179745,0.632382806853405,0.630332289499606,0.630466864505763,0.627487650515202,0.526483931811841,0.471999236962167,0.475351638230327,0.477242949273598,0.561879581169228,0.674727073451683,0.682851737177162,0.722410429027507,0.76088606297754,0.76259472726391,0.6285959943441,0.588526759137732,0.612486847050664,0.62071370952241,0.674011894126728,0.733168582349056,0.752648959390042,0.774573487524352,0.707346229466979,0.700331393603297,0.718224716652305,0.725225387664229,0.743977406339456,0.75745348693044,0.821726642183513,1.20336911284278,1.20470242151922,1.20939487411774,1.05439767285432,0.999824903014692,0.939349031476593,0.939459072430179,0.99026805910539,1.01709299826803,1.18981068572417,1.20988369265893,1.20918830876394,0.970943499733241,0.914703357456042,0.909425365066309,0.918360306794418,0.938409979043524,1.00184260224984,1.07330419023488,1.10795779700458,1.17786045232312,1.18259842468523,1.20573565757447,0.943044691826311,0.925531988007672,0.926433494414306,0.9948160594172,1.04122738267855,1.19291183717665,1.20846636510191,1.26737771273452,1.27509031325096,1.28321731348192,0.942174000896413,0.908601497831351,0.909468386180853,0.922574826944891,0.956616166573371,0.997998886492617,1.09981445021015,1.10130603949986,0.983685821382283,0.935293809953,0.935270310237738,0.945771994228769,0.946202227581026,0.964180579865502,1.04272923383071,1.26834112200535,1.27327513715043,1.33534064200706,1.33572308688529,1.33613381105895,0.966049793792058,0.966232097080159,0.966324078434653,0.969664861074888,0.990244109240929,1.04721085591314,1.11684923302175,1.11370059981213,1.02583230815852,0.917438059849232
0.226208990723399,0.258600740889092,0.330858002770617,0.380452098105183,0.425887007977878,0.491582242301709,0.586309998051368,0.494162584873754,0.421987003949848,0.294812920019385,0.222905875566154,0.223403838843972,0.275449601032617,0.267121923841713,0.348331625716741,0.325835918066166,0.294475588240606,0.303473996832009,0.191471463553272,0.181730356521319,0.124741002821315,0.190431649227659,0.200328032536626,0.330531195645643,0.511813136868821,0.516836007714064,0.592127755612639,0.591027965882905,0.590896329910614,0.19766324771586,0.134790007262798,0.16950122045326,0.175839650700767,0.252789554216424,0.250589138841398,0.252882618143253,0.194247010295141,0.203947898766673,0.203811757343191,0.251513454369299,0.296307860883169,0.351634454985217,0.363716999999833,0.544495793038175,0.559920997239309,0.380977673658171,0.435628999712758,0.225914248764115,0.21984444475302,0.280605390835673,0.276590466720818,0.344504486894822,0.353090765796246,0.344570435353153,0.332546118506218,0.329346955699583,0.249828002081617,0.299555407613701,0.384743738287345,0.38684210442547,0.384683736998458,0.413379652886363,0.333367999999667,0.638078981835863,0.735627000000333,0.466827934637843,0.365797693240981,0.344375899393698,0.334444587056164,0.40408316907767,0.449886000565996,0.485107957469369,0.632681000000333,0.519280178112111,0.414898965259832,0.407588051325757,0.355008000114181,0.431669772869689,0.48851732185564,0.564141017101516,0.71145027648161,0.665652852358014,0.630425523945511,0.690340602053367,0.864102000000333,0.521569405044695,0.463106100979399,0.471301185017945,0.465726574682507,0.571407398719068,0.698097213485401,0.701329271618227,0.864434000000333,0.775788110151422,0.764580594390104,0.62983842137399,0.541065002234932,0.621783747422135,0.631161094031659,0.6780982079729,0.715806770493727,0.750593772717564,0.920650000000333,0.713363428997207,0.682158410409709,0.725048746692217,0.777114337648259,0.774585561406411,0.771823488862755,0.843541673460158,1.24263583175894,1.23819710268672,1.23989786894274,1.04472741897886,0.937230669628012,0.938582166342898,0.938724056841918,1.01708731352565,1.15406183861197,1.18745722057732,1.24054057098846,1.24150584953471,1.24238057073939,0.915881194656513,0.899140008698163,0.918744041456536,0.962836992142594,0.992956677887076,1.04048999632512,1.08817898051679,1.15671204331043,1.1732621666861,1.26117000000033,0.944888463081347,0.881564001716483,0.926495415808701,0.950001618618001,1.03444989610003,1.18379182801319,1.21034309697667,1.31995000000033,1.28809952892988,1.30202999212291,0.945120848791521,0.908186490452067,0.91107366007985,0.931928437348883,0.961090006698998,1.0825863100049,1.09264092420236,1.34489000000033,0.995531277359915,0.935910124525185,0.935419682725223,0.915769011086948,0.941814097530147,0.980045995915154,1.04522405555462,1.28773970920499,1.28074521602835,1.36884317638645,1.36539035585212,1.36650818212276,0.957178935324725,0.914362005990903,0.956396496792657,0.956839706825543,0.992763086444583,1.12348855494284,1.12596748360628,1.30996000000033,1.02522380021733,0.918681588553339
0.201666475466352,0.258302473050452,0.304037725528922,0.380167558092403,0.44520130625105,0.494058604944327,0.537952415819963,0.516045170696067,0.469050458646592,0.309284777361707,0.223579438830996,0.223914657401408,0.257066090041593,0.264769184441541,0.308519732605929,0.320314940505694,0.314731736215567,0.308997998039348,0.195767894127317,0.199456283592257,0.201063442744828,0.207298591909967,0.212221377390175,0.344477157306857,0.516829189290526,0.519880317332199,0.590610223384694,0.59025908187773,0.537438959346967,0.198697894634479,0.179960725689404,0.18342118836717,0.184308765991973,0.252644500084321,0.251710831068999,0.252317907794537,0.203335448328056,0.203787207910663,0.203778010340831,0.259967890595536,0.297519996313988,0.352647219645623,0.417710641549858,0.545520608993059,0.556235033623078,0.350214632207274,0.293243523080443,0.224988579400733,0.222762132047188,0.28056054963057,0.293937869562815,0.340905214611804,0.340991147588706,0.343454209619048,0.337405293397015,0.332383963018671,0.300560011867206,0.303370129108236,0.35175075280358,0.377806727382668,0.408772194161355,0.420857672444947,0.475378557226198,0.642580089187393,0.644189389995534,0.484426877094912,0.348504386528091,0.341188885275415,0.337831891591135,0.410678025798429,0.474849059245026,0.497979284617101,0.574203031120048,0.546523057008498,0.50324520100386,0.435732937534658,0.42565207245453,0.428961067944182,0.489221138395308,0.568410243684652,0.709295851343042,0.713879678369859,0.715327519046307,0.721005053743487,0.748762229658169,0.516363262466161,0.469868902249646,0.474780359418904,0.47980303864221,0.58061753050179,0.679081170041053,0.703288546260993,0.796430509306499,0.784694939270407,0.776856399020805,0.633553382707509,0.634505937189257,0.634004727068097,0.664583637089199,0.683647860909149,0.70560206053816,0.747452308790934,0.746854570301779,0.720820275312387,0.70581228586106,0.733070591118905,0.781169282371287,0.794065221163801,0.82189094379896,0.867524660278976,1.24040825225523,1.23733503130955,1.23526098998974,1.03466969397955,0.993279507965522,1.00686126700501,1.0327291018837,1.05807948245448,1.14390089883996,1.1818854169766,1.24107743256865,1.24155062040078,1.24199743151361,0.917598879726949,0.91875910896634,0.918633424743115,0.942675082050805,0.983971897560189,1.02524152997581,1.07106209561343,1.15644795316665,1.15521597051262,0.988355811669112,0.9459316403814,0.921881412308767,0.927763414253615,0.937181408847078,1.02832182166356,1.195525992157,1.21014547389714,1.27544123956199,1.28358246820809,1.29030705594184,0.948960606085585,0.91220199128814,0.913271837431754,0.925044625351762,0.964995186746292,1.02372514173453,1.08140516883876,1.07888383536325,1.00775445145256,0.956991909920397,0.935339068905664,0.927690022139064,0.938207875348985,1.01437619076064,1.0480904880609,1.12647722915818,1.17884079201536,1.36766424186828,1.36543658251744,1.36475191161935,0.953148143043902,0.936669311426909,0.956115833325085,0.956802798901968,0.995424284936111,1.09386420086649,1.12843423822668,1.1312725578782,1.0243326676698,0.933337922583267
0.17413540992067,0.258901083974395,0.268797896357335,0.379185123063961,0.459495997774446,0.504024383105899,0.577030179186065,0.588786367861353,0.659663000000333,0.323556190072295,0.189795005088562,0.214975484571004,0.189191004200745,0.263023675305562,0.283354077073559,0.351743540888423,0.505002000000333,0.33222572732015,0.184265224713209,0.201076833351548,0.202782935356631,0.211320349822819,0.224612274944732,0.359601082423144,0.532373159176858,0.525611254136076,0.589671584021206,0.589631246995424,0.515087009323221,0.200431931613337,0.177159053804831,0.185324815683392,0.185436631286912,0.252478939761047,0.250320033543405,0.251489209944034,0.203025442669409,0.203323794106745,0.156540000515388,0.269081343650951,0.298749836796524,0.353140880683778,0.548281160823542,0.546830755906226,0.590106000000333,0.32244720551253,0.173827000876984,0.1988102418249,0.194535484898089,0.280958271755415,0.296871429792716,0.339755774616178,0.339103984594531,0.343539949949908,0.345759824019357,0.333853238285998,0.262122004449933,0.307501942385933,0.320518014171175,0.373105092042461,0.437202534340617,0.44143868836244,0.582148505316791,0.647021488491802,0.732930000000333,0.503632419579543,0.310773002962157,0.331724435723685,0.321184004435351,0.416353644162563,0.542652993623327,0.514221522050396,0.666876000000333,0.574203031106063,0.756738000000333,0.445747656728255,0.404469008355651,0.426709805685921,0.489919721798206,0.574346585664064,0.70016285921748,0.718745499363028,0.77823699475976,0.737637300330872,0.898064000000333,0.512458589826054,0.449016006097824,0.48099151195438,0.49109697315973,0.589490319139991,0.661238249952939,0.705130519819734,0.80784375477786,0.810370814496494,0.819982518087747,0.633547001169789,0.6365340309958,0.634097444175869,0.699515460933276,0.689203464379076,0.69233028671643,0.747185156016762,0.745048499892911,0.725566814272438,0.676329003968051,0.743932111438213,0.785833254529821,0.810953833576202,0.874637766133854,0.89320645278966,1.24979999572478,1.23571986475957,1.23368210553085,1.02476325643015,0.970519006783721,1.00800488991061,1.10490847243356,1.09023088001763,1.12930077264022,1.17756000653383,1.32385000000033,1.2522658752929,1.32555000000033,0.918138493681253,0.920130498451575,0.918812649888255,0.878292004442561,0.975118965911666,1.01160912146433,1.06063023862984,1.15834928869871,1.15574680877307,0.927270273429614,0.921818881315826,0.905369605166287,0.912777677727619,0.915079927840623,1.02365695265204,1.20642107274117,1.2085937350622,1.25968143156066,1.27922638871547,1.31605000000033,0.954084245832407,0.896354006827638,0.915587616139041,0.918519215970963,0.970013689313057,0.991424226774092,1.08310798282236,1.25977000000033,1.02054343608562,0.979889994879042,0.935413719337259,0.920523005925402,0.935244162331392,1.05246315368285,1.05120911764013,1.07704000170747,1.1652981274172,1.42572000000033,1.36392868129426,1.36197456091394,0.950046525763132,0.912884006767096,0.955480266773131,0.957542460526212,0.997836198631498,1.0817000024453,1.13031294610619,1.31817000000033,1.02282752902883,0.928435040111173
0.171775164683753,0.260396141445608,0.290857619318997,0.377904263403506,0.484529800431339,0.514280426679259,0.588898134432311,0.595255215365417,0.602736891024299,0.33742076369559,0.228944988207722,0.241110718618844,0.250535505331469,0.261777072472861,0.275073702487587,0.375972327357278,0.40328246509562,0.356163151927432,0.244780619233418,0.234915391711563,0.220671240720762,0.243726974686555,0.328561520083818,0.373418084741123,0.468381022558282,0.500939240968105,0.589587745883462,0.589594877253972,0.536443243140616,0.202589407320317,0.184320454507475,0.184778817699332,0.184738978766982,0.253112682454817,0.251908726239542,0.251593304993561,0.23086959115981,0.224470427679935,0.220543795880375,0.278517866381613,0.300983887566739,0.353392547053993,0.363665218763465,0.363744150178976,0.322452724302527,0.294827135230946,0.213187764556358,0.211133214703322,0.206454245508129,0.28249284068493,0.305000476133464,0.340325933589262,0.341159388095145,0.342318446432836,0.343241563147062,0.33544983024445,0.311588460715928,0.311251626837152,0.315778553941897,0.368976651161784,0.406982969948814,0.444646806591273,0.589800970247348,0.649575776519559,0.650269219680524,0.524727778263745,0.384051987006525,0.378938737833711,0.369786953417115,0.421244183444432,0.459097427844058,0.468522777534934,0.467874132759474,0.46817234171231,0.468312815528543,0.45463482223829,0.419866071833771,0.424988303913452,0.469285422727945,0.579613821289859,0.673477337399481,0.720395173253584,0.731570919126521,0.709275187990053,0.675600520478273,0.508172831391,0.48628728371987,0.489628135572008,0.492950402568821,0.598540904775683,0.667548683472272,0.707014893919559,0.808248396738986,0.81291640173605,0.816147497918228,0.631113237326307,0.633138491794176,0.632447967852244,0.670997607140198,0.684215677629046,0.721641572726793,0.747502604825505,0.746404422215251,0.730597308375,0.729896665232469,0.750543404679828,0.797508473470824,0.825913972835376,0.878291625788144,0.916366753597586,0.999859698701711,1.00001749729644,1.0005430900302,1.00125452394658,1.00163574564118,1.01034567443784,1.07690760745395,1.07939759232867,1.15172186396411,1.17500594626873,1.20896339026972,1.22541668995046,1.22886509420199,0.915915413150804,0.917822009767505,0.918035144481276,0.918504640141824,0.966564938549556,1.00468389222032,1.04994143511684,1.15649176941305,1.15522699146577,0.983257265014761,0.916926145098141,0.90881941409858,0.910469956204522,0.923448033829288,1.01818501042466,1.19086564842296,1.19267584831757,1.26916582473253,1.27878622403257,1.01575795851705,0.960270558740674,0.959887160357129,0.945984276046767,0.930197114347671,0.975219536568037,0.986204980890071,1.0843242746443,1.08413742896604,1.03346415076225,0.958641513938325,0.935217823638891,0.933412963502493,0.932940732788421,1.04915444829123,1.0527025650725,1.0928656226398,1.15808682872835,1.17957085770398,1.17843756918418,1.00389587845045,0.948379412713661,0.946826603978264,0.955205217866508,0.973319293975223,0.999388931665039,1.04727042527945,1.13108574099033,1.13129500358318,1.02028152313075,0.938476097414267
0.168747359092547,0.262556432522636,0.312374991042327,0.376728098262914,0.52175004833314,0.524844023312351,0.618845629535082,0.608853938868176,0.609940053596819,0.351152940968083,0.21417300230109,0.248264999322136,0.261194448065499,0.260751567502853,0.259285927386595,0.401380043909741,0.538915000000333,0.381233223975207,0.259802994357364,0.244780619233419,0.167198000844545,0.246068861094294,0.408007998075905,0.389263190271461,0.431968816048791,0.479371735585456,0.592773848027658,0.590699984488532,0.612206999305769,0.206878858089207,0.183970583626961,0.184168639675918,0.183714864086586,0.256623579944975,0.318962891224377,0.3052422727874,0.296755733141714,0.246699745586178,0.21699332213614,0.287519854143449,0.303241862434424,0.353786940572287,0.363515750428802,0.363724805079195,0.213256000336784,0.267833622557996,0.224604140454451,0.213210343937599,0.200885045156814,0.285140449476075,0.314642661061984,0.350907509675121,0.607475000000333,0.389551551661602,0.342253157162876,0.33843495878349,0.312109557068662,0.311610320440492,0.311486552056497,0.365622204456355,0.373678296682434,0.447657348246696,0.597375516387921,0.651197489330984,0.777299000000333,0.547951139240822,0.393233055732089,0.384125965272719,0.359785022733957,0.423599021547281,0.430716001624026,0.467849548882242,0.466752652482138,0.467776697944219,0.468310513195584,0.456013869414141,0.384540001039979,0.423388602712905,0.421840704744595,0.584157565448545,0.646904005167266,0.720711409315275,0.819706000000333,0.687806447265546,0.647515999999989,0.504222945169442,0.482884309285739,0.49289607697675,0.494191699920518,0.609199152777677,0.673810231612614,0.709104814206308,0.807543917999921,0.817662542449129,1.00694000000033,0.627151588107226,0.549365999999667,0.629642140542806,0.64364378207141,0.677457214720504,0.802209996085173,0.760440498280771,0.805617996142172,0.730745411739669,0.729558103963119,0.758778336307442,0.812860996338292,0.841140536979504,0.881940929229786,0.940948807059031,0.999887259391415,0.999875528793533,0.968373004343393,1.00163540091552,1.00201272943654,1.01441186628982,1.06898999985276,1.07273606403581,1.16944521267593,1.17255347099605,1.1950221618651,1.22333191348935,1.23809885124889,0.912160853645995,0.872228005784615,0.914575820246273,0.919284364603022,0.958399568642199,0.997833870203047,1.04399462391288,1.15684795872641,1.17571081192012,1.40730000000033,0.913043248552316,0.85083399999967,0.910083236605544,0.933504073339066,1.0115147976541,1.18136091529849,1.19080613223442,1.30825000000033,1.28677115161135,0.963865121724109,0.969754724164628,0.977325311195006,0.9570081358315,0.912794005517869,0.980225542143617,0.981296955113733,1.08557164686737,1.30288000000033,1.0455603283265,0.936267616992969,0.936196141678884,0.932036586461988,0.931038439385962,1.04297822279487,1.05382638821983,1.10693610455995,1.14869372785356,1.31575000000033,1.1783198762462,0.939262396226213,0.944495543573848,0.944547277743639,0.95426316285547,0.996999984690886,1.00008755255843,1.00096858753015,1.13045036409522,1.12985360037701,1.01635667455144,0.91173100530322
