2.31162070311956,2.31088653569914,2.31064181538014,2.31023589378421,2.31036202454924,2.30995523027246,2.31015407412252,2.30984359105465,2.31016296092629,2.31012263042253,2.31076230256096,2.31087181672222,2.31165108936347,2.31205228082902,2.31307028832996,2.3132255158458,2.31396864682,2.31440709874437,2.31550116501605,2.31598275494865,2.31721119805833,2.31776054309265,2.31885764990537,2.31887943791986,2.31915469698035,2.319197282145,2.31928689945843,2.31955543907053,2.31918841324951,2.31942041280376,2.31930690436295,2.3161653244456,2.31657833496052,2.27962132945626,2.2787943401882,2.27965985927917,2.27792668996249,2.27888857884439,2.27794750540007,2.27868236427047,2.27907739830688,2.27856397897206,2.28019096306319,2.27870627653682,2.28048716739557,2.27934195239319,2.28036079593923,2.28040308218602,2.2800301157367,2.28138484736771,2.27958713755583,2.28226500425469,2.28032766461047,2.28295308185101,2.28092658597874,2.28381606600131,2.2830486455745,2.28534372329112,2.28540594323368,2.28747600157193,2.2875481778598,2.31412965650045,2.33351321752319,2.33433525744851,2.33449151508331,2.33557746441261,2.33547945825431,2.33572368398608,2.33499320116351,2.33453879921735,2.33302323317443,2.33316932628123,2.33228094557313,2.33220437114688,2.33138181397461,2.33122111051553,2.33041237587485,2.33050439228973,2.32989751960394,2.33007769560451,2.32951118068939,2.33012252638312,2.32998174633277,2.33047445038527,2.33014734077587,2.33125557465634,2.33132024220345,2.33275649453525,2.33320387891358,2.33429607679454,2.33453682440312,2.33567570656719,2.33599104221435,2.33683670617145,2.33666926437617,2.33731282958407,2.33660158278535,2.33702724066032,2.3362319233947,2.33503195738026,2.33463969823306,2.29964532218168,2.29239758747507,2.29189916529409,2.29104852842116,2.29032402221928,2.2903547044205,2.28959182646687,2.2893588761323,2.28899665883646,2.28866052362414,2.28864168776991,2.28891571933102,2.28844197848241,2.28951506836568,2.28808168783751,2.28962191771776,2.28763814008249,2.28947984187306,2.28732059465518,2.28902743799447,2.28731967511677,2.28874951290777,2.28762216733552,2.2886743192785,2.28776676413711,2.28822801683155,2.28779737827056,2.28860316031578,2.28770166056287,2.28869361585358,2.28741236185698,2.28855641207813,2.28723192661132,2.28820614501657,2.28742941297838,2.28866886566877,2.28771466456509,2.28873380807234,2.28777821382952,2.28925235871939,2.28792300600234,2.28984809077135,2.28810607715203,2.2902228681695,2.28840284574599,2.29039955688152,2.28907343170671,2.2908326439746,2.28982788717316,2.29091639688017,2.29070183938362,2.29189477395374,2.29151760903499,2.29261614650574,2.29198798052134,2.29347410313263,2.29262626473283,2.29469893413347,2.29428518347998,2.29634462118731,2.29593097741445,2.29698982565946,2.34107561912266,2.34874435631923,2.35248987248589,2.35546463757641,2.35688865515935,2.35732666721982,2.35781606312418,2.35704636156688,2.35757314679345,2.35690504174502,2.35703719784267,2.35635737814276,2.35645022335058
2.31063488262891,2.31084091969465,2.30972381642783,2.31025350303596,2.30944650903562,2.31003480273076,2.30934793144142,2.31000112453449,2.30940468748194,2.31027194102133,2.30976196298817,2.31104943102829,2.31088166744678,2.31237152030498,2.31263685806578,2.31358658648366,2.31320966150688,2.3145603369883,2.31451404270946,2.31595112205691,2.31635524901353,2.31776685794315,2.31796309611217,2.31881409623148,2.31817576973025,2.31885161574293,2.31812684626737,2.31931941763473,2.31914498617822,2.31950543015373,2.31908244666166,2.31212069275187,2.28169683080104,2.28029192700515,2.27991108578694,2.27855799871145,2.27942479496487,2.27837447828685,2.27912725220511,2.27874348923227,2.27812531593922,2.27922858939743,2.2779265530136,2.27972656366479,2.27826510187869,2.28021790272943,2.27983169750553,2.28066241390144,2.28121289379819,2.28097532205931,2.28249198190909,2.28138830856922,2.28302864089276,2.28213823852512,2.28408281509475,2.28350681026869,2.28557616243562,2.28536361476657,2.28677434587532,2.28801032557831,2.28878095159447,2.31772517301404,2.3327347753476,2.33457803729997,2.33518081425501,2.3359887337227,2.33554016165276,2.3357080670364,2.33492904315965,2.33437412390145,2.33320993078153,2.33288603725697,2.3320885261713,2.33174447123845,2.33082628756062,2.33080510358481,2.33019845639868,2.33010517967784,2.32945304257489,2.32968535791158,2.32931097435359,2.32978693077888,2.32966460550781,2.33022817111202,2.33027332524125,2.33107080147436,2.33140087470632,2.33251283267991,2.33313248761257,2.33406104267782,2.3344866666974,2.33551382128847,2.33600090827037,2.33676837140256,2.33689033375948,2.33727071611995,2.3365416086088,2.33674137572461,2.33597710083423,2.33273477902639,2.29269506348811,2.29270753424754,2.29169233531077,2.29151148247435,2.29021902196939,2.29011777892446,2.28949326242483,2.28950773697959,2.28909149457234,2.28894811880194,2.28846826319932,2.28873998466977,2.2883459003414,2.288790590555,2.2876538177517,2.28870448790759,2.28706508764821,2.28852270326843,2.28656040325498,2.28829421481502,2.28653236501164,2.28813503283751,2.2868312114271,2.28807291882594,2.28712755982141,2.28809230651934,2.28736393089668,2.28827502804466,2.28764348747018,2.28827861284289,2.28693672317591,2.28810832232474,2.2867505447667,2.2880410403225,2.28688796427427,2.28811026399892,2.28717765773756,2.28831313577099,2.28733423555608,2.28854478283906,2.28726536259731,2.28893101261558,2.28752955735076,2.28923988805277,2.2874941340799,2.2894642665872,2.28801941522347,2.28997754396176,2.28920163142391,2.29046978682315,2.28979641742889,2.29111816169645,2.2909562895705,2.29191916626952,2.29136623083853,2.29255318639215,2.29182943053551,2.29344218409532,2.29289831125242,2.29441144316701,2.29444141460674,2.29504581598877,2.34833238934944,2.34585540462088,2.3479165723511,2.35200424427502,2.35496563453869,2.35694537261557,2.35794358298222,2.35815574538337,2.35749951878969,2.3577418808772,2.35694084153588,2.35707338694545,2.35598386316969,2.35639452719914
2.3110667605242,2.3107280770818,2.31033456749725,2.3102300262724,2.31002667479845,2.30997545203043,2.30984459124608,2.3099103749405,2.30996996645759,2.31019507085514,2.31049527145682,2.31097527171297,2.31158328615413,2.3121209703554,2.31279295857933,2.31342693611749,2.31419680060632,2.31425217881421,2.31453195597711,2.31513467883871,2.31595996795103,2.3172820588046,2.3186133312691,2.31873247478752,2.31883382656455,2.31862675547129,2.31849390898232,2.31911200915678,2.31947768671956,2.3195521096309,2.31886946606513,2.3086795430785,2.28179806424611,2.28104238044875,2.27934422345494,2.27894880895042,2.27821053290356,2.2786063703256,2.27853302346483,2.27877112553463,2.27901434982388,2.27894707013975,2.27963511725437,2.27931206774088,2.28003729928006,2.27995708216478,2.28059650568862,2.28075890481706,2.28094547991039,2.28145326935227,2.28138623742389,2.28206932763076,2.28195779114803,2.28280611600781,2.28309691459128,2.2839867191658,2.28474858737037,2.28604107457097,2.28734130318756,2.28844792477327,2.28954552384064,2.32122848385479,2.33414295970058,2.33506994821069,2.33582695711769,2.33628494713111,2.33603948270695,2.33573163420701,2.33502804151385,2.33428744362723,2.33332293527744,2.33271027284914,2.33193226239299,2.33155567587961,2.33096131661152,2.33068693536102,2.3301994196939,2.32998602991315,2.32961415340675,2.32963890312394,2.32953291691274,2.32981035004582,2.3299334977868,2.3302744837618,2.33046909176047,2.3311271513941,2.33164929349361,2.3325172586636,2.33315391522014,2.334051539451,2.33467711126592,2.33556532287518,2.33616863926112,2.33682928420227,2.3370715561604,2.33741390367964,2.33703701179944,2.33679685056335,2.33596913217299,2.32856534225885,2.29393734597941,2.29296695557615,2.29227835852649,2.29130307089715,2.29034567787024,2.29005452438127,2.2895375005186,2.28958294068922,2.28906715489718,2.28917799468358,2.28867488363662,2.28885663915251,2.28866801558174,2.28862950017052,2.28859738362175,2.28825976431139,2.28836097005842,2.28796057983051,2.2882833030533,2.2878484985011,2.28816223594361,2.28785286420142,2.28810093387212,2.2878940151094,2.28803185504769,2.28797138565276,2.28823381503847,2.28799070240115,2.28821405600763,2.28779203546106,2.28804755788505,2.28768433846029,2.28809499935574,2.28771591163824,2.28802145260999,2.28791573127886,2.28822439174485,2.28822087524327,2.28843013431256,2.28839800899713,2.28868225351226,2.28857136550303,2.28899874817358,2.28875377151514,2.28917871239296,2.28908590484817,2.28952573445103,2.28970661109996,2.29005135929833,2.2903123577852,2.29042789187477,2.29108882003751,2.29145797664215,2.29189973024117,2.2921716471408,2.29238868896067,2.29293570696344,2.29307505401529,2.29384013713633,2.2938629118071,2.29559806817109,2.29345435365625,2.3322432073434,2.34641578083326,2.34877926480672,2.35189908931984,2.35409680486749,2.35656775714636,2.35786891687305,2.35827527136263,2.35800980608214,2.35802492266776,2.35765058514413,2.35743187434673,2.35684855050929,2.35667699019569
2.31037253075049,2.31022651010249,2.31003516250009,2.30986245211064,2.30980981642317,2.309606094308,2.30936495675212,2.30955591918995,2.3093721392512,2.30992677485808,2.30980317929464,2.31078865440757,2.31087926301704,2.31183958295871,2.31132537576548,2.31329385612752,2.31411913747533,2.31389913334751,2.31240825451572,2.31423265485677,2.31329755045717,2.31683900124071,2.31883981993807,2.31857363326982,2.31834560038346,2.31782287364586,2.31666804543049,2.3179175907378,2.31814314427278,2.31862032683465,2.31771479481467,2.30442230800431,2.28100344045074,2.28035519861079,2.2800356403566,2.27843158499493,2.27906341234356,2.27821308943936,2.27861863076805,2.27872202355478,2.27809607533803,2.27935401143935,2.27825363236031,2.27986710016622,2.2786897456127,2.2802835093093,2.27992720281939,2.28070617527134,2.28086170500669,2.28112912467655,2.28146444637345,2.28172241500312,2.28189346138284,2.28264905942299,2.28287882341816,2.28397148031144,2.28440843111841,2.28623940657773,2.2870246206989,2.28829683886026,2.28850267852426,2.32538954452286,2.33404551931418,2.33523180814066,2.33534185821357,2.33583438249866,2.33519677338136,2.33517238493137,2.33418165773206,2.33370978981237,2.33232726836831,2.33202124819166,2.33070449813883,2.33091662433292,2.3301404634405,2.33012502305153,2.32930587174984,2.32937121889038,2.32877371362925,2.32906306116275,2.32878217494019,2.3293186545838,2.32940017249707,2.32978781933855,2.32960369137199,2.33063158568043,2.33092303306571,2.33205741768021,2.33224191370706,2.33360514849265,2.33388961217259,2.33513743276918,2.33546525252585,2.33624624164149,2.3359957240008,2.3367192940931,2.3360405752484,2.33624911673408,2.33535570023586,2.32334925923591,2.29300380530663,2.29275507318342,2.29198986195562,2.29071450099572,2.29092953948956,2.2895695025142,2.29024704629317,2.28897064658512,2.28985497084256,2.28859520139326,2.28925236163077,2.2884000442368,2.28871592367515,2.28840233134563,2.28816456209428,2.28823130810075,2.28719050344236,2.28808431679086,2.28734008321608,2.28806274361751,2.28742840728029,2.28800824365103,2.28765164260983,2.28794936022931,2.28740391311294,2.28805450709801,2.28763559809889,2.28807165224592,2.28678821730685,2.2878597045338,2.28652596591897,2.28792964457296,2.28695726290486,2.287933156049,2.28701887967138,2.28798560352788,2.28794147746107,2.28822446572887,2.28831984759352,2.28840113581555,2.28836804632485,2.28862226144559,2.28821237937323,2.28882986054088,2.28840599057092,2.28913560534632,2.28918754632571,2.28953800347714,2.29013027891287,2.28986614533264,2.29056561671265,2.29061287335753,2.29197078047022,2.29165055624901,2.29223416976245,2.2925016515711,2.29256067463369,2.29345850526362,2.29335449766744,2.29557840901614,2.2898042227888,2.29433436779843,2.29498723920758,2.34852507228932,2.34965530001564,2.35172639966282,2.3513708185548,2.35550341753009,2.35721224894368,2.35769009494449,2.35716542089635,2.35758651984153,2.35726714898287,2.35712684345385,2.35640880050372,2.35631856336379
2.3096611957623,2.30998706691601,2.30910855024707,2.30961855278362,2.30895455836831,2.30937310439992,2.30881751729529,2.30935817400252,2.30923731835166,2.30969972631253,2.3098054786369,2.31043383056852,2.31103908509487,2.31159953721142,2.31249652690067,2.31259944513877,2.31267304151779,2.31296306880513,2.31244231409963,2.31421443985615,2.31595074721205,2.31616304399386,2.31621865281625,2.31681092007384,2.31585023968157,2.31627985907824,2.31475197816227,2.31632598305687,2.31560877108132,2.31758168405355,2.31850506804967,2.29794562280696,2.28091080535834,2.28044932632584,2.27821600975074,2.279066864131,2.27768168682452,2.27863905421782,2.27812259830569,2.27841836749197,2.27914662045371,2.27847475852508,2.28018182968905,2.27887621515293,2.28050431285856,2.27957381068581,2.28043651658275,2.28040106437192,2.28045514321203,2.28119812469412,2.28123062948735,2.28183211148224,2.28210643177713,2.28251490682262,2.28359896350939,2.28377548173918,2.28515928363958,2.28628799621218,2.28719522405502,2.29529910392808,2.3314867958837,2.3308145293733,2.33367942143752,2.33472204809994,2.33487219108967,2.33514675134335,2.3346654144009,2.33441807825302,2.33375636274784,2.33310350950895,2.33232283926446,2.33148819176595,2.33058860517934,2.33045815559404,2.33030341879903,2.32958753508425,2.32890814397281,2.32866015382366,2.32830486539398,2.32831445992161,2.32799685988944,2.32854290451708,2.3286970995746,2.32911480901215,2.32925057335315,2.33007112172839,2.33060239863648,2.33168808215467,2.33268870227984,2.33332900771366,2.33400549342089,2.33470282333904,2.33528950097166,2.33565445900312,2.33555841078253,2.33611939157398,2.33590163440044,2.33570981253824,2.33523509424292,2.31704351320699,2.29238449143506,2.29246428157088,2.29054976377508,2.2908360693483,2.28903924451837,2.28995440809889,2.28791766707193,2.2895691023033,2.28742512098369,2.289229078174,2.28739511757269,2.2887676888258,2.28742232814656,2.28839797004673,2.28807585780301,2.28801297105219,2.28816167102916,2.28765740861975,2.28815583990493,2.28749251518351,2.28764528427967,2.28752185074308,2.28787839319907,2.28754865581001,2.28776011653655,2.28745714001083,2.28797835852353,2.28723053947955,2.28800527521259,2.2869368671662,2.28811332755797,2.28702000398002,2.28819271532818,2.28725549063531,2.28789788125194,2.28764873153293,2.28790480624475,2.28808110136983,2.28781585759444,2.2882109240832,2.28790026641254,2.28830614938986,2.28839669916107,2.28855657969526,2.2887130940816,2.28920271054784,2.28932671224909,2.28997432882344,2.28910061351862,2.29061990725169,2.28942597975007,2.29125807480865,2.28997802172392,2.29187298737394,2.29166659066299,2.29248887567223,2.29323629227647,2.2934133826552,2.29459072516618,2.29494588620208,2.29688362949248,2.30226880177106,2.35197437010703,2.35099574737201,2.35147560781492,2.35281180994182,2.35304266484049,2.35539826832143,2.3562505081499,2.35711650044686,2.3568854290892,2.35714245309527,2.35659186726554,2.35674088569661,2.35621801932757,2.35622314455799
2.31001113457792,2.3095945423148,2.30945145559955,2.30916916966943,2.30911767670097,2.30894431116208,2.30878112238175,2.30910749372728,2.30922535591244,2.3097115595179,2.30963663213169,2.31056941347221,2.31063860338165,2.31197047301264,2.31246964949667,2.31323140949532,2.3129285343554,2.31431255582611,2.31479075352762,2.31569173220707,2.31574955551369,2.31693482915514,2.316890062834,2.31757441324953,2.31693988188273,2.31707502974077,2.315387173042,2.31674505491005,2.31570044873156,2.31695884300703,2.31602801309696,2.29034812312838,2.28060221757558,2.27970542563871,2.27956966509822,2.27834492146988,2.27911647272394,2.27818790356525,2.27829315126392,2.27875341987358,2.2780573890618,2.27945108960252,2.27797616258935,2.27984152909981,2.27847345524348,2.28012913045011,2.27966215615791,2.2804919577455,2.2808220493983,2.28105143442279,2.28155796783699,2.28181014618101,2.28206312335474,2.28285208332035,2.2829115453617,2.28439690963923,2.28441276636734,2.28708724033312,2.28801555888798,2.30317498466508,2.3327237745452,2.3329991953875,2.33392576452107,2.33469787021316,2.33426553990215,2.33482246390294,2.33394469587275,2.33411048631494,2.33325128042416,2.33276524433631,2.3314355455294,2.33115109938846,2.3300295722202,2.33012934833853,2.32957281681858,2.32909923420224,2.32790946198952,2.32812351427837,2.32738494798161,2.32794262784176,2.32754554737122,2.32820420085533,2.32785998245685,2.32878970664596,2.32869173624812,2.32991321716163,2.33016258218916,2.33157666899208,2.33201467090732,2.33322707183331,2.3334953322839,2.33453082665475,2.3345391178391,2.33535778919624,2.33488446494151,2.33557066692814,2.33472533489832,2.33479673241519,2.33401244459687,2.31022096579926,2.29252799449179,2.29221376206331,2.29171147994727,2.29016669458287,2.29037774355735,2.28888835790915,2.2900613957979,2.28839357207548,2.28996680496907,2.28816429612508,2.2894845990737,2.28807991350243,2.28885151585324,2.28815223164547,2.28829360543169,2.28811887304887,2.28743611689566,2.28791308458985,2.28704680576229,2.28775343209557,2.28713162739283,2.28757346295618,2.28693573937602,2.28745030756574,2.2868351896267,2.28768134695883,2.28693481796412,2.28779048686557,2.28621504073606,2.28761982047821,2.28595662507761,2.2877589866631,2.28661017628828,2.28783368813681,2.28688165503561,2.28772232484548,2.28753191358368,2.28774021097585,2.2877768287165,2.28790211866622,2.28809683440338,2.2882929209194,2.28838073798622,2.28865310047405,2.28864197314737,2.28894436128337,2.28948191018358,2.28920002730763,2.29040906619588,2.28965330245614,2.29159970394568,2.29035864670575,2.2919883841921,2.29117852538752,2.29204391434704,2.29233274138163,2.2928359749179,2.29392303177548,2.29390773225141,2.29584417005299,2.29581623278552,2.3008024878506,2.35177671404043,2.35247262625159,2.35362242967043,2.35430218864014,2.35483009131963,2.35590597073208,2.3563620921973,2.35690876498881,2.35682803838859,2.35678499025465,2.35605899171065,2.35628724921849,2.35577429044329,2.35588617030865
2.30966078900085,2.30969762508933,2.30887267476533,2.30926852305329,2.30881304642237,2.30907161414554,2.30859628481455,2.30918062535739,2.30921971701473,2.30980888453152,2.31033160966912,2.31051001554967,2.31082496100416,2.31163057140024,2.31254229975675,2.31303977923217,2.31387162752933,2.31450486141743,2.31577669687521,2.31595166293346,2.31673532804797,2.31703336420575,2.3176075525946,2.31801078324051,2.31879360515223,2.31823351268132,2.31787422252799,2.31818407145321,2.3176142529597,2.3175735472959,2.31703216200157,2.28608772763183,2.27934515917937,2.27975930241867,2.27850465543128,2.2789431328513,2.27804506881733,2.27852967396651,2.27836949438302,2.27849067778014,2.27940903469584,2.27862040324473,2.27962170440438,2.27896470700755,2.28003133239765,2.27970176574966,2.28016107569738,2.2805195506057,2.28038640250859,2.28134333880621,2.28123607868353,2.28196138490947,2.28195822700235,2.2827009854937,2.2837507509441,2.28443939390371,2.28580462954918,2.28760723558474,2.28815090192412,2.31163879523644,2.33571297764153,2.33453851846627,2.3346996782085,2.33498688466717,2.33439399885945,2.33465834408941,2.33404162170337,2.33376901255055,2.33310469126304,2.33230513218201,2.33113781014464,2.33074271308767,2.32987723390609,2.32960195038628,2.32874615045942,2.32851279344282,2.32758413363836,2.32775463229743,2.32733674286728,2.32775827376606,2.32778061017811,2.32809678247911,2.32806347888866,2.32868304638498,2.3288092883644,2.32984679763028,2.33041191893128,2.33147313216505,2.3321623983557,2.33303575733919,2.33354870010245,2.33433962306915,2.33460763135211,2.33523347331715,2.33482665191085,2.33527191943379,2.33432867574088,2.33410333024044,2.33339992593892,2.30546483464133,2.29240129785075,2.29247615690266,2.29090810641796,2.29074525004829,2.28918273440523,2.28980821778436,2.28812357303637,2.28944459048611,2.28764216308039,2.28914521515155,2.28753227707673,2.28884353338874,2.28778746290371,2.28846122327606,2.28774572531955,2.28801773393502,2.28794331550249,2.28758621258126,2.28755485536435,2.28738649816677,2.28762151301671,2.2873037954724,2.28719726179648,2.28717072338285,2.28728188299922,2.28732496567707,2.28805524990872,2.2873426114294,2.2880564093435,2.28705855603424,2.28782848393918,2.28713878933506,2.28814266573994,2.28739274337795,2.28777748677478,2.28755660608928,2.28745704648028,2.28789353221784,2.28777649143685,2.28810279426286,2.28763363926434,2.28825352310859,2.28818234416161,2.28862786165426,2.28854449257111,2.28913556039093,2.28859125490032,2.28963334444577,2.28850233526433,2.29032178731955,2.28932887377516,2.29107232199359,2.29004441822258,2.29167965873857,2.29147251362143,2.29230119650409,2.29273481696628,2.29384226182334,2.29510740535805,2.29652762613345,2.29629592677007,2.30201363493415,2.35430623063124,2.35347866860346,2.35406121422904,2.35487227429209,2.3550374114866,2.355956404427,2.35558150599702,2.35661933130858,2.3562485028779,2.3566180649491,2.35579425495429,2.35617212465901,2.35548048368855,2.35573569979779
2.3099064082067,2.30961974636994,2.30921768073134,2.30919527286605,2.30900242530691,2.30907521427513,2.30894848030037,2.3092716120183,2.30934785560631,2.30986507275216,2.31004198008551,2.31060467912117,2.31079544052595,2.31177669027649,2.31230574285757,2.31329099464718,2.31382235379791,2.31488954214604,2.31557302223678,2.31635527153017,2.31677217703637,2.31742875322036,2.31778374261542,2.31833035706483,2.31861506490541,2.31892944183598,2.31891443853258,2.31929717633328,2.31892421001765,2.31821327572819,2.30500705346428,2.28525385326912,2.27966831055706,2.27960673234459,2.27959808515535,2.2791011636141,2.27851425642157,2.27863455633234,2.27828137374544,2.27885458862446,2.27848626893178,2.27918203237923,2.27882645956698,2.27943303563609,2.2793749004353,2.27981399182079,2.28025900904601,2.28037615182507,2.28109979163643,2.28108409339647,2.28191935082482,2.28173705070064,2.28237821755749,2.28259680508455,2.28366228265089,2.28481291330736,2.28651433380303,2.28836614778238,2.28898998013208,2.31522603801695,2.33485747921259,2.33475007704603,2.33488062079642,2.33523123610005,2.33486413089943,2.33479709352804,2.33414445216057,2.33362621680849,2.33271353233845,2.33210284706263,2.33119748835016,2.33067095857708,2.32990937325633,2.32948054147077,2.32881769178532,2.32841598575072,2.32782895941196,2.32774874827579,2.32753483377605,2.32773563429722,2.32779117637091,2.32810480932821,2.32828788547098,2.32886396470999,2.32931426401743,2.33009908772261,2.33069456029088,2.33165099660414,2.33231498454207,2.33315386669907,2.33364827283425,2.33452248558108,2.33498171080966,2.33554581923186,2.33538407534558,2.33530061730784,2.33425617059548,2.33351383725133,2.33290861472353,2.30407360356391,2.29332090401229,2.29258634746483,2.29156380475223,2.29041887294316,2.29015923974548,2.28933069024148,2.28956549953295,2.28889640078628,2.28930969184139,2.28862578529347,2.28904197618326,2.28845044416956,2.28877032897948,2.28831171226576,2.28833038899646,2.28809900287416,2.28783672746049,2.28783296394643,2.2874135059347,2.28767363427957,2.28733343891307,2.28755802554563,2.28716598617148,2.28747194836761,2.28716993922754,2.28763500576603,2.28733850465762,2.28770848917153,2.2871756372577,2.28752476944188,2.28699847156435,2.28754702328035,2.28727418790785,2.28770279323123,2.28746502272991,2.28775820133077,2.28768338323271,2.2879233789593,2.28804240950495,2.2881457142723,2.28822710055252,2.28832043990195,2.28843476154826,2.28862752251316,2.2889558176471,2.28910650993662,2.28956552159256,2.2894401105642,2.2898929185867,2.28986987321066,2.29061054539858,2.29058201167608,2.29123884638091,2.29141511512433,2.29203802971877,2.29230111623298,2.29288431914587,2.29417681399585,2.2954254899214,2.29743845691957,2.29776227013453,2.30607787258629,2.3525294569025,2.3531234157541,2.35407081319598,2.35512723026802,2.3556181019253,2.35628425797998,2.35634422874187,2.35687886502193,2.35689085399067,2.35682137278478,2.35633820268988,2.35629149159628,2.35591178852291,2.35583774622915
2.30943415745554,2.30906627718113,2.30883349397827,2.30863426248572,2.308676545287,2.308545091659,2.3087674128227,2.30876397361955,2.30918214829554,2.3092818739612,2.30973628688434,2.30998537166833,2.3104749559778,2.31123426370959,2.31212406816473,2.31285683002584,2.3136499091225,2.31457693937011,2.31549654582471,2.3161478712808,2.3165482416792,2.31727122171082,2.31745734290409,2.31807318831953,2.31766168468964,2.31877941019066,2.31828034471634,2.31942068709009,2.3192271329605,2.31634995108021,2.28090196432217,2.28073353962904,2.28124234215778,2.28027596341009,2.28156314357698,2.27902824694468,2.27898868577015,2.27795676158728,2.27926891078536,2.27804656889963,2.27942143428742,2.27849756251368,2.27946982009646,2.27907519286179,2.2786521542017,2.27983049727569,2.27878614245256,2.28076999210433,2.27913919499108,2.28167494958614,2.27997286688281,2.28232835097708,2.28054753887529,2.28302269444315,2.28217362737065,2.28494330038746,2.28534319251218,2.28776708193409,2.28756276184175,2.31640482357392,2.33459142984214,2.33450242569274,2.33407011414995,2.33468827379098,2.33392189182111,2.33417001129982,2.33347566968713,2.33289584011069,2.33162165618165,2.33134434538397,2.33046621067472,2.3300578138502,2.32911474069984,2.32888428463993,2.32806054846222,2.32784567827195,2.3269563427294,2.32724631836809,2.32669000349393,2.32723279093816,2.32691870830996,2.32759973469271,2.32752537315266,2.32848414467325,2.32895327411118,2.32978522679946,2.33017233503526,2.33128239683662,2.33193549138387,2.3327043760751,2.33301033803189,2.3340816616945,2.33458100020333,2.33507876657762,2.33466614391368,2.33455245880753,2.33307641761279,2.33266679562739,2.33257626328027,2.29884584646837,2.29219369849617,2.29216250543057,2.29046545491558,2.29054576671248,2.28911092129889,2.28971529179181,2.28806833587781,2.28935347504772,2.2876104566572,2.28914127082669,2.28729200194564,2.2889062052523,2.28728529076408,2.28860080279737,2.28755524193764,2.28805063804715,2.28754903694039,2.28747261267309,2.28765310116082,2.2871835824142,2.28769014019829,2.28705884647345,2.28753179000993,2.28697105425511,2.28763512293693,2.28703212456003,2.28781367861789,2.28703278310385,2.28760079711395,2.28684947277849,2.28722593149413,2.28690910689905,2.28742760454483,2.28719241845438,2.28753202889798,2.28741084012982,2.28754237005335,2.28767112910933,2.28766235861998,2.28804507460254,2.28797242707696,2.28828704768633,2.28763242021789,2.28863630547493,2.28804112010123,2.28936414095787,2.28873004658106,2.28980737927731,2.2885262144518,2.2901424566822,2.28913629454763,2.290802633968,2.29001839494897,2.29162913870685,2.29166783403204,2.29226700233467,2.29250129135674,2.29339245017145,2.29397465647847,2.29646548063228,2.29677135606811,2.31217684639584,2.35012209282276,2.35210696382146,2.35334722010631,2.35446536515206,2.35476639058996,2.35569183294623,2.35552987541478,2.35648902756644,2.35666587677058,2.35646419257259,2.35553856452624,2.35583340792888,2.35513252381946,2.3553873805573
2.30850716695498,2.30879898271697,2.3077307216869,2.30845466577216,2.30772211848743,2.30840756200254,2.30753976744244,2.30869469093667,2.30820381824725,2.30929603451441,2.30875909593587,2.31008169848579,2.30988379587727,2.31137860223503,2.31157221670174,2.31290404318029,2.31309688939031,2.31444938197623,2.31486700651288,2.31596769104522,2.31650525920947,2.31703878800909,2.31725973605444,2.31787746394467,2.31823131482711,2.31892556878375,2.31919970212836,2.31963355201726,2.32011053425214,2.31378592680991,2.28089954290146,2.28086771507712,2.27934420690204,2.28008955388817,2.27917954634621,2.27952598835237,2.27707703938757,2.278927688801,2.27667482276285,2.27896555724154,2.2768976137323,2.27904579609874,2.27810720197985,2.27913488702414,2.27975485499992,2.27924306991587,2.28116250057278,2.27953975203568,2.28228199643995,2.28020922928941,2.28341301167927,2.28098623254036,2.28387641661411,2.28206262134698,2.28496976788111,2.2841426906305,2.28627075242758,2.28695421040751,2.28743897781725,2.3207192274079,2.3343072692539,2.3343134374204,2.33421838241378,2.33438810034325,2.33366127953139,2.33370081043941,2.33275480044075,2.33241364294717,2.33114610396567,2.33076714795375,2.32964520739369,2.32944088648513,2.32889418174826,2.32819975282284,2.32721601874283,2.32716468230412,2.32676675566769,2.32675605467107,2.32664832283361,2.32674753564805,2.32682618984314,2.3270466800879,2.32710068133128,2.32787114781359,2.32835906127293,2.32931607407655,2.32996155812796,2.33091271525719,2.33122568126246,2.33236181759982,2.3326769494146,2.33377892415925,2.33395974762508,2.33467764215333,2.33411364367995,2.33414143440151,2.33336035802411,2.33225351767433,2.29278407549001,2.29234929820923,2.29167209238594,2.29142889975589,2.29153672293465,2.28995307195165,2.29035088687822,2.28887114710082,2.28982019652206,2.28828995390034,2.28992568776558,2.28797747752759,2.28970969152059,2.28781444923021,2.28946395322898,2.28780686293969,2.28859990007583,2.28767616855579,2.28742440415072,2.2875239741709,2.28664875310415,2.28746940795282,2.28633403089579,2.287488974202,2.28632281253258,2.28741100352909,2.28600034433093,2.28745748875605,2.28635813931299,2.28751487614046,2.28617676423664,2.2873044560917,2.28618947008551,2.28724846186025,2.28657340812661,2.28738604042032,2.2869682410656,2.28745180552265,2.28694774976725,2.28757885527235,2.28755148622186,2.28785331752055,2.28805061815168,2.28801227074565,2.28851096521851,2.28824461858712,2.28925836587189,2.28881771462835,2.29033932874839,2.28923740674763,2.29049333803786,2.28957377717405,2.29089595006838,2.29036123473895,2.29181324756777,2.29135420281282,2.29225981741925,2.29210391702615,2.29226736615104,2.29292003667088,2.29258710149175,2.29582507947999,2.29662547244147,2.31911519963217,2.35107522364097,2.35162652460198,2.35182904290526,2.3535851559942,2.35377139307884,2.35514369380271,2.35504143691125,2.356038283245,2.35607990168753,2.35607289478093,2.35540883483137,2.35560763027928,2.35509726668172,2.3550926714082
2.30884120471063,2.30831229036705,2.30827919881996,2.30785842355489,2.30800269765363,2.30781456463028,2.30817747143,2.30817420889914,2.3088318151434,2.30879126229855,2.30945027896587,2.30961332765068,2.31039440148452,2.31096773684996,2.312028173933,2.31262296672249,2.31355155209245,2.31429439783626,2.31505260077381,2.31594382077334,2.31642276197227,2.31722846062924,2.3173059833047,2.3183426128051,2.31838990462669,2.31961161368375,2.31983289389373,2.31987070645112,2.31897099127286,2.31211812558886,2.2814085863301,2.28096892563178,2.28035687998387,2.27903545510357,2.27922322437823,2.27803900661195,2.27953731617625,2.27765207323358,2.27955663944347,2.2777050190265,2.27952999356923,2.27822019878103,2.27907950432813,2.27916783785657,2.27888004619103,2.28019615298191,2.27840703658349,2.28106236415465,2.27849142144577,2.28193059384347,2.27924345854056,2.28272954817513,2.28042935437116,2.28370130495139,2.28246398912425,2.28536303709932,2.28490371513278,2.28683698136,2.33110139184196,2.32851210672954,2.33310387131473,2.33383673931828,2.33397445861512,2.33423785613,2.3335903953652,2.3335841806167,2.33293728350184,2.33230065894509,2.33117447882158,2.33047626111514,2.32924137967149,2.32891545462832,2.32784768555231,2.32777659459336,2.32701748850862,2.32696124687013,2.32622146427663,2.32657060856563,2.32606935416886,2.32649609574111,2.32598915587944,2.32681656799598,2.32665988257825,2.32757290098326,2.32751004081086,2.32899840549417,2.32964680989231,2.33079051458248,2.33129996619044,2.33226100835372,2.33269966947807,2.33370553503542,2.33419916941858,2.33462706525222,2.33399826447643,2.33374891423155,2.33185824696701,2.33206386591027,2.29300391496458,2.29273784610471,2.29164237545523,2.29144046309063,2.2900511258633,2.29043251696971,2.28920639263806,2.28978600743531,2.28763558865086,2.28931285953499,2.28714518573665,2.28916403175738,2.28680259182503,2.28906722054722,2.28704852559722,2.28883232046259,2.28747793512321,2.28809868238229,2.28725297450234,2.28728330918428,2.28747168318017,2.28685723682523,2.2873751576545,2.28688769515396,2.28797096262015,2.28679691766859,2.28734482915386,2.28665364413724,2.28765975470331,2.2867740769904,2.28754114224468,2.2867939646389,2.28734449757318,2.28677146951217,2.28698842196605,2.28687586929409,2.28710678379049,2.28718084502378,2.28741507796543,2.2874999794686,2.28744020059447,2.28786888915384,2.28761581479371,2.28832753494762,2.28780382371389,2.28888022347419,2.28810796075682,2.28953109943098,2.28859943711784,2.28997550629341,2.28871672931293,2.29039631848974,2.28960949458135,2.29099637749185,2.2903128899081,2.29169153810342,2.29177209197245,2.29229846076871,2.29283608078127,2.29272287760976,2.29219220282926,2.29554274412256,2.29639087097017,2.32688848571036,2.35063763577754,2.35113503090953,2.35154675729157,2.35330224307815,2.35378803203434,2.35518769607433,2.35559047126873,2.35587338122701,2.35529200372363,2.35577436171874,2.35531540012141,2.35556930582523,2.35541584443097,2.35509200768411
2.30816160958771,2.30831879144595,2.30733299945551,2.30796720957903,2.30738353754874,2.30805941173362,2.30754462008667,2.30845415087449,2.3081369566635,2.30908948791216,2.30878468236081,2.30996968503885,2.30991167101326,2.31128439060615,2.31153804724872,2.31282103847229,2.31310422322168,2.31441006477454,2.31484724504965,2.31603341874356,2.31668528707801,2.31728130690628,2.31754888443265,2.31843522057404,2.31909396650115,2.31969429556044,2.32003993164913,2.31998377375023,2.31996457350965,2.31075228134822,2.28207467691173,2.28148537557589,2.2797440656221,2.27927750803712,2.27765825779058,2.27848980884376,2.27709578414342,2.27861603715738,2.27708711356514,2.27881349516668,2.27750469247063,2.27901166421508,2.27865843246181,2.2792134614492,2.27987278123617,2.27948490115798,2.28118196488002,2.27998231715651,2.28232674873962,2.28069598537843,2.28321507694128,2.28143973170635,2.2838277648009,2.28262131158912,2.28511223795097,2.28478645421114,2.28643587543245,2.28669847096231,2.28799285560136,2.33037937373285,2.33236643523157,2.33358148932692,2.33340484888615,2.33405180092801,2.33342359471185,2.3336046315575,2.33323827361875,2.33238954052021,2.33114229938875,2.33040267899006,2.32897849960193,2.32863627315138,2.3275219104769,2.32734196944152,2.32650942970165,2.32659147682622,2.3262358195023,2.32631199310594,2.32605311362879,2.32624617944025,2.32601434946171,2.32668867229824,2.3269436213051,2.327481019953,2.3274923748531,2.32892452495379,2.32976275768802,2.33090774633414,2.33164711776317,2.3324302246013,2.33268381290663,2.3337955076923,2.33394095564433,2.33488082207783,2.33466791128758,2.33399330337767,2.33329369426549,2.3326966693259,2.29344989768051,2.29317174794926,2.29201956654356,2.29107793075021,2.29071140256397,2.28981714742978,2.29000886940467,2.28911347528696,2.28981743752496,2.28853137510628,2.28946179745284,2.28816012335499,2.28953986183059,2.28804525867438,2.28938579191161,2.28795161674671,2.28868446110823,2.28768361770161,2.28756205446026,2.28732953638727,2.28659751923686,2.28720783136561,2.28656316665067,2.2873708024699,2.28680194253684,2.2873212581768,2.2863792812126,2.28716676181012,2.28636378808815,2.28721838873824,2.28664589899947,2.28722758368818,2.28681254991736,2.28705816667449,2.28664579091632,2.28700050069848,2.2869057282168,2.28719375800006,2.2871352898369,2.28749247443017,2.28771749940156,2.28782887275109,2.2881167801582,2.28811753814599,2.28868841456649,2.28843905988031,2.28921364541148,2.2888407084759,2.28970654891926,2.28930487449259,2.29023821244872,2.289826450891,2.29054877003878,2.29046639713703,2.29099732833066,2.29128951859994,2.29185638274068,2.29211418812059,2.29246471995123,2.29338185080017,2.2937163478298,2.29676962246837,2.29732590579734,2.33499325774694,2.34901704660996,2.35043501765488,2.35117423176233,2.35343126815209,2.35439239076604,2.35543860111335,2.35526185886068,2.35592123508553,2.35556131587055,2.35580432251617,2.3551559947563,2.35530765265237,2.35435341219972,2.3546861361204
2.30857870865147,2.30830793382338,2.30791349633138,2.30795439530771,2.30787828172687,2.30809666951829,2.30818831648432,2.30852091382603,2.30871185519891,2.30915454827355,2.30947980693269,2.31006606897767,2.31061380263624,2.31129605505892,2.31199093769589,2.31279883764451,2.31361144730233,2.31450666768986,2.31532885333586,2.31619362508964,2.3168664478859,2.31761763139607,2.31807248912405,2.31884561480345,2.31915752911893,2.319812626351,2.31969185709687,2.31977831736211,2.31942110340007,2.30814787490371,2.28223142057117,2.28164700879635,2.28015026461066,2.27914956190132,2.27836749921711,2.27817510508982,2.27822456122423,2.27819433607805,2.27853235241825,2.27842060730282,2.27878915798318,2.27885588070296,2.27902548118381,2.27946163658967,2.27929567510631,2.28018615759605,2.2798306864043,2.2809411580373,2.28049372167816,2.28168300159114,2.28128096260102,2.28234200295708,2.28213265560724,2.28349862061012,2.28396868300246,2.28567404159551,2.28658334919273,2.2980147542532,2.31720835103036,2.330783539045,2.33227822720981,2.33362644463752,2.3338386960925,2.33407243567041,2.33369524398663,2.33342850664041,2.33292679268627,2.33219805179631,2.33125763187651,2.33040977654929,2.32940182294005,2.32868796500065,2.32783095158624,2.32728916968983,2.32660907176216,2.32650549354349,2.32625727518697,2.32628969273737,2.32614594595407,2.32632856019415,2.32636763803618,2.32685177060467,2.32717705681839,2.32770033754418,2.32808392244384,2.32908795775463,2.32994576387641,2.33089668766514,2.33164898831741,2.33243106699819,2.33306194247099,2.33393319842891,2.33449212267271,2.33504299077272,2.33479205731257,2.33385929016204,2.33238996058979,2.33247627815513,2.29439048282259,2.29382713308356,2.29236598703881,2.29126464742158,2.29043929519772,2.2900140353355,2.28948220387082,2.28958949387973,2.28896676347407,2.28929336514356,2.28846688831898,2.28908256005031,2.28819402676262,2.28895073194762,2.28802229997661,2.28867934216013,2.28775631483571,2.28822936951255,2.28749452680356,2.28772125441754,2.28718374092406,2.28739985104662,2.28716993175253,2.28732704957887,2.28718758942174,2.28723961040129,2.28706212720836,2.28716493117586,2.28700776558656,2.28722657548525,2.28702515952366,2.28732915629362,2.28699689041222,2.28724002384182,2.28668248070172,2.28722157833215,2.28687270448207,2.28746907998627,2.28716100104903,2.28774628047059,2.28753051988147,2.28809166895908,2.28793752657868,2.28848223436023,2.2882703501988,2.28890998421322,2.28869092715659,2.2893162146015,2.28907266310469,2.28970062465155,2.28963902894573,2.29019160392064,2.29028283958901,2.2908144192074,2.29105762615753,2.2913653878425,2.29165807109549,2.29191069288424,2.29268638622733,2.29368820220608,2.29531689707993,2.2978360804077,2.2989663875199,2.34159656433477,2.34877522804318,2.3501634927232,2.35174929108928,2.35375812695128,2.35511700334214,2.3558746508291,2.35592720123801,2.35616042419842,2.35596370982074,2.3559851002996,2.35561020489645,2.35544725855815,2.35487890383562,2.35485882244586
2.3082675257054,2.30786018159635,2.30761671376056,2.30751711313622,2.30766856431404,2.30769390033503,2.30820867403413,2.30816804321996,2.30858020445079,2.30884586828355,2.30927936848596,2.30983001764974,2.3103146058371,2.31104287141291,2.31127851144555,2.31256678270736,2.3129660861789,2.31439086168465,2.31490856592773,2.31604696208106,2.3164952492738,2.31743145970136,2.31812384416859,2.31836500562109,2.31859517977824,2.31886241103637,2.31862040244825,2.31914394917814,2.31906446453543,2.30301805796445,2.28079802803833,2.28049719497262,2.28031172742724,2.27850910964744,2.27894265107675,2.2778526041111,2.27827885772443,2.27809201702185,2.27805713731397,2.27840452891247,2.2784323563047,2.2786646632562,2.2791797480194,2.27891082052139,2.28019555608358,2.27937721260348,2.28120639887462,2.28002316212541,2.28167801610841,2.28081589220925,2.28240287111574,2.28166666640904,2.28302749439578,2.28310379774764,2.28500982839792,2.2854633685506,2.28705003615435,2.30727213297831,2.32879387248015,2.33016654177983,2.3315264507785,2.33282385100052,2.33268642091975,2.33323295383678,2.33264395812073,2.33269157199975,2.33189300410819,2.33163270281899,2.3303859026122,2.33001424214169,2.32873625983652,2.32829594091648,2.3271569198005,2.32675136088624,2.32556226788035,2.32590763072788,2.32548222564482,2.32576415043282,2.32541938290983,2.32586141954689,2.32578647685189,2.32647859450302,2.32669925456836,2.32737714583355,2.32747214271513,2.32875090045501,2.32933341732421,2.33048047220134,2.33077944429052,2.3319589049147,2.33217573233096,2.33342868515719,2.33368099954453,2.33451442514216,2.33418735443777,2.33308416934131,2.3305620955252,2.33006516289383,2.29330228217444,2.2932962891785,2.29166866386826,2.29109630768632,2.2902822819435,2.28981752416018,2.2896045262586,2.28914298257371,2.28954171090247,2.28863217787985,2.28968960660044,2.28820103337676,2.28979233284714,2.28790254623121,2.28974386037855,2.28760898858548,2.28921848566471,2.28734796057058,2.28884769751674,2.28711168771279,2.28813920682733,2.28693516707411,2.28773337605178,2.28682988979258,2.28739114161646,2.28674592509239,2.2874698235081,2.28668451250234,2.28759354528881,2.28662078793916,2.28780426582744,2.28662633232638,2.28817248080092,2.2864290371089,2.28765837856733,2.28634547569778,2.28806942395515,2.28667150698924,2.28825083599921,2.28701749196651,2.28815931829124,2.28745036399537,2.2885762028497,2.28789493486105,2.28885094852252,2.28833262261445,2.28939714085909,2.28877566830896,2.28930626320201,2.28924575165795,2.28943186528898,2.28996192696431,2.28981557790943,2.29085893970367,2.29064000483999,2.29146877201468,2.29064120272573,2.29197863732324,2.29141634969069,2.29361045188581,2.29329935532565,2.29748294190649,2.29846570275812,2.34532408997301,2.34736726859733,2.34946498999922,2.35120123150933,2.35340696327407,2.35517245536216,2.35565302182511,2.35533976347858,2.35569732699496,2.35523704396238,2.35551698098835,2.35500236529349,2.3549533355626,2.35403512968875,2.35437348670621
2.30724284706924,2.30778910444862,2.30682425619651,2.30748743340438,2.30659648256317,2.30760064373151,2.30682975353006,2.3081588675184,2.3078112446407,2.30893162672604,2.30868370856935,2.30976694992675,2.30982862426539,2.31083064334056,2.31124778040513,2.31233020855784,2.31322402197588,2.314173499768,2.31498629855164,2.31584598861869,2.3163751837114,2.31723904730077,2.31753803026429,2.31793355401868,2.3168881268837,2.31821085222762,2.31736959900797,2.31881860104505,2.31941599118364,2.29607401046989,2.27935535295994,2.27998539002229,2.27754749010763,2.27870674888914,2.27653471259724,2.2783326843048,2.27733566549952,2.27832034999726,2.27775857348792,2.27843736985803,2.27816271500908,2.27895420014721,2.27816762489024,2.27960125354371,2.27799695088973,2.28026399882205,2.27834351153887,2.28087355787889,2.27916381193109,2.28153137691247,2.2804508122013,2.28229520468326,2.28164963425736,2.28376751837851,2.2838744446704,2.28570854158003,2.28733926849979,2.31802284931736,2.3282173635357,2.32969945314753,2.33053533483513,2.33179187428506,2.33188309709063,2.33220000443893,2.33171972715763,2.33176469765501,2.33144449016634,2.33106419926411,2.33082379236555,2.32958498369911,2.32848212982598,2.32774478572302,2.32691402935012,2.32621363301588,2.3253104999544,2.32534330288755,2.32506082649486,2.32515564498352,2.32493654863195,2.32522559288109,2.32518805674284,2.32591003908911,2.32636084011619,2.32695662618155,2.3272566661764,2.32836652282303,2.32922343404617,2.33006853041322,2.33073524050002,2.33151418983408,2.33209289187053,2.33281973403456,2.33308281479576,2.33377352919788,2.33344622134137,2.33278020230002,2.33109079631376,2.32573235219902,2.29264761169879,2.29267895600449,2.29170198102134,2.29063587751341,2.29013985468558,2.28951634957859,2.28880862351171,2.28924134829705,2.2880628554116,2.28922667611813,2.28713608951883,2.28916514266039,2.28650759944322,2.28905152759084,2.28592214652873,2.2887812664537,2.285831873336,2.28838259571891,2.28556644820217,2.28798225186545,2.28572497969579,2.28768263260576,2.28587357340374,2.2873352959753,2.28551661326865,2.28713677741318,2.28561628838196,2.28713711978996,2.28525842401236,2.28725477588898,2.28516174769501,2.28748292532285,2.28502625838825,2.287658280003,2.28503015791898,2.2877430888671,2.28502614855968,2.28785106871369,2.28552747754794,2.28797017347359,2.28604824615938,2.28814500688056,2.28667138999535,2.28847377796078,2.28717227261605,2.28887288791743,2.28773685959631,2.28921014177501,2.28851030477216,2.28944944636521,2.2891288212582,2.28995148040207,2.29077217186697,2.2906475426366,2.29181926568993,2.2910739268678,2.2922252757233,2.29170320712451,2.29350320158952,2.29358662686627,2.29534280030682,2.29714514226878,2.29838291114405,2.34656141835796,2.34710376858079,2.34883639037834,2.34812371835967,2.3524482819232,2.35475913965543,2.35523072049654,2.35464805898892,2.35523106677895,2.35457664013004,2.35510941221763,2.3546403517847,2.35463200812637,2.35378138202343,2.3541293827052
2.30810287559524,2.30734336288829,2.30737445812896,2.30692101809157,2.30729253413438,2.30697200184964,2.30755019080777,2.30750761670843,2.30836233516253,2.30840176095015,2.30917310306205,2.30941435402371,2.30999331546282,2.31073406904638,2.31120726338159,2.31250266859498,2.31310155127224,2.31453867198603,2.31526662953214,2.31609811143769,2.3163411755971,2.31703318444897,2.317260924798,2.31754963997204,2.31729848617618,2.31780543223467,2.31733658106273,2.31820163937696,2.31836210614014,2.28897159716345,2.27910308909555,2.27902387182719,2.27957250006564,2.27757693086643,2.27905773110146,2.27739618509027,2.27879291899807,2.2778223899164,2.27840390197864,2.2782274756153,2.27891966183373,2.27849430340446,2.27947468194656,2.27865263772873,2.28053160874762,2.27901632055797,2.28109258635282,2.27967846448064,2.28171135875937,2.28056234331442,2.28222715661728,2.28164215584729,2.28321118567246,2.28350664230042,2.28445542685448,2.28508417545558,2.28591215909734,2.31841866312135,2.32759312753464,2.3291344609,2.32965019457025,2.33110711732806,2.33106832626752,2.33166296811622,2.33091333806185,2.33132675788483,2.3303821911398,2.33058821361553,2.32963525958359,2.32923848623149,2.32798818699413,2.32746233850565,2.32599562177856,2.32601457408006,2.32503814724569,2.3252016138516,2.32456326606672,2.3249414315311,2.32454133570568,2.32495990428399,2.3246480423035,2.32561813115311,2.32585011984416,2.3268259125031,2.3270855711679,2.32827895402583,2.32881465439421,2.32996492677923,2.33042686015009,2.3314192049852,2.33155077053357,2.33258562905207,2.33246702879282,2.33342559686651,2.33283977746156,2.33300954572409,2.33277532844944,2.32041438063376,2.29266395960947,2.2927971253701,2.29130278516947,2.29085681089195,2.28985618428351,2.28947360397677,2.28896866253307,2.28886527813253,2.28972581745178,2.28839151555784,2.28965951313799,2.28779619787675,2.2898631695966,2.28744053933455,2.2898306681091,2.28708330882917,2.28932922738452,2.28675579107773,2.28876542461069,2.28661602482418,2.2884786349277,2.28653832907007,2.28793603680062,2.28646707388398,2.28775588524734,2.28633609528484,2.28742257094543,2.28615078598417,2.2875795235497,2.28607694634476,2.28791305460319,2.28599951368462,2.28822508261289,2.28602448181998,2.28876215612212,2.28602602250488,2.2885392612792,2.28615265801379,2.28847610580183,2.28663745772194,2.28862308110193,2.28719094451916,2.28877617125497,2.2876506186295,2.28899714922065,2.28807183986631,2.28929750321785,2.28856753243881,2.28918978200275,2.2894450336031,2.28979105265533,2.29041383718057,2.29008962841167,2.29106272321403,2.290257084388,2.29174268788541,2.29112093005417,2.29270042196976,2.29231715658957,2.29473937975668,2.29506427806259,2.29746088516671,2.29798552321845,2.34707623956208,2.34984776765911,2.35014113924675,2.34973000528102,2.35265885335508,2.35386597865351,2.35510955008906,2.35499513098507,2.35534010633946,2.35465620131996,2.35505531074695,2.35460362899552,2.35449334665765,2.35346591335393,2.35399187943409
2.3073118431747,2.30761776544163,2.3063868219515,2.30727334861411,2.30650223131263,2.30740357667624,2.30654512243449,2.30790543471448,2.30743081270188,2.30872630986056,2.30841660168491,2.30960554654892,2.30951831488052,2.31089952090393,2.31152457229531,2.31262264445288,2.31339661719618,2.31458465728101,2.31553605284359,2.31618284830352,2.31648424026525,2.31715713894331,2.31708281396374,2.31802017519587,2.31774988012811,2.31846980119118,2.31750863411127,2.31843637045667,2.31841959329805,2.28336780623181,2.27898229858135,2.2795708238859,2.27731092976274,2.27844128369901,2.27671024763277,2.27824341961828,2.27703185023504,2.27837742865377,2.27767089164025,2.27857978183335,2.27792994220841,2.27902002403537,2.27824808137402,2.27949348171086,2.27798246789338,2.28006031466504,2.27885573988027,2.28069018778517,2.27960557573358,2.28129707048257,2.28089858104244,2.28230977969795,2.28238429797347,2.28432105164538,2.2843715880397,2.29064233270143,2.32613489335947,2.32496845488853,2.32687575005853,2.32892799284031,2.32925473811691,2.33075880121597,2.33041375651519,2.33145729138338,2.33158878390506,2.33124490911017,2.33048599674764,2.33025386650843,2.32963851563666,2.32877811761039,2.32749059218128,2.32722227331304,2.32664176167117,2.32596287447589,2.32510605917679,2.32504035401452,2.32459473193958,2.32470466842935,2.32432585217159,2.3246548112439,2.32428017082674,2.32532607916467,2.3256307145003,2.3266664554338,2.32717421431964,2.32803794095158,2.32837913868827,2.32963488270453,2.33038717041068,2.3311996405387,2.33156404590854,2.33244402060864,2.33253229213496,2.33338922592864,2.33301816957376,2.33299154959465,2.33204220165585,2.3150711957612,2.29267433948219,2.29281300104961,2.29177043832654,2.2904839002678,2.28968009351772,2.28919065080755,2.2886927185914,2.28905298087958,2.28826996405626,2.28903323186281,2.28732055197229,2.28888667031707,2.28696962012563,2.2887777018408,2.28657919974091,2.28842403087307,2.28608958562061,2.28805574375304,2.28604361673643,2.287813168212,2.28602113488654,2.28751656770734,2.28589843457224,2.28731233315908,2.28612367407987,2.28712586986192,2.28574989110069,2.28699888868083,2.28568772378309,2.28710469595766,2.28559794719806,2.28714474830005,2.28512100905834,2.28730279873475,2.28527690143555,2.28742081972619,2.28492052223708,2.28760512778114,2.28589397596751,2.28789997798913,2.28633423173231,2.28807668141305,2.2869694688521,2.2883591913195,2.28740548651276,2.28870069421003,2.28792126356301,2.28915949924044,2.28889484935053,2.29011277169673,2.29119942282582,2.29064506536943,2.29073323885239,2.29066620880613,2.29128567410164,2.29115380692627,2.29219611763895,2.2921431469595,2.29359164579719,2.29444757206474,2.29589120616936,2.29733054079075,2.29807243687185,2.34816643132901,2.34963184702536,2.35137970813167,2.3518416279822,2.35360460848602,2.35430280178552,2.35558171541036,2.35627540765093,2.35583141500937,2.35478150265681,2.3552635755702,2.3546401019923,2.35473347233304,2.35393159452848,2.35428049709934
2.30799223617983,2.30743258564793,2.30735869580937,2.3071089380078,2.30736840013927,2.30726036954855,2.30767197323487,2.30782001848309,2.30843449309378,2.30862806008583,2.30916187555902,2.30960373108997,2.31027436687235,2.31104572084025,2.31189440396226,2.31286574018155,2.31368785704684,2.31488453405379,2.31576024936383,2.31644078602363,2.31684249325362,2.31737650385798,2.31772380424316,2.31837557036172,2.31869886583221,2.31897782786125,2.3186949617033,2.31860894822904,2.31863702443532,2.28043133354105,2.28007706194362,2.279505574878,2.2789987360905,2.27773984479553,2.27827059503806,2.27748501854796,2.2783731121347,2.27789556573046,2.27860383821155,2.2783075120725,2.2789061107449,2.27871628910343,2.27938254417024,2.27909926638599,2.27976117497644,2.279597689224,2.28036848429708,2.28022493420688,2.28082621371687,2.28098438434798,2.28171944796085,2.28229010402723,2.28334408919813,2.28474535814229,2.2855889008096,2.28903284056057,2.32520430632357,2.3260828362092,2.3276347259306,2.32955213908868,2.33033405029128,2.33136392502457,2.33142977368422,2.33184657077357,2.33168622930825,2.33145366679386,2.33076479108209,2.33019883706923,2.32931596735725,2.32861678629678,2.32769698018012,2.32714802993448,2.32642832647101,2.32594021065789,2.3253150825504,2.32511379891227,2.32476617704252,2.32480824336775,2.324650264455,2.32489064328773,2.32492405679948,2.32559923284882,2.32604427846768,2.32686528437437,2.3273979923901,2.3281958604251,2.32867264876116,2.32974534951826,2.33041883316438,2.33134890936969,2.33183618276786,2.33272287678999,2.33305017806931,2.33369622069551,2.33342808387601,2.33314354297831,2.33239737633299,2.30948608052948,2.29376614782971,2.29337387435746,2.29175893955524,2.290740516402,2.28966489422731,2.28928911071574,2.28889978138228,2.28892222746638,2.28907179258604,2.28872674457525,2.28890043203692,2.28841164042176,2.28877348351277,2.2881885621721,2.28849823461983,2.28788353111103,2.28810474910775,2.28757397530238,2.28786496504109,2.28730372626197,2.28760224362868,2.28700791235487,2.28729691583826,2.28686916404574,2.2871753688547,2.28680053446175,2.28695293010742,2.28676260465392,2.28696988499946,2.28677834505689,2.28698869048469,2.28666212056883,2.28697378817525,2.28663327312343,2.28727242515277,2.28671743115288,2.28746374235052,2.28696133834397,2.28784129239466,2.28735916225727,2.28798762397553,2.28774774030779,2.28817297527145,2.2881366515471,2.28845789826832,2.28853199437698,2.28886102659883,2.289112750066,2.28951650379425,2.29006705331525,2.29051943987875,2.29077797511576,2.29066958295652,2.2911722903457,2.29114345159404,2.29176994858316,2.29190093399808,2.29278234108371,2.29328022006389,2.29496606413475,2.29568955292542,2.30100049328185,2.33229222830115,2.35009420136057,2.35120483460486,2.35262525292425,2.35319204674138,2.35438814382293,2.35493433782255,2.35572837119664,2.35600766155915,2.35614282291982,2.3558808986259,2.35580626967409,2.35537131300386,2.35510461528686,2.35456603096515,2.35461750263442
2.30664830505722,2.30742741033277,2.30605726470946,2.30719184223324,2.3060313924746,2.30737594093771,2.30648465624966,2.30797261669163,2.30746201910296,2.30871276989629,2.30799713184708,2.30960373976448,2.30949249862237,2.31098356599169,2.31127852384904,2.31280843046079,2.31310501765558,2.31490017968603,2.31572696145211,2.31639248096675,2.31642713795583,2.31723280899474,2.31704249046178,2.31817740261838,2.31810391179629,2.31876638819081,2.31826708114631,2.31840070907284,2.31927933718806,2.27939794424459,2.27840693931204,2.27921588751444,2.27681179770202,2.27834286138599,2.27589110831964,2.27830239566671,2.27614831379199,2.27858670189487,2.27662347269538,2.27887614834588,2.27732187492877,2.27917245386775,2.27792015953517,2.27956091889614,2.27848507760203,2.28005182676533,2.27918246433236,2.280512884026,2.28004734058547,2.28116533925293,2.28168715254335,2.28232887740682,2.28300373226121,2.28453773531046,2.28489284181398,2.28813458374862,2.32523939407885,2.32681068401766,2.32788997037977,2.32984251908533,2.32992570365049,2.33140723665718,2.33139839893299,2.33179834495315,2.33143881267251,2.33124875079264,2.33047622234839,2.3296634285536,2.32828963187684,2.32794920784528,2.32697874514832,2.32655918052848,2.32544754085066,2.32537686766189,2.32460500564698,2.32464566100334,2.32408630865624,2.32441285896171,2.32413199538462,2.3246256532446,2.32449957807345,2.32537635800134,2.32569498270591,2.3265777696495,2.32704196709347,2.32782542786095,2.32814085841005,2.32932800836977,2.32999789279271,2.33093165897084,2.33133468956025,2.33225985223046,2.33235803157993,2.33321266306394,2.33279409943887,2.33294630850253,2.33223697712351,2.30300777620361,2.29280928812133,2.29255752026681,2.29141835021096,2.29032358455004,2.28999053232235,2.28909868668514,2.28841263355467,2.28887342986603,2.28840676048123,2.28892934640514,2.28788984193266,2.2886961019559,2.28771193743869,2.28843818206884,2.28764353306862,2.28811655182463,2.28740319793226,2.28783822679085,2.28698072503968,2.2876099184631,2.28634547564679,2.28729968446222,2.28592116317882,2.28708707268056,2.28608129194643,2.28692350945846,2.28629865527247,2.28682257154098,2.28668357255012,2.28677808188912,2.28656282094493,2.28670705963501,2.28611179749356,2.28688652547257,2.2858056311008,2.28728332577831,2.28582539589424,2.28763503491785,2.28611356567725,2.28785132992975,2.28680232385431,2.28803623536188,2.28743331469238,2.28822367280609,2.28799023844675,2.28848362531797,2.28845765834014,2.28896599594084,2.28921577361821,2.28965312998157,2.29015104543832,2.29028512514799,2.29087147738487,2.29089971548781,2.29181116113656,2.2916347359732,2.29274629916016,2.29255145800429,2.2931730080997,2.29431360498175,2.29455022942697,2.3005109167577,2.35127455142774,2.35140056067179,2.351863927102,2.35291343712437,2.35235441442436,2.35401358129293,2.35407065677129,2.3550737208351,2.35495918098321,2.35574093905894,2.35594605522158,2.35566066466524,2.35510472572749,2.35475361700536,2.35379124587712,2.35420973282198
2.30749389273208,2.30652829712599,2.30736993011494,2.30639518942328,2.30740600163823,2.30656618840489,2.30760200058049,2.30714186239007,2.30831688010552,2.30813962579643,2.30941109489336,2.30922216347297,2.31013528701189,2.31062058923698,2.31163825125173,2.31298329726303,2.3151575817976,2.31512750483793,2.3156182333608,2.31625245642707,2.31652802558757,2.31732516270478,2.31784202776753,2.31817880036273,2.31798536487867,2.31847741609863,2.31836070677141,2.31700073570458,2.31953422532507,2.28004054925339,2.27851037842557,2.27770602399334,2.27916988506342,2.27672680219482,2.2795236626921,2.27652046879244,2.27947371215164,2.27695560561385,2.27988298323507,2.27759740221202,2.27988296267687,2.27798155886666,2.279518537369,2.27859692539149,2.28043536088822,2.27943532470476,2.28066609354354,2.2802084568201,2.28107865135852,2.28122583759632,2.2817183968361,2.28271590873845,2.28338250112698,2.28491296178602,2.28501981011131,2.29022399481449,2.32748393769819,2.32834590630548,2.32880842445931,2.33094775604156,2.33187287343095,2.33223723795795,2.33189676948955,2.33212923553498,2.33176138516003,2.3311718661618,2.33034761603259,2.32906143051952,2.32775867817742,2.32717241566355,2.32646738199496,2.32591613603203,2.32517228333444,2.32483099857313,2.32413441804912,2.32416858639296,2.3237490957056,2.32407178877826,2.32402592820486,2.32447580744007,2.32467735749804,2.32528556978935,2.32559546628777,2.32640494213072,2.32655880051084,2.32776178158335,2.32812302640177,2.32936407809891,2.32972890962124,2.33095341765639,2.33121421274965,2.33220892466609,2.33197912283496,2.33303834101848,2.33297967355433,2.33291955888477,2.33259534566358,2.29659987126217,2.29223763321065,2.29213515925856,2.29054292924385,2.29039096493959,2.28921476706268,2.28928418511415,2.28887044802749,2.28873142209568,2.28902242036987,2.28837568036631,2.28895890644025,2.28800565391179,2.28833744417339,2.2878691786542,2.28823817066284,2.28778298813992,2.28782790691949,2.28751351391606,2.28792983513995,2.28708795378841,2.28774442582033,2.28657859699034,2.28745694550895,2.28646152132469,2.2873874868978,2.28660356542656,2.28675670825666,2.28679250073744,2.28672199593165,2.28682094813096,2.28626494621449,2.28657553500133,2.2866212369515,2.28640367087956,2.28735097065017,2.28638443441328,2.28811094607453,2.2865265654142,2.28832323765745,2.2868959696738,2.28817443051002,2.2876486457455,2.28859242314029,2.28819809525578,2.28816450032858,2.28843470376965,2.28835602886881,2.28889001993612,2.28880019021724,2.28944359412074,2.2890527750339,2.29008262669837,2.28969370491843,2.29086301454631,2.29065214029238,2.29167314638448,2.29156583732471,2.29278088759787,2.29274343099367,2.29472623186223,2.2950680596007,2.3002134457717,2.35161078866759,2.35225733927485,2.35309935577539,2.35342857117102,2.35289871458592,2.35407215820492,2.35413266586149,2.35476056865229,2.35441761224284,2.35526803819882,2.35549559793069,2.35515814767702,2.35428557076872,2.35438972628072,2.35376184648505,2.35399556345686
2.30610382499245,2.30719494297902,2.30569975541104,2.30713454614177,2.30593682450138,2.30731520184223,2.30611630472999,2.30781670191476,2.30709131982559,2.30877355114301,2.30838756437983,2.30972315069242,2.30937967559509,2.31094335141013,2.31130807186621,2.31289734377083,2.31348164597475,2.31505685554469,2.31604064222207,2.31659173168098,2.31667155866833,2.31765194341967,2.31791120516581,2.31820667879993,2.3174980142177,2.31827888484468,2.31731741947283,2.31181758567097,2.28127082848451,2.27884843442583,2.2777963669386,2.2787149699661,2.27611500892712,2.27834782489663,2.27513395792846,2.27842443824275,2.27523355845329,2.27870082764915,2.27607212981603,2.2790597128569,2.27703892146029,2.27916182102793,2.27737002313759,2.27949247003562,2.27853297213922,2.28013354554081,2.27951678668379,2.28065944215018,2.28060699962954,2.28128020963136,2.28197268511495,2.28258686252947,2.28391769152199,2.28514242094905,2.28566611185626,2.29539196093223,2.3292736866836,2.32995253087888,2.33070035562906,2.33204382712841,2.33299284537344,2.3327930411466,2.33259330249558,2.33238654711089,2.33232092334562,2.330916046456,2.32889511393571,2.32834743455667,2.32658496743769,2.32657904234407,2.3257110173581,2.32557361317499,2.32453263138994,2.32467810415447,2.32400341569903,2.32408273817554,2.32346400263141,2.32395973375762,2.32375873585158,2.32436297942851,2.32434450781335,2.32516488423873,2.32545075635963,2.32636821342719,2.32680999408371,2.32779852324877,2.32850652745703,2.32936468705879,2.330087278692,2.33096309639806,2.33173071147473,2.332285956876,2.33225196365567,2.33275234453036,2.33173475703377,2.33236428143795,2.33162864884265,2.29246158935644,2.29156401296145,2.29135456580162,2.29084199080113,2.28993312560556,2.28968029635658,2.28919088012539,2.28886957866076,2.28897868635747,2.28810484724906,2.28883382453915,2.28766839487176,2.28860137407498,2.28759477215542,2.28822836735314,2.28734954257077,2.28784385119465,2.28724748107111,2.28761628638788,2.28670658226698,2.28756932422575,2.28635470448199,2.28738621977252,2.28559493668787,2.28713327339324,2.28597772238621,2.28699333859198,2.28658586300042,2.28674597687157,2.2867099500146,2.28650386374647,2.28668323825628,2.286412557781,2.28598822825079,2.28669220470898,2.28588811903041,2.28725725719712,2.28569330736039,2.287613557884,2.28574133053247,2.28777477491634,2.28667994624683,2.28809210696111,2.28793307180166,2.28829524143264,2.28813531386684,2.28844621607939,2.2885216375809,2.28883779969631,2.28899193061201,2.28927068702874,2.28936929492668,2.28987456968629,2.29030004865928,2.29052059086547,2.29094789255014,2.29121092429752,2.29179337720512,2.29281119733111,2.29408664672067,2.29518907834323,2.29505137519162,2.30447590095793,2.35113179570016,2.352194575139,2.35246293181969,2.35349640417542,2.35314088504485,2.35409805057013,2.35394065559462,2.35457821040636,2.35429827019658,2.35467152317854,2.35389959137335,2.35448063679679,2.35381416787714,2.35409850707812,2.3535715176066,2.35383755191348
2.30713835710533,2.30642815178458,2.30691049837278,2.30636389698716,2.30707793877539,2.30661212553494,2.30736399569782,2.30720882190762,2.30810289673396,2.30827176012983,2.30926965880284,2.30937247394511,2.30993437086914,2.31068248877835,2.3114405379981,2.31264388230073,2.31355379806884,2.31472059273033,2.31536937983083,2.316643970609,2.3177382877721,2.31795624309451,2.31774986425428,2.31835213506534,2.3176129889087,2.31826682161172,2.31798032073631,2.30565367207567,2.28035355092131,2.28000752124053,2.2792498697212,2.27768630784025,2.27912584997577,2.27708721109759,2.27916750396921,2.27697546823322,2.27912914907156,2.27730684299888,2.27931391120165,2.2778688746626,2.27942339229913,2.27829501144862,2.27921389946624,2.27888577636217,2.27982836978196,2.27963904304201,2.28011962126619,2.28040408235186,2.28080448237281,2.28141813611424,2.28169177619289,2.28304992943811,2.28328472761928,2.28587984889724,2.28602933535917,2.30199718397069,2.33040758766138,2.33116905035778,2.33226496046764,2.3328062787886,2.3324801602624,2.33297601952894,2.33238210006197,2.33227049850335,2.33120021438493,2.33086058615008,2.3298876536543,2.32817627389998,2.32586745787693,2.32601363301409,2.32543466660439,2.32528714531394,2.32478781213777,2.32458073977786,2.32402633881477,2.324028952105,2.32355734668737,2.32395357270608,2.32388681026096,2.32435098349275,2.32431525849026,2.32517331120838,2.32538655247823,2.32658509261032,2.32720908272682,2.3281027320227,2.32834520711459,2.32962586685464,2.33000163530745,2.33117563656272,2.33121938359714,2.33269054725892,2.33294567890367,2.33321434086772,2.33167911435364,2.33238122944636,2.33193982179402,2.29186073499736,2.29135576567753,2.29106253566564,2.29032345463371,2.28998738076779,2.28921761313405,2.28922824426773,2.28904874076493,2.28881116712367,2.28890701567679,2.28847232715406,2.28886906572729,2.28820702079684,2.28853673453916,2.28803144978503,2.28816865109796,2.28780954927967,2.28771147986925,2.28748963897598,2.28768347637579,2.28717463609626,2.28780568350335,2.28693028857096,2.28794292707098,2.28676432310957,2.28732798314337,2.28670944417005,2.28682444807805,2.28667674267951,2.28617570824958,2.28660372627692,2.28601635948534,2.28661858318173,2.28652145509785,2.28656863735298,2.28677547872412,2.28663683148574,2.28776604910407,2.28689419992441,2.2880638382396,2.28711967852368,2.28775303878229,2.28756739206363,2.28788076831663,2.28807004153935,2.28805722467723,2.28848165544465,2.28864262271627,2.288897395478,2.28892645393566,2.28948416891855,2.28980351181471,2.2902732846383,2.29060805470619,2.29081533087862,2.29083404148406,2.29157724098457,2.29227445702513,2.29342254642749,2.29389820178342,2.2960788462328,2.2956151850109,2.31257668506044,2.35132663972563,2.35248044036587,2.35342315212468,2.35403414153425,2.35351012925472,2.35451343220614,2.35434326978094,2.35484552595005,2.35433485807721,2.35483113987339,2.35436156275385,2.35466593092817,2.35412699338708,2.35421268505306,2.35341282857029,2.35399844448666
2.30670625691044,2.30700230363625,2.30641348043045,2.306919483077,2.30651811764742,2.30713823660137,2.30692911781863,2.30770658231317,2.30778549362282,2.30867129665589,2.30896287984821,2.30974756179046,2.31010605502041,2.31100385375697,2.31165199358909,2.3127874543432,2.31370077514834,2.31475124801747,2.31557355609902,2.31663446483209,2.31751108748944,2.31816556363156,2.31849593813176,2.31875317161529,2.31840939308293,2.31832861275981,2.31792450591774,2.30208155421981,2.28068711066781,2.28005203233156,2.27858459685476,2.27826068893405,2.27741341487012,2.27787254870852,2.27722032549782,2.27815126874402,2.27745671230003,2.27843026030095,2.27790884783234,2.27865561050385,2.27837688080629,2.27882397871845,2.27886065319364,2.27922260795853,2.27960642860065,2.2797827169406,2.28017447604333,2.28039473096588,2.28101480468231,2.28126668719034,2.28234031965985,2.28319578949968,2.28496684617268,2.28658314123149,2.28726006518822,2.3077292397622,2.33097250263243,2.33173533291205,2.33260941660304,2.33324915724756,2.3331493345549,2.33327011060885,2.33287478487542,2.33241977789697,2.33159339956899,2.33096172801958,2.32992992337044,2.32833907060279,2.32651432640741,2.32605110507011,2.32542518939833,2.32526303104698,2.3248296137533,2.32468766836847,2.32430539783873,2.32423225452703,2.3239432664932,2.3241438375717,2.32412845831344,2.32452768546166,2.32471388436411,2.32543412598951,2.32595390020524,2.32684398565009,2.32752289601189,2.32835810241987,2.32901470213148,2.32995277434508,2.33070493422022,2.33156198887602,2.33219155258399,2.33310762678998,2.33356317864977,2.33370225709503,2.33292550794011,2.33266776028568,2.31868577281707,2.29409971381434,2.2911524110672,2.29084545312413,2.29028032695961,2.29007141056977,2.28941957820149,2.2894701351569,2.2889651188938,2.28927016757913,2.28884104729606,2.28903587576248,2.28840861919349,2.28865257837466,2.28808993192594,2.28839114706336,2.2879284414524,2.28813548257758,2.28762923969824,2.28788698351368,2.28731674238053,2.28770475051848,2.28696388938243,2.2875266811201,2.28678210594999,2.28732367576167,2.28666576792968,2.28708962859766,2.28664937679717,2.28686019123063,2.28660265446694,2.28669668853339,2.28663561587679,2.28671112437932,2.28679661356067,2.28684098191639,2.28680427920769,2.28705067733754,2.28693000990786,2.28733217550938,2.2871555943357,2.28754278031553,2.28736238815522,2.28784236276066,2.28784242264532,2.28832090484942,2.28831555187388,2.28880205458138,2.28867308620589,2.28928446647299,2.28910982932804,2.28999715902756,2.28999478671099,2.29069540306517,2.2904729959415,2.29108594172345,2.29091842107372,2.29184115657391,2.29246587119003,2.29404712584145,2.29529662991049,2.29730864052426,2.29750706329004,2.32237743539506,2.35122482704397,2.35252532349212,2.35382252127973,2.3544324548828,2.35441262335656,2.35494726412926,2.35499186299801,2.35521070970822,2.35501694790739,2.35514221186519,2.35494651143415,2.35491715419059,2.35457750252845,2.35447104994433,2.35406962002406,2.35424576447542
2.30714769026086,2.30633014630921,2.30694997692252,2.30630175528195,2.30689289669742,2.30657201631278,2.30714754117478,2.30721318940307,2.30788521691763,2.30825119377543,2.3088885166814,2.30944305203699,2.30990765035406,2.31077607232875,2.31104160152089,2.31257438140593,2.31306510537709,2.31452187620537,2.31480407528522,2.31630940697976,2.3166433832193,2.31789260640466,2.31793488258098,2.31836763184182,2.31727906946992,2.31794404490162,2.31768126152125,2.29805990535083,2.27988065428138,2.27937322241127,2.2784638279468,2.27755517394605,2.27801847866097,2.27711851403754,2.27865212979458,2.27742321954851,2.27891083951,2.27781136121977,2.27877526121059,2.27825026211055,2.27818857916406,2.27875369151604,2.27799016885137,2.27942712418247,2.27837252176603,2.28007416658555,2.27873384495845,2.28074793645277,2.27961574516087,2.28168392619385,2.28094207279914,2.28354198042001,2.28377835918902,2.28640245852676,2.28606833274464,2.31174231306432,2.33128132189603,2.33197750781526,2.3324783943422,2.3330412731752,2.33247620403344,2.3329111539321,2.33261283380244,2.33209048994637,2.33118116063655,2.33067817138748,2.33005049448583,2.32793936928434,2.32542332501096,2.32545158322507,2.32462636295853,2.32473603244741,2.32424121848629,2.32428714028523,2.32389376037202,2.32391414252128,2.32343539930468,2.32381246847014,2.32355456467903,2.32417644183335,2.32416692342809,2.32516945109536,2.32567987669156,2.32662750450746,2.32710239633765,2.32815159394053,2.32870338753414,2.32983208735211,2.33048539585573,2.33139761188846,2.331797774987,2.33271889200453,2.33294717025617,2.3330853073269,2.33240503065381,2.33116837460071,2.29426762605757,2.29208632667486,2.2922222271469,2.29075897193056,2.29124295301871,2.2896118597579,2.29035091376307,2.28890457746924,2.2896759933004,2.28875627331096,2.29003499444278,2.28855402908097,2.28907392148032,2.28804589669391,2.28857969213344,2.28782493274529,2.2884691248593,2.2875883420736,2.28831681428028,2.28723073175287,2.28836045705596,2.28687091452006,2.2881793750116,2.28655184011425,2.28790218418958,2.28643511232328,2.28764551958212,2.28641775224428,2.28717518296568,2.28645026696563,2.28672883535445,2.28655947270392,2.28632811746629,2.28669631853389,2.28624630376872,2.28688064943605,2.28643352896535,2.2869529024534,2.28643561369774,2.28701270339477,2.28693834442259,2.28719760543696,2.28721119646993,2.2875199017242,2.28787404785426,2.28799777121155,2.28891999572727,2.28832864035588,2.28950738248366,2.28863735936502,2.290307956607,2.28936266433936,2.29170184527357,2.28999678376306,2.29163761600161,2.29039653496141,2.29194431101006,2.29125994993931,2.29317086094053,2.29344163803123,2.29499065070234,2.29677964712754,2.296707146479,2.33120255832991,2.3496975961494,2.35213561641808,2.35408719084113,2.35408170130272,2.35342088898753,2.35455109966505,2.35434418591996,2.35497722001575,2.35444280025864,2.35489960316295,2.3544980188695,2.35463375630255,2.3539640996967,2.35417663696374,2.3533507050042,2.35390081813735
2.30545629383169,2.30668833985523,2.30519972557546,2.3066974413044,2.30572226400962,2.30694824344344,2.30613576988955,2.30742592254957,2.30705176728411,2.30828122426542,2.30827394192469,2.30931646308388,2.30956992058723,2.31064266320444,2.31137383069731,2.31246770146725,2.31365150267439,2.31435468045848,2.31528045930795,2.31601492735358,2.31683633281079,2.31744893223618,2.31796563941361,2.31781728351689,2.31702407973683,2.31722781970893,2.31703307918686,2.29386089432668,2.27865937883559,2.27870752991886,2.27722765852801,2.27750210322547,2.27608093018409,2.27758203664514,2.27637946987909,2.27809370287689,2.27655577254771,2.27836245280519,2.27757212510453,2.27832755811262,2.27840747654033,2.27822937690459,2.27960519160278,2.27841521853327,2.28035627269012,2.27898188592086,2.28146463017881,2.27983217683799,2.28226855656406,2.28085496137301,2.28329308333025,2.28270883141412,2.28491856018464,2.28577002098857,2.28645194254592,2.31494429807818,2.33104779729801,2.33230198726144,2.33273403070884,2.33312787096108,2.33220382962089,2.3326754014767,2.33169082362452,2.33173896521592,2.33077205996459,2.33014768546697,2.32873941325483,2.32759286465389,2.32556965483714,2.32537230996261,2.32452168755838,2.32448141133573,2.32390563952939,2.3239753627774,2.32342230902944,2.32374106950398,2.32349896404139,2.32379663415205,2.32352272525272,2.32417908345051,2.32418605632353,2.32512880623913,2.32536763942982,2.32657324532216,2.32711466071175,2.32805211202946,2.32826031305551,2.32970764226928,2.33040227506134,2.33114167464068,2.33106480466817,2.33205007333852,2.33162874421807,2.33230371995723,2.33174739184671,2.32909696529785,2.29358191522949,2.29350391076794,2.29186450664355,2.29138841811044,2.2891251670291,2.2902642475552,2.28795184491508,2.28954675665296,2.2874622907274,2.28915089501052,2.2873290424009,2.28888833637422,2.2871711839917,2.28855659964124,2.28693553575911,2.28853687116002,2.28727724469878,2.28834441674134,2.28614454095199,2.28799739736657,2.28574793633452,2.28788521754924,2.28522115525229,2.28777542850825,2.28524854930716,2.28757114062827,2.28527440281424,2.28718264484192,2.28540664332256,2.28691157415313,2.28605202458558,2.28685379085009,2.28693173482447,2.28661203258026,2.28663146677705,2.28653210943553,2.28712889450499,2.2867076989724,2.28693577552029,2.28686125849369,2.28696117837922,2.28715523498793,2.28690710488137,2.28767939612216,2.2874155124664,2.28833079863376,2.28726697255856,2.28895825396449,2.28731717868253,2.2896781398636,2.28748183553186,2.29047052841862,2.28795435967327,2.29114041823589,2.2886054779903,2.29186235184597,2.29014035584785,2.29248937282973,2.29086531495009,2.29414323517458,2.294540153954,2.29704497478762,2.29707616697598,2.33825791597823,2.35137441620717,2.3519112662258,2.35206973083035,2.35330118550435,2.35304173027376,2.35444331337417,2.35491153687225,2.3550628778724,2.35459070800089,2.35475251812649,2.35417989525534,2.35442855604966,2.35387817736606,2.35422956674197,2.35386913140092,2.35407920933999
2.30682138751277,2.30589053273078,2.30669846851542,2.30602938757847,2.30684930279417,2.3064082262426,2.30706367151307,2.30704587563962,2.30777922509046,2.30804382084136,2.30865589574064,2.30925574014833,2.30966180214783,2.31085571156511,2.31147298944622,2.31277643499398,2.31320498177656,2.3146569192361,2.31501413313091,2.31629319421246,2.31638658521413,2.31748163461943,2.31696860806525,2.31779003481396,2.31668792612958,2.31688596910309,2.31652253425945,2.28612343810609,2.27906202344494,2.27828883388525,2.27763437218411,2.27703931548027,2.27759402733535,2.27674266701965,2.27774147317192,2.27699523891425,2.27844872834413,2.27758112915908,2.27840071470049,2.27824849397564,2.27789666453717,2.27903029445268,2.27767737700945,2.27974220955911,2.27762907573594,2.28039315674267,2.27829593367146,2.2811199608954,2.27921582113424,2.28220606935488,2.281414299221,2.28393054961362,2.28347288422455,2.28647880361169,2.28641964915771,2.31851817342685,2.33316914371009,2.33297430520256,2.33330350211703,2.33339134858314,2.3330887613431,2.33291547247235,2.33237989335357,2.33165854416474,2.33072548306742,2.329784455172,2.32855753360732,2.32758011040688,2.3261404153914,2.32545169519135,2.32412136579901,2.32431447777606,2.3238594648328,2.32386152027925,2.32342873577845,2.32368012660965,2.32354384598867,2.32383774113653,2.32389485591448,2.32423613467626,2.3242536540649,2.32515135830007,2.32557675898813,2.32655540712463,2.32707010883192,2.32811537263729,2.32876491717208,2.32981795737878,2.33051404809808,2.33111227313702,2.33108573971338,2.33191183203398,2.33158784674255,2.33203777336378,2.33161800150797,2.32801838619263,2.29292763620947,2.29266086439808,2.2927807158981,2.29062128463922,2.29105277302506,2.28913624177845,2.29038249449188,2.28847866725663,2.2894437087119,2.28818105212304,2.28937278404882,2.28815281291058,2.28921389828211,2.28785325673979,2.28868894387687,2.28766335561075,2.28905840817714,2.28739165523119,2.28864866527706,2.28686804419462,2.28869866603969,2.28646506986558,2.28851044491647,2.28628544666515,2.28868730030325,2.2862280884101,2.2880880364629,2.28618712781237,2.28760984028532,2.28626372519206,2.28691954619212,2.28642377689335,2.28644826688724,2.28662420477871,2.28612061156658,2.2870476570629,2.28678527870204,2.28728417871899,2.28671472020074,2.28710937757281,2.28671768455302,2.28720046137746,2.28741057633989,2.28757977670621,2.28823522926501,2.28781030320621,2.28898478601245,2.28796345253027,2.28988859093659,2.28834294392031,2.2910204167794,2.28895005243779,2.29194791840277,2.28957061379892,2.29228344876468,2.29043651389092,2.29345903695976,2.29126122897951,2.29320145974325,2.29293688377655,2.29463489014247,2.29621710699677,2.29639470674633,2.34365150197576,2.35118167382563,2.35173573446221,2.35201397430789,2.35316423603069,2.35290150344937,2.35453570353142,2.35522733989401,2.35522480420113,2.35453739806672,2.35485937600943,2.35434025352724,2.35453503400489,2.35398170787685,2.35448193721927,2.35453123981855,2.35426726037332
2.30557908893095,2.30650347315145,2.3054687855632,2.30666875920752,2.30604676360248,2.30699815798986,2.3064598113243,2.30747749248609,2.30727875627742,2.30831453908324,2.3083151749579,2.30949012812207,2.30994989867814,2.31103137300512,2.31171372240104,2.31283900233591,2.31375336492506,2.31471904858742,2.31557044317381,2.31633528187847,2.31685126206505,2.3174957210629,2.31742204363956,2.31798978301362,2.31753220849406,2.31675408291307,2.28009511196103,2.27834890319961,2.27841183643582,2.27808652232321,2.27752732345851,2.27729951230346,2.27678668236358,2.27731750281353,2.27654392174409,2.27765392686305,2.27695633955581,2.27795942951793,2.27761715110218,2.27815297177633,2.27881520639835,2.27840414731057,2.27987250403422,2.27875345476571,2.28069241514275,2.27933660176094,2.2813542352281,2.28010129773522,2.28206284320009,2.2811242691189,2.28313945256235,2.28319746163026,2.28540884674566,2.28669645675273,2.28746675860921,2.32250769797803,2.33285282851324,2.3329763883506,2.33294842593871,2.33358314776494,2.33292479562975,2.33330073318767,2.33275514001242,2.3316858370358,2.32973516209838,2.32955990834922,2.32830924134668,2.3278294216157,2.32683051558136,2.3259391750203,2.32470341945638,2.32453628114294,2.32373791768068,2.32390557628785,2.32341870905362,2.3237515785266,2.32348087717399,2.32393410126225,2.3237622116256,2.32451828423426,2.32478299189739,2.32559008089074,2.32592451972089,2.32692459255564,2.32724894510805,2.32842822223075,2.32884667793935,2.3300533797905,2.33046059923543,2.33132788683205,2.33111090658712,2.33221990380287,2.3317359156213,2.33208414816159,2.33115766693455,2.32759359367879,2.29287853199367,2.29319513448092,2.29119108742567,2.29114067429604,2.28910893717294,2.29000195304369,2.28862777599893,2.28947074658275,2.28797034946328,2.2890085245303,2.28786866208924,2.2888491890887,2.28782068151567,2.28866530797995,2.28740005127932,2.28851106449982,2.28705283960368,2.28833982058523,2.28655732144511,2.28800507639179,2.28583405748891,2.28780151195717,2.2857006193758,2.2876607706755,2.28541690003161,2.28733598053143,2.28529990697604,2.2870248018019,2.28557827211119,2.28684468732375,2.28583204129986,2.2866940572909,2.28614611430639,2.28659158460014,2.28653219583591,2.28679704461831,2.28720381685626,2.28699392035744,2.28690028678803,2.28711972653429,2.28705377774469,2.28751145866132,2.28726190226892,2.28803313736675,2.28761340867544,2.28832344304585,2.28693701918947,2.2887929245026,2.28755871936753,2.28955734777257,2.28760827625209,2.29037573647243,2.28856787928795,2.29123856581651,2.28928877647561,2.2920356058879,2.29066124188437,2.29271609387124,2.29166744357474,2.29423567725852,2.29392948738545,2.29717578861819,2.29696340258001,2.34706627235489,2.34972114856835,2.35146983521228,2.3523157470934,2.35351482020247,2.35336528163984,2.3547245991229,2.35478675246842,2.35537125767858,2.3549977446743,2.35515124991279,2.35451544778086,2.35475865785347,2.35418221700705,2.3546033386693,2.35420755769266,2.35440778817551
2.30639962678628,2.30634246145551,2.3065480822979,2.30668714757679,2.30701339377348,2.30703625168639,2.30719053170591,2.30749279039695,2.30792019231654,2.30840784023088,2.30898036569849,2.30968067720496,2.31042903082241,2.31129927559526,2.31213028378163,2.31313997688579,2.31400902920802,2.31506754531949,2.31586899045006,2.31672430112126,2.31718293028078,2.31795337047116,2.31808856258688,2.31859428446075,2.31832540255714,2.31606704731177,2.28023409266123,2.27982509647542,2.27842282741214,2.27768574960926,2.27721636488692,2.27724683932445,2.27707884272887,2.27730466325852,2.2772472153254,2.27760711625107,2.27768692324927,2.27794289474122,2.2777494268023,2.27837281412006,2.27815075528436,2.27899745693569,2.27848536031161,2.27966280197223,2.27913951526399,2.28042886059213,2.27990988441773,2.28116617303207,2.28079205045798,2.28199826357419,2.28215154053532,2.28391136139339,2.28506997338766,2.28738791008086,2.28798954064823,2.32586885838846,2.33236277987186,2.33282020070266,2.33330048937681,2.33376296716891,2.33361168599976,2.33344024050561,2.33284208953421,2.3317250559276,2.33037891077282,2.32970008424749,2.32883117818511,2.32798412926069,2.32696470641842,2.32622201818215,2.32542168398715,2.32488808017303,2.32429036328877,2.32412115019713,2.32383350734178,2.32392111181428,2.32384716971987,2.32408989255883,2.32419379042216,2.32464456845051,2.32501665455987,2.32579079804894,2.32647342881376,2.32724164720414,2.327874116335,2.32880166083393,2.32957148079734,2.3304037261533,2.3310450230359,2.33176178699844,2.33216008121778,2.33292568207897,2.33291306520505,2.33236754989756,2.33131732832639,2.32681410021099,2.2940453802929,2.29353517527966,2.29213412030684,2.29090721108774,2.29025315109025,2.28966675110567,2.28954352391448,2.28921323114385,2.2890500773351,2.28888813045173,2.288761223463,2.28872081563608,2.28873040928208,2.28849733682279,2.28865421906501,2.28819180377575,2.28857073778888,2.28785576065309,2.28832617504929,2.287437071028,2.2879845974566,2.28716811545848,2.28785350379479,2.28702292579852,2.2875652051387,2.28679721716178,2.2872066023208,2.28660740967766,2.28694769177404,2.28663266784838,2.28697366437592,2.28674627988771,2.2868929382098,2.28686328144301,2.28693479566799,2.28711922423333,2.28718686605272,2.28726729548095,2.28730757857257,2.28733686686742,2.28764478478551,2.28759549628304,2.28809011183574,2.28795491035365,2.28847873338364,2.28813062458256,2.28856909995975,2.28844793992482,2.28931589335709,2.28900553126803,2.28992081671537,2.28967700401279,2.29090709653738,2.29052863349864,2.29173082072764,2.29128085196596,2.29237478740793,2.29214806658503,2.29350030154746,2.29440907005465,2.29619537887518,2.29782724361548,2.29850315917259,2.34830565476647,2.35057294854773,2.35185500189139,2.35307829849768,2.3541798377342,2.35451063010475,2.35523687848703,2.35534455512534,2.35571262126607,2.35557284980539,2.35553047106601,2.35511539588379,2.35509324406026,2.35477449648272,2.3548313303942,2.3545781608188,2.35470609680276
2.30538259848338,2.30616088251623,2.30611717940752,2.30660638877789,2.30698109731569,2.30691316150316,2.30659709186975,2.30731976596016,2.30732314903803,2.30834977243667,2.30836651520347,2.30967842861547,2.30978391359412,2.31130418370638,2.31158240400451,2.31311484339096,2.31347295662121,2.31505987128113,2.31559578973785,2.31658752292696,2.31650146832308,2.31754656587736,2.31725280928176,2.31825414222834,2.31835505693672,2.31473192612249,2.28009020459329,2.27917014228597,2.2785591464071,2.27732233108405,2.27766995207128,2.27684431484168,2.27779803402609,2.27691248011303,2.27775957095904,2.27716703469583,2.27849795139747,2.27738482066106,2.27823763679298,2.27759390415973,2.27929459284134,2.27800680469444,2.27991875385886,2.27852771260686,2.28109047838516,2.27937243724368,2.28189816600047,2.28032577516683,2.2825744760549,2.28136350885316,2.28320396910577,2.28315794046881,2.28444606882972,2.28633431856996,2.28658164179783,2.32780526775736,2.3319109288585,2.33266733326135,2.3327411325824,2.33349032714012,2.33279627120031,2.33312922218699,2.33224085805613,2.33141090934627,2.32941464260608,2.32950276089031,2.32853657787552,2.32776747197393,2.32612778399312,2.3259953754391,2.32525247993999,2.32471824850809,2.32383681995652,2.32385928212207,2.32329990479497,2.32366705905745,2.32328479257392,2.323835279547,2.32358832451611,2.32434134615459,2.32406519254758,2.32559973205125,2.32608853782521,2.32720885221222,2.327342621927,2.32881810098027,2.32939114762594,2.33035402663165,2.3306189584517,2.33158703169814,2.33152352813793,2.33293641461967,2.33318033792685,2.33233335345187,2.33051360348274,2.32504894975841,2.29292057035142,2.29292555545755,2.2914414813177,2.29073523998423,2.29023159896715,2.28959662896465,2.28938309694014,2.28899560602504,2.28914343590978,2.28863054414235,2.28879698805347,2.28854320242715,2.28850838731192,2.28860052791561,2.28776166999231,2.28863555390317,2.28693615543762,2.28857157253443,2.28619037711412,2.28827739734991,2.28578591439154,2.28801281484509,2.2858814929329,2.28780089707928,2.28591497956099,2.28744820755769,2.28582111759433,2.28708853610964,2.2855440314374,2.28703745686609,2.28614541130655,2.28709926330404,2.28627203635983,2.2870948123261,2.28656017940152,2.28725060577346,2.28669231769033,2.28744291856221,2.28657161319904,2.28771049925756,2.2864267169265,2.28810096909955,2.28672646211592,2.28847314959224,2.28707289956598,2.28864428520641,2.2871663169411,2.28900772467198,2.2878538321451,2.2896861227889,2.28801960213058,2.29048051823129,2.28878704129683,2.29143700141583,2.28981360894595,2.2921038945605,2.29044966339766,2.29276926322742,2.29210944459906,2.294692963698,2.29505025503106,2.29746095821039,2.29779051678242,2.34862762440514,2.35042373120025,2.3520336907141,2.35330074676678,2.35419940261142,2.35405773389283,2.35495138037634,2.35461507719404,2.35539953042647,2.35516177956842,2.35520585984167,2.35445701648951,2.35466910120356,2.35412726038217,2.35435832716814,2.35372212100059,2.35434614975642
2.30616042824805,2.30599409854185,2.30545686172256,2.30612914912411,2.30602129522751,2.30658359158439,2.30657264389638,2.30712295181696,2.30746620384413,2.30815668984592,2.30903622634812,2.30948636713925,2.31043996720073,2.3111344909865,2.3124116054548,2.31298150471842,2.31386871335292,2.31503601354438,2.316304559788,2.31663353179963,2.31670870153799,2.31746968318736,2.3174682930037,2.3177947695373,2.31720115502688,2.3110863160557,2.27939937241368,2.27920281276141,2.27731643787306,2.27778426685801,2.27619720144473,2.27766992754138,2.27653638858328,2.27782129548705,2.2758900686085,2.2778909965524,2.27621584591168,2.27825144559623,2.27643835060134,2.27866782586164,2.27654169983527,2.27919482879565,2.27668051812857,2.27974427871471,2.2769100782444,2.28054138265804,2.27817384120402,2.28143826055029,2.27954895503936,2.28221262967545,2.28133870310917,2.28361272351099,2.28367458533855,2.2861653435699,2.28668817153774,2.32887588357441,2.33221278264707,2.33275524382103,2.33296987065749,2.33323910318508,2.33308735380157,2.33270853739491,2.33212352907761,2.33120932309637,2.33041912638429,2.32948941613204,2.32884875374719,2.32769463079483,2.32658136468075,2.32576964383585,2.32460597342201,2.32436524615157,2.32355777776972,2.32368230430328,2.32334867101919,2.32364907749479,2.32361680350531,2.32379671578444,2.32367232581158,2.32437763618734,2.32495392526245,2.32565582639693,2.32634877330191,2.32730114630113,2.32844038735755,2.32887246279462,2.32944758133353,2.33014984504125,2.33057299051051,2.33144110962855,2.33190152949614,2.33277326970139,2.33289918754233,2.33218793263446,2.33060069560697,2.32295400124509,2.29265364346082,2.29285247479425,2.29127767225407,2.29094028302398,2.28994273637318,2.28994595049772,2.28855056520031,2.28938029690089,2.28798627054878,2.28914240061214,2.28802440325657,2.28890886147549,2.28823842574481,2.28835742747734,2.28870719889538,2.28772515106256,2.28935280045265,2.28730055032686,2.28988352467137,2.28687215925032,2.28922167291566,2.28669265186964,2.28913058668465,2.28672158127314,2.28849864116894,2.28650971991714,2.28779843290304,2.28636041184718,2.28764936913616,2.28641956820889,2.28757512412518,2.28650338422378,2.28728416683626,2.28667391837231,2.28740819695094,2.2869553003611,2.28788468981807,2.28701625891142,2.28790810648337,2.28704551925991,2.28890454099537,2.28714433573735,2.28907977547514,2.28737454899067,2.28936485507101,2.28772122269526,2.28940397252239,2.28814634008468,2.28997153907635,2.28887464282832,2.29124094934475,2.28951401769108,2.29204664748843,2.29018654623681,2.29299897971569,2.29106426853691,2.29350964350225,2.29214573633749,2.29402197690177,2.29436872502274,2.29580772049285,2.29709859963104,2.29815923876053,2.34979297643405,2.35089913225312,2.35255143911171,2.35367371114303,2.35433760286305,2.3542423699438,2.35498808785488,2.35480798190717,2.3553363033496,2.35507983805742,2.35494084929991,2.35399134530551,2.35426491879205,2.35354034354764,2.35402768684526,2.35355181352349,2.35415058367802
2.30611237922226,2.30603307163807,2.30566859965055,2.30589879978361,2.30597334337683,2.30630504453091,2.30632507863377,2.30711335304058,2.30737141325851,2.30843154487748,2.308623397506,2.30987978961806,2.3099267394435,2.31154059344553,2.31179540543674,2.31351762066481,2.3140202843309,2.31556954402317,2.31617978697639,2.317050639386,2.31703373395071,2.3175750603556,2.31681418420625,2.31756141177069,2.3174266339353,2.30494110802913,2.27905070289181,2.27870207843253,2.27828846552345,2.27704706928849,2.27802734274117,2.27670473937789,2.278296303699,2.27671200510337,2.27821070039429,2.27668394092432,2.27848322428437,2.27704697509591,2.27924146264427,2.27744911857478,2.27963628148139,2.27772982139115,2.28032194983678,2.2780545045705,2.28080296442611,2.27877870869222,2.28178298324422,2.27992541798073,2.28252290487104,2.28112622906142,2.2830427688036,2.28323304219897,2.28501014997945,2.28611425575754,2.28717358328332,2.33026062350355,2.33275903682301,2.33312715765847,2.33252960719449,2.33329786575387,2.33260560394571,2.33264971618921,2.33147236495945,2.33111249121368,2.32959156626432,2.32931905543371,2.3279316894551,2.32757647694475,2.32643136922616,2.32576358194242,2.32462009020294,2.32435643597684,2.32355288131913,2.32369896530727,2.32325444648038,2.32371508171297,2.32373437469925,2.32389487078061,2.32350832437775,2.32450286138293,2.32470260249245,2.32580410358743,2.32607610688021,2.32735516147716,2.32775742442299,2.32892105459021,2.32916139596226,2.33028842134185,2.33053478049144,2.33154215259838,2.33161371849952,2.3327202789268,2.3326121953731,2.33242711265858,2.33201287527106,2.3212217274419,2.29417389447217,2.29300553345854,2.29160781070603,2.29053897587224,2.29048500424135,2.28960893797894,2.29060949144073,2.28894589474926,2.28956279225618,2.28843777301791,2.28949825398513,2.28841061206244,2.28872328955605,2.28847961974092,2.28753606832027,2.28867195995393,2.28657054294882,2.2888160702342,2.28591658094619,2.28859590184599,2.28546192192026,2.288311732127,2.2858251105503,2.28802310514783,2.28572720300202,2.28761855224395,2.2858462017279,2.28738188485829,2.28586921238224,2.28723314479556,2.28582092464514,2.28713758842362,2.28608488376146,2.28717985458427,2.28647027703934,2.28721544510764,2.28619342458362,2.28760222304754,2.28686208260239,2.28815873798034,2.28629559525643,2.2883784862923,2.28618032260442,2.28864540523781,2.2867154303907,2.28886818261847,2.28718067138193,2.2891819603299,2.28763053440696,2.29014877878791,2.28875968980277,2.29103823096252,2.28876927496335,2.29175290462722,2.2901166229382,2.29265903970218,2.2914185997956,2.29355372157411,2.29277834216842,2.29508098483447,2.29455958597882,2.30908519307586,2.35336315167699,2.35141141585233,2.35207540071948,2.35273490653318,2.35296042248269,2.35422214435105,2.35430298484148,2.35508495895719,2.35499917471579,2.35535452937557,2.3550632207555,2.35483798944384,2.35383307365377,2.3542399481144,2.35364750972719,2.35407638792803,2.35358513906453,2.35421574171485
2.30657741239875,2.30614183815111,2.30525584864056,2.30597463382106,2.30581969179551,2.30646434965598,2.30635879333843,2.30721417839477,2.30752582352505,2.30844449447527,2.30917816089966,2.30987751510911,2.31067136601338,2.31157258122275,2.31256761047614,2.31365658455617,2.31486092175411,2.31569474178058,2.31648866773831,2.31729064925455,2.31763438314789,2.31798576208238,2.31739102388211,2.31774899785392,2.3173823657539,2.29754802273639,2.2784071523287,2.2790272315947,2.27738048396493,2.27759342627336,2.27636546497888,2.27740601875173,2.27626614418064,2.27767683966785,2.27631363595938,2.2777312497433,2.27583966210232,2.27806848099981,2.27678185210218,2.27864431165885,2.2770831057818,2.27907712610759,2.27740707963807,2.27943711027513,2.27739200085408,2.28013187391398,2.27881379055595,2.28112419310393,2.28015930170583,2.28206253467338,2.28174573640215,2.283955640297,2.2847741214868,2.28646795502708,2.28762631022147,2.33179575125312,2.33322562825956,2.33360727527859,2.33299256773833,2.33341117869306,2.33268049467083,2.33258058243553,2.33171390153611,2.33113363314829,2.33013714783605,2.3293845588744,2.3283699944063,2.32752933524523,2.32630425395772,2.32565720235285,2.32442260970146,2.32441265330796,2.32383413198285,2.32388038537758,2.32344763425309,2.32378322680855,2.32356381688258,2.32402012273731,2.32396435936304,2.32477300104751,2.32520993600855,2.32599903787217,2.32636733640357,2.32741789664872,2.32793638208094,2.3290093388101,2.32958794989622,2.33045266652396,2.33087468877179,2.33166079988574,2.33168402203626,2.332701880239,2.33250107289108,2.33218241023177,2.33070253281371,2.32002059775109,2.2932147609931,2.29326018371094,2.29148722649003,2.29100883947223,2.28959544442983,2.28988475231289,2.28850560672263,2.2893596688782,2.28780005987803,2.28908332321274,2.28777377181169,2.28890808380009,2.28808655834368,2.28854844783355,2.28879553105592,2.28807159046951,2.28917550168154,2.28760642081053,2.28933451244519,2.28718566576991,2.28881707315839,2.28700568044654,2.28855797127848,2.28699694886136,2.28806266435875,2.28685197515234,2.2876436536503,2.28673085119565,2.28739506560225,2.28669480818914,2.28730627870413,2.28669579945451,2.28709791004747,2.28680767131489,2.28717480716468,2.28683883847368,2.28699248242311,2.28704625472077,2.28798361456678,2.28737641832432,2.2885930034955,2.28746037802232,2.28882343370394,2.28779228902414,2.28938516572433,2.28816654604148,2.28909866677764,2.28864051288065,2.28996971092147,2.28968510078738,2.29178270242594,2.29023248366138,2.2915020977707,2.29033911982181,2.29187737311005,2.2912010996478,2.29326825127715,2.29286299485779,2.29411973950002,2.29550021649618,2.29526987542432,2.31760398056249,2.35100517049277,2.35134266888226,2.35173799480287,2.35309042125764,2.3532921146333,2.35460640490726,2.35455087274521,2.35547554147407,2.35553084599158,2.35548143967914,2.3546007158728,2.35497681404196,2.35444680660352,2.35469312898676,2.35425083201069,2.35453531161307,2.35416810733223,2.35474740011103
