2.2758615320589,2.27649066447013,2.27743935620135,2.27803852992633,2.27769899814884,2.27959638161129,2.2807447979175,2.28380058391492,2.27978611995753,2.27959638161129,2.28052510088501,2.28060499071501,2.28142386147249,2.28220278731496,2.28291180955619,2.28350099705242,2.28292179578494,2.28357090065367,2.2844596750124,2.28472930318864,2.28473928941739,2.28589769195236,2.28571793983486,2.28540836674362,2.28694624597107,2.2861074027561,2.2860474853836,2.27896724920006,2.27979610618628,2.27810843352758,2.27801855746883,2.28005574813377,2.28436979895365,2.28568798114861,2.28991215590974,2.2912702830197,2.29229886458092,2.29222896097967,2.29234879572467,2.2930777904234,2.29219900229342,2.29300788682215,2.29213908492092,2.29294796944965,2.29332744614214,2.29419624804336,2.29364700546213,2.29379679889338,2.2945457660496,2.29498516011459,2.29541456795083,2.29587393447332,2.29665286031579,2.29640320459705,2.29661291540079,2.29674273637454,2.29981849482945,2.29782124907951,2.29833054674574,2.29834053297449,2.29832056051699,2.29913943127447,2.29950892173821,2.29875995458198,2.29855024377824,2.30014804037819,2.30077717278942,2.30049755838443,2.30196553401064,2.30110671833816,2.30364322044059,2.30343350963685,2.30219521727188,2.30296415688561,2.3034434958656,2.30337359226435,2.30387290370183,2.30466181577306,2.3050712511518,2.30492145772055,2.30504129246555,2.30527097572679,2.30602992911177,2.30703853821549,2.30628957105926,2.306619116608,2.30695864838549,2.30725823524798,2.30772758799922,2.30820692697921,2.30847655515545,2.30961498523292,2.31226133585159,2.31093316742788,2.31060362187914,2.31038392484664,2.3118019693291,2.31071347039538,2.31050375959164,2.31281057843282,2.31270072991658,2.31342972461531,2.31234122568159,2.31387910490904,2.31422862291528,2.31396898096779,2.31786361018018,2.31503750744401,2.31622586866522,2.31677511124646,2.31681505616146,2.31750410594519,2.32074963028884,2.31844281144766,2.31996071821762,2.31899205402889,2.31930162712013,2.32101925846509,2.32078957520384,2.31988082838762,2.32080954766134,2.32114907943883,2.32130885909883,2.32178819807881,2.32231746820255,2.32369556777001,2.32295658684253,2.32356574679626,2.32393523726,2.32611223512744,2.32435465886749,2.32447449361249,2.32541319911496,2.32686120228367,2.32696106457116,2.32685121605492,2.32665149147992,2.32730059634865,2.32914804866735,2.32861877854361,2.3290182276936,2.32984708467983,2.33000686433982,2.33108537704479,2.33021657514357,2.33144488127978,2.33815562699959,2.33231368318101,2.33231368318101,2.33329233359848,2.33516974460342,2.3344008049897,2.33454061219219,2.33473035053844,2.33502993740093,2.33497002002843,2.3360685051909,2.33595865667465,2.34006299669078,2.33849515877708,2.33985328588704,2.33889460792707,2.3396036301683,2.34084192253326,2.34088186744826,2.34077201893201,2.34185053163698,2.34041251469702,2.34725308139057,2.34271933353821,2.34385776361567,2.34434708882441,2.35007918412674,2.34542560152938,2.34789220003055,2.34896072650677
2.27497275770017,2.2756018901114,2.27637082972513,2.2775292322601,2.27667041658762,2.27765905323384,2.27806848861258,2.27843797907632,2.27793866763884,2.27952647801004,2.27967627144129,2.27985602355878,2.28031539008127,2.28118419198249,2.28114424706749,2.2826122226937,2.28278198858245,2.28292179578494,2.28360085933992,2.28424996420865,2.28465939958739,2.28470933073114,2.28670657648108,2.28523860085487,2.28595760932485,2.2861473476711,2.28595760932485,2.2861473476711,2.28707606694482,2.28523860085487,2.28156366867498,2.28716594300357,2.28758536461106,2.28877372583227,2.28917317498226,2.29002200442599,2.28994211459599,2.29077097158221,2.29130024170595,2.29161980102594,2.29168970462719,2.29197930526093,2.29186945674468,2.29422620672961,2.29189941543093,2.2930977628809,2.29399652346837,2.29379679889338,2.29393660609587,2.29518488468959,2.29449583490586,2.2962733836233,2.29584397578707,2.29744177238702,2.29572414104207,2.2964930806558,2.29673275014579,2.29662290162954,2.29702235077953,2.29683261243329,2.29717214421078,2.29891973424198,2.29912944504572,2.29862014737949,2.29940905945071,2.29973860499945,2.30008812300569,2.2997485912282,2.30034776495319,2.30077717278942,2.30082710393317,2.30130644291316,2.30216525858563,2.30131642914191,2.30236498316063,2.3051711134393,2.30273447362437,2.30331367489185,2.30362324798309,2.30403268336183,2.30614976385677,2.30408261450558,2.30432228399557,2.30454198102806,2.30542076915804,2.30597001173927,2.30648929563426,2.30743798736548,2.3067589238105,2.30737806999298,2.3086063761292,2.30906574265168,2.30827683058046,2.30894590790669,2.31012428289915,2.30981470980791,2.30983468226541,2.31030403501665,2.31131264412037,2.31052373204914,2.31089322251288,2.31234122568159,2.31219143225034,2.31246106042658,2.31247104665533,2.31399893965404,2.3136494216478,2.31422862291528,2.31440837503278,2.31475789303902,2.315397011679,2.31623585489397,2.31767387183393,2.31668523518771,2.31841285276141,2.31792352755268,2.31796347246767,2.31860259110766,2.31868248093765,2.31897208157139,2.31943144809388,2.31996071821762,2.32332607730627,2.32296657307128,2.32298654552878,2.3221277298563,2.32193799151006,2.32396519594625,2.32398516840375,2.32324618747627,2.32501374996497,2.32496381882122,2.32533330928496,2.32639184953243,2.32701099571491,2.3256828272912,2.32828923299487,2.32914804866735,2.32708089931616,2.32835913659612,2.32842904019737,2.32835913659612,2.32943764930109,2.32972724993483,2.3308257350973,2.32930782832734,2.32926788341235,2.3308656800123,2.33248344906975,2.33384157617971,2.33601857404715,2.33334226474223,2.33333227851348,2.33484019905468,2.33768627424835,2.33544935900842,2.33626822976589,2.33745659098711,2.33814564077084,2.33644798188339,2.33650789925588,2.33681747234713,2.33901444267206,2.34126134414075,2.34059226681452,2.33892456661332,2.33927408461955,2.34549550513062,2.34892078159177,2.3445667858569,2.34218007718572,2.34219006341447,2.34838152523929,2.34523586318313,2.34863118095803,2.34384777738692
2.27514252358892,2.27535223439266,2.2756618074839,2.27548205536641,2.27644073332638,2.27602131171889,2.27824824073008,2.27753921848885,2.27780884666509,2.27837806170382,2.27938667080754,2.28008570682002,2.28030540385252,2.281004439865,2.28121415066874,2.28151373753123,2.28176339324998,2.28262220892245,2.2844996199274,2.28588770572361,2.28454955107114,2.28510877988113,2.28410017077741,2.28487909661989,2.28548825657362,2.28565802246236,2.28574789852111,2.2860474853836,2.28637703093234,2.28690630105608,2.28717592923232,2.2877151855848,2.28961256904725,2.28896346417852,2.28912324383851,2.28967248641975,2.29004197688349,2.2911105033597,2.28971243133474,2.29063116437972,2.29048137094847,2.29148998005219,2.29180953937218,2.29239872686842,2.29246863046966,2.29325754254089,2.29590389315956,2.29413633067087,2.29335740482839,2.2945257935921,2.29526477451958,2.29419624804336,2.29437600016086,2.29572414104207,2.29505506371584,2.29598378298956,2.29604370036206,2.2964930806558,2.29668281900204,2.29644314951205,2.29707228192328,2.29743178615827,2.29892972047073,2.29951890796696,2.298160780857,2.29847035394824,2.29904955521572,2.29977854991445,2.30008812300569,2.29965871516946,2.2998684259732,2.30033777872444,2.30024790266569,2.30076718656067,2.30124652554066,2.30142627765815,2.30231505201688,2.3032038263756,2.30248481790562,2.3032237988331,2.30277441853937,2.30339356472185,2.30406264204808,2.30443213251182,2.30401271090433,2.30426236662307,2.3051511409818,2.30640940580426,2.30549067275929,2.306579171693,2.306858786098,2.30735809753548,2.30764769816922,2.30845658269795,2.30812703714921,2.30899583905043,2.30949515048792,2.30974480620666,2.30965493014792,2.30993454455291,2.31065355302289,2.31075341531038,2.31091319497038,2.31317008266781,2.31448826486278,2.31252097779908,2.31296037186407,2.31431849897403,2.31381918753654,2.3152971493915,2.31558675002524,2.31495761761401,2.31513736973151,2.31582641951524,2.31660534535771,2.31936154449263,2.31736429874269,2.31674515256021,2.31773378920643,2.31845279767641,2.31936154449263,2.32135879024258,2.32193799151006,2.32026030508011,2.32002063559011,2.32066974045885,2.32140872138632,2.32279680718253,2.32271691735254,2.3224073442613,2.32680128491117,2.32492387390622,2.32773999041364,2.32436464509624,2.32473413555998,2.32538324042871,2.32609226266994,2.32604233152619,2.3257826895787,2.32664150525117,2.32789977007364,2.33125514293354,2.32795968744613,2.32900824146485,2.32863875100111,2.32954749781734,2.33024653382982,2.33202408254727,2.32998689188232,2.33037635480356,2.33118523933229,2.33171450945602,2.33221382089351,2.33497002002843,2.33356196177472,2.33494006134218,2.33371175520597,2.33512979968843,2.3360685051909,2.33908434627331,2.33613840879215,2.33683744480463,2.33825548928708,2.33615838124964,2.33941389182205,2.33839529648958,2.33899447021456,2.33991320325954,2.33980335474329,2.3411115507095,2.34118145431075,2.34087188121951,2.34150101363074,2.34164082083324,2.34184054540823,2.34342835577943
2.2739941072827,2.27377441025021,2.27519245473267,2.27491284032767,2.2758415596014,2.27686015493387,2.27633088481013,2.27707985196636,2.27793866763884,2.27872757971006,2.27850788267757,2.27943660195129,2.27857778627882,2.27882744199756,2.27973618881378,2.28135395787124,2.28085464643375,2.28077475660375,2.28127406804124,2.28238253943246,2.28322138264743,2.28311153413119,2.28330127247743,2.28454955107114,2.28547827034487,2.28551821525987,2.28500891759363,2.28832434553853,2.28637703093234,2.28653681059234,2.28650685190609,2.28665664533733,2.28827441439479,2.28800478621854,2.28893350549227,2.29028164637348,2.28829438685229,2.28883364320477,2.28982227985099,2.29012186671348,2.29061119192222,2.29020175654348,2.29208915377718,2.29066112306597,2.2912503105622,2.29165974594094,2.29187944297343,2.29194934657468,2.29256849275716,2.29313770779589,2.29252854784216,2.29321759762589,2.29424617918711,2.2962733836233,2.29552441646708,2.29676270883204,2.29569418235582,2.29613357642081,2.29597379676081,2.29606367281956,2.29609363150581,2.2965729704858,2.29571415481332,2.29602372790456,2.29744177238702,2.29793109759576,2.29904955521572,2.29856023000699,2.29833054674574,2.29843040903324,2.29963874271196,2.2996886738557,2.29991835711695,2.30383295878683,2.30016801283569,2.30041766855443,2.30158605731815,2.30230506578813,2.30192558909564,2.30230506578813,2.30289425328436,2.30321381260435,2.30267455625187,2.30288426705561,2.30297414311436,2.30446209119807,2.30382297255808,2.30382297255808,2.30478165051806,2.30480162297556,2.30613977762802,2.30708846935924,2.30571036979178,2.30713840050299,2.30753784965298,2.30786739520172,2.30874618333169,2.30837669286795,2.30883605939044,2.30933537082792,2.30943523311542,2.31030403501665,2.30889597676294,2.31077338776788,2.31475789303902,2.31149239623786,2.31140252017911,2.31130265789162,2.31333984855656,2.31411877439904,2.3134696695303,2.31377924262155,2.31597621294648,2.31625582735147,2.31592628180273,2.31647552438397,2.31626581358022,2.31747414725894,2.31855265996391,2.31765389937643,2.31784363772268,2.31854267373516,2.31822311441517,2.31809329344142,2.32085947880509,2.32045004342635,2.32077958897509,2.31980093855762,2.32146863875882,2.32285672455503,2.32271691735254,2.32497380504997,2.32544315780121,2.32431471395249,2.324055072005,2.32797965990363,2.32442456246874,2.32860879231486,2.32785982515864,2.32553303385995,2.32831919168112,2.32730059634865,2.32910810375235,2.32811946710613,2.32998689188232,2.32870865460236,2.32777993532864,2.32790975630238,2.32961740141859,2.33014667154232,2.33063599675106,2.33104543212979,2.33393145223846,2.33384157617971,2.33277304970349,2.33352201685972,2.33429095647345,2.33220383466476,2.33295280182099,2.33319247131098,2.3341411630422,2.33548930392341,2.33565906981216,2.3393240157633,2.33990321703079,2.33900445644331,2.33837532403208,2.33916423610331,2.3393639606783,2.34041251469702,2.34033262486702,2.34064219795826,2.34025273503703,2.34502615237939,2.34175066934948,2.34496623500689
2.27237633822525,2.27436359774644,2.2741339144852,2.27438357020394,2.27476304689643,2.27537220685016,2.27573171108515,2.27681022379012,2.27628095366638,2.27765905323384,2.27818832335758,2.27918694623255,2.27823825450133,2.27819830958633,2.28005574813377,2.28055505957126,2.28023550025127,2.28043522482626,2.28062496317251,2.28187324176622,2.28287186464119,2.28246242926246,2.28209293879872,2.28290182332744,2.28334121739243,2.28358088688242,2.28410017077741,2.28571793983486,2.28554817394612,2.28570795360611,2.28672654893858,2.28639700338984,2.28733570889231,2.28676649385358,2.28689631482733,2.28824445570854,2.28904335400851,2.28889356057727,2.28846415274103,2.29002200442599,2.28979232116474,2.29056126077847,2.28999204573974,2.29147000759469,2.29054128832097,2.29122035187595,2.29124032433345,2.29114046204595,2.29183949805843,2.29191938788843,2.29259845144341,2.2930777904234,2.29365699169088,2.29286807961965,2.2929579556784,2.29382675757962,2.29502510502959,2.29592386561706,2.29509500863084,2.2945257935921,2.29636325968205,2.29650306688455,2.2962733836233,2.29678268128954,2.29663288785829,2.29683261243329,2.29687255734829,2.29864011983699,2.29744177238702,2.2981408083995,2.29776133170701,2.29914941750322,2.29898963784323,2.2999283433457,2.29944900436571,2.29965871516946,2.30022793020819,2.30059742067193,2.30085706261942,2.30256470773562,2.3015560986319,2.30273447362437,2.30264459756562,2.30107675965191,2.30194556155314,2.30286429459811,2.30245485921937,2.30446209119807,2.30477166428931,2.30394280730308,2.30445210496932,2.30594005305302,2.30599997042552,2.30615975008552,2.30605988779802,2.306858786098,2.30770761554172,2.30798722994671,2.30812703714921,2.3084665689267,2.30970486129166,2.31024411764415,2.30841663778295,2.30915561871043,2.31000444815416,2.31413874685654,2.31079336022538,2.3118818591591,2.31167214835536,2.3117819968716,2.31279060597532,2.31421863668653,2.31396898096779,2.31472793435277,2.31393902228154,2.31631574472397,2.31504749367276,2.3152172595615,2.3151773146465,2.31701478073645,2.3171046567952,2.31677511124646,2.31829301801641,2.32077958897509,2.3186924671664,2.32079956143259,2.3188722192839,2.31967111758387,2.32086946503384,2.32303647667253,2.31924170974764,2.32178819807881,2.32160844596132,2.32203785379756,2.32329611862002,2.32523344699746,2.32398516840375,2.32320624256127,2.32469419064498,2.32613220758494,2.32596244169619,2.32663151902242,2.3258026620362,2.32629198724493,2.32910810375235,2.32719074783241,2.32831919168112,2.3291380624386,2.32819935693613,2.32932780078484,2.32926788341235,2.32874859951736,2.33268317364475,2.33067594166605,2.33226375203726,2.33196416517477,2.33466044693719,2.33306265033724,2.33244350415475,2.33281299461849,2.33314254016723,2.3343209151597,2.3343209151597,2.33322242999723,2.33559915243966,2.34188049032323,2.33843524140458,2.33613840879215,2.33680748611838,2.33649791302714,2.33656781662838,2.34564529856187,2.34022277635078,2.33981334097204,2.3394837954233,2.34214013227072
2.27178715072902,2.27259603525774,2.2741738594002,2.27362461681896,2.27474307443893,2.27513253736017,2.27523239964767,2.27618109137889,2.27652062315638,2.27632089858138,2.27720967294011,2.27793866763884,2.27819830958633,2.27729954899886,2.27874755216756,2.2793367396638,2.27998584453253,2.28041525236876,2.27994589961753,2.28119417821124,2.28312152035994,2.28235258074621,2.28254231909245,2.28309156167369,2.28311153413119,2.28388047374491,2.2842000330649,2.28367076294117,2.28446966124115,2.28506883496613,2.2859875680111,2.28583777457986,2.28725581906232,2.29016181162848,2.28646690699109,2.28680643876858,2.28735568134981,2.28766525444105,2.2879548550748,2.28838426291103,2.28862393240103,2.2913901177647,2.28907331269476,2.2896425277335,2.28987221099474,2.29086084764096,2.29027166014473,2.29040148111847,2.29144004890844,2.29124032433345,2.2913501728497,2.29189941543093,2.29263839635841,2.29233880949592,2.29365699169088,2.29503509125834,2.29366697791963,2.29427613787336,2.29393660609587,2.2947454906246,2.2962933560808,2.29529473320583,2.29505506371584,2.29463564210835,2.29500513257209,2.29707228192328,2.29771140056326,2.29578405841457,2.29662290162954,2.29724204781203,2.29862014737949,2.29777131793576,2.29809087725575,2.29897965161448,2.29886980309823,2.29999824694695,2.2998484535157,2.30068729673068,2.30188564418064,2.30213529989938,2.30082710393317,2.30175582320689,2.30176580943564,2.30118660816816,2.30115664948191,2.30199549269689,2.30259466642187,2.30236498316063,2.3031239365456,2.30405265581933,2.30401271090433,2.30409260073433,2.30445210496932,2.3051311685243,2.30703853821549,2.30518109966805,2.30546071407304,2.306579171693,2.30696863461424,2.30726822147673,2.31089322251288,2.30851650007045,2.31050375959164,2.3100144343829,2.31053371827789,2.31037393861789,2.31294039940657,2.31096312611413,2.31111291954537,2.31220141847909,2.31431849897403,2.31319005512531,2.31433847143153,2.31335982101406,2.3137093390203,2.31375927016405,2.3153770392215,2.31616595129273,2.31460809960777,2.31458812715027,2.31677511124646,2.31655541421397,2.31745417480144,2.31731436759894,2.31759398200393,2.31826305933017,2.31927166843389,2.31843282521891,2.31911188877389,2.32090940994884,2.32072965783134,2.32322621501877,2.32244728917629,2.32340596713627,2.32205782625506,2.32265699998004,2.32590252432369,2.32298654552878,2.32473413555998,2.32371554022751,2.32427476903749,2.32600238661119,2.32519350208246,2.32473413555998,2.32599240038244,2.32682125736867,2.32633193215993,2.32703096817241,2.32717077537491,2.32807952219113,2.32832917790987,2.32960741518984,2.3292778696411,2.3308457075548,2.32981712599358,2.33104543212979,2.3308656800123,2.33073585903855,2.33149481242353,2.332673187416,2.33456058464969,2.33280300838974,2.332713132331,2.33489013019843,2.33506988231593,2.33497002002843,2.33491010265593,2.33518971706092,2.33694729332087,2.33910431873081,2.33690734840587,2.33619832616464,2.33676754120338,2.34130128905575,2.33723689395461,2.34574516084937
2.27157743992527,2.27139768780778,2.27270588377399,2.27277578737524,2.27321518144022,2.27357468567521,2.27497275770017,2.27480299181143,2.27571173862765,2.27625099498014,2.27625099498014,2.27848791022007,2.27663047167262,2.27875753839631,2.27847792399132,2.27890733182756,2.27867764856632,2.27934672589255,2.28029541762377,2.28042523859751,2.28141387524374,2.2809045775775,2.28211291125622,2.28258226400745,2.2825922502362,2.28528853199862,2.28546828411612,2.28510877988113,2.28493901399238,2.28591766440986,2.28662668665108,2.28646690699109,2.28643694830484,2.2861273752136,2.28705609448732,2.28702613580107,2.2876552682123,2.28849411142728,2.28886360189102,2.28937289955725,2.28909328515226,2.28982227985099,2.28987221099474,2.29007193556973,2.2894028582435,2.28971243133474,2.29020175654348,2.29087083386971,2.29017179785723,2.29114046204595,2.29059121946472,2.29063116437972,2.29239872686842,2.29231883703842,2.29216904360717,2.29248860292716,2.29292799699215,2.29327751499839,2.29384673003712,2.29668281900204,2.29400650969712,2.29411635821337,2.29363701923338,2.29497517388584,2.29504507748709,2.29407641329837,2.29538460926458,2.29589390693081,2.29675272260329,2.29654301179955,2.29691250226329,2.29689252980579,2.29742179992952,2.29835051920324,2.29858020246449,2.29979852237195,2.29861016115074,2.29892972047073,2.29940905945071,2.29963874271196,2.2998684259732,2.30070726918817,2.30131642914191,2.30119659439691,2.30142627765815,2.30200547892564,2.30267455625187,2.3034035509506,2.3032837162056,2.30310396408811,2.30371312404184,2.3048515541193,2.30456195348556,2.3049114714918,2.30464184331556,2.30490148526305,2.30588013568052,2.30542076915804,2.3068787585555,2.30703853821549,2.30710844181674,2.30972483374916,2.30949515048792,2.30930541214168,2.30885603184794,2.30943523311542,2.30939528820042,2.30911567379543,2.31041388353289,2.31067352548039,2.31242111551158,2.3117620244141,2.31250100534158,2.31325995872656,2.31414873308528,2.31330988987031,2.31340975215781,2.31377924262155,2.31436843011778,2.31532710807775,2.31618592375023,2.31746416103019,2.31689494599145,2.315317121849,2.31614597883523,2.31747414725894,2.31995073198887,2.32056987817135,2.3188322743689,2.32005059427636,2.32088943749134,2.31991078707387,2.32164839087632,2.32099928600759,2.32283675209753,2.32287669701253,2.32474412178873,2.32250720654879,2.32343592582252,2.32462428704373,2.32593248300994,2.32455438344248,2.3255430200887,2.32704095440116,2.32660156033617,2.32782986647239,2.32940769061484,2.32807952219113,2.32882848934736,2.32687118851242,2.32861877854361,2.32841905396862,2.32832917790987,2.32997690565358,2.32918799358235,2.32841905396862,2.32945762175859,2.33234364186726,2.33110534950229,2.33174446814227,2.33278303593224,2.33196416517477,2.33465046070844,2.33304267787974,2.33881471809707,2.3361483950209,2.33492008888468,2.33387153486596,2.33848517254833,2.3393040433058,2.34253958142071,2.33693730709212,2.33831540665958,2.33682745857588,2.33847518631958,2.3410716057945
2.27114803208903,2.27137771535028,2.27227647593775,2.27263598017274,2.27366456173396,2.27315526406773,2.27443350134769,2.27476304689643,2.27532227570641,2.2759014769739,2.2756618074839,2.27656056807138,2.27649066447013,2.27741938374385,2.27792868141009,2.27753921848885,2.27842799284757,2.27847792399132,2.27978611995753,2.27961635406879,2.28071483923126,2.280764770375,2.28205299388372,2.28184328307997,2.28242248434746,2.2826721400662,2.28198309028247,2.28391043243116,2.28390044620241,2.28406022586241,2.28459948221489,2.28502889005113,2.28619727881485,2.2876752406698,2.28631711355984,2.28661670042233,2.28755540592481,2.28752544723856,2.28812462096354,2.28853405634228,2.28792489638855,2.2878549927873,2.28828440062354,2.2912503105622,2.28912324383851,2.28993212836724,2.29073102666722,2.28957262413225,2.28973240379224,2.29184948428718,2.2912503105622,2.29049135717722,2.29052131586347,2.29097069615721,2.29088082009846,2.2913701453072,2.29204920886218,2.29371690906338,2.29233880949592,2.29247861669841,2.29347723957338,2.29371690906338,2.29398653723962,2.29424617918711,2.29450582113461,2.29451580736335,2.29607365904831,2.29546449909458,2.29521484337583,2.29747173107327,2.29666284654454,2.29644314951205,2.29736188255702,2.29668281900204,2.29718213043953,2.29780127662201,2.29763151073326,2.29786119399451,2.29839046411824,2.30044762724068,2.30013805414944,2.29934914207821,2.29950892173821,2.29989838465945,2.30042765478318,2.30077717278942,2.30125651176941,2.30197552023939,2.30414253187808,2.30117662193941,2.30246484544812,2.30247483167687,2.3032637437481,2.30383295878683,2.30357331683934,2.30440217382557,2.3050113337793,2.30587014945178,2.30586016322303,2.30666904775175,2.306778896268,2.30693867592799,2.30764769816922,2.30785740897297,2.30992455832416,2.30841663778295,2.31152235492411,2.31102304348663,2.30991457209541,2.3100943242129,2.3137293114778,2.31261085385783,2.31363943541905,2.31486774155526,2.31332986232781,2.3137093390203,2.31363943541905,2.31500754875776,2.31422862291528,2.3135895042753,2.31651546929897,2.3170846843377,2.31597621294648,2.31678509747521,2.31774377543518,2.31785362395143,2.31783365149393,2.31780369280768,2.31890217797015,2.32060982308635,2.31970107627012,2.32155851481757,2.32176822562131,2.32241733049004,2.32289666947003,2.32493386013497,2.32501374996497,2.32460431458623,2.32659157410742,2.32809949464863,2.33027649251607,2.32687118851242,2.3292778696411,2.32997690565358,2.32976719484983,2.3292778696411,2.32962738764734,2.32892835163486,2.32937773192859,2.3291780073536,2.33134501899229,2.33004680925482,2.33075583149605,2.33058606560731,2.33389150732346,2.33186430288727,2.33141492259353,2.33148482619478,2.33145486750853,2.3307458452673,2.33366182406222,2.33137497767853,2.33127511539104,2.33169453699852,2.33187428911602,2.33220383466476,2.33223379335101,2.33386154863721,2.33313255393848,2.33499997871468,2.33576891832841,2.33640803696839,2.33667766514463,2.3359686429034,2.33709708675212,2.33725686641211
2.26983983612282,2.27111807340278,2.27263598017274,2.27210671004901,2.27377441025021,2.27491284032767,2.27362461681896,2.27388425876645,2.27641077464013,2.27476304689643,2.27565182125515,2.27575168354265,2.2758615320589,2.27686015493387,2.27667041658762,2.27628095366638,2.27719968671136,2.27826821318758,2.27865767610882,2.27902716657255,2.27965629898379,2.27951649178129,2.28105437100875,2.28146380638748,2.28166353096248,2.2825922502362,2.28324135510493,2.28330127247743,2.28395037734616,2.28317145150368,2.2859276506386,2.28573791229236,2.28551821525987,2.28628715487359,2.2876352957548,2.28677648008233,2.28782503410105,2.28822448325104,2.28827441439479,2.289382885786,2.28897345040727,2.29014183917098,2.28941284447225,2.28951270675975,2.289462775616,2.289622555276,2.28912324383851,2.28880368451852,2.28970244510599,2.28982227985099,2.28990216968099,2.29002200442599,2.29040148111847,2.29101064107221,2.29050134340597,2.29099066861471,2.29167971839844,2.29261842390091,2.29310774910965,2.2928181484759,2.29318763893964,2.29277820356091,2.29331745991339,2.29345726711589,2.29375685397838,2.2945857109646,2.29382675757962,2.29450582113461,2.29491525651334,2.29415630312837,2.29557434761082,2.2962733836233,2.29566422366957,2.29642317705455,2.2963932183683,2.29736188255702,2.29723206158328,2.29743178615827,2.29741181370077,2.29857021623574,2.29835051920324,2.29831057428824,2.29906952767322,2.29927923847697,2.30057744821443,2.30004817809069,2.30050754461318,2.30084707639067,2.30135637405691,2.30105678719441,2.30192558909564,2.30237496938938,2.30198550646814,2.30246484544812,2.30267455625187,2.30293419819936,2.30408261450558,2.30449204988432,2.3048914990343,2.30592008059552,2.30646932317676,2.30650926809176,2.30620968122927,2.30853647252795,2.30713840050299,2.30738805622173,2.30768764308422,2.30793729880296,2.30931539837043,2.30962497146167,2.31103302971538,2.31147242378036,2.31049377336289,2.31155231361036,2.31125272674787,2.31144246509411,2.31733434005644,2.31341973838656,2.31410878817029,2.31418867800028,2.31743420234394,2.31553681888149,2.31744418857269,2.31814322458517,2.31600617163273,2.31926168220514,2.32592249678119,2.32008055296261,2.32097931355009,2.32150858367382,2.3220877849413,2.3257427446637,2.33197415140352,2.32799963236113,2.32849894379862,2.42231956290214,2.42316839234587,2.33141492259353,2.42149070591592,2.42851102472696,2.42483609254707,2.42443664339708,2.42753237430949,2.42586467410829,2.42812156180572,2.42775207134198,2.42812156180572,2.42274897073838,2.33618833993589,2.42332817200586,2.33403131452596,2.3341411630422,2.3343408876172,2.33427098401595,2.33501995117218,2.33152477110978,2.3290981175236,2.32842904019737,2.33136499144978,2.3342809702447,2.33486017151218,2.33079577641105,2.33231368318101,2.33232366940976,2.33196416517477,2.33308262279473,2.33266320118725,2.33279302216099,2.33234364186726,2.33475032299594,2.33306265033724,2.33298276050724,2.33389150732346,2.33510982723093,2.33514977214592,2.33678751366088
2.26963012531908,2.27008949184156,2.27009947807031,2.27064872065155,2.27136772912153,2.27179713695776,2.27287564966273,2.27418384562895,2.27547206913766,2.2741139420277,2.27375443779271,2.27421380431519,2.27647069201263,2.27533226193516,2.27700994836511,2.27669038904512,2.27791869518134,2.2776091220901,2.27829817187383,2.27833811678883,2.27908708394505,2.27936669835004,2.28020554156502,2.28093453626375,2.28104438478,2.28190320045247,2.28268212629495,2.28469934450239,2.28378061145742,2.28452957861365,2.28504886250863,2.28567799491986,2.28583777457986,2.28650685190609,2.28858398748603,2.2877351580423,2.2894028582435,2.29020175654348,2.29095072369971,2.2911704207322,2.2912902554772,2.29158984233969,2.28862393240103,2.29066112306597,2.28838426291103,2.28805471736229,2.28756539215356,2.28818453833604,2.28874376714602,2.28904335400851,2.28993212836724,2.29035154997473,2.28918316121101,2.28907331269476,2.29021174277223,2.29099066861471,2.29088082009846,2.29096070992846,2.29069108175222,2.2913102279347,2.29144004890844,2.29246863046966,2.29217902983592,2.29241869932592,2.29319762516839,2.29343729465839,2.29403646838337,2.2930977628809,2.29642317705455,2.2945457660496,2.2947854355396,2.29494521519959,2.2947454906246,2.29490527028459,2.2963333009958,2.2963532734533,2.29572414104207,2.29667283277329,2.29601374167581,2.29666284654454,2.29890974801323,2.29762152450451,2.29790113890951,2.298001001197,2.29823068445825,2.29942903190821,2.29937910076446,2.29987841220195,2.30033777872444,2.30247483167687,2.30119659439691,2.3016160160044,2.30186567172314,2.30168591960565,2.30207538252689,2.30357331683934,2.30346346832309,2.30384294501558,2.30413254564933,2.30569039733428,2.30533089309929,2.30616973631427,2.30607986025552,2.30612979139927,2.30586016322303,2.30645933694801,2.3086063761292,2.30819694075046,2.30964494391917,2.30847655515545,2.30841663778295,2.3118219417866,2.31000444815416,2.31119280937537,2.31388909113779,2.31793351378142,2.31246106042658,2.31298034432157,2.31335982101406,2.31420865045778,2.31514735596026,2.31624584112272,2.32087945126259,2.31939150317888,2.32039012605385,2.32579267580745,2.410156336285,2.32417490674999,2.40945730027252,2.42149070591592,2.42275895696713,2.4219500724384,2.42407713916209,2.42414704276334,2.4255451147883,2.42441667093958,2.42170041671966,2.42320833726087,2.42684332452576,2.42565496330455,2.42628409571578,2.42620420588578,2.42585468787954,2.4254452525008,2.42632404063078,2.42703306287201,2.42771212642699,2.42561501838955,2.42824139655072,2.42802169951823,2.42298864022837,2.42827135523697,2.42241942518964,2.42292872285588,2.4220898796409,2.42307851628712,2.42438671225333,2.42602445376829,2.3375764257321,2.33410121812721,2.33342215457222,2.33296278804974,2.33291285690599,2.33175445437102,2.33254336644225,2.33519970328967,2.33225376580851,2.33437084630345,2.33281299461849,2.33221382089351,2.33206402746226,2.33229371072351,2.33306265033724,2.33346209948722,2.33396141092471,2.33419109418595
2.26909086896659,2.27006951938406,2.27005953315532,2.27124789437653,2.27165732975527,2.27191697170276,2.27229644839525,2.272466214284,2.27272585623149,2.27477303312518,2.27350478207397,2.27439355643269,2.27523239964767,2.27503267507267,2.27622103629389,2.27623102252264,2.27769899814884,2.27803852992633,2.27778887420759,2.27871759348131,2.27994589961753,2.28034534876752,2.27990595470253,2.28039527991127,2.28196311782497,2.28285189218369,2.2827720023537,2.28380058391492,2.28509879365238,2.28696621842857,2.28539838051487,2.28809466227729,2.28832434553853,2.28922310612601,2.28969245887725,2.29060120569347,2.29213908492092,2.29532469189208,2.29705230946578,2.29740182747202,2.37211879097735,2.37360673906106,2.29450582113461,2.2912503105622,2.29450582113461,2.29025168768723,2.28774514427105,2.28731573643481,2.28687634236983,2.28986222476599,2.28861394617228,2.28874376714602,2.2896824726485,2.29017179785723,2.289542665446,2.28977234870724,2.29026167391598,2.29008192179848,2.29024170145848,2.29083088895471,2.29082090272596,2.29217902983592,2.29186945674468,2.29340733597214,2.29268832750216,2.29255850652841,2.2930578179659,2.29294796944965,2.29312772156715,2.29512496731709,2.29355712940338,2.2928780658484,2.2948253804546,2.2946656007946,2.29486532536959,2.29560430629707,2.29564425121207,2.29591387938831,2.29634328722455,2.29677269506079,2.29727200649827,2.29789115268076,2.29738185501452,2.29782124907951,2.29797104251075,2.29767145564826,2.29881987195448,2.29950892173821,2.29969866008445,2.30005816431944,2.30013805414944,2.30122655308316,2.3016160160044,2.30105678719441,2.3016759333769,2.30175582320689,2.30366319289809,2.30370313781309,2.30376305518559,2.30372311027059,2.30476167806056,2.30451202234181,2.30559053504678,2.30620968122927,2.30637944711801,2.30802717486171,2.30775754668547,2.30774756045672,2.30720830410424,2.30727820770548,2.30957504031792,2.30855644498545,2.3100543792979,2.31075341531038,2.31114287823162,2.31277063351782,2.31569659854149,2.3154968739665,2.31574652968524,2.31568661231274,2.31909191631639,2.41377135109239,2.41443044218987,2.41413085532738,2.41557885849609,2.4187145343235,2.41904407987224,2.41998278537471,2.42141081608592,2.42139084362842,2.42111122922343,2.4221897419284,2.42284883302588,2.42408712539084,2.42425689127959,2.42417700144959,2.42447658831208,2.42672348978077,2.42678340715326,2.42760227791074,2.42584470165079,2.42809160311948,2.42666357240827,2.42668354486577,2.42612431605578,2.42767218151199,2.42784194740073,2.42780200248573,2.42830131392322,2.42770214019824,2.42875069421696,2.42871074930196,2.42885055650445,2.42294869531337,2.4238374696721,2.42437672602458,2.42633402685953,2.42609435736953,2.42526550038331,2.42854098341321,2.42929993679819,2.33760638441835,2.33670762383088,2.33458055710719,2.33313255393848,2.33290287067724,2.33293282936349,2.33198413763227,2.3324534903835,2.33342215457222,2.33191423403102,2.33368179651972,2.33448069481969,2.33301271919349,2.33298276050724,2.33366182406222
2.26917075879659,2.26964011154783,2.26969004269158,2.26969004269158,2.2707585691678,2.27134775666403,2.27205677890526,2.27186704055901,2.27259603525774,2.27273584246024,2.27338494732897,2.27348480961647,2.27567179371265,2.27552200028141,2.27623102252264,2.27641077464013,2.27642076086888,2.27694004476387,2.27776890175009,2.27937668457879,2.27902716657255,2.27959638161129,2.280764770375,2.28132399918499,2.28169348964873,2.28223274600121,2.28370072162742,2.28495898644988,2.28562806377611,2.28677648008233,2.2878549927873,2.28810464850604,2.29164975971219,2.29144004890844,2.2946056834221,2.29521484337583,2.36957230264618,2.37616321362098,2.375683874641,2.37324723482607,2.37289771681983,2.37310742762357,2.37438566490354,2.37598346150349,2.28748550232356,2.28734569512106,2.28806470359104,2.28847413896978,2.2879149101598,2.28776511672855,2.28819452456479,2.2879548550748,2.28831435930978,2.28917317498226,2.28901339532226,2.28961256904725,2.29024170145848,2.29012186671348,2.28990216968099,2.29098068238596,2.29020175654348,2.29004197688349,2.2912503105622,2.29080093026846,2.29215905737842,2.29220898852217,2.29246863046966,2.29235878195342,2.29209914000592,2.2930977628809,2.29334741859964,2.29387668872337,2.29398653723962,2.29389666118087,2.29448584867711,2.29500513257209,2.29453577982085,2.29463564210835,2.29550444400958,2.29569418235582,2.2962334387083,2.29626339739455,2.29696243340703,2.29703233700828,2.29767145564826,2.29829060183075,2.29854025754949,2.29852028509199,2.29923929356197,2.29903956898697,2.29915940373197,2.30001821940444,2.30146622257315,2.30121656685441,2.30146622257315,2.3014162914294,2.30184569926564,2.30276443231062,2.30358330306809,2.3033436335781,2.30369315158434,2.30426236662307,2.30500134755055,2.3050712511518,2.30646932317676,2.30735809753548,2.30737806999298,2.30760775325422,2.3084465964692,2.30806711977671,2.31131264412037,2.30958502654667,2.3102940487879,2.31231126699534,2.31220141847909,2.31499756252901,2.31498757630026,2.31905197140139,2.41501962968611,2.4117241741987,2.41571866569858,2.41427066252988,2.41400103435363,2.41389118583739,2.41433057990238,2.41724655869729,2.41841494746101,2.41982300571472,2.41915392838848,2.42128099511217,2.42115117413843,2.42095144956343,2.42406715293334,2.42231956290214,2.42589463279454,2.42166047180466,2.42439669848208,2.42611432982703,2.42949966137318,2.42705303532951,2.42637397177453,2.42178030654966,2.42122107773967,2.42119111905343,2.42537534889955,2.42834125883822,2.42924001942569,2.42957955120318,2.43209608084811,2.42850103849821,2.42928995056944,2.4289803774782,2.42827135523697,2.4288405702757,2.4288205978182,2.427232787447,2.42767218151199,2.42767218151199,2.42758230545324,2.42827135523697,2.42740255333575,2.4289004876482,2.42795179591698,2.42748244316574,2.33832539288833,2.33699722446462,2.3359686429034,2.33394143846721,2.33330231982723,2.33166457831228,2.33288289821974,2.33328234736973,2.33187428911602,2.33305266410849,2.33280300838974,2.33388152109471
2.26789252151663,2.26905092405159,2.26906091028034,2.27012943675656,2.27124789437653,2.27038907870406,2.27279575983274,2.27276580114649,2.27251614542774,2.27201683399026,2.27283570474773,2.27408398334145,2.2740739971127,2.27465319838018,2.27614114646389,2.27651063692763,2.27743935620135,2.27824824073008,2.27839803416132,2.27977613372878,2.2792568498338,2.28005574813377,2.28175340702123,2.28184328307997,2.28190320045247,2.28402028094741,2.2843797851824,2.2861273752136,2.28683639745483,2.28913323006726,2.29007193556973,2.2930378455084,2.29636325968205,2.29838047788949,2.35584123811532,2.37020143505741,2.37025136620116,2.37369661511981,2.37360673906106,2.37440563736103,2.3754641776085,2.37529441171976,2.37598346150349,2.37012154522741,2.28825444193729,2.28681642499733,2.28736566757856,2.28685636991233,2.28677648008233,2.28740561249356,2.2877950754148,2.28757537838231,2.28782503410105,2.28839424913978,2.28862393240103,2.28985223853724,2.28951270675975,2.28969245887725,2.29099066861471,2.29012186671348,2.28980230739349,2.29044142603347,2.29076098535346,2.29062117815097,2.29248860292716,2.2911704207322,2.29124032433345,2.29220898852217,2.29272827241716,2.29271828618841,2.29313770779589,2.29326752876964,2.29345726711589,2.29485533914085,2.29402648215462,2.29436601393211,2.29524480206208,2.29567420989832,2.29411635821337,2.29441594507586,2.29441594507586,2.29479542176835,2.29663288785829,2.29616353510706,2.29770141433451,2.29680265374704,2.29869005098073,2.29760155204701,2.298080891027,2.2982206982295,2.29906952767322,2.29937910076446,2.30031780626694,2.29975857745695,2.30077717278942,2.30275444608187,2.30069728295943,2.30179576812189,2.30356333061059,2.3032837162056,2.30364322044059,2.30408261450558,2.30476167806056,2.30537083801429,2.30552063144554,2.30604990156927,2.306818841183,2.30815699583546,2.3083467341817,2.31420865045778,2.30991457209541,2.31162221721161,2.31288048203407,2.39880199419658,2.31609604769148,2.40544283631513,2.41224345809369,2.41241322398243,2.41777582882102,2.41478994642486,2.41449035956237,2.41403099303988,2.41441046973237,2.41420075892863,2.41448037333362,2.41822520911476,2.42110124299468,2.41907403855849,2.41860468580725,2.41977307457097,2.42078168367469,2.41858471334975,2.42080165613219,2.42145076100092,2.42021246863595,2.42419697390709,2.42368767624085,2.42332817200586,2.42759229168199,2.42296866777087,2.4170668065798,2.41780578750727,2.42102135316468,2.41981301948597,2.41991288177346,2.42264910845088,2.42464635420083,2.4253853351283,2.427392567107,2.43498210095678,2.42574483936329,2.43137707237813,2.42738258087825,2.43163671432562,2.42901033616445,2.42799174083198,2.42816150672072,2.42860090078571,2.42766219528324,2.42750241562324,2.42736260842075,2.42754236053824,2.42762225036824,2.42776205757073,2.42636398554578,2.34008296914828,2.33716699035337,2.3360085878184,2.33475032299594,2.33316251262473,2.33281299461849,2.33132504653479,2.33295280182099,2.33154474356728,2.33151478488103,2.33302270542224
2.26758294842539,2.26822206706537,2.26900099290785,2.26906091028034,2.26974996006407,2.26989975349532,2.27034913378906,2.27171724712777,2.27263598017274,2.27306538800898,2.27345485093022,2.27337496110022,2.27471311575268,2.27439355643269,2.2758215871439,2.27640078841138,2.27715974179636,2.27884741445506,2.27897723542881,2.27959638161129,2.27989596847378,2.28107434346625,2.28232262205996,2.28382055637242,2.28501890382238,2.28564803623361,2.28670657648108,2.28945278938725,2.29280816224715,2.34595487165311,2.2964331632833,2.34756265448181,2.34997932183924,2.35716940653904,2.37673242865972,2.37124000284738,2.37184916280111,2.37239840538234,2.37531438417726,2.37449551341978,2.37485501765477,2.37528442549101,2.37633297950973,2.36830405159496,2.37073070518114,2.28625719618735,2.28630712733109,2.28689631482733,2.28643694830484,2.28679645253983,2.28638701716109,2.28732572266356,2.2876352957548,2.28750547478106,2.28878371206102,2.28784500655855,2.28841422159728,2.28865389108728,2.28922310612601,2.29041146734722,2.28967248641975,2.28988219722349,2.28980230739349,2.29066112306597,2.29070106798097,2.29152992496719,2.29223894720842,2.2912902554772,2.2910905309022,2.29195933280343,2.29313770779589,2.2928381209334,2.29166973216969,2.2928381209334,2.29312772156715,2.29312772156715,2.29351718448838,2.29398653723962,2.29423619295836,2.2946056834221,2.2946855732521,2.29512496731709,2.29599376921831,2.29590389315956,2.29595382430331,2.29665286031579,2.29666284654454,2.29719211666828,2.29772138679201,2.29837049166074,2.29780127662201,2.29840045034699,2.30007813677694,2.30399273844683,2.29987841220195,2.30015802660694,2.30053750329943,2.30089700753442,2.30259466642187,2.30247483167687,2.30206539629814,2.30323378506185,2.30403268336183,2.30519108589679,2.30432228399557,2.30577028716428,2.30841663778295,2.30733812507798,2.30900582527918,2.31207159750535,2.31500754875776,2.31482779664027,2.40031990096653,2.40968698353376,2.40958712124626,2.41031611594499,2.41051584051999,2.41179407779995,2.4118440089437,2.41300241147866,2.41295248033492,2.41387121337989,2.41475998773861,2.41329201211241,2.41324208096866,2.41320213605366,2.4134917366874,2.41564876209734,2.41573863815608,2.41602823878983,2.4168471095473,2.41585847290108,2.41841494746101,2.42213981078465,2.41964325359722,2.42023244109345,2.42507576203706,2.42326825463337,2.42231956290214,2.41725654492604,2.41137465619246,2.41496969854236,2.41628788073732,2.41900413495724,2.42128099511217,2.42141081608592,2.42429683619459,2.4255451147883,2.42872073553071,2.42581474296454,2.42441667093958,2.42495592729207,2.42436673979583,2.42438671225333,2.42633402685953,2.42653375143452,2.42680337961076,2.42693320058451,2.427312677277,2.42710296647325,2.42696315927076,2.42795179591698,2.42826136900822,2.42745248447949,2.42802169951823,2.42807163066198,2.42766219528324,2.42702307664326,2.42903030862195,2.33589873930215,2.33494006134218,2.33237360055351,2.33431092893095,2.33148482619478,2.3358488081584,2.33196416517477
2.26682399504041,2.26807227363412,2.2687912821041,2.26842179164036,2.26906091028034,2.26974996006407,2.27008949184156,2.27251614542774,2.27164734352652,2.27235636576775,2.27273584246024,2.27472310198143,2.27461325346518,2.27614114646389,2.27605127040514,2.27731952145635,2.27855781382132,2.27900719411506,2.28089459134875,2.2809445224925,2.28199307651122,2.28331125870618,2.28455953729989,2.28545829788737,2.28714597054607,2.2912303381047,2.35927650080522,2.36000549550395,2.36888325286245,2.36951238527368,2.36935260561368,2.36950239904493,2.37074069140989,2.37187912148736,2.37225859817985,2.37356679414606,2.37347691808731,2.3737565324923,2.37478511405352,2.37536431532101,2.37392629838105,2.37298759287858,2.37669248374472,2.28825444193729,2.28796484130355,2.28664665910858,2.28699617711482,2.28677648008233,2.2861473476711,2.28648687944859,2.28668660402358,2.28680643876858,2.2879149101598,2.28831435930978,2.28742558495106,2.28778508918605,2.28804473113354,2.2877751029573,2.2878749652448,2.28893350549227,2.28888357434852,2.28925306481226,2.28896346417852,2.28994211459599,2.28982227985099,2.29048137094847,2.29105058598721,2.29031160505973,2.29043143980472,2.29102062730096,2.29039149488972,2.29205919509093,2.29134018662095,2.29223894720842,2.29239872686842,2.29373688152088,2.29354714317463,2.29352717071713,2.29455575227835,2.29364700546213,2.29380678512213,2.29388667495212,2.2962334387083,2.29569418235582,2.29576408595707,2.29640320459705,2.29552441646708,2.29646312196955,2.29699239209328,2.29780127662201,2.29841043657574,2.29850031263449,2.29888977555573,2.30011808169194,2.29921932110447,2.30015802660694,2.3015361261744,2.30054748952818,2.30129645668441,2.30233502447438,2.30258468019312,2.30296415688561,2.30688874478425,2.30467180200181,2.30584019076553,2.31002442061165,2.30945520557292,2.30984466849416,2.31237118436784,2.40177789036399,2.40580234055012,2.40409469543392,2.40639152804636,2.40736019223508,2.40752995812382,2.40821900790755,2.40891804392003,2.41366150257614,2.41398106189614,2.41208367843369,2.41102513818622,2.41201377483244,2.41230337546618,2.4118440089437,2.41246315512618,2.41156439453871,2.41267286592992,2.41722658623979,2.41665737120106,2.41545902375109,2.41711673772354,2.41886432775474,2.41577858307108,2.41416081401363,2.42598450885329,2.41543905129359,2.42087155973344,2.42156060951717,2.42304855760087,2.41151446339496,2.41179407779995,2.41745626950103,2.41562878963984,2.41749621441603,2.41733643475604,2.42487603746207,2.41776584259228,2.4187544792385,2.4187145343235,2.42000275783221,2.42844112112572,2.42247934256214,2.42165048557591,2.42401722178959,2.42166047180466,2.4239573044171,2.42445661585458,2.42596453639579,2.42814153426322,2.42565496330455,2.42535537644206,2.42533540398456,2.42804167197573,2.42765220905449,2.42796178214573,2.42803168574698,2.42767218151199,2.42751240185199,2.427232787447,2.42775207134198,2.33611843633465,2.33471037808094,2.33449068104844,2.33535948294967,2.33097552852855,2.33036636857481
2.26643453211917,2.26757296219664,2.26829197066662,2.26826201198037,2.2689910066791,2.26961015286158,2.27110808717403,2.27102819734404,2.27190698547401,2.27252613165649,2.27374445156396,2.27497275770017,2.2756418350264,2.27540216553641,2.27721965916886,2.27896724920006,2.27918694623255,2.28060499071501,2.28201304896872,2.28306160298744,2.28485912416239,2.28644693453359,2.28891353303477,2.35847760250525,2.35789840123776,2.35819798810026,2.35898690017148,2.35886706542649,2.36611706749878,2.36814427193497,2.36862361091495,2.36898311514994,2.36936259184243,2.37081059501114,2.37205887360485,2.37326720728357,2.37494489371352,2.37633297950973,2.38000791168962,2.37631300705223,2.37485501765477,2.37315735876732,2.37545419137975,2.28819452456479,2.28943281692975,2.28599755423985,2.28541835297237,2.2860674578411,2.2860275129261,2.28631711355984,2.28695623219982,2.28633708601734,2.28673653516733,2.28684638368358,2.28725581906232,2.28695623219982,2.28732572266356,2.2878350203298,2.28818453833604,2.28874376714602,2.28850409765603,2.28848412519853,2.28869383600227,2.28921311989726,2.29080093026846,2.28999204573974,2.28992214213849,2.29019177031473,2.29059121946472,2.29172964954219,2.29064115060847,2.29164975971219,2.29264838258716,2.29145003513719,2.29213908492092,2.29239872686842,2.2928980383059,2.29252854784216,2.29351718448838,2.29310774910965,2.29349721203088,2.29401649592587,2.29395657855337,2.29490527028459,2.29527476074833,2.2962933560808,2.29636325968205,2.2963932183683,2.29599376921831,2.29768144187701,2.29694246094953,2.29807090479825,2.29775134547826,2.29851029886324,2.2999682882607,2.29938908699321,2.30039769609693,2.30201546515439,2.30284432214061,2.3031239365456,2.30291422574186,2.3032237988331,2.30570038356303,2.30591009436677,2.30697862084299,2.30822689943671,2.40077926748902,2.39880199419658,2.4013984136715,2.4013984136715,2.40168801430524,2.40704063291509,2.40620178970011,2.40669111490885,2.40546280877263,2.40740013715008,2.40730027486258,2.40866838820129,2.41032610217374,2.40631163821636,2.41003650154,2.41107506932997,2.41318216359616,2.41342183308615,2.41086535852623,2.40947727273002,2.41483987756861,2.41538912014984,2.42184022392216,2.40717045388883,2.31622586866522,2.41440048350362,2.31462807206527,2.31769384429143,2.3186724947089,2.31633571718147,2.31801340361142,2.31752407840269,2.41143457356496,2.41219352694994,2.41648760531231,2.41934366673473,2.41633781188107,2.4167672197173,2.41935365296348,2.41739635212854,2.41749621441603,2.41683712331855,2.41766598030478,2.41806542945477,2.41856474089225,2.42122107773967,2.4203622620672,2.42105131185093,2.42049208304095,2.4203822345247,2.42277892942463,2.4220898796409,2.42273898450963,2.42290875039838,2.42328822709086,2.4253853351283,2.4256849219908,2.42875069421696,2.42661364126452,2.42708299401575,2.42650379274827,2.42532541775581,2.42597452262454,2.42720282876075,2.42489600991957,2.42499587220707,2.33895452529956,2.3358288357009,2.33421106664345,2.33370176897722
2.26671414652416,2.26677406389666,2.26853164015661,2.26882124079035,2.26935051091409,2.27042902361905,2.27153749501027,2.27147757763777,2.27291559457773,2.27446346003394,2.27488288164143,2.27465319838018,2.27718970048261,2.27769899814884,2.27924686360505,2.28113426083874,2.28240251188996,2.28309156167369,2.28658674173609,2.2860874302986,2.3600554266477,2.35981575715771,2.36010535779145,2.3618429615939,2.35920659720398,2.36034502728144,2.3599755368177,2.36055473808519,2.36286155692637,2.36912292235244,2.36896314269244,2.36896314269244,2.36915288103869,2.37098036089988,2.37121004416113,2.37091045729864,2.3704211320899,2.37131989267737,2.37047106323365,2.36921279841119,2.37249826766984,2.37416596787104,2.3705010219199,2.28864390485853,2.28595760932485,2.28532847691362,2.28534844937112,2.28566800869111,2.28554817394612,2.28625719618735,2.28663667287983,2.28561807754736,2.28630712733109,2.28660671419358,2.28715595677482,2.28735568134981,2.28740561249356,2.28705609448732,2.2876352957548,2.28764528198355,2.28768522689855,2.28792489638855,2.28878371206102,2.28845416651228,2.28980230739349,2.2893629133285,2.28911325760976,2.28981229362224,2.29041146734722,2.29054128832097,2.2914100902222,2.29054128832097,2.29098068238596,2.29159982856844,2.29102062730096,2.29162978725469,2.29182951182968,2.29222896097967,2.29252854784216,2.2930378455084,2.2929180107634,2.29449583490586,2.29395657855337,2.29400650969712,2.29483536668335,2.29537462303583,2.29535465057833,2.29617352133581,2.29671277768829,2.29686257111954,2.29702235077953,2.29719211666828,2.29714218552453,2.29838047788949,2.29876994081073,2.29933915584946,2.29979852237195,2.30037772363943,2.30115664948191,2.30199549269689,2.30379301387184,2.30402269713308,2.30658915792175,2.30927545345543,2.40078925371777,2.40066941897277,2.39832265521659,2.40075929503152,2.40022003867903,2.40158815201774,2.40292630667021,2.40396487446018,2.40368526005518,2.40505337339389,2.40549276745888,2.40617183101386,2.40528305665514,2.40585227169387,2.4048137039039,2.40718044011758,2.40603202381137,2.40451411704141,2.40419455772142,2.4115843669962,2.40972692844876,2.40804924201881,2.31303027546532,2.31390906359529,2.31275066106033,2.31170210704161,2.31217145979284,2.31512738350276,2.31353957313155,2.31320004135406,2.31581643328649,2.31479783795402,2.31777373412143,2.31584639197274,2.31752407840269,2.31771381674893,2.31931161334888,2.34390769475942,2.35212636102043,2.41627789450857,2.41327203965491,2.41805544322602,2.41128478013371,2.41838498877476,2.41663739874356,2.41792562225227,2.41718664132479,2.41762603538978,2.41596832141733,2.41631783942357,2.41812534682726,2.41773588390603,2.41992286800221,2.4204022069822,2.41961329491097,2.42190014129466,2.42157059574591,2.42106129807968,2.42019249617845,2.42386742835835,2.42756233299574,2.42443664339708,2.42394731818835,2.42846109358321,2.42518561055331,2.42272899828088,2.4220299622684,2.42058195909969,2.42329821331961,2.4219300999809,2.33489013019843,2.33352201685972
2.26620484885793,2.26869141981661,2.2689310893066,2.26898102045035,2.27044899607655,2.27119796323278,2.27171724712777,2.27253611788524,2.27439355643269,2.27483295049768,2.27715974179636,2.27774892929259,2.27886738691256,2.2809045775775,2.28293178201369,2.28519865593988,2.28673653516733,2.35875721691024,2.35919661097523,2.35758882814652,2.35908676245898,2.36086431117643,2.36199275502515,2.36210260354139,2.36307126773011,2.36030508236644,2.36226238320139,2.36165322324766,2.36449929844132,2.37351686300231,2.36798449227497,2.36996176556741,2.367025814315,2.37017147637116,2.37031128357365,2.36986190327992,2.37085053992614,2.36844385879746,2.36844385879746,2.37114014055988,2.37499482485727,2.3687134869737,2.28790492393105,2.28655678304984,2.28595760932485,2.2860075404686,2.28634707224609,2.28623722372985,2.28467937204489,2.28474927564614,2.28469934450239,2.28542833920112,2.28636704470359,2.28534844937112,2.28640698961859,2.28649686567734,2.28617730635735,2.28637703093234,2.28699617711482,2.28722586037607,2.28662668665108,2.28697620465732,2.2877351580423,2.2879348826173,2.28897345040727,2.28842420782603,2.28904335400851,2.29012186671348,2.29044142603347,2.28974239002099,2.29003199065474,2.29006194934098,2.29059121946472,2.29064115060847,2.29070106798097,2.29170967708469,2.29156986988219,2.29193936034593,2.29230885080967,2.29336739105714,2.2931177353384,2.29328750122714,2.29459569719335,2.29382675757962,2.29413633067087,2.29498516011459,2.2945657385071,2.29519487091834,2.29701236455078,2.29682262620454,2.2980609185695,2.29752166221702,2.2980609185695,2.29791112513826,2.29865010606574,2.29993832957445,2.30085706261942,2.3017158782919,2.3016959058344,2.30539081047179,2.30609983271302,2.3067589238105,2.39989049313029,2.39816287555659,2.39919145711781,2.39986053444404,2.39960089249655,2.39988050690154,2.40076928126027,2.40369524628393,2.40331576959144,2.40184779396524,2.40232713294522,2.40169800053399,2.40264669226521,2.40228718803023,2.40291632044146,2.40399483314643,2.40351549416644,2.40367527382643,2.40422451640767,2.40382506725768,2.40440426852516,2.31074342908163,2.31030403501665,2.31039391107539,2.31035396616039,2.31053371827789,2.31090320874163,2.31034397993165,2.31035396616039,2.31048378713414,2.31065355302289,2.31209156996284,2.31318006889656,2.3120416388191,2.31379921507905,2.3120616112766,2.31717456039645,2.315237232019,2.31511739727401,2.31763392691893,2.31836292161766,2.41418078647113,2.41469008413736,2.41562878963984,2.41096522081372,2.41235330660993,2.41077548246748,2.41124483521871,2.41659745382856,2.41401102058238,2.41420075892863,2.41545902375109,2.41512947820235,2.41544903752234,2.41544903752234,2.41738636589979,2.41798553962477,2.41892424512724,2.42457645059958,2.4221098520984,2.41573863815608,2.4151993818036,2.41446040087612,2.41354166783115,2.41315220490991,2.42223967307215,2.41593836273108,2.41541907883609,2.42157059574591,2.42185021015091,2.42190014129466,2.4220898796409,2.4237775522996,2.33547931769466
2.26683398126916,2.26669417406666,2.2688711719341,2.26962013909033,2.27195691661776,2.2723663519965,2.27335498864272,2.27491284032767,2.27605127040514,2.27796862632509,2.27958639538254,2.35697966819279,2.28321139641868,2.28560809131861,2.3565802190428,2.35691975082029,2.35690976459154,2.358287864159,2.35910673491648,2.36078442134643,2.36086431117643,2.36245212154763,2.36229234188764,2.36203269994014,2.36203269994014,2.36225239697264,2.36260191497888,2.36382023488634,2.36336086836386,2.36488876136256,2.36595728783878,2.36695591071375,2.36745522215124,2.36674619991001,2.36938256429993,2.36669626876626,2.36715563528875,2.36979199967867,2.36709571791625,2.37037120094615,2.36998173802491,2.36422967026508,2.28720588791857,2.28664665910858,2.28643694830484,2.28576787097861,2.28603749915485,2.28500891759363,2.28513873856738,2.28402028094741,2.2844596750124,2.28545829788737,2.28552820148862,2.28511876610988,2.28573791229236,2.28642696207609,2.28611738898485,2.28626718241609,2.28609741652735,2.28703612202982,2.28677648008233,2.28723584660482,2.28754541969606,2.28822448325104,2.28813460719229,2.28815457964979,2.28840423536853,2.28983226607974,2.28863391862978,2.28910327138101,2.28955265167475,2.28975237624974,2.28971243133474,2.29047138471972,2.29025168768723,2.29200926394718,2.29116043450345,2.29048137094847,2.29244865801217,2.29264838258716,2.29286807961965,2.29494521519959,2.2930777904234,2.29336739105714,2.29362703300463,2.29399652346837,2.29498516011459,2.29561429252582,2.29530471943458,2.2947854355396,2.29761153827577,2.29662290162954,2.29702235077953,2.29985843974445,2.30055747575693,2.30037772363943,2.30219521727188,2.30268454248062,2.30581023207928,2.30735809753548,2.39757368806036,2.39842251750409,2.39722417005412,2.39711432153787,2.39827272407284,2.40066941897277,2.40202754608273,2.39849242110534,2.39880199419658,2.39960089249655,2.39990047935904,2.3998305757578,2.39986053444404,2.39945109906531,2.4031460037027,2.39980061707155,2.40126859269775,2.40075929503152,2.3996508236403,2.40025998359403,2.40103890943651,2.31068351170914,2.3083467341817,2.3085264862992,2.3085065138417,2.30815699583546,2.30892593544919,2.30883605939044,2.31010431044165,2.31020417272915,2.3101742140429,2.30962497146167,2.30993454455291,2.31048378713414,2.30939528820042,2.31051374582039,2.31357951804655,2.31116285068912,2.31242111551158,2.31284053711907,2.31379921507905,2.31509742481651,2.31567662608399,2.31665527650146,2.41570867946984,2.40177789036399,2.41587844535858,2.40785950367256,2.41409091041238,2.40988670810875,2.40957713501751,2.41397107566739,2.41447038710487,2.41179407779995,2.41326205342616,2.41409091041238,2.41781577373602,2.41455027693487,2.41468009790862,2.41469008413736,2.41502961591485,2.4151993818036,2.41557885849609,2.41457024939237,2.41291253541992,2.41227341677993,2.41274276953117,2.41350172291615,2.41322210851116,2.41429063498738,2.42404718047584,2.42191012752341,2.42474621648832,2.42277892942463,2.4184748648335,2.41989290931596
2.26817213592162,2.26904093782285,2.27144761895152,2.27145760518027,2.27318522275397,2.2739741348252,2.27737943882885,2.28038529368252,2.28026545893752,2.35426341397287,2.35529199553409,2.35585122434407,2.35643042561156,2.35847760250525,2.35759881437527,2.35859743725024,2.35988566075896,2.3585475061065,2.3602551512227,2.36049482071269,2.36090425609143,2.36218249337139,2.36342078573635,2.36230232811639,2.36157333341766,2.36122381541142,2.36238221794638,2.36632677830252,2.36291148807012,2.36250205269138,2.36346073065135,2.36504854102256,2.36435949123883,2.36438944992508,2.36461913318632,2.36454922958507,2.36518834822505,2.36592732915253,2.36392009717384,2.36546796263004,2.36313118510261,2.36112395312392,2.28726580529107,2.28551821525987,2.28570795360611,2.28510877988113,2.28444968878365,2.28511876610988,2.28446966124115,2.28421001929365,2.28473928941739,2.28475926187489,2.28453956484239,2.2843997576399,2.28498894513613,2.28492902776363,2.28566800869111,2.28691628728483,2.28640698961859,2.28626718241609,2.28778508918605,2.2861673201286,2.28768522689855,2.28720588791857,2.28750547478106,2.28729576397731,2.28806470359104,2.28776511672855,2.28863391862978,2.28893350549227,2.28951270675975,2.28908329892351,2.2895226929885,2.28972241756349,2.28979232116474,2.29049135717722,2.29058123323597,2.29061119192222,2.29150995250969,2.29220898852217,2.29259845144341,2.29254852029966,2.29330747368464,2.29346725334464,2.29333743237089,2.29321759762589,2.29593385184581,2.2964731081983,2.29708226815203,2.29533467812083,2.29668281900204,2.29896966538573,2.29753164844577,2.30071725541692,2.29561429252582,2.3031239365456,2.30226512087313,2.30357331683934,2.30782745028672,2.39424827388671,2.3893250631131,2.40025998359403,2.39582609802916,2.3963154232379,2.39778339886411,2.39656507895664,2.39671487238789,2.39656507895664,2.39752375691661,2.39702444547913,2.39832265521659,2.39659503764289,2.39713429399537,2.39768353657661,2.39692458319163,2.39764359166161,2.39834262767409,2.39857231093533,2.40059951537152,2.3979431785241,2.39669489993039,2.30859638990045,2.306738951353,2.30639941957551,2.30697862084299,2.30658915792175,2.30874618333169,2.30794728503171,2.30767765685547,2.30756780833923,2.30823688566546,2.30785740897297,2.30965493014792,2.30847655515545,2.30885603184794,2.30953509540292,2.30981470980791,2.31231126699534,2.31070348416663,2.31291044072032,2.31461808583652,2.31468798943777,2.31458812715027,2.31461808583652,2.31595624048898,2.31644556569772,2.41218354072119,2.41132472504871,2.41036604708874,2.40922761701127,2.41003650154,2.41083539983998,2.41095523458497,2.40937741044252,2.41035606085999,2.41105509687247,2.41154442208121,2.41434056613112,2.41230337546618,2.41313223245241,2.41283264558992,2.41408092418363,2.41563877586859,2.41392114452364,2.41457024939237,2.41444042841862,2.41247314135493,2.41330199834115,2.41323209473991,2.42420696013584,2.41752617310228,2.41973312965597,2.42095144956343,2.41993285423096,2.41922383198973,2.41985296440096
2.26956022171783,2.26944038697283,2.27383432762271,2.27461325346518,2.2774493424301,2.35352443304539,2.35275549343166,2.35299516292166,2.35382401990788,2.35549172010908,2.35508228473035,2.35546176142283,2.35705955802279,2.35642043938281,2.35671004001655,2.35714943408154,2.35714943408154,2.35726926882653,2.35815804318526,2.35874723068149,2.35907677623023,2.35973586732771,2.35926651457647,2.35945625292272,2.35971589487021,2.36047484825519,2.36092422854893,2.36110398066642,2.36095418723518,2.36165322324766,2.36161327833266,2.36109399443767,2.36314117133136,2.36108400820892,2.36304130904386,2.3619428238814,2.36224241074389,2.36362051031135,2.36398001454634,2.36488876136256,2.36650653042001,2.36305129527261,2.2861074027561,2.28474927564614,2.28470933073114,2.2844996199274,2.28402028094741,2.2843198678099,2.28479920678989,2.28422999175115,2.28498894513613,2.28522861462612,2.28411015700616,2.2842799228949,2.28471931695989,2.28489906907738,2.28530850445612,2.28421001929365,2.28577785720736,2.28562806377611,2.2861872925861,2.28627716864484,2.28717592923232,2.28632709978859,2.28655678304984,2.28710602563107,2.28809466227729,2.2876752406698,2.28792489638855,2.28836429045353,2.28810464850604,2.28861394617228,2.28886360189102,2.28892351926352,2.28963254150475,2.28993212836724,2.29007193556973,2.29053130209222,2.2927981760184,2.29298791436465,2.29162978725469,2.29202923640468,2.29210912623467,2.29296794190715,2.29250857538466,2.29312772156715,2.29324755631214,2.29696243340703,2.29821071200075,2.30108674588066,2.29697241963578,2.29769142810576,2.29733192387077,2.30026787512319,2.29867007852323,2.30409260073433,2.30416250433557,2.38794696354564,2.38999414043933,2.39045350696182,2.39277031203175,2.39340943067173,2.39345936181548,2.39372898999172,2.3946477230367,2.3946477230367,2.39487740629794,2.39515702070293,2.39908160860157,2.39387878342297,2.39426824634421,2.39401859062546,2.39418835651421,2.39390874210922,2.39533677282043,2.39560640099667,2.40009021770529,2.39874207682408,2.30754783588173,2.30742800113673,2.3068787585555,2.30641939203301,2.30468178823056,2.30549067275929,2.30554060390303,2.30670899266675,2.30588013568052,2.30662910283675,2.30652924054926,2.30662910283675,2.30725823524798,2.30704852444424,2.30757779456798,2.30955506786042,2.30894590790669,2.30888599053419,2.30922552231168,2.31119280937537,2.31063358056539,2.31032400747415,2.3100543792979,2.31375927016405,2.31071347039538,2.31220141847909,2.31401891211154,2.31520727333275,2.31626581358022,2.4118040640287,2.41271281084492,2.41107506932997,2.41085537229748,2.40758987549632,2.4083288564238,2.40707059160134,2.4083088839663,2.40914772718128,2.40902789243628,2.40889807146253,2.40960709370376,2.41213360957744,2.4150795470586,2.41251308626993,2.4134517917724,2.41401102058238,2.41380130977864,2.41414084155613,2.41406095172613,2.41778581504977,2.41672727480231,2.41651756399856,2.41735640721354,2.41722658623979,2.42059194532844,2.41757610424603,2.41895420381349,2.41803547076852
2.27310533292398,2.35071830276672,2.35168696695544,2.35113772437421,2.35121761420421,2.35272553474541,2.35294523177791,2.35259571377167,2.35294523177791,2.35389392350913,2.35432333134537,2.35579130697158,2.3549724362141,2.35521210570409,2.35571141714158,2.35611086629157,2.35627064595156,2.35653028789905,2.35879716182524,2.35646038429781,2.3583078366165,2.35889702411274,2.35742904848653,2.35712946162404,2.35829785038775,2.35829785038775,2.35876720313899,2.35936637686397,2.3602351787652,2.35906679000148,2.36000549550395,2.35957608766772,2.3600953715627,2.36069454528768,2.36041493088269,2.36052477939894,2.36049482071269,2.35976582601396,2.36115391181017,2.36604716389753,2.36097415969267,2.28665664533733,2.28522861462612,2.28473928941739,2.28424996420865,2.28416008814991,2.28424996420865,2.28338116230743,2.28384052882992,2.28335120362118,2.28421001929365,2.2841800606074,2.28415010192116,2.2841800606074,2.28459948221489,2.28574789852111,2.28407021209116,2.28560809131861,2.28504886250863,2.28561807754736,2.28565802246236,2.28564803623361,2.28632709978859,2.28690630105608,2.28699617711482,2.28629714110234,2.28559810508986,2.28792489638855,2.28815457964979,2.28757537838231,2.2878949377023,2.28835430422478,2.28925306481226,2.28875375337477,2.28939287201475,2.28998205951099,2.28972241756349,2.29007193556973,2.29026167391598,2.29068109552347,2.29087083386971,2.2913901177647,2.29240871309717,2.29254852029966,2.29265836881591,2.2930578179659,2.29365699169088,2.29382675757962,2.29397655101087,2.29598378298956,2.29678268128954,2.29675272260329,2.29938908699321,2.30051753084193,2.30191560286689,2.38389255467326,2.3857899381357,2.38569007584821,2.38797692223189,2.38864599955812,2.39040357581807,2.3911725154318,2.39134228132054,2.3927004084305,2.3946077781217,2.392800270718,2.39138222623554,2.39338945821423,2.39406852176921,2.39362912770423,2.39343938935798,2.39324965101174,2.39380887982172,2.39482747515419,2.39334951329923,2.39372898999172,2.39516700693168,2.30442214628307,2.3048914990343,2.30473171937431,2.30423240793682,2.30321381260435,2.30405265581933,2.30375306895684,2.30535086555679,2.3051511409818,2.30479163674681,2.30538082424304,2.30431229776682,2.3050712511518,2.30589012190927,2.30614976385677,2.306778896268,2.30542076915804,2.31048378713414,2.30779749160047,2.3083866790967,2.30765768439797,2.30881608693294,2.31102304348663,2.30948516425917,2.30925548099793,2.3119417765316,2.31211154242034,2.31059363565039,2.31169212081286,2.31481781041152,2.4014783035015,2.40394490200268,2.40254682997772,2.40217733951398,2.40389497085893,2.40649139033385,2.4067011011376,2.40649139033385,2.40686088079759,2.40800929710381,2.41062568903623,2.40774965515632,2.40764979286882,2.41050585429124,2.41101515195747,2.4118639814012,2.41230337546618,2.41043595068999,2.41426067630113,2.41251308626993,2.41722658623979,2.41358161274615,2.41344180554365,2.41574862438483,2.41538912014984,2.41579855552858,2.41499965722861,2.4167672197173,2.41648760531231
2.3481618282068,2.34935018942801,2.35018903264299,2.35175687055669,2.35164702204045,2.35203648496168,2.35241596165417,2.35368421270539,2.35600101777532,2.3531649288104,2.35337463961415,2.35412360677037,2.3532647910979,2.35387395105163,2.35395384088163,2.35769867666277,2.35430335888787,2.35342457075789,2.35456300083536,2.3547727116391,2.35396382711038,2.35559158239658,2.35104784831546,2.35129750403421,2.35741906225778,2.3566201639578,2.35946623915147,2.35794833238151,2.35758882814652,2.3583877264465,2.35752891077402,2.35855749233524,2.35809812581276,2.36205267239764,2.35803820844026,2.35887705165524,2.35833779530275,2.35943628046522,2.35686981967654,2.35905680377273,2.35700962687904,2.28558811886111,2.28474927564614,2.28507882119488,2.28469934450239,2.28381057014367,2.28341112099368,2.28401029471866,2.28310154790244,2.28361084556867,2.28239252566121,2.28329128624868,2.28380058391492,2.28412014323491,2.28458949598614,2.2842000330649,2.28446966124115,2.28430988158115,2.2843198678099,2.28458949598614,2.2861673201286,2.28563805000486,2.28577785720736,2.28552820148862,2.2861473476711,2.28619727881485,2.28656676927859,2.28677648008233,2.28659672796484,2.28752544723856,2.28707606694482,2.2878350203298,2.28810464850604,2.28853405634228,2.28866387731602,2.28916318875351,2.28996208705349,2.28987221099474,2.29023171522973,2.29058123323597,2.29012186671348,2.29089080632721,2.29197930526093,2.29280816224715,2.29288805207715,2.29331745991339,2.29414631689962,2.29457572473585,2.29561429252582,2.29725203404078,2.29772138679201,2.29801098742575,2.38115632799584,2.38384262352951,2.38452168708449,2.38469145297324,2.3857499932207,2.38620935974319,2.38688842329817,2.38780715634315,2.38897554510686,2.38826652286563,2.38892561396311,2.38906542116561,2.39008401649808,2.38993422306683,2.38991425060933,2.39019386501433,2.39060330039306,2.3910526806868,2.39295006414925,2.39196142750302,2.39157196458179,2.3946876679517,2.38984434700809,2.39723415628287,2.30526098949804,2.30467180200181,2.30271450116687,2.30286429459811,2.30305403294436,2.3016359884619,2.30249480413437,2.30356333061059,2.30384294501558,2.30352338569559,2.30411257319183,2.30410258696308,2.30268454248062,2.30399273844683,2.30415251810682,2.30417249056432,2.30595003928177,2.30580024585053,2.3082868168092,2.30620968122927,2.30641939203301,2.30648929563426,2.30785740897297,2.30984466849416,2.30809707846296,2.31100307102913,2.30895589413544,2.31138254772161,2.31461808583652,2.31420865045778,2.31469797566652,2.31489770024151,2.401458331044,2.40108884058026,2.40132851007025,2.39901170500032,2.39835261390284,2.40529304288389,2.40683092211134,2.40409469543392,2.40428443378017,2.40426446132267,2.40457403441391,2.40558264351763,2.4047737589889,2.40562258843263,2.40576239563512,2.40651136279135,2.40971694222001,2.41073553755248,2.40986673565125,2.40891804392003,2.41022623988624,2.40956714878876,2.41124483521871,2.41181405025745,2.41256301741368,2.41379132354989,2.41379132354989,2.41460020807862
2.35204647119043,2.35086809619797,2.35146726992295,2.35170693941294,2.35120762797546,2.3514572836942,2.3516170633542,2.35131747649171,2.35304509406541,2.35223620953668,2.35162704958295,2.35190666398794,2.35200652627544,2.35189667775919,2.35235604428168,2.35257574131417,2.35181678792919,2.35214633347793,2.35266561737292,2.35263565868667,2.35293524554916,2.35206644364793,2.35057849556423,2.35100790340046,2.35565149976908,2.35527202307659,2.3550323535866,2.35582126565782,2.35520211947534,2.3565802190428,2.35704957179404,2.3566001915003,2.35639048069656,2.3565203016703,2.35707953048029,2.35767870420527,2.35624068726531,2.35428338643037,2.35534192667784,2.35624068726531,2.35617078366406,2.28605747161235,2.28444968878365,2.28391043243116,2.2862272375011,2.28297172692869,2.28270209875245,2.28358088688242,2.28320141018993,2.28286187841244,2.28351098328117,2.28403026717616,2.28561807754736,2.28348102459493,2.28350099705242,2.28342110722243,2.28356091442492,2.28391043243116,2.28399032226116,2.28448963369865,2.28490905530613,2.28452957861365,2.28497895890738,2.28573791229236,2.28583777457986,2.2862472099586,2.28639700338984,2.28656676927859,2.28679645253983,2.28711601185982,2.28721587414732,2.28736566757856,2.28752544723856,2.28829438685229,2.28914321629601,2.28904335400851,2.2894028582435,2.28970244510599,2.2896425277335,2.29028164637348,2.29035154997473,2.29124032433345,2.29107055844471,2.29232882326717,2.29392661986712,2.29432606901711,2.29405644084087,2.29467558702335,2.29646312196955,2.29732193764202,2.30023791643694,2.37559399858225,2.37952857270964,2.38151583223083,2.38204510235456,2.38677857478193,2.38515081949572,2.38541046144322,2.38573002076321,2.38684847838317,2.38625929088694,2.38719799638941,2.38914531099561,2.38658883643568,2.3875375281669,2.38960467751809,2.38830646778063,2.3892651457406,2.38758745931065,2.3893450355706,2.38878580676062,2.3892651457406,2.39024379615807,2.38997416798183,2.39129235017679,2.30265458379437,2.30131642914191,2.30204542384064,2.30131642914191,2.3014961812594,2.30266457002312,2.30094693867817,2.30060740690068,2.30068729673068,2.30270451493812,2.30108674588066,2.30296415688561,2.30286429459811,2.30370313781309,2.30251477659187,2.30331367489185,2.3031239365456,2.30292421197061,2.30426236662307,2.3034434958656,2.30469177445931,2.30514115475305,2.30645933694801,2.30668902020925,2.30759776702548,2.30870623841669,2.30760775325422,2.31006436552665,2.30871622464544,2.30951512294542,2.30913564625293,2.31478785172527,2.31565665362649,2.40248691260522,2.40059951537152,2.39883195288283,2.39840254504659,2.39751377068786,2.39863222830783,2.40271659586646,2.40076928126027,2.40265667849396,2.40459400687141,2.40243698146147,2.4032258935327,2.40357541153894,2.40437430983891,2.40466391047266,2.40537293271389,2.40541287762888,2.4048536488189,2.40811914562006,2.4065013765626,2.40787947613006,2.40930750684127,2.40863842951504,2.40913774095253,2.41042596446124,2.41125482144746,2.41221349940744,2.41193388500244
2.34896072650677,2.35162704958295,2.349629803833,2.35062842670798,2.34945005171551,2.349829528408,2.34969970743425,2.35094798602797,2.35025893624424,2.35021899132924,2.34929027205551,2.35018903264299,2.34952994154551,2.35023896378674,2.35093799979922,2.34938014811426,2.35046864704798,2.3515970908967,2.35100790340046,2.35109777945921,2.35119764174671,2.35204647119043,2.35189667775919,2.3515970908967,2.35376410253538,2.35353441927414,2.35266561737292,2.35392388219538,2.35427340020162,2.35441320740412,2.35371417139164,2.35432333134537,2.35397381333913,2.35431334511662,2.35634054955281,2.35526203684784,2.35541183027909,2.35510225718785,2.35514220210284,2.35302512160791,2.35289530063416,2.28498894513613,2.28370072162742,2.2844996199274,2.28266215383745,2.28266215383745,2.2825922502362,2.28262220892245,2.28217282862871,2.28280196103995,2.2826921125237,2.28384052882992,2.28317145150368,2.28338116230743,2.28331125870618,2.28326132756243,2.28551821525987,2.28370072162742,2.2845195923849,2.28442971632615,2.28493901399238,2.28428990912365,2.2844996199274,2.28540836674362,2.28563805000486,2.28665664533733,2.28635705847484,2.28650685190609,2.28683639745483,2.28638701716109,2.28711601185982,2.28706608071607,2.28752544723856,2.28801477244729,2.28776511672855,2.28877372583227,2.28926305104101,2.28961256904725,2.29029163260223,2.29017179785723,2.29021174277223,2.29099066861471,2.29184948428718,2.2927981760184,2.29330747368464,2.2947454906246,2.29670279145954,2.29542455417958,2.29793109759576,2.2997286187707,2.37486500388352,2.38287395934079,2.38173552926332,2.38075687884585,2.38040736083961,2.38181541909332,2.38283401442579,2.38357299535327,2.38439186611074,2.38401238941826,2.38533057161322,2.38473139788823,2.3857499932207,2.38587981419445,2.38536053029947,2.38560019978946,2.38518077818197,2.3858698279657,2.3860495800832,2.38514083326697,2.38724792753316,2.38568008961946,2.39114255674555,2.38696831312817,2.3014562363444,2.30183571303689,2.30044762724068,2.30005816431944,2.29877992703948,2.30015802660694,2.30224514841563,2.30298412934311,2.30121656685441,2.30339356472185,2.30390286238808,2.30099686982192,2.30226512087313,2.30198550646814,2.3014362638869,2.3013963189719,2.30300410180061,2.3031838539181,2.30186567172314,2.30407262827683,2.30415251810682,2.30378302764309,2.30494143017805,2.30686877232675,2.30421243547932,2.30700857952924,2.30522104458304,2.306818841183,2.30649928186301,2.30787738143047,2.30936532951417,2.30864632104419,2.31082331891163,2.31173206572785,2.31604611654773,2.4015182484165,2.39997038296029,2.40003030033279,2.39819283424284,2.39773346772036,2.39813291687035,2.39787327492285,2.39999035541779,2.40054958422777,2.40037981833903,2.40069937765902,2.40093904714901,2.40432437869517,2.40271659586646,2.40359538399644,2.40376514988518,2.40289634798396,2.40545282254388,2.4047937314464,2.4048736212764,2.40562258843263,2.40779958630006,2.40726032994758,2.40885812654753,2.41079545492498,2.40917768586752,2.4119039263162
2.34952994154551,2.34958985891801,2.34961981760425,2.34912050616677,2.34868111210178,2.34891079536302,2.34813186952055,2.34871107078803,2.34922036845427,2.34752270956682,2.34881093307553,2.34844144261179,2.34890080913428,2.34857126358553,2.35219626462168,2.35028889493049,2.34896072650677,2.34844144261179,2.34908056125177,2.35052856442048,2.34900067142177,2.34915046485302,2.35118765551796,2.35247587902667,2.35065838539422,2.3513773938642,2.35156713221045,2.35251582394167,2.35087808242672,2.35388393728038,2.35317491503915,2.35246589279792,2.3532647910979,2.3550922709591,2.35349447435914,2.35231609936668,2.35346451567289,2.35363428156164,2.35246589279792,2.35445315231911,2.3549724362141,2.35580129320032,2.28468935827364,2.28307158921619,2.28291180955619,2.28264218137995,2.28308157544494,2.28315147904619,2.2824923879487,2.2826721400662,2.28270209875245,2.2826122226937,2.28339114853618,2.28302165807244,2.28391043243116,2.28291180955619,2.28313150658869,2.28319142396118,2.28455953729989,2.28350099705242,2.2845195923849,2.28393040488866,2.28448963369865,2.28453956484239,2.28518866971113,2.28552820148862,2.28562806377611,2.28662668665108,2.28665664533733,2.28715595677482,2.28646690699109,2.28739562626481,2.2877950754148,2.28824445570854,2.2878350203298,2.2879149101598,2.28930299595601,2.28987221099474,2.29001201819724,2.29044142603347,2.29076098535346,2.29195933280343,2.29228887835217,2.29351718448838,2.29352717071713,2.29533467812083,2.29867007852323,2.37386638100855,2.3739762295248,2.37458538947853,2.37509468714476,2.37657264899972,2.37864978457966,2.3791391097884,2.37952857270964,2.38367285764077,2.3807269201596,2.38118628668209,2.38256438624955,2.3826542623083,2.38317354620328,2.38218490955706,2.38383263730076,2.38128614896958,2.38112636930959,2.38395247204576,2.38638911186069,2.38367285764077,2.3826342898508,2.38139599748583,2.38752754193815,2.38377271992826,2.38898553133561,2.3014961812594,2.30016801283569,2.30019797152194,2.29971863254195,2.30057744821443,2.29960878402571,2.29860017492199,2.29912944504572,2.29912944504572,2.30003819186194,2.30024790266569,2.29952889419571,2.29973860499945,2.30085706261942,2.30050754461318,2.30087703507692,2.3016759333769,2.30170589206315,2.30071725541692,2.30288426705561,2.30218523104313,2.30236498316063,2.30369315158434,2.30280437722561,2.30453199479931,2.30454198102806,2.30413254564933,2.30549067275929,2.30450203611306,2.30520107212554,2.30605988779802,2.30634948843176,2.30756780833923,2.30927545345543,2.31071347039538,2.31309019283782,2.40457403441391,2.40359538399644,2.40164806939024,2.39543663510792,2.39439806731795,2.39574620819916,2.39760364674661,2.39795316475285,2.39718422513912,2.39777341263536,2.40015013507779,2.39898174631407,2.40044972194028,2.40003030033279,2.39988050690154,2.40182782150774,2.40191769756649,2.40325585221895,2.40140839990025,2.40238705031772,2.40299621027145,2.40465392424391,2.40585227169387,2.40598209266762,2.41040599200374,2.40701067422884,2.41185399517245
2.35120762797546,2.34885087799053,2.34577511953562,2.34747277842307,2.34862119472928,2.34740287482182,2.34666389389434,2.3462145136006,2.34654405914934,2.34868111210178,2.34632436211685,2.34609467885561,2.34718317778933,2.34740287482182,2.34686361846933,2.34757264071056,2.34921038222552,2.34709330173058,2.34711327418808,2.34679371486809,2.34693352207058,2.34724309516182,2.35082815128297,2.34959984514675,2.34915046485302,2.34904061633677,2.35253579639917,2.35113772437421,2.35045866081923,2.35104784831546,2.35063841293672,2.35118765551796,2.35203648496168,2.35236603051042,2.35021899132924,2.34994936315299,2.35093799979922,2.35140735255045,2.35249585148417,2.35024895001549,2.28533846314237,2.28565802246236,2.28371070785617,2.28345106590868,2.28367076294117,2.28231263583121,2.28219280108621,2.28233260828871,2.28176339324998,2.28143384770124,2.2825523053212,2.28196311782497,2.28522861462612,2.28240251188996,2.28211291125622,2.28288185086994,2.28311153413119,2.28284190595494,2.28321139641868,2.2841800606074,2.28344107967993,2.28357090065367,2.2844197300974,2.2842799228949,2.2844996199274,2.28478922056114,2.28546828411612,2.28570795360611,2.28643694830484,2.28687634236983,2.28636704470359,2.28796484130355,2.28736566757856,2.28724583283357,2.2877751029573,2.28811463473479,2.28953267921725,2.29043143980472,2.29067110929472,2.28980230739349,2.29069108175222,2.29193936034593,2.29345726711589,2.29339734974339,2.29503509125834,2.29679266751829,2.3739163121523,2.37422588524354,2.37500481108602,2.3755041225235,2.37779096890719,2.37752134073094,2.37807058331218,2.37934882059214,2.37912912355965,2.37844007377592,2.37942871042214,2.37945866910839,2.37970832482713,2.38020763626462,2.38043731952586,2.3808068099896,2.37977822842838,2.38015770512087,2.38057712672836,2.38053718181336,2.38006782906212,2.38022760872212,2.38102650702209,2.38126617651209,2.384102265477,2.38280405573954,2.38172554303457,2.29743178615827,2.30445210496932,2.30056746198568,2.29748171730202,2.29905954144447,2.2983005880595,2.29845038149074,2.29863013360824,2.29807090479825,2.29773137302076,2.29791112513826,2.29799101496825,2.30001821940444,2.29894969292823,2.29937910076446,2.29934914207821,2.29943901813696,2.30302407425811,2.30056746198568,2.30055747575693,2.30031780626694,2.3016959058344,2.30116663571066,2.30194556155314,2.30186567172314,2.30233502447438,2.30459191217181,2.30400272467558,2.3032637437481,2.30480162297556,2.30706849690174,2.30588013568052,2.30570038356303,2.30747793228048,2.30910568756668,2.30945520557292,2.3118419142441,2.39644524421164,2.39352926541673,2.39210123470552,2.39310984380924,2.39376893490672,2.39242079402551,2.39526686921918,2.39422830142921,2.39490736498419,2.39571624951292,2.39398863193922,2.3961156986629,2.39791321983785,2.40028994228028,2.39819283424284,2.39845247619034,2.40016012130654,2.39880199419658,2.401258606469,2.40037981833903,2.40398484691768,2.40286638929771,2.40391494331643,2.40377513611393,2.40408470920517,2.4046938691589
2.34524584941188,2.34504612483689,2.34529578055563,2.34681368732559,2.34916045108177,2.34555542250312,2.3462744309731,2.34491630386314,2.34509605598064,2.34524584941188,2.34488634517689,2.34531575301313,2.34499619369314,2.3446466756869,2.3446666481444,2.34556540873187,2.34502615237939,2.3446267032294,2.34555542250312,2.34544557398688,2.34492629009189,2.34512601466689,2.34548551890187,2.3480020485468,2.35015907395674,2.34771244791306,2.34764254431181,2.3478822138018,2.34809192460555,2.34832160786679,2.34877098816053,2.34955990023176,2.34903063010802,2.35005921166924,2.34837153901054,2.34882091930428,2.34941010680051,2.35060845425048,2.349669748748,2.34697346698558,2.28376063899992,2.28350099705242,2.28513873856738,2.28252234663495,2.2827320574387,2.28179335193623,2.28201304896872,2.28191318668122,2.28144383392998,2.28182331062247,2.28138391655749,2.28214286994246,2.28171346210623,2.2827520298962,2.28229266337371,2.28161359981873,2.28248240171995,2.28285189218369,2.28331125870618,2.28354094196742,2.28295175447119,2.28350099705242,2.2844397025549,2.28522861462612,2.28491904153488,2.2843598127249,2.28530850445612,2.28576787097861,2.28613736144235,2.28619727881485,2.28653681059234,2.28642696207609,2.28688632859858,2.28722586037607,2.28690630105608,2.2893629133285,2.28814459342104,2.28912324383851,2.28924307858351,2.29037152243223,2.29167971839844,2.29180953937218,2.29427613787336,2.29589390693081,2.29603371413331,2.37291768927733,2.3737565324923,2.37628304836598,2.37644282802598,2.37498483862852,2.3755041225235,2.37611328247723,2.37592354413099,2.37591355790224,2.37662258014347,2.37698208437846,2.37755129941719,2.37768112039094,2.37795074856718,2.37796073479593,2.37974826974213,2.37956851762463,2.37968835236963,2.37833022525967,2.38313360128828,2.37841011508967,2.37809055576968,2.37861982589341,2.38135605257083,2.37632299328098,2.38096658964959,2.29956883911071,2.29861016115074,2.29905954144447,2.29747173107327,2.29852028509199,2.29713219929578,2.29797104251075,2.29723206158328,2.298200725772,2.29754163467452,2.29825065691575,2.29704232323703,2.29695244717828,2.29843040903324,2.29876994081073,2.29780127662201,2.29866009229448,2.29925926601947,2.30026787512319,2.30051753084193,2.30061739312943,2.30109673210941,2.29916938996072,2.30011808169194,2.30061739312943,2.30125651176941,2.30129645668441,2.30125651176941,2.30131642914191,2.30217524481438,2.30304404671561,2.30376305518559,2.30402269713308,2.30540079670054,2.30557056258928,2.30580024585053,2.30803716109046,2.30882607316169,2.31105300217287,2.39459779189295,2.39406852176921,2.38830646778063,2.39001411289683,2.38970453980559,2.39090288725556,2.39371900376297,2.39291011923425,2.39238084911051,2.39302995397924,2.39358918278923,2.39369903130547,2.39583608425791,2.39420832897171,2.40160812447524,2.3981429030991,2.39853236602033,2.39887189779782,2.39791321983785,2.39805302704035,2.40089910223401,2.40356542531019,2.40220729820023,2.40159813824649,2.40287637552646,2.40366528759768
2.3445068684844,2.34558538118937,2.34575514707812,2.34321864497569,2.3429190581132,2.34310879645944,2.34268937485196,2.34354819052443,2.34382780492942,2.34406747441942,2.34593489919561,2.34388772230192,2.3429789754857,2.3445268409419,2.34245969159071,2.34198035261073,2.34222002210072,2.34244970536196,2.34337842463569,2.34397759836067,2.34674378372434,2.34413737802066,2.34377787378567,2.34440700619691,2.34581506445062,2.34564529856187,2.34590494050936,2.34599481656811,2.34735294367807,2.34726306761932,2.34677374241059,2.34739288859307,2.34832160786679,2.34763255808306,2.34900067142177,2.34827167672304,2.34888083667678,2.34707332927308,2.34934020319926,2.28491904153488,2.28405023963366,2.28311153413119,2.28229266337371,2.28236256697496,2.28220278731496,2.28088460512,2.2807447979175,2.28124410935499,2.28139390278624,2.28107434346625,2.28166353096248,2.28163357227623,2.2827520298962,2.28320141018993,2.2825722777787,2.28225271845871,2.28252234663495,2.28321139641868,2.28289183709869,2.28299169938619,2.28359087311117,2.28320141018993,2.28374066654242,2.28350099705242,2.2842599504374,2.2843797851824,2.28532847691362,2.28571793983486,2.28529851822737,2.28542833920112,2.28561807754736,2.28641697584734,2.28718591546107,2.28708605317357,2.28832434553853,2.28792489638855,2.28870382223102,2.28995210082474,2.29024170145848,2.28975237624974,2.2931177353384,2.29263839635841,2.2945857109646,2.29548447155208,2.37092044352739,2.36899310137869,2.37356679414606,2.37305749647982,2.37332712465607,2.37276789584608,2.37524448057601,2.37485501765477,2.37434571998854,2.37658263522847,2.37486500388352,2.37505474222977,2.3756639021835,2.37595350281724,2.37497485239977,2.37584365430099,2.37688222209096,2.37933883436339,2.37643284179723,2.37808056954093,2.37748139581595,2.37978821465713,2.37876961932466,2.37955853139588,2.37306748270857,2.37097037467113,2.3721487496636,2.29942903190821,2.29777131793576,2.29640320459705,2.2964930806558,2.29531470566333,2.29658295671454,2.29542455417958,2.29534466434958,2.29654301179955,2.29598378298956,2.2963932183683,2.2962733836233,2.29628336985205,2.29687255734829,2.29708226815203,2.29740182747202,2.29791112513826,2.29771140056326,2.29760155204701,2.29795107005326,2.2998284810582,2.29910947258822,2.29860017492199,2.29894969292823,2.2999882607182,2.3013963189719,2.30086704884817,2.30102682850817,2.30073722787442,2.30172586452065,2.30188564418064,2.30186567172314,2.3034235234081,2.30267455625187,2.30370313781309,2.3048914990343,2.30725823524798,2.30929542591293,2.31053371827789,2.31203165259035,2.38719799638941,2.38676858855318,2.38700825804317,2.3877372527419,2.3892052283681,2.38965460866184,2.39019386501433,2.39051342433432,2.39163188195428,2.39201135864677,2.39143215737929,2.39239083533926,2.39319971986799,2.39335949952798,2.3961556435779,2.39610571243415,2.39873209059533,2.39573622197041,2.39662499632914,2.39964083741155,2.39908160860157,2.39891184271282,2.40077926748902,2.40102892320776,2.40381508102893
2.34041251469702,2.34142112380074,2.34200032506823,2.34078200516076,2.34208021489822,2.34338841086444,2.34207022866947,2.34156093100324,2.3413112752845,2.34203028375447,2.34227993947322,2.34074206024576,2.34074206024576,2.34005301046203,2.341051633337,2.34181058672198,2.34210018735572,2.34130128905575,2.34059226681452,2.34163083460449,2.34177064180698,2.34162084837574,2.34226995324447,2.34390769475942,2.34374791509942,2.34382780492942,2.34475652420315,2.34513600089563,2.34544557398688,2.3462944034306,2.34538565661438,2.34775239282806,2.34815184197805,2.34747277842307,2.34611465131311,2.34542560152938,2.34518593203938,2.3447265655169,2.34550549135937,2.28426993666615,2.28332124493493,2.28212289748497,2.28127406804124,2.28144383392998,2.28113426083874,2.28027544516627,2.28062496317251,2.28178336570747,2.28161359981873,2.28073481168876,2.28212289748497,2.28165354473373,2.28141387524374,2.28306160298744,2.28285189218369,2.2827720023537,2.28301167184369,2.28340113476493,2.28246242926246,2.28287186464119,2.28325134133368,2.28321139641868,2.28330127247743,2.28383054260116,2.28351098328117,2.28412014323491,2.2842799228949,2.2860075404686,2.28501890382238,2.28633708601734,2.2862472099586,2.28640698961859,2.28637703093234,2.28750547478106,2.28838426291103,2.28756539215356,2.28955265167475,2.28953267921725,2.28999204573974,2.29072104043847,2.29269831373091,2.29360706054713,2.2963133285383,2.36693593825625,2.36843387256871,2.36912292235244,2.37003166916866,2.37132987890612,2.37147967233737,2.37273793715983,2.37300756533608,2.37298759287858,2.37331713842732,2.37225859817985,2.37128993399112,2.37641286933973,2.3737765049498,2.37418594032854,2.37440563736103,2.37514461828851,2.37476514159602,2.37467526553728,2.37402616066855,2.37370660134856,2.37372657380605,2.37318731745357,2.37027133865865,2.37099034712863,2.37774103776344,2.29785120776576,2.29714218552453,2.29709225438078,2.29690251603454,2.29542455417958,2.29599376921831,2.29583398955832,2.29465561456585,2.29559432006832,2.29686257111954,2.29506504994459,2.29608364527706,2.29492524274209,2.29487531159834,2.29488529782709,2.29636325968205,2.29564425121207,2.29624342493705,2.29762152450451,2.29698240586453,2.29709225438078,2.29762152450451,2.29749170353077,2.29758157958952,2.29752166221702,2.29971863254195,2.29894969292823,2.29919934864697,2.30107675965191,2.29997827448945,2.30053750329943,2.30108674588066,2.30317386768935,2.30091697999192,2.30184569926564,2.30286429459811,2.3085065138417,2.30643936449051,2.30652924054926,2.30731815262048,2.30855644498545,2.31099308480038,2.38731783113441,2.38624930465819,2.38517079195322,2.38506094343697,2.38609951122694,2.38740770719316,2.38827650909438,2.3876174179969,2.39050343810557,2.39495729612794,2.39040357581807,2.39218112453552,2.39098277708555,2.39187155144428,2.39129235017679,2.39144214360804,2.392840215633,2.39420832897171,2.39478753023919,2.39520695184668,2.39662499632914,2.39717423891037,2.39773346772036,2.39824276538659,2.40718044011758
2.33720693526837,2.33841526894708,2.34192043523823,2.33918420856081,2.33980335474329,2.34054233567077,2.34106161956575,2.34087188121951,2.3393040433058,2.34053234944202,2.33979336851454,2.3411914405395,2.33855507614958,2.33852511746333,2.3393240157633,2.33856506237833,2.33822553060084,2.33864495220832,2.33875480072457,2.33897449775706,2.33982332720079,2.34008296914828,2.34066217041576,2.34023276257953,2.34120142676825,2.34182057295073,2.34239977421821,2.34419729539316,2.34509605598064,2.34512601466689,2.34496623500689,2.34830163540929,2.34190046278073,2.34337842463569,2.33920418101831,2.33992318948829,2.34083193630451,2.34255955387821,2.34562532610437,2.28366077671242,2.28336118984993,2.2859276506386,2.28120416443999,2.28121415066874,2.28207296634122,2.28018556910752,2.28063494940126,2.28073481168876,2.28154369621748,2.28061497694376,2.2808246877475,2.28199307651122,2.28131401295624,2.28085464643375,2.28175340702123,2.28184328307997,2.28229266337371,2.28223274600121,2.2827720023537,2.28264218137995,2.28315147904619,2.2828119472687,2.28327131379118,2.28386050128741,2.28346105213743,2.28364080425492,2.2844796474699,2.2844596750124,2.28526855954112,2.28538839428612,2.2860474853836,2.28660671419358,2.28665664533733,2.28719590168982,2.28755540592481,2.28861394617228,2.28963254150475,2.29008192179848,2.29108054467345,2.29240871309717,2.29531470566333,2.29833054674574,2.36753511198123,2.36793456113122,2.36758504312498,2.36842388633996,2.36915288103869,2.37001169671116,2.37049103569115,2.3706008842074,2.37145969987987,2.37209881851985,2.3722685844086,2.37496486617102,2.37583366807224,2.37593353035974,2.37274792338858,2.37165942445486,2.37319730368232,2.37340701448606,2.37261810241484,2.37435570621729,2.37390632592355,2.37348690431606,2.37271796470233,2.3722885568661,2.37174930051361,2.37121004416113,2.37170935559861,2.29683261243329,2.29505506371584,2.29565423744082,2.29513495354584,2.29492524274209,2.29410637198462,2.29602372790456,2.29552441646708,2.29534466434958,2.29519487091834,2.29519487091834,2.29588392070207,2.29568419612707,2.29505506371584,2.2947854355396,2.29537462303583,2.29553440269583,2.29595382430331,2.29581401710082,2.29664287408704,2.2965529980283,2.29686257111954,2.29675272260329,2.29713219929578,2.29713219929578,2.29759156581827,2.29842042280449,2.29853027132074,2.29949893550946,2.30087703507692,2.30002820563319,2.29952889419571,2.30040768232568,2.30164597469065,2.30087703507692,2.30218523104313,2.30249480413437,2.30301408802936,2.30462187085806,2.3050512786943,2.30742800113673,2.38690839575567,2.38619937351444,2.38587981419445,2.3841621828495,2.38381266484326,2.3841621828495,2.38511087458072,2.38622933220069,2.3860096351682,2.38662878135068,2.38681851969692,2.38764737668315,2.38817664680688,2.38945488408685,2.3928202431755,2.39083298365431,2.39033367221682,2.39068319022306,2.39243078025426,2.39359916901798,2.39375894867797,2.39381886605047,2.39534675904918,2.39547658002292,2.39572623574167,2.39822279292909
2.33507986854468,2.33799584733959,2.33887463546957,2.3375564532746,2.33837532403208,2.33909433250206,2.3393439882208,2.33774619162085,2.33897449775706,2.33799584733959,2.33683744480463,2.33704715560837,2.33711705920962,2.33696726577837,2.33744660475836,2.33654784417088,2.33656781662838,2.33697725200712,2.33694729332087,2.33743661852961,2.3375564532746,2.33818558568584,2.33810569585584,2.33966354754079,2.33970349245579,2.34065218418701,2.3410716057945,2.34096175727826,2.34213014604197,2.3427393059957,2.3427393059957,2.34544557398688,2.33911430495956,2.33707711429462,2.33884467678332,2.33992318948829,2.33561912489716,2.33645796811214,2.33923413970456,2.29010189425598,2.28222275977246,2.28199307651122,2.28101442609375,2.28080471529,2.28110430215249,2.28026545893752,2.28059500448626,2.27999583076128,2.27987599601628,2.27992592716003,2.28026545893752,2.28063494940126,2.28085464643375,2.28083467397625,2.2810244123225,2.28101442609375,2.28174342079248,2.28209293879872,2.28217282862871,2.2827120849812,2.28278198858245,2.28284190595494,2.28272207120995,2.28340113476493,2.28401029471866,2.28410017077741,2.28403026717616,2.28442971632615,2.28504886250863,2.28478922056114,2.28585774703736,2.28636704470359,2.28706608071607,2.28740561249356,2.28761532329731,2.28865389108728,2.29000203196849,2.29145003513719,2.29196931903218,2.29487531159834,2.36388015225884,2.36156334718891,2.36489874759131,2.36597726029628,2.36656644779251,2.36735535986374,2.36806438210497,2.36846383125496,2.36818421684997,2.36946245412993,2.36928270201243,2.36840391388246,2.36983194459367,2.37114014055988,2.37410605049854,2.37287774436233,2.37087051238364,2.3702613524299,2.36971210984867,2.37071073272364,2.36985191705117,2.36973208230617,2.36934261938493,2.36868352828745,2.37320728991107,2.37420591278604,2.37285777190483,2.37511465960226,2.2963333009958,2.29544452663708,2.29444590376211,2.2946256558796,2.29400650969712,2.29363701923338,2.29362703300463,2.29342730842964,2.29389666118087,2.29298791436465,2.29339734974339,2.29436601393211,2.29378681266463,2.29364700546213,2.29322758385464,2.29417627558587,2.29469555948085,2.2947255181671,2.29553440269583,2.29596381053206,2.29588392070207,2.29540458172208,2.29527476074833,2.29610361773456,2.29689252980579,2.29729197895577,2.2962733836233,2.29711222683828,2.29765148319076,2.29766146941951,2.29779129039326,2.298080891027,2.29935912830696,2.30039769609693,2.30349342700934,2.30048757215568,2.30098688359317,2.3014562363444,2.30219521727188,2.30576030093553,2.30757779456798,2.30700857952924,2.31442834749028,2.38270419345204,2.38105646570834,2.38209503349831,2.38252444133455,2.38244455150455,2.38493112246323,2.38279406951079,2.38232471675955,2.38395247204576,2.384182155307,2.38634916694569,2.38633918071694,2.38655887774943,2.38752754193815,2.38708814787317,2.38715805147441,2.38859606841437,2.39367905884797,2.39135226754929,2.39340943067173,2.39022382370058,2.3911125980593,2.39224104190802,2.39449792960545,2.39579613934291
