2.30256491175051,2.30380326330327,2.30414281130967,2.30401298413075,2.30450233272821,2.30390313036397,2.30242509786553,2.30104693242779,2.30093707866101,2.30031790288464,2.30041776994534,2.30054759712426,2.30014812888144,2.2998884745236,2.30096703877922,2.30055758383033,2.29998834158431,2.30049766359391,2.30027795606035,2.30071737112746,2.30120671972492,2.30307423376011,2.30265479210515,2.30315412740868,2.30376331647898,2.3048119206164,2.30554095015955,2.30681924853658,2.30770806537686,2.30922604469959,2.30961552623634,2.31083390437695,2.31086386449517,2.31216213628434,2.31284123229714,2.31172272121723,2.31208224263578,2.31332059418853,2.31437918503201,2.27264474036307,2.27215539176561,2.2717159766985,2.27191571081991,2.27286444789662,2.27173595011064,2.27267470048128,2.27303422189982,2.27131650845568,2.27164606975601,2.27192569752598,2.27209547152918,2.27284447448448,2.27255486000843,2.27313408896052,2.27288442130876,2.27340373002443,2.27347363696692,2.27332383637586,2.27422263992222,2.2747719087561,2.27546099147497,2.27751825292551,2.27616006089991,2.27678922338235,2.27837710964758,2.27960547449426,2.280134769916,2.28266140655185,2.32685258091416,2.32625337854992,2.32584392360103,2.32783127810908,2.32713220868414,2.32637321902277,2.32702235491736,2.32549438888856,2.32491515993647,2.32407627662654,2.32186921458494,2.32192913482136,2.31982193984047,2.32063086303219,2.31826401369346,2.31805429286598,2.31789450556885,2.31742513038353,2.31738518355925,2.31736521014711,2.31809423969026,2.31814417322062,2.31789450556885,2.31889317617591,2.31868345534843,2.32010156761045,2.31995176701939,2.32116015845393,2.3210003711568,2.32238852330061,2.322867885192,2.32404631650833,2.32448573157543,2.32556429583106,2.32577401665854,2.32607361784065,2.32752169022089,2.32749173010268,2.32248839036132,2.28870336372455,2.28723531793218,2.2869556901622,2.28626660744333,2.28472865470846,2.28436913328992,2.28383983786818,2.28361014362856,2.28344036962536,2.28330055574037,2.28304090138254,2.28322066209181,2.28299096785218,2.28228191172117,2.28264143313971,2.28255155278508,2.28224196489689,2.28239176548795,2.28216207124833,2.28161280241444,2.28145301511731,2.28095367981379,2.28106353358056,2.2814230549991,2.28158284229623,2.28225195160296,2.28116340064127,2.28099362663807,2.2804044109799,2.28148297523553,2.28037445086169,2.28079389251666,2.28122332087769,2.28060414510132,2.28076393239844,2.28099362663807,2.28137312146875,2.28063410521953,2.28133317464447,2.28112345381699,2.2814929619416,2.28164276253266,2.28177258971157,2.2820022839512,2.28181253653586,2.28352026327392,2.28194236371477,2.28235181866367,2.28220201807261,2.281832509948,2.28322066209181,2.28620668720691,2.28509816283308,2.2834603430375,2.28454889399919,2.28485848188738,2.28573731202159,2.28826394865745,2.2878045601782,2.28764477288107,2.28813412147853,2.28844370936672,2.29006155575015,2.29112014659363,2.3466262589339,2.34987193840684,2.34710562082529,2.34644649822463,2.34790455731094
2.30313415399654,2.30414281130967,2.30672936818195,2.30387317024576,2.30387317024576,2.30248501810195,2.3024350845716,2.30162616137988,2.30130658678562,2.30112682607635,2.30316411411475,2.30058754394854,2.30166610820416,2.29884985709226,2.29955891322327,2.29980858087504,2.29999832829038,2.30013814217536,2.30047769018176,2.30086717171852,2.30169606832237,2.30177596197094,2.30271471234157,2.30366344941828,2.3041328246036,2.30556092357169,2.30592044499023,2.30707890289442,2.30763815843437,2.30937584529065,2.31041446272199,2.31065414366768,2.31114349226514,2.31211220275399,2.31204229581149,2.31054428990091,2.31157292062618,2.31249169758467,2.31415947749846,2.27271464730556,2.27220532529596,2.27153621598923,2.27285446119055,2.2716161096378,2.27115672115855,2.27148628245888,2.27125658821926,2.27165605646208,2.27167602987422,2.27293435483911,2.27200559117455,2.27208548482311,2.27235512588702,2.27275459412984,2.27294434154518,2.27294434154518,2.27359347743977,2.27464208157718,2.27406285262509,2.27435246710113,2.27549095159318,2.27497164287751,2.27625992796061,2.27753822633765,2.2786068038872,2.27867671082969,2.28094369310772,2.28289110079148,2.32750171680875,2.32689252773844,2.32658293985025,2.32644312596527,2.32847042729759,2.32672275373524,2.32639319243491,2.32783127810908,2.32370676850193,2.3233772072016,2.32281795166165,2.32132993245713,2.32069078326861,2.3198818600769,2.31960223230692,2.31848372122702,2.31759490438673,2.31762486450495,2.31742513038353,2.3182839871056,2.31800435933563,2.31789450556885,2.31808425298419,2.31877333570306,2.31804430615991,2.31961221901299,2.32044111561685,2.32091049080217,2.3215096931664,2.32227866953383,2.32437587780866,2.32414618356903,2.32462554546042,2.32571409642211,2.32574405654033,2.32603367101637,2.32691250115058,2.32676270055952,2.32773141104837,2.3256841363039,2.28837380242422,2.28635648779797,2.28475861482668,2.28504822930272,2.28417938587458,2.28358018351035,2.28446900035063,2.28391973151675,2.28337046268287,2.28337046268287,2.28320068867967,2.28320068867967,2.28153290876588,2.28308084820682,2.28238177878188,2.28287112737934,2.2824416990183,2.28202225736334,2.28216207124833,2.28233184525153,2.28158284229623,2.28136313476268,2.28170268276908,2.2821021510119,2.28146300182339,2.28129322782019,2.28107352028663,2.28111346711092,2.28114342722913,2.2814230549991,2.28085381275308,2.2811534139352,2.28124329428983,2.2809137329895,2.28157285559016,2.28068403874988,2.28090374628343,2.28174262959336,2.28243171231223,2.28072398557416,2.28228191172117,2.28198231053906,2.28195235042084,2.28211213771797,2.28276127361256,2.2844789870567,2.28306087479468,2.282681379964,2.28296100773397,2.28401959857745,2.28474862812061,2.28330055574037,2.28393970492889,2.28460881423562,2.28534783048484,2.28589709931872,2.2860069530855,2.28659616874366,2.28677592945293,2.2881441081846,2.28893305796418,2.28983186151053,2.29093039917829,2.34790455731094,2.34680601964317,2.3464564849307,2.34630668433964,2.34657632540355
2.30417277142788,2.30373335636077,2.30391311707004,2.30405293095503,2.30363348930007,2.30246504468981,2.30161617467381,2.30115678619456,2.30100698560351,2.30061750406675,2.30033787629678,2.30075731795174,2.30069739771532,2.30292443316906,2.29968874040219,2.30055758383033,2.30027795606035,2.30051763700605,2.30103694572172,2.30036783641499,2.30143641396454,2.30205558974092,2.30237516433517,2.30353362223936,2.3038931436579,2.3052513356835,2.30615013922985,2.3070489427762,2.30950567246957,2.30941579211493,2.3106141968434,2.31074402402232,2.31218210969648,2.31269143170608,2.31234189699361,2.31109355873479,2.31244176405432,2.31249169758467,2.31418943761667,2.27294434154518,2.27138641539817,2.27269467389342,2.2716161096378,2.27099693386142,2.27165605646208,2.27115672115855,2.27221531200203,2.27106684080391,2.27102689397963,2.27191571081991,2.27225525882631,2.27242503282951,2.27250492647808,2.27279454095412,2.27308415543017,2.27299427507554,2.27294434154518,2.27363342426405,2.27472197522575,2.27537111112033,2.27516139029285,2.2760601938392,2.27684914361878,2.27716871821304,2.27986512885209,2.27885647153896,2.28213211113011,2.28315075514931,2.32730198268734,2.32740184974804,2.32698240809308,2.32668280691096,2.3272121023327,2.32625337854992,2.32661289996846,2.32501502699717,2.32414618356903,2.32469545240291,2.32321741990447,2.32168945387567,2.32027134161365,2.3198119531344,2.31872340217271,2.31892313629412,2.31786454545064,2.31963219242513,2.31751501073817,2.31755495756245,2.31772473156565,2.31776467838993,2.31824404028132,2.31871341546664,2.31892313629412,2.31940249818551,2.32059091620791,2.32130995904499,2.32144977292998,2.32297773895878,2.32403632980226,2.32421609051153,2.32478533275755,2.32503500040931,2.32572408312818,2.32572408312818,2.32691250115058,2.32635324561063,2.32663287338061,2.32510490735181,2.28774463994178,2.2866161421558,2.28459882752955,2.2862765941494,2.28480854835703,2.2841394390503,2.28331054244644,2.28341040950715,2.28239176548795,2.28288111408541,2.28288111408541,2.28297099444004,2.28275128690649,2.28276127361256,2.28284116726113,2.28280122043684,2.28333051585858,2.28229189842724,2.28221200477868,2.28206220418762,2.28220201807261,2.28208217759976,2.28112345381699,2.28182252324193,2.28163277582659,2.28095367981379,2.28140308158696,2.28153290876588,2.28111346711092,2.28120334746555,2.28084382604701,2.28110348040484,2.28112345381699,2.2828511539672,2.28053423815882,2.28059415839525,2.28061413180739,2.28133317464447,2.28201227065727,2.28128324111412,2.2820022839512,2.28209216430583,2.28198231053906,2.2823418319576,2.282681379964,2.28338044938894,2.28320068867967,2.28273131349435,2.28338044938894,2.28473864141453,2.28454889399919,2.28398963845924,2.28476860153275,2.2853278570727,2.28503824259665,2.28529789695449,2.28675595604079,2.28665608898009,2.28727526475646,2.28745502546573,2.28870336372455,2.2904510372869,2.34629669763357,2.34655635199141,2.3467960329371,2.34556766809042,2.34673611270068,2.34796447754736
2.3038931436579,2.30439247896143,2.30441245237357,2.30482190732247,2.30275465916586,2.3011767596067,2.30050765029998,2.30071737112746,2.30055758383033,2.30032788959071,2.30018807570572,2.30011816876322,2.29986850111146,2.29955891322327,2.29969872710826,2.29989846122967,2.3000582485268,2.30102695901565,2.30064746418496,2.30088714513066,2.30148634749489,2.30251497822016,2.30298435340548,2.30342376847258,2.30415279801574,2.30433255872501,2.30658955429696,2.30737850407653,2.30746838443117,2.31031459566128,2.30947571235135,2.31148304027154,2.31176266804152,2.31295108606392,2.31323071383389,2.31170274780509,2.31216213628434,2.3118026148658,2.27609015395741,2.27317403578481,2.27686911703092,2.27180585705314,2.27253488659629,2.27181584375921,2.27162609634387,2.27207549811704,2.27166604316815,2.27090705350679,2.27183581717135,2.27251491318415,2.27206551141097,2.2723950727113,2.27253488659629,2.27293435483911,2.27282450107234,2.27305419531196,2.27382317167939,2.27396298556438,2.27437244051328,2.2746021347529,2.2757905527753,2.27586045971779,2.27694901067948,2.27785780093191,2.27947564731534,2.27985514214602,2.28203224406941,2.28291107420362,2.32641316584705,2.32730198268734,2.32780131799086,2.32741183645411,2.32709226185985,2.32605364442851,2.32618347160743,2.32508493393967,2.32367680838372,2.32234857647633,2.32200902846993,2.32118013186607,2.32040116879257,2.31891314958805,2.31970209936763,2.31804430615991,2.31813418651455,2.31800435933563,2.31737519685318,2.31757493097459,2.31791447898099,2.31755495756245,2.31787453215671,2.31738518355925,2.31950236524621,2.319472405128,2.32078066362325,2.32165949375746,2.32211888223671,2.32304764590127,2.32428599745402,2.32447574486936,2.32465550557863,2.32607361784065,2.32549438888856,2.32658293985025,2.32544445535821,2.32564418947962,2.32533460159143,2.32590384383745,2.28649630168296,2.28628658085547,2.28561747154875,2.28688578321971,2.28487845529952,2.28365009045284,2.28333051585858,2.2831907019736,2.28289110079148,2.28330055574037,2.28347032974357,2.28270135337614,2.28291107420362,2.28184249665407,2.28206220418762,2.28238177878188,2.28297099444004,2.28170268276908,2.28182252324193,2.28185248336014,2.28164276253266,2.28172265618122,2.28152292205981,2.28180254982979,2.28219203136654,2.28168270935694,2.28055421157096,2.28135314805661,2.28148297523553,2.28256153949115,2.28172265618122,2.28104356016842,2.28103357346235,2.28204223077548,2.28046433121633,2.28048430462847,2.28087378616522,2.28073397228023,2.28279123373077,2.28198231053906,2.2824416990183,2.28167272265087,2.28220201807261,2.28277126031863,2.28212212442404,2.28198231053906,2.28283118055505,2.28277126031863,2.28333051585858,2.28291107420362,2.28477858823882,2.28458884082348,2.28565741837303,2.28483850847524,2.28451893388098,2.28564743166696,2.28544769754555,2.28643638144653,2.28795436076926,2.28962214068305,2.29063079799618,2.29260816579815,2.34484862525334,2.34410960900412,2.34487858537155,2.34659629881569,2.34792453072308,2.34746514224383
2.30359354247578,2.30454227955249,2.30420273154609,2.30354360894543,2.30343375517866,2.30080725148209,2.30067742430318,2.30035784970892,2.30097702548529,2.29929925886544,2.2995489265172,2.29916943168652,2.2988698305044,2.29901963109546,2.29960884675362,2.29939912592614,2.2997187005204,2.30054759712426,2.30060751736068,2.30176597526487,2.30142642725847,2.3023651776291,2.30279460599014,2.3034537285908,2.30422270495823,2.30526132238957,2.30683922194872,2.30736851737046,2.30877664292641,2.3096654597667,2.3049117876771,2.31184256169008,2.31218210969648,2.31114349226514,2.31257159123323,2.30980527365168,2.31342046124923,2.27461212145897,2.27415273297972,2.27422263992222,2.27211544494133,2.27141637551638,2.2711067876282,2.27067735926716,2.2715462026953,2.27116670786462,2.27136644198603,2.27153621598923,2.27153621598923,2.27145632234067,2.2712066546889,2.27337376990622,2.27263475365699,2.27257483342057,2.27263475365699,2.27311411554838,2.27361345085191,2.27393302544617,2.27507150993822,2.27471198851967,2.27479188216824,2.27568069900852,2.27747830610123,2.27814741540795,2.28012478320993,2.28272132678828,2.28186247006621,2.32576402995247,2.32634325890456,2.32683260750202,2.32778134457872,2.3268725543263,2.32776137116658,2.32944912449251,2.32775138446051,2.32561422936141,2.32810091917298,2.32244844353703,2.32183925446673,2.32107027809929,2.32045110232292,2.31944244500979,2.3186934420545,2.31950236524621,2.31825402698739,2.31768478474137,2.31755495756245,2.31748505061996,2.31778465180208,2.31785455874457,2.31803431945384,2.31957227218871,2.31958225889478,2.31968212595548,2.32096042433252,2.32156961340282,2.32171941399388,2.32277800483736,2.32373672862014,2.32373672862014,2.32443579804508,2.32484525299397,2.32588387042531,2.32549438888856,2.32579399007068,2.32362687485336,2.32572408312818,2.32496509346682,2.32647308608348,2.28545768425162,2.28582719237623,2.28541773742733,2.28450894717491,2.28445901364456,2.28373997080748,2.28366007715891,2.28288111408541,2.2830209279704,2.28282119384898,2.28253157937294,2.28299096785218,2.2829510210279,2.28253157937294,2.28230188513331,2.28226193830903,2.28243171231223,2.28189243018442,2.28204223077548,2.28214209783618,2.28021466356456,2.28155288217802,2.28222199148475,2.2815928290023,2.28186247006621,2.28123330758376,2.2814929619416,2.28169269606301,2.28113344052306,2.28046433121633,2.28152292205981,2.28107352028663,2.28128324111412,2.28104356016842,2.28050427804061,2.28175261629943,2.28272132678828,2.2821720579544,2.28154289547195,2.28238177878188,2.28231187183938,2.28246167243044,2.28324063550395,2.28207219089369,2.28270135337614,2.28308084820682,2.28296100773397,2.28321067538574,2.28505821600879,2.28373997080748,2.2841394390503,2.28394969163496,2.28451893388098,2.2851580830695,2.28543771083948,2.2856674050791,2.28849364289707,2.28801428100568,2.28300095455825,2.2933371953413,2.29642308751711,2.34252172273889,2.34335061934275,2.34510827961117,2.34597712303931,2.34636660457607,2.34855369320552
2.30377330318505,2.30436251884322,2.30375332977291,2.30397303730647,2.30138648043419,2.30114679948849,2.30126663996134,2.30050765029998,2.30015811558751,2.29968874040219,2.29958887334148,2.29994839476002,2.29991843464181,2.29891976403475,2.30025798264821,2.30015811558751,2.29990844793574,2.30022802253,2.30031790288464,2.3009071185428,2.30131657349169,2.30310419387833,2.30303428693583,2.30323402105724,2.30567077733846,2.30554095015955,2.30673935488802,2.30763815843437,2.30902631057818,2.31068410378589,2.311972388869,2.31267145829394,2.30975534012133,2.31115347897121,2.31108357202872,2.31117345238335,2.31217212299041,2.31452898562307,2.27285446119055,2.27165605646208,2.2715462026953,2.27191571081991,2.27182583046528,2.27094700033107,2.27091704021286,2.27119666798283,2.27139640210424,2.27164606975601,2.27200559117455,2.27184580387742,2.27229520565059,2.27262476695092,2.27253488659629,2.27240505941737,2.27284447448448,2.27344367684871,2.27359347743977,2.27370333120655,2.27395299885831,2.27410279944937,2.27576059265709,2.2759603267785,2.27641971525774,2.2772486118616,2.27955554096391,2.28061413180739,2.28105354687449,2.32559425594927,2.32654299302597,2.32842049376724,2.32795111858192,2.32878001518578,2.32808094576084,2.32964885861392,2.32758161045731,2.32544445535821,2.32536456170964,2.32339718061374,2.32305763260734,2.32102034456894,2.31986188666476,2.3187933091152,2.31926268430052,2.31826401369346,2.31809423969026,2.31791447898099,2.31825402698739,2.31769477144744,2.31844377440273,2.31813418651455,2.31798438592349,2.31857360158165,2.31926268430052,2.32046108902899,2.32076069021111,2.32129997233892,2.32264817765845,2.32353699449873,2.32414618356903,2.3251748142943,2.32495510676075,2.32841050706117,2.32599372419209,2.32481529287576,2.32321741990447,2.32342714073195,2.32467547899077,2.28812413477246,2.28688578321971,2.2857672721398,2.28595701955515,2.28446900035063,2.28490841541773,2.28431919975957,2.28438910670206,2.28420934599279,2.28332052915251,2.28372998410141,2.2832905690343,2.2828511539672,2.28299096785218,2.28289110079148,2.28252159266687,2.28256153949115,2.28305088808861,2.28247165913651,2.28326060891609,2.28194236371477,2.2821720579544,2.28260148631543,2.28185248336014,2.2820022839512,2.28122332087769,2.28181253653586,2.2819323770087,2.28129322782019,2.28075394569237,2.28093370640164,2.28111346711092,2.28122332087769,2.28173264288729,2.28144302841124,2.28158284229623,2.28085381275308,2.28230188513331,2.28286114067327,2.28167272265087,2.28206220418762,2.28148297523553,2.28206220418762,2.28267139325793,2.28279123373077,2.28296100773397,2.28497832236023,2.28401959857745,2.28364010374677,2.28411946563816,2.28443904023242,2.2871254641654,2.28473864141453,2.28442905352635,2.28501826918451,2.28499829577237,2.2848185350631,2.28628658085547,2.28727526475646,2.28934251291307,2.28983186151053,2.29172933566394,2.3433006858124,2.34643651151856,2.34746514224383,2.34644649822463,2.34670615258247,2.34755502259847,2.34862360014802
2.30384321012755,2.3043025986068,2.30373335636077,2.30251497822016,2.30155625443739,2.30094706536708,2.30048767688784,2.3000582485268,2.30036783641499,2.30072735783353,2.29930924557151,2.29979859416897,2.29973867393254,2.2992792854533,2.29938913922007,2.29959886004755,2.30015811558751,2.30017808899965,2.30025798264821,2.30112682607635,2.30214547009555,2.30247503139588,2.30325399446938,2.30387317024576,2.30438249225536,2.30587051145988,2.30639980688162,2.30812750703183,2.30935587187851,2.31028463554307,2.31057425001912,2.31203230910542,2.31189249522043,2.30564081722025,2.31113350555907,2.3107839708466,2.31329063407032,2.27369334450048,2.27272463401163,2.27305419531196,2.27147629575281,2.27129653504354,2.27062742573681,2.27168601658029,2.27115672115855,2.27124660151318,2.27163608304994,2.27172596340457,2.27180585705314,2.27215539176561,2.27258482012664,2.27322396931516,2.27247496635987,2.27275459412984,2.27278455424805,2.27268468718735,2.27430253357078,2.27382317167939,2.27459214804683,2.27583049959958,2.27554088512353,2.27591039324814,2.27640972855167,2.27754821304372,2.27773796045906,2.28025461038885,2.28171266947515,2.32664286008668,2.32577401665854,2.32748174339661,2.3288399354222,2.32897974930719,2.32886989554042,2.32821077293976,2.32607361784065,2.32707228844771,2.32429598416009,2.32310756613769,2.32362687485336,2.32166948046353,2.32098039774466,2.31951235195228,2.31839384087238,2.31805429286598,2.31834390734203,2.31904297676697,2.31872340217271,2.31779463850815,2.31836388075417,2.31798438592349,2.31848372122702,2.31953232536443,2.32048106244113,2.31995176701939,2.32089051739002,2.32211888223671,2.32267813777666,2.32380663556263,2.32431595757223,2.32441582463294,2.32544445535821,2.32544445535821,2.32678267397167,2.32572408312818,2.3238865292112,2.32379664885656,2.32854033424009,2.32560424265534,2.28659616874366,2.28620668720691,2.28612679355834,2.28511813624522,2.28512812295129,2.28425927952315,2.28421933269886,2.2831207950311,2.28341040950715,2.28386979798639,2.28344036962536,2.28438910670206,2.28473864141453,2.28337046268287,2.28293104761576,2.28213211113011,2.28271134008221,2.282681379964,2.28252159266687,2.28177258971157,2.2826114730215,2.28282119384898,2.2828511539672,2.28118337405341,2.28182252324193,2.28198231053906,2.2819323770087,2.28178257641764,2.2819323770087,2.28092371969557,2.28145301511731,2.28202225736334,2.28096366651986,2.28150294864767,2.28156286888409,2.28167272265087,2.28243171231223,2.28190241689049,2.28228191172117,2.28208217759976,2.28187245677228,2.28109349369877,2.28298098114611,2.28272132678828,2.2823418319576,2.28311080832503,2.28340042280108,2.28586713920051,2.2841394390503,2.28656620862545,2.28511813624522,2.28360015692249,2.285088176127,2.28620668720691,2.28534783048484,2.28663611556794,2.28784450700248,2.28587712590658,2.29145969460003,2.29084051882366,2.29092041247222,2.29366675664163,2.35237860163056,2.35151974490848,2.34902306839084,2.3494425100458,2.34868352038444,2.34915289556976
2.30388315695183,2.30361351588793,2.30383322342148,2.30305426034797,2.30235519092303,2.30220539033197,2.29967875369612,2.30177596197094,2.30173601514666,2.3009071185428,2.29917941839259,2.29877995014977,2.29897968427118,2.29925931204115,2.29926929874722,2.29979859416897,2.29997835487824,2.30031790288464,2.2998884745236,2.30084719830638,2.30132656019776,2.30299434011155,2.30334387482402,2.30707890289442,2.30620007276021,2.30625000629056,2.30654960747268,2.30825733421074,2.30944575223314,2.30968543317884,2.31030460895521,2.31108357202872,2.30436251884322,2.30561085710204,2.31157292062618,2.30907624410853,2.31211220275399,2.27407283933116,2.27315406237267,2.27259480683271,2.27191571081991,2.27155618940137,2.27082715985822,2.27138641539817,2.27078721303394,2.27092702691893,2.2713764286921,2.27223528541417,2.27261478024485,2.27191571081991,2.27197563105634,2.27207549811704,2.27248495306594,2.27251491318415,2.27287443460269,2.27316404907874,2.27331384966979,2.27517137699892,2.27442237404363,2.27462210816504,2.27561079206603,2.27602024701492,2.27671931643986,2.27830720270508,2.27857684376899,2.28035447744955,2.28191240359656,2.32766150410588,2.32701236821129,2.32762155728159,2.32849040070973,2.32885990883435,2.33062755580884,2.32815085270333,2.32825071976404,2.3250050402911,2.32455563851793,2.32246841694918,2.32275803142522,2.32145975963605,2.31976201960405,2.32048106244113,2.31871341546664,2.31882326923341,2.31799437262956,2.3191328571216,2.31830396051775,2.31799437262956,2.31855362816951,2.31823405357525,2.31844377440273,2.31994178031332,2.31979197972226,2.32140982610569,2.32120010527821,2.32292780542842,2.32301768578306,2.32382660897477,2.32431595757223,2.3249051732304,2.32682262079595,2.32583393689496,2.32630331208028,2.32735191621769,2.32829066658832,2.32616349819529,2.32613353807708,2.28689576992578,2.28771467982357,2.28755489252644,2.28476860153275,2.28507818942093,2.28473864141453,2.28485848188738,2.28406953210781,2.28427925293529,2.28351027656785,2.28304090138254,2.28279123373077,2.28314076844324,2.28269136667007,2.28245168572437,2.2827812470247,2.28259149960936,2.28202225736334,2.28211213771797,2.28191240359656,2.2827812470247,2.28163277582659,2.28169269606301,2.28220201807261,2.28161280241444,2.28161280241444,2.28187245677228,2.28163277582659,2.28128324111412,2.2821720579544,2.28140308158696,2.28124329428983,2.28178257641764,2.28167272265087,2.28258151290329,2.28173264288729,2.28175261629943,2.28121333417162,2.28110348040484,2.28216207124833,2.28218204466047,2.28237179207581,2.2831207950311,2.28493837553595,2.28235181866367,2.28284116726113,2.28321067538574,2.28364010374677,2.28419935928672,2.28376993092569,2.28419935928672,2.28390974481068,2.28449896046884,2.2857672721398,2.28717539769576,2.28592705943693,2.28591707273086,2.28742506534752,2.28795436076926,2.28822400183317,2.2909603592965,2.29119005353613,2.34904304180298,2.34871348050265,2.34899310827263,2.34622679069108,2.34693584682209,2.34852373308731,2.34887326779978
2.30388315695183,2.30349367541508,2.30351364882722,2.3041328246036,2.3022653105684,2.30194573597414,2.30035784970892,2.29956889992934,2.29968874040219,2.30024799594214,2.30057755724247,2.29899965768332,2.29940911263221,2.29899965768332,2.29911949815617,2.299379152514,2.30032788959071,2.30037782312106,2.30036783641499,2.30190578914986,2.30302430022976,2.30265479210515,2.30325399446938,2.30409287777931,2.30490180097103,2.30601032534486,2.30758822490402,2.3076281717283,2.30896639034176,2.30958556611813,2.31063417025554,2.31152298709582,2.31067411707982,2.31321074042175,2.30462217320105,2.31172272121723,2.31137318650476,2.27434248039506,2.27448229428005,2.27283448777841,2.27169600328636,2.2716161096378,2.27109680092213,2.27143634892853,2.27200559117455,2.2714463356346,2.27169600328636,2.27192569752598,2.27198561776241,2.27220532529596,2.27257483342057,2.27226524553238,2.27242503282951,2.27286444789662,2.27271464730556,2.27364341097012,2.27488176252287,2.2751114567625,2.27503156311393,2.27498162958358,2.27602024701492,2.27621998113633,2.27759814657407,2.27766805351657,2.27832717611722,2.28054422486489,2.28256153949115,2.32564418947962,2.32676270055952,2.32710224856592,2.32834060011868,2.32819079952762,2.32758161045731,2.32876004177364,2.32904965624969,2.32472541252113,2.3278911983455,2.32309757943162,2.32325736672875,2.32318745978626,2.32122007869035,2.31946241842193,2.31936255136123,2.31882326923341,2.31797439921742,2.31884324264556,2.3182839871056,2.31871341546664,2.31829397381167,2.31923272418231,2.31916281723981,2.3193725380673,2.31977200631012,2.322019015176,2.32185922787887,2.32257827071595,2.32289784531021,2.32425603733581,2.3248352662879,2.32472541252113,2.32574405654033,2.32673274044131,2.3260236843103,2.32718214221449,2.32335723378946,2.32578400336461,2.32809093246691,2.32720211562663,2.28733518499288,2.28669603580437,2.28596700626122,2.2856674050791,2.28520801659985,2.28395967834103,2.28436913328992,2.28330055574037,2.28294103432183,2.28284116726113,2.28290108749755,2.28320068867967,2.28288111408541,2.28282119384898,2.2828511539672,2.28314076844324,2.2828511539672,2.2821021510119,2.2815928290023,2.28196233712691,2.28195235042084,2.28141306829303,2.28207219089369,2.28180254982979,2.28245168572437,2.28298098114611,2.28198231053906,2.28154289547195,2.28186247006621,2.28195235042084,2.28094369310772,2.28196233712691,2.28187245677228,2.28186247006621,2.28151293535374,2.28194236371477,2.28174262959336,2.28173264288729,2.28211213771797,2.28273131349435,2.28219203136654,2.28264143313971,2.28195235042084,2.28245168572437,2.2829510210279,2.28426926622922,2.28381986445604,2.2834603430375,2.28317072856145,2.28368005057105,2.28404955869566,2.28493837553595,2.28505821600879,2.28647632827081,2.28614676697049,2.28604689990978,2.28682586298329,2.28709550404719,2.28852360301528,2.293576876287,2.34898312156656,2.34888325450585,2.34808431802021,2.34684596646746,2.34735528847705,2.34891321462406,2.34905302850905,2.34907300192119
2.3040629176611,2.30342376847258,2.30373335636077,2.30160618796774,2.30099699889743,2.30079726477602,2.30115678619456,2.29913947156831,2.29995838146609,2.30198568279842,2.29899965768332,2.2990396045076,2.29896969756511,2.29872002991334,2.29899965768332,2.29902961780153,2.29929925886544,2.30030791617857,2.30028794276642,2.3014164405524,2.30212549668341,2.30386318353969,2.30349367541508,2.3044024656675,2.30530126921385,2.30646971382411,2.30717876995512,2.30845706833216,2.30893643022354,2.30961552623634,2.31037451589771,2.31033456907342,2.31193244204472,2.31097371826194,2.3042326916643,2.30452230614035,2.30638982017555,2.2730741687241,2.27208548482311,2.27148628245888,2.27121664139497,2.27238508600523,2.27083714656429,2.27119666798283,2.2703577846729,2.27183581717135,2.27143634892853,2.27170598999243,2.27162609634387,2.27236511259309,2.27181584375921,2.27231517906274,2.27244500624165,2.27261478024485,2.27288442130876,2.27345366355478,2.27318402249088,2.27321398260909,2.2746021347529,2.27584048630565,2.27501158970179,2.27618003431205,2.27645966208203,2.27755819974979,2.27893636518753,2.28031453062527,2.28372998410141,2.32557428253713,2.32579399007068,2.32826070647011,2.32919945684074,2.32639319243491,2.32776137116658,2.3278911983455,2.33137655876413,2.32779133128479,2.32420610380546,2.3234770742623,2.32822075964583,2.32198905505779,2.32418613039331,2.32102034456894,2.31987187337083,2.32101035786287,2.31830396051775,2.31851368134523,2.31878332240913,2.32038119538042,2.31915283053374,2.31942247159765,2.31911288370946,2.32014151443473,2.32023139478937,2.32131994575106,2.3233772072016,2.32280796495558,2.32345710085016,2.32481529287576,2.32566416289176,2.32542448194607,2.32584392360103,2.32750171680875,2.32769146422409,2.32783127810908,2.32864020130079,2.32598373748602,2.32753167692696,2.32805098564263,2.28875329725491,2.2864463681526,2.28621667391298,2.2861767270887,2.28513810965736,2.28445901364456,2.28618671379477,2.28521800330592,2.28428923964136,2.28085381275308,2.2816627359448,2.28148297523553,2.282681379964,2.28275128690649,2.28272132678828,2.28258151290329,2.28266140655185,2.28241173890009,2.28226193830903,2.28287112737934,2.28305088808861,2.28307086150075,2.28212212442404,2.28177258971157,2.28241173890009,2.28220201807261,2.28206220418762,2.28127325440804,2.281832509948,2.2823418319576,2.28134316135054,2.28112345381699,2.2814230549991,2.28153290876588,2.28287112737934,2.28169269606301,2.28170268276908,2.28184249665407,2.28170268276908,2.28207219089369,2.2826114730215,2.28186247006621,2.28246167243044,2.2824416990183,2.28232185854545,2.28479856165096,2.28378990433783,2.28504822930272,2.28315075514931,2.28327059562216,2.28514809636343,2.28433917317171,2.28441906682028,2.2858371790823,2.28635648779797,2.28623664732512,2.28716541098969,2.28731521158074,2.28870336372455,2.28999164880766,2.29122001365434,2.35123013043244,2.3499518320554,2.34765488965917,2.34757499601061,2.34825409202341,2.34901308168477,2.34880336085729
2.30359354247578,2.30238515104124,2.30239513774732,2.30267476551729,2.30145638737668,2.3016860816163,2.30184586891343,2.30049766359391,2.29977862075682,2.30034786300285,2.29866010967692,2.2987699634437,2.3003977965332,2.29975864734468,2.29943907275042,2.29997835487824,2.30022802253,2.30195572268021,2.3009071185428,2.3014164405524,2.30300432681762,2.30418275813395,2.30401298413075,2.3052513356835,2.30436251884322,2.30753829137366,2.30612017911164,2.30737850407653,2.30924601811173,2.31021472860058,2.31035454248557,2.31057425001912,2.31106359861658,2.31154296050796,2.3048119206164,2.30436251884322,2.27507150993822,2.27366338438226,2.27285446119055,2.27148628245888,2.27119666798283,2.27125658821926,2.27067735926716,2.27151624257709,2.27284447448448,2.27177589693493,2.27162609634387,2.27142636222246,2.27190572411384,2.27278455424805,2.27218535188382,2.27247496635987,2.27343369014264,2.27416271968579,2.27280452766019,2.27296431495732,2.27353355720335,2.27537111112033,2.27500160299572,2.27492170934716,2.27577057936316,2.27601026030885,2.2769789707977,2.27804754834725,2.27919601954536,2.28085381275308,2.32694246126879,2.32720211562663,2.32617348490136,2.33067748933919,2.32865018800686,2.32831064000046,2.32718214221449,2.32775138446051,2.32620344501957,2.32492514664254,2.32463553216649,2.32453566510579,2.32523473453073,2.32202900188207,2.3218492411728,2.32122007869035,2.31923272418231,2.32042114220471,2.31860356169986,2.31819410675097,2.31846374781487,2.31928265771266,2.31905296347304,2.32001168725581,2.31945243171586,2.32040116879257,2.32042114220471,2.3223585631824,2.32214884235492,2.32370676850193,2.32361688814729,2.32451569169364,2.32496509346682,2.32530464147322,2.32734192951162,2.32677268726559,2.32749173010268,2.32705231503557,2.32849040070973,2.32489518652433,2.32478533275755,2.28792440065105,2.28655622191938,2.28652626180117,2.28607686002799,2.28563744496089,2.28636647450404,2.2853278570727,2.28505821600879,2.2841394390503,2.28436913328992,2.27883649812682,2.27798762811082,2.27884648483289,2.28011479650386,2.28221200477868,2.28247165913651,2.28303091467647,2.28282119384898,2.2821720579544,2.28274130020042,2.28233184525153,2.28258151290329,2.28235181866367,2.2822719250151,2.28279123373077,2.28122332087769,2.28189243018442,2.281832509948,2.28152292205981,2.28265141984578,2.28198231053906,2.28214209783618,2.28221200477868,2.2824416990183,2.28198231053906,2.2821720579544,2.28180254982979,2.28240175219402,2.28199229724513,2.28186247006621,2.28264143313971,2.2829510210279,2.28382985116211,2.28331054244644,2.28390974481068,2.28344036962536,2.28328058232823,2.28225195160296,2.28400961187138,2.28401959857745,2.2849883090663,2.28458884082348,2.28545768425162,2.28573731202159,2.28638644791618,2.28639643462225,2.28665608898009,2.28764477288107,2.28841374924851,2.29296768721669,2.29087047894187,2.35150975820241,2.3497820580522,2.34850375967517,2.34831401225983,2.34791454401701,2.34870349379658,2.34871348050265,2.35259830916411
2.30305426034797,2.30096703877922,2.30224533715626,2.30096703877922,2.30237516433517,2.30184586891343,2.30042775665141,2.30043774335748,2.29980858087504,2.29851030908586,2.29829060155231,2.2982606414341,2.29844040214337,2.29901963109546,2.29896969756511,2.29950897969292,2.30031790288464,2.3009071185428,2.30026796935428,2.30075731795174,2.30232523080482,2.30346371529687,2.30415279801574,2.30404294424896,2.30494174779531,2.30468209343748,2.30570073745668,2.30631991323305,2.30849701515644,2.31003496789131,2.31086386449517,2.31181260157187,2.31099369167408,2.31313084677319,2.31084389108302,2.30579061781131,2.27403289250688,2.2729043947209,2.27580053948137,2.27163608304994,2.27155618940137,2.27142636222246,2.27077722632787,2.27082715985822,2.27285446119055,2.27182583046528,2.27162609634387,2.27150625587102,2.27214540505954,2.27247496635987,2.27228521894452,2.27257483342057,2.27310412884231,2.27317403578481,2.27289440801483,2.2730741687241,2.27344367684871,2.27365339767619,2.2747719087561,2.27492170934716,2.27510147005643,2.27623995454847,2.27643968866988,2.27871665765398,2.27942571378499,2.28056419827703,2.2821720579544,2.32759159716338,2.32944912449251,2.32942915108037,2.33134659864592,2.33251504325618,2.32831064000046,2.3307773563999,2.32858028106437,2.32618347160743,2.32443579804508,2.3232074331984,2.32373672862014,2.32177933423031,2.32084058385967,2.32046108902899,2.32087054397788,2.31934257794909,2.31938252477337,2.31924271088838,2.31864350852414,2.31867346864236,2.31892313629412,2.31915283053374,2.32007160749224,2.32072074338682,2.32119011857214,2.32142979951784,2.32229864294598,2.3231375262559,2.32425603733581,2.32482527958183,2.32521476111858,2.32552434900677,2.32698240809308,2.32669279361703,2.32764153069374,2.32768147751802,2.3284005203551,2.32969879214427,2.32943913778644,2.28776461335392,2.2874650121718,2.28692573004399,2.28697566357434,2.28597699296729,2.28495834894809,2.28391973151675,2.28400961187138,2.2837998910439,2.27752823963158,2.27712877138875,2.27718869162518,2.27722863844946,2.2826114730215,2.2825116059608,2.28221200477868,2.28361014362856,2.28337046268287,2.2829510210279,2.2821720579544,2.28289110079148,2.28275128690649,2.28340042280108,2.28248164584258,2.28225195160296,2.28289110079148,2.28143304170517,2.28184249665407,2.28219203136654,2.2820022839512,2.28198231053906,2.28206220418762,2.28188244347835,2.28187245677228,2.28219203136654,2.28181253653586,2.28148297523553,2.28231187183938,2.2828511539672,2.2816627359448,2.28322066209181,2.28338044938894,2.28308084820682,2.28296100773397,2.28288111408541,2.28541773742733,2.28353024998,2.2836301170407,2.28424929281708,2.28493837553595,2.28465874776597,2.28494836224202,2.28509816283308,2.2857672721398,2.28623664732512,2.28656620862545,2.28809417465425,2.28743505205359,2.28871335043062,2.29011148928051,2.34941254992759,2.34867353367837,2.34851374638124,2.34793451742915,2.34676607281889,2.34777473013202,2.34870349379658,2.34862360014802,2.3473053549467
2.29885984379833,2.30130658678562,2.30066743759711,2.30120671972492,2.30225532386233,2.30043774335748,2.29972868722647,2.30010818205715,2.29953893981113,2.29948900628078,2.2990396045076,2.2977513194245,2.29862016285264,2.29859020273443,2.29897968427118,2.29928927215937,2.29985851440539,2.30105691913386,2.30368342283042,2.30378328989113,2.30145638737668,2.30187582903165,2.30339380835437,2.30353362223936,2.30346371529687,2.30291444646299,2.30410286448538,2.30609021899343,2.30815746715004,2.30963549964848,2.31068410378589,2.31075401072839,2.31201233569328,2.31323071383389,2.31250168429074,2.31136319979869,2.27401291909473,2.27397297227045,2.27281451436627,2.27219533858989,2.27102689397963,2.27061743903074,2.27088708009464,2.27206551141097,2.27194567093813,2.27216537847168,2.27191571081991,2.27173595011064,2.2716161096378,2.271785883641,2.27276458083591,2.27249493977201,2.27264474036307,2.27275459412984,2.27282450107234,2.27303422189982,2.27356351732156,2.27427257345257,2.27585047301172,2.27539108453247,2.27564075218424,2.27763809339835,2.2766394227913,2.27878656459647,2.27941572707892,2.28056419827703,2.2814230549991,2.3292493903711,2.33012822050531,2.32956896496536,2.32966883202606,2.33028800780244,2.32826070647011,2.32800105211228,2.32726203586305,2.32542448194607,2.32444578475115,2.32411622345082,2.32469545240291,2.32147973304819,2.32182926776066,2.32208892211849,2.32036122196828,2.32025136820151,2.32101035786287,2.32058092950184,2.31976201960405,2.31848372122702,2.31929264441873,2.31957227218871,2.32044111561685,2.32095043762645,2.32160956022711,2.32224870941562,2.32257827071595,2.32329731355303,2.3244957182815,2.3256841363039,2.32548440218249,2.32566416289176,2.32570410971604,2.32777135787265,2.32745178327839,2.32793114516978,2.32812089258512,2.33032795462672,2.32325736672875,2.28789444053284,2.28731521158074,2.28679590286507,2.2860069530855,2.28632652767976,2.2855974981366,2.28422931940494,2.28572732531552,2.2766394227913,2.27672930314593,2.27603023372099,2.27592037995421,2.27571065912673,2.27667936961558,2.27870667094791,2.28242172560616,2.28231187183938,2.28288111408541,2.28273131349435,2.28293104761576,2.28218204466047,2.282681379964,2.28242172560616,2.28223197819082,2.28262145972757,2.28239176548795,2.28203224406941,2.28169269606301,2.28119336075948,2.28191240359656,2.28197232383298,2.28154289547195,2.28206220418762,2.28192239030263,2.28184249665407,2.28216207124833,2.28222199148475,2.28172265618122,2.28225195160296,2.28202225736334,2.28245168572437,2.28308084820682,2.28475861482668,2.28352026327392,2.28271134008221,2.28418937258065,2.28371999739534,2.2839696650471,2.28384982457425,2.28465874776597,2.28528791024842,2.28423930611101,2.28480854835703,2.28581720567016,2.28683584968936,2.28725529134432,2.2881441081846,2.29060083787796,2.28880323078526,2.29031122340192,2.34816421166877,2.34726540812242,2.34634663116393,2.34667619246426,2.34634663116393,2.34704570058887,2.34721547459207,2.34769483648345,2.34892320133014
2.29849033567372,2.29993840805395,2.29987848781753,2.30109686595814,2.30077729136388,2.3013465336099,2.2988698305044,2.29913947156831,2.29955891322327,2.29889979062261,2.29858021602835,2.29806090731268,2.29863014955871,2.29855025591014,2.29931923227758,2.30065745089104,2.30031790288464,2.30014812888144,2.30255492504444,2.3037932765972,2.30343375517866,2.30114679948849,2.30572071086882,2.30553096345348,2.30639980688162,2.30384321012755,2.3042326916643,2.31189249522043,2.31200234898721,2.31085387778909,2.31131326626834,2.31073403731625,2.31102365179229,2.31285121900321,2.31293111265177,2.30621005946628,2.27478189546217,2.27281451436627,2.27172596340457,2.27266471377521,2.27131650845568,2.2715462026953,2.27100692056749,2.27174593681671,2.27117669457069,2.27177589693493,2.27142636222246,2.27159613622565,2.27219533858989,2.27183581717135,2.27215539176561,2.27215539176561,2.27263475365699,2.27268468718735,2.27301424848768,2.2734137167305,2.27337376990622,2.27383315838546,2.2751114567625,2.2752812307657,2.27609015395741,2.27641971525774,2.27733849221624,2.27829721599901,2.28003490285529,2.28038443756776,2.28273131349435,2.32996843320818,2.33078734310597,2.33095711710917,2.33051770204206,2.32972875226249,2.32990851297176,2.3296888054382,2.32719212892056,2.32743180986625,2.32370676850193,2.32481529287576,2.32262820424631,2.32220876259134,2.32180929434852,2.32050103585327,2.32138985269355,2.32013152772866,2.3203911820865,2.32137986598748,2.32003166066795,2.32009158090438,2.3197120860737,2.31956228548264,2.32059091620791,2.32188918799708,2.32180929434852,2.32263819095238,2.32300769907699,2.32359691473515,2.32454565181186,2.32533460159143,2.32557428253713,2.3263632323167,2.32673274044131,2.32766150410588,2.32758161045731,2.32730198268734,2.32769146422409,2.3275516503391,2.32879998859792,2.28788445382677,2.28650628838903,2.28645635485867,2.28621667391298,2.28749497229001,2.28573731202159,2.28535781719091,2.28554756460625,2.28528791024842,2.28315075514931,2.27491172264109,2.27569068571459,2.27551092500532,2.28373997080748,2.28296100773397,2.282681379964,2.28289110079148,2.28254156607901,2.28382985116211,2.2821720579544,2.28192239030263,2.28286114067327,2.28195235042084,2.28186247006621,2.2826114730215,2.28207219089369,2.28266140655185,2.28262145972757,2.28231187183938,2.28177258971157,2.28198231053906,2.28211213771797,2.28232185854545,2.28154289547195,2.28090374628343,2.28126326770197,2.280983639932,2.28187245677228,2.28226193830903,2.28207219089369,2.28344036962536,2.28321067538574,2.28347032974357,2.28308084820682,2.28638644791618,2.28479856165096,2.28531787036663,2.28376993092569,2.2849883090663,2.28417938587458,2.28507818942093,2.28538777730912,2.28550761778197,2.28689576992578,2.28663611556794,2.28665608898009,2.28863345678206,2.29043106387476,2.29048099740512,2.29125996047862,2.3464564849307,2.3458472958604,2.3458472958604,2.34580734903611,2.34987193840684,2.34799443766557,2.34776474342595,2.34865356026623,2.349612284049
2.29921936521687,2.30119673301885,2.30152629431918,2.30069739771532,2.30156624114346,2.29996836817216,2.30013814217536,2.29847036226158,2.2987000565012,2.29846037555551,2.29830058825838,2.29902961780153,2.298530282498,2.29900964438939,2.29959886004755,2.29955891322327,2.30093707866101,2.30088714513066,2.30135652031598,2.30224533715626,2.30131657349169,2.30407290436717,2.30409287777931,2.30676931500623,2.30709887630656,2.30604028546308,2.30873669610213,2.31020474189451,2.31085387778909,2.31167278768688,2.3118026148658,2.31387984972848,2.31271140511822,2.31443910526843,2.31572739035154,2.27459214804683,2.27337376990622,2.27332383637586,2.27168601658029,2.27099693386142,2.27090705350679,2.27112676104034,2.27185579058349,2.27074726620966,2.27106684080391,2.27168601658029,2.27142636222246,2.27155618940137,2.27254487330236,2.27226524553238,2.27285446119055,2.27257483342057,2.27289440801483,2.27316404907874,2.27320399590302,2.27366338438226,2.27329387625765,2.27363342426405,2.27548096488711,2.27515140358678,2.27601026030885,2.27906619236645,2.27835713623544,2.27855687035685,2.27974528837925,2.28032451733134,2.28257152619722,2.33008827368103,2.32989852626569,2.33075738298776,2.33095711710917,2.33061756910277,2.33018814074173,2.32982861932319,2.33054766216027,2.33222542878013,2.32635324561063,2.32464551887256,2.32264817765845,2.32275803142522,2.32224870941562,2.32291781872235,2.32257827071595,2.32203898858814,2.32043112891078,2.32024138149544,2.32046108902899,2.32088053068395,2.32008159419831,2.32027134161365,2.32060090291398,2.32103033127501,2.32234857647633,2.3226981111888,2.32332727367125,2.32403632980226,2.32491515993647,2.32536456170964,2.32680264738381,2.32737188962983,2.32752169022089,2.32783127810908,2.32784126481515,2.32777135787265,2.32744179657232,2.32899972271933,2.29033119681406,2.28868339031241,2.28730522487467,2.28735515840503,2.28633651438583,2.28602692649764,2.28704557051684,2.28392971822282,2.27813742870188,2.27793769458047,2.27496165617144,2.27501158970179,2.27504154982,2.27342370343657,2.27542104465069,2.27603023372099,2.28323064879788,2.2828511539672,2.28321067538574,2.28257152619722,2.28335048927072,2.28684583639543,2.28323064879788,2.28146300182339,2.28256153949115,2.28280122043684,2.28258151290329,2.28218204466047,2.28245168572437,2.28144302841124,2.28211213771797,2.28225195160296,2.28232185854545,2.2825116059608,2.28243171231223,2.28199229724513,2.28179256312371,2.28126326770197,2.28096366651986,2.28286114067327,2.28294103432183,2.28272132678828,2.28298098114611,2.28299096785218,2.28324063550395,2.28501826918451,2.28459882752955,2.28474862812061,2.28434915987778,2.28414942575637,2.28393970492889,2.28493837553595,2.28490841541773,2.28524796342413,2.2853278570727,2.28560748484268,2.28696567686827,2.28789444053284,2.29019138292907,2.29117008012399,2.29123998706648,2.35236861492448,2.34528804032044,2.3461169369243,2.34850375967517,2.34746514224383,2.34940256322152,2.34873345391479,2.34856367991159,2.34925276263046
2.30826732091681,2.30370339624256,2.30155625443739,2.30159620126167,2.30163614808595,2.30216544350769,2.29981856758111,2.3037932765972,2.29814080096125,2.2995489265172,2.29930924557151,2.29869006979513,2.29840045531908,2.29881989697405,2.29933920568972,2.29991843464181,2.30015811558751,2.30024799594214,2.30172602844059,2.30233521751089,2.30313415399654,2.30436251884322,2.30410286448538,2.30493176108924,2.30596039181451,2.30722870348547,2.30746838443117,2.30943576552707,2.31121339920764,2.31219209640255,2.31170274780509,2.3106141968434,2.31225201663898,2.31271140511822,2.3144490919745,2.31460887927163,2.27346365026085,2.27168601658029,2.2710368806857,2.27141637551638,2.27156617610744,2.27083714656429,2.27112676104034,2.27085711997643,2.27149626916495,2.27084713327036,2.27107682750998,2.2716161096378,2.27173595011064,2.27227523223845,2.27280452766019,2.27322396931516,2.27311411554838,2.27272463401163,2.2734137167305,2.27385313179761,2.27418269309793,2.27518136370499,2.27499161628965,2.27533116429605,2.27631984819704,2.27632983490311,2.27779788069548,2.27818736223224,2.27932584672428,2.28050427804061,2.28306087479468,2.32887988224649,2.32936923084394,2.32970877885034,2.32932928401966,2.33054766216027,2.32966883202606,2.32889985565863,2.33031796792065,2.32629332537421,2.32615351148922,2.3238166222687,2.32375670203228,2.32264817765845,2.32310756613769,2.32230862965205,2.3221887891792,2.32127999892678,2.32020143467116,2.32069078326861,2.32019144796508,2.32048106244113,2.32204897529421,2.32026135490758,2.32095043762645,2.32131994575106,2.32298772566485,2.32259824412809,2.32355696791087,2.32445577145722,2.32477534605148,2.3260236843103,2.32663287338061,2.32724206245091,2.32800105211228,2.32876004177364,2.32848041400366,2.32970877885034,2.3302680343903,2.32876004177364,2.28906288514309,2.28730522487467,2.28737513181717,2.28633651438583,2.28667606239223,2.28690575663185,2.28721534452004,2.28681587627721,2.28315075514931,2.28398963845924,2.27553089841746,2.27943570049106,2.27471198851967,2.27455220122255,2.27402290580081,2.27602024701492,2.28378990433783,2.28284116726113,2.28256153949115,2.28310082161896,2.28391973151675,2.28308084820682,2.28359017021642,2.28229189842724,2.28269136667007,2.28180254982979,2.28245168572437,2.28258151290329,2.2826114730215,2.28330055574037,2.28296100773397,2.28299096785218,2.28197232383298,2.28330055574037,2.28225195160296,2.28255155278508,2.28164276253266,2.28173264288729,2.28172265618122,2.28270135337614,2.28290108749755,2.28317072856145,2.28283118055505,2.28303091467647,2.28411946563816,2.28375994421962,2.28468870788418,2.28390974481068,2.28462878764776,2.28496833565416,2.28468870788418,2.2839696650471,2.2866161421558,2.28570735190338,2.28608684673406,2.28714543757754,2.28800429429961,2.28798432088747,2.28971202103768,2.29070070493867,2.29135982753933,2.34892320133014,2.34896314815442,2.34928272274868,2.34791454401701,2.34841387932054,2.34923278921832,2.34906301521512,2.34873345391479,2.34789457060487
2.30437250554929,2.30856692209893,2.30240512445339,2.30227529727447,2.30071737112746,2.29955891322327,2.29983854099325,2.30026796935428,2.29879992356191,2.29901963109546,2.29823068131588,2.29829060155231,2.2983605084948,2.29854026920407,2.29866010967692,2.29977862075682,2.30003827511466,2.30110685266421,2.30160618796774,2.30199566950449,2.3034537285908,2.30347370200294,2.30428262519465,2.30484188073461,2.3064397537059,2.30768809196472,2.30965547306063,2.31026466213093,2.31024468871879,2.31141313332905,2.31376000925563,2.31189249522043,2.30970540659098,2.31174269462938,2.31145308015333,2.27481185558038,2.27252489989022,2.27150625587102,2.27184580387742,2.27191571081991,2.27190572411384,2.27206551141097,2.27138641539817,2.27163608304994,2.27206551141097,2.27114673445248,2.27119666798283,2.27145632234067,2.27218535188382,2.27284447448448,2.27227523223845,2.27249493977201,2.27265472706914,2.27335379649408,2.27330386296372,2.27361345085191,2.27362343755798,2.27452224110433,2.27485180240466,2.2752812307657,2.27608016725134,2.27695899738556,2.27668935632165,2.2772486118616,2.2787765778904,2.2814230549991,2.32780131799086,2.32797109199406,2.32808094576084,2.33046776851171,2.33049772862992,2.33048774192385,2.33106697087594,2.32966883202606,2.32810091917298,2.32625337854992,2.32554432241891,2.32528466806108,2.32416615698117,2.32281795166165,2.32203898858814,2.32222873600348,2.32301768578306,2.32188918799708,2.32123006539642,2.32139983939962,2.32029131502579,2.32084058385967,2.32086055727181,2.32118013186607,2.32137986598748,2.32153965328461,2.32340716731981,2.32351702108659,2.32263819095238,2.32463553216649,2.3252447212368,2.3258539103071,2.3270423283295,2.32750171680875,2.3280609723487,2.32929932390145,2.32921943025289,2.32982861932319,2.328670161419,2.32936923084394,2.28946235338592,2.28664610227401,2.28687579651364,2.28619670050084,2.2861068201462,2.28682586298329,2.28676594274686,2.28511813624522,2.28639643462225,2.28325062221002,2.27772797375299,2.27959548778819,2.27507150993822,2.27913609930894,2.27532117758998,2.27653955573059,2.27701891762198,2.27807750846546,2.28267139325793,2.28292106090969,2.28305088808861,2.28238177878188,2.2827812470247,2.28221200477868,2.28242172560616,2.28238177878188,2.28221200477868,2.28263144643364,2.28231187183938,2.28218204466047,2.2824416990183,2.28241173890009,2.28258151290329,2.2821720579544,2.28192239030263,2.28189243018442,2.28240175219402,2.28186247006621,2.28226193830903,2.28282119384898,2.28299096785218,2.28375994421962,2.28336047597679,2.28408950551995,2.28358018351035,2.28386979798639,2.2836301170407,2.28581720567016,2.28488844200559,2.28477858823882,2.28469869459025,2.28739510522931,2.28606687332192,2.28740509193538,2.28620668720691,2.28735515840503,2.28752493240823,2.28762479946893,2.28958219385876,2.2911301332997,2.35005169911611,2.34880336085729,2.34833398567197,2.34786461048665,2.34860362673588,2.34808431802021,2.3481542249627,2.34916288227583,2.35199910679987,2.35227873456985
2.30499168132567,2.3030442736419,2.30159620126167,2.30113681278242,2.30011816876322,2.29918940509866,2.29929925886544,2.29833054837659,2.29827062814017,2.29797102695805,2.29806090731268,2.2983605084948,2.29823068131588,2.29902961780153,2.29932921898365,2.29946903286864,2.30021803582393,2.30079726477602,2.30102695901565,2.30258488516266,2.30324400776331,2.30368342283042,2.30461218649498,2.30658955429696,2.30799767985291,2.30802763997112,2.30956559270599,2.30939581870279,2.31099369167408,2.31080394425874,2.30506158826816,2.30579061781131,2.30625000629056,2.30716878324905,2.30817744056218,2.31442911856236,2.27699894420984,2.27181584375921,2.27133648186782,2.27155618940137,2.27108681421606,2.27140638881031,2.27067735926716,2.27180585705314,2.27098694715535,2.27099693386142,2.2714463356346,2.27126657492533,2.27169600328636,2.27248495306594,2.2721254316474,2.27243501953558,2.2727346207177,2.27292436813304,2.27333382308194,2.27363342426405,2.27452224110433,2.27406285262509,2.27491172264109,2.27482184228645,2.27481185558038,2.27634980831525,2.27725859856767,2.27751825292551,2.27992504908852,2.28265141984578,2.32802102552442,2.32691250115058,2.33099706393345,2.33008827368103,2.33173608018267,2.33166617324018,2.33007828697496,2.329519031435,2.32949905802286,2.32787122493336,2.32720211562663,2.32749173010268,2.32335723378946,2.32335723378946,2.32205896200028,2.322019015176,2.32122007869035,2.32153965328461,2.32089051739002,2.32092047750824,2.32109025151144,2.32108026480537,2.32129997233892,2.32168945387567,2.32168945387567,2.32224870941562,2.32227866953383,2.32374671532621,2.3241561702751,2.32518480100037,2.32658293985025,2.32600371089816,2.32732195609948,2.32773141104837,2.32836057353082,2.32869013483115,2.32916949672253,2.32929932390145,2.33112689111237,2.33025804768423,2.28877327066705,2.28835382901208,2.28679590286507,2.28672599592258,2.28615675367656,2.28551760448804,2.28659616874366,2.28677592945293,2.28056419827703,2.27819734893831,2.27869668424184,2.286785916159,2.28755489252644,2.27587044642386,2.27573063253887,2.28585715249444,2.28463877435383,2.28405954540174,2.2824416990183,2.28316074185538,2.28292106090969,2.28334050256465,2.28298098114611,2.28214209783618,2.2821720579544,2.28240175219402,2.28273131349435,2.28334050256465,2.28282119384898,2.28265141984578,2.28264143313971,2.2832905690343,2.28280122043684,2.28212212442404,2.28249163254865,2.2829510210279,2.28184249665407,2.28177258971157,2.28286114067327,2.28304090138254,2.28343038291929,2.28325062221002,2.28352026327392,2.28361014362856,2.2837998910439,2.28418937258065,2.28529789695449,2.28449896046884,2.28486846859345,2.28505821600879,2.28538777730912,2.28623664732512,2.28641640803439,2.28775462664785,2.28671600921651,2.2866161421558,2.28796434747533,2.28830389548173,2.29392641099947,2.29080057199937,2.3490030949787,2.34768484977738,2.34860362673588,2.34767486307131,2.34837393249625,2.34912293545155,2.34890322791799,2.34768484977738,2.35032134018002,2.35210896056665
2.30309420717226,2.30254493833837,2.3022653105684,2.30223535045019,2.30025798264821,2.30020804911786,2.29919939180473,2.2983605084948,2.29835052178873,2.29812082754911,2.29911949815617,2.2986001894405,2.29872002991334,2.29890977732868,2.29923933862901,2.29985851440539,2.30019806241179,2.30054759712426,2.30224533715626,2.30303428693583,2.3037233696547,2.30303428693583,2.30470206684962,2.30617011264199,2.30744841101903,2.30878662963248,2.30968543317884,2.30965547306063,2.30462217320105,2.3042326916643,2.3040629176611,2.30466212002534,2.30522137556529,2.30665946123945,2.30575067098703,2.27396298556438,2.27047762514575,2.27271464730556,2.27133648186782,2.27063741244288,2.27132649516175,2.27128654833747,2.27153621598923,2.27091704021286,2.27158614951958,2.27143634892853,2.27165605646208,2.27174593681671,2.27166604316815,2.27243501953558,2.27228521894452,2.27237509929916,2.27250492647808,2.27282450107234,2.27287443460269,2.27326391613944,2.27370333120655,2.27429254686471,2.27466205498932,2.27577057936316,2.27612011407563,2.27692903726734,2.27695899738556,2.27831718941115,2.27925593978179,2.28116340064127,2.28184249665407,2.32864020130079,2.32879000189185,2.33150638594305,2.33205565477693,2.33194580101015,2.33108694428808,2.33030798121458,2.33014819391745,2.32680264738381,2.32679266067774,2.33143647900055,2.32468546569684,2.32324738002268,2.32294777884056,2.32172940069995,2.32212886894278,2.32190916140922,2.32115017174786,2.32140982610569,2.32196908164565,2.32191914811529,2.32128998563285,2.32159957352104,2.3223585631824,2.32264817765845,2.32360690144122,2.32391648932941,2.3243259442783,2.32497508017289,2.32701236821129,2.32662288667454,2.32805098564263,2.32859026777044,2.32882994871613,2.3290796163679,2.32869013483115,2.32864020130079,2.32847042729759,2.32871010824329,2.33022808756601,2.28704557051684,2.28692573004399,2.28599696637943,2.28514809636343,2.28598697967336,2.28633651438583,2.28488844200559,2.2875349191143,2.2895023002102,2.28730522487467,2.28757486593858,2.28708551734112,2.28688578321971,2.28671600921651,2.28591707273086,2.28526793683628,2.28445901364456,2.28275128690649,2.28327059562216,2.28330055574037,2.28435914658385,2.28281120714291,2.2826114730215,2.28273131349435,2.28281120714291,2.2824416990183,2.2823418319576,2.28331054244644,2.28284116726113,2.28205221748155,2.28195235042084,2.2829510210279,2.28237179207581,2.28330055574037,2.28263144643364,2.28284116726113,2.28286114067327,2.28292106090969,2.28290108749755,2.28325062221002,2.28336047597679,2.28355022339214,2.28454889399919,2.2843092130535,2.28500828247844,2.28427925293529,2.28424929281708,2.28533784377877,2.28609683344013,2.28569736519731,2.28645635485867,2.28569736519731,2.28615675367656,2.28663611556794,2.28793438735712,2.28840376254244,2.28955223374055,2.29027127657763,2.29088046564794,2.34280135050887,2.34879337415122,2.3478146769563,2.34768484977738,2.34752506248025,2.35016155288289,2.34950243028223,2.35450577002359,2.35233865480627,2.35363692659545
2.30295439328727,2.3026048585748,2.30267476551729,2.30116677290063,2.30050765029998,2.29948900628078,2.30037782312106,2.29862016285264,2.29821070790374,2.29834053508266,2.29840045531908,2.29833054837659,2.29871004320727,2.29862016285264,2.29942908604435,2.29997835487824,2.30108687925207,2.30156624114346,2.30211550997734,2.30245505798374,2.30350366212115,2.3044024656675,2.30560087039597,2.30731858384011,2.30744841101903,2.308576908805,2.30884654986891,2.31025467542486,2.31039448930985,2.30291444646299,2.30341378176651,2.30369340953649,2.30426265178251,2.30592044499023,2.30511152179851,2.30589048487202,2.27247496635987,2.27271464730556,2.27204553799883,2.27087709338857,2.27084713327036,2.27056750550039,2.27062742573681,2.27090705350679,2.27134646857389,2.2710368806857,2.27135645527996,2.27170598999243,2.27211544494133,2.27255486000843,2.27254487330236,2.27267470048128,2.27267470048128,2.2727346207177,2.27278455424805,2.27351358379121,2.27415273297972,2.27422263992222,2.27543103135676,2.27597031348457,2.27902624554216,2.27671931643986,2.27746831939515,2.27836712294151,2.27910613919073,2.2815928290023,2.28375994421962,2.33246510972582,2.33100705063952,2.33160625300375,2.33181597383124,2.33215552183764,2.32997841991425,2.33041783498136,2.32828067988225,2.32824073305797,2.32732195609948,2.32879000189185,2.32419611709939,2.32370676850193,2.32290783201628,2.32195909493958,2.3221887891792,2.32168945387567,2.32148971975426,2.32146974634212,2.32158958681496,2.32191914811529,2.32209890882456,2.32251835047953,2.32315749966805,2.32315749966805,2.32379664885656,2.3243958512208,2.32467547899077,2.32557428253713,2.32648307278955,2.32702235491736,2.32978867249891,2.32818081282155,2.32959892508357,2.32938920425609,2.32938920425609,2.32960891178964,2.32876004177364,2.32882994871613,2.32878001518578,2.28907287184917,2.28828392206959,2.28875329725491,2.28953226032841,2.28703558381077,2.28735515840503,2.28614676697049,2.28636647450404,2.28708551734112,2.28714543757754,2.28642639474046,2.28625662073726,2.28632652767976,2.28649630168296,2.28434915987778,2.28428923964136,2.28449896046884,2.28351027656785,2.28305088808861,2.28283118055505,2.28310082161896,2.28301094126432,2.28335048927072,2.28271134008221,2.28306087479468,2.28385981128032,2.28279123373077,2.28289110079148,2.2831207950311,2.28296100773397,2.2830209279704,2.28326060891609,2.28287112737934,2.28309083491289,2.28306087479468,2.2826114730215,2.28330055574037,2.28306087479468,2.28451893388098,2.28333051585858,2.28437911999599,2.28357019680428,2.28400961187138,2.28448897376277,2.28519802989378,2.28489842871166,2.28568737849124,2.28451893388098,2.2857672721398,2.28561747154875,2.28806421453604,2.28708551734112,2.28614676697049,2.28714543757754,2.28813412147853,2.28953226032841,2.29098033270865,2.29209884378855,2.29262813921029,2.34520814667188,2.35500510532712,2.34780469025023,2.34891321462406,2.34796447754736,2.3507008350107,2.3499518320554,2.35448579661145,2.35428606249003,2.35219884092128
2.30136650702205,2.30234520421696,2.30140645384633,2.30140645384633,2.30024799594214,2.29969872710826,2.29925931204115,2.29827062814017,2.29823068131588,2.29795105354591,2.29833054837659,2.29852029579193,2.29914945827438,2.2989397374469,2.29935917910186,2.30071737112746,2.30109686595814,2.30081723818816,2.30242509786553,2.30241511115946,2.30336384823616,2.30446238590392,2.30564081722025,2.30667943465159,2.30714880983691,2.30787783938006,2.30866678915964,2.31011486153987,2.3048119206164,2.30458222637677,2.30324400776331,2.30302430022976,2.30431258531287,2.30496172120745,2.30454227955249,2.27519135041106,2.27235512588702,2.27181584375921,2.27115672115855,2.27111677433427,2.27074726620966,2.27087709338857,2.27011810372721,2.27128654833747,2.27130652174961,2.27097696044928,2.2712066546889,2.27085711997643,2.2723950727113,2.2717159766985,2.27223528541417,2.27259480683271,2.27270466059949,2.27289440801483,2.27285446119055,2.27360346414584,2.27421265321615,2.27587044642386,2.27394301215224,2.27543103135676,2.27597031348457,2.27628988807883,2.27745833268908,2.27848696341435,2.27976526179139,2.28071399886809,2.33195578771622,2.33324407279933,2.33190585418587,2.33123674487914,2.33338388668432,2.33194580101015,2.3316262264159,2.33003834015067,2.32905964295576,2.32724206245091,2.32876004177364,2.32714219539021,2.32579399007068,2.32345710085016,2.32356695461694,2.32260823083416,2.32191914811529,2.32209890882456,2.32205896200028,2.32183925446673,2.32192913482136,2.32329731355303,2.32292780542842,2.32255829730381,2.32383659568084,2.32400636968404,2.32425603733581,2.32481529287576,2.32571409642211,2.32631329878635,2.32759159716338,2.32848041400366,2.32819079952762,2.32811090587905,2.3294191643743,2.32979865920498,2.33061756910277,2.33151637264912,2.32784126481515,2.3304378083935,2.2895023002102,2.28768471970535,2.28810416136032,2.28745502546573,2.28738511852324,2.28742506534752,2.28602692649764,2.28591707273086,2.28622666061905,2.28662612886187,2.28636647450404,2.28631654097369,2.28539776401519,2.28541773742733,2.28484849518131,2.28461880094169,2.28426926622922,2.28406953210781,2.28335048927072,2.28387978469246,2.28313078173717,2.2829510210279,2.28327059562216,2.28330055574037,2.28275128690649,2.28294103432183,2.28290108749755,2.28298098114611,2.28258151290329,2.28385981128032,2.28311080832503,2.28366007715891,2.28269136667007,2.28282119384898,2.28291107420362,2.28299096785218,2.28287112737934,2.28332052915251,2.28274130020042,2.28404955869566,2.2830209279704,2.28366007715891,2.28397965175317,2.28439909340814,2.28511813624522,2.28450894717491,2.28442905352635,2.28510814953915,2.28539776401519,2.28491840212381,2.28526793683628,2.28693571675006,2.28643638144653,2.28697566357434,2.28734517169896,2.28776461335392,2.28968206091947,2.28932253950093,2.29141974777575,2.34276140368459,2.34919284239404,2.34964224416722,2.35250842880947,2.35210896056665,2.35432600931432,2.35528473309709,2.35379671389258,2.35476542438142,2.35329737858905,2.35319751152834
2.3018558556195,2.3022653105684,2.30113681278242,2.30214547009555,2.29947901957471,2.29958887334148,2.29882988368012,2.29810085413697,2.29884985709226,2.29822069460981,2.29840045531908,2.2983605084948,2.29945904616257,2.2988698305044,2.29938913922007,2.29977862075682,2.30029792947249,2.3007373445396,2.30190578914986,2.30266477881122,2.3030442736419,2.30426265178251,2.30561085710204,2.30685919536086,2.3074583977251,2.30805760008933,2.31075401072839,2.31022471530665,2.30603029875701,2.31120341250156,2.30258488516266,2.30233521751089,2.30242509786553,2.30411285119145,2.30741845090082,2.30764814514044,2.27280452766019,2.27170598999243,2.27097696044928,2.27114673445248,2.27063741244288,2.27085711997643,2.2708671066825,2.27083714656429,2.2708671066825,2.27107682750998,2.27225525882631,2.27107682750998,2.27200559117455,2.27182583046528,2.27289440801483,2.27321398260909,2.27266471377521,2.27291438142697,2.27284447448448,2.27317403578481,2.27450226769219,2.2749416827593,2.27540107123855,2.27462210816504,2.27536112441426,2.276739289852,2.27750826621944,2.27858683047506,2.28024462368277,2.28097365322593,2.28350028986178,2.3316262264159,2.33178601371302,2.332065641483,2.33230532242869,2.33361358092394,2.32997841991425,2.33063754251491,2.32829066658832,2.32811090587905,2.3281608394094,2.32847042729759,2.32682262079595,2.32435590439651,2.32305763260734,2.32329731355303,2.32348706096837,2.32273805801308,2.32301768578306,2.32268812448273,2.32564418947962,2.32214884235492,2.32297773895878,2.32367680838372,2.32373672862014,2.32317747308019,2.3247353992272,2.32572408312818,2.32539452182785,2.32598373748602,2.3282307463519,2.32826070647011,2.32807095905477,2.32875005506757,2.32988853955961,2.33004832685674,2.33470213188563,2.33190585418587,2.33211557501335,2.33127669170342,2.28824397524531,2.28822400183317,2.28774463994178,2.28659616874366,2.28677592945293,2.28615675367656,2.28675595604079,2.28452892058705,2.28579723225802,2.28577725884587,2.28522799001199,2.2861068201462,2.28642639474046,2.28543771083948,2.28456886741133,2.28429922634743,2.28518804318771,2.28333051585858,2.28303091467647,2.28248164584258,2.28305088808861,2.28257152619722,2.2823418319576,2.2829510210279,2.28284116726113,2.28374995751355,2.28328058232823,2.28301094126432,2.28294103432183,2.28404955869566,2.28356021009821,2.28341040950715,2.28306087479468,2.2830209279704,2.28284116726113,2.28270135337614,2.28299096785218,2.28331054244644,2.28477858823882,2.28290108749755,2.28378990433783,2.28401959857745,2.28414942575637,2.28448897376277,2.28562745825482,2.2852579501302,2.28528791024842,2.28523797671806,2.2858371790823,2.28696567686827,2.28577725884587,2.28711547745933,2.28667606239223,2.28716541098969,2.28775462664785,2.28754490582037,2.29346702252022,2.28988179504088,2.29034118352013,2.29225863108568,2.35509498568175,2.35926942881925,2.35363692659545,2.35219884092128,2.35527474639102,2.35515490591818,2.35457567696608,2.35445583649323,2.35542454698208,2.34940256322152
2.30350366212115,2.30257489845659,2.30190578914986,2.30135652031598,2.30171604173452,2.299379152514,2.29844040214337,2.298530282498,2.29831057496445,2.29874000332548,2.29852029579193,2.29881989697405,2.29994839476002,2.29909952474403,2.29930924557151,2.30019806241179,2.30011816876322,2.30075731795174,2.30189580244379,2.30245505798374,2.30359354247578,2.30443242578571,2.30585053804774,2.30657956759089,2.30761818502223,2.30868676257178,2.3106141968434,2.31050434307662,2.31094375814373,2.31074402402232,2.31086386449517,2.31107358532265,2.31148304027154,2.27373329132476,2.27393302544617,2.2732439427273,2.27206551141097,2.27233515247488,2.27096697374321,2.27084713327036,2.27289440801483,2.27063741244288,2.27082715985822,2.271785883641,2.27563076547817,2.27125658821926,2.27133648186782,2.27166604316815,2.27196564435027,2.27322396931516,2.27232516576881,2.27262476695092,2.27352357049728,2.27326391613944,2.27339374331836,2.27381318497332,2.27611012736956,2.27444234745577,2.27476192205003,2.27482184228645,2.27676924997021,2.27665939620344,2.27917604613322,2.27887644495111,2.27986512885209,2.28169269606301,2.33100705063952,2.32933927072573,2.33134659864592,2.33250505655011,2.33181597383124,2.33415286305175,2.33293448491114,2.33288455138079,2.33524141401344,2.32844046717938,2.32794113187585,2.32835058682475,2.32718214221449,2.32482527958183,2.32642315255312,2.32419611709939,2.32339718061374,2.32396642285976,2.3238865292112,2.32356695461694,2.32260823083416,2.32331728696518,2.32312753954983,2.32287787189807,2.3243259442783,2.32484525299397,2.32523473453073,2.32533460159143,2.32630331208028,2.32847042729759,2.32773141104837,2.32942915108037,2.32908960307397,2.32913953660432,2.33090718357881,2.33014819391745,2.33165618653411,2.332065641483,2.33173608018267,2.32971876555641,2.28940243314949,2.28734517169896,2.28700562369256,2.28648631497689,2.28557752472446,2.2860069530855,2.28630655426762,2.28539776401519,2.28507818942093,2.28611680685227,2.2849883090663,2.28536780389698,2.28492838882988,2.28505821600879,2.28387978469246,2.28401959857745,2.2841394390503,2.2832905690343,2.28350028986178,2.28310082161896,2.28280122043684,2.28300095455825,2.28284116726113,2.2836301170407,2.28310082161896,2.28335048927072,2.28364010374677,2.28388977139854,2.28404955869566,2.28392971822282,2.28323064879788,2.28362013033463,2.28233184525153,2.28252159266687,2.28309083491289,2.28296100773397,2.28372998410141,2.28325062221002,2.28367006386498,2.28361014362856,2.28468870788418,2.28422931940494,2.28421933269886,2.28437911999599,2.28445901364456,2.28477858823882,2.28557752472446,2.28561747154875,2.2861767270887,2.28629656756154,2.28620668720691,2.2861767270887,2.28703558381077,2.28683584968936,2.28765475958714,2.29047101069905,2.28911281867345,2.29286782015598,2.29165942872144,2.34665621905211,2.34714556764957,2.35276808316731,2.3535170861226,2.35395650118971,2.3529078970523,2.35394651448363,2.35480537120571,2.35411628848684,2.34775475671988,2.34840389261446
2.3030442736419,2.30401298413075,2.30381325000934,2.30424267837037,2.30189580244379,2.302774632578,2.29859020273443,2.29829060155231,2.29803094719447,2.29825065472803,2.29835052178873,2.29859020273443,2.29922935192294,2.29909952474403,2.29946903286864,2.30008820864501,2.30044773006355,2.30110685266421,2.3018558556195,2.30271471234157,2.30385319683362,2.30409287777931,2.30526132238957,2.30701898265799,2.30765813184651,2.30785786596792,2.30943576552707,2.30952564588171,2.30764814514044,2.31140314662298,2.31043443613413,2.31038450260378,2.31100367838015,2.31097371826194,2.27285446119055,2.27138641539817,2.27206551141097,2.27223528541417,2.27179587034707,2.27253488659629,2.27119666798283,2.27092702691893,2.27080718644608,2.27114673445248,2.27238508600523,2.27118668127676,2.27206551141097,2.2716161096378,2.27204553799883,2.27249493977201,2.27228521894452,2.27243501953558,2.27264474036307,2.27271464730556,2.27370333120655,2.27328388955158,2.27415273297972,2.27520133711713,2.27428256015864,2.27565073889031,2.27602024701492,2.27718869162518,2.27696898409163,2.27829721599901,2.27966539473068,2.28213211113011,2.28246167243044,2.33008827368103,2.33059759569063,2.33105698416987,2.33315419244469,2.33382330175142,2.33382330175142,2.33526138742558,2.3290097094254,2.3293492574318,2.32673274044131,2.32829066658832,2.32644312596527,2.32559425594927,2.32596376407388,2.32419611709939,2.32489518652433,2.32458559863614,2.3263632323167,2.32335723378946,2.32348706096837,2.3253445882975,2.32491515993647,2.32485523970004,2.32600371089816,2.32465550557863,2.32510490735181,2.32582395018889,2.32676270055952,2.32785125152122,2.32928933719538,2.3313865454702,2.3305376754542,2.3312866784095,2.33149639923698,2.33124673158521,2.33101703734559,2.33316417915076,2.33229533572262,2.33555100190163,2.28896301808239,2.28846368277886,2.28718538440183,2.28640642132832,2.28625662073726,2.28590708602479,2.28547765766376,2.28560748484268,2.28493837553595,2.28589709931872,2.28433917317171,2.28504822930272,2.28511813624522,2.28506820271486,2.28455888070526,2.28373997080748,2.28371001068927,2.28408950551995,2.28415941246244,2.28416939916851,2.28469869459025,2.28316074185538,2.28376993092569,2.28350028986178,2.28340042280108,2.28311080832503,2.28313078173717,2.28296100773397,2.28305088808861,2.2853278570727,2.28306087479468,2.2831207950311,2.28307086150075,2.28306087479468,2.28397965175317,2.28365009045284,2.28352026327392,2.28327059562216,2.28416939916851,2.28359017021642,2.28475861482668,2.28377991763176,2.28529789695449,2.28499829577237,2.28462878764776,2.28488844200559,2.28495834894809,2.28637646121011,2.28609683344013,2.28596700626122,2.28684583639543,2.28699563698649,2.28693571675006,2.28994171527731,2.28897300478846,2.28921268573415,2.29161948189716,2.29158952177895,2.29233852473424,2.36031803295666,2.35376675377436,2.35522481286067,2.35375676706829,2.35571416145813,2.35329737858905,2.35461562379036,2.35479538449963,2.35534465333352,2.35656303147413,2.34756500930454
2.30268475222336,2.3037233696547,2.30199566950449,2.30777797231936,2.30094706536708,2.29863014955871,2.29859020273443,2.29824066802195,2.29781123966092,2.29815078766732,2.29837049520087,2.299379152514,2.29964879357791,2.29875997673763,2.29956889992934,2.30022802253,2.30079726477602,2.30105691913386,2.30102695901565,2.30297436669941,2.30373335636077,2.30477197379211,2.30579061781131,2.30699900924585,2.30756825149187,2.30877664292641,2.30861685562928,2.31136319979869,2.31193244204472,2.31329063407032,2.31257159123323,2.31030460895521,2.31164282756867,2.27414274627365,2.27497164287751,2.27271464730556,2.27185579058349,2.27216537847168,2.27169600328636,2.27261478024485,2.27019799737577,2.27061743903074,2.27045765173361,2.27095698703714,2.27447230757398,2.27121664139497,2.27186577728956,2.27197563105634,2.27322396931516,2.27168601658029,2.27295432825125,2.27240505941737,2.27292436813304,2.27294434154518,2.2734137167305,2.27316404907874,2.27328388955158,2.27393302544617,2.2752812307657,2.27490173593502,2.27566072559638,2.27607018054527,2.27706885115233,2.27838709635365,2.27952558084569,2.28036446415562,2.32936923084394,2.3282307463519,2.32861024118258,2.33319413926898,2.33262489702295,2.33256497678653,2.33377336822107,2.33467217176742,2.33465219835528,2.33550106837128,2.33063754251491,2.32858028106437,2.32659292655632,2.3256841363039,2.32680264738381,2.32777135787265,2.32373672862014,2.32492514664254,2.32420610380546,2.32339718061374,2.32377667544442,2.32469545240291,2.32428599745402,2.32454565181186,2.32464551887256,2.32679266067774,2.32569412300997,2.32717215550842,2.32751170351482,2.32835058682475,2.32996843320818,2.33023807427208,2.32976869908677,2.33078734310597,2.33143647900055,2.33167615994625,2.33310425891434,2.33282463114436,2.33243514960761,2.33558096201984,2.29048099740512,2.28964211409519,2.28674596933472,2.28674596933472,2.2868558231015,2.28483850847524,2.28472865470846,2.28421933269886,2.28552759119411,2.28517805648164,2.28420934599279,2.28494836224202,2.28488844200559,2.28386979798639,2.28405954540174,2.28482852176917,2.28376993092569,2.28345035633143,2.28372998410141,2.28353024998,2.2827812470247,2.28356021009821,2.28371001068927,2.28310082161896,2.28306087479468,2.28371999739534,2.28294103432183,2.28281120714291,2.28308084820682,2.28284116726113,2.28343038291929,2.2832905690343,2.2834603430375,2.28385981128032,2.28360015692249,2.28393970492889,2.28332052915251,2.28367006386498,2.28503824259665,2.28487845529952,2.28405954540174,2.28409949222602,2.28521800330592,2.28504822930272,2.28472865470846,2.2852579501302,2.28487845529952,2.28509816283308,2.28694570345613,2.28648631497689,2.28639643462225,2.28690575663185,2.2877046931175,2.28822400183317,2.28762479946893,2.28923265914629,2.290181396223,2.29139977436361,2.34803438448985,2.35494518509069,2.35603373605239,2.35550444063065,2.35446582319931,2.35253838892768,2.35445583649323,2.35517487933032,2.35496515850283,2.347205487886,2.34763491624703,2.34739523530134
2.30291444646299,2.30309420717226,2.30159620126167,2.30065745089104,2.30032788959071,2.30050765029998,2.29814080096125,2.2989397374469,2.30089713183673,2.29866010967692,2.2984304154373,2.2987000565012,2.29887981721047,2.29896969756511,2.29972868722647,2.30020804911786,2.30082722489423,2.30156624114346,2.30252496492623,2.30414281130967,2.30383322342148,2.30484188073461,2.3057606576931,2.30701898265799,2.30763815843437,2.30870673598392,2.3091561377571,2.31068410378589,2.31049435637055,2.3114630668594,2.31159289403832,2.31341047454316,2.31185254839615,2.2757206458328,2.27430253357078,2.27135645527996,2.27102689397963,2.27051757197003,2.27172596340457,2.27092702691893,2.27032782455469,2.27023794420006,2.27090705350679,2.27134646857389,2.27091704021286,2.27112676104034,2.27182583046528,2.27223528541417,2.27198561776241,2.27210545823525,2.27298428836946,2.2724649796538,2.27279454095412,2.27430253357078,2.27354354390942,2.27347363696692,2.27359347743977,2.27396298556438,2.27452224110433,2.27500160299572,2.27614008748777,2.27601026030885,2.27662943608523,2.27802757493511,2.27967538143675,2.28090374628343,2.2828511539672,2.32912954989825,2.32872009494936,2.32726203586305,2.3347820255342,2.33361358092394,2.33326404621147,2.3335237005693,2.3332540595054,2.33470213188563,2.33151637264912,2.32898973601326,2.32672275373524,2.32856030765223,2.3267027803231,2.32615351148922,2.32614352478315,2.32448573157543,2.32411622345082,2.32445577145722,2.32324738002268,2.32425603733581,2.32443579804508,2.32511489405788,2.32444578475115,2.3255143623007,2.32649305949562,2.32844046717938,2.32718214221449,2.32868014812507,2.3298585794414,2.33042782168743,2.33092715699095,2.33090718357881,2.33173608018267,2.33177602700695,2.33242516290154,2.33382330175142,2.33397310234248,2.33480199894634,2.29004158233801,2.28794437406319,2.28739510522931,2.28741507864145,2.28742506534752,2.28529789695449,2.28556753801839,2.28606687332192,2.28502825589058,2.28510814953915,2.28454889399919,2.28395967834103,2.28392971822282,2.28392971822282,2.28362013033463,2.28407951881388,2.28348031644964,2.28325062221002,2.28322066209181,2.28362013033463,2.2834603430375,2.28356021009821,2.28406953210781,2.28311080832503,2.28352026327392,2.28290108749755,2.28345035633143,2.28313078173717,2.28330055574037,2.28291107420362,2.28374995751355,2.28358018351035,2.28380987774997,2.28401959857745,2.28345035633143,2.28358018351035,2.28463877435383,2.28310082161896,2.28418937258065,2.28468870788418,2.28438910670206,2.28466873447204,2.28445901364456,2.28505821600879,2.28573731202159,2.28570735190338,2.28648631497689,2.2857672721398,2.28630655426762,2.28716541098969,2.28756487923251,2.28700562369256,2.28669603580437,2.28896301808239,2.28995170198338,2.29059085117189,2.29252827214959,2.29199897672784,2.3554844672185,2.35467554402679,2.35451575672966,2.35517487933032,2.35540457356994,2.35413626189898,2.3525683490459,2.35517487933032,2.34752506248025,2.35354704624081,2.34786461048665,2.35556436086707
2.3029444065812,2.30274467245979,2.3026048585748,2.30336384823616,2.30046770347569,2.29864013626478,2.29790112001556,2.29798101366412,2.29753161189094,2.29806090731268,2.2991095114501,2.29849033567372,2.29878993685584,2.29902961780153,2.2992792854533,2.30038780982713,2.30125665325527,2.30234520421696,2.30258488516266,2.30357356906364,2.3049117876771,2.30484188073461,2.30580060451738,2.30646971382411,2.30828729432896,2.30885653657498,2.30946572564528,2.3104444228402,2.31100367838015,2.31088383790731,2.31196240216293,2.31276133864857,2.27523129723535,2.27420266651008,2.27277456754198,2.27386311850368,2.27532117758998,2.27121664139497,2.27066737256109,2.27095698703714,2.27038774479111,2.2708671066825,2.27047762514575,2.27061743903074,2.27182583046528,2.27146630904674,2.27181584375921,2.27221531200203,2.27224527212024,2.27235512588702,2.27243501953558,2.27359347743977,2.27185579058349,2.27312410225445,2.27289440801483,2.27317403578481,2.27379321156118,2.27468202840146,2.2742625867465,2.27553089841746,2.2759603267785,2.27632983490311,2.27749827951337,2.27873663106612,2.27868669753576,2.28152292205981,2.28352026327392,2.33450239776422,2.33570080249269,2.33635992509335,2.33637989850549,2.33288455138079,2.33423275670032,2.33314420573862,2.33275472420187,2.3330842855022,2.32990851297176,2.33016816732959,2.32725204915698,2.32682262079595,2.32728200927519,2.32576402995247,2.32748174339661,2.32578400336461,2.32426602404188,2.32479531946362,2.32729199598126,2.32491515993647,2.32608360454672,2.32560424265534,2.32579399007068,2.32638320572884,2.32718214221449,2.32796110528799,2.32908960307397,2.33012822050531,2.32973873896856,2.33017815403566,2.33129666511557,2.33095711710917,2.33220545536799,2.33217549524978,2.33262489702295,2.33245512301975,2.33341384680253,2.33429267693674,2.28901295161274,2.28830389548173,2.29010150257443,2.28690575663185,2.28561747154875,2.28523797671806,2.28439909340814,2.28522799001199,2.28595701955515,2.28565741837303,2.28550761778197,2.28519802989378,2.28426926622922,2.28348031644964,2.28389975810461,2.28394969163496,2.28371999739534,2.28343038291929,2.28327059562216,2.28362013033463,2.28314076844324,2.28355022339214,2.28339043609501,2.28364010374677,2.28423930611101,2.28341040950715,2.28316074185538,2.28320068867967,2.28349030315571,2.28392971822282,2.28382985116211,2.28330055574037,2.28315075514931,2.28488844200559,2.28524796342413,2.28340042280108,2.28406953210781,2.28428923964136,2.2843092130535,2.28519802989378,2.28477858823882,2.28489842871166,2.28646634156474,2.285937046143,2.28603691320371,2.28614676697049,2.28599696637943,2.28619670050084,2.28721534452004,2.28810416136032,2.2871953711079,2.28741507864145,2.28743505205359,2.28847366948493,2.28978192798018,2.29032121010799,2.29082054541152,2.35459565037822,2.35276808316731,2.35288792364015,2.35349711271046,2.35507501226961,2.35434598272646,2.35331735200119,2.34984197828863,2.34688591329174,2.34771480989559,2.35872015998537,2.35506502556354,2.3558240152249
2.30256491175051,2.30370339624256,2.301076892546,2.30027795606035,2.29984852769932,2.29991843464181,2.29945904616257,2.29832056167052,2.29807089401876,2.29909952474403,2.29837049520087,2.2987000565012,2.29882988368012,2.29949899298685,2.30021803582393,2.30020804911786,2.30133654690383,2.30268475222336,2.30388315695183,2.30390313036397,2.30575067098703,2.3052513356835,2.30645972711804,2.30734854395832,2.30869674927785,2.30877664292641,2.31003496789131,2.31058423672519,2.31144309344726,2.31108357202872,2.31308091324283,2.27556085853567,2.31368011560707,2.27332383637586,2.27318402249088,2.27152622928316,2.27194567093813,2.27128654833747,2.27208548482311,2.27079719974001,2.27040771820326,2.27096697374321,2.27117669457069,2.27146630904674,2.2712765616314,2.27132649516175,2.271785883641,2.27193568423205,2.27231517906274,2.2724649796538,2.27300426178161,2.27265472706914,2.27263475365699,2.27284447448448,2.27387310520975,2.27497164287751,2.27483182899252,2.27457217463469,2.27456218792862,2.27531119088391,2.27583049959958,2.27688909044306,2.27832717611722,2.28055421157096,2.27957551437605,2.2814929619416,2.28233184525153,2.33820746571641,2.33841718654389,2.33593049673231,2.33815753218605,2.33618016438408,2.33353368727538,2.3343725705853,2.33333395315396,2.33247509643189,2.32993847308997,2.331216771467,2.32911956319218,2.32697242138701,2.32717215550842,2.32716216880235,2.32597375077995,2.32781130469693,2.32760158386945,2.32664286008668,2.32544445535821,2.32538453512178,2.32570410971604,2.32622341843171,2.32742182316018,2.3277214243423,2.32828067988225,2.32878001518578,2.32911956319218,2.32948907131679,2.32989852626569,2.33244513631368,2.33195578771622,2.33330399303575,2.33255499008046,2.33256497678653,2.33309427220827,2.33318415256291,2.33242516290154,2.3317260934766,2.28905289843702,2.28777460005999,2.28675595604079,2.2863465010919,2.28659616874366,2.28624663403119,2.28544769754555,2.28480854835703,2.28528791024842,2.2846487610599,2.28333051585858,2.28425927952315,2.28417938587458,2.28371001068927,2.28349030315571,2.28366007715891,2.28418937258065,2.28369003727712,2.28364010374677,2.28358018351035,2.28374995751355,2.28304090138254,2.28318071526752,2.28395967834103,2.28323064879788,2.28331054244644,2.28336047597679,2.28326060891609,2.28370002398319,2.28381986445604,2.28314076844324,2.2834603430375,2.28320068867967,2.28474862812061,2.28429922634743,2.28397965175317,2.28423930611101,2.28423930611101,2.28438910670206,2.2846487610599,2.28518804318771,2.28470868129632,2.28555755131232,2.28535781719091,2.28558751143053,2.28605688661585,2.28616674038263,2.2866161421558,2.28711547745933,2.28696567686827,2.28783452029641,2.28849364289707,2.28860349666385,2.2883837891303,2.2916394553093,2.2914696813061,2.29178925590036,2.3507008350107,2.35117021019602,2.35042120724072,2.3518193460906,2.35440590296288,2.35380670059865,2.35502507873926,2.35407634166255,2.35431602260825,2.35690257948053,2.35976876412278,2.36035797978095,2.35631336382236
2.30146637408275,2.3014164405524,2.30157622784953,2.30178594867701,2.29942908604435,2.29868008308906,2.29932921898365,2.30048767688784,2.29864013626478,2.29830058825838,2.29892975074083,2.29830058825838,2.30016810229358,2.301076892546,2.29982855428718,2.30038780982713,2.30143641396454,2.3024350845716,2.30351364882722,2.30398302401254,2.30490180097103,2.30647970053018,2.30727863701583,2.30717876995512,2.30686918206693,2.30858689551107,2.31083390437695,2.31119342579549,2.3109537448498,2.31132325297441,2.31193244204472,2.31229196346326,2.31130327956227,2.27417270639186,2.27432250698292,2.27136644198603,2.27135645527996,2.27122662810104,2.2705974656186,2.27019799737577,2.27033781126076,2.27164606975601,2.27153621598923,2.27126657492533,2.27143634892853,2.2713764286921,2.27219533858989,2.27166604316815,2.27213541835347,2.27315406237267,2.27298428836946,2.27287443460269,2.27381318497332,2.27294434154518,2.27351358379121,2.27468202840146,2.27401291909473,2.27437244051328,2.27559081865389,2.27617004760598,2.2756207787721,2.2766394227913,2.27677923667628,2.27934582013642,2.27988510226423,2.2804743179224,2.28316074185538,2.33532130766201,2.33676938004224,2.33666951298154,2.33649973897834,2.33604035049909,2.33415286305175,2.33294447161721,2.33313421903255,2.33073740957561,2.3305376754542,2.33183594724338,2.3294191643743,2.3281608394094,2.32729199598126,2.32678267397167,2.32693247456272,2.32620344501957,2.326263365256,2.32562421606748,2.32644312596527,2.32542448194607,2.3290097094254,2.32734192951162,2.32715218209628,2.32800105211228,2.32824073305797,2.32825071976404,2.32939919096216,2.32976869908677,2.33136657205806,2.33190585418587,2.33340386009646,2.33203568136479,2.33323408609326,2.33316417915076,2.33176604030088,2.33415286305175,2.3313865454702,2.33237522937119,2.28819404171495,2.29026128987156,2.28835382901208,2.28823398853924,2.28499829577237,2.2861767270887,2.28499829577237,2.28440908011421,2.28506820271486,2.28440908011421,2.28474862812061,2.2848185350631,2.28509816283308,2.28443904023242,2.28332052915251,2.28376993092569,2.28382985116211,2.28339043609501,2.28344036962536,2.28408950551995,2.28358018351035,2.28318071526752,2.2830209279704,2.28304090138254,2.28406953210781,2.28305088808861,2.28339043609501,2.28324063550395,2.2831907019736,2.28303091467647,2.28356021009821,2.28373997080748,2.28410947893209,2.28456886741133,2.28387978469246,2.28426926622922,2.28466873447204,2.28365009045284,2.28372998410141,2.28517805648164,2.2851580830695,2.28522799001199,2.28550761778197,2.28571733860945,2.28601693979157,2.28588711261265,2.28657619533152,2.28656620862545,2.28648631497689,2.2882140151271,2.28794437406319,2.28859350995778,2.28878325737312,2.28957220715269,2.29007154245622,2.29159950848502,2.29256821897387,2.34927273604261,2.34882333426943,2.35124011713851,2.35113026337173,2.3512101570203,2.35013159276467,2.35535464003959,2.34799443766557,2.35588393546133,2.35930937564354,2.35699245983516,2.35692255289267,2.35728207431121
2.3016860816163,2.30177596197094,2.30017808899965,2.29963880687184,2.30042775665141,2.29790112001556,2.29817076107946,2.29846037555551,2.3005675705364,2.2995489265172,2.29847036226158,2.30015811558751,2.2992093785108,2.29973867393254,2.30061750406675,2.30042775665141,2.30340379506044,2.30293441987513,2.30261484528087,2.30404294424896,2.30539114956849,2.30635986005733,2.30637983346948,2.30790779949827,2.3106141968434,2.31076399743446,2.31037451589771,2.31117345238335,2.3104444228402,2.31037451589771,2.31073403731625,2.30926599152387,2.27335379649408,2.27227523223845,2.27284447448448,2.27229520565059,2.27111677433427,2.27257483342057,2.27085711997643,2.27162609634387,2.27053754538217,2.27135645527996,2.27141637551638,2.27084713327036,2.27085711997643,2.27063741244288,2.27145632234067,2.27183581717135,2.27198561776241,2.27224527212024,2.27296431495732,2.27278455424805,2.27330386296372,2.27311411554838,2.27338375661229,2.27447230757398,2.27411278615544,2.27561079206603,2.27462210816504,2.27500160299572,2.2761301007817,2.27625992796061,2.27788776105012,2.27875660447826,2.27940574037285,2.28113344052306,2.28229189842724,2.33458229141279,2.3361402175598,2.33604035049909,2.33644980544798,2.33700906098794,2.33474207870992,2.33322409938719,2.33357363409966,2.33333395315396,2.33192582759801,2.33095711710917,2.33025804768423,2.33016816732959,2.32760158386945,2.32766150410588,2.32780131799086,2.32657295314418,2.32771143763623,2.32758161045731,2.32821077293976,2.32651303290776,2.32686256762023,2.3277214243423,2.32749173010268,2.32862022788865,2.32977868579284,2.32923940366503,2.32957895167143,2.33014819391745,2.33078734310597,2.33165618653411,2.33183594724338,2.33260492361081,2.33296444502935,2.334612251531,2.33503169318596,2.33183594724338,2.32964885861392,2.33008827368103,2.33095711710917,2.28843372266065,2.29034118352013,2.28816408159674,2.28672599592258,2.28553757790018,2.28416939916851,2.28477858823882,2.28614676697049,2.28528791024842,2.28487845529952,2.28362013033463,2.28390974481068,2.2837998910439,2.28424929281708,2.28374995751355,2.28373997080748,2.28361014362856,2.28349030315571,2.28390974481068,2.28359017021642,2.28390974481068,2.28332052915251,2.28330055574037,2.28326060891609,2.28350028986178,2.28359017021642,2.28315075514931,2.28351027656785,2.28360015692249,2.28325062221002,2.28516806977557,2.28502825589058,2.28359017021642,2.28440908011421,2.28424929281708,2.28459882752955,2.28500828247844,2.28395967834103,2.28518804318771,2.28517805648164,2.28605688661585,2.28571733860945,2.29033119681406,2.285937046143,2.28622666061905,2.28633651438583,2.28666607568616,2.28758485264465,2.28734517169896,2.28846368277886,2.28773465323571,2.28870336372455,2.29011148928051,2.2905209442294,2.29244837850102,2.34959231063686,2.34762492954096,2.34809430472628,2.34816421166877,2.34879337415122,2.34863358685409,2.34925276263046,2.34890322791799,2.35618353664344,2.35831070503648,2.3565730181802,2.35795118361794,2.35805105067864,2.35802109056043
2.30147636078882,2.30160618796774,2.30004826182073,2.29939912592614,2.2995489265172,2.29947901957471,2.29924932533508,2.29931923227758,2.30051763700605,2.29873001661941,2.29874000332548,2.29950897969292,2.30022802253,2.30102695901565,2.3013465336099,2.30144640067061,2.30172602844059,2.30241511115946,2.30348368870901,2.30424267837037,2.30596039181451,2.3066095277091,2.30737850407653,2.30888649669319,2.31118343908942,2.31088383790731,2.31035454248557,2.31111353214693,2.31237185711182,2.30921605799352,2.30929595164208,2.30943576552707,2.31030460895521,2.31142312003512,2.27248495306594,2.27346365026085,2.27048761185182,2.27109680092213,2.27036777137897,2.27061743903074,2.27135645527996,2.27091704021286,2.27053754538217,2.27088708009464,2.27153621598923,2.27134646857389,2.27263475365699,2.27362343755798,2.27251491318415,2.27283448777841,2.27266471377521,2.27263475365699,2.27352357049728,2.27312410225445,2.27393302544617,2.27455220122255,2.27390306532796,2.27397297227045,2.27475193534396,2.27451225439826,2.27621998113633,2.27718869162518,2.27760813328014,2.2786068038872,2.27986512885209,2.28054422486489,2.28279123373077,2.28370002398319,2.33544114813486,2.33643981874191,2.33654967250869,2.33634993838728,2.33632996497514,2.33779801076751,2.3344424775278,2.33270479067152,2.33279467102615,2.33338388668432,2.32996843320818,2.33015818062352,2.32892981577684,2.32758161045731,2.328670161419,2.32715218209628,2.32757162375124,2.32798107870013,2.3272121023327,2.3285702943583,2.32716216880235,2.32718214221449,2.32783127810908,2.32767149081195,2.32943913778644,2.33028800780244,2.33052768874813,2.33051770204206,2.33184593394945,2.33238521607726,2.3335936075118,2.33405299599105,2.33494181283133,2.33518149377702,2.334612251531,2.32965884531999,2.3295889383775,2.3301981274478,2.29022134304728,2.29036115693227,2.28878325737312,2.2888232041974,2.28717539769576,2.28540775072126,2.28503824259665,2.28552759119411,2.28503824259665,2.28497832236023,2.28432918646564,2.2841394390503,2.28415941246244,2.28405954540174,2.28418937258065,2.28391973151675,2.28365009045284,2.28368005057105,2.28390974481068,2.28371001068927,2.28385981128032,2.28333051585858,2.28382985116211,2.28332052915251,2.28347032974357,2.28388977139854,2.28322066209181,2.28365009045284,2.28461880094169,2.28411946563816,2.28431919975957,2.28414942575637,2.28341040950715,2.28471866800239,2.28420934599279,2.28412945234423,2.28402958528352,2.28506820271486,2.2844789870567,2.2855974981366,2.28529789695449,2.28632652767976,2.28604689990978,2.28642639474046,2.28611680685227,2.28618671379477,2.28665608898009,2.28663611556794,2.28740509193538,2.29055090434761,2.28767473299928,2.28928259267665,2.28941241985556,2.29029124998978,2.2911301332997,2.29298766062883,2.34651640516713,2.34599709645146,2.34642652481249,2.34766487636524,2.34784463707451,2.34852373308731,2.35848047903968,2.3577614362026,2.36052775378415,2.35799113044222,2.35813094432721,2.35922948199497,2.35932934905568,2.35949912305888
2.30140645384633,2.30055758383033,2.29991843464181,2.29939912592614,2.29965878028398,2.29906956462581,2.29875997673763,2.29898967097725,2.29959886004755,2.29942908604435,2.29959886004755,2.29974866063861,2.30027795606035,2.30034786300285,2.30085718501245,2.30110685266421,2.30299434011155,2.30378328989113,2.30424267837037,2.30486185414675,2.30615013922985,2.30753829137366,2.30804761338326,2.30906625740246,2.31016479507022,2.31244176405432,2.31065414366768,2.31157292062618,2.31126333273799,2.3143492249138,2.30833722785931,2.30860686892321,2.30972538000312,2.2723950727113,2.27274460742377,2.27172596340457,2.27165605646208,2.27097696044928,2.27240505941737,2.27049759855789,2.27047762514575,2.27090705350679,2.27117669457069,2.27156617610744,2.27219533858989,2.2716161096378,2.27194567093813,2.27283448777841,2.27363342426405,2.27315406237267,2.27402290580081,2.27377323814904,2.27312410225445,2.27348362367299,2.27491172264109,2.27380319826725,2.27468202840146,2.27474194863789,2.27546099147497,2.27542104465069,2.27602024701492,2.27672930314593,2.27784781422584,2.27875660447826,2.27922597966358,2.28055421157096,2.2834603430375,2.33801771830106,2.3362400846205,2.33595047014445,2.335461121547,2.33598043026267,2.33538122789843,2.33577070943518,2.33817750559819,2.33379334163321,2.33455233129457,2.33140651888234,2.33254500337439,2.33028800780244,2.33167615994625,2.33016816732959,2.3316262264159,2.32860025447651,2.32799106540621,2.32716216880235,2.32793114516978,2.32779133128479,2.32817082611548,2.32846044059152,2.32956896496536,2.32921943025289,2.3307074494574,2.3307773563999,2.33161623970982,2.3317960004191,2.33229533572262,2.33301437855971,2.33350372715716,2.33465219835528,2.33506165330417,2.33541118801664,2.33508162671632,2.33503169318596,2.33062755580884,2.33022808756601,2.33013820721138,2.28824397524531,2.28855356313349,2.28692573004399,2.2871254641654,2.28659616874366,2.28582719237623,2.28514809636343,2.28425927952315,2.28431919975957,2.28491840212381,2.28437911999599,2.28404955869566,2.28415941246244,2.28431919975957,2.28407951881388,2.28407951881388,2.28404955869566,2.28374995751355,2.28362013033463,2.28381986445604,2.28417938587458,2.28420934599279,2.28344036962536,2.28477858823882,2.28359017021642,2.28340042280108,2.28424929281708,2.28414942575637,2.2843092130535,2.28441906682028,2.28448897376277,2.28424929281708,2.28671600921651,2.28595701955515,2.28487845529952,2.28558751143053,2.28495834894809,2.2857672721398,2.28546767095769,2.28613678026442,2.28578724555195,2.28553757790018,2.28812413477246,2.28663611556794,2.28707553063505,2.28671600921651,2.28721534452004,2.28659616874366,2.28837380242422,2.29010150257443,2.28929257938272,2.28991175515909,2.2898418482166,2.29123000036041,2.29246835191316,2.34587725597861,2.34599709645146,2.3460170698636,2.34607699010002,2.3478146769563,2.35739192807798,2.35802109056043,2.35703240665944,2.35901976116749,2.36206570651901,2.35920950858283,2.3597288172985,2.3595590432953,2.35957901670744
