2.22857319396307,2.22927482158114,2.22991549064803,2.23046328416286,2.23120265547369,2.23191634216326,2.23251436378195,2.23317452567255,2.23371077730063,2.23432338003029,2.23477973806145,2.23521965021506,2.23560626825869,2.23632294760375,2.23644173829454,2.23725330825232,2.23763943371286,2.23847393775835,2.23893299646056,2.23952962050816,2.23985306536891,2.24014416678263,2.24065631536484,2.24112964637424,2.24159241481158,2.24226362562953,2.24253211426145,2.24303720756595,2.24337503094095,2.24373606225957,2.24408683033599,2.24430148240531,2.24491025178548,2.24540467589246,2.24601151747733,2.2467848388925,2.24687735309809,2.24722165455293,2.24751855031839,2.24792487572774,2.24856636059667,2.24895293561561,2.25017975496465,2.25055234246252,2.25185909306578,2.25193483926063,2.25358884079551,2.25356431920653,2.25558377470442,2.25554341651724,2.25700859880052,2.25794722778003,2.25798320818416,2.25863495831214,2.25969763065577,2.26083041127302,2.2609759750986,2.26181381886235,2.2629726877436,2.26503721586356,2.26513430935913,2.26547789068392,2.31072604978644,2.35377006171993,2.35310897218766,2.35530036597152,2.35377993596509,2.35372580427807,2.35454601843884,2.35414617251446,2.35430502177485,2.35549030075854,2.35428386714266,2.35550768194723,2.35473940589584,2.35546259133815,2.35593844999512,2.3574821532192,2.35629903196491,2.35684709969797,2.35598154089583,2.35652567428907,2.35578917503056,2.35576300358347,2.35581689111262,2.35689939291927,2.35590128858786,2.3562007214703,2.35579995344692,2.35654129982455,2.35592992072537,2.35655266100816,2.35599125940694,2.35653951031003,2.35636134059975,2.35744294473004,2.35661892512969,2.3571543461887,2.35683422968668,2.35773686958192,2.35673036713603,2.35681946979529,2.35634452219159,2.35701277061936,2.35787960563324,2.36050649545336,2.35950969244499,2.36018957240269,2.35976382067324,2.36055856200551,2.36002171521806,2.36059291752316,2.36032452991443,2.36089405602351,2.36046131587531,2.36082851824128,2.36069385531177,2.36145509145894,2.36068068583033,2.3606005638264,2.35982049123816,2.35951239670318,2.33094712185437,2.29011480739373,2.28997467527084,2.28975377632155,2.28898066024169,2.28927757805934,2.28834078110939,2.28873623711154,2.28800341194702,2.28843750933461,2.28787895169249,2.28832080312306,2.28840895726289,2.28994423242229,2.28877219152041,2.28927425649082,2.28874825510366,2.28957172752726,2.28917780156813,2.29020316929788,2.28956104152629,2.29033952391453,2.28980667668233,2.29052058999621,2.29028810252399,2.29125709901906,2.29085169608456,2.29189367586492,2.29134279995073,2.29226666383904,2.29169458733092,2.29239190972353,2.29210850337253,2.29305601777064,2.29270412620778,2.29354025819115,2.29341676335068,2.29433939650793,2.29404413807597,2.29480726009696,2.29451433748785,2.29531273215627,2.29509097734185,2.29593115748438,2.2958015033136,2.29699663126068,2.29676957334554,2.29804853437578,2.29811781346263,2.29909182840507,2.30002520881818,2.30147538603781,2.30167093726693,2.30256675987769
2.22828802539948,2.22894514930732,2.2295982159616,2.22991146883965,2.23099067309167,2.23181565278608,2.23236403536672,2.23259751986942,2.23342105050841,2.23363351076432,2.23458506217247,2.23475175761937,2.23537429051065,2.23529985765425,2.23605818664595,2.23621189197096,2.23749486292374,2.23793093830727,2.2389679206965,2.23903825305299,2.23987099579228,2.23983480890431,2.24066268068049,2.24073777149782,2.24141416608436,2.24140048201684,2.24225433092897,2.24230032081054,2.24329497430787,2.24362994658206,2.24417361228834,2.24433441166668,2.24491893093596,2.24503551646165,2.24594338218332,2.24630070671598,2.24691822356723,2.24727374835019,2.24788295981922,2.24887982011977,2.24932014931429,2.25007097524822,2.25071696007384,2.25147415070948,2.25205033214718,2.25349894254975,2.25392170793376,2.256084411381,2.25616505538719,2.25797914556973,2.25807993293956,2.25709371692562,2.25848026303245,2.25774515009553,2.29564494697679,2.35495096333065,2.35419293437345,2.35433920073853,2.35294798582093,2.35209272050449,2.35278815773626,2.35397598411819,2.35303079694879,2.3543845139449,2.3532326688735,2.35321013764753,2.3538470872432,2.35506775721483,2.35402355264944,2.35531343030554,2.35436050423157,2.35462740251369,2.35449004199288,2.35482688530166,2.35491058386604,2.3555064747749,2.3555091136813,2.35581238611645,2.35545656907922,2.35466336637564,2.35513786499858,2.35500267893049,2.35507223406435,2.35509780893425,2.35513950179937,2.35507246317315,2.35507284118957,2.3548652804187,2.35505388069542,2.35509930807384,2.35512012784309,2.35498009184121,2.3551338404411,2.35503890528353,2.35534694186897,2.35522774621401,2.3555401234313,2.3554406559894,2.35583600650875,2.35601269895601,2.35619158457236,2.35655026609558,2.35567708315986,2.3544630236365,2.35641557883637,2.35736363167241,2.35813021945968,2.35833408475261,2.35874089142124,2.35894716154334,2.35910695667255,2.35918755412439,2.35934594885161,2.35966029469245,2.35940873358708,2.35915507815704,2.35947775756839,2.35954821621076,2.35944288680347,2.35887676568513,2.35887176517762,2.35856024644354,2.32557623676923,2.29052401737081,2.29007434344169,2.28912067844271,2.2888914921529,2.28804781142213,2.28839960195212,2.2877724234231,2.28826450767025,2.28760305180406,2.28822081804548,2.28772330284592,2.28849818597961,2.28800324155612,2.28885561919427,2.28844354085256,2.28905413089467,2.28858621122498,2.28946208121946,2.28911325661371,2.28977818493637,2.28908006622169,2.29008453672263,2.28988514659868,2.29063954034475,2.29031593786475,2.29091729457794,2.29017696662541,2.29135868254514,2.29121347666719,2.29189121072267,2.29140228986926,2.29225774644297,2.29195418683966,2.2928562396998,2.2926933295655,2.29369745893231,2.29381505709707,2.2943525055622,2.29397192379548,2.29482388578758,2.29453539127294,2.29547701456369,2.29542474301134,2.29620805292304,2.29621401858654,2.29713811042883,2.29773439820591,2.29854868265176,2.29914161099741,2.3009416615893,2.30168252060461,2.32969640134696,2.37869324731252
2.22800743059709,2.22913644076778,2.22928597641928,2.22972589490489,2.2305301214692,2.2317003008038,2.23185983553786,2.23236358760458,2.23300654940041,2.23399636823118,2.23418573013716,2.23550348838859,2.23456509518164,2.23601846085618,2.2350159964888,2.23703411707119,2.23674754987158,2.23865804601958,2.23848868918958,2.2397909827695,2.23955299358164,2.24076575791647,2.24026616334264,2.241123269921,2.24080532501822,2.2415889717718,2.24179108389212,2.24307388309579,2.24296832676259,2.24399908140036,2.24377352493264,2.24444345728456,2.24459086584697,2.24560154298929,2.24573343095417,2.24688555964572,2.24664747628461,2.2474300282101,2.24743667799629,2.24838914388263,2.24979008844864,2.25170882669064,2.25220252148504,2.2510810218239,2.25387010644894,2.25244228280356,2.25591071782312,2.2541671274058,2.25807450918495,2.25723012782619,2.2587799795285,2.25858601059948,2.25727770183403,2.25395441746157,2.31896313014082,2.3566723382181,2.35410781523384,2.35540644901511,2.35237952288186,2.35463323980461,2.35228849188925,2.35524808924805,2.35341392554328,2.35336198350827,2.3535460502855,2.35482383554516,2.35365393298106,2.35410795484112,2.35420094334451,2.35502035823991,2.35415714488223,2.35432093884195,2.353992864001,2.35418617331427,2.35404757957699,2.3547431776663,2.35445169926979,2.35503679721709,2.35432502298963,2.35454614351637,2.35388039473541,2.35412075744978,2.35390411216116,2.35459137924849,2.35391601052342,2.3542771326477,2.35369436170375,2.35405655076682,2.35370574688896,2.35458955312778,2.35376761560996,2.35414037979976,2.35382199976468,2.35456998486275,2.35407728795795,2.35473157617448,2.35420645796434,2.35492280495306,2.35437893997407,2.35507996370941,2.3547689037465,2.35563890000897,2.35473879174485,2.35444317265145,2.35536295694005,2.3566685983705,2.35663760644066,2.35751583461057,2.35728909928443,2.35816871414127,2.35778208609338,2.35850480718019,2.35803608481047,2.35817758629429,2.35812605759187,2.35876587322285,2.35830556621603,2.35852976299338,2.35843317919114,2.35855236887567,2.35822124010787,2.35866732743841,2.32010822842384,2.29011525202089,2.28977583332284,2.2894347756792,2.28818615655353,2.28834124893994,2.28771842432296,2.28851072374032,2.28777820729043,2.2884741131538,2.28773700349686,2.28846719826358,2.28791191034291,2.28874135050364,2.28822150175845,2.28912585736097,2.2884513382061,2.28933343728256,2.28894025003181,2.29030227971917,2.28932493790069,2.29003541837709,2.28955124857516,2.29064179643265,2.29007026632697,2.29126333976465,2.29040211737869,2.29126438845193,2.29084034426551,2.29205234038317,2.29141743881656,2.29245485445416,2.29176867598696,2.29262572679849,2.29232961880081,2.2935484415992,2.29315146715973,2.29434747907117,2.29389886946235,2.29501494385867,2.29462074305603,2.29592171594879,2.29517699469474,2.29607777868127,2.29568243652354,2.29712654652592,2.2966443028513,2.29816318637549,2.29863049962499,2.29983531316137,2.30138144728184,2.30281877888828,2.35066633867471,2.37937995226193
2.22784121129721,2.22822994206672,2.22902814483018,2.22932568079054,2.23017345044489,2.23035236223233,2.23167761885935,2.23240667450253,2.23316167743674,2.23359945930051,2.23384589996833,2.23389508640694,2.23293872370837,2.23055319670224,2.23240402629385,2.2315112559191,2.23545462344069,2.23742128828126,2.23872490676535,2.23859211066962,2.23988096814817,2.23957308741369,2.2405651953061,2.23991979166072,2.24107913451819,2.24053931562916,2.24197631518707,2.24185126065878,2.24300322936375,2.24273874190303,2.24385417926704,2.2437359178861,2.24459562736922,2.24428216380554,2.24547613171744,2.24563800323248,2.24642374008147,2.24675642713344,2.24749096274147,2.24825792797798,2.25013088277112,2.25194886721195,2.25286015587352,2.25460871617329,2.25494636460482,2.25667545970251,2.25664969573921,2.25781991788553,2.25834202574419,2.25910383965701,2.30402251916222,2.35480213822879,2.35364513169289,2.35414397819699,2.35371961094574,2.35446190634771,2.3542682404968,2.35411283203185,2.35356203264096,2.35176489766162,2.35334467455469,2.35335475941165,2.35347037467559,2.3548292311623,2.35330253873148,2.35381069206625,2.35365613921376,2.3548663525355,2.35344512764152,2.35343815463777,2.35329849340844,2.3543761027838,2.35317621816747,2.35330347413028,2.35306010068495,2.35359402816618,2.35339101900323,2.35396054660326,2.35331667815069,2.35356433032568,2.35298360606716,2.35337852164395,2.35284651497364,2.35325621951701,2.35286394692844,2.35341462904924,2.35267980540377,2.35284988624761,2.35243541215412,2.35274855949581,2.35250967817435,2.35302986309827,2.3527281880511,2.35324582592383,2.35292692042457,2.35341435697074,2.35289251067292,2.35309378332211,2.35296425582818,2.35353443481526,2.35348358462575,2.35429338525859,2.35442404767629,2.35635124283913,2.35513305980946,2.35573828205144,2.35551646194096,2.35622083294293,2.35596118353416,2.35649998968434,2.35645831740307,2.35735429125021,2.35698562877119,2.3580617452277,2.35704119488125,2.35743509847597,2.35704964730813,2.35747185707226,2.35752586381916,2.35808145578553,2.35786548191551,2.35938561700798,2.31441111544871,2.29030779716757,2.2900974049083,2.28863902615512,2.28850188746458,2.2876861741763,2.28817478356102,2.28773548911316,2.28831467335705,2.28764504335454,2.28826760817696,2.2874690866646,2.28842979660902,2.28785578636411,2.28870209247929,2.28797289902468,2.28885418995013,2.28812520622889,2.28921377396188,2.28865243809392,2.28971972447278,2.28927134290819,2.2900114146074,2.28919425152174,2.2903239008972,2.28967092797231,2.29069450630242,2.2899611063974,2.2911836912946,2.29070565344786,2.29177019345406,2.29113139979574,2.29221837503598,2.29169121823982,2.29274237986394,2.29216120138601,2.29345941736599,2.29302981606626,2.29431054722489,2.29402855398118,2.29512330618059,2.29475477243331,2.29570868116121,2.29528096303464,2.29612690986166,2.29608546926406,2.29702357492951,2.29775463342905,2.29905999611122,2.29965108408835,2.32320450090527,2.37928529227625,2.37867733320575,2.38050265731798
2.22757781134011,2.22823054463985,2.22874026265376,2.22936497622348,2.22986908717918,2.230529634332,2.23133158918748,2.23225307229779,2.23255244991207,2.23336286756308,2.23237539450293,2.23237157197398,2.23125351181359,2.23084982408923,2.23130712298093,2.23211486329396,2.2346491537037,2.23718298878253,2.23798126272599,2.23915233818715,2.23929726031815,2.24012371857977,2.24002104277295,2.24064880233105,2.24065064654424,2.24140568017044,2.24159951611338,2.24244928177155,2.24260065249173,2.24329007354287,2.24347204680904,2.24412087511584,2.24431857120929,2.24488012569942,2.24523573481696,2.24588061224883,2.24620901285778,2.246995211859,2.24765441906551,2.24898838996887,2.25075058159048,2.25231966475904,2.27710632793647,2.28386811648595,2.28996833109751,2.29696985487209,2.30634747788756,2.31592130941011,2.32389448905431,2.32986665966477,2.33572385316249,2.35349497438522,2.35297387940083,2.35318792110077,2.35318425723226,2.35363856482691,2.35355921275724,2.35390734209497,2.35305386779508,2.35327314154054,2.35305662149473,2.35394751129709,2.35352896136099,2.35341290857377,2.35324444455535,2.35318410576892,2.35294203190353,2.35299446006755,2.35245385758368,2.35227341341891,2.35216386185155,2.35249589719382,2.35225973738514,2.35233496582754,2.35211436075685,2.35238939550968,2.35232830250252,2.35276239870824,2.35221973440835,2.35217176162978,2.35187794367929,2.35209498332401,2.35180588075638,2.35192971090662,2.35172517898731,2.35197676535474,2.35155208958816,2.35160871817777,2.35121477782229,2.35132304447126,2.35127584947396,2.351728256788,2.35160434417653,2.35193408546524,2.35177207909268,2.35201932806392,2.35166288792567,2.35176463764829,2.35164908810603,2.35204013257791,2.35213135108586,2.35276566050468,2.35318228841339,2.35415823289861,2.35397982445188,2.35433998770173,2.35434957005546,2.35486637231152,2.35477918657575,2.3551808492941,2.35523253259143,2.35573221945919,2.35567999446405,2.3559899183629,2.35569592127595,2.35583655274703,2.35592060965122,2.35630256203598,2.35660753051936,2.35690904152505,2.35671610129046,2.35727009726986,2.30906816549901,2.29063244656515,2.29013865777399,2.28938014050634,2.28817442502132,2.28807340670725,2.28761228002502,2.28805567569043,2.28778165543941,2.28815004758266,2.28785060742011,2.28824954237486,2.2881119214968,2.28867767805261,2.28834807979332,2.28871174328801,2.28844575841967,2.28889413070624,2.28875053373823,2.28929071232001,2.28926226269851,2.2899034317992,2.28961959988494,2.29004568373139,2.2899148325023,2.29048130308281,2.29032038629761,2.29085236348105,2.29081370137568,2.29147915784711,2.29140039751158,2.29201601597249,2.29185979458625,2.29243096093176,2.29237694675297,2.29308349685279,2.29308985863062,2.29385441570168,2.29388905914834,2.29469411262502,2.29470208193273,2.29547034629081,2.29528183368432,2.29583451617714,2.29565184263074,2.29635738051811,2.2967979787809,2.29824959271612,2.29943692785981,2.30030021242285,2.33703787519298,2.37850691575699,2.37838481719723,2.37924167407933
2.2276379015334,2.22798749229445,2.22867521552763,2.22902204167429,2.22976454984875,2.23001291580429,2.23124164899475,2.23205118134206,2.23241524324178,2.23261665410836,2.23105011504375,2.23069344771382,2.2295493003095,2.22933241212917,2.22973628438822,2.23125775740835,2.23419977745919,2.23696343157215,2.23821918181113,2.2382986187828,2.23956910654707,2.23916823367842,2.24026104863081,2.23960455594571,2.24092134821753,2.24056989332886,2.24186016457705,2.24177124461088,2.24276282951651,2.24257374885046,2.2435681178721,2.24338082784425,2.24446073939689,2.24446966313277,2.24545317027646,2.24575442908246,2.24662342995903,2.24736118618991,2.24834061012947,2.24973409334541,2.25142874574863,2.25410200785693,2.30550465078793,2.35049338257533,2.35129480795239,2.35276464815671,2.35313061661567,2.35343422178025,2.35365862862356,2.35350432952597,2.35361814509663,2.35355935170486,2.35329503553008,2.35279522735498,2.35340419500625,2.3539597615179,2.35372148080535,2.35394345521058,2.3535131498571,2.35363680224478,2.35382793811799,2.35511618366046,2.3540577734957,2.35432491011731,2.35321098699534,2.35336197267145,2.35261633790674,2.35307126758726,2.35204307885698,2.35193047387447,2.35178440127071,2.35255875117856,2.35219280757336,2.35306090956337,2.35209847964501,2.35253800934849,2.35230505846341,2.35383568800069,2.3521520469229,2.35214317965454,2.35180097288234,2.35259334565809,2.35183991091196,2.35218458774272,2.35165198503716,2.35243271637293,2.35149175905886,2.35200362599838,2.35105312793051,2.35122799870354,2.35110370642374,2.35218326410402,2.35158301866506,2.35230194475375,2.35176937598301,2.35240606130511,2.35154931598822,2.35183637291025,2.35140828628433,2.35204808681941,2.35182522055632,2.3526701926257,2.35296897657851,2.35438507699794,2.35388532675976,2.35455440868921,2.35428543186035,2.35543544699963,2.35470569171645,2.35559177745433,2.35514026682243,2.35608884553647,2.35555736921481,2.35603949466826,2.35539458530995,2.35558663688131,2.35546268914979,2.35606294161851,2.35633935057075,2.35694834295421,2.35644113191648,2.35679242607734,2.30545969699621,2.2905833265499,2.29023165931347,2.28903948207966,2.28855741963153,2.28742480617764,2.28782775199533,2.28704934937825,2.2878552488249,2.28704042901859,2.28796299170567,2.28728973229507,2.28835037075773,2.28806834330096,2.28859171931182,2.28774428293406,2.2886123501834,2.28795023396158,2.28888380770257,2.28819648640218,2.28941765354471,2.28915996672976,2.28982610990741,2.2891040287347,2.29015489210361,2.28963935145473,2.29060564946292,2.28996336553808,2.2910932992247,2.29062936546363,2.29171150617595,2.29128855845117,2.29216516751742,2.29141718161888,2.29265651513727,2.29232705905683,2.29337526268455,2.29305164759015,2.29412107528282,2.29377083479695,2.29498498335911,2.29475137136973,2.29567036375292,2.2953025644575,2.29616303813256,2.29654086035179,2.2974284664529,2.29865224067639,2.3002309914983,2.30154191275558,2.35071346954499,2.37950082021117,2.37923302083452,2.37990308227893
2.2273112470976,2.22787179307918,2.2284347491993,2.22907124144177,2.2295764968075,2.230215871287,2.23105899984675,2.23203351499266,2.23023929725001,2.22592664275422,2.22567475583644,2.22532512991889,2.22586330798227,2.2252726415656,2.22766881040845,2.23014171972645,2.23431881088349,2.23710364274682,2.23762815853982,2.23912372217371,2.23893612697344,2.24006385334337,2.23971183524836,2.240681978629,2.24040295770159,2.24143117126659,2.2412115052687,2.24217154709425,2.24205457070126,2.243053184985,2.24302445180775,2.24422693048399,2.24414418337385,2.24524027973703,2.24515728183162,2.24589360506794,2.24648830131331,2.24791288937133,2.24907114412906,2.25084731650182,2.2873860302711,2.34756274698932,2.3474841639187,2.35078917732881,2.34962165135791,2.35314590128434,2.35169882053472,2.35458287542824,2.35271777852284,2.3543181560087,2.35311450595313,2.35384507952702,2.35338148372663,2.35390077013717,2.35363310484618,2.35373145987502,2.35382026328456,2.3538189352953,2.35353258183256,2.3536769063348,2.35378939359729,2.35445120711026,2.35415210230892,2.35458283519348,2.35288932823563,2.35180116317294,2.35203382512148,2.35303547479098,2.35142634093557,2.35108507495295,2.35112275611537,2.35208350880208,2.35183132371045,2.35266623864056,2.35153523758998,2.35154399642457,2.35130627630491,2.35200750357278,2.35127684002991,2.35152666705238,2.35145257394578,2.35240365145697,2.35164445362085,2.352176494156,2.3511576465684,2.35149231095512,2.35085711102913,2.35134720023293,2.35061267620703,2.35100164205556,2.35056846412855,2.35134900419188,2.35109093122702,2.35251542905853,2.35142538547939,2.35227195846562,2.35110353492322,2.35149226867377,2.35094502662592,2.35167826671751,2.35132637488901,2.35226791859479,2.35249946946905,2.3541337212744,2.35349035329131,2.35428547223556,2.35372871565161,2.35453085286832,2.35400266501928,2.35462145208805,2.35464628657991,2.35600096011421,2.35543705038309,2.35674535928597,2.35531767960945,2.35556215489914,2.35507813464223,2.35542741887962,2.35578703273758,2.357216123346,2.35606983077743,2.35706536431396,2.30427905047593,2.28934781891664,2.28973592951776,2.29084322432445,2.28841435986472,2.28833105417345,2.28732720749083,2.28793619442815,2.28725535302226,2.28820068284185,2.28734793583459,2.28816368692776,2.28756691034324,2.28843912230093,2.28780529977276,2.28866507413694,2.28794963576939,2.28885238528688,2.28827194711823,2.28940329012979,2.28866746829498,2.28954024229976,2.28903208892163,2.29011194453547,2.28952315472397,2.29063465560617,2.29005328687436,2.29131484917162,2.29053750081545,2.2916135608748,2.29107499201496,2.2922061879535,2.29163425756582,2.29281330207237,2.29204349754066,2.29292041282894,2.29259377237803,2.29384204037327,2.29331791816733,2.29429860757715,2.29416181554362,2.29558129324024,2.29511904668603,2.29611381999277,2.29644225461629,2.297673924,2.29820240023081,2.29874365764382,2.3006599891163,2.30226167510461,2.36222989706414,2.38042357806666,2.38004838083783,2.38118431530201
2.22716381955258,2.22781769686579,2.22837964985009,2.22900518485557,2.22957677425349,2.23021268382113,2.23091639608454,2.23209130599806,2.23287366256493,2.23621131192984,2.22307110634614,2.22247124900334,2.2236690406758,2.22349697162922,2.22495669091637,2.22494243282203,2.23560976241775,2.23700322884646,2.23777326888072,2.23836248561927,2.23910758591935,2.23928336718378,2.23998602824034,2.24002276334756,2.24068434616099,2.24062627473674,2.2414143263641,2.24126130438206,2.24210481284594,2.24186018347462,2.24293233686351,2.24302095102645,2.24411069613101,2.24437630356179,2.245391903867,2.24578578673992,2.24699772014206,2.24811142658475,2.25002969767565,2.25330294283651,2.30897247326185,2.34779643357126,2.34772653499649,2.34750504448308,2.35024559762706,2.35011806305952,2.35259153665339,2.3525095782906,2.35366109403609,2.35281019874617,2.35360468219008,2.35310125327213,2.35372937991777,2.35400937107211,2.35372666774789,2.35455886078632,2.3532357314451,2.35399641920431,2.35293645366463,2.35360532651741,2.35309979596265,2.3545186495072,2.35287166723627,2.35364535206676,2.35163459729729,2.35092997939685,2.35085565823566,2.35046487467678,2.35040573878656,2.34980183037918,2.35076584088453,2.35194739237715,2.35136373410913,2.3512435884058,2.35092039402348,2.35072586983838,2.35066860788919,2.35033849229075,2.35067555838483,2.35057693793843,2.35133815191205,2.35266724834692,2.35143209353712,2.35082704575248,2.35053930688853,2.35016001889763,2.35034322061686,2.35041121388556,2.35033139211831,2.35018985996263,2.3500966800411,2.34979525551079,2.35018507198242,2.35015291996746,2.3504524666016,2.35042889914822,2.3504422695489,2.35025363368858,2.35049859148932,2.35043410482017,2.35080035898986,2.35079826571156,2.35195518351943,2.35332365035965,2.35300579251812,2.35318971355675,2.35311182171337,2.35309485989499,2.35341405460222,2.35357851598807,2.35409979516517,2.35435101454436,2.35471981287807,2.35467111082188,2.35465610678635,2.35432810181698,2.35461504014082,2.35474500077823,2.35515832211472,2.35541493618683,2.35476150525432,2.35402491861564,2.30456362752605,2.28952291044029,2.28914498547664,2.28810135363822,2.2880928892416,2.28768736190247,2.28765356102811,2.28709516792968,2.2874447681504,2.2867378756278,2.28747426886854,2.28691062883517,2.28777988704614,2.28738276554552,2.28803725360595,2.28744148287865,2.28812020914894,2.28750117052737,2.28844106458281,2.28805278406495,2.28884027713909,2.28834017303851,2.28916266700697,2.2887170649304,2.28974771398045,2.28976238677027,2.29020793107567,2.28964000324915,2.290636618252,2.29051645552544,2.29129034103582,2.29108996260093,2.29186728261061,2.29178435432729,2.2922838573776,2.29185197520174,2.29271017621324,2.29240113854276,2.29352663156262,2.29366652315968,2.29448595503396,2.29440700081781,2.29551800692146,2.29611465607683,2.29679905929365,2.29786033178565,2.29883651428017,2.30078872239088,2.32398192955361,2.3780835587975,2.37822947129942,2.37985612618541,2.38014267968714,2.38110756982596
2.22696523349422,2.22724042015029,2.22806117289168,2.228408679055,2.22921969121674,2.22961024275907,2.23039980435171,2.2307061399336,2.23161713804109,2.21950064658619,2.22243103335327,2.22051020098518,2.2222573298319,2.22278820630625,2.22348146856293,2.22402475301864,2.2353968556216,2.23680918553991,2.23773175800169,2.23811581489949,2.23879986061337,2.23918229934802,2.2396258507056,2.24002357692521,2.24034603139443,2.24082743995476,2.24116785229571,2.24167939408718,2.2418540684353,2.24218842037412,2.24250082539719,2.24293695603444,2.24368294903171,2.24449647634115,2.24511136316915,2.24609422930034,2.24678633127294,2.24853440052267,2.24919908853886,2.3407973420782,2.33897445898355,2.34693849169818,2.34662885600024,2.35003567965585,2.34898462820705,2.35251891284365,2.35181691440548,2.35433889386657,2.35304831691699,2.35468810332215,2.35334770227691,2.3545256457372,2.35399922393368,2.35398691009706,2.35412247411329,2.3532263018505,2.35312040747619,2.35180887182603,2.35251280965743,2.3522505868591,2.35249561946657,2.35144394001013,2.35183635505816,2.34992456534509,2.35027023807383,2.35083149166268,2.34935028358008,2.35065879006844,2.34896355895074,2.34870067699191,2.34919283078542,2.34950639825978,2.34959061500761,2.35028554218706,2.34950726566883,2.34994961557936,2.34957309480791,2.3503713591623,2.34978280764923,2.35034262805505,2.34989708803637,2.35041873993569,2.34981311232439,2.35032647794123,2.34929371477843,2.3495472983691,2.34920183088832,2.35003484547939,2.34933779076361,2.34990955931818,2.34908595920313,2.3496688669933,2.34896469408446,2.34964788174756,2.34903154757066,2.34971851008683,2.34918467383553,2.34993666522106,2.34961395908758,2.35089066544963,2.34993373280838,2.35061888082272,2.35042942845479,2.3513861103503,2.35124032005045,2.35229733048077,2.35169976126202,2.35233588633717,2.35226282463383,2.35329061847893,2.35307819604565,2.35413381286424,2.35367944265348,2.35430866859853,2.35378813650362,2.3542196051927,2.35388035583184,2.35467213180433,2.35364683135086,2.35366858422089,2.35340651043196,2.35330812487609,2.2997601375256,2.29009860052071,2.2886249114429,2.2876966938993,2.28739205141432,2.28764042658751,2.28692886093302,2.28733361558082,2.28679860267692,2.28764400264096,2.2870227791607,2.28790569178455,2.28736320630468,2.28836534702412,2.28758074053523,2.28818167285935,2.28771679007229,2.28841495730615,2.28799988163585,2.28882029269006,2.28832185156769,2.28913527948047,2.28863236722149,2.28947172549451,2.28904696280763,2.28986898128795,2.28946336124162,2.29022825715748,2.29000112887735,2.29095550492715,2.29064942743007,2.2915118902968,2.29117300287037,2.29191671910573,2.2917191892563,2.29262781990191,2.29228863809385,2.2930891519159,2.29296811753243,2.29381055504953,2.29384057061528,2.29498964378114,2.29518554013149,2.29640403822907,2.29709532891482,2.29753559138369,2.29923011959848,2.2995368962069,2.33873626770688,2.37746277165374,2.37749108577412,2.37864053751503,2.37931407148722,2.38021461102805
2.22659278720705,2.22687601775913,2.22762068052007,2.22828820404861,2.2288591628323,2.22925144022943,2.22987854548475,2.23071048731085,2.23075400398792,2.23079163380383,2.22623218810159,2.21912226543569,2.22131689773856,2.221871206853,2.22343549219169,2.22321222762624,2.23500567976821,2.23673117951855,2.23762273699839,2.23821262600777,2.23865150112237,2.23910578735074,2.23954236645325,2.23973800865447,2.24015212659236,2.2403473627882,2.24112814179672,2.24188286344338,2.24188869564391,2.24203550907288,2.24242435044622,2.24271447862285,2.24370480226766,2.24446605066212,2.24505304275352,2.24548974391582,2.24650696188466,2.24762844111242,2.24870993920437,2.3386518963094,2.33916893143754,2.34397177263153,2.34626719579193,2.34639825151954,2.34943480842853,2.35125600109061,2.35247533935743,2.35334578513686,2.35385910932316,2.35362629382315,2.35456405567994,2.35333971542958,2.35500152887793,2.35695977305738,2.35326000443009,2.35320723034493,2.35097035961401,2.35295131244822,2.35113705073749,2.35364068097876,2.35140753975996,2.35334011429173,2.35054608229366,2.35150252637096,2.34938918183729,2.34809423407092,2.34892387718369,2.34711432585701,2.34844193839407,2.34905920783075,2.34856110445286,2.34941396167383,2.34845621815926,2.3470556772643,2.34823286050556,2.34777817079782,2.34891672886373,2.34930686003337,2.34952313437303,2.34980064883038,2.34929313793989,2.34846712692244,2.34888150420985,2.34839068211553,2.34854988638315,2.34790316258009,2.3487131581953,2.34913568704016,2.3489244431764,2.34856170056557,2.34847885748944,2.34804671916825,2.34815696042576,2.34766531950352,2.34811787181774,2.3476780389806,2.34846256069016,2.34850952919227,2.3489274951588,2.34886336947984,2.34919136012613,2.3489125348669,2.34954837154966,2.34935719723767,2.35005284468015,2.34956834443311,2.3508270852758,2.35100257290124,2.35181321268466,2.35194671232871,2.35261613570265,2.35255996069554,2.35333843399611,2.35331895020507,2.35340129669569,2.35324001686585,2.35314309616104,2.35320606734275,2.35282692489138,2.35205570508894,2.34432288991077,2.29003926201346,2.28951779498722,2.28835138862364,2.28828350586099,2.28782334004031,2.28731407556679,2.28675347490428,2.28681470415642,2.2861305818814,2.28675067353865,2.2862194552197,2.28702337724145,2.2868072627108,2.28734840104263,2.2869063906498,2.28774960527283,2.28759473729097,2.28812326450987,2.28792798265058,2.28836392442908,2.28797109614661,2.28855067262397,2.28816226261766,2.28877086645689,2.28845186006752,2.28911492152915,2.28881671990253,2.2895454248289,2.28933211419117,2.29013594986445,2.29014996443326,2.29074857135499,2.29056567560447,2.29125207183824,2.2911079256744,2.29185202088388,2.29183318638956,2.29253036486553,2.29255238507423,2.29330705023234,2.29341025482019,2.29411534230471,2.29397222627544,2.29541489485467,2.29629042341281,2.29761169913155,2.29876199303603,2.29974763926054,2.30046072675746,2.35352542209542,2.37456186362921,2.3764710876382,2.37823205097168,2.37853901727166,2.37902055548571
2.22634074363371,2.2266510347267,2.22744028448303,2.22783959628808,2.22866817112212,2.22932312859515,2.2294793676997,2.22913992200051,2.2300122042569,2.23033004154663,2.22698907636932,2.22060990739693,2.22225947905149,2.22292326267801,2.22318103761809,2.22403043260127,2.23524716654371,2.23676641297624,2.23733958484467,2.23800291979861,2.23864660687615,2.23957065924862,2.23938447998424,2.23961495244717,2.2398556110227,2.24026244372737,2.24082997578683,2.24161016935355,2.24150875368361,2.24144037895145,2.24215888755849,2.24287974014185,2.24363181704227,2.24476958198646,2.24488628970298,2.24538589113718,2.24624059554584,2.24773097980802,2.24826235829728,2.33726688843544,2.33714185474941,2.34704258537544,2.34615378769985,2.34707356607391,2.34705850002769,2.35218998726906,2.35007193496007,2.35268727891179,2.3516660261474,2.35571730103364,2.35378108825895,2.35755955732519,2.35543059807355,2.35693168938362,2.35356491272819,2.35093592352406,2.35106047993282,2.35086967676403,2.35097336623826,2.35100542665605,2.35147016119018,2.35215056560102,2.35103587443446,2.35045351071858,2.34851449696841,2.34858609642348,2.34685869909852,2.34897108225177,2.34773101260753,2.34797638262459,2.34866390666017,2.34822274313138,2.34760637450893,2.34686956875788,2.34695152970639,2.34716484970008,2.34756427073026,2.34820925927824,2.34790119968237,2.34854903454159,2.34777238153048,2.34810518121392,2.3476333166165,2.34832307361121,2.34735812865783,2.34752991603073,2.34731563922726,2.34807494678983,2.34737168693259,2.34771005030195,2.34695855776968,2.34725145758439,2.3466904763297,2.34707702284521,2.34685344522595,2.34783103698316,2.34724805321689,2.34812583467513,2.34747723165041,2.34798362594968,2.34782132612187,2.34874333512506,2.34828587676192,2.34891044573192,2.34886425645029,2.34989132049575,2.34982973327816,2.35100331542538,2.35076540603053,2.35158206728025,2.35158506576378,2.35269398490447,2.35256037300943,2.3540518436307,2.35231851313579,2.35228883356695,2.35156637612184,2.35169656995088,2.35162711258466,2.35185599300713,2.34127767303005,2.29025307530581,2.28904953351373,2.28840632625827,2.28747561275531,2.28760364393206,2.28685608480348,2.28707139490877,2.28638921701513,2.28679971408622,2.28637918536798,2.28735899803302,2.28655934035515,2.28719355484747,2.28686797762649,2.28790861375695,2.28739914881064,2.28830123521264,2.28775596097943,2.28854536099467,2.2880131004058,2.28903202794058,2.28820898429085,2.28900521542053,2.28832156283054,2.28903409550703,2.28863135711678,2.28948023695719,2.28906217608196,2.28986145907468,2.28957704261398,2.29051591558533,2.29021209541852,2.29109858160888,2.29079772964151,2.29162502453219,2.29142462967333,2.29227858085494,2.29208668015637,2.29291937057116,2.29291927270839,2.29405147889989,2.29393896628939,2.29549385487995,2.29550979452208,2.29686458539818,2.29797787804095,2.29922460726101,2.32076968963664,2.37494942632803,2.37432259834918,2.37561398162658,2.37587424408334,2.37707378584986,2.37738368186592,2.37809144858352
2.22593355443001,2.22648522854782,2.2271034359242,2.22771599633624,2.22833016284589,2.22874202222235,2.2292316990275,2.22937085776384,2.22977224366409,2.22983231508599,2.22840518400394,2.22798979397958,2.22505047526459,2.22047126016641,2.22422387986968,2.22452337527902,2.23530361032882,2.23629178323317,2.23711510860338,2.23751834575734,2.23842066781523,2.23848106697869,2.23917881551828,2.23893972755596,2.23969802609929,2.23956129637507,2.24051221840008,2.24056659327728,2.24121389562937,2.24107008924302,2.24201181476425,2.24226624510376,2.24334125071019,2.24375377354766,2.24457160452506,2.24493814117522,2.24583845716576,2.24709100455993,2.24754593484833,2.24922305737889,2.29221863732544,2.33714171225035,2.33540039074043,2.33701778537476,2.34458911215239,2.34855878485109,2.34930346230896,2.34880568933998,2.35103744505774,2.35192053540398,2.35422123649469,2.35636641920266,2.30703536726349,2.25902503454195,2.25862226427641,2.25919063825756,2.25959042820661,2.26095231198943,2.26112021963222,2.26245090284014,2.26294325807335,2.2646836176618,2.26460630996272,2.26525363045682,2.30715847960794,2.34837296096157,2.34781767907314,2.34778006994593,2.34730594135024,2.3488028226238,2.34665485656892,2.34831478211348,2.34674691806692,2.34649057622058,2.34726063252457,2.34689824774708,2.34727093233354,2.34674948213907,2.34679691764479,2.34621342615337,2.34667245889077,2.34680514286658,2.3467592156508,2.34642694739362,2.34662898231693,2.34657385092835,2.34655186755477,2.3463957834044,2.34635072443057,2.34600476947382,2.34597231340498,2.34572012459075,2.34586781704587,2.34573138050027,2.34595512487401,2.34589855207946,2.34611722550337,2.34615215892369,2.34646025205452,2.34667144939846,2.34696702554778,2.34725587205072,2.34749325255994,2.34779440455157,2.34813916265958,2.34850777061088,2.34917735025696,2.34975709754966,2.350311686804,2.35079336848062,2.35109208181647,2.3510909648379,2.35172022457741,2.35252850329421,2.35077427751934,2.34962659456683,2.35007628161297,2.35055782946498,2.35132453525419,2.35306903629983,2.33966137347069,2.28925015060983,2.28862809416883,2.28696726438643,2.28729902458427,2.28663455178874,2.2866739664926,2.28599240549143,2.28642983072963,2.28596869435096,2.28654887884214,2.28601010499712,2.28663334237752,2.28599546497713,2.28695228143163,2.28668209629581,2.28763271314762,2.28755731615204,2.28803898270551,2.28757170023448,2.28812343371196,2.28744422843273,2.28824590542052,2.28766639366905,2.28848771887049,2.28800004761689,2.28890609607252,2.28858554695395,2.28937405722577,2.28897142766792,2.28979284320782,2.28932498011029,2.29039999440728,2.29020618862871,2.29108930676012,2.29085142460215,2.29180021727793,2.29174495805321,2.29255236436501,2.29224934703493,2.29341118055564,2.29348726309845,2.29431105756248,2.29438135565252,2.29599242872662,2.29710368876674,2.29863848345984,2.29941100071271,2.33577104375725,2.37292700776889,2.37344409168445,2.37466771074572,2.37501414920635,2.3756035296896,2.37621085968138,2.37669219577978
2.22541273398474,2.22608838460618,2.22657712278447,2.22700141904991,2.22779748012323,2.22869767665317,2.22900038342224,2.22951175426416,2.22965452179968,2.22994050952958,2.2274454692902,2.22392788687581,2.22671698336598,2.23034388535675,2.23064065486252,2.23327360900156,2.23492411793152,2.23630559754148,2.2366115163666,2.23802803868022,2.23785312982954,2.23877609906538,2.23850050240098,2.23931941106255,2.23911141513419,2.24007652385549,2.23986050330835,2.24076420195901,2.24058909838523,2.24165346118068,2.24153894379456,2.24259327434656,2.24284139950573,2.2439427305745,2.24396172965865,2.24466144054098,2.24502130878619,2.24559089954684,2.2464543954389,2.24541299314766,2.24742037009032,2.24796454908284,2.24908696020909,2.25011522893355,2.25043324442863,2.25077241015938,2.25131110759519,2.2517657846808,2.25264121900305,2.25364019543582,2.2539821122877,2.25436005392694,2.25580827656182,2.25549870581411,2.25812674087166,2.25601309629405,2.25916682214353,2.2575977312096,2.2608699370465,2.25915848102195,2.26257299143837,2.261036397998,2.26394804925001,2.26305419391573,2.26462409176177,2.26561254667348,2.26612635524847,2.26755497115167,2.30894002998111,2.34751852711573,2.34690661534799,2.34606792966327,2.34655659185114,2.34763056501425,2.34707763163037,2.34698128668285,2.3464116669699,2.34574377443791,2.3454206747853,2.34530983420311,2.34524731418185,2.34587971497528,2.34555334645444,2.34616177948478,2.34548211623774,2.34577784081247,2.3452824697165,2.34595741156456,2.3450415353111,2.34523799168481,2.34457269919896,2.34486563038408,2.34467173097455,2.34529870009405,2.3446868773973,2.34481267167962,2.34453995185441,2.3450269576258,2.34487647880375,2.34556555357307,2.34543576054841,2.34624951029563,2.34599427000232,2.34656888305531,2.3467479590307,2.34775088272719,2.34795517386385,2.34909476295667,2.34923945813326,2.35050812089762,2.35022629934166,2.35153708191741,2.35006497168046,2.35022777593976,2.34808357540856,2.3463983540907,2.34805606817829,2.35012322499844,2.34967600230882,2.35044867869725,2.33652438155343,2.28899921978125,2.28810159250069,2.28789106564066,2.28651932798248,2.28719881499048,2.28611556501346,2.28646999942017,2.28588959730991,2.28658237855242,2.28595957298141,2.28670183024914,2.28606336436549,2.28677701538049,2.28639716859277,2.28733220838579,2.28697979668988,2.28811812127867,2.28737333386345,2.28819360645942,2.28754764302623,2.28839338859898,2.2877598559243,2.2885960543157,2.288025024933,2.28892503508643,2.28847169341639,2.28965654463902,2.28894219356815,2.28989436461045,2.28938709678695,2.2904642503476,2.29003580621804,2.29120990921017,2.29070185600529,2.2917236560938,2.29136776438508,2.29254543490955,2.29222896546681,2.2935837058092,2.29322672665531,2.29481513272348,2.29418296230172,2.29574104803344,2.2962231381399,2.29783372009804,2.29908634769989,2.3002614983489,2.35171690370677,2.37275073386955,2.37333626562867,2.37406287457745,2.37423813417472,2.37523687773155,2.37514183403537,2.37612853955794
2.22505564483194,2.22579502311849,2.22632363537888,2.22647271087076,2.22753062517754,2.22800955534126,2.2289574530903,2.22955355744339,2.22993850848449,2.23019678419587,2.22995489961838,2.22985247204095,2.23006076015575,2.23083639217991,2.23178951008269,2.23438299836465,2.23461234033199,2.23548479457059,2.2367644357207,2.23708967072062,2.23820129649884,2.23782590909772,2.23882426703358,2.23802844436641,2.23941374922549,2.23911977268365,2.24016342926228,2.23956313663063,2.24072370804527,2.24004056752865,2.24169501755905,2.24171741417316,2.24297231652391,2.24298403823333,2.24395044423178,2.24394468094984,2.24467773440902,2.24506736924151,2.24526409309186,2.24656679056706,2.24664521900482,2.24715224573878,2.24849194724,2.24848078104197,2.24987580248906,2.24975943153652,2.25095906569056,2.25063432052791,2.25227319561167,2.25207861327312,2.2535794750358,2.25337215244025,2.25466345115162,2.25644833984647,2.25592204849993,2.2574442744396,2.25717587474487,2.25872059675047,2.25855129817236,2.26056569896964,2.2600717166573,2.26181732334098,2.26183380322204,2.26323150893943,2.26378032802377,2.26384862092055,2.2656469145939,2.26553855375224,2.26652651607924,2.26802074901915,2.26893653419594,2.27084954009256,2.32009272273103,2.3491021279352,2.34853751408915,2.34893186720949,2.3464800144359,2.34433413156882,2.34458228861708,2.34447142551067,2.34428238321257,2.34434054898234,2.34466035734608,2.34559659943346,2.34462640117052,2.34434408830179,2.34404436044595,2.34417668817167,2.34377512896726,2.34390243723852,2.34343324510657,2.34348066465379,2.34389478655658,2.34536123379747,2.34393298634821,2.34356801756198,2.34344664762395,2.34375841886975,2.34370793233906,2.34406053835008,2.34424075917708,2.34485589142981,2.34493320252464,2.34549381597846,2.34581321860587,2.34669185171249,2.34705963102956,2.34823584436261,2.3482836997347,2.34920869021195,2.34897569955108,2.34948216318366,2.34799592674396,2.34655472167793,2.34599817506894,2.34488825624546,2.34630876369591,2.34740173907114,2.3481311186203,2.35009411091752,2.33041946041399,2.28883761980812,2.28814538808792,2.28615601915072,2.28660039087955,2.28609057789806,2.28629503900875,2.28538970506536,2.28625493891527,2.2856684671997,2.28643220822935,2.28579978691089,2.2865567086401,2.28596078032589,2.28692372643658,2.28654417098379,2.28728900240171,2.28648056867163,2.28760266263445,2.28704917654635,2.28796063724848,2.28736258618853,2.28826699580584,2.28769735018572,2.28859520588939,2.28797978924119,2.28892912038222,2.28824099715947,2.2893911312317,2.28874484135391,2.28992344242881,2.28938423814509,2.29053420718051,2.29010740040791,2.29127074013336,2.29088856003952,2.29194203705302,2.29134908335649,2.29287714224039,2.29305118111945,2.29382611719751,2.29407040577847,2.29471527198782,2.29552483406005,2.29674188376117,2.29762030690038,2.31901858174402,2.36866655595133,2.36855653422352,2.37418481024438,2.37320036762363,2.373807538262,2.37354728098612,2.374106401124,2.37421218571665,2.37558435242087
2.22476697585886,2.22558426273407,2.2261033823278,2.22670215970795,2.22736955004457,2.22816088040785,2.22872131461466,2.22940729603094,2.22968466199379,2.23012265422713,2.2299700112775,2.23062492401417,2.23055010437539,2.23138639361212,2.23238595199989,2.23346090760639,2.23449499674407,2.2355629013329,2.23622248491616,2.2373626232154,2.23777081222077,2.23874468998066,2.2385905527608,2.23905309122652,2.23900352265347,2.23962457937072,2.23963343124651,2.24031962619628,2.24025415201958,2.24094337067325,2.24127127617486,2.24227847771861,2.24255156950512,2.24332674774345,2.24349025465595,2.24407316309016,2.24417893183334,2.24466388665067,2.24511566085812,2.24560324643121,2.24647990868026,2.2471231902695,2.24775267466185,2.24845977634846,2.24901550056817,2.24968066034652,2.2501361605977,2.25078658212868,2.25137212530287,2.25220122263683,2.25272722424722,2.25351358482485,2.2541325852786,2.25446028177356,2.25553798672331,2.25588672735227,2.25687037340881,2.25724674490362,2.25824594796526,2.25846021692108,2.25958061192222,2.25993278362583,2.261076599156,2.26176215251399,2.26268619390956,2.26387283295404,2.2642202483663,2.26530989435608,2.26582886943153,2.26727234202373,2.26848996958401,2.26988232832859,2.30219925421397,2.31557091689655,2.32885020919288,2.3446801857282,2.34478927716869,2.34411481128734,2.34381378105767,2.34369408176008,2.3432733989366,2.34345502968213,2.34354359952051,2.3442076204411,2.34350628073357,2.34330531025549,2.34283531632219,2.34288440927361,2.3424556251139,2.34253086128728,2.34219035535117,2.34243350890509,2.34246473468211,2.34301607249432,2.34252071025841,2.3425309846524,2.3423549447368,2.34270030730904,2.34259056642407,2.34294334105249,2.34304882512308,2.34361937380833,2.34383620059831,2.34454002844188,2.34479503861752,2.34557301110942,2.34589627370669,2.34676211645144,2.3470462520536,2.34777413273406,2.34762316388292,2.34767217251326,2.34646985182008,2.34554015782633,2.34476821001515,2.34450331375158,2.34474612289212,2.34510530549862,2.34506307579636,2.34464400037967,2.322261999385,2.28890578110344,2.28810139842288,2.2871929353137,2.28614094072653,2.28633369409857,2.28580175971671,2.28603701648365,2.28585064294671,2.28627079506299,2.28593310934443,2.28625610151293,2.28608594266379,2.28658849801573,2.28648334387672,2.28701859869888,2.2867870636374,2.28720752816035,2.28712405357128,2.28767832657775,2.28749228608389,2.287935896733,2.2878829367937,2.28846940761103,2.28828792872311,2.28877319505274,2.28859983139423,2.28915665993801,2.28918707204286,2.28990205796609,2.28974030796496,2.29027314579084,2.29020035095632,2.29089013223206,2.29093442170302,2.29173248775522,2.2916454389704,2.2923612296578,2.29247942957937,2.29329050839819,2.29341903623444,2.2941526152056,2.29459923614985,2.29587853446542,2.29694601606511,2.29778437014804,2.33183703609904,2.36923943134438,2.36973352810253,2.37182694980408,2.37229706990415,2.37265665782292,2.37253516312392,2.37294664176428,2.37277119994793,2.3734357795077
2.22474394225811,2.22548471404769,2.22609607261004,2.2265966865239,2.22741147779143,2.22812839012422,2.22871806407898,2.22923598473075,2.22970463320937,2.22991380864722,2.23028198549159,2.2300349760906,2.23102262113373,2.23145483914409,2.23258707128406,2.23334417524847,2.23451810911805,2.23493816315847,2.23622967938695,2.2365269094406,2.23804429706363,2.23868033918368,2.2390939879473,2.23841429075235,2.23932388337696,2.23842710862882,2.2398904998478,2.23943372563791,2.24049862272519,2.23984723034136,2.24149963581532,2.24155434015499,2.24273193008696,2.24266316126886,2.24361618612161,2.24349193689544,2.24421384628859,2.24416331613036,2.24496599206511,2.24571162276259,2.24608591295434,2.24622325035459,2.24714151702511,2.24725562806645,2.2482625215017,2.24839030878528,2.2494196900234,2.24942201902665,2.25069284662256,2.25081918283969,2.25213244906129,2.25268346143218,2.2533442775984,2.25362532737629,2.25458743570573,2.25554737235714,2.25614075132788,2.25689352926874,2.25740833514664,2.25795690245792,2.25860923059397,2.25907313475462,2.26017565501067,2.26097557352819,2.26205127740496,2.26281833461023,2.26379497166966,2.26435640007011,2.26561252074919,2.26733206394728,2.2683448124131,2.27037622372991,2.27200011498018,2.27365697469784,2.31551142504013,2.34401532327533,2.34379054866271,2.34317778120219,2.34315315034709,2.34330361372088,2.34286100315506,2.34311746576231,2.34334184389138,2.34487266782478,2.3433767885959,2.34321791077067,2.34258601863432,2.34277651698118,2.34211808568988,2.34221019192299,2.34188064192202,2.34220172262714,2.3420274338492,2.34236032742321,2.34205587475815,2.34247014886821,2.34214320814729,2.34291789685871,2.34241719067928,2.34289687692585,2.34286171447983,2.34344976854087,2.34377908747936,2.3447807123247,2.34477712498466,2.34572453065938,2.34569937730567,2.34674587581986,2.34685978445312,2.34813160493642,2.34754704383158,2.34808592175839,2.34617773970011,2.34505753424776,2.34420879887162,2.34376340314871,2.34364953566698,2.3432258105551,2.34345846944337,2.34339365596859,2.31347364617358,2.28927843882362,2.28846557273907,2.28665482563069,2.28656167747569,2.28599161894931,2.28610092667948,2.28515360798771,2.28599169894918,2.28538164162222,2.28593334030595,2.28498884507353,2.28607843679543,2.28567904916862,2.28654766227565,2.28604221355089,2.28682985757112,2.28617072966244,2.28724003610136,2.2867515339923,2.28762633719841,2.28675226818209,2.28808328822956,2.28774182646653,2.28856530758819,2.28791605763891,2.28882618360675,2.28826250965027,2.28961683681057,2.28955899172323,2.29019293422008,2.28941269434584,2.29045001703843,2.28991536173071,2.29125091103533,2.29096145421171,2.29204631267058,2.29148541950376,2.29278024011864,2.29302007458801,2.2937447709394,2.29522690358316,2.29519866382975,2.29649459881344,2.2976167588556,2.29863414633871,2.34480202579799,2.36991318045129,2.37053257176152,2.37184458870193,2.37211199943308,2.37242032400823,2.37245937508253,2.37330104848457,2.37272745853219,2.37350850081886
2.22436846992289,2.22521363084644,2.22593511430998,2.22669564576227,2.22720591264464,2.22791633831675,2.22833448349325,2.22885284063651,2.22949327141409,2.23029917055976,2.2303381122194,2.23071901595842,2.23120898365656,2.23217134543656,2.23273214437641,2.23388263275993,2.23437523745409,2.23553778718782,2.23565543153702,2.23644383912552,2.23732366520521,2.23912574885626,2.23857156962662,2.23922588279924,2.23918188399491,2.24050597532688,2.23965570950983,2.24034538825578,2.23995390429524,2.24104573156178,2.24095907241594,2.24232135688812,2.24212440521565,2.24313643788252,2.24314758473454,2.24431538291177,2.24385266783541,2.24462504069874,2.24445168518798,2.24514728675303,2.24532329345875,2.2462156875429,2.24627655413116,2.24721805202697,2.24728590936423,2.24815198388472,2.24865788658982,2.25036154924444,2.24999424746482,2.25087296744729,2.25116920435895,2.2523362087402,2.25248205486947,2.25339668058317,2.2537182774965,2.25470622669278,2.25518347712759,2.25639536302653,2.25656469546845,2.25744239945955,2.25788610217607,2.25916827709349,2.25950548068735,2.26096088407516,2.26107277911461,2.26225318680747,2.26273240047303,2.26447295654113,2.26501301641204,2.26711619434615,2.26771468182827,2.26931935627484,2.27127840638329,2.27262017163572,2.29920813691308,2.34267468930345,2.34317953656759,2.34345177514635,2.34240124018065,2.34241249943079,2.341762571737,2.34217117605268,2.34203203283101,2.34277447885964,2.34225180812067,2.34266922364714,2.34183719850797,2.34229645156836,2.3413001552472,2.34161991526269,2.3411345798347,2.34193784286755,2.34131949855512,2.341988282482,2.34132587031572,2.34175411340538,2.34143334225097,2.3420111093139,2.34187131356274,2.34268775372705,2.34255663418208,2.34354947314572,2.34343094955758,2.34462062779158,2.34425730577392,2.34519737114308,2.34493826330592,2.34579459198207,2.34605030102304,2.34729065685025,2.34695278188226,2.34762024041563,2.34563314567484,2.34453847498474,2.34345404054807,2.34284571630588,2.34251574841941,2.34212675125161,2.34203781569691,2.34192257479423,2.30596166392751,2.29126773520634,2.28847961358351,2.28746342679252,2.28611518705967,2.28678942754151,2.28564220660402,2.28633746941397,2.28541045260311,2.28594521653119,2.2852380406746,2.28566826747486,2.28544285651848,2.28647428290714,2.28586037037469,2.28661924214594,2.28610802946373,2.28690186196348,2.28663671104138,2.28777745191959,2.28725299319441,2.28832405118962,2.28769427229637,2.28869134181102,2.28800300040772,2.28887784965748,2.28818294980314,2.28902924047248,2.28906735868861,2.29114401427964,2.28963815807559,2.29015575928618,2.28980660175122,2.29095672932432,2.29060870628442,2.29194453984065,2.2914047303254,2.29273771304876,2.29259417789421,2.29304522240792,2.29419474261264,2.29424174966043,2.29595869257908,2.29672225631569,2.29808272180647,2.29926235691931,2.35521874708329,2.37104513612371,2.37082666270124,2.37169319097932,2.37169925512625,2.37212165908456,2.37198758218849,2.37281540384441,2.372239730924,2.37297937724761
2.22427138747635,2.22519463434032,2.22575450688588,2.22630568757329,2.22689902688339,2.22735571743412,2.22808031409446,2.22851556719303,2.22937609607996,2.22990872190383,2.23055922062955,2.23128732234229,2.23157703736115,2.23183389041734,2.23292627191401,2.23351851536652,2.23449206552919,2.23514537256165,2.23555863435217,2.23598793967888,2.23701769518888,2.2376882118997,2.23844550914366,2.23850790199833,2.23947926653656,2.23998373736128,2.23987164970119,2.23900688782044,2.24005955955589,2.24012052170285,2.24106603847966,2.24107712378267,2.24220248369099,2.24233228836584,2.24322425060735,2.24320037474538,2.24386798272912,2.24371492103094,2.24457544002293,2.24469298882732,2.24532382930283,2.2452625342481,2.24613817558534,2.24631303021829,2.24710642535281,2.24718932003261,2.24826689626455,2.2486684449904,2.24957153491118,2.24981694834097,2.25084920205916,2.25124669030208,2.25221256116401,2.2527466666198,2.2534465433779,2.25382478736683,2.2548183710676,2.25533826113829,2.2562847633623,2.25683126801031,2.25764127866508,2.25820058323458,2.25918620968361,2.26010014884602,2.26075246134405,2.26130474387594,2.26246837662303,2.26339741598396,2.2645483416189,2.26561616809786,2.26704098855333,2.26819906202614,2.27077562321155,2.27307570970302,2.27482194722561,2.27630702937019,2.32826046402511,2.34275897643045,2.34130205987042,2.34076168027688,2.34103146975196,2.34072935368169,2.34146374840198,2.34132846436492,2.34169155840352,2.34145040991952,2.34128762389005,2.34077335730486,2.3407030975776,2.34010581865158,2.34068258235929,2.34067677149033,2.34084396081852,2.34061193611635,2.34071499140734,2.34062187659084,2.34097042943266,2.34092458497045,2.34153330711722,2.34173366345232,2.34231135781236,2.34258468864749,2.34318419084309,2.34332651162465,2.34385338034802,2.34388335433681,2.34446256032377,2.3444490964658,2.34565192573357,2.34646615671561,2.34667105233529,2.34658456188166,2.34556578307815,2.34412908727107,2.3434512035133,2.34198327752304,2.34237922350922,2.34162454714164,2.34185883145406,2.34124565490201,2.30111438440259,2.2878622420383,2.28777117728005,2.28655004721938,2.2861967006389,2.28534102807983,2.28553737928091,2.28487707248522,2.28546803858697,2.28508423670774,2.28552087204197,2.28520040590789,2.285596857291,2.28516992123052,2.28585176845265,2.28560884386993,2.28621979708019,2.28598297176644,2.28684316618472,2.28693171775997,2.287495098106,2.2874076734559,2.28796844364721,2.28772022079421,2.28826628842617,2.28779765907729,2.28838662430795,2.28790249197767,2.28891786188507,2.28861344016805,2.28954538771107,2.28918756634338,2.29019875359522,2.29025009432821,2.29098863647596,2.29063343145303,2.29174684932537,2.29175379565014,2.29302969273509,2.29511962234271,2.29463664408482,2.29601123447554,2.29657132407819,2.29752158717394,2.32478762584278,2.36959359248601,2.36953783949854,2.37017335538824,2.37083274830031,2.37114442263891,2.3714995276343,2.37158877226203,2.37156392384216,2.37164057117277,2.37170979101336,2.37201322268932
2.22420381153746,2.22462205206499,2.22563281986662,2.22602413003737,2.22669851214098,2.22666455200826,2.22795194662616,2.22846241596419,2.22941049174596,2.23004096910627,2.2304479102666,2.23082747146877,2.23148093052518,2.23212145551034,2.23295356257456,2.23404949703412,2.2342198663191,2.23442757033904,2.23481980194533,2.2342458104613,2.23641819607419,2.23758320442332,2.23819024145423,2.23839224511615,2.23926019076842,2.23998965152422,2.23969374769746,2.23953876759433,2.23984873178953,2.24025936565432,2.240676220331,2.24118415608189,2.2418305589217,2.24271867631784,2.24286126974688,2.24326164349044,2.24349158269826,2.24403302091301,2.24442512993521,2.24553468370404,2.24507216021362,2.24515833656858,2.24571221115274,2.24650820791846,2.24674138291984,2.24731767298378,2.24781346054565,2.24861568504447,2.24914386491218,2.25002689140601,2.25053189689649,2.25151289576562,2.25184880475074,2.2526130242195,2.2530284290008,2.25372318587369,2.25434799014994,2.25527432823214,2.25573180205818,2.25653483830029,2.25702293197136,2.25776578149732,2.25845548154501,2.25931553631559,2.2601100333018,2.2613699801552,2.26189199777963,2.26327199280656,2.26390271222107,2.2655777189684,2.26665275189902,2.26912298466749,2.27005292150196,2.27116502482014,2.27426874219892,2.27601402681837,2.31907259064001,2.33921289526738,2.33946143948201,2.34021497215006,2.33991663056865,2.34076894803516,2.34051780446687,2.34140618018923,2.34071517951679,2.34110663029589,2.34016287682461,2.34048911699007,2.33969447939351,2.34024539176547,2.33985770052414,2.34119847272528,2.33990759343673,2.34026364629189,2.33969356640533,2.34031073487121,2.34007539614156,2.34127958422956,2.34075632667845,2.34163040574158,2.34180259389857,2.34352128807095,2.34262696384773,2.34343656919966,2.34308293600403,2.34413318631203,2.34371869079623,2.34466442746061,2.34478833295337,2.34619651904838,2.3459056222139,2.34705320270907,2.34512581268514,2.34455787533222,2.34336113720257,2.34328858343193,2.34215744115702,2.34218561800737,2.34199905356434,2.34353558042176,2.29925187186308,2.28801644218802,2.2872554809203,2.28666783809168,2.28554462878863,2.28526868326242,2.28495605742584,2.28546789357113,2.28499172223088,2.28541462846843,2.28503377623482,2.28555037094599,2.28511569980335,2.28562642771416,2.28532225113126,2.28593719084614,2.28568665283382,2.28630443878408,2.28627297235162,2.28714970562621,2.28682484663244,2.28722461378947,2.28733557846453,2.28835725220507,2.28770687033778,2.28828795807082,2.2878937265927,2.28863256797725,2.28827855749467,2.2889962012775,2.2888854785225,2.28992472622854,2.28968615608547,2.29070942111944,2.29045982910993,2.29150522367296,2.29134866292684,2.29240435091601,2.29329777334036,2.29378670056714,2.29550826467126,2.29603396015417,2.29733946713564,2.29829909072565,2.34099673417918,2.36877844580279,2.36926617054896,2.37088702196582,2.37056005627531,2.37120759571557,2.37092987735046,2.37141357216731,2.3708568932892,2.37130876111076,2.37095424373096,2.37166983671742
2.22381686836832,2.22466173528829,2.22530914590266,2.22619421601396,2.22647726605078,2.22693543425146,2.22801923622043,2.22954747670451,2.22922694308997,2.22911860068595,2.22986559261947,2.23028715645759,2.23112948388877,2.23177022933556,2.23261965581054,2.23332601473594,2.23376500741755,2.23395257632821,2.2347709706683,2.23569512935241,2.23658336710021,2.23794143046319,2.23823521134622,2.23875367181415,2.23920917056271,2.23944026833083,2.23952947010076,2.23912763867061,2.23978621481428,2.24010534198744,2.24059906019563,2.24079684270516,2.24173882518194,2.2424549070649,2.24277277277304,2.24298653900446,2.24336641573172,2.24350170570879,2.24418964369104,2.24450051537714,2.24496097783641,2.24519611736128,2.24578692157489,2.24637692691738,2.24677063250499,2.24717996720076,2.24774013296992,2.24829964077301,2.24899802124845,2.24966759805183,2.2503270720707,2.25082560575871,2.25160000100714,2.25213401427299,2.25282445928888,2.25327456801052,2.2541433200987,2.25466332626215,2.25551957817153,2.25592113512174,2.25682209642074,2.2574191780259,2.25818333219454,2.25872152284716,2.25974118777755,2.26041915092781,2.26151988883032,2.26219825501533,2.26365164609867,2.26483864632704,2.26645891807011,2.26810101389397,2.26958717474196,2.27100993743232,2.27407514064198,2.27741184694952,2.30807150546572,2.33838034731098,2.33806029663144,2.33874484605825,2.33913609444984,2.33923255457295,2.34045591585682,2.34150208510561,2.34061971405082,2.3396069237271,2.33960893167286,2.33883461725507,2.33916395338825,2.33874518704235,2.33911315113176,2.33874277529891,2.33902411222144,2.33854747043742,2.33911838797501,2.33892904965123,2.33989699869951,2.33968664301461,2.34074682177665,2.34082730454588,2.34133466717584,2.34121960031936,2.34202614380328,2.34234301264052,2.34273426588964,2.3428284026627,2.34344188924292,2.34352904596283,2.34444070519997,2.34457586441068,2.34545968004731,2.34556387312037,2.34505860478973,2.3439746215817,2.34369811204831,2.34264059591213,2.34262504197891,2.34115680518399,2.34243057028265,2.3435756311126,2.29550653994523,2.28899139942996,2.28747031471014,2.28597829196507,2.28565136244234,2.28476459042064,2.28512228583703,2.28499471092037,2.28524811555036,2.28500977351988,2.28526539033158,2.28492062234707,2.28525683918924,2.2849188284501,2.28542487944229,2.28523145356178,2.2858474836722,2.28579116340763,2.28639736464199,2.28636980953047,2.28705342945438,2.28735304301741,2.28759320652731,2.28723837997591,2.28784876640426,2.28751315830977,2.28811309613701,2.28792738835634,2.28847959301084,2.28815841980039,2.28903166738094,2.28897604558162,2.28982758352424,2.289793850768,2.29072029335053,2.29076445651732,2.29164682526133,2.29205079627917,2.29303897955723,2.29509632416026,2.29527632651648,2.29644293517133,2.32125004649469,2.36229210147599,2.36252101385319,2.36822011277882,2.36873825010564,2.36934366129644,2.37007164208657,2.37038352380681,2.37046106020177,2.37042987649721,2.37017845351778,2.36977109937,2.37019167028405,2.37021848064002
2.22373623373642,2.22418312463644,2.22512660677164,2.22558811980283,2.22637100294159,2.22674781951241,2.2278254100824,2.228897274826,2.22896192993257,2.22903714157362,2.22975088573009,2.23015823484342,2.23100922843922,2.23161208386878,2.23232870220922,2.23281428793993,2.23343101922372,2.23378499503532,2.23447679346352,2.23519013437399,2.23601610235286,2.23705641988789,2.23774024294921,2.2390880223119,2.23910319091906,2.24017164856501,2.23958045856783,2.23979802388843,2.23981464831641,2.24023734218619,2.24051542665531,2.24100054036677,2.2415266835595,2.24218442607574,2.24247219851333,2.24275959483387,2.24316706049938,2.24352032474308,2.24403672847161,2.24445627995138,2.2449020247305,2.24522702289855,2.2457799412338,2.24623363622302,2.24677012931994,2.24730139790953,2.24767455176401,2.24801175042527,2.24887965542701,2.24956112799763,2.2502447334724,2.25086089617488,2.25149970065066,2.25228070954176,2.25272672377492,2.25339748165222,2.25403874900933,2.25505922960321,2.2554108763477,2.25623415606485,2.2565929499548,2.25728756481901,2.25787051988836,2.25869592959246,2.25943540962619,2.26036004986569,2.26120777126834,2.26228748908854,2.26324012664269,2.26475464863445,2.26585780478944,2.26789213500584,2.26913400817461,2.27103883429575,2.27359579905392,2.27546441634881,2.2973916075711,2.33623215777751,2.33660135527255,2.33777057857988,2.33803997696958,2.33921865698099,2.33904275529874,2.34033921187406,2.33925522016228,2.3396120991714,2.33857461979496,2.33880155724151,2.33815349272618,2.33874812769037,2.33791206751535,2.33822727054928,2.33777501864761,2.33829897630812,2.33800672033073,2.33885165705705,2.3390545347479,2.34105638641589,2.33988466060787,2.34086554340862,2.34023053506042,2.34110026583002,2.3407804641544,2.34143218062796,2.34141925930204,2.34241710936149,2.34244058886524,2.34385183551414,2.34365469143601,2.3449571052498,2.34457223722419,2.34547530425209,2.34433005701277,2.3444248445813,2.34339108444539,2.34329871626689,2.34260793546318,2.34315469745869,2.34236321872748,2.28923681086982,2.28787050818058,2.28767998720043,2.28679741956199,2.28686117153144,2.28552153408101,2.28537565042348,2.28474775874629,2.28518878641607,2.28479076649165,2.28544976336017,2.28495133556997,2.28553320589608,2.28496667568959,2.28539736752745,2.28513347727104,2.28582462330539,2.28558852345931,2.2863710487423,2.28601652529026,2.28658166289681,2.28652072181575,2.28728537793887,2.28715611277193,2.28824368241256,2.28751897875849,2.28818439036107,2.2877560245836,2.28849652419442,2.28808364342355,2.28884637738072,2.28860592942647,2.2894229351172,2.28943396571507,2.2904796979849,2.29037248179797,2.29157941228932,2.29148448013901,2.29264731773578,2.29351037353319,2.29391968750903,2.29574344996438,2.29633574412524,2.33670089776917,2.36171011771409,2.36387717431696,2.36684480678177,2.36810536093456,2.36938845818763,2.36910725791336,2.36993824006134,2.36906663191033,2.36940269400174,2.36877418372227,2.36915275573771,2.36903051678324,2.36987826719439
2.22325796537123,2.22366785778793,2.22468316746845,2.2255957580314,2.22602904623133,2.22639385743897,2.22708628741383,2.22748203844892,2.22824854191099,2.22872760489032,2.22953748232169,2.23025722462042,2.23078494354402,2.23119059960084,2.23204866232517,2.23271033274823,2.23329463670025,2.23351635434207,2.23424889642433,2.2342464774446,2.2355657794665,2.23612004179462,2.2370273360103,2.23715147228673,2.2383620938045,2.23861877648445,2.23921721012651,2.23895509325611,2.23972770866674,2.23988923503111,2.24044958149557,2.24034263763172,2.24135572962711,2.241600804775,2.24228431694087,2.24239188064133,2.2431161438851,2.24325213965583,2.24407108773448,2.24443392004872,2.24497994533051,2.24535302533164,2.24582502509461,2.24609877318491,2.24673665288871,2.2471190881803,2.24766789866566,2.24785801652703,2.2490394658859,2.24994923287471,2.2503866886144,2.25057775699774,2.2514826215927,2.25201016346061,2.25266967223636,2.25288207002672,2.25389304388496,2.25431159544499,2.25522638732041,2.25553402966454,2.25643752774719,2.25670076230281,2.25772635292396,2.25812765927855,2.25940920410377,2.26025045749659,2.26121445699917,2.26178978772344,2.26301925997223,2.26368707639511,2.26557166214624,2.26694053478672,2.26908179333331,2.27141481232234,2.27349293006448,2.27605942587067,2.2824961503576,2.27992381763137,2.33532231548769,2.33655560128019,2.33676552130788,2.33650963002233,2.33767314528362,2.33778005194262,2.3380838572542,2.33771838454794,2.33785726481305,2.33779191632349,2.33746158571169,2.33691648928693,2.33708392511151,2.33682487738095,2.33705975484568,2.33688225964408,2.33756612790866,2.33774348709309,2.33832132179494,2.33860443269153,2.33875293890627,2.33852212863904,2.33940620731158,2.33989381154305,2.34009548853525,2.34016536250177,2.34065512212945,2.34079163772307,2.34160052547184,2.34204852382992,2.34290266739794,2.3438511325859,2.34398214495374,2.34452957702961,2.34389620536026,2.34319596336161,2.34360916971382,2.34344708870382,2.34356646919605,2.34300059052573,2.34337249702542,2.34417546210616,2.28763590389282,2.28637078266862,2.28683986837832,2.28606491439221,2.285714603772,2.284642294915,2.28491367357859,2.28433176120273,2.28493791263949,2.28454485322899,2.28511568192784,2.28472261713495,2.28521184006097,2.28480576809844,2.28541633080465,2.28516153615594,2.2858456851267,2.2857742417789,2.28632489443346,2.2861736586494,2.28677338763093,2.2864930886297,2.28721621668495,2.28677790559315,2.28764733376575,2.28731748005679,2.28808725053372,2.28782544258924,2.28850355025763,2.28807804934048,2.28912582007662,2.28899913338458,2.28995309913225,2.28983736260637,2.29089547293099,2.29114803061951,2.29205988378972,2.29250647524889,2.2937330921424,2.29490669884267,2.31241777864833,2.35929322154967,2.35980163829326,2.3623498705311,2.36365924750176,2.36746756130493,2.36747585596684,2.36842325461135,2.36804173857062,2.36747531263681,2.36783813213189,2.36768242319272,2.36778367151117,2.36770682547328,2.36828273135693,2.36881820230314
2.22299565936182,2.22354847008901,2.22434106635373,2.22515287495713,2.22564669598118,2.22627574476879,2.22647985684898,2.22659651707305,2.22752592773509,2.22832095779576,2.22905309418076,2.22998961912455,2.23031595632488,2.23083513975781,2.2314718101455,2.23222660692608,2.23280607908532,2.23378363492012,2.23384355931868,2.23446155974871,2.23471571295279,2.23542644418544,2.23578917476683,2.23662634554999,2.23722185477604,2.2385828064113,2.23830926043345,2.23910406171822,2.23891648500108,2.23977038062741,2.23980503534359,2.24103009165099,2.2408069964375,2.24189748436021,2.24165731792104,2.24250281086908,2.24279911308151,2.24429125734681,2.243817765163,2.24435003130405,2.24459557654531,2.24532323563941,2.24553913748495,2.24616636641866,2.24647647211249,2.24712832003901,2.24754418080748,2.24839910908257,2.2489554482602,2.25017766981739,2.25019072743508,2.25079889288515,2.25117718334201,2.251951971646,2.25235462128939,2.25311903299645,2.25361617294926,2.25453411997134,2.25492942299333,2.25577963992779,2.25619665195464,2.25719050956033,2.25747827998219,2.25839565943221,2.25910106122924,2.26035300240811,2.26092581458012,2.26197304619193,2.26264459547575,2.26374980262606,2.26484523801683,2.26682037791575,2.26816777644162,2.27087874225887,2.27264295165846,2.2745441387891,2.28589839955632,2.33456642764382,2.33463183578142,2.33595800179164,2.33592633402684,2.3361657757429,2.33647185216837,2.33739654190435,2.33676271782124,2.33711445894665,2.33655952805151,2.33718420321624,2.33621922225016,2.3364283229534,2.33594974993335,2.33661528002609,2.33596871255392,2.33672685330429,2.33656683781121,2.33793570005507,2.33743517901741,2.33781627012343,2.33758086684433,2.33808830792136,2.33792983977106,2.3390291163692,2.33878017258659,2.33965936665479,2.33959058643223,2.34055633882895,2.34047521643767,2.34144570911294,2.3413964070855,2.34222490406362,2.34226474987749,2.34303328910328,2.3428086589465,2.34331506636354,2.34323976648924,2.34386018026844,2.34344615140225,2.34407706838487,2.33779915637299,2.28876847120273,2.28760226152993,2.28789820634508,2.28641438868443,2.2878669967634,2.28541330161818,2.28529260293908,2.28444879403964,2.28500064294966,2.28452375725345,2.28546803201272,2.28478579445885,2.28552543725425,2.28491450133447,2.28564700199566,2.2851308395437,2.28591672912161,2.28540352787184,2.2861117650435,2.28577236446715,2.28670342682166,2.28633065061723,2.2874256655556,2.28680129393144,2.28773562573881,2.28722489123664,2.28835052194712,2.28765881378212,2.28853278778763,2.28811894007822,2.28932810335136,2.2889049891651,2.29043685151932,2.28967611172219,2.29085421249243,2.29045006101047,2.29205945708613,2.29184346432607,2.29372054190688,2.29416123194283,2.2952448917763,2.32468003667931,2.3598906030099,2.36054117439656,2.36073805907651,2.36429232674449,2.36690689609295,2.36671485953968,2.36701676862277,2.36659544572376,2.36708168418996,2.36656736884409,2.36709590947708,2.3665477592001,2.36704946325964,2.36719841541646,2.36813175895715
2.22263683341832,2.22321408952474,2.22403070457063,2.22472369004715,2.22527565794982,2.22569861964404,2.22614031870985,2.22628094589261,2.22725869300634,2.22769448084152,2.22878598576836,2.22927966387971,2.23008639983173,2.2303190353133,2.23133993200836,2.23179775374222,2.23269594292243,2.23287315688725,2.23381741134196,2.23398233235065,2.23458028089962,2.23412506369847,2.23553402060852,2.23551696984888,2.23708775503549,2.23710219515506,2.23836629743618,2.23795664599415,2.23915642293986,2.23863814700582,2.24004679662296,2.23970352286849,2.24095019226668,2.24035047309847,2.24176851769558,2.24139404744438,2.24278958148681,2.24267414960436,2.24379058551721,2.24368544243475,2.24477262129054,2.24494867618415,2.24570888492084,2.24566953517397,2.24659510071528,2.24677463142875,2.2475961572128,2.24772411058038,2.24882600937932,2.24913112957971,2.25008985967218,2.25022769791887,2.2512416489936,2.25150304872536,2.25248829015456,2.25278283299937,2.25374911196039,2.25399780046639,2.25502156239132,2.25529037111828,2.25626186058669,2.25644303692694,2.25751900325684,2.25769285192575,2.25918501314708,2.25980265718082,2.26109378210712,2.26170150923227,2.26284961899251,2.26330953818715,2.26483310495513,2.26563162817478,2.2678389010954,2.26975889615641,2.27198761277363,2.27351883032455,2.29098425856529,2.333523250048,2.33371946722177,2.33446064921676,2.33521905985983,2.33536285741083,2.33585216815785,2.33617429750876,2.33588334878553,2.33574905385173,2.3355351323231,2.33533559700985,2.33523152504787,2.33519803787969,2.33507053498263,2.33515722866025,2.33495359238894,2.33470974930035,2.3356806533107,2.33697509394367,2.33620319992007,2.33639714145013,2.33618680094145,2.3364858698562,2.33683561243068,2.33703683686343,2.33775855875762,2.3385236769188,2.33874802801345,2.33925431042739,2.3395695601909,2.34004822105805,2.34032605158945,2.34064637498839,2.34116407870424,2.34171470582058,2.34213394974069,2.34270506686019,2.34306332538098,2.34324077512276,2.34347063186275,2.3444363158364,2.3342404537101,2.28741547684984,2.28758925872746,2.28691068049349,2.28614690532763,2.28476929115929,2.2851439209119,2.2841945457192,2.28475576917483,2.28380575500241,2.2848216423312,2.28430229362349,2.28509463970477,2.28441586983365,2.28532515365591,2.2848431290092,2.28559210327201,2.28500653467765,2.2858252092166,2.28520274583052,2.28616081475117,2.28555440911564,2.28666551793521,2.2861851038759,2.28710186912921,2.28642542225704,2.28751515838987,2.28691573773985,2.28805980897302,2.28754360200124,2.28858953262441,2.2879809054875,2.28922605786452,2.28867077659206,2.2900406317566,2.28982732404516,2.29094734508658,2.29122114996636,2.2924474257584,2.2933610553447,2.29467782920523,2.29553954381307,2.33616898312566,2.35950591363793,2.36006841895049,2.36223158591523,2.36332838322842,2.36714361739026,2.36553776817807,2.36568525623693,2.3654991477257,2.3665006015068,2.36554719409585,2.36612158575319,2.36548008836102,2.36634827615164,2.36654998152006,2.36885206140919
2.22239332917858,2.22304404768243,2.22368867420066,2.22436983680903,2.22477487106244,2.22523209330175,2.22578382684947,2.22642844974397,2.2270674405287,2.2278327601272,2.22852602612627,2.22931802169114,2.22979312478851,2.23038573149139,2.23100671739019,2.23180150137114,2.23236254927894,2.23309656803157,2.23349534894734,2.23409189514955,2.23425107609824,2.23467078349382,2.23517578382918,2.23603905161238,2.23658699556641,2.23756030944591,2.23783459254744,2.23864199664544,2.23870874414083,2.23942993552466,2.23958035914824,2.2404205562436,2.2405062885823,2.24128429384874,2.24142549381857,2.24221166285074,2.24240443117383,2.24310954493296,2.24342013513614,2.24415570831019,2.24450595972149,2.24522031409162,2.24551563469771,2.24610137326945,2.24648874704123,2.24709532585086,2.24751798249137,2.24810009630098,2.24867542527669,2.24938087962328,2.24992262834183,2.25058550308349,2.25109970862791,2.25177067941389,2.25230382324987,2.25299851796416,2.25356274217387,2.25430315866373,2.25480453996251,2.25551791586113,2.25600745232896,2.25672912508483,2.2573098569102,2.25817456163969,2.2589618290815,2.26002989012923,2.26074775612032,2.26171886972373,2.26249317218823,2.26354722616531,2.26432431096777,2.2656637374589,2.26720640591139,2.2693778738825,2.2713584648437,2.27249649388416,2.29733936868231,2.33304304939851,2.33316428794448,2.33397508047635,2.33456208090256,2.33504740418771,2.33492418236257,2.33513175935952,2.33471173279863,2.3348131453128,2.33437586039289,2.33447849676828,2.33406201106375,2.33421412416046,2.33387537568842,2.3340994465392,2.33379687668196,2.33409671951206,2.33422672109213,2.3349405018278,2.33476343899753,2.3349521227567,2.33507010948675,2.33559707708166,2.33571717704185,2.33639340405453,2.33668669095153,2.33749962606307,2.33780335285122,2.33858625285161,2.33870739147229,2.33928851986348,2.33942716597069,2.34004200890142,2.34026990222419,2.34100024255467,2.34143565110774,2.34228150216672,2.34257536824769,2.34292983033412,2.34256635584278,2.3426370152285,2.33000646929612,2.28720069854752,2.28670577756498,2.28634313425066,2.28493309356498,2.28479532426409,2.28436390137025,2.28469980889134,2.2843746790401,2.28464213193401,2.28445489747064,2.2848706731071,2.28471872957408,2.2851455049085,2.28497501307575,2.28539948266792,2.28523792730513,2.28568476045509,2.28550555929115,2.28595441538119,2.28583642691449,2.28635238756262,2.2862852504639,2.28683920584849,2.28669115363632,2.28719780937036,2.28716640394135,2.28780079095205,2.28777047877273,2.28840326190269,2.28831567084764,2.28892789629163,2.28893736880367,2.28961896024057,2.28974444474424,2.29050112499342,2.29062325902777,2.29161670804144,2.29207670944158,2.29312337185867,2.30664884246265,2.32977109377008,2.34805348922283,2.35986889427419,2.36033763115556,2.36093579013831,2.36234260163779,2.36353177961486,2.36376232118308,2.36425774630691,2.36406528371289,2.36447644443681,2.36405850524704,2.36428780645547,2.36405704148083,2.36456222494518,2.36493356770127,2.36600057539401
2.22245447662196,2.22292873566692,2.22358387832909,2.22418282082588,2.22449389062876,2.22451979939862,2.22560726569896,2.22630067037445,2.22707347811948,2.22759420084877,2.22852373023382,2.22914103631549,2.22972882741155,2.22984190032868,2.23088365115157,2.23128667358765,2.23232103540034,2.23276571489791,2.23351047770215,2.2336153391264,2.23426758877224,2.2339733495317,2.23521964532339,2.23537070237475,2.23668099653081,2.236799354168,2.2380130469894,2.23789925241394,2.23897175924973,2.23850836694887,2.23986887421243,2.23950386509397,2.24082665288475,2.24053486358579,2.24177482779141,2.24155096473614,2.24262595357846,2.24221631654743,2.24352879000271,2.24352022165092,2.24460409427758,2.2446356052314,2.24559713982757,2.24565027435918,2.24656321632844,2.24673602380922,2.24754829759971,2.24769683493538,2.24863040505324,2.24894240545607,2.24988281196824,2.25019625800703,2.25106867326706,2.2512116970911,2.25225009445634,2.25233829046253,2.25351815269626,2.25378475834905,2.2547244576261,2.25486797393582,2.25590014322629,2.2560095609677,2.25722072041843,2.25756426323336,2.25887598032989,2.25941086431333,2.2605704608947,2.2607156076357,2.26234111360195,2.2628978391524,2.26420985443026,2.26493480311473,2.26691708090545,2.26954814185766,2.27094751491479,2.27241539117342,2.30467132871649,2.33296304233154,2.33306034597276,2.33355852951464,2.33430130631475,2.33454209143737,2.33464288056557,2.33460625121552,2.33449508721558,2.33448349811093,2.33420152645846,2.33420324412172,2.33383960531984,2.33377113026287,2.33361851004726,2.33362452542785,2.33355318441635,2.33362376218898,2.33374887868815,2.33381858306597,2.33419039684945,2.33449273381325,2.33478058177446,2.33520914503507,2.33560944994436,2.33625040626368,2.33660043285266,2.33729638457517,2.33785148684653,2.33895248161139,2.33887416420051,2.339396934526,2.33956142531975,2.3402941843275,2.3403471153987,2.34106121920619,2.34140729464842,2.34242040462175,2.34259413968063,2.34308405330151,2.34223211511565,2.34140532806815,2.32408922416716,2.28694739403019,2.28646181938052,2.2852347705577,2.28486620205722,2.28388455370251,2.28445291799605,2.28390757057175,2.28450702999362,2.28377817918395,2.28454920597382,2.2838982511468,2.2848318076127,2.28435457990761,2.28510934721024,2.2844178923196,2.28536673874564,2.28484668053683,2.28567518046918,2.28508912913057,2.2860374228626,2.28549265545327,2.28647063839633,2.28595367524367,2.28682262360512,2.2862528841598,2.28737217675057,2.28706387246806,2.28806358157875,2.28767517019156,2.28862651752726,2.28809991966302,2.28928452358589,2.28892293089943,2.29020993672448,2.29037036756996,2.29128031725906,2.2917110972161,2.29267967300922,2.29343885350576,2.31376766515869,2.36025571307519,2.35956925752502,2.35998782720881,2.36015983079329,2.36060302096585,2.36153132678547,2.36216174132875,2.36317149565429,2.36476622314664,2.36396813179719,2.36475063312601,2.36386784084796,2.36448478767105,2.36382715403277,2.36448775446904,2.36458161320525,2.36609321118733
2.22253842308186,2.22303466143184,2.22346264312156,2.22390805897578,2.22436627027068,2.22486437195649,2.22559131046821,2.22649735446016,2.22693428805849,2.22749721278865,2.22830688032202,2.22914680781556,2.22955061234298,2.23002236039644,2.23071519905332,2.23164470176395,2.23203338859947,2.23281018919363,2.23317226251119,2.23393562407882,2.23413889768087,2.23486237693541,2.23506777575046,2.23590872436162,2.23628203041,2.23745429354742,2.23749443094715,2.2385279974655,2.23853788999621,2.23972270461524,2.23948472533206,2.24058919671834,2.2402901747509,2.24131535714874,2.24125817928174,2.24247817324831,2.24227460551936,2.24332329747988,2.24318077477674,2.24410299241316,2.24422232121306,2.24514241555963,2.24528808284653,2.246131773687,2.24632529861203,2.24712521449387,2.24736773540053,2.24812345465853,2.24833561978784,2.24888564657563,2.2495595665551,2.25060755354986,2.2508227457157,2.2515677445944,2.25214458717115,2.25343215968405,2.25332011434813,2.2538916388066,2.25431166736894,2.25520554620968,2.25555395075774,2.25642379561426,2.25681783599415,2.25770358634525,2.25837958938346,2.25954674245617,2.26021404601276,2.26151672339204,2.26204174259484,2.26318200214787,2.26377876447549,2.26509897438511,2.26687805337681,2.26897301531416,2.27112757612726,2.27271431111656,2.31270551331549,2.3328634237023,2.3326082805642,2.33339414727945,2.33342503505974,2.33434842037992,2.3339055221729,2.33489174309546,2.33391696443871,2.3345946184553,2.33348272708872,2.33396338455957,2.33303148568672,2.3335536720896,2.33291178416162,2.33371897554987,2.33287327325429,2.33359944695438,2.33295589579365,2.33381729141333,2.3334491964834,2.33461495162651,2.33414973423052,2.33519654374567,2.33501414750527,2.33627554187807,2.33607020553587,2.33725135798801,2.33732943598745,2.33874553588751,2.33847962943384,2.33973367561832,2.33923585057987,2.34026092195289,2.34000166782069,2.34121839453777,2.34086484268088,2.34197715107765,2.34173334206898,2.34314610611061,2.34198970742215,2.34285174234674,2.31555683444678,2.2861569363304,2.28569395563972,2.28554078627892,2.28432239508514,2.28453430092605,2.28391333122423,2.28431157568252,2.28387030209791,2.28437046846266,2.28397163014213,2.28466264464008,2.28426428000036,2.28510767997573,2.28457245161436,2.28536619466713,2.28482053619083,2.28558119472653,2.28508237646276,2.2858690923857,2.28553361756989,2.28669298151347,2.28591372990932,2.28667714063006,2.28612720473761,2.28692264706245,2.28669508812788,2.28788066145191,2.28739793633646,2.28843659724869,2.28800197494394,2.28911312984791,2.28881405555837,2.2901268344306,2.29008199982415,2.29149093692642,2.29159526824349,2.29304724143756,2.29320617062135,2.29402863285478,2.3223340712696,2.35866838114659,2.35834933969894,2.35808944845284,2.3593502572494,2.36075837529925,2.36147555262149,2.36299464012981,2.36284989818681,2.36382747598661,2.36333005754145,2.36404616511825,2.36329716036812,2.36375608869602,2.36341717612056,2.36427492506114,2.3639107778329,2.36481263638277
2.22223974981061,2.22289178143439,2.22320624031693,2.223595189894,2.22411893728238,2.22448059344291,2.22541412037173,2.22610857011276,2.2268263741079,2.2273021538731,2.22833268392539,2.22916214536719,2.22963030709039,2.22994313660799,2.23072233820545,2.23122226942032,2.2319195449686,2.23222710214373,2.23316023866547,2.23371720232709,2.23430482276027,2.23458417489804,2.23525052964646,2.23550530056707,2.23638243372911,2.23671944167988,2.23756594840433,2.23778936622769,2.23872159107279,2.2389778374431,2.23974674264473,2.23972120958676,2.2405363362699,2.24047523067499,2.24149072977829,2.24170267827732,2.24250836824722,2.24250337119956,2.24339200155499,2.24350408208996,2.2444434809753,2.24472968151706,2.2454706535726,2.24556306557622,2.24644064678369,2.24666177535887,2.24744818816245,2.24767310793519,2.24845137417773,2.24885219954424,2.24961330219669,2.24994024609911,2.25080900992783,2.25110976930199,2.25214332793531,2.25266461921552,2.25331006745948,2.25346622893396,2.25434876718352,2.25471859786563,2.25563545000072,2.25605013412563,2.25689064105989,2.25722420934887,2.25835028390286,2.25892103452366,2.26013147358181,2.26087338800855,2.26200985704318,2.26292693541102,2.26379193502126,2.26404715797517,2.26637930609499,2.26841842324412,2.27028636854879,2.27255908592261,2.31932337905082,2.33228199218915,2.33225846925041,2.33223442888044,2.33288200082267,2.33254524326433,2.33331206134357,2.33325712151207,2.33342337926633,2.33303639275304,2.33293671686401,2.33227947917183,2.33256205987285,2.33242167643732,2.33253237392677,2.33228777558533,2.33236124966617,2.33185068069541,2.33248624949035,2.33236116316471,2.33301853667726,2.33266528799087,2.33384168203074,2.33420539616516,2.33474676439985,2.33492525979972,2.33579757580225,2.33629269759852,2.33709539916677,2.33754802319198,2.33816342551695,2.33843862703869,2.33896132046567,2.33922800045674,2.3395901874515,2.33972034559117,2.33994354680554,2.33970696905609,2.34032132633917,2.34003036944045,2.34073875739327,2.34159411390788,2.30687791888206,2.2865897931513,2.28579662090491,2.28454013154269,2.28461900228233,2.28462944169166,2.28437951300052,2.28398272742908,2.28424587593412,2.28407659787484,2.28426234347717,2.28391867196304,2.28443198412699,2.28418044383959,2.28471617877613,2.28440404902182,2.28500655674853,2.28475285272656,2.28528622334082,2.28490146061622,2.28564000856793,2.28542465696456,2.28599008384826,2.28555501975485,2.28633919710919,2.28604559151411,2.28694641486578,2.2867305504501,2.28759828579605,2.28720912691422,2.28829272922342,2.2880870427749,2.28912152649207,2.28909923811609,2.29036520843912,2.29114071161881,2.29212457944117,2.29292537640791,2.29402020449671,2.29486299031733,2.33171280826847,2.35741607592203,2.35788108694983,2.35702902628074,2.3592215776094,2.35993618995618,2.36143406055974,2.36255935727885,2.36266844225675,2.36296905587771,2.36284272737871,2.36282758988905,2.36285460885086,2.3630072650892,2.36312802449406,2.36351161396937,2.36331615755127,2.36308088156399
2.22210360490465,2.22233765670474,2.22310353299857,2.22311149098704,2.22417204140134,2.22441972567387,2.22548060518137,2.22586668868968,2.22686263380587,2.22753457354866,2.22834590633208,2.22897687069011,2.22956532589669,2.22988024716046,2.23062848266565,2.23105257129716,2.23171556122968,2.23198851357545,2.23292401714553,2.23360677584931,2.23410420833958,2.23450321413842,2.23509469900053,2.23561109655443,2.23614646299981,2.2365492182467,2.23728279727913,2.23791678423287,2.23849685728699,2.23908974647953,2.23960151057701,2.24029533125818,2.24035678369652,2.24058459465882,2.24119690138713,2.24185149749894,2.24224059494044,2.24281059204586,2.24312563390543,2.2436051462704,2.24417166480731,2.24491732415975,2.24526490751577,2.24589617997665,2.24628552440604,2.24694143836876,2.24726545041284,2.24783532737246,2.2481513038724,2.24863742593695,2.24934855800594,2.25023360400338,2.2506327537537,2.25126734434892,2.25189395073058,2.25269420801369,2.25300166466481,2.25338938312838,2.25409332583284,2.25495853216975,2.25540958299651,2.2560356520756,2.25666082770438,2.25745768115094,2.25809763580594,2.2591359171492,2.2598624391541,2.2609424051631,2.26175787104419,2.26268913688738,2.26367757948957,2.26531274971726,2.26651759398548,2.26838133455691,2.27007218395035,2.27158459540518,2.32293320826304,2.33167036493435,2.33155306049282,2.33234675368257,2.33205391791169,2.33286876780266,2.33234494166187,2.33303215463675,2.33237186431512,2.33303077997564,2.3318273265987,2.33194617530113,2.33136967031612,2.332085516848,2.3313805288137,2.3320472503921,2.33134703385437,2.33204509451714,2.33163965760511,2.33266432617294,2.33242972279781,2.33390121771679,2.33317617115547,2.33407841336114,2.33373107871637,2.33454535940707,2.33487570261588,2.33647710933252,2.33621081849742,2.33742988182846,2.3372099622852,2.33844400799457,2.33796786622348,2.33875578297726,2.33862179470518,2.33970519035041,2.33885250578692,2.33920629085717,2.3386055716816,2.33920802706186,2.33894496884475,2.34043002482719,2.30048055587013,2.28680724168298,2.28555655955528,2.28495757132619,2.28428377861038,2.28443151309388,2.28389772253023,2.28422295615021,2.28368144681169,2.28404386879035,2.28368874442908,2.28429800913761,2.28396123620652,2.28469362584908,2.28428880301527,2.28496985646543,2.2846220321081,2.28530301315911,2.28494386923584,2.28566205970077,2.28521493956317,2.28583545391467,2.28550313901325,2.28621871109451,2.28596458776742,2.28692348915933,2.286548143767,2.28748012562426,2.28726547969826,2.28840885382511,2.28805845192089,2.28905392236937,2.2888778266056,2.28981164866221,2.29021400781664,2.29155869527901,2.2921730390753,2.29365870658508,2.29451019784661,2.2954183716889,2.33976935786616,2.35833653721225,2.3577857134011,2.35850943368964,2.35911125560856,2.36102734793133,2.36108226994837,2.3623153404824,2.36178588945249,2.36221467881262,2.36171219279208,2.3621012557628,2.36177410727793,2.3624538536527,2.36209353642966,2.36289892648305,2.36229090357457,2.36294363196729
2.22162264256084,2.22233766433168,2.2227584120732,2.22339182997461,2.22415311015438,2.22528267052122,2.225482645741,2.22596091006962,2.22654030884743,2.22716443148932,2.22796736741291,2.22882978747957,2.22932812404007,2.22985131837233,2.23051296208815,2.23098369989195,2.23163801071564,2.23203457104081,2.23277524205818,2.23328075664934,2.23394459845859,2.23447737778862,2.23502957628485,2.23557380670795,2.23607387164604,2.23641590475003,2.23714602576631,2.23766421435006,2.23837919018065,2.23899576200629,2.23945364788244,2.23972295703091,2.24023520245222,2.24058385730046,2.24116163350195,2.24173127328253,2.24219291534524,2.24253870039159,2.2431422883692,2.24353966243495,2.24413122898081,2.24455544449948,2.2451601029278,2.24562380721564,2.24626362176667,2.24671301778115,2.24723521315806,2.24743112760404,2.24804906268609,2.24834926559874,2.24923183316335,2.24991675194781,2.25054104900735,2.25093237350808,2.25183189223441,2.25238705962177,2.25299330583448,2.25331356051277,2.25406733342019,2.25464409396326,2.25543728533955,2.25606723170515,2.25673822740147,2.25718835878405,2.25795017721186,2.25832050796808,2.25961670648992,2.26065689774911,2.26148316150683,2.26244727312398,2.26377708888582,2.26487251273257,2.26654208295821,2.26722672498433,2.26981613765378,2.27143894909324,2.32473173956686,2.3308843786344,2.33090188304738,2.33128181781097,2.33172485843533,2.33174769596958,2.33200595976412,2.33171420953639,2.3318734242116,2.33141103761564,2.33126847670048,2.33032078692753,2.3307655884021,2.33036759153258,2.33072043699533,2.33030809525,2.33076199226915,2.33044490299596,2.33119278249165,2.33133047679197,2.33196343095012,2.3319737198247,2.33271967226689,2.33284152857929,2.33338819616838,2.33331281241406,2.33449960242923,2.33496253855348,2.33563855699192,2.33551976283228,2.3365980366631,2.33674416607009,2.33753998850189,2.33749194958227,2.33808023287344,2.33788125935375,2.33778119380736,2.33660663262096,2.33707326518987,2.33612544466959,2.33672927587115,2.33673223869235,2.29610420753972,2.28587454392349,2.28520319326192,2.28439461179906,2.2840895923251,2.2838231242139,2.28382888747093,2.28372679216994,2.28368981918513,2.28318535978686,2.28366135408016,2.28334817551725,2.28395103903531,2.28380960049314,2.28430791649735,2.2841710282312,2.28473093785465,2.28475577427553,2.28508591003423,2.28478781164432,2.28532234909831,2.28512923598261,2.28563890009915,2.28546826018212,2.28613737236234,2.28606400142289,2.28669651139763,2.28639847555054,2.28744033819444,2.28762269141373,2.28832363697704,2.2883654646796,2.28921467180347,2.28964360869878,2.29063498278576,2.29129447279566,2.29254897858199,2.29286229360688,2.2949432819837,2.29641696735935,2.3476564867815,2.35633760426118,2.35737741703927,2.35777718083503,2.35921586305228,2.36002626606559,2.36083078909843,2.36125512555912,2.36140694656779,2.36115272202128,2.36127355651573,2.36090610457568,2.36127413404736,2.36126785992091,2.36145578592586,2.3612576079398,2.36154308286376,2.36127260404307
2.22163571782565,2.22180601895373,2.22280501128315,2.22293418522668,2.22423441625861,2.22494526245369,2.22552548698726,2.2258349813818,2.22644910602558,2.22675404918905,2.22770579206904,2.22822134655283,2.22911541833283,2.22952794322932,2.23054866004096,2.23120309525399,2.23172553340987,2.23207030864153,2.23269601257052,2.23341191411714,2.23363319530988,2.23392521670904,2.23461346241566,2.23529842915333,2.23582234688369,2.23648585711926,2.23691263202365,2.23749101956291,2.2380481557852,2.23873846652577,2.23922267990768,2.23986037875324,2.24007900752147,2.24038391588561,2.24092090145817,2.24156869107842,2.24194608349881,2.24250688861981,2.24299872684116,2.24366879311075,2.24392525235893,2.24422116304616,2.24487981042381,2.24546921374494,2.24605752253635,2.24671781410721,2.24709482079477,2.24764056832456,2.24785325102348,2.24829186614053,2.24894977666429,2.24998156741692,2.25033938279432,2.25108495002736,2.25176378656825,2.25283703046922,2.25292098880765,2.25339137596264,2.25387220757481,2.25456309330713,2.25524752284617,2.25622326413601,2.25662203888807,2.25746802804034,2.25776131999073,2.25837765048249,2.25935698801279,2.26044155771014,2.26123700947068,2.26184305338362,2.26358096204994,2.26590026880364,2.26651060263232,2.26789279810224,2.27498520141226,2.32683510044389,2.32802629856816,2.32899923506837,2.32991230402309,2.33075406701909,2.33070182361912,2.3313932544558,2.33085954731253,2.33133832003023,2.33069946800546,2.33118679196526,2.33024669322067,2.33042205005842,2.32974411702206,2.33012784102742,2.32957032048999,2.33006626441877,2.32969695513815,2.3304436316069,2.33012160451803,2.33089446567544,2.3309103209554,2.33216252167767,2.33168204765304,2.33250791657092,2.33243551118153,2.33357876238021,2.33359447834485,2.3346995588751,2.33462316545563,2.33553404255192,2.33567825314566,2.33690922058925,2.33669948580035,2.33760524859219,2.33721951213291,2.33775876366789,2.33686018705321,2.3360331478025,2.33584094449664,2.33555215535335,2.33529040910132,2.33595828343919,2.2926432288918,2.28513151971207,2.28447956783487,2.28386910148775,2.28350482553301,2.28349395244248,2.28310085353001,2.2832603419079,2.28308762571201,2.28375557543793,2.28330993874187,2.2838676186406,2.28356110052081,2.28426401723149,2.28384485557665,2.28436786753297,2.28427504345963,2.28507514853732,2.28471760168497,2.28538340046002,2.28497073944681,2.28554545271996,2.28522625962757,2.28591493338069,2.285762634245,2.28671842061507,2.28639920172899,2.287249216454,2.28707460165791,2.28795850445861,2.28793084026907,2.28895140557412,2.28895354585737,2.29030867659765,2.29045402183574,2.29224636132282,2.29279466834628,2.29431634021456,2.31220475990248,2.35582218169099,2.35623422668858,2.35688179758328,2.35719519482087,2.35839832513692,2.35866210169375,2.36050057512367,2.360074297451,2.36108162514339,2.36046887281885,2.36140847740856,2.36023491285019,2.36082368146428,2.36003503770097,2.36069906771669,2.36009873403205,2.36071447218625,2.36025682155776,2.36108095272978
2.22139860451565,2.22229658307716,2.2227420288266,2.22345798019175,2.22404361749455,2.2246565922092,2.22510757954759,2.22553089690955,2.22602286330763,2.22642383089062,2.22735528934604,2.22807425412823,2.22898837942498,2.22974672607984,2.23066562031014,2.23121996952435,2.23178901985806,2.23188665177511,2.23242452371012,2.23247845796553,2.23328590318329,2.23344124299544,2.23435674599202,2.23440359722254,2.23566361826267,2.23603090150481,2.23681740144837,2.23677391330206,2.2379067440276,2.2381413933057,2.2391452765787,2.23931405209798,2.24004923137071,2.23990240049611,2.2407437752632,2.2405728742474,2.2417476894083,2.24199548104567,2.24292484085095,2.24312796226779,2.2439004783849,2.24409530004443,2.24488051646434,2.24514027561104,2.2460485553161,2.24644439495075,2.24713912647025,2.24736904578695,2.2477896911338,2.24753348420367,2.2486609716146,2.24898587411225,2.25012830235404,2.25059787973634,2.25169162981013,2.25219354985775,2.25286435554415,2.25294752309366,2.25387491258892,2.25421682487582,2.25522071785042,2.25563626856219,2.25655178342685,2.25680015013676,2.25777750315596,2.25814179730085,2.25939774397958,2.26016890608873,2.2612862527344,2.26226607872601,2.26361034785461,2.26471653176956,2.26649584072428,2.26762094257561,2.27510629671216,2.3267384086217,2.32765761006887,2.32899180960944,2.32942025004165,2.32988118965054,2.33031623306136,2.33017131198625,2.33036492264621,2.32992226319667,2.33007440589201,2.32965195998443,2.3297536181557,2.3294439842544,2.32929043081138,2.32873159861987,2.32900538599277,2.32877613514504,2.32916153232871,2.32904226218839,2.3295691791137,2.32958174399206,2.33022748897794,2.33043969279645,2.33092487049715,2.33089617473337,2.33185334781603,2.33239384246739,2.33322553082742,2.33403601999287,2.33426044949144,2.33464688826358,2.33531075878391,2.33597345519908,2.3363559581348,2.33649939554993,2.33688735312415,2.33696755934421,2.33682508089105,2.3361119914815,2.33569522187446,2.33427035226283,2.33457975774387,2.28694110006341,2.28515616841534,2.28475663865472,2.28435177467161,2.28402539351287,2.28357847823747,2.28307562149135,2.2831464793377,2.28250590485506,2.28314660823382,2.28285648141854,2.28348849031467,2.28330715055426,2.28371449758931,2.28321933797441,2.28399755041413,2.28378235090985,2.28447879434189,2.28427347295626,2.28492009679507,2.28468899953274,2.2852845339793,2.28499414436259,2.28548586798236,2.28494381299921,2.28601326643016,2.28593432559317,2.28676077018783,2.28643115655249,2.2875335556299,2.2875278171483,2.28835617725609,2.28819952235256,2.2893459682159,2.28968178106822,2.29115186524401,2.29162559441371,2.29359284533348,2.29417938187271,2.32547971658142,2.35665291553728,2.35641641149632,2.35711653173352,2.35695266420803,2.35710146039762,2.35806116546526,2.35870783182213,2.35913140312292,2.3595692375397,2.35940922190685,2.35920905145987,2.35899868166742,2.35832855199322,2.35894390317301,2.35909456597507,2.35913465108308,2.35886075645244,2.35930237611829,2.35934080885207
