2.29219590238028,2.3456654406366,2.35003559509756,2.35408646886731,2.35514408615695,2.37365238872561,2.36875342561984,2.36889311092224,2.3703598065975,2.37194623253195,2.37309364751599,2.37187638988075,2.37276438930318,2.37361247863921,2.37267459160878,2.36634884291415,2.36859378527423,2.28402431218958,2.28375491910637,2.2844034580104,2.28490233409041,2.28438350296719,2.28446332314,2.2844832781832,2.28535132256243,2.28531141247603,2.28539123264883,2.28647878250327,2.28560076060244,2.28569055829684,2.28660849028407,2.28655860267607,2.28749648970651,2.28802529835133,2.28717720901529,2.28781577039772,2.28766610757371,2.28811509604573,2.28830466895614,2.28877361247135,2.289980892585,2.28887338768736,2.28878358999295,2.28913280324897,2.28965163437218,2.29142763321705,2.29149747586825,2.28969154445859,2.29085891448583,2.29040992601381,2.29101855483143,2.29123806030664,2.29129792543624,2.29216596981547,2.29206619459947,2.29253513811469,2.29226574503148,2.29270475598189,2.29351293523152,2.29357280036113,2.29379230583633,2.29375239574993,2.29444084474036,2.29457055252116,2.29488983321237,2.29547850698679,2.29639643897403,2.29532884416279,2.29588758537241,2.29715473061565,2.29755383147967,2.29730439343966,2.29747401130687,2.2983221006429,2.2983121231213,2.29861144876931,2.30043733522217,2.29973890871015,2.29933980784613,2.30042735770057,2.30202376115663,2.30200380611343,2.30212353637263,2.30259247988785,2.30342061418068,2.30603472483998,2.30506690524474,2.30642384818239,2.30821980207045,2.31116317094256,2.31327840552184,2.39985336044816,2.40659816505,2.40630881692359,2.40733650164843,2.40793515294445,2.40811474833326,2.4091923206661,2.4093419834901,2.40989074717812,2.41025991547733,2.41099825207576,2.41175654371739,2.41371213795106,2.41085856677336,2.41048939847414,2.41073883651415,2.41194611662779,2.41330305956544,2.41398153103427,2.41339285725985,2.41376202555906,2.41441056446308,2.41400148607747,2.41705460768718,2.41932948261206,2.41565775466313,2.41819204514962,2.42181388549055,2.42200345840096,2.42073631315771,2.42634368029711,2.4093519610117,2.40957146648691,2.41918979730966,2.41393164342627,2.41645595639116,2.41841155062483,2.41890044918325,2.42122521171613,2.4230610756906,2.42259213217538,2.42263204226178,2.42251231200258,2.42234269413537,2.4230910082554,2.42202341344416,2.42211321113856,2.42233271661377,2.42434817597704,2.42430826589064,2.42380938981062,2.42645343303472,2.42493684975146,2.42437810854184,2.42491689470826,2.42571509643629,2.42568516387149,2.42487698462186,2.42556543361229,2.42572507395789,2.42565523130669,2.42516633274827,2.42559536617709,2.33484980722181,2.33354275189217,2.33261484238333,2.33011048446164,2.33120801183768,2.32760612653995,2.33341304411136,2.3289830245208,2.32991093402964,2.32949187812242,2.32852405852719,2.32854401357039,2.32945196803602,2.32999075420244,2.32933223777682,2.32917259743121,2.33128783201049,2.33034994498005,2.33234544930012,2.3317268429609,2.33242526947293,2.33668567119628
2.36663819104056,2.36707720199098,2.3678354936326,2.36887315587904,2.36958155991267,2.3705094694215,2.37119791841193,2.37154713166794,2.37177661466475,2.37154713166794,2.37248501869837,2.37358254607441,2.37155710918954,2.37422110745683,2.37437077028084,2.28626925454966,2.28566062573204,2.28416399749199,2.28566062573204,2.28486242400401,2.28392453697358,2.28378485167117,2.28556085051604,2.2844433680968,2.28422386262159,2.28597990642325,2.28615950181206,2.28473271622321,2.28568058077524,2.28555087299444,2.28610961420406,2.28653864763287,2.28615950181206,2.28680804071608,2.28638898480887,2.28706745627769,2.28662844532727,2.2874466020985,2.28757630987931,2.28796543322172,2.28837451160734,2.28828471391293,2.28806520843773,2.28829469143454,2.28866385973375,2.28823482630493,2.28968156693699,2.28943212889698,2.28975140958819,2.2902003980602,2.29037001592741,2.29203626203467,2.29127797039304,2.29110835252584,2.29239545281228,2.29088884705063,2.29143761073865,2.29210610468587,2.29262493580909,2.29342313753712,2.29313378941071,2.29415149661395,2.29396192370354,2.29328345223471,2.29438097961075,2.29484992312597,2.29546852946519,2.2956181922892,2.29574790007,2.29674565223004,2.29716470813726,2.29686538248924,2.29723455078846,2.29728443839646,2.29863140381251,2.2982921680781,2.29897063954692,2.29954933579974,2.30035751504937,2.29975886375335,2.30374987239349,2.30219337902384,2.30302151331667,2.30351041187508,2.30827966720006,2.30693270178401,2.30752137555843,2.30989602569931,2.39940437197614,2.40070144978419,2.40217812298104,2.40156949416342,2.40419358234432,2.40501173911554,2.40523124459075,2.40584985092997,2.4065682324852,2.41050935351734,2.41185631893339,2.41172661115259,2.40872337715088,2.40917236562289,2.40962135409491,2.41009029761013,2.40916238810129,2.41040957830134,2.4093719160549,2.41017011778293,2.41537838405832,2.41394162094787,2.41869092122964,2.41403141864227,2.41508903593191,2.41649586647756,2.41263456561822,2.41111798233496,2.42381936733222,2.41964876330327,2.41698476503598,2.41907006705045,2.42089595350332,2.41233523997021,2.40845398406767,2.41406135120707,2.41500921575911,2.41343276734625,2.41502917080231,2.41469991258949,2.41467995754629,2.41546818175272,2.41613667569995,2.42552552352588,2.41715438290318,2.41748364111599,2.4176432814616,2.4204768975961,2.41931950509046,2.42250233448098,2.41923968491766,2.42089595350332,2.42221298635457,2.42576498404429,2.42458763649545,2.42539581574508,2.4230710532122,2.42384929989702,2.4231907834714,2.4258747367819,2.42549559096108,2.42546565839628,2.42633370277551,2.42568516387149,2.42527608548588,2.42493684975146,2.42576498404429,2.42579491660909,2.33396180779938,2.33244522451613,2.3317667530473,2.33299398820415,2.33350284180577,2.33027012480725,2.32787551962316,2.32928235016881,2.329002979564,2.32907282221521,2.32850410348399,2.32809502509837,2.33067920319286,2.32990095650804,2.33002068676724,2.32953178820882,2.33028010232885,2.33184657322011,2.33120801183768,2.3315771801369
2.36558057375092,2.36667810112696,2.36675792129976,2.36720690977178,2.36861374031743,2.36942191956706,2.37081877259111,2.37275441178158,2.37424106250003,2.37515899448727,2.37019018873029,2.37467009592885,2.37209589535596,2.37103827806632,2.37347279333681,2.28553091795124,2.28680804071608,2.28336579576396,2.28265739173033,2.28339572832876,2.28306647011595,2.28389460440878,2.28411410988398,2.28380480671437,2.28401433466798,2.28414404244879,2.28436354792399,2.28490233409041,2.2846528960504,2.2845830533992,2.28506197443602,2.28504201939282,2.28589010872885,2.28601981650965,2.28565064821044,2.28562071564564,2.28588013120725,2.28647878250327,2.28761621996571,2.29164713869226,2.28712732140729,2.28752642227131,2.28786565800572,2.28803527587293,2.28850421938814,2.28798538826492,2.28884345512255,2.290080667801,2.28918269085697,2.28834457904254,2.28958179172098,2.28994098249859,2.28965163437218,2.28968156693699,2.29098862226663,2.2901604879738,2.29062943148902,2.29121810526344,2.29151743091145,2.29166709373546,2.29224578998828,2.29488983321237,2.29345307010192,2.29342313753712,2.29371248566353,2.2929941041083,2.29476012543157,2.29441091217556,2.29495967586357,2.29496965338518,2.2955184170732,2.29596740554521,2.29682547240284,2.29692524761885,2.29734430352606,2.29897063954692,2.29965908853735,2.29998834675016,2.30087634617259,2.29999832427176,2.30273216519026,2.30307140092467,2.30325099631347,2.30427868103831,2.30568551158396,2.39768823826088,2.39655080079844,2.39910504632813,2.39899529359053,2.39805740656009,2.4010207304754,2.40313596505468,2.40337542557309,2.40392418926111,2.40268697658266,2.40453281807873,2.40462261577313,2.40561039041157,2.40840409645967,2.40414369473631,2.40265704401786,2.40982090452692,2.40722674891082,2.40996058982932,2.40976103939732,2.40838414141647,2.40667798522281,2.41225541979741,2.41225541979741,2.41192616158459,2.40466252585953,2.40473236851073,2.31383714673146,2.41169667858779,2.31248020379381,2.31398680955546,2.31660092021476,2.31324847295704,2.31561314557632,2.31537368505791,2.40690746821961,2.41227537484061,2.4094218036629,2.41398153103427,2.41115789242137,2.41613667569995,2.41371213795106,2.41544822670952,2.41530854140712,2.41459015985189,2.41387177829666,2.41427087916068,2.41563779961993,2.41541829414472,2.41593712526794,2.41860112353523,2.4175235512024,2.41847141575443,2.41842152814643,2.41727411316239,2.41894035926965,2.41958889817367,2.41982835869208,2.41984831373528,2.4203870999017,2.42439806358504,2.42279168260739,2.42551554600428,2.42089595350332,2.42534592813708,2.42969612755483,2.42466745666825,2.42287150278019,2.42336040133861,2.42334044629541,2.42163429010174,2.42331051373061,2.42193361574976,2.41979842612728,2.33183659569851,2.33258490981853,2.33061933806326,2.32926239512561,2.32823471040078,2.32799524988237,2.32699749772233,2.32836441818158,2.32791542970956,2.33062931558486,2.32841430578958,2.33029007985045,2.32985106890003,2.3289431144344,2.32997079915924,2.33057942797686,2.33139758474809
2.36591980948533,2.36573023657493,2.36603953974454,2.36670803369176,2.36810488671581,2.3677157633734,2.3675960331142,2.36737652763899,2.36851396510143,2.36800511149981,2.36720690977178,2.36857383023103,2.37112807576072,2.36441320372368,2.36719693225018,2.28487240152561,2.28258754907913,2.2818691675239,2.2816995496567,2.28218844821511,2.28191905513191,2.28267734677353,2.28299662746474,2.28285694216234,2.28222835830152,2.28281703207594,2.28331590815596,2.28348552602316,2.28358530123917,2.28297667242154,2.2844832781832,2.28427375022959,2.28433361535919,2.2844234130536,2.28446332314,2.28435357040239,2.28508192947922,2.28492228913361,2.28607968163926,2.28565064821044,2.28549100786483,2.28505199691442,2.28676813062968,2.28714727645049,2.28650871506807,2.28804525339453,2.28688786088888,2.2874565796201,2.28815500613213,2.28775590526812,2.28785568048412,2.28802529835133,2.28829469143454,2.28840444417214,2.28873370238495,2.28960174676418,2.28894323033856,2.29037999344901,2.29031015079781,2.29084893696423,2.29119815022024,2.29181675655946,2.29154736347625,2.29140767817385,2.29244534042028,2.29340318249392,2.29304399171631,2.29334331736432,2.29356282283953,2.29370250814193,2.29490978825557,2.29474017038837,2.29527895655479,2.2955882597244,2.29604722571801,2.29690529257565,2.29755383147967,2.29821234790529,2.29998834675016,2.29982870640455,2.30284191792786,2.30296164818706,2.30574537671356,2.39720931722406,2.39709956448646,2.39428590339516,2.39698981174886,2.39682019388165,2.39772814834728,2.39875583307212,2.40037219157138,2.40000302327216,2.40066153969779,2.40198855007064,2.40157947168502,2.40234774084825,2.40155951664182,2.40234774084825,2.40029237139857,2.40260715640986,2.40305614488187,2.40252733623706,2.40066153969779,2.40117039329941,2.40602944631878,2.40746620942923,2.40425344747392,2.40683762556841,2.31007562108812,2.31000577843692,2.30927741936009,2.30873863319367,2.30869872310727,2.31135274385297,2.31024523895533,2.30979625048331,2.31257000148821,2.31067427238414,2.31581269600833,2.31305890004663,2.31409656229307,2.31415642742267,2.31535373001471,2.32018285046929,2.34092611787643,2.39310855584631,2.41366225034306,2.40996058982932,2.41516885610471,2.41174656619579,2.41453029472229,2.41433074429028,2.41379195812386,2.4148296203703,2.41413119385827,2.41559788953353,2.41280418348543,2.41331303708704,2.4149792831943,2.41542827166632,2.41533847397192,2.41906008952885,2.41648588895596,2.41823195523602,2.41870089875124,2.41884058405364,2.41870089875124,2.41743375350799,2.41856121344883,2.41356247512705,2.42233271661377,2.42106557137052,2.42082611085212,2.42566520882829,2.42255222208898,2.42061658289851,2.41960885321687,2.41795258463121,2.4204369875097,2.42022745955609,2.33362257206497,2.3316969103961,2.33060936054166,2.32942203547122,2.33017034959125,2.32786554210156,2.32796531731757,2.32872360895919,2.32732675593514,2.32794536227437,2.32855399109199,2.32820477783597,2.32745646371595,2.32858392365679,2.32975129368403,2.32967147351123
2.36433338355088,2.3649819224549,2.36748628037659,2.36429347346448,2.36686767403737,2.367625965679,2.36639873052215,2.36622911265495,2.3648921247605,2.36455288902609,2.36720690977178,2.36825454953982,2.36153967750278,2.36720690977178,2.28505199691442,2.28271725685993,2.28230817847432,2.28232813351752,2.28253766147113,2.28275716694634,2.28198889778311,2.28114080844708,2.28139024648709,2.28110089836068,2.28213856060711,2.28241793121192,2.2818392349591,2.28194898769671,2.28311635772395,2.28253766147113,2.28287689720554,2.28317622285355,2.28417397501359,2.28361523380397,2.28346557097996,2.28360525628237,2.28420390757839,2.28425379518639,2.28520165973842,2.28416399749199,2.28574044590484,2.28664840037048,2.28574044590484,2.28641891737367,2.28573046838324,2.28606970411765,2.28640893985207,2.28706745627769,2.28712732140729,2.2873468268825,2.28699761362649,2.28777586031132,2.28767608509531,2.28803527587293,2.28814502861053,2.28926251102977,2.28899311794656,2.28920264590017,2.29368255309873,2.28983122976099,2.29057954388102,2.29059949892422,2.29105846491783,2.29103850987463,2.29164713869226,2.29314376693231,2.2927646211115,2.29463041765076,2.29335329488592,2.29379230583633,2.29449073234836,2.29381226087953,2.29469028278037,2.29621684358522,2.29733432600446,2.29771347182527,2.29733432600446,2.30134528968781,2.30154484011981,2.30224326663184,2.30652362339839,2.395363475728,2.39451538639197,2.39477480195358,2.3954931835088,2.39508410512319,2.3955330935952,2.39673039618725,2.3981671592977,2.40030234892017,2.4010007754322,2.39792769877929,2.3982070693841,2.39743880022087,2.39888554085292,2.39859619272651,2.39859619272651,2.39943430454094,2.39966378753775,2.40033228148498,2.39859619272651,2.40035223652818,2.40047196678738,2.40065156217619,2.3068429040896,2.3066932412656,2.30615445509918,2.30648371331199,2.30844928506726,2.30607463492638,2.30626420783678,2.30633405048799,2.3067930164816,2.30678303896,2.30697261187041,2.30900802627688,2.3095468124433,2.30934726201129,2.30998582339372,2.31204119284339,2.31178177728178,2.3149446516291,2.31121305855056,2.3122606983186,2.31399678707706,2.31581269600833,2.40735645669163,2.41037964573654,2.41233523997021,2.40822450107086,2.41548813679592,2.40885308493168,2.40626890683719,2.40882315236688,2.41046944343094,2.41035969069334,2.41051933103894,2.41034971317174,2.41170665610939,2.41293389126623,2.41189622901979,2.41432076676868,2.41349263247585,2.41449038463589,2.42098575119772,2.42014763938329,2.41946916791447,2.41259465553182,2.4121556445814,2.4121356895382,2.41088849933816,2.40986081461332,2.41714440538158,2.41892040422645,2.412165622103,2.41345272238945,2.41878071892404,2.41893038174805,2.41866098866484,2.41914988722325,2.42011770681849,2.33577771673065,2.33093861875447,2.32932226025521,2.32815489022797,2.32707731789513,2.32643875651271,2.32649862164231,2.32588001530309,2.32570041991428,2.32673808216072,2.32690770002793,2.32671812711752,2.32673808216072,2.32697754267913,2.32933223777682
2.36267711496522,2.36268709248682,2.36453293398288,2.36417374320527,2.36365491208205,2.36656834838936,2.36347531669325,2.36342542908524,2.36650848325976,2.3650517651061,2.36086120603395,2.36705724694778,2.35819720776666,2.3621183737556,2.28350548106636,2.28325604302635,2.2819090776103,2.28214853812871,2.28234808856072,2.28119069605508,2.28062197732386,2.28258754907913,2.28064193236706,2.28131042631428,2.2818292574375,2.28132040383588,2.28118071853348,2.28161972948389,2.28371500901997,2.28196894273991,2.28218844821511,2.28191905513191,2.28234808856072,2.28394449201678,2.28269730181673,2.28342566089356,2.28362521132557,2.28342566089356,2.28384471680077,2.28427375022959,2.28429370527279,2.2845830533992,2.2846828286152,2.28441343553199,2.2844433680968,2.28521163726002,2.28531141247603,2.28551096290803,2.28581028855605,2.28579033351284,2.2873667819257,2.28581028855605,2.28631914215766,2.28648876002487,2.28843437673694,2.28794547817852,2.28832462399934,2.28933235368097,2.28848426434494,2.28879356751455,2.28866385973375,2.28942215137538,2.2901405329306,2.29053963379462,2.29143761073865,2.29055958883782,2.29033010584101,2.29317369949711,2.29195644186187,2.29184668912426,2.29330340727792,2.295598237246,2.29548848450839,2.29665585453564,2.29760371908767,2.29809261764609,2.30137522225261,2.30179427815982,2.36816475184542,2.39347772414553,2.39333803884312,2.39224051146708,2.39219062385908,2.39386684748794,2.39659071088484,2.39779799099848,2.39396662270395,2.39414621809275,2.39462513912957,2.39531358812,2.39460518408637,2.39584239676481,2.39479475699678,2.39494441982078,2.39639116045283,2.39514397025279,2.39706963192166,2.3953435206848,2.39498432990718,2.39581246420001,2.39568275641921,2.39794765382249,2.30607463492638,2.30415895077911,2.3039893329119,2.30422879343031,2.30415895077911,2.30351041187508,2.30428865855991,2.30578528679997,2.30503697267994,2.30591499458077,2.30540614097915,2.30511679285274,2.30618438766398,2.30551589371676,2.30532632080635,2.30606465740478,2.30862888045607,2.30641387066079,2.30783067872804,2.30902798132008,2.30885836345288,2.30970645278891,2.31045476690893,2.31113323837776,2.3122407432754,2.31321854039223,2.39804742903849,2.41036966821494,2.40492194142114,2.41008032008853,2.40667798522281,2.40560041288997,2.40592967110278,2.40991070222132,2.41060912873335,2.40794513046605,2.40913245553649,2.40952157887891,2.41087852181656,2.41147717311258,2.41081865668695,2.41109802729176,2.41151708319898,2.41179645380379,2.41181640884699,2.4120458918438,2.41150710567738,2.41065901634135,2.40883312988848,2.40865353449968,2.41007034256693,2.40950162383571,2.41008032008853,2.41112795985657,2.42143473966974,2.41851132584083,2.42256219961058,2.42216309874656,2.41651582152076,2.41451033967909,2.33337313402496,2.33253502221053,2.32950185564402,2.32826464296558,2.32936217034162,2.32828459800878,2.32557071213348,2.32788549714476,2.3260197006055,2.32689772250633,2.32825466544398,2.32810500261997,2.32667821703112,2.32658841933672
2.35999316165472,2.36190884580199,2.3621183737556,2.36140996972197,2.36140996972197,2.36140996972197,2.36168934032678,2.3621682613636,2.3622381040148,2.36124035185477,2.36127028441957,2.36196871093159,2.35971379104991,2.35798767981305,2.28407419979758,2.2819090776103,2.28218844821511,2.28163968452709,2.2816795946135,2.2818991000887,2.28119069605508,2.28068184245346,2.28107096579587,2.28129047127108,2.28112085340388,2.28075168510466,2.28085146032067,2.28093128049347,2.28159977444069,2.28132040383588,2.28281703207594,2.28267734677353,2.28220840325832,2.28267734677353,2.28389460440878,2.28262745916553,2.28413406492718,2.28332588567756,2.28361523380397,2.28375491910637,2.28360525628237,2.28408417731918,2.28416399749199,2.28437352544559,2.28486242400401,2.28500210930642,2.2844932557048,2.28491231161201,2.28528147991123,2.28539123264883,2.28593001881525,2.28589010872885,2.28662844532727,2.28604974907445,2.2874665571417,2.28779581535452,2.28780579287612,2.28806520843773,2.28847428682334,2.28919266837857,2.28837451160734,2.28931239863777,2.28909289316256,2.29207617212107,2.29167707125706,2.29229567759628,2.29045981362181,2.29162718364906,2.29218592485868,2.29357280036113,2.29505945107958,2.29472021534517,2.29776335943328,2.29792299977888,2.29756380900127,2.29865135885571,2.30451814155672,2.38947673798378,2.39294891550071,2.39496437486398,2.3899057714126,2.39104320887504,2.39147224230386,2.39289902789271,2.39154208495506,2.39175161290867,2.39156203999826,2.39162190512786,2.39232033163989,2.39346774662393,2.39222055642388,2.39125273682865,2.39464509417277,2.39283916276311,2.39219062385908,2.39306864575991,2.39324824114872,2.39348770166713,2.39556302616,2.39313848841112,2.39197111838387,2.30312128853267,2.30271221014705,2.30172443550862,2.30192398594063,2.30213351389423,2.30162466029262,2.30289180553586,2.30293171562226,2.30284191792786,2.30377980495829,2.30248272715025,2.30347050178868,2.30430861360311,2.30473764703193,2.3038995352175,2.30424874847351,2.30550591619516,2.30513674789594,2.30840937498086,2.30590501705917,2.3068429040896,2.30855903780487,2.31060442973294,2.30782070120644,2.30997584587212,2.30995589082892,2.31157224932817,2.31181170984658,2.40758593968844,2.40682764804681,2.40567025554117,2.40518135698275,2.40467250338113,2.40633874948839,2.40584985092997,2.40669794026601,2.40515142441795,2.40576005323557,2.40690746821961,2.4066081425716,2.40818459098446,2.41322323939264,2.40727663651883,2.40888301749648,2.40873335467248,2.40984085957012,2.41171663363099,2.40984085957012,2.41039960077974,2.41011025265333,2.40915241057969,2.40908256792849,2.4092721408389,2.40913245553649,2.41854125840563,2.41374207051586,2.41632624861035,2.41806233736882,2.41663555177996,2.41664552930156,2.41467995754629,2.41610674313514,2.41514890106151,2.33264477494813,2.33025016976405,2.32692765507113,2.32568046487108,2.32565053230628,2.32376478072381,2.32396433115582,2.32403417380702,2.32555075709028,2.32636891386151,2.32500199340226,2.32538113922307
2.35881581410588,2.36117050920356,2.35810741007225,2.36026255473793,2.36259729479241,2.36002309421952,2.35917500488349,2.3594942855747,2.36094102620676,2.36158956511078,2.36187891323719,2.36169931784838,2.36193877836679,2.284563098356,2.28283698711914,2.28158979691909,2.2818591900023,2.2817693923079,2.28131042631428,2.28040247184865,2.28254763899273,2.28125056118468,2.28210862804231,2.2817394597431,2.28156984187589,2.28127051622788,2.28116076349028,2.28135033640068,2.28135033640068,2.28206871795591,2.28159977444069,2.28214853812871,2.28263743668713,2.28208867299911,2.28283698711914,2.28291680729194,2.28341568337196,2.28281703207594,2.28320615541835,2.28376489662797,2.28469280613681,2.28417397501359,2.28432363783759,2.28429370527279,2.28474269374481,2.28423384014319,2.284662873572,2.28512183956562,2.28507195195762,2.28561073812404,2.28582026607765,2.28639896233047,2.28635905224407,2.28705747875609,2.28849424186654,2.28856408451774,2.28765613005211,2.28780579287612,2.28793550065692,2.28833460152094,2.28858403956095,2.28870376982015,2.28907293811936,2.28976138710979,2.28962170180738,2.29364264301233,2.28924255598657,2.2927745986331,2.2928643963275,2.29340318249392,2.29394196866034,2.29588758537241,2.30104596403979,2.29858151620451,2.30008812196616,2.38464761752921,2.38535602156284,2.38533606651963,2.38750118870691,2.38875835642856,2.38888806420936,2.38915745729257,2.38964635585099,2.39005543423661,2.39059422040302,2.39059422040302,2.39018514201741,2.39454531895677,2.39571268898401,2.38953660311339,2.3899357039774,2.3897860411534,2.38965633337259,2.38941687285418,2.39075386074863,2.39108311896144,2.39528365555519,2.39775808091208,2.39223053394548,2.30201378363503,2.30208362628623,2.30290178305746,2.301215581907,2.30053711043818,2.30000830179336,2.3011058291694,2.30221333406704,2.30138519977421,2.30229315423984,2.30194394098383,2.30207364876463,2.30261243493105,2.30240290697744,2.30287185049266,2.30300155827347,2.30508686028794,2.30445827642712,2.30468775942393,2.3039194902607,2.30631409544478,2.30614447757758,2.3066533311792,2.30532632080635,2.30575535423516,2.30902798132008,2.30649369083359,2.30775085855524,2.3096366101377,2.31096362051055,2.31171193463058,2.40755600712364,2.40893290510449,2.40873335467248,2.40709704113002,2.40293641462267,2.40341533565949,2.40360490856989,2.40266702153946,2.40492194142114,2.4036647736995,2.40555052528196,2.40540086245796,2.40548068263076,2.40632877196679,2.40706710856522,2.41248490279421,2.40893290510449,2.40979097196212,2.41004041000213,2.40951160135731,2.41022000539093,2.40964130913811,2.41095834198936,2.41262458809662,2.41227537484061,2.41236517253501,2.41335294717345,2.41353254256225,2.41799249471761,2.41433074429028,2.41521874371271,2.4149892607159,2.4148994630215,2.4149493506295,2.41442054198468,2.33095857379767,2.32713718302474,2.32656846429352,2.32542104930947,2.32510176861826,2.32434347697664,2.32419381415263,2.32421376919583,2.32505188101026,2.32463282510305,2.32320603951419
2.35791783716185,2.35700988269621,2.35754866886263,2.35828700546106,2.35818723024506,2.35778812938104,2.35822714033146,2.35805752246425,2.35765842160024,2.36392430516526,2.36129023946277,2.35864619623867,2.36051199277794,2.28410413236238,2.28240795369032,2.28198889778311,2.28163968452709,2.28153990931109,2.28137029144388,2.28138026896549,2.28097119057987,2.28075168510466,2.28102107818787,2.28161972948389,2.28478260383121,2.28157981939749,2.28132040383588,2.28196894273991,2.28200885282631,2.2817195046999,2.28268732429513,2.28209865052071,2.28303653755115,2.28233811103912,2.28269730181673,2.28228822343112,2.28308642515915,2.28360525628237,2.28403428971118,2.28324606550475,2.28275716694634,2.28376489662797,2.28532138999763,2.28433361535919,2.28421388509999,2.2844932557048,2.28490233409041,2.28548103034323,2.28558080555924,2.28574044590484,2.28577037846964,2.28629918711446,2.28598988394485,2.28676813062968,2.28712732140729,2.2873967144905,2.28755635483611,2.28760624244411,2.28814502861053,2.28871374734175,2.28882350007935,2.28885343264416,2.28952192659138,2.29052965627302,2.29043985857861,2.29050970122981,2.29266484589549,2.29308390180271,2.2928444412843,2.29470026030197,2.29597738306681,2.29754385395807,2.3816044734411,2.37805247575137,2.3817242037003,2.38209337199952,2.38394919101719,2.3843183593164,2.38540590917084,2.38654334663328,2.38793022213573,2.38779053683332,2.38838918812935,2.38940689533258,2.38869849129896,2.38771071666052,2.38954658063499,2.38975610858859,2.38969624345899,2.38969624345899,2.38900779446857,2.39089354605104,2.38840914317255,2.39160195008466,2.38904770455497,2.3898558838046,2.39108311896144,2.39206091607828,2.30071670582698,2.3011257842126,2.30064686317578,2.29934978536773,2.29911032484932,2.29970897614535,2.29980875136135,2.30094618882379,2.3010958516478,2.301265469515,2.301165694299,2.30076659343499,2.30057702052458,2.30048722283017,2.30268227758225,2.30192398594063,2.30245279458545,2.30158475020621,2.30544605106555,2.3040691530847,2.3040791306063,2.30429863608151,2.30313126605427,2.30507688276634,2.30562564645436,2.3066633087008,2.30737171273442,2.3067930164816,2.30744155538563,2.3068029940032,2.30840937498086,2.31078402512175,2.39885560828812,2.39864608033451,2.39869596794252,2.39847646246731,2.39864608033451,2.39936446188974,2.40280670684187,2.40233776332665,2.40228787571865,2.40317587514108,2.40191870741943,2.40556050280356,2.40297632470907,2.40408382960671,2.40514144689635,2.4064285471828,2.40694737830601,2.40856373680527,2.40863357945648,2.40693740078441,2.41307357656864,2.4094018486197,2.40917236562289,2.41138737541817,2.40968121922451,2.41049937599574,2.41193613910619,2.41191618406299,2.41222548723261,2.41192616158459,2.41244499270781,2.41309353161184,2.4148296203703,2.41319330682784,2.41232526244861,2.41248490279421,2.32819480031437,2.32649862164231,2.32633898129671,2.32415390406623,2.32487228562145,2.323385634903,2.32275705104218,2.32261736573977,2.323485410119,2.32302644412539
2.35761851151384,2.35555316454256,2.3566706469618,2.35838678067706,2.36074147577475,2.35599217549298,2.3567305120914,2.35651100661619,2.35759855647063,2.35488467059534,2.35614183831698,2.35511415359215,2.35572278240977,2.28273721190313,2.28219842573671,2.28276714446794,2.28251770642793,2.2816696170919,2.28129047127108,2.28226826838792,2.28103105570947,2.28142017905189,2.28130044879268,2.28029271911105,2.28090134792867,2.28141020153029,2.28108094331748,2.28123060614148,2.28206871795591,2.2816696170919,2.28196894273991,2.28150997674629,2.2816496620487,2.28194898769671,2.28288687472714,2.28295671737834,2.28294673985674,2.28286691968394,2.28338575080716,2.28315626781035,2.28374494158477,2.28398440210318,2.28407419979758,2.28437352544559,2.2846429185288,2.28436354792399,2.28497217674161,2.28490233409041,2.28533136751923,2.28554089547284,2.28559078308084,2.28638898480887,2.2873867369689,2.28667833293528,2.28765613005211,2.28704750123449,2.2873867369689,2.28772597270331,2.28853415195294,2.28932237615937,2.28948201650498,2.28970152198019,2.29044983610021,2.29123806030664,2.29134781304425,2.29220587990188,2.29420138422195,2.29457055252116,2.29469028278037,2.29497963090678,2.37644609477371,2.38101579966668,2.38202352934832,2.38140492300909,2.38262218064434,2.38206343943472,2.38327071954836,2.3842584941868,2.38500680830682,2.38496689822042,2.38539593164924,2.38492698813402,2.38610433568286,2.38628393107167,2.38652339159008,2.38618415585567,2.38642361637407,2.38746127862051,2.38747125614211,2.38745130109891,2.38849894086695,2.39083368092143,2.39094343365904,2.38553561695164,2.38636375124447,2.39289902789271,2.39216069129428,2.30030762744137,2.29930987528133,2.29882097672291,2.29981872888295,2.2984118983373,2.2984118983373,2.29868129142051,2.30000830179336,2.29940965049734,2.29991850409895,2.29952938075654,2.30029764991977,2.29944956058374,2.29922007758693,2.30101603147499,2.30059697556778,2.30089630121579,2.30197387354863,2.30208362628623,2.30482744472633,2.30300155827347,2.30271221014705,2.30267230006065,2.30274214271186,2.30494717498554,2.30450816403512,2.3040791306063,2.30629414040158,2.30554582628156,2.30776083607684,2.312150945581,2.31007562108812,2.31125296863696,2.31108335076976,2.39911502384973,2.39752859791527,2.39684014892485,2.3981970918625,2.39485462212638,2.39467502673757,2.40230783076185,2.40489200885634,2.40064158465459,2.40120032586421,2.40028239387697,2.40130010108021,2.4009708428674,2.40306612240347,2.40150962903382,2.40201848263544,2.40199852759224,2.40289650453627,2.40274684171226,2.406548277442,2.40864355697808,2.40557048032516,2.40552059271716,2.4066280976148,2.40601946879718,2.40759591721004,2.40851384919727,2.40887303997488,2.40998054487252,2.41044948838774,2.41007034256693,2.41169667858779,2.41224544227581,2.41173658867419,2.41109802729176,2.41150710567738,2.41369218290786,2.32828459800878,2.32517161126947,2.32454302740864,2.32241781530777,2.32276702856378,2.323235972079,2.32281691617178,2.32259741069657
2.35539352419696,2.35458534494733,2.35509419854894,2.35453545733932,2.35449554725292,2.35500440085454,2.35546336684816,2.35416628904011,2.35210094206884,2.35307873918567,2.35368736800329,2.35420619912651,2.35607199566578,2.28376489662797,2.28211860556391,2.2817095271783,2.28409415484078,2.28106098827427,2.28061199980226,2.28145011161669,2.28106098827427,2.28080157271266,2.28098116810147,2.28091132545027,2.28126053870628,2.28302656002954,2.28113083092548,2.28136031392229,2.28120067357668,2.28110089836068,2.28130044879268,2.2816496620487,2.28153990931109,2.28200885282631,2.28242790873352,2.28210862804231,2.28247779634153,2.28336579576396,2.28319617789675,2.28348552602316,2.28408417731918,2.28417397501359,2.28407419979758,2.2844433680968,2.28478260383121,2.2845231882696,2.28490233409041,2.2846229634856,2.28540121017043,2.28668831045688,2.28623932198486,2.28654862515447,2.28697765858329,2.28697765858329,2.2873867369689,2.28786565800572,2.28772597270331,2.28832462399934,2.28854412947454,2.28915275829217,2.28966161189378,2.29146754330345,2.29159725108425,2.29119815022024,2.29219590238028,2.29348300266672,2.29486987816917,2.29677558479484,2.37279432186798,2.37650595990332,2.37853139678819,2.37850146422339,2.37900034030341,2.3844879771836,2.38248249534193,2.38213328208592,2.38249247286353,2.38393921349558,2.38336051724276,2.38394919101719,2.38465759505081,2.38331062963476,2.38395916853879,2.38500680830682,2.38627395355007,2.38495692069882,2.38667305441408,2.38475737026681,2.38600456046686,2.38631386363647,2.38534604404124,2.38604447055326,2.38800006478693,2.38673291954369,2.38877831147176,2.29945953810534,2.2984218758589,2.29907041476292,2.29827221303489,2.29822232542689,2.29824228047009,2.30029764991977,2.29761369660927,2.29783320208448,2.29814250525409,2.29948947067014,2.29810259516769,2.30160470524941,2.30006816692296,2.30033756000617,2.29967904358055,2.29952938075654,2.30040740265737,2.29957926836454,2.29944956058374,2.30046726778697,2.29993845914216,2.30146501994701,2.30177432311662,2.30281198536306,2.30338070409428,2.30541611850075,2.30819984702725,2.30361018709109,2.30626420783678,2.30757126316643,2.30556578132476,2.30628416287998,2.30576533175677,2.31148245163377,2.31185161993298,2.401080595605,2.3982370019489,2.39768823826088,2.3953734532496,2.39515394777439,2.39445552126236,2.39561291376801,2.39989327053456,2.39695987918405,2.39936446188974,2.40282666188507,2.39970369762415,2.39965381001615,2.40019259618257,2.40048194430898,2.40135996620981,2.40176904459543,2.40208832528664,2.40231780828345,2.40202846015704,2.40405389704191,2.40401398695551,2.40353506591869,2.40525119963395,2.4064684572692,2.40572014314917,2.40578998580037,2.40724670395403,2.40774558003404,2.40886306245328,2.40889299501808,2.4120359143222,2.41105811720536,2.41098827455416,2.41148715063418,2.41157694832858,2.41188625149819,2.41242503766461,2.32716711558954,2.32497206083746,2.32261736573977,2.32526140896387,2.3234554775542,2.32241781530777,2.32279696112858
2.35213087463364,2.35175172881282,2.35188143659363,2.35271954840806,2.35201114437443,2.35251999797605,2.35330822218248,2.35351775013609,2.35317851440168,2.35331819970408,2.35125285273281,2.35083379682559,2.35117303256,2.28216849317191,2.28159977444069,2.28279707703274,2.28066188741026,2.28077164014786,2.28084148279907,2.28004328107104,2.28067186493186,2.28094125801507,2.28072175253986,2.28075168510466,2.28123060614148,2.28117074101188,2.28122062861988,2.28151995426789,2.28106098827427,2.28196894273991,2.28212858308551,2.28147006665989,2.28266736925193,2.28210862804231,2.28319617789675,2.28229820095272,2.28221838077992,2.28273721190313,2.28338575080716,2.28428372775119,2.28430368279439,2.28420390757839,2.2844533456184,2.2845930309208,2.2844034580104,2.28486242400401,2.28470278365841,2.28526152486803,2.28554089547284,2.28562071564564,2.28576040094804,2.28668831045688,2.28693774849689,2.28792552313532,2.28799536578652,2.28786565800572,2.28797541074332,2.28878358999295,2.28913280324897,2.290030780193,2.29106844243943,2.29036003840581,2.29158727356265,2.29404174387634,2.29315374445391,2.29541864185719,2.29704497787805,2.37198614261835,2.37357256855281,2.3788706325226,2.37854137430979,2.37850146422339,2.37759350975776,2.37925975586502,2.38057678871626,2.38108564231788,2.3816643385707,2.3815545858331,2.38269202329554,2.38250245038513,2.38175413626511,2.38347026998037,2.38327071954836,2.38224303482352,2.38258227055794,2.38242263021233,2.38312105672436,2.38340042732917,2.38252240542833,2.38269202329554,2.38341040485077,2.3872018630589,2.38819961521894,2.29990852657735,2.29876111159331,2.29898061706852,2.29794295482208,2.29775338191168,2.29703500035645,2.29743410122046,2.29813252773249,2.30137522225261,2.29897063954692,2.29898061706852,2.30159472772781,2.30145504242541,2.2984218758589,2.29902052715492,2.30009809948776,2.2983021455997,2.29891077441732,2.29900057211172,2.30095616634539,2.30061693061098,2.29906043724132,2.30160470524941,2.30137522225261,2.3011058291694,2.30150493003341,2.30355032196149,2.30299158075187,2.30479751216153,2.30340065913748,2.30289180553586,2.3040092879551,2.30335077152948,2.30444829890552,2.30651364587679,2.30577530927837,2.30777081359844,2.30914771157929,2.30992595826411,2.39950414719215,2.39795763134409,2.39718936218086,2.39663062097124,2.3953534982064,2.39484464460478,2.39511403768799,2.39513399273119,2.3981072941681,2.39718936218086,2.39714945209446,2.39719933970246,2.3982370019489,2.39803745151689,2.40135996620981,2.39999304575056,2.40049192183058,2.40084113508659,2.40010279848817,2.4010107529538,2.40339538061629,2.40135996620981,2.40257722384506,2.40278675179866,2.40521128954755,2.40462261577313,2.40585982845158,2.4064884123124,2.40724670395403,2.40682764804681,2.40912247801489,2.40832427628686,2.4092721408389,2.40951160135731,2.40888301749648,2.40908256792849,2.40971115178931,2.40984085957012,2.32479246544865,2.32414392654463,2.32298653403899,2.32396433115582,2.32173934383894,2.32144001819093
2.3510932123872,2.35001564005436,2.3510133922144,2.35258984062725,2.35287918875366,2.35139253803521,2.35023514552957,2.3512129426464,2.35179163889923,2.35042471843998,2.35155217838082,2.35268961584326,2.35286921123206,2.28208867299911,2.28245784129832,2.28130044879268,2.28069181997506,2.28053217962945,2.28090134792867,2.28099114562307,2.27999339346304,2.28025280902464,2.28087141536387,2.28064193236706,2.28030269663265,2.28023285398144,2.28096121305827,2.2818591900023,2.28073173006146,2.28095123553667,2.28111087588228,2.28273721190313,2.28156984187589,2.28147006665989,2.28245784129832,2.28142017905189,2.28222835830152,2.28224831334472,2.28209865052071,2.28312633524555,2.28310638020235,2.28376489662797,2.28485244648241,2.28478260383121,2.28438350296719,2.28378485167117,2.28503204187122,2.28531141247603,2.28590008625045,2.28519168221682,2.28648876002487,2.2874665571417,2.28676813062968,2.2873767594473,2.28782574791932,2.28803527587293,2.28832462399934,2.28892327529536,2.28985118480419,2.29211608220747,2.29075913926982,2.29175689142986,2.29513927125238,2.2928943288923,2.37122785097673,2.37124780601993,2.37187638988075,2.37298389477839,2.37232537835277,2.37524879218167,2.37643611725211,2.37697490341853,2.37761346480096,2.38019764289545,2.37833184635618,2.37835180139938,2.38001804750664,2.37917993569221,2.38052690110826,2.38101579966668,2.38018766537385,2.38299134894355,2.37852141926659,2.37907018295461,2.38113552992588,2.38298137142195,2.38141490053069,2.38021759793865,2.37950919390502,2.37762344232256,2.38067656393227,2.38546577430044,2.38412878640599,2.2985416061181,2.29794295482208,2.29780326951968,2.29718466318046,2.2983520332077,2.29700506779165,2.29607715828282,2.29859149372611,2.29602727067481,2.29736425856926,2.29697513522685,2.29700506779165,2.29704497787805,2.29712479805085,2.29696515770525,2.2983021455997,2.29825225799169,2.29875113407171,2.29978879631815,2.2984318533805,2.29928992023813,2.30028767239817,2.29946951562694,2.29965908853735,2.30024776231177,2.30088632369419,2.30031760496297,2.30213351389423,2.30073666087018,2.30192398594063,2.30262241245265,2.30218340150224,2.30241288449904,2.30335077152948,2.30294169314386,2.30500704011514,2.30632407296638,2.30727193751842,2.30971643031051,2.30989602569931,2.40177902211703,2.39937443941134,2.39892545093933,2.39302873567351,2.39056428783822,2.3926894999391,2.39402648783355,2.39507412760159,2.39375709475034,2.39431583595996,2.39588230685122,2.39679026131685,2.39619161002083,2.39742882269927,2.39735898004807,2.39682019388165,2.39848643998891,2.39707960944326,2.40054180943858,2.39923475410894,2.39856626016171,2.39966378753775,2.40032230396338,2.40197857254904,2.40267699906106,2.40278675179866,2.40422351490912,2.40531106476356,2.4091823431445,2.40909254545009,2.40995061230772,2.40268697658266,2.40966126418131,2.40395412182591,2.40812472585486,2.40638863709639,2.40684760309001,2.32488226314305,2.32209853461655,2.32371489311581,2.32109080493492,2.3206218614197,2.3206218614197
2.34861878703031,2.34875847233272,2.34856889942231,2.3509635046064,2.34797024812629,2.34858885446551,2.34775074265108,2.34886822507032,2.34924737089113,2.35025510057277,2.34980611210075,2.28335581824236,2.28314629028875,2.28414404244879,2.28142017905189,2.2818192799159,2.28138026896549,2.28022287645984,2.28021289893824,2.27994350585503,2.27946458481822,2.27959429259902,2.27986368568223,2.28006323611424,2.27972400037983,2.28255761651433,2.28016301133024,2.27967411277182,2.28060202228066,2.28077164014786,2.28084148279907,2.28073173006146,2.28144013409509,2.28157981939749,2.28123060614148,2.28138026896549,2.28214853812871,2.2818991000887,2.28225829086632,2.28192903265351,2.28309640268075,2.28286691968394,2.28372498654157,2.28428372775119,2.28407419979758,2.2844234130536,2.28541118769203,2.28499213178482,2.28520165973842,2.28504201939282,2.28832462399934,2.28554089547284,2.28693774849689,2.28845433178014,2.28909289316256,2.28767608509531,2.28815500613213,2.29050970122981,2.28971149950179,2.29117819517704,2.29164713869226,2.29497963090678,2.29459050756436,2.37160699679754,2.37147728901674,2.37274443425998,2.37293400717039,2.37477984866645,2.37482973627446,2.37553814030808,2.37645607229532,2.37696492589693,2.37633634203611,2.37650595990332,2.37625652186331,2.37717445385054,2.37734407171775,2.37745382445535,2.37836177892098,2.37769328497376,2.37777310514656,2.37770326249536,2.37766335240896,2.37840168900739,2.37793274549217,2.37759350975776,2.37746380197695,2.37827198122658,2.37837175644258,2.37903027286821,2.38119539505549,2.37932959851622,2.37913004808421,2.29509936116598,2.29652614675483,2.29825225799169,2.29485990064757,2.29601729315321,2.29594745050201,2.29637648393083,2.29609711332602,2.2956181922892,2.29533882168439,2.29523904646839,2.29507940612278,2.29544857442199,2.29801279747329,2.29651616923323,2.29682547240284,2.29670574214364,2.29673567470844,2.29754385395807,2.30196389602703,2.29809261764609,2.29793297730048,2.29805270755969,2.29906043724132,2.29870124646371,2.29938969545414,2.29918016750053,2.29936974041093,2.30155481764141,2.30134528968781,2.30172443550862,2.30554582628156,2.30213351389423,2.30465782685912,2.30342061418068,2.30233306432624,2.30479751216153,2.30604470236158,2.30640389313919,2.30841935250246,2.3094570147489,2.39232033163989,2.39045453510062,2.38916743481417,2.39069399561903,2.39013525440941,2.3898359287614,2.3954432959008,2.39123278178545,2.39226046651028,2.39281920771991,2.3926495898527,2.39136248956625,2.39341785901593,2.39390675757434,2.39702972183526,2.39754855295848,2.3953534982064,2.39679026131685,2.39643107053924,2.39733902500487,2.39846648494571,2.39798756390889,2.40169920194423,2.40029237139857,2.401030707997,2.40167924690102,2.40123025842901,2.40133003364501,2.40169920194423,2.40132005612341,2.40143978638262,2.40197857254904,2.40311601001148,2.40321578522748,2.40508158176675,2.40350513335389,2.40883312988848,2.40267699906106,2.32767596919116,2.32120055767252,2.32078150176531,2.31955426660846
2.34668314783984,2.34697249596625,2.34760107982707,2.34675299049104,2.34655344005904,2.34638382219183,2.34678292305584,2.34717204639826,2.34860880950871,2.34617429423822,2.34975622449275,2.34658337262384,2.2817693923079,2.28142017905189,2.28102107818787,2.28025280902464,2.28071177501826,2.27953442746942,2.28028274158945,2.28006323611424,2.27931492199421,2.27937478712381,2.27934485455901,2.27952444994782,2.28023285398144,2.27980382055263,2.28072175253986,2.28020292141664,2.27952444994782,2.27988364072543,2.28081155023427,2.28085146032067,2.28134035887908,2.28108094331748,2.28106098827427,2.28157981939749,2.28232813351752,2.28310638020235,2.28204876291271,2.28238799864712,2.28286691968394,2.28342566089356,2.28365514389037,2.28415401997039,2.28430368279439,2.28480255887441,2.2844433680968,2.2845930309208,2.28509190700082,2.28500210930642,2.28539123264883,2.28671824302168,2.28600983898805,2.28760624244411,2.2873168943177,2.28810511852413,2.28944210641858,2.28969154445859,2.29174691390826,2.2928943288923,2.29396192370354,2.2955383721164,2.37088861524231,2.37183647979435,2.37436079275924,2.37411135471923,2.37270452417358,2.373293197948,2.37394173685202,2.37410137719763,2.37352268094481,2.37492951149046,2.37442065788884,2.37475989362325,2.3761467691257,2.37564789304569,2.37563791552409,2.37581751091289,2.37700483598333,2.37772321753856,2.37652591494652,2.37696492589693,2.37684519563773,2.38010784520105,2.37809238583777,2.3759871287801,2.37643611725211,2.37898038526021,2.38080627171307,2.37925975586502,2.29793297730048,2.29654610179803,2.29780326951968,2.29579778767801,2.29518915886038,2.29652614675483,2.29510933868758,2.2955084395516,2.2956381473324,2.29492974329877,2.29545855194359,2.29545855194359,2.29514924877398,2.29540866433559,2.29476012543157,2.29641639401723,2.29660596692763,2.29546852946519,2.2957279450268,2.29715473061565,2.29725450583166,2.29871122398531,2.29813252773249,2.29963913349414,2.2985515836397,2.29706493292125,2.29787311217088,2.29821234790529,2.29868129142051,2.29882097672291,2.30025773983337,2.29886088680932,2.29996839170696,2.30008812196616,2.30099607643179,2.30160470524941,2.30175436807342,2.30262241245265,2.30358025452629,2.30331086144308,2.30592497210237,2.30610456749118,2.30740164529922,2.30906789140648,2.39168177025746,2.39158199504146,2.38628393107167,2.38745130109891,2.38736150340451,2.38890801925256,2.39009534432301,2.39200105094868,2.3900055466286,2.38943682789738,2.39070397314063,2.39196114086227,2.39159197256306,2.39333803884312,2.39174163538707,2.39881569820172,2.39883565324492,2.39462513912957,2.39775808091208,2.39667053105764,2.39523376794719,2.3954432959008,2.3983567322081,2.40231780828345,2.39976356275376,2.39924473163054,2.39998306822896,2.40058171952499,2.40158944920662,2.401080595605,2.40513146937475,2.40441308781952,2.4036448186563,2.40500176159394,2.40533101980676,2.40211825785144,2.40292643710107,2.32568046487108,2.32225817496216,2.32101098476211,2.31905539052844,2.32089125450291
2.34507676686218,2.34582508098221,2.34533618242379,2.34634391210543,2.3454259801182,2.34688269827185,2.34620422680302,2.34733168674386,2.34498696916778,2.34764098991348,2.345655463115,2.28288687472714,2.28086143784227,2.28134035887908,2.28020292141664,2.28048229202145,2.28021289893824,2.2790854389974,2.27873622574139,2.2791153715622,2.27952444994782,2.27926503438621,2.27939474216701,2.28012310124384,2.27976391046623,2.28127051622788,2.28132040383588,2.28056211219426,2.28071177501826,2.28011312372224,2.28085146032067,2.2818292574375,2.28102107818787,2.28114080844708,2.2818093023943,2.28124058366308,2.2818691675239,2.2816596395703,2.28200885282631,2.28217847069351,2.28306647011595,2.28329595311275,2.28385469432237,2.28352543610956,2.28300660498634,2.28378485167117,2.28487240152561,2.28491231161201,2.28527150238963,2.28621936694166,2.28594997385845,2.28623932198486,2.28713729892889,2.28765613005211,2.28829469143454,2.28778583783292,2.29114826261224,2.29043985857861,2.29182673408106,2.29327347471311,2.36827450458302,2.36878335818464,2.3678155385894,2.37125778354153,2.37132762619273,2.37116798584712,2.37065913224551,2.3732632653832,2.37265463656558,2.37196618757515,2.37361247863921,2.37441068036724,2.37183647979435,2.37352268094481,2.3734129282072,2.37397166941683,2.37261472647918,2.37378209650642,2.37472996105845,2.37480978123126,2.37518892705207,2.37516897200887,2.37576762330489,2.37482973627446,2.37784294779776,2.37664564520572,2.37721436393694,2.37102830054472,2.36974120025827,2.36881329074944,2.29772344934688,2.29633657384443,2.2957578775916,2.29410160900594,2.29446079978356,2.29320363206191,2.29441091217556,2.29381226087953,2.29320363206191,2.29349298018832,2.29467032773716,2.29398187874674,2.29409163148434,2.29413154157075,2.29430115943795,2.29501954099318,2.29483994560437,2.295648124854,2.29657603436283,2.29484992312597,2.29548848450839,2.2955383721164,2.29746403378527,2.29740416865566,2.29763365165247,2.29610709084762,2.29687536001084,2.29756380900127,2.29896066202532,2.29895068450372,2.2985416061181,2.29998834675016,2.2984518084237,2.30006816692296,2.29978879631815,2.30030762744137,2.3012854245582,2.30092623378059,2.30165459285742,2.30258250236625,2.30414897325751,2.30626420783678,2.30735175769122,2.30915768910089,2.31054456460334,2.38508662847963,2.38456779735641,2.38499683078522,2.38490703309082,2.38650343654688,2.3870122901485,2.3871719304941,2.38846900830215,2.38832932299974,2.3900255016718,2.38958649072139,2.38912752472777,2.389895793891,2.39087359100783,2.39085363596463,2.39203098351348,2.39593219445922,2.39369722962074,2.39658073336324,2.39323826362712,2.39431583595996,2.39718936218086,2.39690999157605,2.39601201463202,2.39800751895209,2.39926468667374,2.39895538350413,2.40170917946583,2.40128014603701,2.40202846015704,2.40438315525472,2.40460266072993,2.40433326764672,2.40513146937475,2.40707708608682,2.40690746821961,2.32319606199259,2.32389448850462,2.32119058015092,2.32116064758612,2.31962410925967
2.34335065562532,2.34387946427014,2.34681285562065,2.34482732882217,2.34607451902222,2.34396926196454,2.34305132997731,2.34308126254211,2.34216333055488,2.34312117262851,2.34354022853573,2.2817893473511,2.28021289893824,2.27999339346304,2.278895866087,2.27883600095739,2.278995641303,2.27804777675097,2.27840696752858,2.27970404533662,2.2790555064326,2.27878611334939,2.2790355513894,2.27939474216701,2.27934485455901,2.27937478712381,2.28098116810147,2.28096121305827,2.28082152775587,2.28017298885184,2.28142017905189,2.28009316867904,2.28079159519106,2.28090134792867,2.28135033640068,2.28115078596868,2.28107096579587,2.28195896521831,2.28144013409509,2.2817793698295,2.2819090776103,2.28282700959754,2.28330593063436,2.28278709951114,2.28428372775119,2.28418395253519,2.28424381766479,2.28426377270799,2.28542116521363,2.28518170469522,2.28634907472246,2.28687788336728,2.28750646722811,2.28750646722811,2.28785568048412,2.28864390469055,2.29041990353541,2.29133783552264,2.29357280036113,2.36441320372368,2.3649220573253,2.36629895530615,2.36692753916697,2.36840421236382,2.36921239161345,2.36924232417825,2.3705693345511,2.37146731149513,2.36939198700226,2.37126776106313,2.37104825558792,2.36958155991267,2.37439072532404,2.37311360255919,2.37270452417358,2.37177661466475,2.37189634492395,2.37296393973519,2.37197616509675,2.37310362503759,2.37186641235915,2.37144735645193,2.37186641235915,2.37128771610633,2.37078884002631,2.3678055610678,2.36873347057664,2.37560798295928,2.36822461697502,2.29506942860118,2.29506942860118,2.2957678551132,2.29393199113874,2.29261495828749,2.29441091217556,2.29342313753712,2.29255509315789,2.29334331736432,2.29400183378994,2.29307392428111,2.29390205857394,2.29305396923791,2.29241540785548,2.29242538537708,2.29479005799637,2.29393199113874,2.29358277788273,2.29365262053393,2.2955283945948,2.29495967586357,2.29515922629558,2.29493972082037,2.29525900151159,2.29514924877398,2.29533882168439,2.2955184170732,2.29741414617726,2.29746403378527,2.29649621419003,2.2983620107293,2.29803275251649,2.29805270755969,2.29820237038369,2.29916021245733,2.30027769487657,2.29871122398531,2.30015796461736,2.30002825683656,2.30439841129752,2.30419886086551,2.30374987239349,2.30647373579039,2.30493719746394,2.30767103838243,2.38332060715636,2.38494694317722,2.38400905614679,2.38245256277713,2.38233283251793,2.38341040485077,2.38333058467796,2.38552563943004,2.38620411089887,2.38572518986205,2.38761094144452,2.3926296348095,2.38810981752454,2.3870721552781,2.38891799677416,2.38853885095335,2.38923727746538,2.38865858121255,2.38955655815659,2.39017516449581,2.39192123077587,2.39438567861116,2.3925697696799,2.39384689244474,2.39485462212638,2.39506415007999,2.39514397025279,2.40330558292188,2.40228787571865,2.40081120252179,2.39917488897933,2.39900527111213,2.40231780828345,2.40299627975227,2.40234774084825,2.40309605496828,2.40223798811064,2.4036448186563,2.3232758821654,2.32150986084213,2.31886581761804,2.31916514326605
2.34299146484771,2.34417878991815,2.3371446371899,2.34056692709882,2.3373441876219,2.33685528906349,2.33754373805391,2.33886077090516,2.34045717436122,2.34130526369725,2.33402167292898,2.28119069605508,2.28032265167585,2.28040247184865,2.27878611334939,2.2790754614758,2.27960427012062,2.27792804649176,2.27811761940217,2.27765865340855,2.2789257986518,2.27863645052539,2.27786818136216,2.27843690009338,2.27946458481822,2.2790155963462,2.27860651796059,2.27951447242622,2.27948453986142,2.27982377559583,2.27994350585503,2.27981379807423,2.28055213467266,2.28043240441345,2.28100112314467,2.28075168510466,2.28103105570947,2.28145011161669,2.28128049374948,2.28098116810147,2.28208867299911,2.28214853812871,2.28271725685993,2.28281703207594,2.28336579576396,2.28362521132557,2.28436354792399,2.28424381766479,2.28493226665521,2.28481253639601,2.28589010872885,2.28636902976567,2.28761621996571,2.28791554561372,2.28890332025216,2.2901704654954,2.2927845761547,2.29542861937879,2.3649519898901,2.36520142793011,2.36522138297331,2.36574021409653,2.36623909017655,2.36697742677497,2.3677157633734,2.36822461697502,2.36817472936702,2.36857383023103,2.37007045847108,2.36949176221826,2.37125778354153,2.37203603022636,2.37372223137682,2.37158704175434,2.37025005385989,2.36943189708866,2.37359252359601,2.37105823310952,2.37021014377349,2.37132762619273,2.37246506365517,2.37207594031276,2.37065913224551,2.37102830054472,2.36927225674306,2.36958155991267,2.36897293109504,2.36910263887585,2.29490978825557,2.29315374445391,2.29316372197551,2.29321360958351,2.29236552024748,2.29185666664586,2.29190655425387,2.29357280036113,2.29302403667311,2.29223581246668,2.29252516059309,2.2928344637627,2.29318367701871,2.29345307010192,2.2927745986331,2.29215599229387,2.29247527298509,2.2929741490651,2.2929741490651,2.29358277788273,2.29317369949711,2.29396192370354,2.29462044012916,2.29435104704595,2.29465037269396,2.29452066491316,2.29466035021556,2.29489981073397,2.29524902398999,2.2957578775916,2.29602727067481,2.29677558479484,2.30152488507661,2.29738421361246,2.29757378652287,2.29769351678207,2.29812255021089,2.29911032484932,2.2984318533805,2.29966906605895,2.30013800957416,2.30039742513577,2.30181423320302,2.30212353637263,2.30324101879187,2.30540614097915,2.38109561983948,2.38427844923,2.38323080946196,2.3816144509627,2.3815246532683,2.38104573223148,2.38252240542833,2.38287161868435,2.38339044980756,2.38314101176756,2.38460770744281,2.384378224446,2.38601453798846,2.38533606651963,2.38683269475969,2.38777058179012,2.3871419979293,2.38807988495973,2.38878828899336,2.38786037948453,2.39030487227661,2.39062415296783,2.39109309648304,2.39123278178545,2.39173165786547,2.39367727457754,2.39298882558711,2.39319835354072,2.395463250944,2.39523376794719,2.40126019099381,2.40071142730579,2.40209830280824,2.40184886476823,2.40267699906106,2.40148967399062,2.40062162961139,2.40271690914746,2.40133003364501,2.3233557023382,2.31993341242928,2.31819732367081
2.34140503891325,2.34179416225566,2.34323092536612,2.33614688502986,2.33512917782662,2.33686526658509,2.33753376053231,2.33399174036418,2.33392189771298,2.3372543899275,2.28788561304892,2.28619941189846,2.28121065109828,2.279145304127,2.27863645052539,2.27867636061179,2.27885595600059,2.27815752948857,2.27823734966137,2.27785820384056,2.27746908049814,2.27840696752858,2.27784822631896,2.27803779922937,2.27868633813339,2.2789257986518,2.27862647300379,2.27879609087099,2.27880606839259,2.27961424764222,2.27956436003422,2.28005325859264,2.28007321363584,2.28054215715106,2.28073173006146,2.28061199980226,2.28063195484546,2.28127051622788,2.28148004418149,2.2817494372647,2.28211860556391,2.28195896521831,2.28230817847432,2.28284696464074,2.28282700959754,2.28369505397677,2.28436354792399,2.28485244648241,2.28479258135281,2.28524156982482,2.28618943437686,2.28677810815128,2.28900309546816,2.28914278077057,2.28980129719619,2.29251518307149,2.29371248566353,2.3595142406179,2.3621283512772,2.36345536165005,2.36408394551087,2.36460277663409,2.36529122562451,2.36595971957174,2.36635882043575,2.36585994435573,2.36730668498778,2.36607944983094,2.36613931496054,2.36757607807099,2.36893302100864,2.36942191956706,2.37144735645193,2.37082875011271,2.36884322331424,2.36786542619741,2.36753616798459,2.36849401005823,2.36804502158621,2.36720690977178,2.36707720199098,2.36684771899417,2.36603953974454,2.37133760371433,2.36529122562451,2.37021014377349,2.37247504117677,2.29422133926515,2.29248525050669,2.29338322745072,2.29172695886506,2.29236552024748,2.29160722860585,2.29163716117066,2.29143761073865,2.29128794791464,2.29168704877866,2.29060947644582,2.29120812774184,2.29148749834665,2.29215599229387,2.29051967875142,2.29151743091145,2.29141765569545,2.29193648681867,2.29250520554989,2.29258502572269,2.29346304762352,2.29342313753712,2.29376237327153,2.2929741490651,2.29406169891954,2.29320363206191,2.29368255309873,2.29481001303957,2.29393199113874,2.29397190122514,2.29485990064757,2.29519913638198,2.2955084395516,2.29542861937879,2.29578781015641,2.29650619171163,2.29715473061565,2.2984817409885,2.29792299977888,2.29824228047009,2.29873117902851,2.29898061706852,2.30010807700936,2.30032758248457,2.30527643319835,2.30486735481273,2.30501701763674,2.38905768207657,2.38034730571946,2.37854137430979,2.38013777776585,2.37995818237704,2.38017768785225,2.38131512531469,2.38029741811145,2.38017768785225,2.38133508035789,2.3815645633547,2.38258227055794,2.38407889879799,2.38348024750197,2.3843882019676,2.38547575182204,2.38465759505081,2.38491701061242,2.38506667343643,2.38605444807486,2.39056428783822,2.38912752472777,2.39133255700145,2.38766082905252,2.38858873856135,2.3899157489342,2.39148221982546,2.39510406016639,2.39307862328151,2.39491448725598,2.39391673509594,2.39777803595528,2.40190872989783,2.40152958407702,2.39998306822896,2.39988329301296,2.39964383249455,2.40023250626897,2.32312621934139,2.32037242337969,2.3206617715061,2.31953431156526
2.33929978185557,2.34041726427481,2.33827209713074,2.33595731211945,2.33350284180577,2.33401169540738,2.33403165045058,2.334370886185,2.33389196514818,2.33743398531631,2.28089137040707,2.27996346089823,2.28117074101188,2.278945753695,2.27781829375416,2.2790854389974,2.27821739461817,2.27752894562775,2.27802782170776,2.27810764188057,2.27979384303103,2.27796795657816,2.27779833871096,2.27775842862456,2.27807770931577,2.27833712487738,2.27850674274458,2.27881604591419,2.27969406781502,2.27960427012062,2.28070179749666,2.27998341594144,2.28065190988866,2.28068184245346,2.28064193236706,2.28107096579587,2.28081155023427,2.28074170758306,2.28099114562307,2.28226826838792,2.28193901017511,2.2819090776103,2.28306647011595,2.28344561593676,2.28354539115276,2.28354539115276,2.28354539115276,2.284612985964,2.28494224417681,2.28685792832408,2.28768606261691,2.28776588278972,2.28790556809212,2.28903302803296,2.29160722860585,2.36076143081795,2.36250749709801,2.3620684861476,2.36278686770282,2.36351522677965,2.36379459738446,2.36428349594288,2.36433338355088,2.36413383311887,2.3649918999765,2.36407396798927,2.3649320348469,2.36639873052215,2.36572025905333,2.36513158527891,2.36674794377816,2.36630893282775,2.3675960331142,2.367725740895,2.36601958470134,2.36547082101332,2.36604951726614,2.36610938239574,2.36587989939893,2.36602956222294,2.36595971957174,2.36574021409653,2.36529122562451,2.36632888787095,2.36736655011739,2.3677057858518,2.29427122687315,2.29384219344433,2.29342313753712,2.29115824013384,2.29091877961543,2.29087886952903,2.29032012831941,2.29092875713703,2.29168704877866,2.29130790295784,2.29063940901062,2.29074916174822,2.29102853235303,2.29153738595465,2.29040992601381,2.29089882457223,2.29113828509064,2.29099859978823,2.29135779056585,2.29199635194827,2.29194646434027,2.29246529546349,2.29248525050669,2.29182673408106,2.29268480093869,2.29270475598189,2.29262493580909,2.29246529546349,2.29324354214831,2.29328345223471,2.29418142917875,2.29459050756436,2.29411158652754,2.29452066491316,2.29483994560437,2.29538870929239,2.29758376404447,2.29598736058841,2.29798286490848,2.29820237038369,2.29887086433092,2.29745405626367,2.2983919432941,2.301315357123,2.30030762744137,2.3012056043854,2.30230313176144,2.30296164818706,2.38091602445068,2.38020762041705,2.37804249822977,2.37670551033532,2.37714452128574,2.37653589246812,2.37865112704739,2.37848150918019,2.37914002560581,2.38041714837066,2.37933957603782,2.38029741811145,2.3814847431819,2.38125526018509,2.38183395643791,2.38263215816594,2.38411880888439,2.38315098928916,2.38363988784757,2.3842584941868,2.38507665095803,2.38532608899803,2.38606442559646,2.38653336911168,2.3871220428861,2.38760096392292,2.38825948034854,2.38963637832939,2.39491448725598,2.3925697696799,2.39227044403189,2.39360743192633,2.39453534143517,2.39628140771523,2.39615169993442,2.39741884517767,2.39800751895209,2.39914495641453,2.39865605785612,2.32647866659911,2.31974383951887,2.31740909946439
2.33820225447954,2.33802265909073,2.33865124295155,2.33628657033227,2.33528881817223,2.33412144814499,2.33423120088259,2.33543848099624,2.3345804141386,2.33611695246506,2.28030269663265,2.27992355081183,2.27827725974777,2.27847681017978,2.27766863093015,2.27791806897016,2.27853667530938,2.27757883323575,2.27777838366776,2.27768858597335,2.27817748453177,2.27748903554135,2.27739923784694,2.27767860845175,2.27758881075735,2.27776840614616,2.27877613582779,2.27852669778778,2.278995641303,2.27947456233982,2.27879609087099,2.27958431507742,2.28054215715106,2.28001334850624,2.28008319115744,2.28021289893824,2.28025280902464,2.28067186493186,2.28126053870628,2.28096121305827,2.2817095271783,2.28245784129832,2.28194898769671,2.28299662746474,2.28283698711914,2.28375491910637,2.28391455945198,2.28478260383121,2.28572049086164,2.28831464647774,2.28718718653689,2.28861397212575,2.2902103755818,2.29164713869226,2.36055190286434,2.36038228499714,2.36114057663876,2.36171927289158,2.362258059058,2.36274695761642,2.36300637317803,2.36280682274602,2.36329572130444,2.36298641813483,2.36238776683881,2.36266713744362,2.36353518182285,2.36413383311887,2.36144987980837,2.3648721697173,2.36363495703885,2.36480232706609,2.36424358585647,2.36414381064047,2.36415378816207,2.36426354089968,2.36449302389648,2.36527127058131,2.3648721697173,2.36416376568367,2.36389437260046,2.36378461986286,2.36522138297331,2.36534111323251,2.36472250689329,2.29341316001552,2.29204623955627,2.29188659921066,2.29185666664586,2.29167707125706,2.29037001592741,2.29189657673226,2.29037001592741,2.2901904205386,2.2899609375418,2.28975140958819,2.28902305051136,2.28879356751455,2.2899509600202,2.29069927414022,2.28939221881057,2.29112830756904,2.29097864474503,2.29082898192103,2.29120812774184,2.29088884705063,2.29069927414022,2.29100857730983,2.29261495828749,2.29230565511788,2.29180677903786,2.2927745986331,2.29152740843305,2.29215599229387,2.2929541940219,2.29436102456755,2.2927646211115,2.29316372197551,2.29360273292593,2.29357280036113,2.29385217096594,2.2955782822028,2.29504947355798,2.29600731563161,2.29530888911959,2.29739419113406,2.29742412369886,2.29716470813726,2.29735428104766,2.29856156116131,2.29892075193892,2.29912030237093,2.29959922340774,2.30361018709109,2.30544605106555,2.37298389477839,2.37780303771136,2.37488960140406,2.37448052301844,2.37533858987607,2.37509912935767,2.37643611725211,2.37761346480096,2.37781301523296,2.37802254318657,2.37905022791141,2.38088609188587,2.3788307224362,2.37941939621062,2.37984842963944,2.38080627171307,2.38113552992588,2.38192375413231,2.3844879771836,2.3842984042732,2.384328336838,2.3872816832317,2.3843882019676,2.38699233510529,2.3872018630589,2.38935700772458,2.39100329878864,2.3897860411534,2.39105318639664,2.39057426535982,2.39146226478226,2.39237021924789,2.39686010396805,2.39486459964798,2.39570271146241,2.39739889013447,2.39759844056648,2.39937443941134,2.32139013058293,2.32024271559889,2.317917953066
2.33753376053231,2.3372643674491,2.33656594093708,2.33680540145548,2.33627659281067,2.33676549136908,2.33673555880428,2.33657591845868,2.34035739914521,2.28125056118468,2.28083150527747,2.279095416519,2.27930494447261,2.27783824879736,2.27706000211253,2.27681056407252,2.27680058655092,2.27726953006614,2.27749901306295,2.27727950758774,2.27707995715573,2.27717973237173,2.27796795657816,2.27758881075735,2.27772849605975,2.27747905801974,2.27808768683737,2.27863645052539,2.27828723726937,2.27827725974777,2.27858656291738,2.278995641303,2.279145304127,2.27917523669181,2.28006323611424,2.28072175253986,2.28038251680545,2.28059204475906,2.28061199980226,2.28057208971586,2.2817993248727,2.28125056118468,2.28158979691909,2.28260750412233,2.28315626781035,2.28383473927917,2.28429370527279,2.28473271622321,2.28610961420406,2.28669828797848,2.28839446665054,2.28945208394018,2.35235038010885,2.356540939181,2.35516404120015,2.35821716280986,2.35834687059066,2.36158956511078,2.36153967750278,2.36383450747086,2.36017275704353,2.36006300430592,2.36033239738913,2.36047208269154,2.36271702505162,2.36085122851235,2.36083127346915,2.3594942855747,2.36018273456513,2.36165940776198,2.36149976741638,2.36259729479241,2.36621913513335,2.36188889075879,2.362307946666,2.3621981939284,2.36288664291883,2.36234785675241,2.36378461986286,2.36369482216845,2.36371477721166,2.36310614839403,2.36371477721166,2.36468259680689,2.2927945536763,2.29201630699147,2.29066934157542,2.28984120728259,2.2901205778874,2.28939221881057,2.28821487126173,2.28894323033856,2.28977136463139,2.28937226376737,2.28864390469055,2.28916273581377,2.28910287068416,2.28826475886973,2.28860399460415,2.28868381477695,2.28936228624577,2.28986116232579,2.29040992601381,2.290030780193,2.28937226376737,2.290130555409,2.2899509600202,2.29026026318981,2.29163716117066,2.29179680151626,2.29091877961543,2.29126799287144,2.2928444412843,2.29155734099785,2.29193648681867,2.29182673408106,2.29159725108425,2.29472021534517,2.29441091217556,2.29317369949711,2.29357280036113,2.29345307010192,2.29384219344433,2.29403176635474,2.29495967586357,2.29456057499956,2.29774340439008,2.29677558479484,2.29647625914683,2.29797288738688,2.29803275251649,2.30144506490381,2.30022780726857,2.30194394098383,2.30490726489913,2.37384196163602,2.37355261350961,2.3733331080344,2.37282425443278,2.37368232129042,2.37438074780244,2.37429095010804,2.37502928670646,2.37421112993523,2.3759272636505,2.3761467691257,2.37687512820253,2.37680528555133,2.37737400428255,2.37754362214975,2.37804249822977,2.37821211609698,2.37974865442343,2.38008789015785,2.38185391148111,2.38088609188587,2.38286164116275,2.38143485557389,2.38203350686992,2.38402901118999,2.38472743770201,2.38637372876607,2.38642361637407,2.38851889591015,2.38894792933897,2.39325821867032,2.39249992702869,2.39211080368628,2.39189129821107,2.39377704979354,2.39449543134877,2.39410630800635,2.39676032875205,2.3954033858144,2.31750887468039,2.31589251618113
2.3343509311418,2.33490967235142,2.33549834612584,2.33550832364744,2.33606706485706,2.33582760433865,2.33805259165553,2.33766346831312,2.33624666024586,2.28056211219426,2.2789657087382,2.2791153715622,2.27792804649176,2.27722961997974,2.27718970989333,2.27656112603251,2.27687042920212,2.27761874332215,2.27656112603251,2.27681056407252,2.27740921536854,2.27716975485013,2.27740921536854,2.27744912545494,2.27758881075735,2.27769856349495,2.27773847358135,2.27844687761498,2.27868633813339,2.27857658539578,2.27920516925661,2.27990359576863,2.27932489951581,2.27925505686461,2.28017298885184,2.28006323611424,2.28028274158945,2.28055213467266,2.28121065109828,2.28093128049347,2.28107096579587,2.28117074101188,2.2817993248727,2.28208867299911,2.28344561593676,2.2845531208344,2.28503204187122,2.28608965916086,2.28676813062968,2.28806520843773,2.2899609375418,2.35199118933123,2.35163199855362,2.35264970575686,2.35302885157767,2.35916502736189,2.36080134090435,2.35848655589307,2.35777815185944,2.35742893860343,2.35923487001309,2.35835684811226,2.35849653341467,2.3593146901859,2.35876592649788,2.3593845328371,2.36347531669325,2.35976367865791,2.36036232995393,2.36155963254598,2.36104080142276,2.36138003715717,2.36049203773474,2.36025257721633,2.36036232995393,2.36096098124996,2.36006300430592,2.36286668787562,2.3648522146741,2.36353518182285,2.36398417029487,2.35497446828974,2.35304880662087,2.35242022276005,2.29094871218023,2.29109837500424,2.29050970122981,2.28976138710979,2.28838448912894,2.28807518595933,2.28867383725535,2.28844435425854,2.29140767817385,2.28842439921534,2.28780579287612,2.28912282572737,2.28802529835133,2.28817496117533,2.28840444417214,2.28892327529536,2.28831464647774,2.28928246607297,2.28928246607297,2.28915275829217,2.28936228624577,2.28905298307616,2.29060947644582,2.28916273581377,2.28965163437218,2.28969154445859,2.29101855483143,2.29079904935623,2.29057954388102,2.29142763321705,2.29168704877866,2.2928045311979,2.29140767817385,2.29127797039304,2.29189657673226,2.29383221592273,2.29364264301233,2.29349298018832,2.29397190122514,2.29476012543157,2.29442088969716,2.29473019286677,2.29493972082037,2.29601729315321,2.29584767528601,2.29945953810534,2.29868129142051,2.29822232542689,2.30065684069738,2.3011956268638,2.30639391561759,2.37725427402334,2.36979108786627,2.373193422732,2.37416124232723,2.37130767114953,2.37202605270475,2.3732233552968,2.37382200659282,2.37457032071285,2.37737400428255,2.37454038814805,2.37490955644726,2.3761168365609,2.3759472186937,2.37848150918019,2.37793274549217,2.37770326249536,2.37738398180415,2.37713454376414,2.37933957603782,2.38108564231788,2.37806245327297,2.37993822733384,2.38074640658347,2.3815446083115,2.38303125902995,2.38267206825234,2.38737148092611,2.38905768207657,2.38805992991653,2.3925897247231,2.38896788438217,2.39509408264479,2.39184141060307,2.39524374546879,2.39415619561435,2.39361740944793,2.39349767918873,2.39362738696953,2.39357749936153,2.31722950407558
2.33384207754018,2.33476998704901,2.33485978474341,2.33491964987302,2.33561807638504,2.33570787407945,2.33827209713074,2.33531875073703,2.33612692998666,2.27986368568223,2.27861649548219,2.27740921536854,2.27649128338131,2.27662099116211,2.27672076637812,2.2763216655141,2.27682054159412,2.27736930528214,2.27708993467733,2.27716975485013,2.27721964245814,2.27723959750134,2.27701011450453,2.27756885571415,2.27777838366776,2.27779833871096,2.27778836118936,2.27798791162136,2.27774845110295,2.27850674274458,2.27864642804699,2.27883600095739,2.279045528911,2.27926503438621,2.2790255738678,2.27959429259902,2.28005325859264,2.28037253928385,2.28112085340388,2.28092130297187,2.28200885282631,2.28148004418149,2.28282700959754,2.28266736925193,2.28368507645517,2.2844234130536,2.28557082803764,2.28644884993847,2.28825478134813,2.29029019575461,2.34998570748956,2.34981608962235,2.35187145907203,2.35135262794881,2.35318849192328,2.35415631151851,2.35477491785773,2.35694004004501,2.35892556684348,2.35763846655704,2.35757860142743,2.35716952304182,2.35731918586582,2.35690012995861,2.35757860142743,2.35858633110907,2.35801761237785,2.35875594897628,2.35898543197308,2.36149976741638,2.35971379104991,2.35918498240509,2.35882579162748,2.35872601641148,2.35845662332827,2.36058183542914,2.35991334148192,2.3566606694402,2.35684026482901,2.35734911843063,2.356590826789,2.35465518759853,2.35401662621611,2.29110835252584,2.28917271333537,2.2899709150634,2.28879356751455,2.2901006228442,2.28871374734175,2.28822484878333,2.28796543322172,2.28705747875609,2.28819491621853,2.28797541074332,2.28774592774652,2.28904300555456,2.28830466895614,2.28780579287612,2.28795545570012,2.28766610757371,2.28709738884249,2.28771599518171,2.28917271333537,2.28875365742815,2.28858403956095,2.28851419690974,2.28808516348093,2.28895320786016,2.28887338768736,2.28872372486335,2.28880354503615,2.28978134215299,2.29032012831941,2.29042988105701,2.29029019575461,2.29039994849221,2.29112830756904,2.29152740843305,2.29102853235303,2.29196641938347,2.29246529546349,2.29195644186187,2.29260498076589,2.29316372197551,2.29342313753712,2.29466035021556,2.29228570007468,2.29452066491316,2.29475014790997,2.2984118983373,2.29649621419003,2.29702502283485,2.29639643897403,2.30008812196616,2.30531634328475,2.37418119737043,2.36852394262303,2.37067908728871,2.36951171726146,2.36999063829828,2.37082875011271,2.37064915472391,2.37166686192714,2.37356259103121,2.37183647979435,2.373343085556,2.37381202907122,2.3732034002536,2.37433086019444,2.37382200659282,2.37546829765688,2.37578757834809,2.37501930918486,2.37665562272732,2.37585742099929,2.37685517315933,2.37657580255452,2.37769328497376,2.37934955355942,2.37950919390502,2.38112555240428,2.38221310225872,2.38196366421871,2.38319089937556,2.38553561695164,2.38577507747005,2.39208087112148,2.38653336911168,2.38852887343175,2.39137246708785,2.39154208495506,2.39124275930705,2.39125273682865,2.39212078120788,2.39246999446389,2.3177084251124
2.33231551673532,2.3344107962714,2.33234544930012,2.33631650289707,2.33288423546654,2.33319353863615,2.33324342624416,2.33402167292898,2.27994350585503,2.27941469721021,2.27666090124852,2.27767860845175,2.27689038424532,2.27926503438621,2.27729946263094,2.27693029433172,2.2762119127765,2.27775842862456,2.27672076637812,2.27690036176692,2.27651123842451,2.27686045168052,2.27663096868371,2.27728948510934,2.27772849605975,2.27741919289014,2.27743914793334,2.27762872084375,2.27795797905656,2.27869631565499,2.27846683265818,2.27833712487738,2.27857658539578,2.279145304127,2.27923510182141,2.27959429259902,2.27962422516382,2.27993352833343,2.28076166262626,2.28109092083908,2.28149002170309,2.2816596395703,2.28199887530471,2.28377487414957,2.28418395253519,2.28511186204402,2.2872670067097,2.28759626492251,2.28909289316256,2.35025510057277,2.34909770806713,2.34901788789433,2.3510333472576,2.35124287521121,2.35318849192328,2.35469509768493,2.35530372650255,2.3566207593538,2.35499442333294,2.35576269249617,2.35576269249617,2.35555316454256,2.35561302967216,2.35565293975856,2.3565309616594,2.35596224292818,2.35600215301458,2.35718947808502,2.35706974782582,2.35737905099543,2.3565608942242,2.35705977030422,2.35702983773941,2.35721941064982,2.35746884868983,2.35800763485625,2.35583253514737,2.35731918586582,2.35614183831698,2.35371730056809,2.35345788500649,2.35491460316014,2.29253513811469,2.29092875713703,2.28946206146178,2.28963167932898,2.28848426434494,2.28782574791932,2.28791554561372,2.2873867369689,2.2873069167961,2.2874266470553,2.28750646722811,2.28768606261691,2.2874066920121,2.28757630987931,2.28698763610489,2.28703752371289,2.28696768106169,2.28751644474971,2.28826475886973,2.2874066920121,2.2873168943177,2.28755635483611,2.28759626492251,2.28770601766011,2.28801532082972,2.28875365742815,2.28839446665054,2.28857406203934,2.28894323033856,2.28946206146178,2.2900706902794,2.28907293811936,2.28989109489059,2.28929244359457,2.29041990353541,2.29191653177547,2.29110835252584,2.29190655425387,2.29214601477227,2.29159725108425,2.29253513811469,2.29310385684591,2.29229567759628,2.2929941041083,2.29375239574993,2.29350295770992,2.29433109200275,2.29770349430367,2.29707491044285,2.29720461822366,2.29931985280293,2.29858151620451,2.30225324415344,2.30286187297106,2.36696744925337,2.3703598065975,2.36860376279583,2.36820466193182,2.36930218930786,2.36949176221826,2.37085868267751,2.37065913224551,2.37181652475115,2.37110812071752,2.37188636740235,2.37180654722955,2.37291405212719,2.37779306018976,2.37397166941683,2.37291405212719,2.37309364751599,2.37410137719763,2.37392178180882,2.37465014088565,2.37572771321849,2.37639620716571,2.37649598238172,2.37636627460091,2.3816842936139,2.37957903655623,2.38030739563305,2.38289157372755,2.38528617891163,2.38515647113083,2.38543584173564,2.38784042444133,2.38837921060774,2.38859871608295,2.39042460253582,2.3897860411534,2.39022505210381,2.39078379331343,2.39134253452305,2.39177156795187
2.33045969771766,2.33066922567126,2.33228558417052,2.33278446025054,2.33043974267445,2.32785556457996,2.32792540723116,2.33042976515285,2.2788759110438,2.27757883323575,2.2762119127765,2.27672076637812,2.27694027185333,2.27598242977969,2.27756885571415,2.27547357617807,2.27650126090291,2.2761420701253,2.27584274447729,2.27600238482289,2.2761121375605,2.2762119127765,2.27639150816531,2.27757883323575,2.27712984476373,2.27747905801974,2.27846683265818,2.27712984476373,2.27738926032534,2.27868633813339,2.27862647300379,2.27846683265818,2.27879609087099,2.27876615830619,2.27860651796059,2.27877613582779,2.28012310124384,2.28028274158945,2.27997343841983,2.28028274158945,2.28128049374948,2.2818492124807,2.28371500901997,2.28421388509999,2.28471276118001,2.28652867011127,2.2872869617529,2.28854412947454,2.34808000086389,2.345555687899,2.35031496570237,2.35043469596158,2.35085375186879,2.35172179624802,2.35353770517929,2.35318849192328,2.3538370308273,2.3539068734785,2.35323837953128,2.35331819970408,2.35352772765769,2.3538569858705,2.35271954840806,2.35340799739848,2.3538769409137,2.35359757030889,2.3538569858705,2.35431595186412,2.35528377145935,2.35582255762577,2.3566207593538,2.35556314206416,2.35533365906735,2.35580260258257,2.35514408615695,2.35444565964492,2.3537871432193,2.35138256051361,2.35147235820801,2.35134265042721,2.35256988558405,2.35319846944488,2.2899609375418,2.28835455656414,2.29037001592741,2.28717720901529,2.28759626492251,2.28718718653689,2.28685792832408,2.28787563552732,2.28679806319448,2.2872670067097,2.2873967144905,2.28695770354009,2.28604974907445,2.28779581535452,2.2874366245769,2.28806520843773,2.28612956924726,2.28639896233047,2.28604974907445,2.28659851276247,2.28671824302168,2.28657855771927,2.28704750123449,2.28768606261691,2.28768606261691,2.29136776808745,2.2872570291881,2.28793550065692,2.28785568048412,2.28830466895614,2.28892327529536,2.28832462399934,2.28889334273056,2.28968156693699,2.2900108251498,2.2902203531034,2.29029019575461,2.2899609375418,2.29064938653222,2.29138772313065,2.29213603725067,2.29184668912426,2.29267482341709,2.29307392428111,2.29243536289868,2.29350295770992,2.29254511563629,2.29907041476292,2.29524902398999,2.2955583271596,2.29712479805085,2.29889081937412,2.36714704464218,2.36443315876688,2.36701733686137,2.36512160775731,2.36753616798459,2.36543091092692,2.36714704464218,2.3676558982438,2.36881329074944,2.36872349305504,2.37186641235915,2.36981104290947,2.37000061581988,2.37404151206803,2.36947180717506,2.37149724405994,2.37146731149513,2.37510910687927,2.37209589535596,2.37360250111761,2.37218569305036,2.37451045558324,2.37346281581521,2.37388187172242,2.37504924174966,2.37577760082649,2.37633634203611,2.37794272301377,2.37857130687459,2.38014775528745,2.38140492300909,2.38133508035789,2.38321085441876,2.38737148092611,2.38751116622851,2.38776060426852,2.39116293913425,2.38939691781098,2.38826945787014,2.38967628841579,2.39045453510062,2.38969624345899
2.32907282221521,2.32976127120563,2.33149735996409,2.32742653115115,2.32746644123755,2.32661835190152,2.3288333616968,2.3290229346072,2.27754890067095,2.27663096868371,2.27725955254454,2.2762218902981,2.27487492488205,2.27555339635088,2.27601236234449,2.27499465514126,2.27547357617807,2.27588265456369,2.27587267704209,2.27552346378607,2.27601236234449,2.2762717779061,2.27586269952049,2.27650126090291,2.27712984476373,2.27733937271734,2.27748903554135,2.2789058436086,2.27764867588695,2.27732939519574,2.27776840614616,2.27827725974777,2.27801784418616,2.2789257986518,2.2788759110438,2.2789756862598,2.27979384303103,2.28050224706465,2.28082152775587,2.28149999922469,2.28256759403593,2.28256759403593,2.28376489662797,2.28409415484078,2.28609963668246,2.28750646722811,2.28826475886973,2.3484092590767,2.34942696627994,2.34903784293753,2.34966642679835,2.34944692132314,2.34994579740316,2.35217078472004,2.35282930114566,2.35204107693923,2.35286921123206,2.35188143659363,2.35195127924483,2.35230049250084,2.35167190864002,2.35206103198243,2.35192134668003,2.35176170633442,2.35172179624802,2.35310867175047,2.35229051497924,2.35326831209608,2.35428601929932,2.35478489537933,2.35364745791689,2.35319846944488,2.35341797492008,2.35349779509289,2.35334813226888,2.3539567610865,2.35281932362406,2.35170184120482,2.35189141411523,2.35154220085922,2.35146238068641,2.2900407577146,2.28952192659138,2.28852417443134,2.28896318538176,2.28776588278972,2.28676813062968,2.28581028855605,2.28683797328088,2.28655860267607,2.28653864763287,2.28590008625045,2.28588013120725,2.28618943437686,2.28717720901529,2.28709738884249,2.28560076060244,2.28661846780567,2.28663842284888,2.28616947933366,2.28603977155285,2.28665837789208,2.28625927702806,2.28601981650965,2.28655860267607,2.28692777097529,2.28692777097529,2.28663842284888,2.28830466895614,2.28818493869693,2.2872270966233,2.2873967144905,2.28832462399934,2.28971149950179,2.28851419690974,2.28878358999295,2.28956183667778,2.28827473639133,2.28979131967459,2.28950197154818,2.29027024071141,2.29149747586825,2.29192650929707,2.29062943148902,2.29146754330345,2.29160722860585,2.29358277788273,2.29331338479952,2.2927646211115,2.29377235079313,2.29461046260756,2.29496965338518,2.29646628162523,2.29814250525409,2.29946951562694,2.36593976452854,2.36478237202289,2.36691756164537,2.36405401294607,2.36409392303247,2.3648721697173,2.36650848325976,2.36706722446938,2.3676159881574,2.36796520141341,2.36849401005823,2.36831441466942,2.36838425732062,2.36793526884861,2.37084870515591,2.36985095299588,2.36969131265027,2.37023009881669,2.37007045847108,2.36982102043108,2.37069904233191,2.37118794089032,2.37456034319125,2.37424106250003,2.37485966883926,2.37468007345045,2.37622658929851,2.38035728324106,2.37901031782501,2.37930964347302,2.38197364174031,2.38347026998037,2.38457777487801,2.38481723539642,2.38559548208124,2.38675287458689,2.38884815412296,2.38846900830215,2.38769076161732,2.38854882847495,2.38874837890696
2.32836441818158,2.32838437322478,2.328803429132,2.32926239512561,2.32744648619435,2.32684783489833,2.32935219282002,2.27981379807423,2.27800786666456,2.27665092372692,2.27550350874287,2.27481505975245,2.27531393583247,2.27463546436364,2.27522413813806,2.27530395831087,2.27519420557326,2.27524409318126,2.27544364361327,2.2761221150821,2.27526404822446,2.27655114851091,2.2762618003845,2.27700013698293,2.27737928280374,2.27610216003889,2.27716975485013,2.27714979980693,2.27759878827895,2.27766863093015,2.27741919289014,2.27779833871096,2.27790809144856,2.2790155963462,2.27876615830619,2.27847681017978,2.27957433755582,2.28023285398144,2.28014305628704,2.28141020153029,2.28131042631428,2.28263743668713,2.28406422227598,2.28520165973842,2.28705747875609,2.28861397212575,2.34808000086389,2.34816979855829,2.34854894437911,2.34784054034548,2.3484491691631,2.34911766311033,2.34965644927675,2.34936710115034,2.34963649423355,2.35191136915843,2.35349779509289,2.34973626944955,2.35018525792157,2.35002561757596,2.34975622449275,2.35052449365598,2.35007550518396,2.35006552766236,2.35010543774876,2.35047460604798,2.35061429135038,2.35056440374238,2.35089366195519,2.35184152650723,2.35251999797605,2.35196125676643,2.35224062737124,2.35344790748489,2.35257986310565,2.35174175129122,2.35209096454724,2.35253995301925,2.35316853688007,2.3538070982625,2.28979131967459,2.28889334273056,2.28643887241687,2.2873867369689,2.28702754619129,2.28632911967926,2.28621936694166,2.28554089547284,2.28535132256243,2.28623932198486,2.28666835541368,2.28564067068884,2.28577037846964,2.28550098538643,2.28619941189846,2.28619941189846,2.28596992890165,2.28551096290803,2.28698763610489,2.28587015368565,2.28578035599124,2.28631914215766,2.28605972659605,2.28609963668246,2.28622934446326,2.28666835541368,2.28630916463606,2.28678808567288,2.2872470516665,2.28663842284888,2.28845433178014,2.28790556809212,2.28776588278972,2.28748651218491,2.28869379229855,2.28783572544092,2.28812507356733,2.28819491621853,2.28865388221215,2.28927248855137,2.28967158941538,2.29025028566821,2.29107841996104,2.29095868970183,2.29188659921066,2.29178682399466,2.29190655425387,2.29220587990188,2.29383221592273,2.29389208105234,2.29371248566353,2.29479005799637,2.2955882597244,2.29647625914683,2.29967904358055,2.36370479969005,2.36350524925805,2.36387441755726,2.36308619335083,2.36286668787562,2.36405401294607,2.3650617426277,2.36595971957174,2.36604951726614,2.36692753916697,2.36705724694778,2.36803504406461,2.36736655011739,2.36831441466942,2.36737652763899,2.36813481928061,2.3677456959382,2.36791531380541,2.36727675242298,2.36826452706142,2.37006048094948,2.36967135760707,2.36955162734787,2.37196618757515,2.37163692936234,2.37293400717039,2.37426101754324,2.37556807287288,2.37636627460091,2.37852141926659,2.37906020543301,2.38727170571011,2.3814548106171,2.38228294490992,2.38349022502357,2.38572518986205,2.3871120653645,2.38625399850687,2.38651341406848,2.38657327919808,2.31685035825477
2.32763605910475,2.32726689080554,2.32768594671276,2.3289431144344,2.3288233841752,2.32851408100559,2.32986104642163,2.27826728222617,2.27654117098931,2.27643141825171,2.27516427300846,2.27441595888843,2.27488490240365,2.27476517214445,2.27426629606443,2.27459555427724,2.27421640845643,2.27536382344047,2.27491483496845,2.27507447531406,2.27527402574607,2.27569308165328,2.27542368857007,2.2761121375605,2.27596247473649,2.27642144073011,2.27721964245814,2.27767860845175,2.27737928280374,2.27813757444537,2.27798791162136,2.27863645052539,2.27860651796059,2.27862647300379,2.27818746205337,2.27861649548219,2.27962422516382,2.28020292141664,2.28081155023427,2.28140022400869,2.28349550354476,2.28375491910637,2.28472273870161,2.28622934446326,2.28699761362649,2.34598472132782,2.34577519337421,2.34673303544784,2.34685276570705,2.34744143948147,2.34850903429271,2.34783056282388,2.35058435878558,2.34766094495668,2.34771083256468,2.34783056282388,2.34756116974067,2.34741150691667,2.34892809019992,2.34934714610714,2.3482496187311,2.35066417895838,2.34898795532952,2.3484192365983,2.34902786541593,2.34938705619354,2.34876844985432,2.34970633688475,2.35022516800797,2.34998570748956,2.35166193111842,2.35367739048169,2.35148233572961,2.35050453861278,2.35049456109118,2.35001564005436,2.35370732304649,2.35209096454724,2.34955667406074,2.28891329777376,2.28844435425854,2.28793550065692,2.2872670067097,2.28689783841048,2.28699761362649,2.28560076060244,2.28643887241687,2.28497217674161,2.28533136751923,2.28491231161201,2.28474269374481,2.28481253639601,2.28540121017043,2.28567060325364,2.28469280613681,2.28498215426322,2.28472273870161,2.28511186204402,2.2846828286152,2.2846728510936,2.28596992890165,2.28553091795124,2.28541118769203,2.28578035599124,2.28539123264883,2.28753639979291,2.28567060325364,2.28607968163926,2.28666835541368,2.28583024359925,2.28653864763287,2.28756633235771,2.2872869617529,2.28679806319448,2.28705747875609,2.28849424186654,2.28808516348093,2.28816498365373,2.28897316290336,2.28852417443134,2.28966161189378,2.28987113984739,2.2901604879738,2.2901405329306,2.29116821765544,2.29134781304425,2.29107841996104,2.2927446660683,2.29301405915151,2.29386214848754,2.29381226087953,2.29702502283485,2.29640641649563,2.29690529257565,2.29925001015173,2.29982870640455,2.3620784636692,2.36181904810759,2.36166938528358,2.36277689018122,2.36346533917165,2.36367486712525,2.36445311381008,2.36422363081327,2.36458282159089,2.36584996683413,2.36543091092692,2.36616924752534,2.36526129305971,2.36726677490138,2.36523136049491,2.36715702216378,2.36731666250939,2.367725740895,2.3704496042919,2.36859378527423,2.3678155385894,2.36896295357344,2.37014030112229,2.3704196717271,2.37177661466475,2.37453041062645,2.37434083771604,2.37530865731127,2.37651593742492,2.37753364462815,2.38106568727468,2.37980851955304,2.38191377661071,2.38260222560114,2.38381948323638,2.38614424576926,2.38479728035322,2.38574514490525,2.38611431320446,2.38559548208124
2.32595983547589,2.3261693634295,2.3260396556487,2.32677799224712,2.32793538475276,2.32843426083278,2.32789547466636,2.27766863093015,2.27672076637812,2.27604229490929,2.27472526205805,2.27453568914764,2.27440598136683,2.27430620615083,2.27406674563242,2.27402683554602,2.27439600384523,2.27437604880203,2.27553344130768,2.27466539692844,2.27533389087567,2.27518422805166,2.27541371104847,2.27591258712849,2.2761221150821,2.2762618003845,2.27640148568691,2.27717973237173,2.27769856349495,2.27743914793334,2.27722961997974,2.27755887819255,2.27836705744218,2.27844687761498,2.27833712487738,2.2789058436086,2.27933487703741,2.28035258424065,2.28143015657349,2.28151995426789,2.2818492124807,2.2844433680968,2.28470278365841,2.34500692421098,2.34517654207819,2.34389941931334,2.34492710403818,2.34599469884942,2.34669312536144,2.34688269827185,2.34705231613905,2.34683281066385,2.34476746369257,2.345505800291,2.34639379971343,2.34639379971343,2.34700242853105,2.34659335014544,2.34671308040464,2.34650355245103,2.34699245100945,2.34688269827185,2.34667317031824,2.34725186657106,2.34677294553424,2.34714211383346,2.3482396412095,2.34975622449275,2.34942696627994,2.34859883198711,2.34904782045913,2.34865869711671,2.34858885446551,2.34916755071833,2.34748134956787,2.34997572996796,2.34883829250552,2.34529627233739,2.34743146195987,2.28892327529536,2.2873168943177,2.28747653466331,2.28792552313532,2.28492228913361,2.28510188452242,2.28534134504083,2.28515177213042,2.28525154734643,2.28424381766479,2.2846429185288,2.28431366031599,2.2846828286152,2.28582026607765,2.28423384014319,2.2844832781832,2.28433361535919,2.2844034580104,2.2844932557048,2.28469280613681,2.2845730758776,2.28483249143921,2.28405424475438,2.28497217674161,2.28482251391761,2.28519168221682,2.28561073812404,2.28566062573204,2.28497217674161,2.28607968163926,2.28596992890165,2.28575042342644,2.28660849028407,2.28704750123449,2.28601981650965,2.28711734388569,2.2873069167961,2.28685792832408,2.28807518595933,2.28780579287612,2.28973145454499,2.28949199402658,2.290180443017,2.28946206146178,2.28935230872417,2.29165711621386,2.29117819517704,2.29083895944263,2.29151743091145,2.2928544188059,2.29350295770992,2.29196641938347,2.29256507067949,2.29471023782357,2.29775338191168,2.2984518084237,2.36260727231402,2.36379459738446,2.36419369824847,2.3621383287988,2.36132017202757,2.36288664291883,2.36273698009482,2.36330569882604,2.36314605848043,2.36404403542447,2.36262722735722,2.36432340602928,2.36403405790287,2.36472250689329,2.3650018774981,2.36436331611568,2.36577014666133,2.36374470977646,2.36566039392373,2.36398417029487,2.36589985444213,2.37102830054472,2.367675853287,2.36809490919421,2.36751621294139,2.36917248152705,2.3703997166839,2.37126776106313,2.37501930918486,2.37540843252728,2.37572771321849,2.37739395932575,2.38132510283629,2.38136501292269,2.3817042486571,2.38259224807954,2.38232285499633,2.38336051724276,2.38418865153559,2.38450793222681,2.384328336838
2.32570041991428,2.32524145392067,2.32494212827266,2.32661835190152,2.32946194555762,2.32828459800878,2.27774845110295,2.27556337387248,2.27545362113487,2.27491483496845,2.27446584649644,2.27433613871563,2.27471528453645,2.27394701537322,2.27397694793802,2.27412661076202,2.27416652084843,2.27466539692844,2.27417649837003,2.27448580153964,2.27500463266286,2.27459555427724,2.27492481249005,2.27499465514126,2.27581281191248,2.27593254217169,2.2763515980789,2.27565317156688,2.27647132833811,2.27801784418616,2.27755887819255,2.27818746205337,2.27805775427257,2.27797793409976,2.2790056188246,2.2790355513894,2.27967411277182,2.28018296637344,2.28078161766946,2.28383473927917,2.28420390757839,2.28592004129365,2.34148485908605,2.34413887983175,2.34389941931334,2.34339056571172,2.34393932939974,2.34538607003179,2.34684278818545,2.34630400201903,2.34641375475663,2.34514660951339,2.34539604755339,2.34539604755339,2.34516656455659,2.34534615994539,2.34505681181898,2.34360009366533,2.34523640720779,2.34577519337421,2.3454958227694,2.34507676686218,2.34506678934058,2.3456654406366,2.34600467637102,2.34673303544784,2.34675299049104,2.34715209135506,2.34725186657106,2.3482995063391,2.34751128213267,2.34734166426546,2.34611442910862,2.34634391210543,2.34711218126866,2.34719200144146,2.34700242853105,2.34475748617097,2.34858885446551,2.28713729892889,2.28709738884249,2.28649873754647,2.28661846780567,2.28510188452242,2.28479258135281,2.2846528960504,2.28430368279439,2.28397442458158,2.28401433466798,2.28362521132557,2.2845231882696,2.2844234130536,2.28385469432237,2.28402431218958,2.28409415484078,2.28434359288079,2.28386467184398,2.28382476175757,2.28417397501359,2.28416399749199,2.28419393005679,2.28425379518639,2.284612985964,2.28553091795124,2.28441343553199,2.28476264878801,2.28499213178482,2.2844234130536,2.28481253639601,2.28496219922001,2.28628920959286,2.28508192947922,2.28549100786483,2.28626925454966,2.28600983898805,2.2874066920121,2.2872670067097,2.28766610757371,2.28795545570012,2.28780579287612,2.28921262342177,2.28862394964735,2.28845433178014,2.28941217385378,2.28929244359457,2.290030780193,2.28965163437218,2.29039994849221,2.29101855483143,2.29144758826025,2.2929342389787,2.29242538537708,2.29718466318046,2.29608713580442,2.29721459574526,2.35918498240509,2.35787792707544,2.35847657837147,2.3595341956611,2.36012286943553,2.36140996972197,2.36043217260514,2.36233787923081,2.36231792418761,2.36299639565643,2.36294650804843,2.36262722735722,2.36349527173645,2.36275693513802,2.36325581121804,2.36314605848043,2.36299639565643,2.36267711496522,2.36419369824847,2.36517149536531,2.36426354089968,2.36534111323251,2.3649719449333,2.36594974205014,2.36634884291415,2.36787540371901,2.37025005385989,2.36904277374625,2.37302380486479,2.37497939909846,2.37423108497843,2.37649598238172,2.37777310514656,2.37854137430979,2.37862119448259,2.38405894375479,2.3816044734411,2.38274191090354,2.38243260773393,2.38338047228596,2.38194370917551
2.3233058147302,2.32415390406623,2.32405412885022,2.32473260031905,2.32674805968232,2.27788813640536,2.27748903554135,2.27640148568691,2.27574296926128,2.27582278943409,2.27426629606443,2.27410665571882,2.27447582401804,2.27376741998441,2.27462548684204,2.27427627358603,2.27423636349963,2.27434611623723,2.27434611623723,2.27416652084843,2.27435609375883,2.27463546436364,2.27449577906124,2.27493479001165,2.27529398078927,2.27608220499569,2.27652121594611,2.27599240730129,2.27677065398612,2.27694027185333,2.27732939519574,2.27794800153496,2.27747905801974,2.27795797905656,2.27811761940217,2.27977388798783,2.27997343841983,2.28076166262626,2.2817793698295,2.28298664994314,2.28530143495443,2.28647878250327,2.33943946715798,2.34044719683962,2.34173429712606,2.34211344294688,2.34603460893582,2.34743146195987,2.34611442910862,2.34607451902222,2.345605575507,2.34619424928142,2.34453798069576,2.34413887983175,2.34335065562532,2.34318103775811,2.34339056571172,2.3427919144157,2.34300144236931,2.34325088040932,2.34344045331972,2.34402912709415,2.34372980144613,2.34411892478855,2.34388944179174,2.34383955418374,2.3454359576398,2.34631397954063,2.34599469884942,2.34388944179174,2.34350031844933,2.34731173170066,2.34491712651658,2.34666319279664,2.34711218126866,2.34428854265575,2.34748134956787,2.34381959914054,2.34331074553892,2.28629918711446,2.28533136751923,2.28575042342644,2.28491231161201,2.28770601766011,2.28375491910637,2.28395446953838,2.28412408740558,2.28371500901997,2.28375491910637,2.28385469432237,2.28395446953838,2.28339572832876,2.28474269374481,2.28348552602316,2.28367509893357,2.28321613293995,2.28342566089356,2.28329595311275,2.28310638020235,2.28384471680077,2.28363518884717,2.28328597559115,2.28395446953838,2.28379482919277,2.28417397501359,2.2844533456184,2.28409415484078,2.28437352544559,2.28493226665521,2.28432363783759,2.28573046838324,2.28606970411765,2.28522161478162,2.28580031103444,2.28620938942006,2.28648876002487,2.28582026607765,2.28848426434494,2.28697765858329,2.28773595022491,2.28773595022491,2.28796543322172,2.28824480382653,2.28848426434494,2.28934233120257,2.2901604879738,2.28947203898338,2.28956183667778,2.29122808278504,2.29138772313065,2.29190655425387,2.29684542744604,2.29310385684591,2.29691527009725,2.29801279747329,2.36119046424676,2.36084125099075,2.35760853399223,2.36019271208673,2.36004304926272,2.36021266712993,2.36007298182752,2.36055190286434,2.36081131842595,2.36143990228677,2.36112062159556,2.36122039681157,2.36171927289158,2.36118048672516,2.36153967750278,2.36076143081795,2.36134012707077,2.3622381040148,2.36149976741638,2.362108396234,2.36322587865324,2.36326578873964,2.36360502447405,2.36517149536531,2.36445311381008,2.36978111034467,2.367675853287,2.36807495415101,2.36967135760707,2.37189634492395,2.37179656970795,2.37558802791608,2.37632636451451,2.3787808348282,2.37832186883458,2.38010784520105,2.38187386652431,2.38138496796589,2.38124528266349,2.38177409130831,2.38182397891631
