2.30969952828073,2.3115288626081,2.31472769859038,2.31378804052058,2.31613718569507,2.2520804951499,2.25355995679171,2.25436966214972,2.25338002226771,2.25402978582661,2.25452960394884,2.25504941479596,2.25577914925442,2.25612902193998,2.25747853087,2.25727860362111,2.25860811982625,2.25913792703581,2.26064737776495,2.26096726136318,2.26191691579542,2.26346635197433,2.26330641017522,2.26449597730613,2.26483585362925,2.26490582816636,2.26822462049798,2.26881440588221,2.26881440588221,2.26964410396511,2.27044381296068,2.2711635510567,2.2720832164016,2.27323279808273,2.27489219424854,2.27508212513499,2.275441994183,2.27608176137945,2.27754123029637,2.27833094292949,2.27908067011284,2.28016027725686,2.28088001535287,2.2823194915449,2.28254940788113,2.28391890953604,2.28465864035694,2.28521843665384,2.28526841846606,2.28679786192009,2.28764755272789,2.28784747997678,2.28899706165791,2.29086638143505,2.29169607951796,2.29194598857907,2.2945050573649,2.29499487912469,2.29600451173159,2.29705412978828,2.29602450445648,2.29651432621627,2.29653431894116,2.29695416616383,2.29694416980139,2.29835365690608,2.29928331861343,2.29920334771387,2.30001305307189,2.30070280208057,2.30152250380103,2.30570098330288,2.30275205638172,2.30262210366994,2.30392163078774,2.30422152166108,2.30387164897551,2.30480131068286,2.30602086690111,2.30635074686178,2.30701050678313,2.30771025215425,2.30760029216736,2.30917971743361,2.31140890625876,2.31030930638985,2.31101904812342,2.31107902629809,2.31285837881323,2.3135681205468,2.3132982187608,2.31488764038949,2.31480766948994,2.31509756400083,2.31690690560331,2.31751668371243,2.31720679647665,2.31754667279976,2.31944598166424,2.31951595620135,2.32016571976026,2.32119534509205,2.32392435203943,2.32588363907858,2.32494398100879,2.32582366090391,2.32541381004368,2.32603358451525,2.32657338808726,2.32672333352393,2.32787291520506,2.32894252598664,2.32974223498221,2.33016208220488,2.33129167116112,2.33306102731382,2.33340090363694,2.33408065628318,2.33536019067609,2.33572005972409,2.33720951772834,2.336909626855,2.33873896118237,2.33947869200327,2.33918879749238,2.34145797176731,2.34310737157067,2.34394706601602,2.34327730973223,2.34484673863604,2.34582638215561,2.34757574558342,2.34962499988457,2.34898523268811,2.34951503989768,2.35036473070547,2.3507745815657,2.35436327568332,2.35624259182291,2.35566280280112,2.35695233355648,2.36628893607976,2.3679783213329,2.36940780116249,2.37621532398728,2.43084544474716,2.45929509226457,2.46316368453064,2.48329635849412,2.48262660221033
2.30865990658649,2.31104903721076,2.31632711658152,2.31811646545911,2.25165065156479,2.25127078979189,2.25193054971323,2.25145072431589,2.2541397458135,2.25338002226771,2.25354996042926,2.25365992041616,2.25465955666062,2.25625897465176,2.25645890190065,2.2568287673111,2.25768845448134,2.25885802888736,2.25951778880871,2.26102723953785,2.26116718861207,2.26226678848098,2.26339637743722,2.26379623193501,2.26498579906592,2.26673516249373,2.26723498061596,2.26797471143686,2.26801469688664,2.26909430403066,2.27036384206113,2.27089364927069,2.27140346375537,2.27262301997361,2.27368263439274,2.27389255800408,2.27528205238388,2.27548197963277,2.27666155040124,2.27716136852347,2.27880077196439,2.2788707465015,2.28013028816953,2.281939629772,2.28201960067156,2.28283930239202,2.28584820748785,2.28589818930008,2.28554831661451,2.28622806926075,2.28648797468431,2.28808739267545,2.2889270871208,2.29055649419927,2.29136619955729,2.2924657994262,2.29391527198067,2.29640436622938,2.29750396609829,2.29606448990626,2.29649433349138,2.29602450445648,2.29713410068784,2.29604449718137,2.29681421708961,2.29820371146941,2.29859356960475,2.29866354414186,2.29888346411565,2.29974315128588,2.30018299123345,2.30021298032078,2.3025921145826,2.3024121800586,2.30345180175284,2.3045414052593,2.30451141617197,2.30464136888375,2.30532112152999,2.3055710305911,2.30659065956045,2.30642072139889,2.30760029216736,2.3083700120756,2.31013936822829,2.30938964104495,2.30991944825451,2.31102904448587,2.31121897537231,2.31184874620633,2.31294834607524,2.31369807325858,2.31413791320615,2.31528749488728,2.31532748033706,2.31618716750729,2.3169268983282,2.31739672736309,2.31864627266867,2.31924605441535,2.31973587617514,2.32117535236716,2.32111537419249,2.32467407922278,2.32354449026654,2.32470406831012,2.32479403557212,2.32542380640613,2.32462409741056,2.32719316255883,2.32907247869842,2.32852267876396,2.32878258418752,2.32977222406954,2.33052195125289,2.33372078723517,2.33438054715651,2.33352085998628,2.33451049986829,2.3338407435845,2.3348703689163,2.336819659593,2.33638981600788,2.33817916488547,2.33908883386793,2.3386789830077,2.34064826640929,2.34177785536554,2.34323732428245,2.3451066440596,2.34477676409893,2.34516662223427,2.34785564373187,2.34782565464454,2.35071460339103,2.35008483255702,2.35199413778395,2.35605266093646,2.35703230445604,2.35470315200644,2.35857174427251,2.36404975089217,2.36841816128047,2.37403611697435,2.37038744468206,2.43762297848462,2.4349539497119,2.46522293519423,2.48406607840235,2.48492576557259
2.30895979745983,2.31054921908852,2.32042562518382,2.31281839336346,2.25148071340323,2.25115083344255,2.25102088073077,2.25111084799278,2.25209049151235,2.25401978946416,2.25310012411926,2.2530201532197,2.25433967306239,2.2547895093724,2.25587911287886,2.25705868364733,2.25731858907089,2.25783839991801,2.25917791248559,2.25982767604449,2.26086729773873,2.2652956863017,2.26243672664254,2.26329641381278,2.26398616282145,2.26532567538903,2.26599543167282,2.26696507882995,2.2677148060133,2.26852451137131,2.2691043003931,2.27012392936245,2.27149343101737,2.27232312910027,2.27306285992118,2.27428241613942,2.27471225972454,2.27516209603455,2.27654159405191,2.27712138307369,2.27872080106483,2.27844090291638,2.27922061918707,2.28077005536598,2.28162974253622,2.28211956429601,2.28323915688981,2.28460865854472,2.28480858579361,2.28598815656208,2.28571825477607,2.28752759637855,2.29057648692416,2.28988673791548,2.29034657058793,2.29463501007668,2.29532475908536,2.29782384969652,2.29816372601963,2.29803377330785,2.29608448263115,2.29635438441716,2.29640436622938,2.29769389698473,2.29721407158739,2.29687419526428,2.29857357687986,2.29857357687986,2.29954322403699,2.29963319129899,2.29989309672255,2.30048288210679,2.30151250743858,2.30234220552149,2.30265209275727,2.30319189632928,2.30357175810218,2.30382166716329,2.30441145254752,2.30540109242954,2.30597088508889,2.30555103786621,2.30742035764336,2.30777023032892,2.30800014666515,2.30921970288339,2.30951959375673,2.31032929911474,2.3111490008352,2.3111490008352,2.31303831333724,2.31348814964724,2.31376804779569,2.31466772041571,2.3139479823197,2.31712682557709,2.31621715659463,2.31824641817089,2.31780657822332,2.31820643272111,2.31904612716646,2.31956593801358,2.31815645090889,2.32447415197389,2.324274224725,2.32429421744989,2.32382438841499,2.32446415561144,2.32475405012234,2.32588363907858,2.32653340263748,2.32777295158062,2.32847269695174,2.32944234410887,2.32961228227043,2.33164154384669,2.33178149292091,2.33217135105625,2.33321097275049,2.33368080178539,2.33506029980275,2.33951867745305,2.33972860106439,2.33829912123481,2.33769933948813,2.33933874292905,2.33967861925217,2.34185782626509,2.34348723334357,2.34530657130849,2.34490671681071,2.34738581469697,2.34598632395473,2.3460263094045,2.34801558553098,2.35023477799369,2.35158428692372,2.3502147852688,2.35640253362203,2.35585273368757,2.35956138415453,2.35956138415453,2.36886799759048,2.36509936894885,2.37645523668595,2.42815642324956,2.42986580122759,2.43039560843715,2.46383344081443,2.48037742066028
2.30870988839871,2.31167880804477,2.31384801869525,2.31163882259499,2.24891164825496,2.24937148092741,2.24996126631164,2.25092091710633,2.25119081889233,2.25204050970013,2.25236039329835,2.25300016049481,2.25423970943794,2.25462956757328,2.25518936387018,2.25540928384396,2.25610902921509,2.25748852723245,2.2583282216778,2.25969772333271,2.25995762875627,2.26171698854652,2.26207685759453,2.26206686123209,2.26401615190879,2.2644659882188,2.26559557717504,2.26604541348505,2.26721498789107,2.26797471143686,2.26871444225776,2.26914428584288,2.27119354014403,2.27154341282959,2.27192327460249,2.27313283445829,2.27445235430098,2.27440237248876,2.27560193598211,2.27708139762392,2.27825097202994,2.27892072831373,2.27923061554951,2.28063010629176,2.28141981892488,2.28255940424357,2.28242945153179,2.28339909868892,2.28490854941806,2.28540836754029,2.28631803652275,2.28652796013409,2.28830731264923,2.28909702528236,2.29089637052239,2.29123624684551,2.29429513375356,2.29997306762211,2.29980312946055,2.2993432967881,2.29819371510697,2.29733402793673,2.29466499916401,2.29602450445648,2.29720407522495,2.29650432985382,2.29735402066162,2.2978438424214,2.29862355869209,2.29803377330785,2.29954322403699,2.30018299123345,2.29977314037322,2.30228222734682,2.30157248561325,2.30282203091883,2.30334184176595,2.30337183085328,2.30334184176595,2.30500123793176,2.30574096875266,2.30587092146444,2.30617081233778,2.30759029580492,2.30791017940314,2.30851995751227,2.30902977199694,2.30951959375673,2.31109901902298,2.31077913542475,2.31162882623254,2.31210865162989,2.31311828423679,2.31426786591793,2.31383802233281,2.31433784045504,2.31520752398772,2.31602722570818,2.31740672372554,2.31807648000933,2.31907611625379,2.31854630904423,2.31806648364688,2.32125532326672,2.32199505408762,2.32443416652411,2.3225948358343,2.32391435567699,2.32459410832322,2.32520388643235,2.32579367181658,2.32680330442349,2.32738309344528,2.32815281335351,2.33101177301267,2.3301220967551,2.33132166024846,2.33108174754979,2.33313100185094,2.33400068538362,2.33565008518698,2.33594997606032,2.3358100269861,2.33722951045323,2.3401784373744,2.33769933948813,2.33903885205571,2.3400884701124,2.34192780080221,2.34341725880646,2.34409701145269,2.34326731336979,2.34470678956181,2.34468679683692,2.34609628394162,2.34982492713346,2.34975495259635,2.34953503262257,2.3509545160897,2.35303375947819,2.35329366490175,2.35560282462646,2.35894160968296,2.3606309949361,2.37574549495238,2.4247176745686,2.43064551749827,2.43043559388693,2.44880890806015,2.46748211310672
2.31003940460385,2.31124896445965,2.31357811690925,2.31418789501837,2.24873171373095,2.24947144455186,2.25109085526789,2.25000125176142,2.25081095711944,2.25119081889233,2.2521904551368,2.25300016049481,2.25289020050792,2.25392982220216,2.25425970216283,2.25438965487461,2.25604905104042,2.25683876367355,2.25765846539401,2.25838819985246,2.26052742141561,2.26055741050295,2.26153705402252,2.26267663934121,2.26433603550702,2.26451597003102,2.26521571540214,2.26660520978195,2.2668851079304,2.26775479146308,2.26958412579045,2.26942418399133,2.27100360925758,2.27124352195625,2.27177332916582,2.27219317638849,2.27400251799097,2.27469226699965,2.27538201600833,2.27691145946236,2.27787111025704,2.27882076468928,2.27904068466306,2.28005031726997,2.28170971343578,2.28187965159734,2.28243944789424,2.28301923691602,2.28441872765827,2.28517845120406,2.28583821112541,2.28692781463187,2.28712774188076,2.28878713804657,2.28914700709458,2.29033657422549,2.2952447881858,2.28256940060602,2.28324915325225,2.28581821840052,2.2852984075534,2.28721770914277,2.29377532290644,2.2959845190067,2.29619444261804,2.29605449354382,2.2962744135176,2.29705412978828,2.29758393699784,2.29852359506764,2.29923333680121,2.29923333680121,2.300172994871,2.30062283118101,2.30188237284903,2.30184238739926,2.30263210003238,2.30386165261307,2.30429149619819,2.30405158349952,2.30517117609332,2.30571097966533,2.30525114699287,2.30756030671758,2.30806012483981,2.30843998661271,2.30818008118915,2.30913973198383,2.30958956829384,2.31135892444654,2.31076913906231,2.31288836790057,2.311998691643,2.31313827696168,2.31323824058613,2.31384801869525,2.31487764402705,2.31517753490039,2.31661701109241,2.31621715659463,2.31782657094821,2.31803649455955,2.31694689105309,2.32031566519692,2.32237491586052,2.3225048685723,2.32233493041074,2.3231546321312,2.32638345720081,2.32468407558523,2.32602358815281,2.32632347902615,2.32810283154129,2.32892253326175,2.32850268603907,2.32939236229665,2.32913245687309,2.33192144199514,2.33143162023535,2.33266117281604,2.33338091091205,2.33520024887697,2.33514027070231,2.33554012520009,2.33585001243587,2.33864899392037,2.33804921217369,2.33888890661904,2.34059828459707,2.34121805906864,2.34292743704667,2.342687524348,2.3442769459767,2.34428694233914,2.3472358692603,2.34869533817722,2.34708592382363,2.35051467614214,2.3508645488277,2.35199413778395,2.35123441423815,2.36078094037277,2.35676240267003,2.36427966722839,2.36381983455594,2.37541561499171,2.43234489911385,2.43028564845026,2.45487670006404,2.45627619080629
2.3090197756345,2.31073914997497,2.31257848066478,2.24630259765691,2.24664247398003,2.24794200109783,2.25059103714566,2.24975134270031,2.24955141545141,2.24969136452564,2.25070099713255,2.25151070249056,2.25209049151235,2.2532000877437,2.25339001863015,2.25448961849906,2.2562689710142,2.25652887643776,2.25795835626734,2.25990764694405,2.25873807253803,2.2598076833196,2.26047743960339,2.26117718497451,2.2623167702932,2.26598543531038,2.26438601731924,2.26526569721437,2.26578550806149,2.26672516613128,2.26820462777309,2.26855450045865,2.26965410032756,2.27076369655891,2.27128350740603,2.27179332189071,2.2732028089954,2.27448234338831,2.27472225608698,2.27598179775501,2.27719135761081,2.27788110661949,2.27931058644907,2.27920062646218,2.28066009537909,2.28044017540531,2.281759695248,2.28239946244446,2.28347906958848,2.28414882587227,2.2873376654921,2.28532839664073,2.28631803652275,2.28625805834808,2.28711774551832,2.2920859376533,2.28029022996864,2.27984039365863,2.27992036455819,2.28113992077643,2.2861281056363,2.29285565756154,2.29334547932132,2.29526478091069,2.29608448263115,2.29566463540848,2.29613446444337,2.29703413706339,2.29709411523806,2.29848360961786,2.29868353686675,2.29889346047809,2.2992533295261,2.29983311854789,2.30076278025524,2.3016724492377,2.30239218733371,2.30252214004549,2.30327186722884,2.30421152529863,2.30449142344708,2.30535111061732,2.30579095056488,2.30568099057799,2.30612083052556,2.30759029580492,2.30700051042068,2.30841999388782,2.30911973925894,2.30961955738117,2.31046924818897,2.31094907358631,2.3126484552019,2.312178626167,2.31271842973901,2.3130083242499,2.3146877131406,2.31507757127594,2.3154274439615,2.31620716023218,2.31655703291775,2.3166370038173,2.31986582888692,2.31924605441535,2.31974587253758,2.32126531962916,2.32161519231473,2.32368443934076,2.32269479945875,2.32377440660277,2.32435419562455,2.32520388643235,2.32689327168549,2.32719316255883,2.32838272968974,2.32865263147574,2.32953231137087,2.33056193670267,2.33131166388601,2.33279112552782,2.3343105726194,2.33329094365005,2.33403067447095,2.33536019067609,2.33629984874588,2.33577004153632,2.33859901210815,2.33809919398592,2.33938872474127,2.34368716059246,2.34249759346155,2.3421277280511,2.34289744795934,2.34372714604224,2.34446687686314,2.34627621846562,2.34681602203763,2.34691598566208,2.34898523268811,2.35040471615525,2.35316371218997,2.35728221351715,2.35684237356959,2.36247032562591,2.36697868508844,2.3663189251671,2.43348448443254,2.42286834751635,2.44522021394253,2.45194776586777
2.31013936822829,2.31271842973901,2.31437782590482,2.24597271769624,2.24712229937737,2.2485617755694,2.24833185923317,2.24833185923317,2.24876170281829,2.2494814409143,2.2495714081763,2.25050106988365,2.251250797067,2.25241037511058,2.25315010593148,2.25420972035061,2.25495944753396,2.25592909469109,2.25641891645087,2.25774843265601,2.25939783245937,2.25833821804024,2.25976769786982,2.26187693034564,2.26221680666876,2.26244672300498,2.26443599913146,2.26491582452881,2.26532567538903,2.2662353443715,2.2676248387513,2.26813465323597,2.26881440588221,2.26941418762889,2.27135348194314,2.27205322731427,2.27235311818761,2.27340273624429,2.27528205238388,2.275441994183,2.27546198690789,2.27769117573304,2.27826096839238,2.27954050278529,2.27933057917396,2.28069008446643,2.28208957520867,2.28204958975889,2.28239946244446,2.28383893863648,2.28494853486784,2.28489855305561,2.28595816747474,2.28767754181522,2.28749760729122,2.28784747997678,2.28332912415181,2.28054013902976,2.28103995715199,2.28126987348821,2.28790745815145,2.2933854647711,2.29408521014222,2.29547470452203,2.2947749591509,2.29486492641291,2.29585456629492,2.29574460630803,2.29642435895427,2.29714409705028,2.30298197271794,2.29894344229031,2.29915336590165,2.29958320948677,2.30000305670944,2.30065282026834,2.30123260929013,2.30190236557392,2.30240218369615,2.30263210003238,2.3038016744384,2.30458139070908,2.30526114335532,2.30490127430731,2.30707048495779,2.30635074686178,2.30694053224601,2.30776023396647,2.30917971743361,2.30859992841182,2.30916972107117,2.30979949190518,2.31081912087453,2.31263845883945,2.31242853522811,2.31183874984388,2.31398796776948,2.3136580878088,2.31372806234592,2.31614718205752,2.31674696380419,2.31709683648976,2.31823642180844,2.3176666291491,2.31981584707469,2.32090545058116,2.32113536691738,2.32321461030587,2.32258483947186,2.32509392644546,2.32326459211809,2.3239843302141,2.3264934171877,2.32614354450214,2.32701322803482,2.3281728060784,2.32928240230975,2.33123169298646,2.33051195489044,2.33056193670267,2.33333092909983,2.33246124556715,2.33255121282915,2.33466044530496,2.33470043075474,2.33579003426121,2.33662972870655,2.33773932493791,2.33764935767591,2.33873896118237,2.34036836826085,2.3412980299682,2.34175786264065,2.34275749888511,2.34691598566208,2.34419697507714,2.34532656403338,2.3476157310332,2.34732583652231,2.348825290889,2.35013481436925,2.35456320293222,2.3539334320982,2.35670242449536,2.35895160604541,2.36607901246843,2.36614898700554,2.41769023177003,2.43752301486017,2.45118804232197
2.31032929911474,2.312358560691,2.31411792048126,2.24492309963955,2.24601270314602,2.24580277953468,2.2462326231198,2.24810194289694,2.24776206657383,2.24821190288383,2.2487417100934,2.25032113535965,2.25249034601013,2.25168064065212,2.25211048423724,2.25288020414547,2.25433967306239,2.2544996148615,2.25677878549888,2.25724861453378,2.25755850176956,2.25845817438958,2.25917791248559,2.26106722498762,2.26131713404874,2.26236675210542,2.26457594820569,2.26456595184324,2.26609539529727,2.26599543167282,2.26720499152862,2.26738492605263,2.26915428220533,2.27042382023579,2.27055377294757,2.27126351468114,2.2718133146156,2.27374261256741,2.2743224015892,2.27561193234456,2.27590182685545,2.27653159768946,2.27797107388149,2.27910066283773,2.27922061918707,2.28102996078954,2.28201960067156,2.28221952792045,2.28291927329158,2.28253941151868,2.28332912415181,2.28383893863648,2.28591818202496,2.28718772005543,2.28757757819077,2.28785747633922,2.28820734902478,2.28200960430912,2.28035020814331,2.28324915325225,2.28776750907722,2.29218590127775,2.29305558481043,2.29310556662265,2.29372534109422,2.29508484638669,2.29547470452203,2.29551468997181,2.29579458812026,2.29664427892805,2.29794380604585,2.29778386424674,2.29843362780564,2.29894344229031,2.29977314037322,2.299993060347,2.30078277298012,2.30083275479235,2.30128259110236,2.30240218369615,2.30274206001927,2.30349178720262,2.30599087781377,2.30475132887064,2.30533111789243,2.30698051769579,2.30728040856913,2.30709047768268,2.30769025942936,2.30846997570004,2.30918971379606,2.30947960830695,2.30998942279163,2.31068916816275,2.31182875348144,2.31308829514946,2.31327822603591,2.31642708020596,2.3145977458786,2.31599723662085,2.31617717114485,2.3173767346382,2.3165470365553,2.31796652002244,2.31967589800047,2.31935601440224,2.32041562882137,2.32177513411384,2.32227495223607,2.32372442479054,2.32298469396964,2.32401431930144,2.32523387551968,2.32559374456769,2.32707320620949,2.32724314437105,2.32894252598664,2.33156157294713,2.32936237320931,2.33036200945377,2.33146160932268,2.33216135469381,2.33260119464137,2.3331010127636,2.3358100269861,2.33702958320434,2.33612991058432,2.33677967414322,2.33768934312569,2.33833910668459,2.33927876475438,2.34110809908175,2.34139799359264,2.34245760801177,2.34249759346155,2.34397705510336,2.34496669498537,2.34460682593737,2.3505046797797,2.35091453063993,2.34812554551788,2.3494750544479,2.35477312654355,2.36567915797064,2.35909155511963,2.36337999460838,2.37081728826718,2.42371803832414,2.43889251651508,2.45298738756201
2.31162882623254,2.31465772405327,2.24330368892352,2.24489311055222,2.245382932312,2.24723225936426,2.24562284501068,2.24645254309358,2.24672244487958,2.24734221935115,2.2484518155825,2.24970136088808,2.25038111353432,2.25090092438144,2.2516306588399,2.25238038602324,2.25336002954282,2.25408976400127,2.25547925838108,2.25686875276088,2.25835821076513,2.2594278215467,2.25866809800091,2.25977769423227,2.26096726136318,2.26160702855963,2.26155704674741,2.26386620647212,2.26438601731924,2.26554559536282,2.26583548987371,2.26774479510063,2.26869444953287,2.26864446772065,2.26960411851533,2.27064374020958,2.27158339827937,2.27180331825315,2.27339273988185,2.27473225244943,2.27493217969832,2.27554195780744,2.27657158313924,2.27806104114349,2.2787807792395,2.27954050278529,2.28015028089442,2.28120989531355,2.28189964432223,2.28268935695535,2.28363901138759,2.28513846575428,2.2852984075534,2.28645798559698,2.28652796013409,2.28757757819077,2.28822734174967,2.2855683093394,2.28709775279343,2.28432876039627,2.29007666880193,2.29119626139573,2.2921759049153,2.29299560663576,2.29374533381911,2.29414518831689,2.29456503553957,2.29417517740423,2.29576459903292,2.29657430439094,2.29642435895427,2.29814373329474,2.29782384969652,2.2987835004912,2.29882348594098,2.29910338408943,2.30103268204124,2.3005528566439,2.30193235466126,2.30193235466126,2.30286201636861,2.30282203091883,2.30349178720262,2.30367172172662,2.30490127430731,2.30553104514132,2.30608084507578,2.30659065956045,2.30646070684867,2.3074303540058,2.3089298083725,2.31008938641607,2.31003940460385,2.31068916816275,2.31155885169543,2.31205866981766,2.31238854977834,2.31259847338967,2.31332820784813,2.31449778225415,2.31470770586549,2.31602722570818,2.31615717841996,2.31697688014042,2.31942598893935,2.3191460907909,2.31994579978647,2.31987582524936,2.32090545058116,2.32190508682562,2.32679330806104,2.32456411923589,2.32443416652411,2.32595361361569,2.32565372274236,2.32755303160683,2.32807284245396,2.32780294066795,2.3309717875629,2.32940235865909,2.33057193306511,2.33143162023535,2.33252122374181,2.33155157658468,2.33293107460204,2.33573005608654,2.33644979418255,2.33612991058432,2.33792925582436,2.33768934312569,2.33906884114304,2.33871896845748,2.33967861925217,2.34202776442665,2.34084819365819,2.34247760073666,2.34409701145269,2.34421696780203,2.34944506536057,2.34639617481496,2.34707592746119,2.35463317746933,2.35230402501973,2.35367352667464,2.35876167515896,2.35974131867853,2.36625894699243,2.37161699726275,2.42915605949402,2.44484035216964
2.31204867345522,2.31821642908355,2.24346363072264,2.24392346339509,2.24479314692777,2.24494309236444,2.24593273224646,2.24542291776178,2.24515301597578,2.24704232847781,2.24857177193184,2.24823189560872,2.24990128813698,2.25047108079632,2.25059103714566,2.25117082616744,2.25305014230703,2.25410975672616,2.25490946572173,2.25649888735043,2.25726860725867,2.25775842901845,2.25909794158603,2.26017754873005,2.26114719588718,2.26097725772562,2.26195690124519,2.263436362887,2.26451597003102,2.26495580997858,2.26617536619683,2.26736493332774,2.26713501699151,2.26834457684731,2.26952414761578,2.27099361289514,2.27141346011781,2.27197325641471,2.27342272896918,2.27405249980319,2.27477223789921,2.27619172136634,2.27668154312613,2.27718136124836,2.27871080470239,2.27890073558884,2.27980040820885,2.2809299971651,2.28173970252311,2.2835290514007,2.28326914597714,2.28447870583294,2.28499851668006,2.28572825113852,2.28633802924764,2.287807494527,2.287717527265,2.28773751998989,2.28698779280654,2.28914700709458,2.29042654148749,2.2915261413564,2.29201596311619,2.29384529744355,2.29283566483665,2.29286565392398,2.29429513375356,2.29583457357003,2.29657430439094,2.29551468997181,2.29652432257871,2.29642435895427,2.29731403521184,2.29815372965719,2.29915336590165,2.29986310763522,2.29919335135143,2.30074278753035,2.30168244560014,2.30159247833814,2.30211228918526,2.30291199818083,2.30321188905417,2.30285202000616,2.30415154712396,2.30461137979642,2.30559102331599,2.30564100512821,2.30641072503645,2.30667063046001,2.3091097428965,2.30924969197072,2.30840000116293,2.30962955374362,2.31012937186585,2.31086910268675,2.31155885169543,2.31239854614078,2.31407793503148,2.31422788046815,2.31534747306195,2.3153374766995,2.3158073057344,2.31628713113174,2.3171968001142,2.31799650910977,2.31879621810534,2.32011573794803,2.32033565792181,2.32245488676007,2.32257484310941,2.324454159249,2.32419425382544,2.3238943629521,2.32616353722703,2.32697324258505,2.32717316983394,2.32758302069417,2.33022206037955,2.32932238775953,2.33029203491666,2.33027204219177,2.33116171844934,2.33293107460204,2.33660973598167,2.33315099457583,2.33378076540984,2.33468043802985,2.3361698960341,2.33596996878521,2.33760937222613,2.33740944497724,2.33942871019105,2.34134801178042,2.34172787355331,2.34347723698112,2.34311736793312,2.34484673863604,2.34500668043515,2.34443688777581,2.35097450881459,2.34713590563586,2.34981493077102,2.35435327932088,2.3545831956571,2.3576520789276,2.37201685176053,2.36674876875222,2.40970313817677,2.43543377510924
2.3012925874648,2.30487128521998,2.24178424183194,2.24323371438641,2.24426333971821,2.24395345248242,2.24423335063087,2.24449325605443,2.245023063264,2.24673244124203,2.24729223753893,2.24767209931182,2.24846181194495,2.2508709352941,2.25083094984433,2.25182058972634,2.25298016776992,2.25370990222838,2.25436966214972,2.25500942934618,2.2563589382762,2.25718863635911,2.25801833444201,2.25940782882182,2.26001760693094,2.26132713041118,2.26154705038497,2.26219681394387,2.26333639926255,2.26398616282145,2.26712502062907,2.26616536983438,2.26711502426662,2.26791473326219,2.26903432585599,2.2702238929869,2.27115355469425,2.27189328551515,2.27265300906095,2.27339273988185,2.27530204510877,2.27547198327033,2.27660157222657,2.27654159405191,2.27737129213481,2.27880077196439,2.27905068102551,2.28180967706022,2.28095998625243,2.28279931694224,2.28283930239202,2.2836190186627,2.28466863671939,2.28410884042249,2.28597816019963,2.28618808381097,2.28853722898546,2.28835729446145,2.28877714168413,2.28989673427793,2.28999669790237,2.28979677065348,2.29107630504639,2.29205594856597,2.29339546113355,2.29316554479732,2.29430513011601,2.29544471543469,2.29483493732557,2.29470498461379,2.29667426801538,2.29605449354382,2.29694416980139,2.29696416252628,2.29845362053053,2.29870352959164,2.29932330406321,2.30040291120723,2.30092272205435,2.30101268931635,2.3013825547268,2.30261210730749,2.30290200181839,2.30392163078774,2.30387164897551,2.3040915689493,2.30471134342086,2.30562101240332,2.30578095420244,2.306040859626,2.30724042311935,2.30749033218047,2.30855994296204,2.30915972470872,2.30952959011917,2.31064918271297,2.31146888443343,2.31182875348144,2.31252849885256,2.31466772041571,2.31491762947683,2.31380803324547,2.31596724753351,2.31721679283909,2.31649705474308,2.31798651274733,2.31998578523625,2.31973587617514,2.31981584707469,2.32125532326672,2.32126531962916,2.32294470851986,2.32335455938009,2.32370443206565,2.32515390462012,2.32686328259816,2.32533383914413,2.32857266057619,2.32807284245396,2.32847269695174,2.32901250052375,2.33072187850178,2.33415063082029,2.33244125284226,2.3331909800256,2.33758937950124,2.33241126375492,2.33461046349274,2.33621987784633,2.33542016885076,2.33587000516076,2.33929875747927,2.34062827368441,2.33925877202949,2.33946869564083,2.34145797176731,2.34155793539176,2.34298741522134,2.34325731700734,2.34485673499848,2.34702594564897,2.35060464340414,2.35094451972726,2.35100449790193,2.35279384677952,2.36061100221121,2.35775204255205,2.36907792120181,2.36836817946824,2.41043287263523
2.30226223462193,2.30435147437286,2.24215410724239,2.2437235361462,2.24492309963955,2.24281386716374,2.24369354705886,2.24403342338198,2.24499307417666,2.24703233211537,2.24699234666559,2.24700234302803,2.24784203747338,2.24969136452564,2.25030114263476,2.25122080797967,2.25201052061279,2.25254032782236,2.25347998589215,2.25471953483529,2.25676878913643,2.2563589382762,2.25753850904467,2.25872807617558,2.25913792703581,2.2601875450925,2.26100724681296,2.26333639926255,2.26298652657699,2.26551560627548,2.26550560991304,2.2661253843846,2.26742491150241,2.2674449042273,2.26860448227087,2.26951415125333,2.27023388934935,2.27166336917893,2.27294290357184,2.27305286355873,2.27452232883809,2.27546198690789,2.27642163770257,2.27656158677679,2.27872080106483,2.27837092837927,2.27856085926572,2.28020026270664,2.28159975344889,2.28112992441399,2.28276932785491,2.28286929147935,2.28356903685048,2.28463864763205,2.28896707257058,2.28636801833497,2.28678786555765,2.28758757455322,2.28846725444834,2.28903704710769,2.29025660332593,2.29145616681929,2.29245580306375,2.29179604314241,2.2923558394393,2.29425514830378,2.29303559208554,2.29360538474488,2.29429513375356,2.29467499552646,2.29574460630803,2.29635438441716,2.29820371146941,2.29756394427295,2.29853359143008,2.29814373329474,2.29898342774009,2.29870352959164,2.29920334771387,2.3012026202028,2.30097270386657,2.30140254745169,2.30199233283592,2.30375169262618,2.30298197271794,2.30482130340775,2.30438146346019,2.30476132523309,2.3053011288051,2.30647070321112,2.30614082325044,2.30756030671758,2.30887982656027,2.30918971379606,2.30942962649473,2.30970952464318,2.31066917543786,2.31147888079588,2.31214863707967,2.31323824058613,2.31523751307505,2.31353813145947,2.31489763675194,2.31595725117107,2.3167269710793,2.31796652002244,2.31758665824954,2.3194359853018,2.32016571976026,2.32039563609648,2.32109538146761,2.3222149740614,2.32181511956362,2.32465408649789,2.32405430475122,2.3257536863668,2.32626350085148,2.32802286064173,2.32702322439727,2.32975223134465,2.32936237320931,2.32943234774642,2.33080184940134,2.33186146382047,2.33090181302578,2.33231130013048,2.33563009246209,2.33554012520009,2.33628985238344,2.33560010337476,2.33517025978964,2.33628985238344,2.3386789830077,2.33996851376306,2.34040835371062,2.34029839372373,2.34412700054003,2.34281747705978,2.34261754981089,2.34408701509025,2.3454665131076,2.34736582197208,2.34756574922098,2.35163426873594,2.35367352667464,2.35699231900626,2.35975131504098,2.36022114407587,2.36496941623707,2.41454137759997
2.23978496934301,2.23941510393256,2.24161430367038,2.2413044164346,2.2434336416353,2.2416642854826,2.24306377622485,2.24361357615931,2.24315374348685,2.24699234666559,2.24590274315912,2.24718227755204,2.24773207748649,2.24839183740784,2.25057104442077,2.25085094256922,2.25112084435522,2.25195054243812,2.2537598840406,2.25444963304928,2.25512938569552,2.25732858543333,2.25830822895291,2.25870808345069,2.25910793794848,2.25977769423227,2.26089728682606,2.2617569739963,2.26254668662943,2.26396617009657,2.26419608643279,2.26539564992615,2.2681846350482,2.26679514066839,2.26885439133199,2.26972407486467,2.2706037547598,2.27120353650647,2.27234312182516,2.27291291448451,2.27397252890364,2.27404250344075,2.27474224881187,2.27638165225279,2.27650160860213,2.27809103023082,2.27918063373729,2.27932058281151,2.27958048823507,2.28181967342267,2.28342908777625,2.2828792878418,2.28401887316049,2.28492854214295,2.28510847666695,2.28540836754029,2.28588819293763,2.28727768731743,2.28839727991123,2.2887271598719,2.28896707257058,2.28912701436969,2.29085638507261,2.29075642144816,2.29220589400264,2.29279567938687,2.29319553388465,2.29358539201999,2.29415518467934,2.29355540293266,2.29484493368802,2.29670425710272,2.2956246499587,2.2963643807796,2.29734402429917,2.29709411523806,2.29901341682743,2.29939327860032,2.29920334771387,2.30033293667012,2.30060283845612,2.30058284573123,2.30099269659146,2.30310192906728,2.30341181630306,2.30277204910661,2.30407157622441,2.30460138343397,2.30435147437286,2.30434147801041,2.30497124884442,2.30717044858224,2.30708048132024,2.30721043403202,2.30918971379606,2.30942962649473,2.30960956101873,2.31092908086142,2.31044925546408,2.312178626167,2.31353813145947,2.3133881860228,2.31435783317993,2.31516753853794,2.31665699654219,2.31661701109241,2.31776659277355,2.31863627630623,2.31885619628001,2.32206502862473,2.32046561063359,2.32340454119231,2.32323460303076,2.32363445752854,2.32276477399586,2.32498396645857,2.32441417379922,2.32572369727947,2.32598360270303,2.32723314800861,2.32772296976839,2.32988218405643,2.33052195125289,2.33024205310444,2.33105175846245,2.33118171117423,2.33181148200825,2.33345088544916,2.33286110006493,2.33446051805607,2.33555012156254,2.33626985965855,2.33833910668459,2.34231765893755,2.34384710239158,2.34019843009929,2.33989853922595,2.34075822639619,2.34332729154446,2.34512663678449,2.34439690232603,2.34832547276677,2.34569642944383,2.35009482891947,2.35002485438235,2.35582274460024,2.35900158785763,2.36533928164752,2.3675284850229,2.40900339280565
2.23796563137809,2.23938511484523,2.23998489659191,2.24113447827304,2.23950507119456,2.24098453283637,2.24194418363105,2.24240401630351,2.24386348522042,2.24444327424221,2.24488311418977,2.24768209567427,2.24664247398003,2.24783204111094,2.24914156459118,2.25053105897099,2.25068100440766,2.25175061518923,2.25310012411926,2.25453960031128,2.25523934568241,2.25743854542022,2.25132077160411,2.25843818166469,2.25844817802713,2.25950779244626,2.2604574468785,2.26109721407496,2.26172698490897,2.26351633378656,2.26348634469922,2.26487583907903,2.26589546804838,2.2669750751924,2.26777478418797,2.26849452228398,2.27032385661135,2.2700439584629,2.27345271805652,2.27340273624429,2.27360266349319,2.27443236157609,2.27474224881187,2.27577187414367,2.2767415213008,2.27698143399947,2.27809103023082,2.27919063009973,2.27984039365863,2.27992036455819,2.28095998625243,2.28259938969335,2.28275933149246,2.28388892044871,2.28508848394206,2.28533839300318,2.28595816747474,2.28694780735676,2.28825733083701,2.28835729446145,2.28895707620813,2.28930694889369,2.29083639234772,2.29081639962283,2.29119626139573,2.29244580670131,2.29326550842177,2.29293562846109,2.29336547204621,2.29396525379289,2.29508484638669,2.29514482456136,2.29517481364869,2.29637437714204,2.29704413342583,2.29738400974895,2.29732403157428,2.29816372601963,2.29881348957853,2.29919335135143,2.30079276934257,2.30083275479235,2.30109266021591,2.30186238012414,2.30165245651281,2.30227223098437,2.30284202364372,2.30359175082706,2.30394162351263,2.30407157622441,2.30476132523309,2.30646070684867,2.306130826888,2.3086399138616,2.30835001935071,2.30879985566072,2.30947960830695,2.31046924818897,2.31192871710588,2.31155885169543,2.31266844792679,2.31311828423679,2.31361810235902,2.31476768404016,2.3160772075204,2.31565736029773,2.31658702200508,2.31764663642421,2.31839636360756,2.32007575249825,2.32057557062048,2.32237491586052,2.32116535600472,2.32328458484298,2.32132529780383,2.32332457029276,2.32481402829701,2.32647342446281,2.32647342446281,2.32821279152818,2.32747306070728,2.32813282062862,2.32917244232286,2.330501958528,2.33005212221799,2.330681893052,2.33070188577689,2.33389072539673,2.33420061263251,2.33412064173295,2.33702958320434,2.33499032526564,2.33592998333543,2.33535019431364,2.33718952500345,2.33792925582436,2.33962863743994,2.34081820457085,2.34093816092019,2.34205775351399,2.34474677501159,2.34385709875402,2.35175422508527,2.34845542547855,2.35104448335171,2.35152430874905,2.35240398864418,2.3624003510888,2.37194687722342,0.00424699457004935
2.23781568594142,2.23898526034744,2.24066464923814,2.23903524215967,2.24012484566613,2.23981495843035,2.24112448191059,2.24233404176639,2.24303378713752,2.24348362344753,2.24434331061776,2.24579278317223,2.24645254309358,2.24741219388826,2.2481819137965,2.2493914736523,2.2507809680321,2.25111084799278,2.25259030963458,2.2531101204817,2.2563589382762,2.2495714081763,2.25120081525478,2.25508940024574,2.25790837445512,2.25865810163847,2.25976769786982,2.26080731956406,2.26162702128452,2.26198689033253,2.26351633378656,2.26456595184324,2.26522571176459,2.26648525343261,2.26758485330152,2.26793472598708,2.26920426401755,2.26943418035378,2.27064374020958,2.27165337281648,2.27289292175962,2.27435239067653,2.27335275443207,2.27606176865456,2.27586184140567,2.27691145946236,2.27793108843171,2.27876078651461,2.27957049187263,2.28004032090752,2.28143981164977,2.28197961522178,2.28225951337023,2.28344908050114,2.28551832752718,2.28499851668006,2.28616809108608,2.28533839300318,2.28772752362744,2.28797743268856,2.28871716350946,2.28964682521681,2.28929695253125,2.2904065487626,2.29103631959661,2.29299560663576,2.29212592310308,2.29218590127775,2.29257575941309,2.29348542839555,2.29494489731246,2.29502486821202,2.29546470815958,2.2955346826967,2.29699415161361,2.29688419162672,2.29639436986693,2.29650432985382,2.29819371510697,2.30023297304567,2.300172994871,2.29933330042565,2.30040291120723,2.30101268931635,2.30168244560014,2.30276205274416,2.30162246742547,2.30363173627684,2.30326187086639,2.3036217399144,2.30406157986196,2.30562101240332,2.30667063046001,2.30723042675691,2.30751032490536,2.30827004845115,2.30878985929827,2.30932966287028,2.31029931002741,2.31200868800544,2.31197869891811,2.31287837153812,2.31362809872147,2.31424787319304,2.31550741486106,2.31750668734998,2.31652704383041,2.31982584343714,2.31781657458577,2.32062555243271,2.3190561235289,2.32076550150693,2.32169516321428,2.32070552333226,2.32231493768585,2.32272478854608,2.32386437386477,2.324634093773,2.32659338081215,2.32668334807415,2.32685328623571,2.32796288246706,2.32831275515263,2.3282627733404,2.33076186395156,2.33190144927025,2.33090181302578,2.33489036164119,2.33293107460204,2.33281111825271,2.33495033981586,2.33590999061054,2.33626985965855,2.33557011428742,2.33834910304703,2.33754939405146,2.33917880112993,2.33989853922595,2.33899886660593,2.34143797904242,2.34178785172798,2.34300740794623,2.34618625120362,2.35172423599794,2.35004484710724,2.35009482891947,2.35363354122487,2.35484310108066,2.36501939804929,2.36329002734637
2.23653615154851,2.23657613699829,2.23732586418164,2.23777570049164,2.2394450930199,2.24002488204168,2.24015483475346,2.2415743182206,2.24239401994106,2.2431637398493,2.24384349249553,2.24527297232511,2.24548289593645,2.24677242669181,2.24717228118959,2.24881168463051,2.24947144455186,2.25083094984433,2.25122080797967,2.25291019323281,2.25432967669995,2.25037111717187,2.25252033509747,2.2560890364902,2.25658885461243,2.25807831261668,2.25930786519737,2.26217682121898,2.26107722135007,2.26183694489586,2.26331640653766,2.26414610462057,2.26510575541525,2.26642527525794,2.2677148060133,2.26822462049798,2.2684545368342,2.27020390026201,2.27117354741914,2.27112356560692,2.27225315456316,2.27249306726183,2.27271298723561,2.27361265985563,2.27819099385527,2.27621171409123,2.2773013175977,2.27843090655394,2.27908067011284,2.28033021541842,2.27983039729619,2.28069008446643,2.2821395570209,2.28276932785491,2.28388892044871,2.28443872038316,2.28523842937873,2.28571825477607,2.28688782918209,2.2867778691952,2.2891070216448,2.28908702891991,2.28964682521681,2.28985674882815,2.29097634142195,2.29139618864462,2.29121625412062,2.29215591219041,2.29224587945241,2.29308557389776,2.29403522833,2.29489491550024,2.29538473726003,2.29532475908536,2.29574460630803,2.2965443153036,2.2980437696703,2.29635438441716,2.29729404248695,2.29893344592787,2.29847361325542,2.29919335135143,2.30018299123345,2.30059284209368,2.30110265657835,2.3010226856788,2.30187237648659,2.30245216550838,2.30395161987507,2.30366172536418,2.30462137615886,2.30591090691422,2.30561101604088,2.306400728674,2.3068705577089,2.30868989567382,2.30876986657338,2.3094696119445,2.3098494737174,2.31041926637674,2.31112900811031,2.31144889170854,2.31257848066478,2.31523751307505,2.31605721479551,2.31490763311438,2.31605721479551,2.31895615990446,2.31803649455955,2.31771661096132,2.31992580706158,2.31995579614892,2.32056557425804,2.32174514502651,2.32178513047629,2.32503394827079,2.32384438113988,2.324184257463,2.32797287882951,2.32626350085148,2.32673332988638,2.32650341355015,2.32863263875085,2.32941235502153,2.33013209311755,2.33086182757601,2.33185146745802,2.33247124192959,2.33215135833136,2.33369079814784,2.33558011064987,2.33492035072852,2.33551013611276,2.33445052169363,2.33694961230478,2.34068825185907,2.33936873201638,2.34031838644862,2.33954866654039,2.34184782990265,2.34120806270619,2.34376713149202,2.34514662950938,2.34497669134782,2.3475257637712,2.35072459975348,2.35158428692372,2.35497305379244,2.35520297012867,2.37256665169499
2.23557650075383,2.23593636980183,2.23674607515985,2.23730587145675,2.23869536583655,2.23904523852211,2.2404547256268,2.2409245546617,2.24253396901529,2.24202415453061,2.24324371074885,2.24467319057844,2.24482313601511,2.24649252854336,2.24723225936426,2.2476221174996,2.24890165189251,2.25024116446009,2.25081095711944,2.25201052061279,2.25398980037683,2.25169063701456,2.25436966214972,2.25598907286575,2.25748852723245,2.25679877822377,2.25895799251181,2.25934785064715,2.26098725408807,2.26199688669497,2.26279659569054,2.26389619555945,2.26588547168593,2.26670517340639,2.26808467142375,2.2671550097164,2.26825460958531,2.27001396937556,2.27009394027512,2.2709636238078,2.2716133873667,2.27200324550204,2.27301287810895,2.27425242705209,2.27476224153676,2.27586184140567,2.27700142672436,2.27808103386838,2.27949052097307,2.27973043367174,2.28067009174154,2.28072007355376,2.2821395570209,2.28299924419113,2.28306921872825,2.28465864035694,2.28537837845296,2.28664791648342,2.28773751998989,2.28895707620813,2.28844726172346,2.28902705074524,2.28905703983258,2.29080640326039,2.29118626503328,2.2913462068324,2.2919959703913,2.29173606496774,2.29241581761397,2.29248579215108,2.29287565028642,2.29373533745666,2.29420516649156,2.29482494096313,2.29554467905914,2.2958945517447,2.29632439532982,2.29670425710272,2.29641436259182,2.29742399519873,2.2987835004912,2.29879349685364,2.29918335498898,2.30029295122034,2.30130258382725,2.30089273296702,2.30192235829881,2.30272206729438,2.30322188541661,2.30350178356506,2.30524115063043,2.30491127066976,2.3054810633291,2.30672061227223,2.3066006559229,2.30711047040757,2.30846997570004,2.30907975380916,2.3105892045383,2.31043925910163,2.31107902629809,2.31164881895743,2.31242853522811,2.31381802960792,2.31382802597036,2.3154274439615,2.3155174112235,2.31563736757284,2.31674696380419,2.3192360580529,2.31833638543289,2.31868625811845,2.32033565792181,2.32040563245893,2.32288473034519,2.32247487948496,2.32352449754165,2.324634093773,2.3251039228079,2.32611355541481,2.32740308617017,2.3270532134846,2.3292024314102,2.33020206765466,2.33033202036644,2.32996215495599,2.33075186758911,2.3316215511218,2.33071188213934,2.33402067810851,2.33476040892941,2.33420061263251,2.33747941951435,2.33423060171984,2.33644979418255,2.33588999788565,2.34182783717776,2.33847905575881,2.33986855013861,2.3391488120426,2.34208774260132,2.34316734974534,2.34202776442665,2.34598632395473,2.34470678956181,2.34913517812478,2.35183419598483,2.35147432693683,2.35687236265692,2.36107083488367
2.23438693362292,2.23522662806826,2.2366461115354,2.23687602787163,2.23884531127322,2.23874534764877,2.23932513667056,2.24005487112902,2.24067464560059,2.24206413998039,2.24252397265284,2.24407340883176,2.245382932312,2.24620263403246,2.24741219388826,2.24734221935115,2.24807195380961,2.24950143363919,2.25074098258232,2.25280023324592,2.25398980037683,2.25412974945105,2.2550594111584,2.25610902921509,2.25513938205796,2.25502942207107,2.2583282216778,2.25917791248559,2.26071735230206,2.26112720316229,2.26254668662943,2.26350633742411,2.26582549351127,2.26833458048487,2.26932422036688,2.26707503881684,2.26793472598708,2.26876442406999,2.26955413670311,2.27028387116157,2.27146344193004,2.27223316183827,2.27303287083384,2.27439237612631,2.27498216151054,2.27635166316546,2.27712138307369,2.27791109570682,2.27941055007351,2.27908067011284,2.27987038274597,2.28079004809087,2.28190964068467,2.28266936423046,2.28378895682426,2.28457866945739,2.28519844392895,2.28728768367988,2.28657794194631,2.28703777461876,2.28894707984569,2.28867717805968,2.28974678884126,2.29108630140884,2.29043653784994,2.29102632323417,2.2917060758804,2.2911462795835,2.29205594856597,2.29270571212487,2.2925557666882,2.29294562482354,2.29438510101556,2.29388528289333,2.29523479182336,2.29530476636047,2.29615445716826,2.29639436986693,2.2962744135176,2.29702414070095,2.29904340591476,2.29854358779253,2.29997306762211,2.29963319129899,2.30058284573123,2.30071279844301,2.30134256927702,2.30187237648659,2.30234220552149,2.30381167080085,2.3037117071764,2.30464136888375,2.30570098330288,2.30663064501023,2.30647070321112,2.30742035764336,2.30805012847737,2.31004940096629,2.30961955738117,2.31069916452519,2.31112900811031,2.31156884805788,2.31296833880012,2.31331821148569,2.31440781499215,2.31428785864281,2.31588727663396,2.31574732755973,2.31736673827576,2.31742671645043,2.31742671645043,2.31986582888692,2.31990581433669,2.32499396282101,2.32164518140206,2.32305466850675,2.32543380276857,2.32667335171171,2.32602358815281,2.3281728060784,2.32922242413509,2.33001213676821,2.330411991266,2.33086182757601,2.33110174027468,2.33202140561958,2.33135164933579,2.33170152202135,2.33169152565891,2.33514027070231,2.33156157294713,2.33417062354518,2.33610991785943,2.33430057625696,2.33416062718273,2.33652976508211,2.33649977599477,2.33941871382861,2.33816916852303,2.33937872837883,2.34111809544419,2.34077821912107,2.34291744068423,2.34691598566208,2.34283746978467,2.34712590927341,2.34933510537368,2.3502147852688,2.35442325385799,2.35912154420697
2.23480678084559,2.23499671173204,2.23549652985427,2.23649616609873,2.23830550770121,2.2372958750943,2.23845545313788,2.23908522397189,2.24001488567924,2.24094454738659,2.24211412179261,2.24299380168774,2.24377351795842,2.2455828595609,2.24716228482715,2.24724225572671,2.24746217570049,2.24816192107161,2.25075097894477,2.25196053880057,2.25402978582661,2.2552593384073,2.2544096475995,2.2557091747173,2.25433967306239,2.25550924746841,2.25774843265601,2.25851815256424,2.25917791248559,2.26123716314918,2.2617569739963,2.26429605005724,2.26552560263793,2.26852451137131,2.26493581725369,2.26793472598708,2.2678047732753,2.26783476236264,2.26868445317043,2.27036384206113,2.27168336190382,2.27146344193004,2.27227314728805,2.27472225608698,2.27475224517432,2.27540200873322,2.2768314885628,2.27776115027015,2.27850088109105,2.27848088836616,2.27912065556262,2.28049015721753,2.28069008446643,2.282029597034,2.28313919326536,2.28344908050114,2.28493853850539,2.28493853850539,2.28685784009476,2.28723770186766,2.28824733447456,2.28877714168413,2.2891969889068,2.29009666152682,2.29095634869706,2.29010665788926,2.29111629049617,2.29195598494152,2.29183602859218,2.29249578851353,2.29262574122531,2.29259575213798,2.29345543930821,2.29352541384533,2.29426514466623,2.29480494823824,2.29577459539537,2.29582457720759,2.29603450081893,2.2970141443385,2.29737401338651,2.29854358779253,2.29880349321609,2.29955322039944,2.2997031658361,2.30003304579678,2.3014725219888,2.30173242741236,2.30140254745169,2.30319189632928,2.3034418053904,2.30399160532485,2.3040915689493,2.30523115426798,2.30610083780067,2.30666063409757,2.30751032490536,2.3076102885298,2.30848996842493,2.30945961558206,2.31071915725008,2.3108790990492,2.3114388953461,2.3130083242499,2.31568734938506,2.31384801869525,2.31437782590482,2.31547742577373,2.31503758582616,2.31703685831509,2.31802649819711,2.31954594528869,2.31976586526247,2.32180512320117,2.32150523232784,2.32469407194767,2.32632347902615,2.32824278061551,2.32719316255883,2.33044198035333,2.33146160932268,2.33103176573756,2.33146160932268,2.33146160932268,2.33281111825271,2.33398069265873,2.33230130376803,2.33353085634872,2.33442053260629,2.33363081997317,2.33314099821338,2.3341306380954,2.33533020158875,2.33355084907361,2.33445052169363,2.33483038346652,2.34150795357953,2.33620988148388,2.34015844464951,2.34459682957492,2.33977858287661,2.3404483391604,2.34054830278485,2.34207774623888,2.34520660768404,2.34443688777581,2.34778566919476,2.34925513447412,2.35540289737756,2.35856174791007
2.23327733739156,2.23364720280201,2.23365719916446,2.23630623521228,2.23653615154851,2.23742582780608,2.23807559136498,2.238885296723,2.23957504573168,2.24047471835169,2.24073462377525,2.24244400175328,2.24415337973132,2.2454928922989,2.24604269223335,2.24675243396692,2.24763211386205,2.2482718810585,2.24975134270031,2.25132077160411,2.25266028417169,2.25371989859082,2.25461957121084,2.25380986585282,2.25197053516301,2.25394981492705,2.25565919290508,2.25858812710136,2.2597177160576,2.26029750507939,2.26214683213164,2.26268663570365,2.26599543167282,2.2639961591839,2.26360630104856,2.26689510429284,2.26721498789107,2.26758485330152,2.26819463141064,2.27024388571179,2.27106358743225,2.27177332916582,2.27224315820072,2.27411247797786,2.27402251071586,2.27491218697343,2.2779510811566,2.27690146309991,2.27793108843171,2.27868081561506,2.27913065192506,2.28006031363241,2.2806401026542,2.28178968433533,2.28260938605579,2.28337910596403,2.28469862580672,2.28493853850539,2.28551832752718,2.28735765821699,2.28783748361433,2.28969680702903,2.28940691251814,2.28990673064037,2.29064646146127,2.29180603950485,2.29129622502017,2.29098633778439,2.29072643236083,2.2927357012122,2.29227586853975,2.29247579578864,2.2927357012122,2.29349542475799,2.29399524288022,2.29476496278846,2.29508484638669,2.29527477727314,2.29653431894116,2.29680422072716,2.29731403521184,2.29803377330785,2.29823370055674,2.29874351504142,2.29918335498898,2.300172994871,2.3016724492377,2.30079276934257,2.30150251107614,2.30292199454327,2.30336183449084,2.30430149256063,2.30391163442529,2.30453140889686,2.3051012015562,2.30542108515443,2.30655067411067,2.30764027761714,2.30850996114982,2.30965954283095,2.30990945189207,2.30990945189207,2.31077913542475,2.31302831697479,2.31287837153812,2.31484765493971,2.31547742577373,2.31555739667328,2.31520752398772,2.31936601076469,2.31924605441535,2.31871624720578,2.32208502134962,2.32135528689117,2.32392435203943,2.32866262783819,2.32952231500843,2.33081184576378,2.33202140561958,2.33322096911294,2.42739669970376,2.4265769979833,2.33571006336165,2.33514027070231,2.33647978326989,2.336819659593,2.33572005972409,2.33538018340098,2.33344088908672,2.33006211858044,2.34034837553596,2.33362082361072,2.33426059080718,2.33367080542295,2.33536019067609,2.33639981237033,2.33590999061054,2.33658974325678,2.33794924854925,2.34135800814286,2.34106811363197,2.33945869927838,2.33999850285039,2.34115808089397,2.34199777533932,2.34508665133471,2.34580638943072,2.34677603658785,2.35302376311574,2.35450322475755
2.23252761020821,2.23328733375401,2.23405705366224,2.23443691543514,2.23502670081937,2.23642619156162,2.23739583871875,2.23830550770121,2.23914520214656,2.23988493296746,2.24089456557437,2.24187420909394,2.2428738453384,2.24416337609376,2.24607268132068,2.24579278317223,2.24763211386205,2.24756213932493,2.24906159369163,2.25003124084876,2.25171062973945,2.25213047696213,2.25344999680482,2.25309012775681,2.25263029508436,2.25454959667373,2.25778841810579,2.2596277487956,2.25882803980003,2.25983767240693,2.26176697035875,2.26323643563811,2.2660354171226,2.26378623557256,2.26442600276902,2.2657655153366,2.26582549351127,2.26681513339328,2.26819463141064,2.26923425310488,2.26999397665067,2.27080368200869,2.27291291448451,2.27275297268539,2.27362265621807,2.27412247434031,2.2752420669341,2.2766515540388,2.27752123757148,2.27816100476793,2.27940055371107,2.2791606410124,2.28159975344889,2.28191963704711,2.28226950973268,2.28329913506447,2.28383893863648,2.28524842574117,2.2865079674092,2.28740764002921,2.28968681066659,2.28997670517748,2.28980676701592,2.29063646509883,2.29155613044373,2.29269571576242,2.29218590127775,2.29279567938687,2.29092635960972,2.29109629777128,2.29162610498085,2.29191599949174,2.29257575941309,2.29227586853975,2.2931155629851,2.29391527198067,2.2943251228409,2.29498488276224,2.2955346826967,2.29578459175781,2.29630440260493,2.29712410432539,2.29738400974895,2.2986035659672,2.29874351504142,2.299993060347,2.30038291848234,2.29982312218544,2.29984311491033,2.30132257655213,2.30240218369615,2.30258211822016,2.30335183812839,2.30469135069597,2.30499124156931,2.30529113244265,2.30612083052556,2.30625078323734,2.30865990658649,2.30859992841182,2.30956957556895,2.30996943006674,2.31133893172165,2.31122897173476,2.31237855341589,2.31333820421058,2.31518753126283,2.31525750579994,2.31704685467753,2.3171968001142,2.31988582161181,2.32292471579497,2.32328458484298,2.3252838573319,2.32701322803482,2.42544740902706,2.41898975888783,2.42413788554682,2.42501756544194,2.42882617953335,2.42770658693955,2.428346354136,2.43001574666426,2.43037561571226,2.42940596855513,2.42692687066887,2.42716678336754,2.42609717258596,2.33302104186405,2.33132166024846,2.33501031799053,2.3344005398814,2.33392071448406,2.33517025978964,2.33415063082029,2.33468043802985,2.33409065264562,2.3347804016543,2.33592998333543,2.34002849193773,2.33769933948813,2.33950868109061,2.33805920853614,2.34040835371062,2.3415679317542,2.34370715331735,2.34518661495916,2.35080457065304,2.35195415233417,2.35269388315507
2.23188784301176,2.23175789029998,2.23387711913824,2.23449689360981,2.23394709367535,2.23548653349182,2.23674607515985,2.23745581689342,2.23875534401122,2.23912520942167,2.24026479474036,2.24124443825993,2.2424240090284,2.24370354342131,2.24483313237755,2.24562284501068,2.24645254309358,2.24794200109783,2.24927151730296,2.2495714081763,2.25147071704078,2.25176061155168,2.25269027325903,2.2528402186957,2.25316010229392,2.25542927656885,2.25801833444201,2.25895799251181,2.25872807617558,2.2595377815336,2.26051742505317,2.26211684304431,2.26073734502695,2.26391618828434,2.26452596639346,2.26523570812703,2.26581549714882,2.26637529344572,2.26786475144997,2.26871444225776,2.26996398756334,2.27057376567246,2.27158339827937,2.27204323095182,2.27279295813517,2.27404250344075,2.275441994183,2.275801863231,2.27641164134012,2.27734130304748,2.2794305427984,2.27911065920017,2.27985039002108,2.28124988076332,2.281669727986,2.28293926601647,2.28398888407315,2.28503850212984,2.28615809472364,2.287717527265,2.28865718533479,2.29056649056172,2.29093635597217,2.29290563937376,2.29351541748288,2.29462501371423,2.29219589764019,2.2906064760115,2.29021661787615,2.29058648328661,2.29110629413373,2.29131621774506,2.29206594492841,2.29345543930821,2.2925557666882,2.29313555570999,2.29440509374045,2.29400523924267,2.29510483911158,2.29595452991937,2.29647434076649,2.29707412251317,2.29717408613761,2.29817372238208,2.29778386424674,2.29852359506764,2.29899342410254,2.29954322403699,2.30002304943433,2.30079276934257,2.30157248561325,2.30243217278349,2.30329185995373,2.30444144163486,2.30343180902795,2.30515118336843,2.30628077232467,2.30650069229845,2.30775023760403,2.30813009937693,2.30880985202316,2.3097595064554,2.31095906994875,2.31116899356009,2.31393798595725,2.31302831697479,2.31566735666017,2.3153374766995,2.31556739303573,2.31768662187399,2.32278476672075,2.32298469396964,2.32692326077282,2.41764024995781,2.42398794011015,2.42499757271705,2.42755664150288,2.4267769252322,2.4250075690795,2.42785653237622,2.42889615407046,2.42823639414911,2.42973584851581,2.42930600493069,2.42878619408357,2.43078546657249,2.42466769275638,2.42996576485203,2.42510753270394,2.42676692886975,2.3379392521868,2.33700959047945,2.33451049986829,2.33562009609965,2.33520024887697,2.33408065628318,2.33385073994695,2.33447051441852,2.33532020522631,2.33575004881143,2.3376693504008,2.33742943770213,2.33924877566705,2.34117807361886,2.34088817910797,2.34184782990265,2.34290744432178,2.34378712421691,2.35084455610281,2.34880529816411
2.23112811946597,2.23228769750954,2.23282750108155,2.2335772282649,2.2337571627889,2.23499671173204,2.23594636616428,2.23687602787163,2.23826552225143,2.23788566047853,2.24032477291502,2.24113447827304,2.24172426365727,2.24336366709819,2.24362357252175,2.24492309963955,2.24557286319845,2.24862175374406,2.2482718810585,2.24862175374406,2.2507809680321,2.25095090619366,2.25240037874813,2.2532900550057,2.25419972398817,2.25576915289197,2.25687874912332,2.2579483599049,2.25793836354246,2.25851815256424,2.2591579197607,2.25982767604449,2.26105722862518,2.2626066648041,2.2640861264459,2.26465591910524,2.26570553716193,2.26596544258549,2.26743490786485,2.26973407122712,2.2691043003931,2.27038383478602,2.27104359470736,2.27186329642782,2.27288292539717,2.27422243796475,2.27516209603455,2.275531961445,2.27612174682923,2.27702141944925,2.27816100476793,2.27897071012595,2.27959048459752,2.28090000807776,2.28174969888556,2.28291927329158,2.28401887316049,2.28531840027829,2.28672788738298,2.28809738903789,2.28946689069281,2.29093635597217,2.29269571576242,2.29424515194134,2.29646434440405,2.29672424982761,2.293765326544,2.29186601767952,2.29042654148749,2.29077641417305,2.29111629049617,2.29104631595906,2.29193599221663,2.29244580670131,2.29234584307686,2.29266572667509,2.29482494096313,2.29310556662265,2.29482494096313,2.29541472634736,2.29631439896738,2.29607448626871,2.29697415888872,2.29655431166605,2.29741399883629,2.29776387152185,2.29867354050431,2.29909338772698,2.2997031658361,2.30051287119412,2.30134256927702,2.3023222127966,2.30303195453017,2.30408157258685,2.3038916417004,2.3042715034733,2.30602086690111,2.30620080142511,2.30772024851669,2.30722043039446,2.30873987748605,2.30976950281784,2.31029931002741,2.31091908449898,2.31222860797922,2.31292835335035,2.31488764038949,2.31744670917532,2.3195259525638,2.32084547240649,2.41751029724603,2.42031927509297,2.41589088653,2.41357173044285,2.422298554857,2.4250975363415,2.42548739447684,2.42619713621041,2.43009571756381,2.42992577940225,2.42849629957267,2.4289061504329,2.42913606676913,2.42980582305292,2.4304056047996,2.43019568118826,2.4302056775507,2.42526747450306,2.42608717622352,2.42763661240243,2.34115808089397,2.33902885569327,2.33704957592923,2.33522024160186,2.33504030707786,2.33426059080718,2.33428058353207,2.33403067447095,2.33548014702542,2.33644979418255,2.33667971051878,2.33763936131346,2.34043834279796,2.33829912123481,2.33928876111683,2.34024841191151,2.34570642580628,2.34448686958803,2.34858537819033,2.34946505808546
2.23045836318218,2.23107813765374,2.23231768659688,2.23318737012956,2.23358722462735,2.23436694089803,2.23555650802894,2.23666610426029,2.23725588964452,2.23891528581033,2.23948507846967,2.24120445281015,2.24141437642149,2.24271390353929,2.24347362708508,2.24423335063087,2.24550288866134,2.24704232847781,2.24802197199739,2.24903160460429,2.24931150275274,2.25113084071766,2.25167064428967,2.25338002226771,2.2543196803375,2.25571917107975,2.25606904376531,2.25697871274777,2.2588880179747,2.25886802524981,2.26062738504006,2.26134712313607,2.26105722862518,2.26279659569054,2.26348634469922,2.26429605005724,2.2651157517777,2.26593545349816,2.26708503517929,2.26813465323597,2.26908430766821,2.26982403848912,2.27120353650647,2.2715234201047,2.27251305998672,2.27372261984252,2.2748821978861,2.2750621324101,2.27658157950168,2.2773013175977,2.27808103386838,2.27901069557573,2.2799903390953,2.28036020450575,2.28223952064534,2.28274933513002,2.28496852759273,2.28605813109919,2.2873376654921,2.28858721079768,2.29070643963594,2.2932055302471,2.29440509374045,2.37300649164255,2.37480583688258,2.37582546585194,2.29688419162672,2.29121625412062,2.28950687614259,2.28918699254436,2.29012665061415,2.29061647237394,2.29150614863151,2.29232585035197,2.29309557026021,2.29231585398953,2.29274569757464,2.29494489731246,2.29470498461379,2.29462501371423,2.29532475908536,2.29581458084515,2.29614446080582,2.2969241770765,2.29702414070095,2.29796379877074,2.29863355505453,2.30056285300634,2.29962319493655,2.30043290029456,2.30052286755656,2.30164246015036,2.30200232919837,2.30246216187082,2.30424151438597,2.30482130340775,2.3066906231849,2.30619080506267,2.30732039401891,2.30797015757781,2.3088198483856,2.30940963376984,2.30978949554273,2.3115288626081,2.3117087971321,2.31314827332413,2.31539745487417,2.31868625811845,2.32125532326672,2.4178401772067,2.41889979162583,2.41774021358225,2.42030927873052,2.42336816563858,2.42312825293991,2.42411789282193,2.42564733627595,2.42619713621041,2.42815642324956,2.42909608131935,2.43070549567294,2.43027565208782,2.42965587761625,2.43055555023627,2.43055555023627,2.4302056775507,2.43095540473405,2.43026565572537,2.42752665241554,2.42877619772112,2.43103537563361,2.4309654010965,2.33898887024349,2.33688963413012,2.33697960139212,2.33492035072852,2.33472042347963,2.33385073994695,2.33455048531807,2.33465044894252,2.33523023796431,2.33704957592923,2.33842907394659,2.33836909577192,2.3388789102566,2.34011845919973,2.34495669862293,2.34379712057935,2.34536654948316,2.3495650217099
2.22980859962328,2.23113811582841,2.23122808309041,2.23316737740467,2.23312739195489,2.23420699909891,2.23527660988049,2.23640619883673,2.23690601695896,2.23800561682787,2.23933513303301,2.24026479474036,2.24189420181883,2.24183422364416,2.24289383806329,2.24434331061776,2.24503305962644,2.24739220116337,2.25028114990987,2.24813193198428,2.24973134997542,2.25043109534654,2.25119081889233,2.25294018232014,2.25313011320659,2.25416973490083,2.25539928748152,2.25737856724556,2.25791837081757,2.25811829806646,2.25944781427159,2.26028750871694,2.26163701764697,2.26241673391765,2.26262665752899,2.26459594093058,2.26489583180392,2.26631531527105,2.26707503881684,2.26807467506131,2.26840455502198,2.26944417671622,2.27085366382091,2.27147343829248,2.27151342374226,2.27373261620497,2.27424243068964,2.27483221607387,2.275531961445,2.27744126667192,2.2782209829426,2.27846089564127,2.2793405755364,2.28132985166288,2.28169971707333,2.28313919326536,2.28383893863648,2.2869777964441,2.28837728718634,2.2899367197277,2.29393526470556,2.29630440260493,2.29620443898049,2.37752484746752,2.3752356804677,2.37578548040216,2.37589544038905,2.28953686522992,2.29033657422549,2.28952686886748,2.29016663606393,2.29059647964905,2.29117626867084,2.29176605405507,2.29220589400264,2.29256576305064,2.29236583580175,2.29266572667509,2.29430513011601,2.29478495551335,2.29480494823824,2.29556467178403,2.29610447535604,2.2963643807796,2.29666427165294,2.29688419162672,2.29815372965719,2.29837364963097,2.29920334771387,2.30004304215922,2.30065282026834,2.30101268931635,2.30131258018969,2.30290200181839,2.3032418781415,2.30326187086639,2.30453140889686,2.30544107787932,2.30618080870022,2.30675060135957,2.30902977199694,2.30938964104495,2.31026932094008,2.31059920090075,2.31167880804477,2.31381802960792,2.31711682921464,2.32184510865095,2.4198794351454,2.41783018084426,2.41632073011512,2.41742032998403,2.42050920597942,2.42162879857321,2.42342814381325,2.42387798012326,2.42779655420155,2.42482763455549,2.4276066233151,2.43019568118826,2.4285462813849,2.42338815836347,2.42986580122759,2.43112534289561,2.43379437166832,2.43129528105717,2.43137525195672,2.43118532107028,2.43051556478649,2.43027565208782,2.43019568118826,2.42996576485203,2.43101538290872,2.33974859378928,2.33901885933082,2.33611991422188,2.33444052533118,2.3371995213659,2.33437055079407,2.33576004517387,2.33588999788565,2.33500032162808,2.33566008154943,2.34006847738751,2.34015844464951,2.3394387065535,2.34710591654852,2.34425695325181,2.34726585834764,2.34880529816411
2.22854905795525,2.23002851959706,2.2323676684091,2.23210776298554,2.23290747198111,2.23385712641335,2.2347867881207,2.23593636980183,2.23685603514674,2.23715592602008,2.23858540584966,2.23975498025568,2.24061466742592,2.24159431094549,2.24244400175328,2.24415337973132,2.24494309236444,2.24605268859579,2.24849180103228,2.24770208839916,2.24946144818941,2.24955141545141,2.25100088800588,2.25258031327214,2.25309012775681,2.2539398185646,2.25474952392262,2.25719863272155,2.25726860725867,2.25819826896602,2.25918790884803,2.26004759601827,2.26106722498762,2.26155704674741,2.26245671936743,2.26347634833678,2.26438601731924,2.26509575905281,2.26627532982127,2.26757485693908,2.26848452592154,2.27009394027512,2.27055377294757,2.27150342737981,2.27221316911338,2.2740325070783,2.27392254709141,2.27569190324411,2.27598179775501,2.27689146673747,2.27856085926572,2.27914064828751,2.28053014266731,2.28134984438777,2.28234948063223,2.28346907322603,2.28545834935251,2.28674788010787,2.28973679247881,2.29100633050928,2.29560465723381,2.3354301652132,2.37262662986966,2.3756155422406,2.37639525851128,2.37506574230614,2.3744959496468,2.28893708348324,2.28927695980636,2.2891070216448,2.28971679975392,2.28996670881504,2.29095634869706,2.29135620319484,2.29237583216419,2.29171607224285,2.29229586126464,2.29252577760086,2.29328550114665,2.29407521377978,2.29455503917712,2.29523479182336,2.29474497006357,2.2959845190067,2.29667426801538,2.29697415888872,2.29752395882318,2.29884347866587,2.30056285300634,2.29976314401077,2.30031294394523,2.30036292575745,2.30154249652592,2.30244216914593,2.30294198726816,2.30413155439907,2.30482130340775,2.30448142708464,2.30558102695355,2.30786019759092,2.30893980473494,2.30865990658649,2.31044925546408,2.3117087971321,2.31444780044193,2.31686692015353,2.403615353448,2.41400157402796,2.41195231972682,2.41671058825046,2.41606082469156,2.42138888587454,2.42031927509297,2.42242850756878,2.42263843118012,2.42259844573034,2.42271840207968,2.42762661603999,2.42552737992662,2.42696685611864,2.42029928236808,2.42005936966941,2.42654700889597,2.42806645598755,2.42844631776045,2.43400429527966,2.43195504097851,2.43122530652006,2.43057554296115,2.43025565936293,2.43014569937604,2.42989579031492,2.42985580486514,2.42977583396558,2.33778930675013,2.33638981600788,2.33605993604721,2.33441053624385,2.33527022341409,2.33285110370249,2.33512027797742,2.33511028161497,2.33558011064987,2.34032838281107,2.33643979782011,2.34116807725642,2.3383191139597,2.34208774260132,2.34327730973223,2.34300740794623
2.22932877422593,2.22871899611681,2.23035839955773,2.23147799215153,2.23210776298554,2.23370718097668,2.23419700273647,2.23549652985427,2.23626624976251,2.23710594420785,2.23919518395878,2.2396250275439,2.24055468925125,2.24125443462237,2.24215410724239,2.24394345611998,2.24472317239066,2.2455828595609,2.24631259401935,2.24737220843849,2.24944145546452,2.24928151366541,2.25024116446009,2.25123080434211,2.25315010593148,2.25411975308861,2.25512938569552,2.2561790037522,2.25697871274777,2.25735857452067,2.25827823986557,2.25981767968205,2.25996762511871,2.26129714132385,2.26212683940675,2.26368627194812,2.26431604278213,2.26500579179081,2.26521571540214,2.26727496606574,2.26811466051109,2.269574129428,2.26972407486467,2.27120353650647,2.27183330734049,2.27344272169407,2.27365264530541,2.27461229610009,2.27599179411745,2.27638165225279,2.27761120483348,2.27874079378972,2.28058012447953,2.28163973889866,2.28285929511691,2.28507848757962,2.28589818930008,2.28702777825632,2.29173606496774,2.2929156357362,2.29632439532982,2.35814190068739,2.37297650255522,2.37596541492616,2.3768251020964,2.37898431638444,2.36953775387427,2.28918699254436,2.28899706165791,2.28924697071903,2.2899367197277,2.28962683249192,2.29055649419927,2.29085638507261,2.29131621774506,2.29179604314241,2.29212592310308,2.29270571212487,2.2924657994262,2.29343544658332,2.29447506827757,2.29449506100245,2.29563464632114,2.29607448626871,2.29687419526428,2.29679422436472,2.29690418435161,2.29783384605896,2.29854358779253,2.29957321312432,2.29951323494966,2.30025296577056,2.30081276206746,2.30243217278349,2.3028820090935,2.30610083780067,2.30399160532485,2.30514118700598,2.30610083780067,2.30648069957356,2.30794016849048,2.30915972470872,2.31407793503148,2.31279840063857,2.31584729118418,2.40107627738706,2.41718041728536,2.41335181046906,2.41702047548624,2.41673058097535,2.4165406500889,2.41621077012823,2.42015933329385,2.42218859487011,2.41879982800139,2.4235081147128,2.42294831841591,2.42256845664301,2.42551738356417,2.42493759454239,2.41763025359536,2.4201693296563,2.42492759817994,2.42585725988729,2.42617714348552,2.42814642688711,2.43452410612678,2.43363442986921,2.43043559388693,2.43071549203538,2.42998575757692,2.42969586306603,2.4294659467298,2.43124529924494,2.34039835734818,2.33886891389415,2.33691962321745,2.33481039074163,2.33697960139212,2.33754939405146,2.33475041256697,2.33587000516076,2.33614990330921,2.33630984510833,2.33580003062365,2.336459790545,2.34009846647484,2.34104812090708,2.34238763347466,2.34300740794623
2.22810921800769,2.23002851959706,2.22996854142239,2.23272753745711,2.23095818130441,2.23398707912513,2.23322735557934,2.23444691179758,2.23515665353115,2.2366461115354,2.23763575141742,2.23891528581033,2.24057468197614,2.24055468925125,2.24143436914638,2.24310376167463,2.24398344156976,2.24537293594956,2.24602269950846,2.24730223390137,2.2477120847616,2.24914156459118,2.25027115354743,2.25127078979189,2.25191055698835,2.25337002590526,2.25398980037683,2.25455959303617,2.25607904012775,2.25790837445512,2.25784839628045,2.25883803616247,2.25973770878249,2.26086729773873,2.26210684668186,2.26297653021455,2.26362629377345,2.26493581725369,2.26552560263793,2.26728496242818,2.2677148060133,2.26838456229709,2.26967409305245,2.27034384933624,2.27157340191693,2.27300288174651,2.27359266713074,2.27495217242321,2.27572189233145,2.27666155040124,2.27811102295571,2.27905068102551,2.28109993532666,2.28165973162355,2.28341909141381,2.28487856033072,2.28637801469742,2.28953686522992,2.29607448626871,2.34949504717279,2.36154066391856,2.35920151510652,2.37274658621899,2.37600540037594,2.37684509482129,2.37829456737576,2.3707773028174,2.28881712713391,2.28969680702903,2.28887710530857,2.28885711258368,2.28965682157926,2.29016663606393,2.2902266142386,2.29108630140884,2.29117626867084,2.29203595584108,2.29236583580175,2.29260574850042,2.29337546840866,2.29425514830378,2.29381530835622,2.29490491186268,2.29540472998492,2.29593453719448,2.2964543480416,2.29720407522495,2.29796379877074,2.29794380604585,2.29816372601963,2.29927332225099,2.29983311854789,2.30152250380103,2.30275205638172,2.30149251471369,2.30258211822016,2.30338182721573,2.30399160532485,2.3049212670322,2.30664064137268,2.30798015394026,2.30930967014539,2.31166881168232,2.31687691651597,2.40445504789335,2.40266569901576,2.41451138851264,2.4130019377835,2.41424148672664,2.41680055551246,2.41556100656933,2.41679055915002,2.41687053004957,2.41874984618916,2.41849993712805,2.42313824930235,2.42359808197481,2.42771658330199,2.42566732900084,2.42679691795709,2.42440778733282,2.4245377400446,2.42413788554682,2.42490760545505,2.42413788554682,2.42836634686089,2.42806645598755,2.42896612860757,2.42896612860757,2.42935598674291,2.42990578667737,2.4299357757647,2.42998575757692,2.43033563026248,2.4301157102887,2.43115533198294,2.33780929947502,2.33465044894252,2.33247124192959,2.33383074722206,2.33452049623074,2.33481039074163,2.33373078359761,2.33468043802985,2.33497033254075,2.33669970324367,2.33818916124792,2.34125804451842,2.34431693142647,2.34185782626509
2.22792928348369,2.22889893064082,2.22924880332638,2.23004851232195,2.23231768659688,2.23232768295932,2.23337730101601,2.23394709367535,2.23600634433894,2.23620627158784,2.23723589691963,2.23793564229076,2.23884531127322,2.24059467470103,2.24060467106347,2.24235403449128,2.24367355433397,2.24435330698021,2.24526297596267,2.24742219025071,2.24737220843849,2.2481819137965,2.2497713354252,2.251160829805,2.25153069521545,2.25322008046859,2.25414974217594,2.25497944025885,2.25576915289197,2.25607904012775,2.25724861453378,2.25839819621491,2.2591579197607,2.26078732683917,2.26098725408807,2.26168699945919,2.26338638107478,2.26452596639346,2.26599543167282,2.26626533345883,2.26759484966396,2.26973407122712,2.26942418399133,2.2703138602489,2.27151342374226,2.27316282354562,2.27354268531852,2.27492218333588,2.27513210694721,2.27699143036191,2.27823097930505,2.27945053552329,2.2806401026542,2.28198961158423,2.28451869128272,2.28756758182833,2.28882712349635,2.29197597766641,2.34916516721212,2.36466952536373,2.37361626975167,2.37515570956815,2.37511572411837,2.37604538582572,2.37679511300906,2.37782473834086,2.28865718533479,2.28876714532168,2.28876714532168,2.28869717078457,2.28890709439591,2.2891070216448,2.29030658513816,2.28968681066659,2.29074642508572,2.2913462068324,2.29145616681929,2.29116627230839,2.29244580670131,2.2927357012122,2.29343544658332,2.29368535564444,2.29519480637358,2.29482494096313,2.2953347554478,2.29569462449581,2.2963643807796,2.29688419162672,2.29759393336029,2.29845362053053,2.29868353686675,2.2992533295261,2.29989309672255,2.30128259110236,2.30168244560014,2.30237219460882,2.30312192179217,2.30452141253441,2.30500123793176,2.30521116154309,2.30950959739428,2.3097595064554,2.31139890989632,2.40295559352665,2.40867351284498,2.40842360378386,2.41095268348235,2.41321186139484,2.41413152673974,2.41502120299732,2.41558099929422,2.4142114976393,2.41494123209776,2.41872985346427,2.41834999169138,2.41563098110644,2.42539742721484,2.42235853303167,2.41899975525028,2.41825002806693,2.4197894678834,2.42176874764744,2.42445776914504,2.42430782370837,2.42758663059021,2.4276066233151,2.4261271616733,2.42625711438508,2.42883617589579,2.4291060776818,2.43012570665115,2.43432417887789,2.43033563026248,2.42999575393937,2.4302056775507,2.43021567391315,2.33987854650106,2.33603994332232,2.33450050350585,2.33391071812162,2.33322096911294,2.33409065264562,2.33442053260629,2.3331010127636,2.33522024160186,2.33500032162808,2.33689963049256,2.33918879749238,2.34145797176731,2.34146796812975
2.22684967633967,2.22908886152726,2.22915883606438,2.2299485486975,2.2308882067673,2.23183786119954,2.23255759929555,2.23381714096357,2.23471681358359,2.23569645710316,2.23684603878429,2.23734585690653,2.23869536583655,2.24032477291502,2.24070463468792,2.24173426001972,2.24310376167463,2.24506304871378,2.24489311055222,2.24687239031625,2.24748216842538,2.24781204838605,2.24894163734229,2.25050106988365,2.25197053516301,2.25216046604946,2.25353996406682,2.25441964396195,2.25429968761261,2.25563920018019,2.25688874548577,2.25814828715379,2.25981767968205,2.25990764694405,2.26172698490897,2.2621368357692,2.26355631923634,2.26405613735857,2.26490582816636,2.26643527162039,2.26756486057663,2.26796471507442,2.26900433676866,2.2704038275109,2.27074370383402,2.27142345648026,2.27334275806962,2.27462229246254,2.27533203419611,2.27681149583791,2.27861084107794,2.28033021541842,2.28153977527422,2.28384893499893,2.28614809836119,2.28820734902478,2.29120625775817,2.36226040201458,2.36881801577825,2.37159700453786,2.3724566917081,2.3748758114197,2.3757055095026,2.37666516029728,2.37522568410526,2.37317642980411,2.29018662878882,2.28878713804657,2.28797743268856,2.28880713077146,2.28864718897235,2.28955685795481,2.28973679247881,2.28973679247881,2.28916699981947,2.29041654512505,2.29115627594595,2.29129622502017,2.29225587581486,2.29245580306375,2.29258575577553,2.29322552297199,2.29368535564444,2.29424515194134,2.29633439169227,2.29590454810715,2.29588455538226,2.29641436259182,2.29761392608518,2.29750396609829,2.29841363508075,2.29939327860032,2.29965318402388,2.30075278389279,2.30191236193637,2.30332184904106,2.30300196544283,2.30442144890997,2.30417153984885,2.30518117245576,2.3081700848267,2.31241853886567,2.40624439677093,2.40356537163577,2.40812371291052,2.4078937965743,2.41150248341681,2.41532109387065,2.41380164677907,2.41304192323328,2.41416151582708,2.4142114976393,2.41500121027243,2.42209862760811,2.41846994804071,2.42041923871741,2.41554101384444,2.42351811107525,2.42222858031989,2.41369168679218,2.42023930419341,2.41911971159961,2.42149884586143,2.42008935875674,2.42067914414097,2.4227683838919,2.42413788554682,2.42476765638083,2.42628710347241,2.42768659421466,2.43077547021005,2.42765660512732,2.42954591762936,2.43026565572537,2.43012570665115,2.42977583396558,2.33940871746616,2.33779930311258,2.33750940860168,2.33231130013048,2.33363081997317,2.33285110370249,2.3325412164667,2.33488036527875,2.33405066719584,2.33486037255386,2.33541017248831,2.33760937222613,2.34135800814286,2.33964863016483
2.22786930530902,2.22764938533524,2.2278193234968,2.22975861781105,2.23019845775862,2.23267755564488,2.23238766113399,2.23268755200733,2.23421699546136,2.23449689360981,2.23716592238252,2.23884531127322,2.2386853694741,2.24012484566613,2.24032477291502,2.24133440552193,2.24178424183194,2.24416337609376,2.24504305598889,2.24608267768313,2.24709231029004,2.24768209567427,2.24943145910208,2.250980895281,2.25092091710633,2.25188056790101,2.25296017504503,2.25420972035061,2.25438965487461,2.25572916744219,2.25636893463865,2.25826824350313,2.25916791612314,2.26038747234139,2.26070735593962,2.26154705038497,2.26319645018833,2.26413610825812,2.2652057190397,2.26583548987371,2.26652523888239,2.2673349442404,2.26866446044554,2.27030386388646,2.27068372565935,2.27183330734049,2.27295289993428,2.27480222698654,2.27565191779433,2.27814101204305,2.27905068102551,2.2804601681302,2.28316918235269,2.28548833843985,2.28898706529547,2.28976678156615,2.360830922185,2.36247032562591,2.37105720096585,2.3710472046034,2.37228675354654,2.37401612424946,2.37601539673838,2.37718497114441,2.37482582960747,2.37585545493927,2.36718860869978,2.28778750180211,2.28829731628679,2.28782748725189,2.28848724717323,2.2887271598719,2.28917699618191,2.29006667243948,2.2901366469766,2.2906964432735,2.29099633414684,2.29216590855286,2.29267572303753,2.29206594492841,2.2928256684742,2.29303559208554,2.29381530835622,2.29436510829067,2.29474497006357,2.29569462449581,2.29569462449581,2.29656430802849,2.29676423527738,2.29769389698473,2.29879349685364,2.29916336226409,2.29974315128588,2.30039291484478,2.30141254381414,2.30256212549527,2.30352177628995,2.30392163078774,2.30551105241643,2.30727041220669,2.3088198483856,2.31731675646354,2.40255573902887,2.40537471323825,2.40748394571407,2.40855355649564,2.41089270530769,2.41017296721167,2.41003301813745,2.41281200689705,2.41362171225507,2.41433145398864,2.41686053368713,2.41878983163894,2.42292832569102,2.41391160676596,2.31906611989135,2.32117535236716,2.42132890769988,2.4148612611982,2.41947958064762,2.41835998805382,2.41789015901892,2.41983944969563,2.41970949698385,2.42166878402299,2.42383799467348,2.42351811107525,2.42372803468659,2.42540742357728,2.42675693250731,2.42800647781289,2.42701683793087,2.42911607404424,2.42968586670358,2.42792650691333,2.42709680883043,2.33829912123481,2.33656975053189,2.33391071812162,2.33538018340098,2.33289108915227,2.33392071448406,2.33504030707786,2.33403067447095,2.33439054351896,2.33666971415633,2.33743943406457,2.33845906303392,2.34052831005996
2.22599998553187,2.22723953447501,2.22785930894657,2.22913884333949,2.22980859962328,2.23099816675419,2.23187784664931,2.23326734102912,2.23412702819936,2.23514665716871,2.23629623884984,2.23769572959209,2.23826552225143,2.23975498025568,2.24055468925125,2.2406546528757,2.24205414361794,2.24277388171396,2.24424334699332,2.24707231756515,2.24725225208915,2.24820190652139,2.24834185559561,2.25006122993609,2.251070862543,2.25203051333768,2.2526402914468,2.25381986221527,2.25424970580039,2.25529932385707,2.25737856724556,2.25749852359489,2.25881804343758,2.2594278215467,2.26076733411428,2.26186693398319,2.26242673028009,2.26314646837611,2.26441600640657,2.26559557717504,2.26669517704395,2.26741491513996,2.26848452592154,2.26920426401755,2.27103359834492,2.27215319093871,2.27279295813517,2.27527205602144,2.27677151038813,2.27843090655394,2.27988037910841,2.28179968069778,2.28486856396828,2.28774751635233,2.28954686159236,2.36049104586188,2.36079093673522,2.36200049659102,2.37015752834583,2.37107719369074,2.37203684448542,2.37437599329746,2.37611536036283,2.37925421817044,2.37556556042838,2.37486581505725,2.29068644691105,2.28915700345702,2.28852723262301,2.28795743996367,2.28848724717323,2.28850723989812,2.28941690888058,2.28926696344391,2.28981676337837,2.29026659968838,2.29025660332593,2.29130622138262,2.2916161086184,2.29179604314241,2.29223588308997,2.2932055302471,2.29346543567066,2.29427514102867,2.29424515194134,2.29474497006357,2.29547470452203,2.29599451536915,2.29685420253939,2.2976639078974,2.29807375875763,2.29810374784496,2.29998306398455,2.30249215095816,2.30114264202813,2.30208230009793,2.30273206365683,2.30517117609332,2.30535111061732,2.30769025942936,2.31080912451208,2.40178601912063,2.40408518248289,2.40520477507669,2.40866351648253,2.4078937965743,2.40875348374454,2.40954319637766,2.40879346919431,2.40858354558298,2.41297194869617,2.41330182865684,2.41759026814559,2.40440506608112,2.31875623265556,2.31667698926708,2.31698687650286,2.31789654548533,2.31921606532802,2.41246213421149,2.42077910776542,2.41800011900582,2.42015933329385,2.42118895862565,2.4178401772067,2.42041923871741,2.42278837661679,2.42257845300545,2.42291832932857,2.42403792192237,2.42362807106214,2.42368804923681,2.42605718713618,2.42971585579092,2.42815642324956,2.42753664877799,2.42557736173884,2.42549739083928,2.33829912123481,2.33387073267184,2.33279112552782,2.3319814201698,2.33249123465448,2.33421060899496,2.33396069993384,2.33382075085962,2.33475041256697,2.33587000516076,2.33643979782011,2.34050831733507
2.22594000735721,2.22695963632656,2.22755941807324,2.22958867964949,2.22945872693771,2.23045836318218,2.23156795941353,2.23343727919068,2.23343727919068,2.23455687178447,2.23629623884984,2.23695599877118,2.23762575505497,2.23895527126011,2.23994491114213,2.24124443825993,2.24185421636905,2.24321372166152,2.24456323059154,2.24568282318534,2.2463225903818,2.24723225936426,2.2478020520236,2.24940147001474,2.25001124812387,2.25142073522856,2.25231041148613,2.25306013866948,2.25409976036372,2.25549925110597,2.25636893463865,2.25697871274777,2.25856813437647,2.2590679524987,2.25997762148116,2.2613971049483,2.26224679575609,2.263436362887,2.2646459227428,2.26507576632792,2.26629532254616,2.26694508610506,2.26848452592154,2.26978405303934,2.27050379113535,2.27249306726183,2.27377260165474,2.27565191779433,2.27735129940992,2.27935057189885,2.281579760724,2.28378895682426,2.28595816747474,2.28947688705525,2.36270024196214,2.36260027833769,2.36259028197525,2.36206047476569,2.37137708456408,2.37128711730208,2.37148704455097,2.37313644435433,2.37239671353343,2.37235672808365,2.37066734283051,2.37057737556851,2.28876714532168,2.28754758910344,2.287717527265,2.28718772005543,2.28812737812523,2.28809738903789,2.2892869561688,2.28947688705525,2.2892869561688,2.28977677792859,2.28992672336526,2.29067645054861,2.29162610498085,2.2916161086184,2.29230585762708,2.29355540293266,2.29275569393709,2.2935653992951,2.29348542839555,2.29418517376667,2.29513482819891,2.29581458084515,2.29628440988004,2.29711410796295,2.29764391517251,2.29871352595409,2.29898342774009,2.29962319493655,2.30097270386657,2.30140254745169,2.30279204183149,2.30375169262618,2.30593089963911,2.31321824786124,2.40307554987599,2.4020259318193,2.40291560807687,2.40467496786713,2.40619441495871,2.40795377474897,2.40794377838652,2.40755392025118,2.41018296357412,2.40664425126872,2.40645432038227,2.41100266529458,2.31518753126283,2.31566735666017,2.31361810235902,2.31686692015353,2.31547742577373,2.31768662187399,2.32003576704848,2.31965590527558,2.32158520322739,2.4216487912981,2.41736035180936,2.41568096291866,2.41940960611051,2.42105900591387,2.41880982436383,2.41830000987915,2.42024930055586,2.42340815108836,2.42199866398367,2.42386798376081,2.4237080419617,2.41856991166516,2.42666696524531,2.42617714348552,2.42458772185682,2.42411789282193,2.41694050458668,2.3360799287721,2.33451049986829,2.33328094728761,2.3318014856458,2.33241126375492,2.3325412164667,2.33221133650603,2.33436055443162,2.33507029616519,2.33627985602099,2.33843907030903
2.22544018923497,2.22626988731788,2.22715956357545,2.22835912706881,2.22924880332638,2.23001852323461,2.23053833408173,2.23284749380644,2.23317737376712,2.23506668626915,2.23476679539581,2.23656614063584,2.23759576596764,2.23831550406365,2.2396250275439,2.24161430367038,2.2414843509586,2.2439934379322,2.24361357615931,2.24504305598889,2.24577279044735,2.24766210294938,2.2480919465345,2.24940147001474,2.25054105533343,2.25196053880057,2.25202051697524,2.25235039693591,2.25363992769127,2.25611902557753,2.25568918199241,2.25677878549888,2.25788838173023,2.25869808708825,2.25910793794848,2.26095726500073,2.26235675574298,2.26298652657699,2.26418609007035,2.26479586817947,2.26572552988682,2.26752487512685,2.26804468597397,2.26925424582977,2.27153341646715,2.27231313273783,2.27504213968521,2.27601178684234,2.27805104478104,2.27909066647529,2.28311920054047,2.28627805107297,2.28916699981947,2.36139071848189,2.36371987093149,2.36440961994017,2.36502939441174,2.36333001279615,2.37070732828029,2.37069733191784,2.37107719369074,2.37244669534565,2.37208682629765,2.37270660076921,2.37486581505725,2.3737562188259,2.28858721079768,2.28814737085012,2.28832730537412,2.28812737812523,2.28858721079768,2.28816736357501,2.28876714532168,2.28856721807279,2.28891709075835,2.2892869561688,2.28971679975392,2.29032657786305,2.29092635960972,2.29167608679307,2.29179604314241,2.29230585762708,2.29299560663576,2.29294562482354,2.29366536291955,2.29418517376667,2.29473497370113,2.2958045844827,2.29696416252628,2.29607448626871,2.29741399883629,2.29817372238208,2.29899342410254,2.30004304215922,2.30010302033389,2.30204231464815,2.30281203455638,2.30939963740739,2.30680058317179,2.40130619372329,2.40117624101151,2.40228583724286,2.40307554987599,2.40386526250911,2.40488489147846,2.40515479326447,2.40971313453922,2.4074239675394,2.40688416396739,2.40676420761805,2.41056282534701,2.4065942694565,2.31404794594414,2.31335819693546,2.3135681205468,2.31345816055991,2.31419789138081,2.31682693470375,2.31611719297018,2.32037564337159,2.32137527961606,2.35283383222929,2.41286198870928,2.41353174499307,2.42000938785718,2.42038924963008,2.41782018448181,2.41971949334629,2.4189597698005,2.41909971887472,2.42569731808818,2.42715678700509,2.41891978435072,2.41747031179625,2.41664061371335,2.42609717258596,2.42179873673477,2.42386798376081,2.42456772913193,2.33754939405146,2.33402067810851,2.33324096183783,2.33278112916537,2.33075186758911,2.33101177301267,2.33267116917848,2.33321097275049,2.33376077268495,2.33514027070231,2.33586000879832
2.2248404074883,2.22677970180255,2.22688966178945,2.22706959631345,2.22847908341814,2.22946872330016,2.23104814856641,2.23224771205977,2.23232768295932,2.2340470572998,2.23541655895471,2.23668609698518,2.23731586781919,2.23807559136498,2.23864538402433,2.2401848238408,2.24111448554815,2.24354360162219,2.24289383806329,2.24427333608065,2.24510303416355,2.24698235030314,2.24806195744716,2.24881168463051,2.24973134997542,2.25077097166966,2.25131077524167,2.25229041876124,2.25252033509747,2.25400979310172,2.25483949118462,2.25642891281332,2.25727860362111,2.25864810527602,2.25939783245937,2.2604574468785,2.26162702128452,2.26301651566433,2.26411611553323,2.26479586817947,2.26635530072083,2.26767482056352,2.26879441315732,2.26967409305245,2.27201324186449,2.27283294358495,2.27549197599522,2.27713137943614,2.28179968069778,2.28158975708644,2.28595816747474,2.36362990366949,2.35870169698429,2.36026112952565,2.36441961630262,2.36412972179172,2.36600903793131,2.36396977999261,2.373016488005,2.3703974410445,2.37007755744628,2.3715170336383,2.3720768299352,2.3707773028174,2.37308646254211,2.36513935439863,2.28752759637855,2.28768753817766,2.28711774551832,2.28704777098121,2.28719771641788,2.28739764366677,2.28816736357501,2.28849724353568,2.28850723989812,2.2891070216448,2.28905703983258,2.28996670881504,2.29162610498085,2.29108630140884,2.29113628322106,2.29183602859218,2.29241581761397,2.29265573031264,2.29305558481043,2.29423515557889,2.29423515557889,2.29527477727314,2.29675423891494,2.29622443170538,2.2968342098145,2.29809375148252,2.29916336226409,2.29927332225099,2.30077277661768,2.30228222734682,2.30310192906728,2.30574096875266,2.31060919726319,2.40078638287617,2.40213589180619,2.40180601184552,2.40331546257466,2.40393523704623,2.4055646441247,2.40344541528644,2.40246577176687,2.4047349460418,2.40661426218139,2.40711408030362,2.4067742039805,2.31205866981766,2.31167880804477,2.3167269710793,2.31293834971279,2.31220861525433,2.31401795685681,2.3150675749135,2.31582729845929,2.3163671020313,2.31984583616203,2.32060555970782,2.41389161404107,2.41534108659554,2.41377165769174,2.41525111933354,2.41573094473088,2.41786016993159,2.41698049003646,2.41805010081804,2.41939960974806,2.41830000987915,2.4181300717176,2.41689052277446,2.41550102839466,2.4175702754207,2.41865987892716,2.42488761273016,2.42422785280882,2.34133801541797,2.33407065992073,2.33331093637494,2.3311517220869,2.33107175118734,2.33098178392534,2.33276113644049,2.33232129649292,2.33396069993384,2.33399068902117,2.33533020158875
2.2242806111914,2.22560013103409,2.22774934895968,2.22789929439635,2.2289189233657,2.22937875603816,2.23021845048351,2.23201779572354,2.23409703911202,2.23326734102912,2.23500670809448,2.23583640617739,2.23689602059652,2.23709594784541,2.23856541312477,2.23955505300679,2.2406546528757,2.24197417271839,2.24294381987552,2.24365356160908,2.24439329242999,2.2468823866787,2.2464125576438,2.24849180103228,2.24980132451253,2.2501312044732,2.25064101895788,2.2518105933639,2.25260030599702,2.25396980765194,2.25511938933307,2.25612902193998,2.25728859998355,2.25846817075202,2.25925788338515,2.2611072104374,2.26125715587407,2.26280659205299,2.26382622102234,2.26478587181702,2.2659454498606,2.26786475144997,2.26832458412242,2.27043381659824,2.27254304907405,2.2732028089954,2.27650160860213,2.2800803063573,2.28200960430912,2.35967134414142,2.36185055115435,2.36021114771343,2.36316007463459,2.36266025651236,2.36468951808862,2.36527930347285,2.36452957628951,2.36548922708419,2.36790834679579,2.36827821220624,2.36912790301404,2.36840816491802,2.36923786300093,2.36976767021049,2.36663880876532,2.3658490961322,2.28973679247881,2.28932694161858,2.28871716350946,2.28759757091566,2.28694780735676,2.28739764366677,2.287717527265,2.28824733447456,2.28837728718634,2.28869717078457,2.28964682521681,2.28952686886748,2.29050651238705,2.29083639234772,2.29058648328661,2.29136619955729,2.29221589036508,2.29228586490219,2.29344544294577,2.29382530471866,2.29374533381911,2.2945950246269,2.29544471543469,2.2966342825656,2.29658430075338,2.2975739406354,2.29914336953921,2.29936328951299,2.30072279480546,2.30249215095816,2.3047413325082,2.30726041584424,2.40046649927794,2.39997667751815,2.40111626283684,2.40322549531266,2.40117624101151,2.4023158263302,2.40186599002019,2.40178601912063,2.40356537163577,2.40162607732152,2.40569459683648,2.40335544802444,2.31138891353387,2.31098905903609,2.31083911359942,2.31118898628498,2.31251850249012,2.312448527953,2.31251850249012,2.31384801869525,2.31508756763838,2.31499760037638,2.31537746214928,2.31721679283909,2.41641069737712,2.41357173044285,2.41140251979236,2.41178238156526,2.41334181410662,2.41529110478332,2.41629074102778,2.41846994804071,2.41697049367402,2.41767023904514,2.41803010809315,2.41768023540759,2.41494123209776,2.41592087561733,2.41658063553868,2.42385798739837,2.4233281801888,2.41986943878296,2.33641980509522,2.33405066719584,2.33194143472003,2.33237127830514,2.33062191487733,2.33149159841002,2.33187146018291,2.33332093273738,2.3322713146807,2.33436055443162
2.22398072031806,2.2258500400952,2.22586003645765,2.22763938897279,2.22856905068014,2.2287389888417,2.23009849413417,2.23120809036552,2.23239765749643,2.23270754473222,2.23446690452247,2.2349667226447,2.23705596239563,2.23739583871875,2.23836548587588,2.239245165771,2.24038475108969,2.24149434732104,2.24275388898907,2.24364356524664,2.24422335426843,2.24646253945602,2.24721226663937,2.24937148092741,2.24849180103228,2.24962138998853,2.25036112080943,2.25145072431589,2.25206050242502,2.25397980401438,2.25459957848595,2.25542927656885,2.25661884369976,2.25752851268223,2.25878805435025,2.26028750871694,2.26115719224962,2.26251669754209,2.26356631559878,2.26480586454191,2.26769481328841,2.2677148060133,2.26889437678177,2.27064374020958,2.2736726380303,2.27492218333588,2.27816100476793,2.28198961158423,2.35826185703673,2.35823186794939,2.36085091490989,2.36071096583566,2.36173059480501,2.36263026742503,2.36471950717596,2.36430965631573,2.36480947443796,2.3643496417655,2.36755847411023,2.36801830678268,2.36657883059066,2.36715861961244,2.36824822311891,2.36881801577825,2.36662881240288,2.36302012556037,2.28779749816455,2.28973679247881,2.2865079674092,2.28622806926075,2.28698779280654,2.28723770186766,2.2873376654921,2.28796743632611,2.28796743632611,2.2890170543828,2.28940691251814,2.28933693798103,2.29001669062726,2.29082639598528,2.29149615226907,2.29129622502017,2.29229586126464,2.29224587945241,2.29258575577553,2.29295562118598,2.29369535200688,2.29573460994559,2.2957146172207,2.29591454446959,2.29688419162672,2.29713410068784,2.2981337369323,2.30054286028145,2.30201232556081,2.30354176901484,2.30385165625062,2.30916972107117,2.39849721587635,2.39843723770168,2.3998967066186,2.40111626283684,2.40233581905509,2.40094632467528,2.40116624464906,2.40064643380194,2.40002665933038,2.40620441132116,2.40313552805066,2.31118898628498,2.3118887316561,2.31010937914096,2.30996943006674,2.31044925546408,2.31156884805788,2.31577731664706,2.31086910268675,2.31206866618011,2.31352813509702,2.31397797140703,2.31456775679126,2.31686692015353,2.31894616354201,2.41199230517659,2.41678056278757,2.41212225788837,2.41316187958262,2.41460135577464,2.41472131212398,2.4171004463858,2.41767023904514,2.4172803809098,2.41756027905825,2.41579092290555,2.41434145035108,2.41526111569599,2.416070821054,2.42294831841591,2.42290833296613,2.42410789645948,2.42375802377392,2.33182147837069,2.33210137651914,2.330322024004,2.33371079087272,2.3302120640171,2.33168152929647,2.3309717875629,2.33271115462826,2.33432056898185
