2.21621460173566,0.209256347849177,2.21649066288951,2.21865943667135,2.21664448572546,2.2195587525114,0.209256347849177,2.21924825048142,2.22223554471783,2.21901856411597,2.22230986019427,0.209256347849177,2.22182129184431,2.22461954105158,2.22229947348888,2.22578099811444,0.209256347849177,2.2250517160116,2.22855711223792,2.22617192684975,2.22858304244617,0.209256347849177,2.22859052443081,2.22826057948483,2.23065057236513,2.23018778905114,0.209256347849177,2.2311339327977,2.23314039105561,2.23108060213632,2.23414626426831,0.209256347849177,2.2346720436852,2.23291872843392,2.23631198574699,2.23543708807336,0.209256347849177,2.23565154859644,2.23878156841333,2.23633914433993,2.23935492740863,0.209256347849177,2.23966596142989,2.23782640448616,2.24258950437777,2.23919832336977,0.209256347849177,2.24292416925638,2.24091073838383,2.24472864982713,2.24221761825957,0.209256347849177,2.244925794702,2.24404664318684,2.2471092093181,2.24596709067699,0.209256347849177,2.24785196198739,2.24559228745271,2.25001151779128,2.24815894431043,0.209256347849177,2.25001450028233,2.25194640682001,2.25037302858361,2.25315011884995,0.209256347849177,2.25373305625307,2.25382558110954,2.25575625118833,2.25654499493898,0.209256347849177,2.25818699424043,2.26010577483758,2.26176082254624,2.26402866890946,0.209256347849177,2.26830813142352,2.32023776551735,2.32204895885335,2.32156979968867,0.209256347849177,2.32365917331742,2.32357665741904,2.32307952173329,2.320921797962,0.209256347849177,2.32152589185134,2.32076608012449,2.32246803721562,2.32090075306581,0.209256347849177,2.32141550262648,2.32069765134241,2.32104225141027,2.32117614161729,0.209256347849177,2.32182990547574,2.32192087295074,2.32400208157259,2.32309375068168,0.209256347849177,2.32398271151286,2.32461962070575,2.32774314166402,2.32579346740657,0.209256347849177,2.32717109207537,2.32918302238126,2.32741790646407,2.33006911288245,0.209256347849177,2.32875416021086,2.33158738677435,2.32868153312807,2.33171256796654,0.209256347849177,2.33247683677058,2.33315373757843,2.28171986461046,2.27986022896365,0.209256347849177,2.27861908027998,2.28104311903964,2.2769174215997,2.27956140931004,0.209256347849177,2.27706073999482,2.2807079217028,2.27597323195109,2.27950567707495,0.209256347849177,2.28017778424829,2.27713125178816,2.28071775453162,2.27868022512648,0.209256347849177,2.27905744440008,2.28249583075412,2.27827554442733,2.28185566853147,0.209256347849177,2.28025938803996,2.2836835329398,2.2803333472847,2.28344761924043,0.209256347849177,2.28215351940099,2.2854800223228,2.28207317729959,2.28580832126228,0.209256347849177,2.28563885451444,2.28725658316977,2.28936538122362,2.34858578118096,0.209256347849177,2.34779866028642,2.34778771040637,2.35079926419894,2.35059721349777,0.209256347849177,2.3498827213248,2.35198179771746,2.34877958942738,2.35014333564522,0.209256347849177,2.3513640049805,2.34956711227313,2.35184293159856,2.35041171475267,0.209256347849177
2.21572418028242,0.209256377745109,2.21676910945339,2.21683893657844,2.21873223892715,2.21856720318692,0.209256377745109,2.21996486755038,2.21972173122773,2.22209940056797,2.2215047667139,0.209256377745109,2.22306982883273,2.22223968819115,2.22411324287608,2.22390623907662,0.209256377745109,2.22523043570397,2.2266457022877,2.22784720566097,2.2274494798192,0.209256377745109,2.22909411629781,2.22920190707461,2.22960698348423,2.23016873150871,0.209256377745109,2.23026481087352,2.23197292112347,2.23364663742878,2.23304297543725,0.209256377745109,2.23364004553597,2.23514227022084,2.23483142626792,2.23639346220284,0.209256377745109,2.23710871369034,2.23615832477088,2.23853322520543,2.23818595462178,0.209256377745109,2.2388217879067,2.24066693751091,2.23885254242527,2.24091102337012,0.209256377745109,2.24102602521765,2.24343611271583,2.2420644546561,2.24382111835727,0.209256377745109,2.24381518182501,2.24543011345397,2.24520144549287,2.24655865937313,0.209256377745109,2.2465709462411,2.24834062203975,2.24706864472442,2.24923064692617,0.209256377745109,2.25019375016199,2.25024516705244,2.25218991254254,2.25228237519464,0.209256377745109,2.25353987932306,2.2540742828456,2.25589173027878,2.25673201480253,0.209256377745109,2.25853028927982,2.25981753336955,2.26180354595212,2.26365653565218,0.209256377745109,2.32030244031223,2.32022770920188,2.32027986099917,2.32128965959092,0.209256377745109,2.32176925418572,2.32303654060892,2.32204603818303,2.32076138250178,0.209256377745109,2.32059995706626,2.32189458947634,2.3209340613247,2.32124036153022,0.209256377745109,2.32050723679305,2.3205522899694,2.32026781518063,2.32046559959234,0.209256377745109,2.32072488765708,2.3210170752482,2.32201670507465,2.32256282732783,0.209256377745109,2.32328306997525,2.32616998235065,2.32548079613219,2.32861242585851,0.209256377745109,2.32696195883405,2.32772020622233,2.32935500785488,2.32928495385698,0.209256377745109,2.32978522818617,2.32868874763956,2.32974249381268,2.3313908177746,0.209256377745109,2.3297463233036,2.33329752752865,2.28270597946628,2.27990382140994,0.209256377745109,2.2795899581441,2.27800064847073,2.27927641070279,2.27812140394405,0.209256377745109,2.27938968417275,2.27725665397828,2.27910261061401,2.27782163509863,0.209256377745109,2.27813151488763,2.27996485275148,2.2786079142703,2.27958696965836,0.209256377745109,2.28032094083976,2.27913651242697,2.28142323632067,2.28015865159673,0.209256377745109,2.28216009123476,2.28042333517361,2.28292554406167,2.28166077801262,0.209256377745109,2.283476256232,2.28279421904088,2.28514999390218,2.28407752755748,0.209256377745109,2.28644810856207,2.28769896887516,2.28929697501776,2.34794613911111,0.209256377745109,2.3475574849431,2.34825782620165,2.34885950451993,2.35047038397805,0.209256377745109,2.35086122652924,2.34968293298688,2.35033626599506,2.34925351688101,0.209256377745109,2.34960815664444,2.35062342730308,2.34922944541789,2.3493409099759,0.209256377745109
0.209256377745109,0.209256386796855,0.209256377745109,0.209256347849177,0.209256347849177,0.209256377745109,0.209256386796855,0.209256377745109,0.209256347849177,0.209256347849177,0.209256377745109,0.209256386796855,0.209256377745109,0.209256347849177,0.209256347849177,0.209256377745109,0.209256386796855,0.209256377745109,0.209256347849177,0.209256347849177,0.209256377745109,0.209256386796855,0.209256377745109,0.209256347849177,0.209256347849177,0.209256377745109,0.209256386796855,0.209256377745109,0.209256347849177,0.209256347849177,0.209256377745109,0.209256386796855,0.209256377745109,0.209256347849177,0.209256347849177,0.209256377745109,0.209256386796855,0.209256377745109,0.209256347849177,0.209256347849177,0.209256377745109,0.209256386796855,0.209256377745109,0.209256347849177,0.209256347849177,0.209256377745109,0.209256386796855,0.209256377745109,0.209256347849177,0.209256347849177,0.209256377745109,0.209256386796855,0.209256377745109,0.209256347849177,0.209256347849177,0.209256377745109,0.209256386796855,0.209256377745109,0.209256347849177,0.209256347849177,0.209256377745109,0.209256386796855,0.209256377745109,0.209256347849177,0.209256347849177,0.209256377745109,0.209256386796855,0.209256377745109,0.209256347849177,0.209256347849177,0.209256377745109,0.209256386796855,0.209256377745109,0.209256347849177,0.209256347849177,0.209256377745109,0.209256386796855,0.209256377745109,0.209256347849177,0.209256347849177,0.209256377745109,0.209256386796855,0.209256377745109,0.209256347849177,0.209256347849177,0.209256377745109,0.209256386796855,0.209256377745109,0.209256347849177,0.209256347849177,0.209256377745109,0.209256386796855,0.209256377745109,0.209256347849177,0.209256347849177,0.209256377745109,0.209256386796855,0.209256377745109,0.209256347849177,0.209256347849177,0.209256377745109,0.209256386796855,0.209256377745109,0.209256347849177,0.209256347849177,0.209256377745109,0.209256386796855,0.209256377745109,0.209256347849177,0.209256347849177,0.209256377745109,0.209256386796855,0.209256377745109,0.209256347849177,0.209256347849177,0.209256377745109,0.209256386796855,0.209256377745109,0.209256347849177,0.209256347849177,0.209256377745109,0.209256386796855,0.209256377745109,0.209256347849177,0.209256347849177,0.209256377745109,0.209256386796855,0.209256377745109,0.209256347849177,0.209256347849177,0.209256377745109,0.209256386796855,0.209256377745109,0.209256347849177,0.209256347849177,0.209256377745109,0.209256386796855,0.209256377745109,0.209256347849177,0.209256347849177,0.209256377745109,0.209256386796855,0.209256377745109,0.209256347849177,0.209256347849177,0.209256377745109,0.209256386796855,0.209256377745109,0.209256347849177,0.209256347849177,0.209256377745109,0.209256386796855,0.209256377745109,0.209256347849177,0.209256347849177,0.209256377745109,0.209256386796855,0.209256377745109,0.209256347849177,0.209256347849177,0.209256377745109,0.209256386796855,0.209256377745109,0.209256347849177,0.209256347849177,0.209256377745109,0.209256386796855,0.209256377745109,0.209256347849177,0.209256347849177,0.209256377745109,0.209256386796855
2.21594319970433,0.209256377745109,2.21642908261714,2.21681651205763,2.21874619327027,2.21831947073804,0.209256377745109,2.21912783388952,2.22107806908043,2.22020177683443,2.2220614562547,0.209256377745109,2.2222281801431,2.22353845266489,2.22305865638106,2.22501750431927,0.209256377745109,2.22621666245624,2.22539973096989,2.22719178836173,2.22731178390458,0.209256377745109,2.22805044249571,2.22972404054699,2.22871837525076,2.23019995680469,0.209256377745109,2.23111582514366,2.23025710252802,2.23240463592518,2.23320092943418,0.209256377745109,2.23335325082951,2.23490034997711,2.23407271272585,2.23586656187087,0.209256377745109,2.23790594130534,2.23635694631821,2.23860112073827,2.23779367911831,0.209256377745109,2.23904875871108,2.23888398724493,2.24111073441501,2.2396608100413,0.209256377745109,2.24129939926355,2.24167948236103,2.24382822416934,2.24300933347407,0.209256377745109,2.24335298309034,2.24551302044675,2.24488670750522,2.24664423838629,0.209256377745109,2.24713570033298,2.24654146744292,2.2488720422615,2.24863367863549,0.209256377745109,2.25058662566075,2.25006908301254,2.25223990343792,2.25211721057752,0.209256377745109,2.25326821898935,2.25388064296958,2.2555822544676,2.25653081734966,0.209256377745109,2.25870342482174,2.25993510090328,2.26227331482515,2.26266585758934,0.209256377745109,2.32051269278988,2.32145104022577,2.3201591660625,2.32132262989082,0.209256377745109,2.32159954889664,2.32174409090638,2.32135265551626,2.32103509008182,0.209256377745109,2.32112836743047,2.32063526700551,2.32162806521476,2.32100256517848,0.209256377745109,2.31971893823219,2.3185211721274,2.32048280525274,2.31998306724894,0.209256377745109,2.32013343264197,2.32053525877328,2.32179368396665,2.32281960859519,0.209256377745109,2.32285126846006,2.32300789590483,2.3246780900483,2.32474672523143,0.209256377745109,2.32652881788721,2.3257519132708,2.32813347266945,2.327055132801,0.209256377745109,2.32793715315773,2.32924984377657,2.32757706102004,2.32950396399221,0.209256377745109,2.32964186255965,2.32996494812204,2.2813310359034,2.2790963890302,0.209256377745109,2.27945160968976,2.28011371377375,2.27761639257207,2.27907082675899,0.209256377745109,2.27895344304101,2.27694632975033,2.27938490876211,2.2774573170026,0.209256377745109,2.27810515161603,2.27983763586933,2.27795420322912,2.27975989970027,0.209256377745109,2.27944507005506,2.28182885647628,2.28017327451934,2.28149433121143,0.209256377745109,2.28092745025339,2.28237176041786,2.28064671016336,2.28287561803169,0.209256377745109,2.28328971887383,2.28328043920063,2.2851951898412,2.28521139750582,0.209256377745109,2.28646005500193,2.28837986994139,2.28968873951649,2.34953524990576,0.209256377745109,2.34788341249943,2.3473223206354,2.34975637144766,2.35063172453642,0.209256377745109,2.35044740088813,2.34892296987334,2.34871773403919,2.34846647644001,0.209256377745109,2.34896721656748,2.34860740115783,2.34774242073555,2.34848049888405,0.209256377745109
2.21556430710869,0.209256347849177,2.21668334418375,2.21935297700887,2.21672647305013,2.21911422203931,0.209256347849177,2.21975340009373,2.21896156026136,2.22183166568482,2.2205994141712,0.209256347849177,2.22324198028784,2.22169558341181,2.22517182225686,2.22321880816129,0.209256347849177,2.22443408313634,2.22740137652051,2.22497776476323,2.22909881895557,0.209256347849177,2.22926852404319,2.22780225589013,2.23107460168563,2.22893375572157,0.209256347849177,2.23020079505624,2.23064834503197,2.23127592822775,2.23350944349518,0.209256347849177,2.23424602970707,2.23307647853219,2.23628285279663,2.23455192822846,0.209256347849177,2.23571984687357,2.23891179436626,2.23488800955992,2.23902463048718,0.209256347849177,2.23849605151742,2.24118331702783,2.23749296543085,2.24136157078253,0.209256347849177,2.24101363457549,2.24326900836772,2.24110933244806,2.24415704054281,0.209256347849177,2.24426110238795,2.2436666673773,2.24694113612715,2.24518811100491,0.209256347849177,2.24590886515501,2.24870524266367,2.24659745141845,2.24981456598461,0.209256347849177,2.24918762667193,2.2521620246919,2.24978183747564,2.2524890009898,0.209256347849177,2.25335988471476,2.25418414997368,2.25534447874242,2.25688881821411,0.209256347849177,2.25789320005746,2.2602538357935,2.26247777764163,2.26451814307764,0.209256347849177,2.31776135699914,2.31965238475482,2.32155770101796,2.31988174068812,0.209256347849177,2.32215680746876,2.32067544673986,2.32094777850154,2.32053151869308,0.209256347849177,2.32068103252722,2.31983567180306,2.31883482446785,2.31855413250781,0.209256347849177,2.31760644685497,2.32043721482079,2.31775798431797,2.32002427507949,0.209256347849177,2.31914055339609,2.32044030668944,2.3199211958158,2.32128440495364,0.209256347849177,2.32196421580927,2.32387548832221,2.32280686809511,2.32514931352281,0.209256347849177,2.32531838833685,2.3279252487644,2.32473762450807,2.32786574151636,0.209256347849177,2.32827587086691,2.32583770077071,2.33034089343601,2.32729594013252,0.209256347849177,2.32978136213695,2.28138313353312,2.2812805434011,2.27930299382674,0.209256347849177,2.27999274281646,2.276964743913,2.28041948198193,2.27698069866498,0.209256347849177,2.27780738187582,2.28080228018258,2.27514348268807,2.2795078481164,0.209256347849177,2.27945386238174,2.27622601289111,2.28142830857715,2.27763586977301,0.209256347849177,2.28013825149322,2.27856386041691,2.28248857772847,2.27960468216806,0.209256347849177,2.28185149800253,2.27929188039038,2.28436268601992,2.28056159682163,0.209256347849177,2.28236823994614,2.2848857596652,2.28326114103222,2.28603284885925,0.209256347849177,2.28701778203352,2.28984631943516,2.34358461981744,2.34482949320183,0.209256347849177,2.34581835907382,2.34642672932677,2.35032522939263,2.35101566690301,0.209256347849177,2.35022703844782,2.34948796991061,2.34873144900599,2.34846600631287,0.209256347849177,2.34751248968073,2.34648732479133,2.34776332514626,2.34672982051983,0.209256347849177
2.21594732661439,0.209256347849177,2.21714004192008,2.21692173003477,2.21935627249125,2.217008850274,0.209256347849177,2.21851956276654,2.22123906675089,2.21879272117253,2.22169618672906,0.209256347849177,2.22156926284703,2.22411634158002,2.22172663212076,2.22512742438305,0.209256347849177,2.22590113126985,2.22402758141453,2.22738306585593,2.22614534941471,0.209256347849177,2.2278950880739,2.23083311102816,2.22754675881914,2.23088973840714,0.209256347849177,2.23069488638646,2.229391072182,2.23125644606491,2.23278471361691,0.209256347849177,2.23281975405496,2.2353333693014,2.23345100263349,2.23647912817233,0.209256347849177,2.2366767578392,2.23519178309093,2.23925070209457,2.23685515325062,0.209256347849177,2.23998062778932,2.23724058422218,2.24227993953723,2.23892770369699,0.209256347849177,2.2414410592674,2.24085905946765,2.24418875362775,2.2420001273546,0.209256347849177,2.24368803853828,2.24578533555594,2.24344827645034,2.24682259224913,0.209256347849177,2.24788727347058,2.24613281412508,2.24962922874211,2.24770947203586,0.209256347849177,2.25070216128775,2.24908805896474,2.25193139733063,2.25216456810669,0.209256347849177,2.25336480407646,2.25382818421305,2.25513553128988,2.25690323500599,0.209256347849177,2.25774852350027,2.26016805283317,2.26297854284347,2.2649392106348,0.209256347849177,2.31819444719922,2.32066796338551,2.31862171658357,2.32054926649934,0.209256347849177,2.32253507097664,2.32000831101697,2.31883886337447,2.31897158911256,0.209256347849177,2.31891301189645,2.31819400779218,2.31843869091891,2.31788203704573,0.209256347849177,2.31909070318164,2.31606787944334,2.31928216821062,2.31776935480357,0.209256347849177,2.31890110572206,2.31826597050883,2.32018798987056,2.31974897736988,0.209256347849177,2.32200778944386,2.32205262614843,2.32427727985209,2.32338026780931,0.209256347849177,2.32685783973956,2.32462186196924,2.32773392407546,2.32563171813486,0.209256347849177,2.32603078567037,2.32932011289057,2.32561627399744,2.32929568292603,0.209256347849177,2.3278683681074,2.28148801931867,2.28059383414,2.27922442886585,0.209256347849177,2.2781797983914,2.28013750375888,2.27608384954775,2.27859906370653,0.209256347849177,2.27876544088886,2.27520863284296,2.28101753820306,2.27667510778525,0.209256347849177,2.27772116196538,2.28085305746481,2.2762394468433,2.2803181210583,0.209256347849177,2.27883453123391,2.28199638170117,2.27759575342106,2.28145461667295,0.209256347849177,2.28043110737345,2.2831295321379,2.2790538125497,2.2833744021858,0.209256347849177,2.28285189977306,2.28342220984954,2.28608461225092,2.28500744256367,0.209256347849177,2.28780557618287,2.28975714409684,2.34288891331449,2.34491569075137,0.209256347849177,2.34513593992245,2.34620890164025,2.34657234029797,2.34760656360871,0.209256347849177,2.35018076848292,2.34715734641124,2.34678428354486,2.34696398230158,0.209256347849177,2.34614217438388,2.34777867564777,2.3450746506129,2.34727734964339,0.209256347849177
2.21491987875786,0.209256377745109,2.21675543071405,2.21804485436093,2.21640778883124,2.2179119295293,0.209256377745109,2.21942348845501,2.21918705729379,2.22156154758647,2.2214258982154,0.209256377745109,2.22283173830715,2.22235169694477,2.2245377692384,2.22338235417661,0.209256377745109,2.22474887213243,2.22660767599332,2.22569047885945,2.22724176331336,0.209256377745109,2.22896494331487,2.22814487559957,2.23058882782523,2.22928569197903,0.209256377745109,2.22988630971429,2.23048653549755,2.23048431229177,2.23288548600826,0.209256377745109,2.23395802849552,2.23347987638959,2.23557008416609,2.23523215386063,0.209256377745109,2.23554829207002,2.23689491329308,2.23669007994699,2.23827046137217,0.209256377745109,2.23870819833833,2.24026534503952,2.23866416028135,2.24066331698165,0.209256377745109,2.24095875320808,2.2421886413029,2.24146358615807,2.24327925815649,0.209256377745109,2.24390407628448,2.24385039733117,2.2458099143674,2.24553772383666,0.209256377745109,2.24651209966774,2.24794263927701,2.24738609410519,2.24924630613691,0.209256377745109,2.2493084446455,2.2509553147794,2.25058260514033,2.2524204666412,0.209256377745109,2.25311441562057,2.25409903138278,2.25565159309894,2.25645568430532,0.209256377745109,2.25777093009881,2.26001395508927,2.26166480631802,2.26600975482235,0.209256377745109,2.3145748061536,2.31613394734485,2.31955903519876,2.31948408884943,0.209256377745109,2.31951945836855,2.31923221852762,2.3193002938108,2.31994499590097,0.209256377745109,2.3182355740638,2.31725591529929,2.31698635854606,2.317730782899,0.209256377745109,2.31727090947139,2.31847336983278,2.31682733110923,2.31770767326088,0.209256377745109,2.31795845992329,2.31894155254789,2.31897030355029,2.31999616829641,0.209256377745109,2.32111067133244,2.32249691016766,2.32261129837458,2.32373332768385,0.209256377745109,2.32427296949444,2.32533515450636,2.32486294008762,2.3266201472729,0.209256377745109,2.32722581663202,2.32619496075437,2.32867282966364,2.32758306176396,0.209256377745109,2.32995592586917,2.28069939559721,2.28014147341393,2.2791824329104,0.209256377745109,2.27856389906282,2.27722919585487,2.27858729525191,2.27677986733021,0.209256377745109,2.27732750078296,2.27915304342011,2.27678998398484,2.27850342463531,0.209256377745109,2.27907554254348,2.27773948639306,2.27988397719274,2.27863553405478,0.209256377745109,2.28012468000507,2.27869311065081,2.28092851806476,2.2797003544406,0.209256377745109,2.2809344911617,2.28052867025565,2.28304548833493,2.28150593179307,0.209256377745109,2.28319262148263,2.28436303577932,2.28463084891638,2.2857506450264,0.209256377745109,2.28821671847243,2.28998206439833,2.34275124615362,2.34270142349796,0.209256377745109,2.3437591498339,2.34631145487237,2.34668319175318,2.34713565175685,0.209256377745109,2.34631240818111,2.3467404999455,2.34641609724388,2.34614410017324,0.209256377745109,2.34747555848626,2.34559747618055,2.34652243330906,2.34584675878419,0.209256377745109
0.209256377745109,0.209256386796855,0.209256377745109,0.209256347849177,0.209256347849177,0.209256377745109,0.209256386796855,0.209256377745109,0.209256347849177,0.209256347849177,0.209256377745109,0.209256386796855,0.209256377745109,0.209256347849177,0.209256347849177,0.209256377745109,0.209256386796855,0.209256377745109,0.209256347849177,0.209256347849177,0.209256377745109,0.209256386796855,0.209256377745109,0.209256347849177,0.209256347849177,0.209256377745109,0.209256386796855,0.209256377745109,0.209256347849177,0.209256347849177,0.209256377745109,0.209256386796855,0.209256377745109,0.209256347849177,0.209256347849177,0.209256377745109,0.209256386796855,0.209256377745109,0.209256347849177,0.209256347849177,0.209256377745109,0.209256386796855,0.209256377745109,0.209256347849177,0.209256347849177,0.209256377745109,0.209256386796855,0.209256377745109,0.209256347849177,0.209256347849177,0.209256377745109,0.209256386796855,0.209256377745109,0.209256347849177,0.209256347849177,0.209256377745109,0.209256386796855,0.209256377745109,0.209256347849177,0.209256347849177,0.209256377745109,0.209256386796855,0.209256377745109,0.209256347849177,0.209256347849177,0.209256377745109,0.209256386796855,0.209256377745109,0.209256347849177,0.209256347849177,0.209256377745109,0.209256386796855,0.209256377745109,0.209256347849177,0.209256347849177,0.209256377745109,0.209256386796855,0.209256377745109,0.209256347849177,0.209256347849177,0.209256377745109,0.209256386796855,0.209256377745109,0.209256347849177,0.209256347849177,0.209256377745109,0.209256386796855,0.209256377745109,0.209256347849177,0.209256347849177,0.209256377745109,0.209256386796855,0.209256377745109,0.209256347849177,0.209256347849177,0.209256377745109,0.209256386796855,0.209256377745109,0.209256347849177,0.209256347849177,0.209256377745109,0.209256386796855,0.209256377745109,0.209256347849177,0.209256347849177,0.209256377745109,0.209256386796855,0.209256377745109,0.209256347849177,0.209256347849177,0.209256377745109,0.209256386796855,0.209256377745109,0.209256347849177,0.209256347849177,0.209256377745109,0.209256386796855,0.209256377745109,0.209256347849177,0.209256347849177,0.209256377745109,0.209256386796855,0.209256377745109,0.209256347849177,0.209256347849177,0.209256377745109,0.209256386796855,0.209256377745109,0.209256347849177,0.209256347849177,0.209256377745109,0.209256386796855,0.209256377745109,0.209256347849177,0.209256347849177,0.209256377745109,0.209256386796855,0.209256377745109,0.209256347849177,0.209256347849177,0.209256377745109,0.209256386796855,0.209256377745109,0.209256347849177,0.209256347849177,0.209256377745109,0.209256386796855,0.209256377745109,0.209256347849177,0.209256347849177,0.209256377745109,0.209256386796855,0.209256377745109,0.209256347849177,0.209256347849177,0.209256377745109,0.209256386796855,0.209256377745109,0.209256347849177,0.209256347849177,0.209256377745109,0.209256386796855,0.209256377745109,0.209256347849177,0.209256347849177,0.209256377745109,0.209256386796855,0.209256377745109,0.209256347849177,0.209256347849177,0.209256377745109,0.209256386796855
2.2158449705954,0.209256377745109,2.21595825789952,2.21711649755869,2.21669186255776,2.21781494928987,0.209256377745109,2.218368685557,2.21986146327815,2.21948646763642,2.22058956995802,0.209256377745109,2.22223503109366,2.2224338845444,2.22346889632103,2.22404621241654,0.209256377745109,2.22543656974222,2.22603128055145,2.22429027870445,2.2265049059205,0.209256377745109,2.22732778522451,2.22841520710463,2.2295520129396,2.23029760331347,0.209256377745109,2.23060583190142,2.23145842841745,2.23007912178919,2.23139387376491,0.209256377745109,2.23312237477558,2.23467860364466,2.23358169458745,2.23587558510673,0.209256377745109,2.23633419469196,2.23572841966238,2.23782874967264,2.23737070410562,0.209256377745109,2.23921477315928,2.23824479460184,2.24050938026451,2.23931755212305,0.209256377745109,2.24209275444505,2.24097266857655,2.24319669392213,2.24229612795847,0.209256377745109,2.24386894320018,2.24369204904301,2.24596569295088,2.24571439979445,0.209256377745109,2.24619102467743,2.24795053869882,2.24699486445737,2.24913534150236,0.209256377745109,2.24985069651887,2.24956538506165,2.25179244415592,2.25127790612232,0.209256377745109,2.25310759286386,2.25428872045927,2.25574042316884,2.2568250507583,0.209256377745109,2.25851118180188,2.26075963591291,2.26333652408901,2.31331599395064,0.209256377745109,2.31595834462133,2.31672903345175,2.31841779966509,2.31868532005809,0.209256377745109,2.31929509142007,2.31796493488729,2.31793799145892,2.31691988825589,0.209256377745109,2.31711778094074,2.31516486115525,2.31759553148902,2.31693544201301,0.209256377745109,2.31674982479017,2.3150687891234,2.31755660589315,2.31604983098192,0.209256377745109,2.31738214349764,2.31730398073661,2.31913949312197,2.31914718545754,0.209256377745109,2.32081578609647,2.32128184131175,2.3229848274309,2.32314951302815,0.209256377745109,2.32491605451289,2.32525496470861,2.32559252770815,2.32585127780929,0.209256377745109,2.32666933908837,2.32608320255573,2.3274090166986,2.32642575818656,0.209256377745109,2.32743761524633,2.28077475969121,2.27878256968166,2.27836656582134,0.209256377745109,2.27915238908868,2.27883478510772,2.27654007901321,2.278300145198,0.209256377745109,2.27829130335023,2.27661670795818,2.27920730471581,2.27780864974058,0.209256377745109,2.27830740059511,2.2787982543068,2.27937248257838,2.27829356219262,0.209256377745109,2.2797573313639,2.28107595753186,2.27920377329682,2.28072391359801,0.209256377745109,2.28143865519798,2.28043802739351,2.28275182586162,2.2821963884268,0.209256377745109,2.28351605016294,2.2840784073263,2.28552531498988,2.28758175404249,0.209256377745109,2.28908907427697,2.34231347714005,2.34257750218395,2.3430381722608,0.209256377745109,2.34514938946801,2.34749642464336,2.34460877405249,2.34167059443941,0.209256377745109,2.34098783009637,2.34142125042774,2.34428784164645,2.34649647262495,0.209256377745109,2.34455031841363,2.34454108916717,2.34415246029759,2.34563971230671,0.209256377745109
2.21441920304686,0.209256347849177,2.21718630301616,2.21625597317173,2.21847603725171,2.21749296259273,0.209256347849177,2.219400388783,2.2184654033113,2.22124952317245,2.22088848520651,0.209256347849177,2.22115277784946,2.22287832824727,2.22308972494626,2.2248629131902,0.209256347849177,2.22575797242314,2.22819217870309,2.22567816356854,2.22632511002703,0.209256347849177,2.22806302855748,2.22689721307575,2.23010292417047,2.22933563439523,0.209256347849177,2.23102344459726,2.22990613762358,2.23227171863331,2.23081710500821,0.209256347849177,2.23372072364556,2.23224969396882,2.23677661304433,2.23380521719448,0.209256347849177,2.2353186218624,2.23818532819205,2.23579140495413,2.23849018642147,0.209256347849177,2.23770221562244,2.24099049190138,2.23718886953754,2.2411699971601,0.209256347849177,2.24079970111809,2.24359328738145,2.23990125890276,2.24364616077341,0.209256347849177,2.2432203597393,2.24525748503017,2.24432194869956,2.24650128153621,0.209256347849177,2.24738887410013,2.24533904866862,2.24905023050387,2.24751668273374,0.209256347849177,2.24911043807031,2.25134979010881,2.24934817870709,2.25251575076592,0.209256347849177,2.25289943806966,2.25404957794217,2.25568383793767,2.25684587028068,0.209256347849177,2.25881002986657,2.26001985811255,2.26298887548856,2.31505386320876,0.209256347849177,2.31534431797962,2.31634080345699,2.31818753692024,2.31791555253004,0.209256347849177,2.3180066235437,2.31893938469075,2.3159975355551,2.31735153345852,0.209256347849177,2.31498152864242,2.31824421369184,2.31416638234577,2.31618847821104,0.209256347849177,2.31472022227302,2.31762999585433,2.31343483456946,2.31728692552949,0.209256347849177,2.31618237249238,2.31846208704234,2.31722645779506,2.31950874224259,0.209256347849177,2.31987199091261,2.32108854814753,2.32186002270831,2.32297708102435,0.209256347849177,2.32355301925307,2.32301216639494,2.32605174201574,2.32536511213101,0.209256347849177,2.32557184003608,2.32725478526758,2.32437726532305,2.32748793042298,0.209256347849177,2.3272377270995,2.28110190553367,2.27837415072071,2.27831542595417,0.209256347849177,2.27915901985092,2.27480570196716,2.28059781119464,2.27632876262464,0.209256347849177,2.27614491807749,2.28050689532417,2.27493504443101,2.27949282357308,0.209256347849177,2.27802059385468,2.28073564444525,2.27792434380762,2.27913251622912,0.209256347849177,2.27952509072258,2.2791966291916,2.28219607725235,2.27923996511701,0.209256347849177,2.28032114370208,2.28345713125558,2.27998032796276,2.28349930127736,0.209256347849177,2.28349113902925,2.28466464949609,2.28640778132223,2.2875230620425,0.209256347849177,2.33976659834883,2.34373321187387,2.34257933686448,2.34311245779215,0.209256347849177,2.34548961826612,2.34445383538132,2.34425496321825,2.34227047228241,0.209256347849177,2.34002494941641,2.34389614668335,2.34346022166373,2.34410193036515,0.209256347849177,2.34394946479466,2.34245196356144,2.3444662192764,2.34362398928854,0.209256347849177
2.21562336010133,0.209256347849177,2.21563453314682,2.21652707252712,2.216709290725,2.21794279719173,0.209256347849177,2.21805408631475,2.22016834622599,2.21876236120517,2.22132345033694,0.209256347849177,2.2207532006465,2.22205386216949,2.22310967290842,2.22474539502828,0.209256347849177,2.22538756230621,2.22466422961746,2.22594885159227,2.22580174090175,0.209256347849177,2.22705714920263,2.22965303600145,2.22722641711485,2.23004374916791,0.209256347849177,2.22959907319199,2.23221413154656,2.23015826903356,2.23268764593529,0.209256347849177,2.2325125572568,2.23533868012873,2.23210407759926,2.23602658049326,0.209256347849177,2.23657147689459,2.23449798351144,2.23878160886116,2.23677132931001,0.209256347849177,2.23960155499311,2.23712491649037,2.24170903158902,2.23865779332721,0.209256347849177,2.24197118217474,2.23940603347641,2.24405779620185,2.24127498756882,0.209256347849177,2.24425145726379,2.24302641563535,2.24594752163657,2.24486162190265,0.209256347849177,2.24555671639294,2.24909983431031,2.24585800527499,2.24893920351316,0.209256347849177,2.24965516583949,2.24908761053869,2.25229003424106,2.25110035606058,0.209256347849177,2.25280981613966,2.25408941135304,2.25517880027315,2.25718081950273,0.209256347849177,2.25864544689773,2.26029731909362,2.26318170875971,2.31333059535648,0.209256347849177,2.31443739433996,2.31604076883636,2.3178194813123,2.31883893414278,0.209256347849177,2.31974009917805,2.31691330007274,2.31759540157725,2.315879679648,0.209256347849177,2.31690422648792,2.31364540149547,2.31656594502995,2.3147022313448,0.209256347849177,2.31610652935362,2.31357013287349,2.317643195613,2.31459556707392,0.209256347849177,2.31636974348675,2.31606323164148,2.31893897936075,2.31791943129093,0.209256347849177,2.31975438452778,2.32011289778666,2.32195651884956,2.32206766154269,0.209256347849177,2.32315841844907,2.3241593897174,2.32410058114595,2.32487355823178,0.209256347849177,2.32499515581733,2.324273020802,2.32730750435139,2.32564854419925,0.209256347849177,2.28145889214604,2.27925027891233,2.27866207128733,2.27832225759925,0.209256347849177,2.27655480737924,2.28058252338365,2.27471014952788,2.27882663360509,0.209256347849177,2.27887609747717,2.27470461091924,2.2800899751633,2.27706192609542,0.209256347849177,2.27833108162994,2.2773317850826,2.27997756212464,2.27819115675853,0.209256347849177,2.27887353705501,2.28123739295967,2.2780498161781,2.28145580037628,0.209256347849177,2.28202765370746,2.27961411113361,2.28423046503553,2.28121762407907,0.209256347849177,2.28345943729978,2.28478568594695,2.28639647130791,2.28823988997979,0.209256347849177,2.34042861489585,2.34057619598728,2.34191922308491,2.34668684369406,0.209256347849177,2.3433449443755,2.34402394358248,2.34370312753971,2.34220942142576,0.209256347849177,2.33911801712304,2.34115598383263,2.3428684949414,2.34362452060281,0.209256347849177,2.34182972640078,2.34325068330686,2.34196724818905,2.34316172131941,0.209256347849177
2.21409786164832,0.209256377745109,2.21555214511404,2.21553917532823,2.2177232722848,2.21703080498898,0.209256377745109,2.21843509854306,2.21873198825724,2.22074278998803,2.22083824605089,0.209256377745109,2.22098736646348,2.22290533956294,2.22280853805845,2.2240271240476,0.209256377745109,2.22510274058196,2.22615197618428,2.22540467089191,2.22675324694355,0.209256377745109,2.22804885711871,2.22736842803171,2.22928502584386,2.22904262632777,0.209256377745109,2.23045409319529,2.22967560393014,2.23129123259033,2.23267938758445,0.209256377745109,2.23261238987656,2.23313460841181,2.23514137496765,2.23439703746048,0.209256377745109,2.23528994430128,2.23710572347953,2.23581303378925,2.23774529450505,0.209256377745109,2.23778649439229,2.23988262853346,2.23849202572068,2.24067873945657,0.209256377745109,2.24061782577806,2.24230340262275,2.24088823985099,2.24296979436478,0.209256377745109,2.24306784200921,2.24462119083096,2.2440377700916,2.24572726094318,0.209256377745109,2.24718864277145,2.24596349809691,2.2484567387411,2.24780917564546,0.209256377745109,2.24918411807298,2.25064643327996,2.25016632705919,2.25213944748525,0.209256377745109,2.25256191218524,2.25412189151529,2.25574785213857,2.25683052289762,0.209256377745109,2.25863810299883,2.26038344243775,2.26320718470087,2.31299081842508,0.209256377745109,2.31469965218544,2.31662675754035,2.31672277984606,2.31657230802557,0.209256377745109,2.31671097108497,2.31605894173353,2.3155995883076,2.31562179332547,0.209256377745109,2.31482678291478,2.31640426973404,2.31451223391758,2.31456088794259,0.209256377745109,2.31470853705341,2.31589352117798,2.3139912775198,2.31583134724269,0.209256377745109,2.31578662548167,2.31757338557712,2.31668600745731,2.31832982114619,0.209256377745109,2.31926608143584,2.32022089625548,2.32059948800578,2.32190975049384,0.209256377745109,2.32383734880843,2.32328274167738,2.32414713935654,2.32399257967002,0.209256377745109,2.32422252036598,2.3251044970281,2.32581816324277,2.32716627552336,0.209256377745109,2.28099742580414,2.28028688476258,2.27805500132221,2.27775536939444,0.209256377745109,2.27820563140147,2.27680927825884,2.27849550366676,2.27698299294666,0.209256377745109,2.27679984228202,2.27849049897609,2.27643826988667,2.27816205091906,0.209256377745109,2.27771854045638,2.27890595869409,2.27773846692091,2.27889970593501,0.209256377745109,2.2796369016133,2.27879301530644,2.28087153689385,2.2794902034566,0.209256377745109,2.28075818705811,2.28241726281666,2.28085094351029,2.2827418817137,0.209256377745109,2.28445817202922,2.28488111948946,2.28645027225524,2.28883683081575,0.209256377745109,2.34009429447054,2.34126376845207,2.34160131710926,2.34148032705193,0.209256377745109,2.34322459742301,2.34336060713003,2.34256943805511,2.34250545582419,0.209256377745109,2.34095946120435,2.34236608078409,2.34220247439842,2.34318522287376,0.209256377745109,2.34021921843311,2.34092979697516,2.3425380636762,2.34235992143769,0.209256377745109
0.209256377745109,0.209256386796855,0.209256377745109,0.209256347849177,0.209256347849177,0.209256377745109,0.209256386796855,0.209256377745109,0.209256347849177,0.209256347849177,0.209256377745109,0.209256386796855,0.209256377745109,0.209256347849177,0.209256347849177,0.209256377745109,0.209256386796855,0.209256377745109,0.209256347849177,0.209256347849177,0.209256377745109,0.209256386796855,0.209256377745109,0.209256347849177,0.209256347849177,0.209256377745109,0.209256386796855,0.209256377745109,0.209256347849177,0.209256347849177,0.209256377745109,0.209256386796855,0.209256377745109,0.209256347849177,0.209256347849177,0.209256377745109,0.209256386796855,0.209256377745109,0.209256347849177,0.209256347849177,0.209256377745109,0.209256386796855,0.209256377745109,0.209256347849177,0.209256347849177,0.209256377745109,0.209256386796855,0.209256377745109,0.209256347849177,0.209256347849177,0.209256377745109,0.209256386796855,0.209256377745109,0.209256347849177,0.209256347849177,0.209256377745109,0.209256386796855,0.209256377745109,0.209256347849177,0.209256347849177,0.209256377745109,0.209256386796855,0.209256377745109,0.209256347849177,0.209256347849177,0.209256377745109,0.209256386796855,0.209256377745109,0.209256347849177,0.209256347849177,0.209256377745109,0.209256386796855,0.209256377745109,0.209256347849177,0.209256347849177,0.209256377745109,0.209256386796855,0.209256377745109,0.209256347849177,0.209256347849177,0.209256377745109,0.209256386796855,0.209256377745109,0.209256347849177,0.209256347849177,0.209256377745109,0.209256386796855,0.209256377745109,0.209256347849177,0.209256347849177,0.209256377745109,0.209256386796855,0.209256377745109,0.209256347849177,0.209256347849177,0.209256377745109,0.209256386796855,0.209256377745109,0.209256347849177,0.209256347849177,0.209256377745109,0.209256386796855,0.209256377745109,0.209256347849177,0.209256347849177,0.209256377745109,0.209256386796855,0.209256377745109,0.209256347849177,0.209256347849177,0.209256377745109,0.209256386796855,0.209256377745109,0.209256347849177,0.209256347849177,0.209256377745109,0.209256386796855,0.209256377745109,0.209256347849177,0.209256347849177,0.209256377745109,0.209256386796855,0.209256377745109,0.209256347849177,0.209256347849177,0.209256377745109,0.209256386796855,0.209256377745109,0.209256347849177,0.209256347849177,0.209256377745109,0.209256386796855,0.209256377745109,0.209256347849177,0.209256347849177,0.209256377745109,0.209256386796855,0.209256377745109,0.209256347849177,0.209256347849177,0.209256377745109,0.209256386796855,0.209256377745109,0.209256347849177,0.209256347849177,0.209256377745109,0.209256386796855,0.209256377745109,0.209256347849177,0.209256347849177,0.209256377745109,0.209256386796855,0.209256377745109,0.209256347849177,0.209256347849177,0.209256377745109,0.209256386796855,0.209256377745109,0.209256347849177,0.209256347849177,0.209256377745109,0.209256386796855,0.209256377745109,0.209256347849177,0.209256347849177,0.209256377745109,0.209256386796855,0.209256377745109,0.209256347849177,0.209256347849177,0.209256377745109,0.209256386796855
2.21511308591493,0.209256377745109,2.21561334301646,2.21772352892468,2.21584649731977,2.2177579166611,0.209256377745109,2.21919571993235,2.21830061690773,2.22042665099113,2.22035713854136,0.209256377745109,2.2216834046946,2.22165344466854,2.22363235944161,2.22241098897619,0.209256377745109,2.2247536671518,2.22388640708635,2.22643406677714,2.22589991552175,0.209256377745109,2.22748579181383,2.22871791623004,2.22751677628394,2.2295915354286,0.209256377745109,2.23018375434515,2.23024058292615,2.23196137700902,2.2319163675964,0.209256377745109,2.23321640099745,2.23308115028684,2.23528311759832,2.23424757492114,0.209256377745109,2.23575539118642,2.23743940697995,2.23555051495858,2.23786872248909,0.209256377745109,2.23899547813901,2.23798043415551,2.24037110721764,2.2395330612503,0.209256377745109,2.24053519402245,2.24173476216921,2.24103125919963,2.24266047668137,0.209256377745109,2.2427719848991,2.24449222189384,2.24379265266448,2.24565917083993,0.209256377745109,2.24621966537301,2.24771345305025,2.24728142088695,2.24885274591151,0.209256377745109,2.24991704034881,2.24935064547518,2.25159923783732,2.25122853661184,0.209256377745109,2.25345544318263,2.25388805867485,2.25609438289327,2.2571420859884,0.209256377745109,2.25918928390844,2.2623337844607,2.26267786553409,2.31365660131941,0.209256377745109,2.31477406016339,2.31698430371998,2.31526537840429,2.31661157092054,0.209256377745109,2.31634629401508,2.31429749037229,2.31640228182473,2.31506834503876,0.209256377745109,2.3143720190991,2.31348210355505,2.31504050496565,2.31321188861696,0.209256377745109,2.31368216776468,2.31502126769942,2.31343619053876,2.31522807757263,0.209256377745109,2.31502840516685,2.31587133955968,2.31753305338145,2.31686859230417,0.209256377745109,2.31870023346988,2.31964935358678,2.32007415754238,2.32161539371664,0.209256377745109,2.32258570645542,2.32245954390376,2.32456418400142,2.32374921733893,0.209256377745109,2.32314927504336,2.3245926228054,2.3261615664164,2.32802652537019,0.209256377745109,2.28083461069823,2.2792391605776,2.27795380566758,2.27798218201201,0.209256377745109,2.27738154650127,2.27593206207933,2.27770591388184,2.27637097870445,0.209256377745109,2.27758928486503,2.27632054556606,2.27857859850411,2.27748809123935,0.209256377745109,2.27743785978093,2.27922049849088,2.27695023920249,2.27886795952452,0.209256377745109,2.27881214602929,2.27950742973644,2.28133243689226,2.27996855781915,0.209256377745109,2.28056897348061,2.28212273260585,2.28125126625391,2.28346374682356,0.209256377745109,2.28388258207103,2.28584587550555,2.28748996225325,2.33813084207931,0.209256377745109,2.33947678149891,2.3395041653709,2.34054388996757,2.34213586913493,0.209256377745109,2.34268670008538,2.34204576211469,2.3415698277148,2.34060201649419,0.209256377745109,2.34023908607163,2.34261245822853,2.34322544872657,2.33956546163394,0.209256377745109,2.33995066389477,2.34023391875341,2.33984071681837,2.34094790622542,0.209256377745109
2.21445567695262,0.209256347849177,2.21631727009287,2.21552299929281,2.21877595430074,2.21607688297511,0.209256347849177,2.21791623509259,2.22118086151538,2.21832075993702,2.22124775506722,0.209256347849177,2.22042341993291,2.2228579670046,2.22049871984917,2.22333012611952,0.209256347849177,2.22340037744625,2.22545272990009,2.22427464248151,2.22658642347905,0.209256347849177,2.22820859588072,2.22633611018374,2.23047512075658,2.22792510666563,0.209256347849177,2.22931881799293,2.23139704932875,2.23026918404163,2.23269684702353,0.209256347849177,2.23232091125103,2.23444868926946,2.23221742935548,2.2355175468123,0.209256347849177,2.23712724617124,2.23388764692008,2.23916629656062,2.23586041618854,0.209256347849177,2.23801588469029,2.2404913402589,2.23724038674858,2.24090675297377,0.209256347849177,2.24103815632468,2.2407245447255,2.24376384290112,2.24177961607569,0.209256347849177,2.24393604658228,2.24232765275579,2.24561694027139,2.24453660241726,0.209256347849177,2.24787259906916,2.24511073651526,2.24956596054825,2.24711698794548,0.209256347849177,2.24891643378033,2.25154772113261,2.24946091531593,2.25247241158297,0.209256347849177,2.25339346835241,2.25445280773298,2.2557730286386,2.25743118703817,0.209256347849177,2.25964295135672,2.26130863070837,2.26407502734046,2.31366169650747,0.209256347849177,2.31562144717505,2.31368021268005,2.31817541634772,2.31442854996534,0.209256347849177,2.31472232200121,2.31736265832906,2.31321400446756,2.31549671822833,0.209256347849177,2.31347128399331,2.31473470991198,2.31215284478937,2.31385094754421,0.209256347849177,2.31413582284901,2.31151346766994,2.31565841318795,2.31475900735698,0.209256347849177,2.31463923281294,2.31681062443477,2.31444808025248,2.31778412567568,0.209256347849177,2.3184258195933,2.31898542618306,2.32111404699093,2.32048084755476,0.209256347849177,2.32150632094637,2.32341181992763,2.32224063174303,2.32412074740195,0.209256347849177,2.32342667535378,2.32392669441505,2.32529160669811,2.32110116099176,0.209256347849177,2.28070085535029,2.27809926310573,2.27909303715128,2.27716517859812,0.209256347849177,2.2762118598795,2.27921578121008,2.27468813523641,2.27753730693782,0.209256347849177,2.27633480519474,2.27885875183325,2.27621808269286,2.27824642868982,0.209256347849177,2.27934076312499,2.2753789423265,2.28109942312543,2.27705189269482,0.209256347849177,2.27884348868243,2.2810561587232,2.27793077552204,2.2815250322485,0.209256347849177,2.28194428100288,2.2799610522309,2.28366703256207,2.28242965998705,0.209256347849177,2.28529342132782,2.28610574255614,2.28904910351496,2.33816766353571,0.209256347849177,2.33830429144828,2.34043640891045,2.34018166004415,2.3424439431803,0.209256347849177,2.34217764704732,2.34175917465982,2.34014659328156,2.34014080977385,0.209256347849177,2.33931066175998,2.33930487202629,2.33903537167898,2.33889657217965,0.209256347849177,2.33862099229449,2.33833533889228,2.34003003400632,2.33928582937815,0.209256347849177
2.21537788813151,0.209256347849177,2.21559680018847,2.21802521646767,2.21528504142576,2.21810779173911,0.209256347849177,2.22008010706528,2.21777402005594,2.22101727258002,2.2193950383601,0.209256347849177,2.22145438168132,2.22033727122023,2.22323384065775,2.22136896221569,0.209256347849177,2.22454231993036,2.22359920187625,2.22650186338584,2.22522717119367,0.209256347849177,2.22642399113491,2.22910298385336,2.22668856509097,2.23017013528874,0.209256347849177,2.23027631027984,2.22946890119229,2.23244488218136,2.23147434460434,0.209256347849177,2.23398340397596,2.2320074015983,2.23581682022088,2.23332688468808,0.209256347849177,2.23505417806657,2.23820617398954,2.23419777278552,2.23830880267147,0.209256347849177,2.23917077682863,2.23780782758347,2.24107376428026,2.2390311461624,0.209256347849177,2.24045886662259,2.24214046386818,2.24138333732268,2.24380421521124,0.209256347849177,2.24269158070103,2.24474396347439,2.2440908957457,2.24634447898395,0.209256347849177,2.24559851560791,2.24901354735333,2.24556214085796,2.2491318228943,0.209256347849177,2.25004865445413,2.24933217056112,2.25221310661375,2.25125898323615,0.209256347849177,2.25331791501429,2.25434603065393,2.25636564372009,2.25704559443896,0.209256347849177,2.25980638955473,2.26153824424002,2.26432281316998,2.31377222289454,0.209256347849177,2.31409568472234,2.31713500186775,2.31323314368813,2.31624980457836,0.209256347849177,2.31546882709498,2.31437107460796,2.31592936978745,2.31368569629464,0.209256347849177,2.31405866902336,2.31153719613876,2.31452421571812,2.31198808341815,0.209256347849177,2.31235221337322,2.31442803453189,2.31189328169876,2.31399714218181,0.209256347849177,2.31393857898011,2.314563994067,2.31751178571552,2.31554120915623,0.209256347849177,2.31801831722696,2.31991075915101,2.31842545522656,2.32117214492899,0.209256347849177,2.32194301959278,2.32095376672803,2.32349162728625,2.32234411702489,0.209256347849177,2.32312447219626,2.32420033581185,2.32362461378135,2.28150332020023,0.209256347849177,2.27877887666292,2.27882238420584,2.27727943848195,2.27827088089606,0.209256347849177,2.27816914895055,2.27474641004223,2.27890192728905,2.27593714795106,0.209256347849177,2.27826399375209,2.27647664136914,2.27874892331352,2.2772999682603,0.209256347849177,2.27687432629029,2.28086198071227,2.27548307836748,2.27985946117712,0.209256347849177,2.28005764785561,2.2782222542292,2.28146354901559,2.27915386659056,0.209256347849177,2.28028279107051,2.28353337539748,2.28057731533787,2.28393030177838,0.209256347849177,2.28562227725319,2.28794138507163,2.33723397547172,2.33746910717823,0.209256347849177,2.33819471324136,2.33904054863566,2.34063344777945,2.34031688304603,0.209256347849177,2.34203235996804,2.34091657014865,2.33937549530335,2.33882167150848,0.209256347849177,2.3391768936533,2.33881923625969,2.33918265321005,2.33803944440555,0.209256347849177,2.33735543837735,2.33858723149373,2.33824975230959,2.33962972885403,0.209256347849177
2.21392282959259,0.209256377745109,2.21540453209054,2.21554782140001,2.21694714044667,2.21656573737008,0.209256377745109,2.2184502861798,2.2200648367486,2.21895571672043,2.22053454055157,0.209256377745109,2.22137364565955,2.22248227466336,2.22168374266201,2.2231315533615,0.209256377745109,2.22404555077183,2.22549814006118,2.22513467616788,2.2264309079879,0.209256377745109,2.22760331948815,2.2270707369996,2.22910277625693,2.22895078757244,0.209256377745109,2.22962977393649,2.23060111231956,2.23121379142806,2.23189274636099,0.209256377745109,2.23257485676629,2.23414133338292,2.23291380316934,2.23501326741962,0.209256377745109,2.235592636829,2.2354091175132,2.2376657792474,2.23663608279454,0.209256377745109,2.23897673356591,2.24028711951084,2.23874254312669,2.24016661156243,0.209256377745109,2.24067779450037,2.24058067074554,2.243227960606,2.24247785589379,0.209256377745109,2.24370335150305,2.24351616380403,2.24563237598668,2.24529991496479,0.209256377745109,2.24714431561635,2.24628936832387,2.24831061406448,2.24831415695512,0.209256377745109,2.2492893164383,2.2507117289355,2.25043508506706,2.25153796047329,0.209256377745109,2.25294402902582,2.25436304548433,2.2562926794014,2.25719303891283,0.209256377745109,2.25969370767736,2.26198297851794,2.26477060371948,2.31367071107095,0.209256377745109,2.3150626294211,2.3145085568796,2.31661856134375,2.31495473891997,0.209256377745109,2.31385014626918,2.31475026486293,2.31352591175851,2.31368281786846,0.209256377745109,2.3127389731159,2.31340946990008,2.31152550509439,2.31276996854806,0.209256377745109,2.31252597039588,2.31245195240877,2.31351852415683,2.31285428301567,0.209256377745109,2.31356842919772,2.31560182264618,2.31495089816505,2.31654675847863,0.209256377745109,2.31862486495124,2.31862567828737,2.32050659564955,2.32024237848023,0.209256377745109,2.32059886712021,2.32195084851643,2.32144178559115,2.3225538950698,0.209256377745109,2.32306759758737,2.32348020052935,2.32102120737032,2.28016406742554,0.209256377745109,2.27969996706991,2.27746150174836,2.27587859139765,2.27704121230672,0.209256377745109,2.27649883238129,2.27761461289838,2.27549983501823,2.27686345098563,0.209256377745109,2.27661070924372,2.27794038267877,2.27727709646847,2.27768667890928,0.209256377745109,2.27821661877239,2.27693788232969,2.27955651841209,2.27790532480503,0.209256377745109,2.27850970345812,2.28021130083456,2.27853658796101,2.28058802526513,0.209256377745109,2.28170523315127,2.28082932122638,2.28286627347419,2.2836248780878,0.209256377745109,2.28579691552753,2.28734831501161,2.33688627537946,2.33771370702411,0.209256377745109,2.33836546638472,2.33899109811613,2.33918746117754,2.34035379906256,0.209256377745109,2.34156943996335,2.34113536590558,2.33781235588494,2.33753180291624,0.209256377745109,2.3371786071132,2.33708467028584,2.33668024459699,2.33690593732755,0.209256377745109,2.33725149641649,2.33706693969628,2.33822269825959,2.33831080143541,0.209256377745109
0.209256377745109,0.209256386796855,0.209256377745109,0.209256347849177,0.209256347849177,0.209256377745109,0.209256386796855,0.209256377745109,0.209256347849177,0.209256347849177,0.209256377745109,0.209256386796855,0.209256377745109,0.209256347849177,0.209256347849177,0.209256377745109,0.209256386796855,0.209256377745109,0.209256347849177,0.209256347849177,0.209256377745109,0.209256386796855,0.209256377745109,0.209256347849177,0.209256347849177,0.209256377745109,0.209256386796855,0.209256377745109,0.209256347849177,0.209256347849177,0.209256377745109,0.209256386796855,0.209256377745109,0.209256347849177,0.209256347849177,0.209256377745109,0.209256386796855,0.209256377745109,0.209256347849177,0.209256347849177,0.209256377745109,0.209256386796855,0.209256377745109,0.209256347849177,0.209256347849177,0.209256377745109,0.209256386796855,0.209256377745109,0.209256347849177,0.209256347849177,0.209256377745109,0.209256386796855,0.209256377745109,0.209256347849177,0.209256347849177,0.209256377745109,0.209256386796855,0.209256377745109,0.209256347849177,0.209256347849177,0.209256377745109,0.209256386796855,0.209256377745109,0.209256347849177,0.209256347849177,0.209256377745109,0.209256386796855,0.209256377745109,0.209256347849177,0.209256347849177,0.209256377745109,0.209256386796855,0.209256377745109,0.209256347849177,0.209256347849177,0.209256377745109,0.209256386796855,0.209256377745109,0.209256347849177,0.209256347849177,0.209256377745109,0.209256386796855,0.209256377745109,0.209256347849177,0.209256347849177,0.209256377745109,0.209256386796855,0.209256377745109,0.209256347849177,0.209256347849177,0.209256377745109,0.209256386796855,0.209256377745109,0.209256347849177,0.209256347849177,0.209256377745109,0.209256386796855,0.209256377745109,0.209256347849177,0.209256347849177,0.209256377745109,0.209256386796855,0.209256377745109,0.209256347849177,0.209256347849177,0.209256377745109,0.209256386796855,0.209256377745109,0.209256347849177,0.209256347849177,0.209256377745109,0.209256386796855,0.209256377745109,0.209256347849177,0.209256347849177,0.209256377745109,0.209256386796855,0.209256377745109,0.209256347849177,0.209256347849177,0.209256377745109,0.209256386796855,0.209256377745109,0.209256347849177,0.209256347849177,0.209256377745109,0.209256386796855,0.209256377745109,0.209256347849177,0.209256347849177,0.209256377745109,0.209256386796855,0.209256377745109,0.209256347849177,0.209256347849177,0.209256377745109,0.209256386796855,0.209256377745109,0.209256347849177,0.209256347849177,0.209256377745109,0.209256386796855,0.209256377745109,0.209256347849177,0.209256347849177,0.209256377745109,0.209256386796855,0.209256377745109,0.209256347849177,0.209256347849177,0.209256377745109,0.209256386796855,0.209256377745109,0.209256347849177,0.209256347849177,0.209256377745109,0.209256386796855,0.209256377745109,0.209256347849177,0.209256347849177,0.209256377745109,0.209256386796855,0.209256377745109,0.209256347849177,0.209256347849177,0.209256377745109,0.209256386796855,0.209256377745109,0.209256347849177,0.209256347849177,0.209256377745109,0.209256386796855
2.21379597407524,0.209256377745109,2.21587399017275,2.21519375085543,2.2165928679678,2.21808943694335,0.209256377745109,2.21782564730478,2.21864463370126,2.21953088668217,2.22109097476749,0.209256377745109,2.22201559390473,2.22340750649112,2.22155722630642,2.22356332871478,0.209256377745109,2.22397592146648,2.22572549148354,2.22438584666177,2.22660228700327,0.209256377745109,2.22675233544744,2.22775241043673,2.22848304685105,2.2297410768175,0.209256377745109,2.22981778937153,2.23153835584657,2.23007760079004,2.23211961230171,0.209256377745109,2.23252093345617,2.23424883200261,2.23271462263454,2.23476723895788,0.209256377745109,2.23546768099856,2.23563263607215,2.23775902610848,2.23706416722973,0.209256377745109,2.23898626548787,2.23767157346893,2.24011800534749,2.23940069354353,0.209256377745109,2.24069746978412,2.24038990916204,2.24234595445683,2.24223093687859,0.209256377745109,2.24385095109271,2.24276015630274,2.24511217077205,2.2441584147918,0.209256377745109,2.24660467490735,2.24601214081815,2.24811315957769,2.24771098288039,0.209256377745109,2.24905086558692,2.25088718195759,2.25019286260282,2.25244101905499,0.209256377745109,2.25296864523593,2.25418905070253,2.25617979141961,2.25781343839784,0.209256377745109,2.26032480794714,2.26277352484446,2.26459278190714,2.31236032267412,0.209256377745109,2.31328473513118,2.31388222627255,2.31582381319392,2.31407140832698,0.209256377745109,2.31353131628737,2.31193421597999,2.31384395272735,2.31264107238384,0.209256377745109,2.31272343825616,2.31264998980604,2.31198326294039,2.31178083575522,0.209256377745109,2.31234810682279,2.31112103605067,2.31298512227757,2.31209186946857,0.209256377745109,2.3132713039942,2.31362057368081,2.31520542017995,2.31551358086133,0.209256377745109,2.31641202102677,2.3181629893136,2.31876553177785,2.31959886749483,0.209256377745109,2.32067592965969,2.32012454754848,2.32217710092279,2.32210625247579,0.209256377745109,2.32256410168418,2.32055506504973,2.32058403671558,2.2802107090886,0.209256377745109,2.27805463604889,2.27818849684589,2.27611506240708,2.2765139360611,0.209256377745109,2.27666869104124,2.27472386146725,2.27695436982505,2.27555749912234,0.209256377745109,2.2760600431825,2.2776218985653,2.27620221921034,2.2778706098163,0.209256377745109,2.27720894577828,2.27904745778981,2.27755968720005,2.27860020464415,0.209256377745109,2.2792549614962,2.27829814154211,2.28084874390182,2.28038260246373,0.209256377745109,2.2813699714315,2.28221708806142,2.2837004585632,2.28424080951134,0.209256377745109,2.28532032170083,2.28708019840328,2.33693041950188,2.33737626227916,0.209256377745109,2.33834760616828,2.33703022526524,2.33909169678487,2.33797517985075,0.209256377745109,2.33907777886735,2.33910443128499,2.33644829624745,2.3372094848092,0.209256377745109,2.33628965714239,2.33601697545592,2.33636017286333,2.33668300502261,0.209256377745109,2.33718493693436,2.33706414773059,2.33587949804669,2.33760114704217,0.209256377745109
2.21548215970839,0.209256347849177,2.21445339885061,2.21770057816276,2.21506092865935,2.21790057868001,0.209256347849177,2.21893902625987,2.2176505901777,2.22088779102782,2.21938998860699,0.209256347849177,2.2217324698188,2.22036114808894,2.22456626632778,2.2221072916452,0.209256347849177,2.22449128353555,2.22348939733241,2.22754217183161,2.22486781320538,0.209256347849177,2.22738029733425,2.22642596418268,2.23035909089465,2.22793853202875,0.209256347849177,2.23025721013711,2.22909560732559,2.2330980865487,2.23084185984559,0.209256347849177,2.23385770535313,2.23127613957421,2.23557648827346,2.23381330944786,0.209256347849177,2.23516472773857,2.23779189768883,2.23494950863592,2.2385044557924,0.209256347849177,2.23774131259875,2.24080722774076,2.23708257338164,2.24074505956466,0.209256347849177,2.24011637547409,2.24245335201469,2.23984438028249,2.24344703213829,0.209256347849177,2.24239091998848,2.24594474867363,2.24219277737528,2.24576855907083,0.209256347849177,2.24533390894458,2.24817290817079,2.24563646245188,2.24893261143039,0.209256347849177,2.24959355831961,2.2486902971888,2.25250783066622,2.25048637052487,0.209256347849177,2.25252627448153,2.25443075100578,2.25646974086829,2.25791993220295,0.209256347849177,2.26032353667559,2.26249240511659,2.31183383196206,2.31233878105994,0.209256347849177,2.31288699039721,2.31473116936237,2.31292311805425,2.31461544818632,0.209256347849177,2.31212092334012,2.31501577793887,2.31032153013322,2.31311344619393,0.209256347849177,2.31332155734362,2.31164651165994,2.31251358536746,2.31151831239026,0.209256347849177,2.3108441246169,2.31353834694105,2.3098835176366,2.31283021023037,0.209256347849177,2.31275578126176,2.31365490851186,2.31463104987373,2.31577447690354,0.209256347849177,2.31628613088573,2.31773647860714,2.31908028727479,2.31987636056922,0.209256347849177,2.31932237237353,2.32198276259768,2.32009171587059,2.32278132200398,0.209256347849177,2.32228802997961,2.32021397278962,2.32122651788571,2.27931787536609,0.209256347849177,2.27881138239795,2.27528297354644,2.27832488210182,2.27554327413677,0.209256347849177,2.27499441362586,2.27820041085921,2.2734006222151,2.27743428149365,0.209256347849177,2.27793046699378,2.27468182052556,2.279064563893,2.2770892259054,0.209256347849177,2.2789962006024,2.27631879645709,2.28004193347231,2.27875564978268,0.209256347849177,2.27818720293792,2.28171182575137,2.27779579921907,2.28124212571911,0.209256347849177,2.28154930717379,2.28223980317139,2.28388632623593,2.28460501913261,0.209256347849177,2.28599651617752,2.2891390463324,2.33707287718367,2.33680627716914,0.209256347849177,2.33621904960783,2.33935088687697,2.33555136023068,2.33835876085121,0.209256347849177,2.33619070806797,2.33584219227438,2.3356207633068,2.3357439981368,0.209256347849177,2.33607651293806,2.33575476768062,2.33611929109883,2.33652050731803,0.209256347849177,2.33563281801585,2.33426080463653,2.33741036558099,2.33603370643297,0.209256347849177
2.21303882931153,0.209256347849177,2.21630407400353,2.21400382093198,2.21742850193576,2.21720377622169,0.209256347849177,2.2174289414085,2.21998484949923,2.2178419994048,2.22098448225321,0.209256347849177,2.22044563330422,2.22344871946066,2.22039396033446,2.22392150028302,0.209256347849177,2.22391199976475,2.22623818150739,2.22378203642677,2.22719646581994,0.209256347849177,2.22667062722048,2.22927052913218,2.22623354697853,2.22981752963391,0.209256347849177,2.22877020779576,2.23136044618926,2.22974307163662,2.23273116750952,0.209256347849177,2.23184436193864,2.2352261480059,2.23146762761574,2.23533415699235,0.209256347849177,2.23632616305335,2.23451616089,2.23839132537351,2.23634487315321,0.209256347849177,2.2396171301705,2.23736266428962,2.24135018227008,2.23898952571863,0.209256347849177,2.24105996715209,2.23975991755585,2.24326148367044,2.24136386994822,0.209256347849177,2.2442592357917,2.24245505423104,2.24592408746674,2.24414906105641,0.209256347849177,2.24684503540129,2.24498032511485,2.2488056069709,2.24749095268311,0.209256347849177,2.24897293865425,2.25163531900326,2.24911921780744,2.25217175779953,0.209256347849177,2.25290952841288,2.25448254588142,2.25647734051425,2.25841205478958,0.209256347849177,2.26111490352865,2.26292505920805,2.31100069650661,2.31250999879666,0.209256347849177,2.31288255932276,2.31285522094084,2.3148810504441,2.31320935789057,0.209256347849177,2.31377928686435,2.31068462504054,2.31309603408568,2.31006869966733,0.209256347849177,2.3113207345623,2.31194180119185,2.31028210728894,2.3116114524932,0.209256347849177,2.31159026874016,2.30975636027034,2.31367535691803,2.31094811538921,0.209256347849177,2.31282842619337,2.31303221982091,2.3149586453398,2.31490692749964,0.209256347849177,2.31620807591938,2.3175635396387,2.31847181170415,2.32059237799744,0.209256347849177,2.32076735289709,2.31846594519171,2.32234561751798,2.32069411040631,0.209256347849177,2.32015446729926,2.32097270212686,2.31971408250676,2.31687352668638,0.209256347849177,2.2775149056789,2.27831907273424,2.27508682778214,2.27724806560307,0.209256347849177,2.27736448865921,2.27373973111218,2.27851420797577,2.27503034968583,0.209256347849177,2.27570168643926,2.27957621101146,2.27469011986334,2.27855471319358,0.209256347849177,2.27724999763694,2.27929345553448,2.27917365004299,2.28039789819317,0.209256347849177,2.28022442380943,2.2774360106774,2.28233311953781,2.27970781970916,0.209256347849177,2.28173759358621,2.28202312547429,2.28426920559422,2.28492544750782,0.209256347849177,2.28629577863494,2.3346635662351,2.33661717995124,2.33609233966558,0.209256347849177,2.33763939281427,2.33482362809261,2.3382727078863,2.33653578659091,0.209256347849177,2.33616012714964,2.33558585946167,2.33514530933054,2.33444559958391,0.209256347849177,2.33419075361009,2.33420740780751,2.33404458335538,2.33436512652189,0.209256347849177,2.33412622021493,2.3360643400636,2.33451273760391,2.33646448021879,0.209256347849177
2.21452360725665,0.209256377745109,2.21455373574879,2.21638805159724,2.2154657957663,2.21728433028857,0.209256377745109,2.21819694110553,2.21852101039943,2.2203939785962,2.22010905879343,0.209256377745109,2.22145099303889,2.22106380658563,2.22323196287456,2.22264625723022,0.209256377745109,2.22422855562917,2.22445012364254,2.22653058706,2.22557915502472,0.209256377745109,2.22926643980421,2.22703962717209,2.22883518877728,2.22953393351189,0.209256377745109,2.22893959723454,2.23024723712784,2.23201616810167,2.23142345226807,0.209256377745109,2.2323470750766,2.23266534510435,2.23488988590036,2.23377284099718,0.209256377745109,2.23490032962282,2.23654042321172,2.23566107334398,2.23739247466946,0.209256377745109,2.23804732700952,2.23839917605448,2.23988858036267,2.24097457146351,0.209256377745109,2.2400054946102,2.2416970167682,2.240742728028,2.24287633353922,0.209256377745109,2.24293673981097,2.24450639798624,2.24401509557515,2.24568333326275,0.209256377745109,2.24637702846186,2.24763466202424,2.2466313221795,2.2490889142837,0.209256377745109,2.2499825227311,2.24934002824929,2.25155947148508,2.25144939972218,0.209256377745109,2.2530931943986,2.25503102016512,2.25725292272546,2.25803957940169,0.209256377745109,2.26202629588873,2.26308385230635,2.31022224634956,2.31285838935297,0.209256377745109,2.31230998860535,2.31372398846739,2.31250370226235,2.31328081024504,0.209256377745109,2.31205729550713,2.3124537645124,2.31096825857976,2.31071742885503,0.209256377745109,2.31114002619732,2.31230569012394,2.31133905215468,2.31097335320632,0.209256377745109,2.31011170106004,2.31246451785051,2.31038678109447,2.31237744982864,0.209256377745109,2.31239101577592,2.31310780256371,2.31427752403001,2.31540175289675,0.209256377745109,2.31634960629716,2.31726174390803,2.31855332191516,2.31895614766882,0.209256377745109,2.31949600384249,2.3212197020887,2.32017727827729,2.32096292788957,0.209256377745109,2.32067515656037,2.32012359783239,2.32039429871869,2.28013408529898,0.209256377745109,2.27818654534957,2.27610102508023,2.27707150907882,2.27548091778097,0.209256377745109,2.27609909999522,2.2771789646607,2.27503493924627,2.27699538900026,0.209256377745109,2.2769581436612,2.27564842272547,2.27831096906477,2.27695180016816,0.209256377745109,2.27802039166461,2.27756005276982,2.28058709222116,2.27889762504377,0.209256377745109,2.27903152272955,2.28064549321648,2.27959273057491,2.28119522397012,0.209256377745109,2.28148252351038,2.28214658119924,2.28372153508823,2.28582382544922,0.209256377745109,2.28906909426735,2.33727134460049,2.33493501517798,2.33550112959451,0.209256377745109,2.33590353022345,2.33735449147915,2.33551409785681,2.33575686341598,0.209256377745109,2.33527543196107,2.33421785551818,2.33386076739949,2.33320818147234,0.209256377745109,2.33371822103484,2.3333435855522,2.33352063813253,2.333442564568,0.209256377745109,2.33425060141609,2.33399755291886,2.33547967084669,2.33471513296277,0.209256377745109
0.209256377745109,0.209256386796855,0.209256377745109,0.209256347849177,0.209256347849177,0.209256377745109,0.209256386796855,0.209256377745109,0.209256347849177,0.209256347849177,0.209256377745109,0.209256386796855,0.209256377745109,0.209256347849177,0.209256347849177,0.209256377745109,0.209256386796855,0.209256377745109,0.209256347849177,0.209256347849177,0.209256377745109,0.209256386796855,0.209256377745109,0.209256347849177,0.209256347849177,0.209256377745109,0.209256386796855,0.209256377745109,0.209256347849177,0.209256347849177,0.209256377745109,0.209256386796855,0.209256377745109,0.209256347849177,0.209256347849177,0.209256377745109,0.209256386796855,0.209256377745109,0.209256347849177,0.209256347849177,0.209256377745109,0.209256386796855,0.209256377745109,0.209256347849177,0.209256347849177,0.209256377745109,0.209256386796855,0.209256377745109,0.209256347849177,0.209256347849177,0.209256377745109,0.209256386796855,0.209256377745109,0.209256347849177,0.209256347849177,0.209256377745109,0.209256386796855,0.209256377745109,0.209256347849177,0.209256347849177,0.209256377745109,0.209256386796855,0.209256377745109,0.209256347849177,0.209256347849177,0.209256377745109,0.209256386796855,0.209256377745109,0.209256347849177,0.209256347849177,0.209256377745109,0.209256386796855,0.209256377745109,0.209256347849177,0.209256347849177,0.209256377745109,0.209256386796855,0.209256377745109,0.209256347849177,0.209256347849177,0.209256377745109,0.209256386796855,0.209256377745109,0.209256347849177,0.209256347849177,0.209256377745109,0.209256386796855,0.209256377745109,0.209256347849177,0.209256347849177,0.209256377745109,0.209256386796855,0.209256377745109,0.209256347849177,0.209256347849177,0.209256377745109,0.209256386796855,0.209256377745109,0.209256347849177,0.209256347849177,0.209256377745109,0.209256386796855,0.209256377745109,0.209256347849177,0.209256347849177,0.209256377745109,0.209256386796855,0.209256377745109,0.209256347849177,0.209256347849177,0.209256377745109,0.209256386796855,0.209256377745109,0.209256347849177,0.209256347849177,0.209256377745109,0.209256386796855,0.209256377745109,0.209256347849177,0.209256347849177,0.209256377745109,0.209256386796855,0.209256377745109,0.209256347849177,0.209256347849177,0.209256377745109,0.209256386796855,0.209256377745109,0.209256347849177,0.209256347849177,0.209256377745109,0.209256386796855,0.209256377745109,0.209256347849177,0.209256347849177,0.209256377745109,0.209256386796855,0.209256377745109,0.209256347849177,0.209256347849177,0.209256377745109,0.209256386796855,0.209256377745109,0.209256347849177,0.209256347849177,0.209256377745109,0.209256386796855,0.209256377745109,0.209256347849177,0.209256347849177,0.209256377745109,0.209256386796855,0.209256377745109,0.209256347849177,0.209256347849177,0.209256377745109,0.209256386796855,0.209256377745109,0.209256347849177,0.209256347849177,0.209256377745109,0.209256386796855,0.209256377745109,0.209256347849177,0.209256347849177,0.209256377745109,0.209256386796855,0.209256377745109,0.209256347849177,0.209256347849177,0.209256377745109,0.209256386796855
2.21437552563778,0.209256377745109,2.21453696671432,2.21603248952089,2.21564486584413,2.21727078015006,0.209256377745109,2.21722736515728,2.21947534326512,2.21870162350902,2.22017465102912,0.209256377745109,2.22117853678641,2.22155896646948,2.2229380408136,2.22202245188301,0.209256377745109,2.22407379475543,2.22459927038563,2.22560536022198,2.2264885901674,0.209256377745109,2.22843691011651,2.22791396514796,2.227841161943,2.22993553869708,0.209256377745109,2.22943224483627,2.22951389524582,2.23137415558461,2.23198534600997,0.209256377745109,2.23178827139065,2.2338137429347,2.2323477265707,2.23457820555963,0.209256377745109,2.2347468423555,2.23689355223237,2.23541539769133,2.23758074486708,0.209256377745109,2.23825966432914,2.23955391078169,2.2382273088768,2.23986452685697,0.209256377745109,2.24035743920833,2.24062522117734,2.24219642902562,2.24191481677096,0.209256377745109,2.24293981434501,2.24483380164677,2.24335983470995,2.24565255457474,0.209256377745109,2.24599395823548,2.246553004773,2.24655637957247,2.2487448199333,0.209256377745109,2.24920115935122,2.25036786304606,2.25041251559211,2.25309232916694,0.209256377745109,2.25360316507278,2.25488684976012,2.25708225595791,2.25867305085781,0.209256377745109,2.26065919871897,2.31105529043495,2.31070806867399,2.311090986088,0.209256377745109,2.31197323199208,2.31334865421316,2.31149818386262,2.31210102213176,0.209256377745109,2.31189254605908,2.30969091207712,2.31100523186195,2.30998913977533,0.209256377745109,2.3091840753801,2.31056619844397,2.3081787991464,2.31046545776865,0.209256377745109,2.30978206841427,2.31108775424693,2.3096389213951,2.31187067912268,0.209256377745109,2.31289695540405,2.3126971527372,2.31433125032321,2.31469522478383,0.209256377745109,2.31598627286976,2.31702550584767,2.31825605404398,2.31900398742339,0.209256377745109,2.31957341911349,2.3202883058418,2.31981905019861,2.32017969672616,0.209256377745109,2.31993135728013,2.3210942388375,2.32263436004465,2.27952443478341,0.209256377745109,2.27774938418435,2.27526795354885,2.27676327674456,2.27494120326043,0.209256377745109,2.27525926570251,2.27663438615564,2.27477463098012,2.27639741836112,0.209256377745109,2.27700200052276,2.27567911572185,2.27795525509153,2.27626824023789,0.209256377745109,2.27776866334932,2.27661261095814,2.27955302511023,2.27824607982971,0.209256377745109,2.27912275564073,2.27961556519126,2.28096222056347,2.28013229626439,0.209256377745109,2.28111353178116,2.28311857889289,2.28452155019647,2.28470509394553,0.209256377745109,2.33356905064129,2.33392224241422,2.33560523683869,2.33471705668068,0.209256377745109,2.33507588889853,2.33634302210929,2.3341554396913,2.33483886653958,0.209256377745109,2.33420931950686,2.33218436469002,2.3336232648428,2.3321215549296,0.209256377745109,2.33241524499587,2.33156115971162,2.33304940969174,2.33223603123134,0.209256377745109,2.3334715638017,2.332351738506,2.33468373650124,2.33369281015108,0.209256377745109
2.21488273164291,0.209256347849177,2.21515954046783,2.21494422679435,2.21792324487204,2.21658146837863,0.209256347849177,2.21877629235217,2.21725784795953,2.22096823351087,2.21900198315461,0.209256347849177,2.22147546020475,2.22324501491271,2.22011204275812,2.22381567758562,0.209256347849177,2.22355053783236,2.22467928890128,2.22654591334733,2.22666168461643,0.209256347849177,2.22671741963671,2.22634496230683,2.22839807397809,2.22970953249148,0.209256347849177,2.2268746542932,2.22997606743203,2.23020209112316,2.23222095084978,0.209256347849177,2.23346544648434,2.23083214124646,2.23586353201965,2.23253396999837,0.209256347849177,2.23439076237598,2.23468053342784,2.23794476613496,2.23570939438812,0.209256347849177,2.23938564878335,2.23718676265848,2.24101580139394,2.23845111519308,0.209256347849177,2.24008334480137,2.24239702860111,2.24029350568789,2.24339418302726,0.209256347849177,2.24413569734224,2.24195641218124,2.24648779485588,2.24378284909145,0.209256347849177,2.24650686265678,2.24618484753037,2.24859485861925,2.24790840513347,0.209256347849177,2.24939955226776,2.24959576851765,2.25190329530712,2.25130939297212,0.209256347849177,2.25362028458467,2.25496126590075,2.25698453864763,2.2585397027503,0.209256347849177,2.26099587306824,2.31020161755678,2.31119762509729,2.31131047758956,0.209256347849177,2.31281098043779,2.31099809227708,2.3127104101879,2.31148461944123,0.209256347849177,2.30949658618137,2.31179739322777,2.30748464806355,2.30998432933089,0.209256347849177,2.31020335192107,2.30641928402692,2.31151015022393,2.30799097451615,0.209256347849177,2.31038559065468,2.30768824463996,2.31219884171172,2.3097791320438,0.209256347849177,2.311813933443,2.31311555779019,2.31357417088806,2.31504921414797,0.209256347849177,2.31593429038844,2.31623164998413,2.3176550450707,2.31710176083488,0.209256347849177,2.31771217402891,2.31734795690956,2.3195432580981,2.31946889924557,0.209256347849177,2.31969484234699,2.32072348117835,2.32174763643528,2.27707065524648,0.209256347849177,2.27688346879622,2.27769370602864,2.27360066507497,2.27671333869959,0.209256347849177,2.27658808688,2.27352218031216,2.27770529487717,2.2747850754677,0.209256347849177,2.27552977021022,2.27844080148657,2.27447593764768,2.27806467568527,0.209256347849177,2.27644607681767,2.2804803747919,2.2749975873148,2.27968085705401,0.209256347849177,2.27867558512966,2.28145996142942,2.27861172357159,2.2817749258361,0.209256347849177,2.28311408414194,2.28339096300638,2.28489601317365,2.28850273334613,0.209256347849177,2.32906670360452,2.33461918085063,2.33407117783821,2.33587668553785,0.209256347849177,2.3364236852097,2.333713757932,2.33592834147155,2.33346239690864,0.209256347849177,2.33202835789215,2.33423195701863,2.33083929677619,2.33205545583641,0.209256347849177,2.33054155478517,2.33251278710702,2.32973702640414,2.33258401981863,0.209256347849177,2.33169442884672,2.33471002414385,2.33097596308977,2.33473172677885,0.209256347849177
2.21282523668127,0.209256347849177,2.21454141675415,2.21713695271238,2.21453441207432,2.21745947766487,0.209256347849177,2.21784468927082,2.22010788932946,2.21742462440652,2.22078221329123,0.209256347849177,2.22147592259175,2.22084992306344,2.22448847607931,2.22121164535862,0.209256347849177,2.22411559628098,2.22462600869191,2.22608146536983,2.22615931486749,0.209256347849177,2.2263171893528,2.22844952879535,2.22747131347154,2.22971529194122,0.209256347849177,2.23025372990877,2.22958941130227,2.23077820733019,2.23270681473787,0.209256347849177,2.23199762939362,2.23497911303549,2.23077826939562,2.23485675786504,0.209256347849177,2.23408035232429,2.23669598406753,2.23403634027451,2.23766983420051,0.209256347849177,2.23744971765861,2.23992983053634,2.23725683219869,2.24076071896633,0.209256347849177,2.24038549103439,2.24005658416525,2.24346645831752,2.24145014528195,0.209256347849177,2.24244289730854,2.2455423689736,2.24212450886708,2.24614075975766,0.209256347849177,2.24565364645873,2.24767534015358,2.246375030483,2.24869172977908,0.209256347849177,2.24902967021776,2.25052259518564,2.25056370187476,2.25248373321241,0.209256347849177,2.25376254538103,2.25548803071724,2.25708869282209,2.25852844954618,0.209256347849177,2.26109699295428,2.31000129864545,2.31042688269733,2.3110539905168,0.209256347849177,2.31130363722518,2.31273313987232,2.31029559285251,2.31109287551186,0.209256347849177,2.31071908104363,2.30738647890751,2.31172286760226,2.30811477020625,0.209256347849177,2.30754353967725,2.3110468485266,2.30643766762755,2.30979598172606,0.209256347849177,2.30802248427629,2.31127259305344,2.30768654631752,2.31132006012013,0.209256347849177,2.31339447225027,2.31195187974255,2.31391554493607,2.31469265666706,0.209256347849177,2.31516125462867,2.31723843588713,2.31707841047691,2.31733874138667,0.209256347849177,2.31762556082726,2.31746556631368,2.31915369223811,2.31927928325914,0.209256347849177,2.32020306077437,2.32072193637313,2.32128018814197,2.27717002689541,0.209256347849177,2.27694890405433,2.27391912059465,2.27825851948788,2.2742111125519,0.209256347849177,2.27446192671249,2.2777517430033,2.27341550765619,2.27709119782289,0.209256347849177,2.27720751566011,2.27432788904025,2.27917814146275,2.27588820420515,0.209256347849177,2.27885531544181,2.27499480119409,2.28089600860648,2.27709621162505,0.209256347849177,2.27977888302912,2.27883132480887,2.28216508004104,2.28019159772716,0.209256347849177,2.28233638343861,2.28362855317667,2.28521079648674,2.28763655095977,0.209256347849177,2.33736487273988,2.33611506359213,2.33681478576767,2.33523025587862,0.209256347849177,2.33473050938265,2.3359208939585,2.33336993442031,2.33403704310496,0.209256347849177,2.33292173830993,2.33108241239155,2.33247193568799,2.33070371529948,0.209256347849177,2.33160745586364,2.32939190819302,2.33215310677372,2.330529675669,0.209256347849177,2.33262027932704,2.33084377305958,2.33461070121247,2.33251469747747,0.209256347849177
2.21458213017806,0.209256377745109,2.21545092622032,2.21462379811831,2.21707670481985,2.21667253240893,0.209256377745109,2.21800755230158,2.21822477489093,2.22029717376084,2.21982040515461,0.209256377745109,2.22089280300445,2.22184526637254,2.22130727772213,2.22302865872182,0.209256377745109,2.22494433225914,2.22482899094728,2.22584226231154,2.22592393890935,0.209256377745109,2.22668086594468,2.22734987697627,2.22882199541008,2.22869806003181,0.209256377745109,2.23033398836579,2.22987052996691,2.23073461163253,2.23117360129618,0.209256377745109,2.23296004499157,2.23236350413309,2.23488577971829,2.23332135055239,0.209256377745109,2.23453106215984,2.2351153402762,2.23698901310892,2.23631238383516,0.209256377745109,2.23796475995783,2.23778282932923,2.23996216156381,2.23908310368089,0.209256377745109,2.24006277769318,2.24169118498748,2.24078787574143,2.24272995964861,0.209256377745109,2.24347607240638,2.2427838254063,2.24532471476678,2.24482396479467,0.209256377745109,2.24655454726454,2.24620125174867,2.2478929375162,2.24784332251973,0.209256377745109,2.24948961182306,2.24987973801671,2.25132218650513,2.25221601268703,0.209256377745109,2.25375953899866,2.25545594299919,2.25798177860354,2.25878356048657,0.209256377745109,2.26152694843874,2.30971369419546,2.31032390705055,2.31110005751344,0.209256377745109,2.31172895778307,2.31061672537745,2.3104181076689,2.31030951003776,0.209256377745109,2.3088938037214,2.31023921643635,2.30837040576879,2.30977248220712,0.209256377745109,2.30890222187491,2.30722203944476,2.30942484883855,2.30784618797422,0.209256377745109,2.30901914814137,2.30811874147348,2.3104998765456,2.30983828752477,0.209256377745109,2.31088760815935,2.31266727859893,2.31244097829404,2.31566399074207,0.209256377745109,2.31319557854208,2.31495998680887,2.3153794722301,2.31730284959226,0.209256377745109,2.3184798840182,2.31826464134174,2.31912677751876,2.31901015227453,0.209256377745109,2.32033064599621,2.32025298093191,2.2792445830601,2.27724655405966,0.209256377745109,2.27554526000753,2.277032221116,2.27446462709915,2.27646935848621,0.209256377745109,2.27618747470803,2.27483966409747,2.27721207751367,2.27546863347659,0.209256377745109,2.27578827783346,2.27764395394098,2.27560310978246,2.27747359939927,0.209256377745109,2.27742926128995,2.27948293977071,2.27692684511613,2.27881765444063,0.209256377745109,2.27873894268318,2.28003173559092,2.27957672875391,2.28220618952464,0.209256377745109,2.28260478892779,2.28386396303507,2.28556289186212,2.33777183243745,0.209256377745109,2.33680004786284,2.33694230885306,2.33562638706055,2.33676134374007,0.209256377745109,2.3356710420776,2.33415395761131,2.33410715168026,2.3324453512956,0.209256377745109,2.33203628232209,2.33045961837561,2.33041084103679,2.33016113750997,0.209256377745109,2.33000994292576,2.33031382685011,2.32956631843227,2.33045898731716,0.209256377745109,2.33097766619757,2.33234231934244,2.33174462534383,2.33332750314839,0.209256377745109
0.209256377745109,0.209256386796855,0.209256377745109,0.209256347849177,0.209256347849177,0.209256377745109,0.209256386796855,0.209256377745109,0.209256347849177,0.209256347849177,0.209256377745109,0.209256386796855,0.209256377745109,0.209256347849177,0.209256347849177,0.209256377745109,0.209256386796855,0.209256377745109,0.209256347849177,0.209256347849177,0.209256377745109,0.209256386796855,0.209256377745109,0.209256347849177,0.209256347849177,0.209256377745109,0.209256386796855,0.209256377745109,0.209256347849177,0.209256347849177,0.209256377745109,0.209256386796855,0.209256377745109,0.209256347849177,0.209256347849177,0.209256377745109,0.209256386796855,0.209256377745109,0.209256347849177,0.209256347849177,0.209256377745109,0.209256386796855,0.209256377745109,0.209256347849177,0.209256347849177,0.209256377745109,0.209256386796855,0.209256377745109,0.209256347849177,0.209256347849177,0.209256377745109,0.209256386796855,0.209256377745109,0.209256347849177,0.209256347849177,0.209256377745109,0.209256386796855,0.209256377745109,0.209256347849177,0.209256347849177,0.209256377745109,0.209256386796855,0.209256377745109,0.209256347849177,0.209256347849177,0.209256377745109,0.209256386796855,0.209256377745109,0.209256347849177,0.209256347849177,0.209256377745109,0.209256386796855,0.209256377745109,0.209256347849177,0.209256347849177,0.209256377745109,0.209256386796855,0.209256377745109,0.209256347849177,0.209256347849177,0.209256377745109,0.209256386796855,0.209256377745109,0.209256347849177,0.209256347849177,0.209256377745109,0.209256386796855,0.209256377745109,0.209256347849177,0.209256347849177,0.209256377745109,0.209256386796855,0.209256377745109,0.209256347849177,0.209256347849177,0.209256377745109,0.209256386796855,0.209256377745109,0.209256347849177,0.209256347849177,0.209256377745109,0.209256386796855,0.209256377745109,0.209256347849177,0.209256347849177,0.209256377745109,0.209256386796855,0.209256377745109,0.209256347849177,0.209256347849177,0.209256377745109,0.209256386796855,0.209256377745109,0.209256347849177,0.209256347849177,0.209256377745109,0.209256386796855,0.209256377745109,0.209256347849177,0.209256347849177,0.209256377745109,0.209256386796855,0.209256377745109,0.209256347849177,0.209256347849177,0.209256377745109,0.209256386796855,0.209256377745109,0.209256347849177,0.209256347849177,0.209256377745109,0.209256386796855,0.209256377745109,0.209256347849177,0.209256347849177,0.209256377745109,0.209256386796855,0.209256377745109,0.209256347849177,0.209256347849177,0.209256377745109,0.209256386796855,0.209256377745109,0.209256347849177,0.209256347849177,0.209256377745109,0.209256386796855,0.209256377745109,0.209256347849177,0.209256347849177,0.209256377745109,0.209256386796855,0.209256377745109,0.209256347849177,0.209256347849177,0.209256377745109,0.209256386796855,0.209256377745109,0.209256347849177,0.209256347849177,0.209256377745109,0.209256386796855,0.209256377745109,0.209256347849177,0.209256347849177,0.209256377745109,0.209256386796855,0.209256377745109,0.209256347849177,0.209256347849177,0.209256377745109,0.209256386796855
2.21358388234229,0.209256377745109,2.21497705729586,2.21495216403078,2.21712000225078,2.2164532448042,0.209256377745109,2.21756247763268,2.21924236353035,2.21810028558363,2.2199448667962,0.209256377745109,2.22047812673821,2.22123114643206,2.22202010473184,2.22338732363659,0.209256377745109,2.22380578783593,2.22423599376773,2.22647612240004,2.22598798321888,0.209256377745109,2.22654172381155,2.22813605236799,2.22714015404606,2.22913949529054,0.209256377745109,2.23056960028397,2.23047920535985,2.23159872870803,2.23145863946262,0.209256377745109,2.23203629217277,2.23237388936366,2.2344391267564,2.23303451384956,0.209256377745109,2.23484600562322,2.23666951266328,2.23487961938105,2.23710158782893,0.209256377745109,2.23739709512879,2.23755667532277,2.23949143616516,2.2389870387192,0.209256377745109,2.23994323630873,2.24160261484048,2.24077879384244,2.24272644151925,0.209256377745109,2.24360805619176,2.24282544463871,2.24485537475853,2.24523823382349,0.209256377745109,2.24645166144715,2.24574090518239,2.24824929802832,2.24743936080948,0.209256377745109,2.24851766736967,2.25015422802895,2.25128516318611,2.25263822142595,0.209256377745109,2.25395897149042,2.25509116071203,2.25725850919905,2.25930150529782,0.209256377745109,2.26205277464572,2.30947759037469,2.30930523960861,2.30977221213461,0.209256377745109,2.31153911874922,2.31133399169385,2.31037623899493,2.30969606018066,0.209256377745109,2.30968702959727,2.30861620348976,2.30896757537249,2.3078816772988,0.209256377745109,2.30686599428737,2.30857156206181,2.30646081925164,2.30823377258375,0.209256377745109,2.30877069885072,2.30770384146595,2.31033126340117,2.30957806114848,0.209256377745109,2.31153575875972,2.31135383271711,2.31322396353203,2.31309012150013,0.209256377745109,2.3138681799967,2.31471568712795,2.31662827264035,2.31728806680886,0.209256377745109,2.31945248243185,2.31916859657399,2.31933111225919,2.32016417861604,0.209256377745109,2.31888442032046,2.31933909647207,2.27810863482301,2.27656830176589,0.209256377745109,2.27656793772361,2.27434580563046,2.27643736284899,2.27515452380306,0.209256377745109,2.27515263274269,2.27662873673936,2.27413501003644,2.27626043831524,0.209256377745109,2.27668108819252,2.27505755861769,2.27738901605259,2.27689224808996,0.209256377745109,2.2780440267166,2.27792503770517,2.27918725458835,2.27789593627614,0.209256377745109,2.27956748084305,2.28144451035531,2.28008916050888,2.28200612028411,0.209256377745109,2.28311077283083,2.28431471620924,2.28650052279385,2.32955660465228,0.209256377745109,2.32625827518004,2.33694408015179,2.3368321204831,2.33616051788718,0.209256377745109,2.33622726101761,2.33540048510182,2.33171848689064,2.33214145461201,0.209256377745109,2.33072101015606,2.33070949761562,2.32875958105037,2.32962636200224,0.209256377745109,2.32894303604833,2.33030642889849,2.32817607433101,2.32991713957373,0.209256377745109,2.33010228695447,2.33111079743759,2.33115417258868,2.33248049900457,0.209256377745109
2.21446327298376,0.209256347849177,2.21429246562186,2.21678109721632,2.21404977118634,2.21739304243525,0.209256347849177,2.21863223647756,2.21692073832797,2.2211086381201,2.21816758194268,0.209256347849177,2.22136641382683,2.22024193058753,2.22398046610986,2.22149883886773,0.209256347849177,2.22361516041451,2.22447690744705,2.22561291237958,2.2261869367967,0.209256347849177,2.22710382940193,2.22625472581918,2.22997371535824,2.22810063245355,0.209256347849177,2.22969841087279,2.23242334747361,2.22973930807611,2.23221354506941,0.209256347849177,2.23210981377429,2.23453873346628,2.23077836670318,2.23476591453639,0.209256347849177,2.23609133455486,2.2332828030986,2.23860999675481,2.23518517373496,0.209256347849177,2.23685757835038,2.2388358858625,2.2372937514099,2.24027690558162,0.209256347849177,2.240985578819,2.23951716435037,2.24268880365689,2.2416825320426,0.209256347849177,2.24229501063755,2.24482961933004,2.24327313008472,2.24596590794747,0.209256347849177,2.2455233132627,2.24833618378937,2.24494690650818,2.2488318174808,0.209256347849177,2.24896090265223,2.2500550879719,2.25138720933439,2.25208390510237,0.209256347849177,2.25387981537704,2.25574311189201,2.2574251172236,2.25920086084319,0.209256347849177,2.26196710829708,2.30875639947359,2.30920686683846,2.30930945433649,0.209256347849177,2.31065927110091,2.31117950851231,2.30903752266753,2.3100125728857,0.209256347849177,2.30797452046591,2.30896549797094,2.30668060761352,2.30799926878774,0.209256347849177,2.30813866300657,2.30470865347978,2.30939741794788,2.30636703355033,0.209256347849177,2.30711014656989,2.31052186673936,2.3067322127724,2.31072573433442,0.209256347849177,2.3104439090157,2.31238178350247,2.31163216066063,2.31386768849073,0.209256347849177,2.31438836872221,2.31598012364231,2.31576578109454,2.31801525826409,0.209256347849177,2.31771701199669,2.31709328437336,2.31829659246509,2.32066720196397,0.209256347849177,2.31759570597746,2.31978101251686,2.27768271861402,2.27613724653753,0.209256347849177,2.27475262336733,2.27796582520615,2.27229209629906,2.27608884215937,0.209256347849177,2.27621510963175,2.27257758697519,2.27842326664097,2.27415512288788,0.209256347849177,2.27480652236357,2.27824583895526,2.27467038463771,2.27810454654347,0.209256347849177,2.27672573415011,2.28015672731197,2.27530889399984,2.27979729595278,0.209256347849177,2.2794961446918,2.27928854251961,2.28301205455953,2.28037087087006,0.209256347849177,2.28334296824941,2.28488736453492,2.33015909104646,2.33078445871889,0.209256347849177,2.33360982520945,2.33350066594039,2.33560305795576,2.3274675984174,0.209256347849177,2.33659145087224,2.33853056000033,2.3310424198558,2.33152526248711,0.209256347849177,2.33015650755633,2.32797964438455,2.32993499555092,2.327768439269,0.209256347849177,2.32957341053148,2.32618631086771,2.33128342692028,2.32793987367331,0.209256347849177,2.33049582711532,2.32924885649,2.33157951973314,2.33183819136802,0.209256347849177
2.21294318425234,0.209256347849177,2.21412727783243,2.21481334536176,2.21795706396839,2.21577631621057,0.209256347849177,2.21715402980276,2.21973152323615,2.21695632263643,2.22060355245969,0.209256347849177,2.22066923641728,2.22289982646718,2.22013096205001,2.22364918419417,0.209256347849177,2.22400261673703,2.22406957660099,2.22597026439234,2.22572364727598,0.209256347849177,2.22622733807564,2.22873023804915,2.22612663768215,2.22952590394459,0.209256347849177,2.22987726983532,2.22939736059775,2.23196433443137,2.23088982281793,0.209256347849177,2.23263551528942,2.2322322797002,2.23572348828469,2.23229036420754,0.209256347849177,2.23420683566514,2.23766281931311,2.23356876784077,2.23751286328549,0.209256347849177,2.23863843648842,2.23653830832106,2.24050845365524,2.23821326495042,0.209256347849177,2.23932716935076,2.24212973511431,2.24030165740618,2.24295933787975,0.209256347849177,2.24440849841544,2.24163439276637,2.24607012059311,2.24381658963853,0.209256347849177,2.24685193983604,2.24477478112239,2.24947935297891,2.24672768831155,0.209256347849177,2.24912900381558,2.25030010201712,2.25048364050995,2.25280481773027,0.209256347849177,2.25412310219189,2.25617822897745,2.25746514385883,2.26082151562636,0.209256347849177,2.26233261805128,2.3074063581314,2.30849618181186,2.30956542877916,0.209256347849177,2.31088308711493,2.30879411554463,2.31084505619149,2.30895016968653,0.209256347849177,2.30855960802268,2.30657646540589,2.30859073277981,2.30605021795471,0.209256347849177,2.30585699765345,2.30892004437118,2.30444270417124,2.30829164390422,0.209256347849177,2.30868712279386,2.30654770516295,2.31060829827105,2.30831205500123,0.209256347849177,2.3112841450434,2.31013924905925,2.31316246880051,2.3122977271396,0.209256347849177,2.31439367871133,2.31535143138887,2.31744405910297,2.31640389625377,0.209256347849177,2.31801359075122,2.31536593648904,2.31625147945769,2.31678365174986,0.209256347849177,2.32014103369964,2.3129623855584,2.27708514840702,2.27667014704998,0.209256347849177,2.27644357730803,2.27228806142622,2.2779102862495,2.27401383903381,0.209256347849177,2.27392360976254,2.27796018451528,2.27246581688434,2.27710727695537,0.209256347849177,2.27701743844413,2.27375455578845,2.27871658143821,2.27592079542874,0.209256347849177,2.27873811461177,2.27507320660065,2.28104366232476,2.27693344927569,0.209256347849177,2.27907169490273,2.28136956589445,2.27923966098212,2.2825748235152,0.209256347849177,2.28381669668495,2.28496509222086,2.33075097868934,2.33095870168625,0.209256347849177,2.3303494995913,2.33309997752096,2.33217572924148,2.33189577614251,0.209256347849177,2.33388400801497,2.33032228957129,2.33017576378145,2.32945264845935,0.209256347849177,2.3287603207825,2.32954426091101,2.32704431252563,2.32849807169006,0.209256347849177,2.32726881962654,2.33019186369237,2.32606328268649,2.32945513758981,0.209256347849177,2.32875372099137,2.33072169475356,2.32964586834593,2.33201669925872,0.209256347849177
2.21419061162648,0.209256377745109,2.21446216144959,2.21566325728618,2.21553598516086,2.21761757594657,0.209256377745109,2.21845951291882,2.21769425245069,2.22012539002067,2.2191514294743,0.209256377745109,2.22074115703977,2.22095280494493,2.22294926700347,2.2225508852981,0.209256377745109,2.22314895098839,2.22407831603837,2.22540851412043,2.22579009334372,0.209256377745109,2.22661388951308,2.22660857456481,2.22914945938193,2.22904177165809,0.209256377745109,2.2293171494384,2.2298783707899,2.22969319376371,2.23206963605472,0.209256377745109,2.23263205334846,2.23324152953102,2.23243699756121,2.23463742327266,0.209256377745109,2.23550409580663,2.23431641951829,2.23689023452974,2.23595451934686,0.209256377745109,2.23725877689931,2.23911899944702,2.23765766385559,2.23991866743559,0.209256377745109,2.24057565413865,2.23991659778984,2.242095896708,2.24185280293946,0.209256377745109,2.24305603668536,2.24477928529207,2.24318578498322,2.24529675995004,0.209256377745109,2.24598158700772,2.24776033676637,2.24648320823317,2.24866354677239,0.209256377745109,2.2489164623178,2.25018770626825,2.25092392368459,2.2530210507724,0.209256377745109,2.25438328809631,2.25641764485985,2.25793812089392,2.26040774018186,0.209256377745109,2.30884049038845,2.30787387303713,2.30858669539401,2.30882721466992,0.209256377745109,2.30905507370849,2.30978487291781,2.30830905721353,2.3098920556903,0.209256377745109,2.30739004635477,2.30808205634834,2.30618452899738,2.30682150084792,0.209256377745109,2.3075224351801,2.30542829709924,2.30766913447643,2.30637895243464,0.209256377745109,2.30698934788683,2.30854977819553,2.30786422827279,2.30970750331385,0.209256377745109,2.31001175726937,2.31147752165326,2.31132470854703,2.3131041991864,0.209256377745109,2.31395842858687,2.31578713883581,2.31532871203606,2.31685930429392,0.209256377745109,2.31745802654902,2.31775674131661,2.31715626118604,2.31684046368651,0.209256377745109,2.31094683548876,2.31322890350818,2.27770142190981,2.27636291629968,0.209256377745109,2.27459163445774,2.27651515482097,2.27449262883904,2.27578797181844,0.209256377745109,2.27572045362704,2.2741813333672,2.27711036440747,2.27516037182626,0.209256377745109,2.27568876042434,2.27733221419503,2.27515507064261,2.27729599332413,0.209256377745109,2.27697838312,2.27896634375269,2.27672171913818,2.27931823077506,0.209256377745109,2.28007169813849,2.28005852556275,2.28192688925988,2.28163254376182,0.209256377745109,2.28414902212814,2.28561750985229,2.32853766406993,2.33052505877159,0.209256377745109,2.33207077004677,2.33231593894042,2.3323096139703,2.3319216650082,0.209256377745109,2.33096882427023,2.33107498404754,2.32997278296918,2.32984846546319,0.209256377745109,2.32864150498691,2.32751995762314,2.32783044584467,2.32707486303536,0.209256377745109,2.32760560992387,2.32689025557687,2.32890818405712,2.32768325871824,0.209256377745109,2.32886678963676,2.32935657762968,2.33019647769756,2.33168574504912,0.209256377745109
