2.24201745776345,2.24256793122404,2.24319812156383,2.24346618857896,2.24449782830226,2.24503387530833,2.24581824343245,2.24597580112333,2.2470538361885,2.2472529201469,2.24824160789545,2.24808672044613,2.24949043474967,2.24951824488003,2.25108458903474,2.25119839331024,2.25299299656518,2.25360453404374,2.25444368028653,2.25526511327319,2.25624076875853,2.25851747466781,2.25703067453437,2.3068609314584,2.30996227018658,2.31004992754269,2.31118881155251,2.31087589097235,2.31131279036273,2.31077370423289,2.31037478712828,2.31017911293768,2.30935155917143,2.30893876785677,2.3083901405669,2.30809427298575,2.30782336365667,2.30788511628472,2.30758143963707,2.30777396355467,2.30753634618195,2.30780433387265,2.30783783657868,2.30828663442631,2.30858218838471,2.30931124136763,2.30961750291802,2.31037418518949,2.31074547370054,2.3114675113087,2.31203915357231,2.31290162846517,2.3134982012738,2.31433686906632,2.31508713884375,2.31608783554596,2.31648777189263,2.31731564113419,2.31713731342596,2.3175099311928,2.31695039146974,2.31652483014791,2.31604091071692,2.31361385021369,2.31426493828518,2.31341444633787,2.28581083033646,2.28087091767464,2.27776322648619,2.2763236468221,2.27556627153528,2.27555042850807,2.27595005715925,2.27590313016526,2.27635446480536,2.27629764698522,2.27682012529911,2.27705128421724,2.27724540064556,2.27714801536151,2.27763919948745,2.27779309474302,2.27811344314592,2.27809880289624,2.27866982690975,2.2788727061857,2.27934937262253,2.2795792647192,2.2798777256657,2.28025723893533,2.28038558551264,2.2814576452114,2.28238891869445,2.28380043107596,2.29338097005313,2.33155602320021,2.33210574745246,2.33188186416505,2.33294741224884,2.33316287342605,2.33340418261365,2.33294358654647,2.33225072220928,2.33148881849478,2.33113159674326,2.33086333861881,2.33038651454596,2.32991462238382,2.32943199973579,2.32878224454404,2.32851838310586,2.3278952722752,2.32804871303731,2.3277450281577,2.32814392071244,2.32812722769398,2.32860939933726,2.32879797601207,2.32941291125493,2.3298509904783,2.33046568412309,2.3309917615545,2.33172489063796,2.33243448751737,2.33302157186867,2.33380131036122,2.3340301366887,2.33470549357786,2.33497977604966,2.33528848481372,2.33580494583498,2.33540391443252,2.33498854369443,2.33470906133091,2.30088940437353,2.28995694458909,2.28905385224407,2.28899967094053,2.28722565914656,2.28720495638858,2.28669507676678,2.28700573301097,2.28637673212744,2.28630669888042,2.28612657189544,2.28652882723601,2.28598713544514,2.28607122148671,2.28567138568235,2.28572038525995,2.28541315853243,2.28542752389528,2.28508406428676,2.28498905482585,2.28495182389827,2.28523088518187,2.28515585552632,2.28561041842709,2.28515014307399,2.28515827809941,2.28498721548163,2.28518624335412,2.28492546761227,2.28495123535115,2.28497009699942,2.28532913836613,2.28513671873121,2.28553638669861,2.28526610914295,2.28546555176921,2.28538157800164,2.28563044557699,2.2855678327683,2.28590815143708,2.28577150446814,2.28603733284662
2.24192634964776,2.24260490933663,2.24313774265769,2.24391263129526,2.244398167512,2.2452475846472,2.24557215197253,2.24639349024517,2.24674819446099,2.24771337870846,2.24799291391355,2.24898309790968,2.24936666836873,2.25052078454179,2.25094578989195,2.25212336527683,2.25267357482343,2.25386529764105,2.2541283904321,2.25551602000649,2.25635650247266,2.25788693962373,2.25715428111783,2.28554688723934,2.31208816595685,2.31171058206507,2.31208526163627,2.3116245493912,2.31140895087449,2.31088672040732,2.31018318143291,2.30958358078147,2.30910423719422,2.30864518830408,2.30827720261442,2.30789469295307,2.30773906823753,2.30754481699794,2.30744711297467,2.30730257249662,2.30737201743156,2.30741432617786,2.30770735841861,2.30798172602282,2.30843574408246,2.30889209453328,2.30943383700454,2.30998265735268,2.31054352629908,2.31113153457245,2.31181251540002,2.31256679131382,2.31327509927772,2.31407450639958,2.31486310150469,2.31570608917408,2.31613644183045,2.31658228510223,2.31661644621206,2.31673857097659,2.31660130831694,2.31654427275457,2.31627119756579,2.31506993210058,2.31424226517851,2.31346800821769,2.28165331639231,2.27829862423358,2.27680178678861,2.27598050352588,2.27536381471693,2.27570546190142,2.2757927602679,2.27622119735499,2.27615242021998,2.27652660857362,2.27652486206118,2.27701306466944,2.2769775208028,2.27741102770882,2.27742871777038,2.27787985808569,2.27792192454719,2.27835022726603,2.27853289547284,2.27903862730184,2.27921870293239,2.27960667177604,2.27966401805878,2.28004444188892,2.28027420600047,2.28154721320768,2.28265701823425,2.28387582329427,2.3006748710886,2.33151028528631,2.3319642416045,2.33221419566101,2.3330739685042,2.33325865652326,2.33318243090598,2.33289218109338,2.33197600339224,2.33140508096818,2.33069575636406,2.33037408844275,2.32965969436331,2.32927548046992,2.32866039871654,2.32840009126158,2.32789026498007,2.32779106390336,2.32748740016097,2.32762762638281,2.32752676600073,2.32786631020362,2.32794279286345,2.3284669744912,2.32881978944335,2.32959795278561,2.33000837140886,2.33078387880922,2.33125912482662,2.33200094568528,2.33252071759173,2.33320338051998,2.33366168869969,2.33427175932252,2.33475035473619,2.33506279862827,2.33553410539562,2.33503186788693,2.33457225949471,2.33416321374218,2.2951130197923,2.28940617044789,2.28858977500506,2.28799024499245,2.28709975472654,2.28683885934688,2.28667470081125,2.28643853280939,2.2863099722104,2.28604871092971,2.28600946831114,2.28590336363027,2.28583860910842,2.28572419300722,2.28563242957618,2.28551070749808,2.28541061890204,2.28526851667954,2.28506557923086,2.28484909495725,2.28487078008553,2.28490659271995,2.28499803869571,2.28508623027581,2.28508850377219,2.28508108261249,2.28499575351703,2.2849247848434,2.2849197382154,2.28493090334903,2.28494698554878,2.28497249931,2.28500672545071,2.28506413185188,2.28512779167463,2.28518101970289,2.28530200713211,2.28538227871558,2.28554504665458,2.28566227470318,2.28582928966759,2.28593810388061
2.24199302295974,2.24238575496126,2.24331198808181,2.24399732448579,2.24463807226,2.24495071362291,2.24577896329634,2.24584546228932,2.24701878044397,2.2471321833565,2.24839765652317,2.24857555149013,2.24993947650342,2.25021346608496,2.25151922611457,2.25155494730943,2.2531369089531,2.25360287872128,2.25471323493968,2.25638611027525,2.25723197955301,2.25906663521789,2.25922412944714,2.26346846199647,2.31254031856399,2.31141244288359,2.31210947526603,2.31114093790439,2.31129521362726,2.31119830154201,2.3100480589775,2.30934466278656,2.3088571389955,2.3088057050354,2.30809014065081,2.30806478631672,2.30756358642486,2.30773657682426,2.30721170095973,2.30725508946536,2.30708758444649,2.30739676806665,2.30746718239815,2.30808181035127,2.30819411724713,2.30891400821698,2.30919821838189,2.31003560373922,2.31032261626169,2.31108840974634,2.31157032613195,2.31260406006552,2.31305893336649,2.31410845369195,2.31471270503658,2.31600005414872,2.31593180803059,2.31652214160824,2.31628451183337,2.31643846767668,2.31639750397746,2.31629698350821,2.31637840612945,2.3152630222832,2.31362496997975,2.31313449952988,2.2784707193005,2.27667794257199,2.27594175571195,2.27581889643762,2.27557305777846,2.27567435622799,2.27604992278891,2.27601835162013,2.2763341432715,2.27610910998172,2.27661138132767,2.276515591609,2.27708571732151,2.27717198946815,2.27757905030345,2.27754546358071,2.27806746965391,2.27812259422523,2.2786983885092,2.27890489245263,2.27934950138978,2.27953008360825,2.27978555698343,2.28032253510432,2.28064345652831,2.28216598856483,2.28337094095292,2.28503660356243,2.3081994202664,2.33115616160766,2.33162412196634,2.33179289179241,2.33281782359591,2.33278615414296,2.33302176917316,2.33316902003998,2.33199229262898,2.33122810587709,2.33053344128008,2.32989131675916,2.32929318198571,2.32838221545575,2.3282729016707,2.32770663015783,2.32762787047079,2.32727337600016,2.32728705404988,2.32709555530984,2.32729194786208,2.3272007615716,2.32764725424127,2.32767211639309,2.32857895372075,2.32917603262628,2.32987610457488,2.33051264373145,2.33108812715154,2.33166151600403,2.33228214185855,2.33299310992705,2.33346848502408,2.33423755900736,2.3344205931741,2.33428572407721,2.33493431239079,2.33440168787577,2.33401634498289,2.33335871738114,2.29150011065759,2.28954847680474,2.28824785236326,2.28817567027446,2.28709678531536,2.287551752862,2.28661840963828,2.28643060351573,2.2860973341577,2.28613560777582,2.28577244541093,2.28576004248497,2.28560694368146,2.2858306524123,2.28552521106276,2.28571688053929,2.28537579053707,2.28557781902666,2.28500391047425,2.28485602350018,2.28473183407461,2.28489564125659,2.2848087789014,2.28500604309845,2.28500770776328,2.28543325565532,2.28496413229231,2.28494640506997,2.28487201821783,2.28525740081892,2.28488466241978,2.2849685521162,2.2848145246056,2.28496478087292,2.284945837869,2.28523401753405,2.28518861734498,2.28549124769828,2.28546753919242,2.28584886329315,2.28581339200913,2.2863667084681
2.24191235637947,2.24264320209439,2.24320348878486,2.24400597855685,2.24436756649668,2.24509463197844,2.24550633921111,2.24641380398864,2.24676125139197,2.24771552721538,2.24806482137803,2.24913550177337,2.24962741783842,2.25089210130233,2.25126745869632,2.25237403866619,2.25279867902584,2.25394201194651,2.25437704026358,2.25610420881025,2.25729075097108,2.25879894682632,2.26737798491526,2.28738332707893,2.3127219463713,2.31227727974654,2.31246405022814,2.31168722470636,2.31118271013766,2.31059404994792,2.30987176659969,2.30927608310694,2.30870065414567,2.30814604832949,2.30780633267885,2.30747043960777,2.30735169008282,2.30719515328099,2.30706592362619,2.30687961159005,2.30698078414821,2.30704051406628,2.30730914054471,2.30753644612873,2.30792142349888,2.3082882915058,2.30892009075615,2.30952658475727,2.31006037427044,2.31059735862181,2.31114415886633,2.31182006967174,2.31256024449535,2.31347887433489,2.31415296642139,2.31495165709348,2.31531806669952,2.31580633570798,2.31578833936777,2.31600016452937,2.3161910983117,2.31644877904904,2.31653455395394,2.31617640625468,2.31151560686302,2.29639088880386,2.27724937555229,2.27552437770439,2.2750881271907,2.27534134999714,2.27533863916292,2.27578331847848,2.27578125680541,2.27611407062511,2.2760263639455,2.27637606057263,2.27628644881781,2.27664738339035,2.27672098326114,2.27722767147875,2.27729299378874,2.27776258667653,2.27790250948805,2.27841438592721,2.27856458995729,2.27901597601712,2.27917042198567,2.27949978547816,2.27957644798157,2.28021272766342,2.28063021698381,2.28221175448513,2.28327595240564,2.28452995185211,2.31583181938606,2.33162383967151,2.33189311321965,2.33221887525182,2.33276511212046,2.33276833458116,2.33245712048294,2.33226314785332,2.33133351327489,2.33078640904415,2.32990975812403,2.32945214613616,2.32874112479849,2.32843139874986,2.32778590944719,2.32754183629958,2.32704322315101,2.32697904546058,2.32666302032691,2.32679444648417,2.32669345963056,2.32703621527247,2.32711983027327,2.32765138613315,2.32803670419376,2.32884850664112,2.32930552887932,2.33013468451329,2.33059817671728,2.33137806759734,2.33187777537925,2.33264291784955,2.33314972345171,2.33385235970536,2.33428699860747,2.33444425446332,2.33479294733217,2.33451355739022,2.33386870224552,2.31215881251431,2.28998563753621,2.28835598106518,2.2874442746957,2.28717265410161,2.28679930111148,2.28674880858873,2.28655500469187,2.28620586907928,2.28609095789644,2.28587139053076,2.28571931250476,2.28550339503836,2.28548202251029,2.28541229470291,2.28536078159914,2.28527470489276,2.28520321438555,2.28511159596493,2.28489547277245,2.28468957211552,2.28466519031844,2.28465859661345,2.2846826950614,2.28470905363924,2.28484208913801,2.28494985152129,2.28481600288655,2.28467187307442,2.28469974329769,2.28474678669461,2.28470723529156,2.28467059070422,2.28467339833499,2.28468799416712,2.28483424196004,2.28497276680154,2.28513507893973,2.28527227116085,2.28543135205671,2.28553556271373,2.28570202899142,2.28579789844952
2.24199502614098,2.24265932385526,2.24333047918581,2.24379533069995,2.24443896673124,2.24451574170854,2.24569149917387,2.24610960830316,2.24708670028992,2.24717549841649,2.2483768564679,2.24835922889446,2.25000763242247,2.25040870757172,2.25173819337131,2.2517846631337,2.25329391018108,2.25378154727678,2.25495544512482,2.25644161457357,2.25787022011566,2.25966393576727,2.27084319088576,2.31098855743908,2.31172920377577,2.31131430251923,2.31194668064123,2.31111394359759,2.31086369318745,2.31031807123868,2.30970681199239,2.30970452970399,2.3084888297977,2.3078621864648,2.30739277155796,2.30730292712067,2.30701324173285,2.30730123984475,2.30679637433704,2.30689900668761,2.30673685987496,2.30714054778809,2.30703432170145,2.30745765070674,2.30754605309534,2.30796139725341,2.30859670699427,2.3095807457442,2.30978052025893,2.31051051429077,2.31062898129226,2.31131769120751,2.31197091374145,2.31338747115354,2.31359605806198,2.31459464137112,2.31477058808532,2.31583905167225,2.31535956928753,2.31563067908855,2.31585087758915,2.31607612194105,2.31582299734904,2.31541735537301,2.30868083076737,2.27793326412412,2.27688951887986,2.27634954263074,2.27524728279359,2.27550763441942,2.2755684597181,2.27556039052635,2.27590389902545,2.27558131061826,2.27614889342358,2.27604538829835,2.27639589321599,2.27607112663106,2.27677491993443,2.2768001775241,2.2773985373167,2.27747781403375,2.27808428454721,2.27834422867765,2.27873128350387,2.27879099370708,2.2792680425903,2.27941170406214,2.27984711482625,2.28097201631695,2.28123006365414,2.28276981011413,2.28330864680573,2.28482950553144,2.32326181763842,2.3322544016802,2.33223210307237,2.33211390948571,2.33269266429591,2.33231104518834,2.33214099610852,2.33173342837361,2.33102697875547,2.33026873810547,2.32959089412375,2.32876865767512,2.3285261181985,2.32827777876352,2.32764667997996,2.32707148486149,2.3267787567027,2.32636164686096,2.32635561725758,2.3261303693981,2.3264320455253,2.32651097841231,2.32693946404353,2.32715055855404,2.32785527867216,2.32829266356242,2.32910351030116,2.3296540444389,2.33044308786815,2.33109930159979,2.33176109682999,2.33252010715247,2.33301694242475,2.33364287278666,2.33399498238546,2.33384158570465,2.33414991738967,2.33399045135596,2.33295571714953,2.29045678489201,2.28944131111926,2.288696509892,2.28732548698638,2.28764803687776,2.28674830661585,2.28703901105679,2.28639589253658,2.28634000062774,2.28594229115767,2.28608035731776,2.28557265294734,2.28554334372984,2.28529669138346,2.28541883779445,2.28515537003032,2.28522230176422,2.28499897665488,2.28514420727119,2.28474249578625,2.28469371675666,2.28455898021465,2.2847275118653,2.28454107358495,2.28463202484241,2.28469375063613,2.28502889355262,2.2846727537704,2.28454427820461,2.28450261094972,2.28464478471788,2.2845170257064,2.28466506763605,2.28450114985302,2.28462951248038,2.28469577959285,2.28506425172589,2.28505140239471,2.28544258598743,2.285368967137,2.28561385407503,2.28554865022265,2.28573129110598
2.24188660683124,2.24265218341289,2.24313351035502,2.24384388489659,2.24423623233203,2.24498214656074,2.24539388457043,2.24629145290952,2.2467126895029,2.24773772809352,2.24808045170023,2.24913129657177,2.24965378657187,2.25091277659187,2.25138954569511,2.25256256823453,2.25300794496657,2.2543059935064,2.25489969412904,2.25681610401214,2.25802020183723,2.2593026495052,2.27683543218757,2.31121013948603,2.31142723092839,2.31151825448173,2.31180147008153,2.31132176470467,2.31069207259257,2.30996284983661,2.30938861712216,2.30890312034638,2.30826281349432,2.30760654399472,2.30724042058008,2.30686203149206,2.30678007118057,2.30664647537578,2.30662075334064,2.30652362328168,2.30662265954676,2.30665758574087,2.30689492269795,2.30706474250899,2.30745635968597,2.30780222892046,2.30846839550423,2.3090565163808,2.30943637940551,2.30969312890526,2.30993296143365,2.3101049422101,2.31094283043058,2.31169490309577,2.31252355174338,2.31316139593311,2.31357410451653,2.3138842867285,2.31433322000954,2.31485842960033,2.31516169335929,2.31501634244605,2.31471996478939,2.31422507397303,2.30385292080869,2.27739651015681,2.27651060866381,2.27578137520707,2.27501460720025,2.27529340585092,2.27535882032031,2.27576003961297,2.27567589621592,2.27596674571582,2.27589279428465,2.27626779742586,2.27615563384332,2.2764908266931,2.27654164126274,2.27702069366182,2.277142615677,2.27766037214946,2.27783662597253,2.27837110402471,2.27855542001996,2.27901220323912,2.27917095652021,2.27954218745007,2.27966028586191,2.28059636445303,2.28116418995252,2.28234718067875,2.28579703772662,2.30781290002119,2.32885797856332,2.33215165569388,2.33253201679841,2.33265202400835,2.33265216341262,2.33232977336306,2.33161811286244,2.33124437561585,2.33036092482548,2.32985536477742,2.32891345120868,2.3283846570153,2.32778532278573,2.32759068088105,2.32691780470224,2.32663349615301,2.32611092834111,2.32599420231936,2.32573497221739,2.32586761178697,2.3258360947306,2.32620414530588,2.32638633469007,2.32699062904051,2.32734105170399,2.32810676800287,2.32860795664616,2.32947795248994,2.32998824632477,2.33082371007726,2.33131810472319,2.3321326550751,2.33265003370713,2.33335595289447,2.33376815426001,2.33376069784161,2.33367438387812,2.33350978642093,2.32978796198304,2.29004308321742,2.28907248810827,2.28805908190506,2.28693860235479,2.28684576253584,2.28660057467945,2.28642576859561,2.28626618467441,2.28591877958121,2.28580936094067,2.28560758211935,2.28545068404965,2.28523593040141,2.28519321052837,2.28510292691038,2.28502655107186,2.28489320541062,2.28479865108515,2.28467032385914,2.28458299746639,2.28449675076904,2.28447730187617,2.28447258672774,2.28443751929324,2.28442460458925,2.28457994488948,2.28471895544353,2.28460616334658,2.28447503967255,2.28442658472527,2.28439311323692,2.28436243157445,2.28433137178963,2.28436203884547,2.28441073932514,2.28460300596646,2.28479465860247,2.28494245129243,2.28509226315947,2.28540575556477,2.28568824981874,2.28561239930018,2.28548877284381
2.24194329401435,2.24251987977395,2.24317940515355,2.24354757351675,2.24438994189547,2.24474454381739,2.24556982893876,2.24551705403437,2.24692847648052,2.24725171783748,2.24844414936373,2.24851139251523,2.25002323421606,2.25013840035137,2.25178730836197,2.25205855244634,2.25354614814627,2.25448312392232,2.25566286552485,2.25772665715437,2.25883738236993,2.2603397998988,2.28392782047182,2.31120622674155,2.31116755012302,2.31119470658869,2.31148111553309,2.31107453460952,2.31035561801325,2.30970406714347,2.30904239481667,2.30882812323159,2.30797214659798,2.30769945001447,2.30693902332494,2.30681375200618,2.30640142444556,2.30660177119754,2.30630488087577,2.30667523901582,2.30636537278864,2.30667534720525,2.30663856541649,2.30710920848848,2.30726755534515,2.30791823250419,2.308325985051,2.30925854697056,2.30918247552475,2.30932827409239,2.30933113260919,2.3085860732271,2.31008122787032,2.31022370075132,2.31177271788115,2.31221240771118,2.31270749879147,2.31200043415217,2.31346888794685,2.31402803778281,2.31442850315906,2.31370223601807,2.31371791307539,2.31319632773318,2.29719846617782,2.27729189906353,2.27652643832113,2.27601231696726,2.27523903477855,2.27528337841078,2.2755631080683,2.2754843447588,2.27586423926143,2.27564441753386,2.27608775168947,2.27592321673676,2.27636458060505,2.27618799158529,2.27673772422165,2.27666789584452,2.2772870649429,2.2773521370251,2.27794154325575,2.2780239326879,2.2786838293746,2.27892777854205,2.27940996169825,2.27987424230796,2.28006764087298,2.28115276872854,2.28168411319371,2.28263220746094,2.28780658090204,2.32997063345787,2.3313309481517,2.33217949582357,2.3326146067266,2.33243300697317,2.33250125501182,2.33202896329948,2.33139595965066,2.33084530516173,2.33009255086576,2.32938356932594,2.32856605552423,2.32755080907163,2.32736480599786,2.32687841446508,2.32649954565029,2.32596013586804,2.32571468278499,2.32531429858298,2.32539662338148,2.3253010768358,2.32553624747365,2.32557021689585,2.32614378690751,2.32652013984367,2.32717423269356,2.32760284766919,2.3285055499487,2.32912742262167,2.32992789199351,2.33049431137642,2.33121148187242,2.33180979826078,2.33245838524915,2.33291325834321,2.33352305651048,2.33348295758535,2.33322510975198,2.33326447171473,2.32435314187529,2.29048593984942,2.28902768552076,2.28834565515748,2.28696705279301,2.28765397803111,2.28655309412696,2.28652791823084,2.28600540008931,2.28580556942677,2.28556445262512,2.28560392095302,2.28525592867029,2.28521588085563,2.28505115541453,2.28518450108245,2.28490084282463,2.2848978218923,2.2846018694101,2.28449774751725,2.28440965631236,2.284553123856,2.28438043104065,2.28455303796813,2.28431948405653,2.28434448273655,2.28449508144207,2.2849510764146,2.28457282241891,2.28461178970481,2.28435002646833,2.28443051271627,2.28421843063902,2.28423777332035,2.28420564686474,2.28436851184333,2.28449625709518,2.28491603251054,2.28479594853468,2.284960632153,2.28541180650866,2.2865467051435,2.2856301596689,2.28546640122468
2.24181363246894,2.24246695126952,2.24298988327567,2.24374114413463,2.24418932992748,2.24498355355356,2.2453810316642,2.24624297540536,2.24664033366373,2.24762507943768,2.24809997715333,2.24927683845193,2.24980012580661,2.25105198389468,2.25148336176316,2.25259485760965,2.25308459711999,2.25451928547889,2.2553145727569,2.25759074767847,2.25888384858244,2.26069268560198,2.29119224435391,2.31103477636345,2.31099301508248,2.31106631149202,2.31112676838597,2.31053634271195,2.30995083620104,2.30930181336806,2.30878001374766,2.30829213911879,2.30772477938407,2.30710194186136,2.30668910120934,2.30624069086218,2.30613617724968,2.30596676690464,2.30606382297532,2.30606311742964,2.3062214733183,2.30628468250106,2.30657400503938,2.30678988678981,2.3072295732886,2.30762753071207,2.30822878716756,2.30876341393203,2.30919342577372,2.30951458344232,2.30988078132195,2.31017162643657,2.31090311088287,2.31156009418686,2.31240425796297,2.31309532500173,2.31328410403938,2.31338665077002,2.31354741199174,2.31365462444152,2.31403928498333,2.31356806774134,2.31332098527216,2.31278556475632,2.28992171636257,2.27756685989462,2.27642974812999,2.27573268903635,2.27507599682093,2.27534856794104,2.27533249843223,2.27565524355816,2.2755830021538,2.27593676227453,2.27581903382507,2.27617499485308,2.2761520324147,2.27659577765063,2.27657952005701,2.27700897707692,2.27710224568143,2.27760674895847,2.27777927766427,2.27829633540087,2.27856138786154,2.27907480567807,2.27926655306712,2.27979124209645,2.28003484712729,2.28126197368116,2.28203593139676,2.28303045667196,2.29265059264715,2.32991968307619,2.33088894081468,2.33174669069747,2.33248567334911,2.33242308517173,2.33202492222523,2.33157434470926,2.33066843394142,2.33019903287997,2.32929003880985,2.32877574216321,2.32789806299215,2.32740863678884,2.3267572232388,2.3264525955823,2.32580511284904,2.32546761484971,2.32508063086274,2.32500974148091,2.32485394557653,2.32499661983346,2.32501987488853,2.32535531932498,2.32561274150535,2.32622137121565,2.32668290977064,2.32752473304725,2.32811502699775,2.32906297646519,2.32958997721359,2.3304493969931,2.33087144300346,2.33166245684278,2.33211653342445,2.33277095919557,2.33313145359307,2.33289274544391,2.33256350827444,2.33231201797754,2.31812068895919,2.28943462354857,2.28850655704863,2.28764038179342,2.28661191323246,2.28650541147377,2.28632264413489,2.28608249273527,2.28596910972139,2.28567841637946,2.28556491818496,2.28535285234624,2.28522580201981,2.28503559376136,2.28503123403293,2.28498506222647,2.28487100915178,2.28471767834551,2.28455497717465,2.28437771124079,2.28432020836598,2.2842641230766,2.28423511079002,2.28421046179377,2.28422764630227,2.28425579335515,2.28438241696964,2.28449193703394,2.28439650793918,2.28428994921431,2.28420622297374,2.28414915996809,2.28412453463213,2.28411176182992,2.28414991679803,2.2842001813611,2.28441591803976,2.28462631981276,2.28471453199012,2.2848121868726,2.28512370303734,2.28541442438042,2.28533291579423,2.2852185349174
2.24184587147389,2.24214727734883,2.24304022095496,2.24357507003147,2.24435374264437,2.2445741102999,2.24569087622548,2.24599190818449,2.24696146647401,2.24676843117574,2.24842338097073,2.24876651009602,2.25029967209564,2.25072597477828,2.25192161099988,2.2518925678588,2.25343168160818,2.25445108744152,2.25562686850603,2.25812418749633,2.25890788514492,2.26267170326608,2.29769011804246,2.31101842927459,2.31070815065598,2.31060981868451,2.31057920255594,2.30963186282951,2.30940938057023,2.30918026904991,2.30848901731589,2.30845977536803,2.30740521639578,2.30697877938174,2.30627890262575,2.30605652726687,2.30570721265305,2.30582421392999,2.30567985052982,2.30605295201342,2.30593939916867,2.3064051497376,2.30637538470892,2.30693579598847,2.30706864920632,2.30775411590246,2.30808967564568,2.30891058135337,2.30926807673551,2.31010502860686,2.31052526687313,2.31168293335036,2.31187980904557,2.31300711129271,2.3133346205388,2.31473902756761,2.31422531739968,2.314869736313,2.31387119639554,2.31240855355639,2.31365596323678,2.31245644320047,2.31312696675583,2.31261595340027,2.28376487562735,2.27837749924463,2.27644864415107,2.27585301864075,2.27538217550129,2.27535151570591,2.27554880317213,2.27516827197503,2.27572832006141,2.27560456113906,2.27599926878583,2.27573489416306,2.27637968052626,2.2764462890591,2.27683848218735,2.27675072215637,2.27730207921763,2.27736130969746,2.2779749782236,2.27809643542874,2.27875128991338,2.27899816290685,2.27946320717874,2.28014212154186,2.2804440826061,2.28220673924963,2.28288630684245,2.28436848262879,2.29912714822029,2.32921330563299,2.33048733896159,2.33116177161584,2.33213627483942,2.33157709742143,2.33163518647617,2.33101287277692,2.33031985178946,2.3295223755469,2.32887164636713,2.32801372575746,2.32756573654359,2.32695132797583,2.32647226963955,2.32596459502248,2.32541180741564,2.32469141095429,2.32469875872902,2.32449714495944,2.32457144434511,2.32450382724229,2.32478071061966,2.32484075645102,2.32538138167216,2.3255954911531,2.32652978602586,2.32714625074058,2.32812986051522,2.32885012204008,2.32968551915146,2.33035731466073,2.3309103769256,2.33148511692008,2.33196638197403,2.3321493692951,2.33268740771634,2.33181737897982,2.33186094376862,2.33141584155126,2.31201340037174,2.28930182923439,2.28837048493269,2.28823191484367,2.2865776181679,2.2867939265228,2.28613395769351,2.286124640256,2.28582258504742,2.28589701407741,2.28549533836397,2.28550387255122,2.28514999234007,2.28510054598804,2.28498689111469,2.28523681143438,2.28484583750216,2.28489085166834,2.28451178227137,2.28445109232033,2.2842362797215,2.28423866375972,2.28410485496046,2.28410142824818,2.28415241486544,2.28433462872536,2.28431927315028,2.28449863747108,2.28426590853078,2.28420475150225,2.2840697525434,2.28409817778462,2.28404848846888,2.28420772562084,2.28410230123734,2.28415781336462,2.28434564421058,2.28477769270755,2.28460702043421,2.28480476794661,2.28481281571645,2.28505357088538,2.28499207948092,2.2851175243339
2.24179141842116,2.24236182382254,2.24292890167753,2.24372134372249,2.24422688823899,2.24507336102256,2.24556036477999,2.2465208339968,2.24683970863393,2.24776075441565,2.24821395494529,2.24936908374554,2.24991462019184,2.25116604664039,2.25155541087141,2.25257056379183,2.25293973898371,2.25415808864717,2.25465620667911,2.25627910669879,2.25611206763057,2.28310848439347,2.30290766617903,2.30974176662388,2.31014466893047,2.31023479982746,2.31027189547155,2.30967892728741,2.30912727041392,2.30859949585306,2.3081370744324,2.30766048730845,2.30712985678341,2.30651834980282,2.30612272152784,2.30565948815701,2.30557963702913,2.3054137600471,2.30555880443835,2.30559347500696,2.30584566365035,2.30599232628722,2.30631559654353,2.30655793926519,2.3070227825469,2.30743523452599,2.30805390374049,2.30862790926394,2.3093624200216,2.31008689819068,2.31084192874074,2.31168281916509,2.31225618009116,2.312978598783,2.31345726980526,2.31407397817968,2.31421835073897,2.3145275121909,2.3144628980443,2.31430765585802,2.31457333261209,2.31418661954873,2.31355513657885,2.29629237733625,2.28000845711331,2.27643577374539,2.27562084996601,2.27549253443517,2.2752687484822,2.27560759747023,2.27539158906426,2.27552763708041,2.27545902710566,2.27586367773532,2.27574735291364,2.27611261671273,2.2761331970997,2.27662361688689,2.27659654737368,2.27701640211782,2.27710889550642,2.27763918220955,2.27789072603446,2.27850433033602,2.27867770861834,2.27907904002138,2.27919451765047,2.27973042589664,2.28011563093516,2.28170505630814,2.2829354934264,2.28415584817867,2.30670600467318,2.33074850207,2.33101610179107,2.33158679597379,2.33201450650109,2.33175885019978,2.33116123839735,2.33068481739313,2.32961762572861,2.32896178793577,2.32814060147333,2.32768173357041,2.32692005075717,2.32648109738527,2.32582391577789,2.32546549212568,2.32488987864385,2.32459229409813,2.32429973264819,2.32426830053811,2.32422020367223,2.32441341954447,2.32449643789104,2.32484714748224,2.3251116205264,2.32569892272529,2.32621447631673,2.32710167422376,2.32784839523479,2.3289671379707,2.32938160017552,2.330171961551,2.33048604743677,2.33123337638209,2.33161878454695,2.33223216647513,2.33251295450135,2.33208633884982,2.33155802255988,2.3310378006183,2.30602029908738,2.28875111260635,2.28793161550607,2.28717005133484,2.28628805330283,2.28616272153473,2.28606044298787,2.28585421845999,2.28581950592222,2.28562405685675,2.28551717588869,2.28532548050192,2.28521623892473,2.28506181979875,2.28497356738372,2.28485755960183,2.2847351534742,2.2846002501852,2.28446513724973,2.28434007063819,2.28422303949862,2.28413124871946,2.28411294079682,2.28412460160672,2.28420231638697,2.28431108586398,2.28431057038466,2.28432462233896,2.28420965909892,2.28410797099669,2.28401673550605,2.28396622635487,2.28401714488473,2.28410536003351,2.28416178836625,2.284239687677,2.28432238884854,2.28440685066354,2.28445437552503,2.28449065794012,2.28463309837146,2.28471547246796,2.28487762280779,2.2849676575005
2.24188792814665,2.24219380664402,2.24306173560553,2.24348647798325,2.24447527008444,2.24486898390567,2.24592783655696,2.24623011716801,2.2473217913377,2.24746427719306,2.24867778364571,2.24864113959885,2.25026992017186,2.25041789739183,2.25194181969197,2.25210162223534,2.25332599197415,2.25406443080227,2.25516720402923,2.25691244857302,2.25562443269578,2.30469256382926,2.30655778575173,2.30844698063096,2.30962636065703,2.30923430289945,2.3097147920571,2.30949448056948,2.30875195674384,2.30849789450632,2.30775970321313,2.30758437953748,2.30676380801464,2.30657126181964,2.30580503508769,2.30565426464328,2.30527935547793,2.30549039045251,2.30528028394016,2.30571267935722,2.30560033573807,2.30617058139007,2.3061092319287,2.30667151063286,2.30684874149999,2.30754936978437,2.30794288310508,2.30873445369337,2.30941551199212,2.31049289799205,2.31109207069939,2.31231569220389,2.31257099423827,2.31348784449439,2.31361609306915,2.31412597581959,2.31431415008838,2.31453435091151,2.31502843899548,2.31505689178347,2.31528103079598,2.31513943292718,2.31202816175938,2.27874699255307,2.27797811242439,2.276874194335,2.27555755577083,2.27562841079166,2.27557959017421,2.27566561415677,2.27563064657799,2.27497858262202,2.27561993105094,2.2755306868708,2.27595321270843,2.27574895016524,2.27633276929662,2.27629233492585,2.27677494363031,2.27667003128945,2.27727317352853,2.27736520293718,2.2781368758411,2.27862240181403,2.2789003211114,2.27893757647876,2.27930270950939,2.27993225112261,2.28026327065131,2.28196473572684,2.28329165779837,2.28506452487665,2.31417925148526,2.33233197313549,2.33168574364932,2.33163428194394,2.33191802666199,2.3311205005455,2.33094716759511,2.33038236171787,2.32934670303213,2.32805342484661,2.32780697546562,2.32715969593874,2.32663045436613,2.32583747809551,2.32546649772604,2.32491254575993,2.32459458300506,2.32431990303087,2.32408670949915,2.32393850848528,2.32406431647732,2.32429239209377,2.32442419513407,2.3247035408205,2.32508372056484,2.32550021629347,2.32619314081903,2.3266926022459,2.32794504701154,2.32920707161616,2.32949630824491,2.32991734401065,2.33045088385189,2.33087165365044,2.33150968204728,2.33167109043793,2.33237354191172,2.33168831990676,2.3313076457914,2.33043053768061,2.29995974091048,2.28895358860639,2.28785808728615,2.28731427722297,2.28633111849431,2.28673304075275,2.28604903714373,2.28599017594687,2.28573211098521,2.28576734705859,2.28547733388375,2.28552820975568,2.28523631449116,2.28536540518985,2.284937937354,2.28484508349796,2.28461816384389,2.28462992959489,2.2844139655651,2.28450917886193,2.28420867201945,2.28421493129924,2.28412832084409,2.28433038326342,2.28426696499911,2.28463578110862,2.28433805810293,2.28451342641287,2.28419296846155,2.28423335557789,2.28397504058537,2.2839691872751,2.28399603739748,2.28428166833362,2.28423763163989,2.2845826579858,2.28431932451915,2.2843668816063,2.28431292101619,2.28440109088079,2.28448560112661,2.28467368200427,2.28477363123778,2.28507574990893
2.24187805319813,2.24252493517309,2.2431177136215,2.24395390319361,2.24445236688916,2.24531087890945,2.2457719992112,2.24672376036699,2.24712647712468,2.24814049127392,2.24853145923003,2.24963093109379,2.25010679418316,2.25128452813132,2.25169475149481,2.25271045524046,2.25305164906633,2.25441377833619,2.25517080147167,2.25667895218228,2.2562155060563,2.28377950878676,2.30883208180061,2.30919350261423,2.30985810113636,2.30950034332722,2.30927923430417,2.30870870160975,2.30831015228758,2.30793644923754,2.30746666933744,2.30689250144915,2.30648743948392,2.30597149314634,2.30564672739258,2.30522921462697,2.30520062278753,2.30507691141657,2.30517565217364,2.30516274448783,2.30547136225212,2.30566828392021,2.30603399321768,2.30631022142025,2.30683824106577,2.30732003417125,2.30803464853523,2.30873396269966,2.30957646111947,2.31042031598152,2.31112572565428,2.3118694178857,2.31254704259905,2.31326914779808,2.31365507814445,2.31411711094454,2.3145039424136,2.31501972392086,2.31562797127466,2.31585071552611,2.31595450679413,2.31598758455366,2.30857559904926,2.27807375345091,2.27708440437729,2.27605891820969,2.27513398733283,2.2753482969941,2.27531455946807,2.27568449268851,2.27541047898393,2.2755328258373,2.27539116213457,2.2757588046065,2.27567649028637,2.27609241068763,2.27609353573198,2.27657313495528,2.27655438718219,2.27698178249528,2.27706270378719,2.27757596034274,2.27789732983276,2.27855793290862,2.2786885098283,2.27900446827281,2.27904701048267,2.27963688049214,2.28003689896959,2.28170393221409,2.28300962108208,2.28421223884016,2.32076776563322,2.33189785563977,2.33175799381907,2.33181976510717,2.33169098437872,2.33120484019696,2.33040371231659,2.32985457207453,2.32881894657791,2.32816775247004,2.32736507940223,2.32691487296681,2.32619726895054,2.32577105840666,2.32502277132835,2.32453547631751,2.32411767303121,2.32394471938632,2.32373613995257,2.32374643669607,2.32376638806559,2.3239998936827,2.32409530688304,2.32443919786219,2.32477563107369,2.32542598621741,2.32596233406356,2.32685939665363,2.32749727537482,2.32849665521789,2.32889022644971,2.32966169191076,2.33001734559763,2.33082924603268,2.3312407076931,2.33191667670713,2.33227637618964,2.33201159622256,2.3313734956513,2.33078989108659,2.29446672917892,2.28833826467478,2.28753113710759,2.28696326187363,2.28634611088395,2.2862863143551,2.28612571909614,2.28588084569133,2.28586191110694,2.28572621724505,2.28557783415705,2.28536772246809,2.28526200826674,2.28512211121374,2.28494232140147,2.28473256886327,2.28459213368083,2.28444256418805,2.28434444358993,2.28425770373151,2.28415192654163,2.28409135525461,2.28409910685928,2.28415916397287,2.28413033682985,2.28414788507201,2.28411588334894,2.28412084747352,2.28403573380263,2.2839822015292,2.28390258655075,2.28387904194702,2.2839452323338,2.28407366675438,2.28416859525661,2.28430162301266,2.284273407976,2.28427054969275,2.28433018242069,2.28441227095109,2.28457695881604,2.28472652873766,2.28486071004074,2.28496222573735
2.24200618091964,2.24252439148765,2.24340999274303,2.24407520386678,2.24480376601097,2.24505872025798,2.24611912059587,2.24627673989071,2.24754839244904,2.24766189257109,2.24906738823277,2.24928652393259,2.25067762819302,2.25085391049345,2.25223548678218,2.25240760949341,2.25370807139608,2.25497613754604,2.25642647121053,2.25908584250342,2.25916451673582,2.2619633194244,2.30935118989983,2.30845737198691,2.30943609376217,2.30864799609956,2.30863672750249,2.3078763040724,2.30790335959396,2.30809617052402,2.30718454623515,2.30674121620761,2.30611120693605,2.30595325506802,2.30532051613534,2.3052306369559,2.304929911518,2.30527581332736,2.30488949558804,2.30511996977443,2.30517512385678,2.30579210504669,2.30580310542775,2.30643209556356,2.30668047134813,2.30751099754608,2.30801396603698,2.30914636525206,2.30968249682845,2.31094002110309,2.31114392095707,2.31184751862542,2.31257732189263,2.31367310182739,2.31381847930745,2.31438648925117,2.31472015692329,2.31513130724921,2.31609349403887,2.31642002605649,2.31673134691932,2.31752847077304,2.30416835218285,2.27795045792651,2.27676935467836,2.27595251989029,2.27516248762244,2.27543319265484,2.27548628805768,2.27535281190312,2.27559669076187,2.2752088973107,2.2755943047406,2.27530538265535,2.27585335638169,2.27575173785799,2.27629922432231,2.27631910856383,2.27675779530393,2.27669804839243,2.27721270473483,2.27714787153144,2.27799233486292,2.27829072095005,2.27879247903099,2.27893203036972,2.27926489214212,2.2801742972266,2.28051161999336,2.28201331515125,2.28322194610598,2.28446218279699,2.32544320575925,2.33172150053703,2.33163412997594,2.33151406070051,2.33150816135364,2.33063225111884,2.330177916924,2.32922315622017,2.32872998815964,2.32790916478356,2.32729770367254,2.32650199529222,2.32608860597645,2.32574392551695,2.32481479926463,2.32396503281709,2.32378836020592,2.32360450176409,2.3234945061549,2.3235970898761,2.32357597220992,2.32386244142019,2.32389462825923,2.32408003642032,2.32463552234468,2.32519122278717,2.32598117751259,2.32683522224645,2.32741561684244,2.32781777272011,2.32871865329657,2.32924176777247,2.33001131143667,2.3306066260783,2.33120475879369,2.33129115774704,2.33208946599007,2.33177174838716,2.33140042231389,2.33068581294213,2.29103238306021,2.2883003155496,2.28729076351498,2.28750089218883,2.28653638256458,2.28697344400959,2.28619888970444,2.28610845535386,2.28589196061915,2.28618900892102,2.28560979909175,2.28554902325217,2.28524423321638,2.28531007582456,2.28493884064216,2.28489322776399,2.28456876836361,2.28450466264375,2.28428239055226,2.28429267041087,2.28408857164642,2.28414174835918,2.28407030964753,2.28430202697545,2.28400918067636,2.28392432804285,2.28392375002691,2.28402786675897,2.28391589266561,2.28396587426555,2.28384186903204,2.28391239708635,2.28389495106235,2.28412387306611,2.28411396317184,2.2844264221205,2.28423813047482,2.28438518790246,2.28433831117088,2.28465205315283,2.28466826269129,2.28515261110818,2.28493067832411,2.2851560589929
2.2420877167391,2.2427987916436,2.2433885528406,2.24425344556755,2.24473044761596,2.24559497004223,2.24605150905849,2.24704004051613,2.24747090347099,2.24855182403318,2.2489086207634,2.25001131551296,2.25043796040385,2.25160988907987,2.25204188938189,2.25318881873823,2.25367816828773,2.25545818487304,2.25649008079779,2.25809008372255,2.26161700329734,2.28499297895363,2.30928669905643,2.30894665928268,2.30945232471529,2.30895742485112,2.30857082063632,2.30804160037751,2.3078688691549,2.30768929238136,2.30711780445344,2.30642547439148,2.30602447603454,2.30553324827921,2.30526670690758,2.30489533151821,2.30485735449421,2.30471647030436,2.30483638954859,2.30483693604377,2.3051445716377,2.30531702398557,2.30573185014136,2.30603246914798,2.30664358870609,2.30719704262601,2.30797314492429,2.30873388790327,2.30957219343868,2.31039092158246,2.31106439951738,2.31174131618896,2.31255309778308,2.31337177049126,2.3138120543969,2.31434847991576,2.31491445523163,2.31567440686337,2.31654625759838,2.31689705355984,2.3170787519034,2.31726537208086,2.29975058703844,2.27731055935231,2.27627004234634,2.27556638670657,2.27472363436592,2.27508854949553,2.27506617245316,2.2754369349816,2.27527767670667,2.27552988872545,2.27532971664616,2.27563229365781,2.27555510174435,2.27597475052229,2.27596086759064,2.27642220002168,2.27646908524287,2.27695970207438,2.27705632335146,2.27757032285962,2.2778606294914,2.27845970407338,2.27863469125164,2.2790102012685,2.27903784579565,2.27986977574352,2.28050377760855,2.28191106289253,2.28353593048207,2.30695116155509,2.32779791239542,2.33082475631902,2.33122401088667,2.33133918221081,2.33112265541047,2.33066395306027,2.32980891191746,2.32935355905234,2.32843315351046,2.32787679199789,2.32694739968263,2.32634588933874,2.32559802967855,2.32514007789685,2.32439187649604,2.32388713696824,2.32348540054999,2.32329966383182,2.32315212551235,2.32317316567533,2.32319516374097,2.32337678321994,2.32357077830641,2.32395092601073,2.32436405366793,2.32502969173822,2.32561063514081,2.3264939919028,2.32701313628504,2.32785020945984,2.32833345384741,2.32918580787295,2.32960845386877,2.33045516314653,2.33079392717347,2.33116712563824,2.33143266754399,2.33126844636345,2.33142097403696,2.30999096059026,2.28973369014099,2.2873194657383,2.28666623119483,2.28670277378906,2.28641831304309,2.28635299324091,2.2862159812328,2.28595390843505,2.28591343283426,2.28578745669269,2.28559061979902,2.28534819826758,2.28526764383342,2.28516422498776,2.28496904572024,2.28476532084636,2.28459834788353,2.28445615340944,2.28426271368332,2.28410076349313,2.28401268671582,2.28396877636021,2.28396126003683,2.28398133313965,2.28388869603964,2.28382119981266,2.28382757257818,2.28386134115116,2.28383182134949,2.28382703447475,2.28378648644629,2.28379267385145,2.2838066071529,2.28387181398199,2.28396149240546,2.28407630782441,2.28411693337239,2.28416843552096,2.28426910261677,2.28440731262354,2.28461751232439,2.28484153218396,2.2849317034015,2.28500150846673
2.24228767068271,2.2427948453415,2.24359254839744,2.24410241586804,2.24503032028407,2.24540109622016,2.24647564175715,2.24682757214481,2.24799944250208,2.24835734838644,2.24941442853445,2.24942954500968,2.25088542669883,2.25105338668314,2.25262391560727,2.25326264340308,2.25454007238807,2.25649172895914,2.25715124771257,2.25835433706273,2.26526830469389,2.30714909973567,2.30784701680387,2.30734835368442,2.30868937468157,2.30837730408344,2.3083761322701,2.30818491716847,2.30788461100071,2.30834099175404,2.30702177925873,2.30656931446508,2.3057827616821,2.30570150210315,2.30502776103117,2.30507928541505,2.30457434411851,2.30476534663197,2.30458608057308,2.30510545528769,2.30495021081188,2.30541935301778,2.30551389797833,2.30607620671317,2.30645985468011,2.30732538724951,2.30781381409429,2.30880419489711,2.30942705540743,2.31043820210745,2.31100873063514,2.31184958640447,2.31263082515794,2.31372410141078,2.3139343450776,2.3144677035766,2.31504151312966,2.31569003307912,2.31667651544221,2.31700773545832,2.3171433581344,2.31755534406256,2.29534851694851,2.27755581033546,2.27633952087406,2.27579673992513,2.27489176882655,2.27492555261848,2.27515338005089,2.27496176389782,2.27541382912876,2.27513955121869,2.27552577719613,2.2751899458756,2.27572216136482,2.27552202995592,2.27607635913477,2.27590118991817,2.27660761933621,2.27667222336126,2.27726987125328,2.27738433767086,2.27807137207558,2.27834574083265,2.27885168243478,2.27926284286065,2.27935672966056,2.28032562249778,2.28115925857215,2.28297369609827,2.2857346392665,2.32775362449754,2.32845147769935,2.33010998175689,2.33070368413644,2.33051835711592,2.33070988313748,2.33021067787689,2.32976702294732,2.32938977615007,2.32857850063264,2.32771948552385,2.32694699650698,2.32598151792897,2.32535744844315,2.32466466387238,2.32412476905619,2.32372901515107,2.32325039720592,2.32311234032561,2.32285963568262,2.32295329511498,2.32287272781436,2.32303519963593,2.32334561163418,2.32380627235648,2.32424636093598,2.32477142477575,2.32549406358261,2.32612571335724,2.32699288006398,2.3276865281798,2.3284041123107,2.32896713583671,2.32966026638813,2.33004938962636,2.33054056133608,2.32979626929123,2.33037418999057,2.32973796962409,2.33065170955847,2.29006272833201,2.289058347246,2.28810512239655,2.28683717549411,2.28755005069311,2.28652449582422,2.28659657641675,2.2861370817819,2.28609734256848,2.28582544134633,2.28594074408383,2.28550139554007,2.28541873496357,2.28524672130965,2.28548807802516,2.2849793427785,2.28492901495087,2.28460640785375,2.28474437760283,2.28424122139637,2.28408526412493,2.28394331106876,2.28398285392103,2.28389049533692,2.28397824618554,2.28381875969455,2.28383777935515,2.28378515443136,2.28394624186007,2.28380602369679,2.28391186051715,2.28376564781481,2.28385866100515,2.28374237651495,2.28380147708264,2.28384808869859,2.28402773477747,2.28403172369055,2.28415997581194,2.28418580147445,2.28438709162493,2.28454718790842,2.28500894493785,2.28491186677632,2.28514880794821
2.24225324794353,2.24291641870081,2.24351973720003,2.2444163014622,2.24493721434498,2.24586159664076,2.24625155464659,2.24719072556951,2.24763872608202,2.24874631992014,2.24905257758562,2.25010138127979,2.25057886916588,2.25178100427774,2.25228735711415,2.25357088956665,2.25412887293572,2.25601661340474,2.2571150754486,2.25844150090673,2.27088775523881,2.3063711495962,2.30699362242139,2.30744419302616,2.30846120102632,2.3085471504157,2.30836843294597,2.30802437130379,2.30774346482537,2.30744627788796,2.30678663348272,2.30602175808632,2.30563789930242,2.30516904796633,2.30491578429395,2.30454476143857,2.30447454611539,2.30429777984059,2.3045178112125,2.30462960991207,2.30498534235441,2.30522642257734,2.30562698013034,2.30593226734242,2.30651225870815,2.30703016476395,2.30776974411694,2.30848228276019,2.30939977451332,2.31028199542573,2.31107969023322,2.31186722966049,2.31269774467766,2.31354431745398,2.31397767459609,2.314542582976,2.31510495295057,2.31586929831267,2.31665448446223,2.3168056029173,2.31681777292993,2.31672699550146,2.29072974531231,2.27683144626833,2.27585611432978,2.275271029039,2.27443812357425,2.27477514175395,2.27477090440821,2.27517384090798,2.27511185376231,2.27545687934707,2.27528128654867,2.2755928067492,2.27548420857213,2.2758702372159,2.27584297869408,2.27629167879669,2.27639506654557,2.27694474056398,2.27708233287308,2.27763056273046,2.27792498522876,2.27851332203298,2.2786494941461,2.27907560548903,2.27912536291902,2.28016426643425,2.28113612549593,2.2825033332855,2.29058636383136,2.32717785140138,2.32802172955382,2.32921126273724,2.33015760903783,2.33027111737097,2.33000341475544,2.32976825206104,2.32909989417858,2.32892134775977,2.32825378879938,2.32795001145663,2.3267412166312,2.32582008781192,2.32498122085728,2.32439394894911,2.32371293613544,2.32323125537768,2.32284035824324,2.32260815057119,2.32247780324416,2.32245712309265,2.32255992019966,2.32278563121903,2.32312065838317,2.32361693263235,2.32401321455915,2.32462456266904,2.32521816257454,2.3260797335488,2.32669155221899,2.32760907496069,2.32805666201634,2.3289048434128,2.32937649914474,2.33023368325561,2.33048034923126,2.33035650869284,2.32980064235276,2.32896074250288,2.3277358873033,2.28941966054106,2.28848240312982,2.28753921509818,2.28656428705643,2.28663379955015,2.28644660495571,2.28625355216754,2.28617677657167,2.28594949923239,2.28585072995087,2.28567238115784,2.28551177765063,2.2853008764819,2.28521207542119,2.2850904249262,2.28487805650113,2.28464842032198,2.28445385649021,2.28427398757608,2.28413273736336,2.28401888076306,2.28392080293117,2.28386306457302,2.28384451872772,2.28386019144006,2.28375970745648,2.28370749763571,2.28370979853845,2.2837597952866,2.28371219790753,2.28369844404956,2.2836866134718,2.28371760204931,2.28369349554996,2.28370943987844,2.28381000626676,2.28393772761043,2.28405693804309,2.28417803954633,2.28419702832842,2.28423343736429,2.28448956752039,2.28474104484198,2.28492632732571,2.28506848326438
2.24234233195953,2.24267222086818,2.24368249873485,2.24433777964431,2.24523227856991,2.24565731371313,2.24653668340546,2.24645630086453,2.24790038825074,2.2480870355517,2.2493751791553,2.24933693075903,2.25098177601652,2.25118957989113,2.25274272156556,2.25336725554711,2.25450472400971,2.25594181133478,2.25779877836053,2.25980331979656,2.27783944938658,2.30490938815978,2.30601321508461,2.30646155405506,2.30807730084361,2.30842875424301,2.30827636762753,2.30822198491503,2.30759179019692,2.30763224825199,2.30646264278264,2.30588433342847,2.30530202252023,2.30527036414841,2.30460494910093,2.30459621090272,2.30414398982658,2.3043337629616,2.30421985292459,2.30479597341354,2.30481795593953,2.3057167856003,2.30556011472377,2.30628521239293,2.30641212117815,2.30718983576403,2.30761307405965,2.30852107647322,2.30935228777116,2.31066104721349,2.31119168132083,2.31218557066219,2.31286768963819,2.31404649161259,2.31414169562803,2.31477554463143,2.31509869014577,2.31550307544609,2.31639034193301,2.31614799247483,2.3163620893954,2.31619480121296,2.28576227794177,2.27677505784467,2.27580607917811,2.27520201741734,2.27462127323573,2.27463395836771,2.27494838849287,2.27473308054246,2.27530724118774,2.27510878265578,2.27552800189381,2.27525140844861,2.27572268161553,2.27551418872977,2.27606651131971,2.2759852626226,2.27660632327033,2.2766872699543,2.2772648843536,2.27729909232864,2.27811965045498,2.27847271102326,2.27882658267253,2.2792795874577,2.27929068297693,2.28039797868074,2.28150392721798,2.28323866317717,2.29758860241985,2.32607273495599,2.32724320844011,2.32824319765583,2.32942673723985,2.32914804202696,2.32942668692789,2.32908541652594,2.32880253326631,2.32842096455825,2.32832476539101,2.32864279735767,2.32686055249982,2.32532165045086,2.32480940877632,2.32418108472894,2.32340538152356,2.32280315822434,2.32245710967258,2.32229491318237,2.32211013638383,2.32217136014308,2.3222549836978,2.32270010073549,2.32294145163734,2.32364742187194,2.32390554664194,2.32439794164828,2.3251809664738,2.32595228898411,2.32675587420669,2.32748996396874,2.32813193678456,2.32861251648269,2.32946347697456,2.33007352558858,2.33068503046902,2.33052686903433,2.32952958384102,2.32790753032863,2.32248086310293,2.28955550675842,2.28843044623257,2.28804361425672,2.28667889741363,2.28728203483608,2.2864416806959,2.28640924004395,2.28608984652724,2.28617412732111,2.28578736257565,2.28586378069369,2.28546847165505,2.28548238751864,2.28515184158536,2.2851498326854,2.28477360389341,2.28464919863601,2.28429804382876,2.28403766666015,2.28403551034448,2.2841728764933,2.28391866320918,2.28391185161765,2.28384124511768,2.28404603265791,2.28373993145982,2.28369807952354,2.28368024619337,2.28384054524406,2.28367985962355,2.28365292707541,2.28365779325498,2.28380806817478,2.28369073569486,2.28372329386172,2.28381867611565,2.28406938118791,2.284135824152,2.28454305961157,2.2842219772598,2.28414567256054,2.28443744856157,2.28487493381148,2.28494808645442,2.2854048374563
2.24233028085994,2.24299058863767,2.24359195458526,2.24448249679281,2.24498361620917,2.24591453923303,2.24635121442951,2.24734519190433,2.24766767169563,2.2486502487689,2.24908212073236,2.25024876403246,2.25076063687078,2.25194758707667,2.2524029373469,2.25366374662459,2.25419826932792,2.25625036585472,2.25794707824469,2.25968267456838,2.28509500833463,2.30463070915065,2.30582271800392,2.3069657294939,2.30811305733037,2.30832019665778,2.30821827516811,2.30792861789204,2.30744777602634,2.30689525738204,2.30631837316998,2.30561260428526,2.30525387978327,2.30478698632701,2.30452329528593,2.30412958218538,2.30408184796777,2.30391282511074,2.30414055065569,2.30424038137224,2.3046516463787,2.30493312861037,2.30542977761488,2.30582796189212,2.30639351967729,2.30689540598213,2.30759768252587,2.3082914750657,2.30933707413116,2.31038467358837,2.311236314058,2.31210099962348,2.31283756489466,2.31362120882608,2.31399764309611,2.31451529179608,2.3149449623512,2.31548945449865,2.31628512423372,2.31628955534396,2.31617839605508,2.31594561915692,2.28105947878185,2.27597127266433,2.27518178681928,2.27485395871169,2.27429632276991,2.27470819792981,2.27472940953415,2.27516986740769,2.27508928192553,2.27544418092191,2.27528926776532,2.27563370969539,2.27549321124694,2.27585819354068,2.27584026913271,2.27631008770862,2.27636464290593,2.27687841368491,2.27711013669153,2.27774043296756,2.27800699634703,2.2785044237423,2.27850757411001,2.27882370716924,2.27896242908522,2.28023595345282,2.28130321398536,2.28249939354026,2.30539954220077,2.32577657334229,2.32675036224234,2.32790079639235,2.32877208699449,2.32892248265443,2.32866238467043,2.32859963324521,2.32809130089252,2.32797395394232,2.32750788064516,2.3273417973269,2.32642981898893,2.32577420723493,2.32466750350572,2.32381182004958,2.32305346880561,2.32249685190443,2.32218469602903,2.32197963144752,2.32187481675409,2.32182447114729,2.32195177835934,2.32216256707324,2.32254693024495,2.32305683725231,2.3236188289908,2.32436195521911,2.32497398013586,2.32584802994665,2.32648391211528,2.32743128790386,2.32783329021017,2.32864665984377,2.32911002724653,2.32995805516597,2.33046209462898,2.33042468537381,2.329672756232,2.32882735189195,2.3164743198178,2.28920245095657,2.2881323558233,2.28729068545292,2.28643043955635,2.28648606591502,2.28637242276633,2.28616385876413,2.28609999986079,2.28590011887624,2.28575693566403,2.28555505011251,2.28546089455704,2.28533239525364,2.28515134736723,2.28494403677156,2.28475302966213,2.28454538539156,2.28434003391036,2.28414230484834,2.2840467953864,2.28397985200671,2.28388410380675,2.28382558602789,2.28375265970382,2.28372571238288,2.28362917869583,2.28360391664233,2.28363642032067,2.28372450024951,2.28367482248495,2.28366655929429,2.28364827812289,2.28370207304094,2.28371363779934,2.2837989992073,2.28386660585241,2.28400298259918,2.28409644808191,2.28423723124369,2.28426179783755,2.28432995324846,2.28454565601192,2.28477876427925,2.28494829123623,2.28508486156234
2.24248540633349,2.24290779135422,2.24377455013892,2.24419023856255,2.24513423315009,2.24540341447716,2.24670539665796,2.24726526311433,2.24808782880421,2.24787817701132,2.24949187811437,2.24977583762885,2.25126531484444,2.25145239036135,2.25291028547074,2.25377713782943,2.25476487027026,2.2565805708168,2.25868032807345,2.26106793736479,2.29212076763174,2.30351855907494,2.30571070155421,2.30718499727847,2.30799630541313,2.30813472346995,2.30806096486778,2.3083698310577,2.30729803623177,2.30694733690333,2.3060708304445,2.30582006563112,2.30501080343927,2.30498286106523,2.30423117870719,2.3042346728533,2.30378208542838,2.30402361178756,2.30383206464795,2.30428406704141,2.30428168094594,2.3047975784571,2.30510959199269,2.30599092235873,2.30621422215835,2.30708846018648,2.30744502375261,2.30828256588122,2.30926207512538,2.31075766984667,2.31130053126519,2.31248790758458,2.31289247306739,2.31386721579196,2.31399992088143,2.31444847666014,2.3148058252136,2.3145226613603,2.316017470126,2.31580197959509,2.31597714665384,2.31576404808611,2.27820825496606,2.27548479260038,2.27475295410474,2.27462943148386,2.2745069155146,2.27465382756257,2.27505734189253,2.27498188158715,2.27537192440652,2.27508448909017,2.27554356309725,2.27532385361466,2.27573681595769,2.27546114183905,2.27606154608145,2.27600632521085,2.27653213782277,2.27641304015183,2.27732815414681,2.27771060494558,2.27825754497899,2.27839561505423,2.27862361318415,2.27885592438699,2.279180546832,2.28077212946217,2.28153069848524,2.2827975094584,2.31326493770293,2.32484344568655,2.32625238003144,2.32710193120229,2.32819087758745,2.32792694653138,2.3282320019432,2.32797740654732,2.32783412831349,2.32738520640653,2.32708403209386,2.32642553796551,2.32628089101734,2.32653587683437,2.32464438426202,2.32343414106754,2.32271426652911,2.32222992123338,2.32190596770564,2.32197106992853,2.32163212511497,2.3217364773376,2.32162708763604,2.32181666757477,2.32217208860543,2.32261599664719,2.32343790869973,2.32443035952103,2.32496866460224,2.32570657351014,2.32654166028255,2.32745037189788,2.32793680247424,2.3284541421019,2.32904571393411,2.329100174984,2.33030886529088,2.33010941134278,2.32983850523945,2.32926744015352,2.31052538906533,2.28984336735451,2.28828015094418,2.28775790631566,2.28651957405217,2.28707702937783,2.28633304315792,2.28631507974348,2.2859873212565,2.28606834921447,2.28563717805238,2.28560638808626,2.28539326115075,2.28564475357937,2.28512701284871,2.28507751670447,2.28473605668603,2.28474533553262,2.28439294933516,2.28440690595062,2.28407550583689,2.28404062007361,2.28388094586867,2.28394919937897,2.28370377403334,2.28364907473695,2.28354437179712,2.28361254492571,2.28364088747206,2.28390038207538,2.28373429030396,2.28384472068671,2.28366995799212,2.28380016043157,2.28375842667407,2.28406954001212,2.28392830082823,2.28418063723538,2.28407290164967,2.28428217515115,2.28429544892607,2.28464408839248,2.28464200912922,2.28507588177136,2.28494869088418,2.285194246556
2.2425934102282,2.2432989682138,2.24374989041195,2.24449196828366,2.24488622378028,2.24573522578095,2.24631685764647,2.24745817442458,2.24775125387866,2.24872259003699,2.24925970977742,2.25054051558106,2.25099390968688,2.25209138143108,2.25247666512831,2.25381831284817,2.25448974557069,2.25672615684869,2.25852982794387,2.26042464252244,2.2983361895241,2.30560882786457,2.30652508762506,2.30727564525927,2.30800935125384,2.30796720649669,2.30784928130446,2.30759911749934,2.30715549238213,2.30662421998677,2.30600343766495,2.30526880500439,2.30485770346024,2.30434138716525,2.30410016635136,2.30372131003904,2.30372653005353,2.3035862178297,2.30381339951085,2.30388652008979,2.3042923452991,2.30453663977019,2.30505533809413,2.30543244815233,2.30612918292223,2.30672047516553,2.307446480028,2.30813701239118,2.30918635490404,2.31018957185593,2.31111822406657,2.31199819142326,2.31267368189062,2.31339053595113,2.31388872944913,2.31451884262952,2.3150407718821,2.31548236351632,2.31623078428927,2.3163033133374,2.31595579906679,2.29645647794188,2.2773484017223,2.27475153724605,2.27403399181458,2.2742621477952,2.27419793474047,2.27475661217253,2.27482976856166,2.27530702430696,2.2751269979111,2.27543481237504,2.2752802102785,2.27565036699903,2.27551301944952,2.27588942989942,2.27585197502879,2.27629971635111,2.27635342112703,2.2768690027496,2.27720128887474,2.27792260786506,2.2781460141684,2.27858023796497,2.2784858487712,2.27881605125911,2.27904131234059,2.28046905619288,2.2812796018524,2.28264791049085,2.32027286731387,2.32509672821854,2.32620202037136,2.32709332303057,2.32768877049945,2.32775654756939,2.32766655518638,2.32778377470509,2.32738743657158,2.32725225175221,2.32661440000067,2.32621396066543,2.32553146899342,2.32505434726381,2.32397380840437,2.3230795395553,2.32238778893899,2.32186918496442,2.32164156190767,2.32149802494238,2.32141985062122,2.32136488059688,2.32145030038357,2.32157897050055,2.32203267939484,2.32256385053881,2.3232085128394,2.32398471968254,2.32463973425305,2.32550682415545,2.32616694653072,2.32709597172763,2.32752062156253,2.32833158367067,2.32883810842226,2.32966727709625,2.33022031747459,2.33020473696313,2.33000803008818,2.32984615083044,2.3046267649407,2.28900808327555,2.28795309270738,2.28709783108734,2.28632021296744,2.28632848244131,2.28623707548724,2.2860344837624,2.28596309951569,2.28575286265674,2.28560503264383,2.2853883076432,2.28529413230892,2.28516660475196,2.28501180725272,2.28483788783015,2.28469403055887,2.28454152609199,2.28435869169735,2.28419343472898,2.28404635386492,2.28393965256032,2.28385486724219,2.28379989642682,2.2836431870885,2.28352334354999,2.28344764428059,2.28344668889791,2.28356473298005,2.28373379472753,2.28366452497183,2.28363673918707,2.28353780925091,2.28352389249531,2.28361307231123,2.28376931454537,2.28377930843976,2.28384558336243,2.28394469734755,2.28410126235239,2.28424518252522,2.2844382946884,2.28460265400631,2.28479327383407,2.28493512746778,2.28505188304985
2.24288451871824,2.24343970895973,2.24403375871334,2.24425782967923,2.24505684395175,2.24501575285114,2.24650577946024,2.24681826625455,2.24808110794866,2.24808656749801,2.24971778269694,2.25006874321559,2.25144794923154,2.25158309127748,2.25296205768303,2.25396712238226,2.25528191977203,2.25688857983616,2.25887007090863,2.26135939713345,2.30266663995012,2.30708962489179,2.3070902268373,2.30719171824561,2.30783313652922,2.30784635986719,2.30756425588377,2.3076561567601,2.30696562395093,2.30718364086058,2.30578505593187,2.30525280076322,2.30448306759625,2.30433736111041,2.30374497017489,2.30376919169465,2.30343848092898,2.30373436183708,2.3035750798328,2.30408797218002,2.30411714594265,2.30488178466944,2.30484299664842,2.30535539002196,2.3059164942851,2.30691570908799,2.3073317117619,2.30821224505638,2.30909572129563,2.31015370038675,2.31101781675307,2.31205982095782,2.31256338621545,2.31339147336663,2.31392397702904,2.31465479347033,2.31517081959792,2.31528312593993,2.31610606050061,2.31660391351534,2.31483478665661,2.27771454740399,2.27681680162438,2.27586732482785,2.27439015710171,2.27442215547297,2.27450266754729,2.2744981745099,2.27507630706613,2.27508275179837,2.27536337880677,2.27502895411162,2.27549837227651,2.27529700883174,2.27576001805722,2.27560303399186,2.27609380710943,2.27594361242603,2.27657791761104,2.27657239902703,2.27743759720642,2.27780192559948,2.27839714920914,2.27876979054819,2.27883394909518,2.27936669140861,2.27959331545904,2.28116685759052,2.28110802933943,2.2837023978281,2.32466368781007,2.32452299035444,2.32643335312033,2.32654235343019,2.3275439527435,2.32676931986536,2.32757031840781,2.32755597053521,2.32746136187525,2.3271830761459,2.32653221556531,2.32602098250243,2.32503565955686,2.32414977014651,2.32340284547367,2.32272782854598,2.32202376177073,2.32160659115333,2.32132523262994,2.32145581593453,2.32117362025316,2.32136432408365,2.32124280111598,2.32144651335894,2.32191720472883,2.3226588503797,2.32309535491852,2.32368673526288,2.32452835426502,2.32528497582599,2.32613751331495,2.32682319721006,2.32751549506016,2.32796004617535,2.32893224249805,2.32938347635384,2.33020764023339,2.3295365475998,2.33014554450877,2.33056771935619,2.29862368360283,2.28910773283288,2.28795806977162,2.28744212143251,2.28640292192073,2.28680405657965,2.28617932041863,2.28616276920086,2.28584961925375,2.28587094311463,2.28550516131665,2.28550369670761,2.28514308916321,2.28511469208909,2.28487340248524,2.28491417975135,2.28465400796768,2.28466564164485,2.28433104299345,2.28421625709016,2.28402807577485,2.2840341188903,2.28387293169528,2.28393954772568,2.28363729891729,2.2835181887136,2.28338017014561,2.28331179806688,2.28354906918618,2.28394824163453,2.28366728183003,2.28364263681244,2.28343195136447,2.28329485714711,2.28350403791027,2.28378163094918,2.28366376017335,2.28366918274367,2.28382851936074,2.28415952708546,2.28418812832738,2.28453287055621,2.28454577132271,2.28488604113163,2.28491511870059,2.28529432406651
2.24290380425675,2.24369460253508,2.24397431026499,2.24457527431504,2.24493583455491,2.2457771365531,2.24633979370315,2.24747006955302,2.24784962608142,2.2489064252134,2.24946061152925,2.25072372475941,2.25113223633766,2.25220299006539,2.25267336646152,2.25438389808062,2.25559135455047,2.25766280392387,2.2584838250811,2.28267024081849,2.30492901274322,2.30689179919261,2.30752645865414,2.30763792889274,2.30802824728273,2.30778595490396,2.30741944321564,2.30698231350053,2.30662612444236,2.30614780988014,2.30553834079961,2.30477461670722,2.30438577929081,2.30385151391698,2.30371674905545,2.3034164301256,2.30348653914167,2.30338783912154,2.30361881287233,2.30368982163323,2.30412261807017,2.30440261012454,2.30492840710081,2.305320527504,2.3060214296539,2.30662371908559,2.30739547871007,2.30815402908172,2.3093517424967,2.31051365014805,2.31114098420364,2.31173331143258,2.3124282126878,2.31320710997663,2.31390283181993,2.31470715666666,2.31528478404712,2.31548065362866,2.31576908525799,2.31584253324305,2.31165509816381,2.27749353455732,2.2762112535614,2.27510042470554,2.27400526450192,2.27432721669602,2.27429110008022,2.27472881656669,2.27472942768584,2.27514062306418,2.27499008535327,2.27534279221048,2.27517800659849,2.27554361556747,2.27546447696396,2.27590640051967,2.27588882623406,2.27636706288108,2.2764540861113,2.27701834444829,2.27730190377144,2.27797169050274,2.27817061239279,2.27863639306608,2.27865963124019,2.2792746993855,2.27932599496323,2.27979046062026,2.2785549936813,2.30398535323912,2.32606699298787,2.32638030368391,2.32752771010626,2.32807412737932,2.32807088525355,2.32796745407473,2.32770190351052,2.32780400719386,2.32725847690169,2.32694707375654,2.32599241636821,2.32526986492849,2.32434802540361,2.3236337835341,2.32290663290039,2.32228564231848,2.32172420689753,2.32124902251689,2.32108596502891,2.32096609777824,2.32099635377575,2.3210334218148,2.32121276896435,2.32144510759343,2.32190368535787,2.3224529513222,2.32299446810237,2.32365976865606,2.32441971767264,2.32535191819425,2.32595748379291,2.32680262124223,2.32731136958896,2.32820801277816,2.32884106579499,2.32973443546676,2.33024949168109,2.33022118566912,2.33017800422734,2.33028043719554,2.29315169007181,2.28861499633773,2.28765841080555,2.28696469309592,2.28633979021084,2.28626397111771,2.28617971833733,2.2859839961667,2.28590492343076,2.28569908561888,2.28551859610343,2.28526313291405,2.28508232323709,2.28486002440688,2.28482083728217,2.28475275481359,2.28465988063376,2.2845479137715,2.28435613914216,2.28418004831712,2.28404840854576,2.2839556677784,2.28386242236672,2.28379587736924,2.28362082378158,2.28348454375128,2.28339641037242,2.28339209684443,2.28351334675951,2.28368648983708,2.28355159121893,2.28345628199822,2.2833939803146,2.28341338616045,2.28347989659502,2.28359498006921,2.28359911493605,2.2836388035646,2.28374552905637,2.28390290563285,2.28406076003776,2.28425399215068,2.28445868500548,2.28467378727647,2.28490353471323,2.28510470854696
2.24311276316258,2.24390159315221,2.24423179010435,2.24418728037104,2.24524540385076,2.245443121333,2.24677569827331,2.24715380904728,2.24830291476857,2.24828685394977,2.24991437340504,2.250191324445,2.25160467816003,2.25190932686604,2.25330845763483,2.25483044655475,2.2567164064512,2.25971989304325,2.25969000716427,2.30327348324311,2.30507397757235,2.3067823335046,2.30758608082923,2.30747249611459,2.30794209352563,2.30805178968887,2.30722728837708,2.30694781644333,2.30623097813465,2.30606500444242,2.30515248661439,2.30481035812906,2.30408568395459,2.30390597816323,2.30347328655025,2.30366288406334,2.3033089429931,2.30368539225259,2.30343502022639,2.30387852645796,2.30392235314288,2.3045715429496,2.30483904887715,2.30578827086385,2.30598527939878,2.30686804486817,2.3073162109371,2.30824230041497,2.30958000949473,2.31187023218077,2.31133353333794,2.31165708291053,2.31237337272187,2.3133396169204,2.31394732068291,2.31474201961491,2.31527808210955,2.31522839046004,2.31548505722922,2.31574498883375,2.30673726570961,2.27827764307614,2.27617470211886,2.27481972215917,2.27417956296723,2.27451286150787,2.27457997593382,2.2743155464366,2.27485201207496,2.27451705882943,2.27511725849562,2.27494284945636,2.27534450527312,2.27503905851225,2.27563670161151,2.27553782757071,2.27612469692049,2.27613981483191,2.27671206510195,2.27681177094939,2.2775129181866,2.27782181667797,2.27831731652726,2.27861206938531,2.27898754595124,2.27994476167861,2.27998959831863,2.28050174765267,2.27701795662869,2.32758722352325,2.32751775439644,2.32624449557607,2.3283798134311,2.32861637144877,2.32880807599559,2.32854608088056,2.3282863122015,2.32822142080563,2.32755024307938,2.32698141741016,2.32577806577814,2.32455369009027,2.32383512207027,2.32321264721284,2.32251437564253,2.32209076336451,2.32140848217897,2.32105220368937,2.32078370972559,2.32088578929,2.32076190658373,2.32111913690381,2.32111167404036,2.32168643975452,2.32187543266465,2.32255034225447,2.3229943780878,2.32359780544592,2.32454628846192,2.32555063876623,2.32613677025509,2.3267371659305,2.32751458666608,2.32816474347056,2.32903775618749,2.32919674711468,2.33023766781977,2.32987300068007,2.33014197409393,2.33024193648751,2.28985556532658,2.28881426596385,2.28739416097093,2.28726780974017,2.28640924591136,2.28672202769484,2.28619007244646,2.28623919565539,2.28587921820201,2.285993255059,2.28547953710718,2.285394097119,2.28498599132565,2.2848124420548,2.28476094587446,2.28495480485675,2.28468266088073,2.28480201153668,2.28439307324173,2.28434967324908,2.28408365246606,2.2840916033767,2.28390144369733,2.28394434287427,2.28365969017119,2.28356306744363,2.2834360851577,2.28349129504978,2.28354127746883,2.28386903434701,2.28351485849922,2.28337266996645,2.28339031612293,2.28362808491857,2.28351520606841,2.28367882421613,2.28359299128295,2.28372684586297,2.28368508694151,2.28386761905876,2.28394305522454,2.28423263980442,2.28437095772156,2.28477359260366,2.28488803098555,2.28536326846359
2.24295709807642,2.24373201932546,2.24409013343264,2.2447954293738,2.24522244552927,2.24616953219359,2.24658901890362,2.2476448006885,2.24807242329022,2.24921226355284,2.24971153871483,2.25091204830015,2.25133536039319,2.25251804933826,2.25305556699989,2.25492808799308,2.25639291320178,2.2582469992631,2.26281097331966,2.30385730417892,2.30539440886273,2.30703228001418,2.30824566683889,2.30827036753535,2.30818427173655,2.30773910576216,2.30714816333827,2.30654535133099,2.30607643243983,2.30547416530163,2.30506479988501,2.30449145633647,2.30416957165987,2.30370001019438,2.30357548196787,2.30330050360564,2.30338438546852,2.30330140443973,2.3035283724453,2.30359198325924,2.30404598116576,2.30434745219345,2.30492688750209,2.30537099745934,2.30602657816987,2.30659170724102,2.30740776480495,2.30821873744127,2.30938135273418,2.31051524127435,2.31107015649493,2.31161448963015,2.31237481613766,2.31323386579966,2.31389794555351,2.31464719974299,2.31525514810681,2.31521178003924,2.31522426542793,2.31500569947195,2.30149953837172,2.2768786800208,2.27552605259178,2.2746338769517,2.27382040061207,2.2743117445871,2.27432252634023,2.27475249796496,2.27461329469819,2.27490287370938,2.27477765977257,2.27514521026742,2.27499764194312,2.27536155376288,2.27533816287383,2.27582470116385,2.27584478632278,2.27633703582348,2.27645866357038,2.27703071502438,2.27725608129302,2.2778479812025,2.27805003501927,2.27854112020378,2.27868525191196,2.27960792491699,2.2799844589544,2.2797373790168,2.27630052337155,2.32754796053652,2.3280899924431,2.32846386828687,2.3291809345552,2.32932368061623,2.32892802784473,2.32880000426856,2.32817747155274,2.32805866349369,2.3273297266426,2.32685008033084,2.3253515657639,2.32409046638692,2.32323376814051,2.32261512311669,2.32209203352447,2.32163986879162,2.32120078483796,2.32078910662716,2.32066128304922,2.32053668972398,2.32063039462386,2.32070768572837,2.32096095322347,2.32125272648924,2.32175856000925,2.32234790245933,2.32302502350969,2.32382633130814,2.32455900485326,2.32548249276232,2.32601711146644,2.32684503451866,2.32741814915659,2.3284107791526,2.32906220175552,2.32973560555054,2.32996654828164,2.32971658179204,2.32996116521453,2.30944458149105,2.28895946588304,2.28742430796467,2.28671411046259,2.28663775086017,2.28638744921112,2.28631564126058,2.28623606869285,2.2860057840216,2.28588703792253,2.28567042613154,2.28548269270993,2.28523616630206,2.28506969012237,2.2848760935906,2.28481690897829,2.2847395398249,2.28462681022239,2.2845101865021,2.28433398731011,2.28418795845538,2.2840760287845,2.28399810414454,2.28390545760311,2.28382973671425,2.28368163425401,2.28356780140691,2.28344466995956,2.28340040398014,2.28343006211716,2.28350824984552,2.28340004808227,2.28332018743399,2.28330372217222,2.28334942341285,2.283423069909,2.28353549419597,2.28353746159793,2.2835689109562,2.28360208765388,2.28368009994444,2.2838553857145,2.28405795644569,2.28431669533485,2.28457154527965,2.28487362244349,2.28512187478691
2.24303594684306,2.24335972650085,2.24428050389995,2.24467206502175,2.24562473804782,2.24599661442294,2.2469606050628,2.24700940955333,2.24849772102124,2.24881301302158,2.25022463044835,2.25042701071849,2.25187449882549,2.25250226341726,2.25355977189073,2.25490248903089,2.25664771149105,2.25832527945575,2.26735048825925,2.3032341728816,2.30542386335763,2.30783260943627,2.30853155737159,2.30869854379826,2.3082119398011,2.30803911662928,2.30702889352795,2.3067874808908,2.30583257227157,2.30554026978614,2.30482184887476,2.30483810945062,2.30403309398603,2.30411368621116,2.30343040606483,2.303569988828,2.30321832251557,2.30359810873568,2.30338673015675,2.30387658334791,2.30395544759578,2.30474877034409,2.30483579087525,2.30556037344294,2.30591476056093,2.30677494051549,2.30734592822699,2.30843265800836,2.30914704774931,2.31020346088473,2.31085273858089,2.31171181839306,2.31245846261472,2.31356376180893,2.31391564060045,2.31431067373104,2.31501951621228,2.31460169503694,2.31482220479585,2.31452303471269,2.29644881832272,2.27658306789624,2.27545609089488,2.27475358394671,2.27407470268651,2.27428076369447,2.27459373939676,2.27457095105278,2.27487079945639,2.274440571535,2.2749730437063,2.27461870862105,2.2751645628824,2.27486858875102,2.27552142063999,2.27544520173996,2.27602808931845,2.2758659007298,2.27660745495712,2.27667009586981,2.27735607890725,2.27750440369261,2.2781569093255,2.2785465553862,2.27871427744446,2.27963017524992,2.28041414040568,2.28178516845958,2.27806343910456,2.32689451153157,2.32888077001292,2.32897612467313,2.32991849745957,2.32894839075456,2.32925572396477,2.32887481832726,2.32843299842318,2.3280690060866,2.32753945515207,2.32743029013553,2.32518543097123,2.32314786109217,2.32270991023932,2.32209701049154,2.32174629888034,2.32156423596637,2.3209853189847,2.32077584957566,2.32048004420535,2.32056828192965,2.32044188188149,2.32070284078891,2.3207393021148,2.32108926663081,2.32162444727792,2.32236594835105,2.32314793172974,2.32419662403022,2.3247800108473,2.32562938796479,2.32620451193278,2.32685520885521,2.32765715767343,2.32832891929136,2.32923826716008,2.3293196861149,2.32942562405507,2.32838269398088,2.3293808249549,2.28966682092039,2.28874922158243,2.2880309942756,2.28683442963849,2.28753761694025,2.28655763113283,2.28669424314226,2.28620297263162,2.28618439432905,2.2857992614912,2.28581011660044,2.28542603469658,2.2854380017114,2.28510916383893,2.28518979557645,2.28485848260935,2.28489425802835,2.28457466344463,2.28456782516955,2.28427293450054,2.28424200043289,2.28408795007572,2.28413392160655,2.28396806985385,2.28397220591664,2.28376276154585,2.28374284518041,2.28348137082387,2.2833799817674,2.28338604561479,2.28346929553262,2.28337595843772,2.283338838308,2.28327167351194,2.28318483252915,2.28340085449714,2.28366110293893,2.28354695964927,2.28359407640733,2.2835474332152,2.2836173543758,2.28378470728349,2.28409786959589,2.28427416376546,2.28465297944497,2.28487698843808,2.285345804831
2.24296644328314,2.243687021938,2.2441643001246,2.24500030894977,2.24535815430846,2.24622493762412,2.24663068617039,2.24767629131727,2.248222993923,2.24947030700886,2.24993043849738,2.25107876111231,2.25151989896064,2.25276519301383,2.25326063175895,2.25513168975947,2.25650358388439,2.25790940110328,2.27231456320248,2.30406382793193,2.30564536260063,2.30747114717425,2.30857391413759,2.30856087957628,2.30811431290132,2.30747979880745,2.30687507065427,2.30626645622443,2.3057469798033,2.3051178237444,2.30474234085375,2.30423601643835,2.30396565482408,2.3035540445801,2.30345208212209,2.30320205279591,2.30332152208838,2.30327409611174,2.30352784859414,2.30362454129898,2.3040888734948,2.30441353116467,2.3049721455245,2.30540056315815,2.3060641254459,2.30663393039721,2.3074193307254,2.30815760858103,2.30909750616255,2.30997391840566,2.310829747237,2.31165541686694,2.31249454526903,2.31341540433738,2.31396943073377,2.31461245249337,2.31513271447145,2.31492929976243,2.31477342505895,2.31437051859925,2.29141310476464,2.27619179228341,2.27510013300087,2.27443899840754,2.27367970649416,2.27411896622658,2.27419818117859,2.27470441278288,2.27459699405801,2.27495899475474,2.27479819521813,2.27514508553736,2.27494342816368,2.27524888720231,2.27526330146923,2.2757784953566,2.27587045437262,2.27640699201937,2.2764571392879,2.27692380977256,2.27713422782652,2.27767395172878,2.27791296526251,2.27832935933702,2.27831781238838,2.27923366070677,2.28031255899209,2.28171310550325,2.28044103759374,2.3075859883261,2.33068759768481,2.33042917647787,2.3305059015962,2.32993303004177,2.32926789330496,2.32893852932378,2.32812638351895,2.32776866716621,2.32696206034371,2.32635439462718,2.32465222522423,2.32315548292574,2.32245217327955,2.3219739287201,2.32155428480247,2.32118654901011,2.32089481224352,2.32061365354614,2.32050417281363,2.32038443120175,2.32047075521074,2.32052397089771,2.32074571077931,2.32099858653028,2.32168512095282,2.32246982557554,2.32319761648649,2.32405597484171,2.32468399561422,2.32550703688895,2.32605150317739,2.32690482634298,2.32756991287261,2.32859904799805,2.3292518203545,2.32958890174073,2.32927484233415,2.32873099232508,2.32705929476782,2.28964763731009,2.28860833858905,2.28765130666013,2.28668149817705,2.28667474918876,2.28652565555789,2.28634005812931,2.28624283377578,2.28597932792211,2.2858273795413,2.28558557201201,2.28544012560187,2.28523835911606,2.28514917287973,2.28502779256161,2.28489093823002,2.28472393555994,2.28452123658846,2.28430319357104,2.28421791730231,2.28415123856879,2.28413297675714,2.28413732597319,2.28406171918772,2.28400202801588,2.28382865984254,2.28368759809687,2.28351192986953,2.28340586341238,2.28340574818558,2.28345814704278,2.28343143877022,2.28343901395561,2.28339831942112,2.28341627178631,2.28348548355447,2.283568789938,2.28356782326506,2.28355465149352,2.28358079136289,2.28362970939646,2.28381612411299,2.28402140267054,2.2843320945365,2.28464331184193,2.28500472502629,2.28532675998554
2.24315839316367,2.24357545408533,2.24441357477816,2.24473877991991,2.24556495865118,2.24544124060597,2.24687979591935,2.24706067221641,2.24862717021359,2.24893555387124,2.25036044231262,2.25047422892688,2.25201033944425,2.25271730682601,2.2537863400482,2.25544558814131,2.25698914667822,2.25872811615304,2.27728299998358,2.30349162662053,2.30552870510006,2.30759024700271,2.30840981827569,2.30848158301154,2.30787408704678,2.30747970007176,2.30663879442056,2.30646468138082,2.30550883084524,2.3053209802839,2.30445158763381,2.30434205737904,2.30365273003149,2.30367229955289,2.30320867996896,2.30347363403512,2.30317133004849,2.30365311828194,2.30341915481836,2.30397569252354,2.30398972749564,2.30475345120469,2.30492137340681,2.3058266320678,2.30606262229979,2.30698866538008,2.30738190179127,2.30826962223734,2.30904860396268,2.31022774088891,2.31087701357726,2.31194209252219,2.31265003073778,2.3138622690723,2.31410769114331,2.31457865154679,2.31507753563741,2.31455320279485,2.31456397206843,2.31423193367765,2.2861603039558,2.27658167629806,2.27530897959373,2.27446561010182,2.27393452195109,2.27386289880593,2.27434463269533,2.2742219714924,2.27481950302191,2.27472117049994,2.27515842370543,2.27496373289142,2.27524729594879,2.27471225386882,2.27549835426975,2.27540197326734,2.27620148790535,2.27639980465661,2.2767372914732,2.27651124122393,2.27727685847339,2.2773432170573,2.27810952902103,2.27848510377523,2.27857396146469,2.27967160398631,2.28059768844384,2.28270783889389,2.28441254378645,2.28630373327064,2.33137037846579,2.32961611175462,2.33070088316576,2.32930703775347,2.32947401195329,2.32880740192528,2.32821647586466,2.32749346625342,2.32682917518806,2.326120726021,2.32436419121586,2.32236751408208,2.32223226336251,2.32204015436084,2.32141070927128,2.321180915875,2.32077820203729,2.32085310488064,2.3204615176466,2.32061368060584,2.32044936536635,2.32076506539945,2.32068635590191,2.32095646969278,2.32171630784127,2.32293400212237,2.32333745862356,2.32421495303005,2.32479607590327,2.32549578551931,2.32619577817951,2.32677904555961,2.32774220984433,2.32842917756277,2.32945055652198,2.32970502054671,2.32939416488332,2.32911902317698,2.3231861233563,2.2905215577027,2.28890066108345,2.28842901716978,2.2869006030499,2.28726427872107,2.28654127971196,2.28651595251317,2.28616487643792,2.28618078533288,2.28576972993631,2.28575801866165,2.28539721931167,2.28536249111958,2.28515300799877,2.28526326558754,2.28492232517665,2.28492306183954,2.28448279958908,2.28419661222799,2.28417105226576,2.28426458785488,2.28420651303496,2.28443935554695,2.28421196850222,2.28433509254108,2.28395246339773,2.28383298541082,2.28357661812826,2.28347495203395,2.28348547956885,2.28366605690902,2.28356855515824,2.28372654018434,2.2835798360437,2.28374336624021,2.28366132286755,2.28372459663916,2.28369169351107,2.28366654459633,2.2836604887658,2.28373286856162,2.28386845629145,2.28411725828643,2.28439218616192,2.28492240615638,2.28512964919086,2.28588694207281
2.24310120932807,2.24382456857127,2.24428155803856,2.24510568336858,2.24542117055454,2.24624553223108,2.24673497197839,2.24786277787106,2.24840178142068,2.24962509917202,2.25007294028842,2.25117549762806,2.25165320986543,2.25291091036806,2.25343593653104,2.25544342820354,2.25688093649323,2.25839189796777,2.28231879545785,2.30400446837758,2.30554844648192,2.30721093837476,2.30823517763566,2.3081649079674,2.30772833719487,2.30708511571259,2.30650543644119,2.30589365551933,2.30535480834566,2.30469999621544,2.30432791040748,2.30381260977495,2.30360983491404,2.30324011386846,2.30324600451423,2.30307870101597,2.30325247584738,2.30324772908084,2.30351391372736,2.3036200656512,2.30408517446315,2.30441569043753,2.30500077840939,2.30546536487939,2.30613787749748,2.30672094691953,2.30749905947761,2.30822394758931,2.30912327023008,2.3099939933987,2.31090992421893,2.31182545018898,2.31260494089272,2.31346756760651,2.31403443116511,2.31465608150908,2.31510242132628,2.31477285585662,2.31449612381924,2.31407752827718,2.28098858939149,2.27613064719102,2.27502484385239,2.27446483718243,2.27375759835268,2.2740556932784,2.27404202659483,2.27447283686788,2.27445918236117,2.27494572688309,2.27487784152036,2.27534440086076,2.27513206463888,2.2754630235901,2.27544334658019,2.27596788242748,2.27604981861827,2.27661301449953,2.27660867632434,2.27704787709283,2.27725283776789,2.27781500096668,2.27808172116747,2.27859446001643,2.27861058111938,2.27966055698609,2.28063414173348,2.28212252685323,2.28738678028226,2.30847261191852,2.33180081409383,2.33135063618196,2.33121285834256,2.33045874117214,2.32951353133528,2.32891554076161,2.32794102664864,2.32741494265133,2.32640488573064,2.32559429374901,2.32421345981574,2.32300347432007,2.32222407801812,2.32163359872041,2.32124604904624,2.3209265522706,2.3207180535154,2.32052518019429,2.32048553710469,2.32044264876238,2.3205581900991,2.32065154750288,2.32081471680666,2.32100997571951,2.32168006852433,2.3224384192749,2.32318466558335,2.32403510824508,2.32473001029693,2.32558484637,2.32619877559947,2.32709714510037,2.32770097844931,2.32863229494748,2.32934890683343,2.32955644286718,2.32927892053246,2.32892992953963,2.31941262320978,2.28974857533837,2.28859113707598,2.2877695545128,2.28681909436334,2.28677664377529,2.28659798636832,2.28631078782897,2.28624248576268,2.28602277979419,2.28583044026414,2.28556100286812,2.28549330233693,2.28538320731236,2.28524555236428,2.28507906950469,2.28496970781557,2.28483691446776,2.28460307099874,2.28436932732573,2.2842781042033,2.28422323145795,2.28422688073645,2.28426724411168,2.28421859968065,2.28420535450056,2.28399398219517,2.28382927955514,2.2836473299012,2.2835505318783,2.2835428770559,2.28361514458031,2.28359297296335,2.28362519077205,2.28359762982893,2.28367194913786,2.28385108658788,2.28409988309952,2.28398919622511,2.28391131990777,2.28387546078793,2.28390708938838,2.28406489275309,2.2842702310622,2.28450987349482,2.28477354294654,2.28508468728479,2.28539195352602
2.24333316756393,2.24360149885687,2.24455030137309,2.24485845953473,2.24578523013253,2.2458684279437,2.24719451429157,2.24744906672009,2.24888572207146,2.24910012032973,2.25053098951082,2.25052662785708,2.25215993514698,2.25287026659496,2.25395657517464,2.25577877724129,2.25744392460227,2.25951690397704,2.2873706077093,2.30312077882896,2.30531313092127,2.30716486792546,2.3079295954873,2.3079321441191,2.30745371463248,2.30726224833948,2.30626700682141,2.3060891669076,2.30502555851412,2.30470600486489,2.30398396256381,2.30394080346299,2.30332907941513,2.30344145245847,2.30302901062434,2.30336827437405,2.3030812909774,2.30358702557705,2.30335485617052,2.30388304297951,2.30393925985242,2.30473520531437,2.30488255163839,2.30571655696815,2.30605955473893,2.30696635542174,2.30751501462391,2.30858774080525,2.30916882379131,2.31017325195603,2.31099768677784,2.31219726538829,2.31271058228636,2.31354494089745,2.31406039445013,2.31425752303234,2.3149605874967,2.31412185013394,2.31434587809846,2.31388824375941,2.27728265562449,2.27627346551927,2.27493574838397,2.27466215308223,2.27409967832565,2.27394096291849,2.27426803592989,2.27391590554561,2.27459804651667,2.27442873514252,2.27511826542064,2.27513686666978,2.27551231866473,2.27535219933338,2.2758399014009,2.27584351622806,2.27634720172813,2.27636286059259,2.27687582563049,2.27690067656898,2.2775553186315,2.27778870548487,2.27845706112776,2.27919643678641,2.27925047153911,2.28076528210512,2.28121371281306,2.28290101157616,2.29124338410241,2.33086391095445,2.33125224941581,2.33090043762215,2.33130863637869,2.33013324729016,2.32971491840464,2.32871230140435,2.32804661834111,2.32741034860434,2.3263991185607,2.3254282297252,2.32430634795032,2.323261577481,2.3222511709377,2.32132461367697,2.32108078993314,2.32104878830632,2.32060459822108,2.32063983196001,2.32042508065601,2.32073921035219,2.32060477952489,2.32105185042883,2.3208821482824,2.3210580952253,2.32163453646259,2.3222411465075,2.32316104452678,2.32406259426624,2.3249193674101,2.32573796414226,2.32653738360483,2.32734874433663,2.32790477428806,2.32814689884572,2.32929813802375,2.32905539447134,2.32911109944679,2.32878813271957,2.31626702630323,2.29004438920575,2.28867305625684,2.28845967530291,2.28702668705269,2.28761991713046,2.28664769915717,2.28644490003246,2.2861964886874,2.28636485957567,2.28580308367528,2.28565627987699,2.28552035249762,2.28586668025124,2.28529970450609,2.28521979842944,2.28500908657592,2.28518691246044,2.28472144418826,2.28469323568566,2.28437299668918,2.28438040768401,2.28425804570292,2.28440884758157,2.28425788199845,2.28447050893422,2.28407398569678,2.28401673425305,2.28373119407186,2.28369437690773,2.28362721829154,2.28380725118794,2.28367296812564,2.28373197981707,2.28362066057361,2.28365284411261,2.28406952457627,2.28500966558085,2.28433715992029,2.2843164702937,2.28408417581595,2.28419538431112,2.28424555670882,2.2846785840059,2.284598049542,2.28492836546616,2.28499291733262,2.28538025522756
2.24341190417829,2.24415319012759,2.24451001284569,2.24527948589838,2.2456416357899,2.24655939848124,2.24703955215214,2.24818569352131,2.24868722125409,2.24989136119908,2.25038048160953,2.25150727167923,2.25193582816502,2.25317431006959,2.2536261088601,2.25565130889033,2.2572683238127,2.25886159845308,2.29237811340405,2.30445002335462,2.30565169001291,2.30691881433646,2.30775866310326,2.30760935843558,2.30724887389102,2.30665421804161,2.30601262833902,2.30530963038707,2.30483688126655,2.30423933269676,2.30391589573096,2.30343769446702,2.3033266135927,2.30304164080465,2.30308827390985,2.30295193853634,2.30314619848995,2.3031547870996,2.30343769793906,2.30354434940258,2.30400160731576,2.30431310664807,2.30494485021166,2.30544698964258,2.30618059436234,2.30681765332901,2.30765002292748,2.30842618958921,2.30930740984236,2.31016107171206,2.31110592366278,2.31204852353731,2.31276771371875,2.31357439265326,2.31419392781467,2.31469488514274,2.31512815814878,2.31491232818844,2.31456642419132,2.29566044122744,2.27582314846114,2.27509947808671,2.27421903694381,2.2741996175671,2.27382943423642,2.27411060853197,2.27403401909609,2.27439387486282,2.2742917261584,2.27473118486565,2.27474267121668,2.27529049242066,2.27518346177805,2.27561233464772,2.27554608916954,2.2760220216045,2.27605065271776,2.27657458899243,2.27666315964489,2.27720040141877,2.27742012222806,2.27798894029162,2.27819559346935,2.27879035510729,2.27900857111143,2.28029613514681,2.28108815854655,2.28214236088588,2.29628288926899,2.33024249234753,2.33058220849445,2.33099623974548,2.33107247280258,2.33058949563779,2.32950895179159,2.32869809935458,2.32764069555317,2.32701049285722,2.32604581736997,2.32529572219422,2.32426211154145,2.32340070098288,2.32239517440402,2.32158354053352,2.32111945271629,2.3207637907603,2.32056870482545,2.32040223197407,2.32045465913593,2.3205046272025,2.32067682186541,2.32084545216202,2.32112811867366,2.32145355798706,2.32193017035105,2.32251339787126,2.32331473613936,2.32426199907881,2.3250668625039,2.32606313457708,2.32659797765014,2.32745881945449,2.32793112599601,2.32876655391261,2.32948443517569,2.32960577272743,2.32901506750111,2.32823590636349,2.31369437104445,2.28932943977804,2.28824582437947,2.2875009089575,2.28669869040068,2.28672648118166,2.28659120243347,2.28632236096934,2.28626295045854,2.28607467470103,2.28588140366096,2.28561836954755,2.28552965297996,2.28540352735939,2.28527565161762,2.28512534990432,2.28501902719817,2.28490484211616,2.28471809202435,2.2845478557178,2.28441750988902,2.28433326635488,2.28425960445889,2.28422133338887,2.2841477074649,2.28410043687779,2.28400396409849,2.28394191811473,2.28373623907092,2.28360395065048,2.28362192429114,2.28371920580563,2.28371310984626,2.28375303077003,2.28365842628338,2.28365620452151,2.28393669711548,2.28428569654104,2.28422863490748,2.28421344317407,2.28417749583097,2.28421729148667,2.28431504580603,2.28445771264184,2.28460237414372,2.28475099343113,2.28497277127814,2.28518568516209
2.2437846764829,2.24430169451216,2.24485918889971,2.24492991705743,2.24598611879721,2.24612726133715,2.24748210378529,2.2477350343264,2.249184877184,2.24938814339662,2.25096383941861,2.25122487108048,2.25257141663645,2.25344855452981,2.25421804017137,2.25574123585169,2.25774612593555,2.25971228722143,2.29733724384347,2.30488320176219,2.3058806461687,2.30697774038313,2.30746655630309,2.30732872615745,2.30690702268384,2.30675902455904,2.30564074933666,2.30517188995802,2.30445668144457,2.30443797012097,2.30361807977888,2.30356299708981,2.3030756684323,2.30334031834407,2.30288922951547,2.30324635815296,2.30295608703979,2.303474312368,2.3032770232605,2.30383806404718,2.30383148623821,2.30448336358082,2.304819743698,2.30576294466355,2.30615936809572,2.30717522601284,2.30769341080652,2.30873484294529,2.30942524346343,2.31050901462192,2.311296103672,2.31246341319058,2.3129606156209,2.3138028491215,2.3142591902325,2.31438270705297,2.31496336003167,2.31513391981705,2.31358262896051,2.27678990388852,2.2756832217972,2.27538701306177,2.27417698603706,2.27445835636409,2.27413107723387,2.27372017303843,2.27426781975632,2.27402700836583,2.27447764267232,2.27415224659752,2.27489931020307,2.27482212806402,2.27536340631022,2.27515117348517,2.27570712415976,2.27551488301479,2.27618596679569,2.27619408524457,2.27683262315701,2.2769026193146,2.27761886075696,2.27781428797996,2.27832475484531,2.27877385014685,2.27919465607305,2.28078748573538,2.28143579597119,2.28256572625948,2.30259687422614,2.32916215531704,2.32995426242445,2.33030743091347,2.33089862364771,2.33015596817006,2.32952364209429,2.32826953741047,2.32761492678175,2.32655770844985,2.32607334492145,2.32527032668176,2.32443235024592,2.32377760811647,2.32254177547267,2.32183138323947,2.32109494481704,2.32082960714526,2.32045303471539,2.32055209012105,2.32039463297295,2.32077312291378,2.32067165946694,2.32109874957974,2.32131249104369,2.32214935988917,2.32221296867035,2.32282960098475,2.32357389183379,2.32462935436824,2.32545679476715,2.32665192758648,2.3269708723954,2.32758829563222,2.32817066511359,2.3285820536038,2.32971802178221,2.33000016025916,2.32885210694437,2.32725081652723,2.31181575420663,2.28962876130903,2.28827782586673,2.28778020413544,2.28667447305412,2.28711125202314,2.28652449223043,2.28654342039935,2.28619807260249,2.28632322962177,2.28586667890242,2.28589943176074,2.28546583263866,2.2853776374241,2.28520697779397,2.28537032712437,2.285004322261,2.28503286878536,2.28469444057571,2.28466005434768,2.28443719684643,2.28453783021393,2.28426924660561,2.28430064255437,2.28407403421878,2.28398451068025,2.28397854337769,2.2841939973051,2.28375943737415,2.2835309609386,2.28363693058122,2.28389435656967,2.28380931789199,2.28406937222791,2.28370211857508,2.28354779123662,2.2838238119529,2.28415800566294,2.28415076359548,2.28434973214818,2.28424522198856,2.28443795414748,2.28436041181582,2.28454073220129,2.28458647855662,2.28486748790983,2.28490012263781,2.28516710787335
2.24367064346149,2.24441002166851,2.24469532550129,2.24543280626182,2.24584514819798,2.24683556932359,2.2473057949539,2.24845663942739,2.2490012000882,2.25027599417473,2.25081439679804,2.25199305054749,2.25218944499115,2.25340195516499,2.25408984512615,2.25627682669004,2.25760394968795,2.25910067735283,2.30170356342475,2.30548005034373,2.30627940842078,2.30696169476264,2.3074412111236,2.30711391802295,2.30672679263167,2.30613499271869,2.30544915865554,2.30466623380233,2.30429594663568,2.30378232220953,2.30353730262894,2.30311119704367,2.3030981533116,2.30289654477659,2.30292813499934,2.30277264379109,2.30299917674234,2.30304568584719,2.30336795104102,2.30351454186678,2.30395344020994,2.3042519615717,2.30495266864536,2.3055305946203,2.30627544508979,2.30693359225213,2.30784731343592,2.30871181253992,2.30965534523165,2.31056112181534,2.3114940014414,2.31241418863031,2.31300968688854,2.31363094306231,2.31426993878868,2.31444614755419,2.31470327237759,2.31470714748683,2.3105477740737,2.2760934228963,2.27517378448229,2.27448358953343,2.27364214793877,2.27401767834039,2.27393876349249,2.27430305520461,2.27402786310181,2.27422638335962,2.27412321843743,2.27460099875482,2.27458027775145,2.27509727551128,2.27504544447294,2.27550623096044,2.27543971463001,2.275871639458,2.27590419228262,2.27641592343706,2.2766055667395,2.27722080012156,2.27747596239747,2.27801310165756,2.27807567704014,2.27858371510613,2.27882619453777,2.28027809434804,2.28133766866639,2.28240057594324,2.30963763678413,2.32925209587177,2.32960959739596,2.33016223138684,2.3304534878474,2.33017216471273,2.32925992527283,2.32857258831273,2.3275414464139,2.32693826015478,2.32613671108136,2.32557905457585,2.32439328135927,2.3233953030198,2.32239661354164,2.32159615740605,2.32103886388267,2.32058814575037,2.32043085917684,2.32030848345188,2.32041930153915,2.32052322306757,2.32073784497623,2.32095497002085,2.32138263643022,2.32185481207151,2.32229102521473,2.32285385041234,2.32365263861195,2.32464548518317,2.32537095674842,2.32630716723766,2.32675952151834,2.32755880329051,2.32807901318724,2.32898778053318,2.32962078327962,2.32964173077292,2.32882188154006,2.3277960264345,2.3106700124029,2.28921061671382,2.28807626041457,2.28728652227306,2.28653318460989,2.28658438870912,2.28650631392548,2.28626260827198,2.28619862663245,2.28598805758608,2.28588265948071,2.28569947412774,2.28552118475561,2.28529820068254,2.28521431404742,2.28509750618389,2.28495633760665,2.28479051197803,2.28468564058908,2.28457821893315,2.28441535713345,2.28427552989014,2.28422863301915,2.28419898539918,2.28408510235441,2.28397792709299,2.28393008670806,2.28389266834413,2.28375687962053,2.28366110823517,2.28366962971105,2.28373931687545,2.28372671845375,2.28375677909032,2.28370543725083,2.28372239724624,2.28384084614562,2.28400184275776,2.28407929204109,2.28416312371772,2.28426195311848,2.28437140860397,2.28443786190191,2.28450459308969,2.28468023463436,2.28483223704012,2.28500524910153,2.28516446646618
