2.25002026689802,2.25066929200386,2.25132830211132,2.25238671228391,2.25459339764374,2.25470323266165,2.25535225776748,2.2568100680052,2.25837771326082,2.26143312375905,2.26208214886489,2.26381953914819,2.26657539959757,2.26966076510069,2.27513254599294,2.33078894506851,2.33194720525738,2.33142798517272,2.33205704027529,2.33227671031111,2.33327521047393,2.3315977302004,2.33202708527041,2.33155779019388,2.33111845012224,2.33129818015155,2.33112843512387,2.33136807516295,2.33188729524761,2.33277596039252,2.33174750522482,2.33238654532902,2.33319533046091,2.33296567542346,2.33405404060093,2.33444345566443,2.33433362064652,2.33504255576212,2.3358114008875,2.33805802625384,2.33821778627989,2.33915637643294,2.33858723134013,2.33803805625058,2.33803805625058,2.33817784627338,2.33823775628315,2.334643155697,2.28276108723688,2.28174261707081,2.2807840569145,2.27923638166213,2.27854741654978,2.27872714657909,2.27816798648791,2.27894681661491,2.27935620168167,2.27885695160026,2.27959584172074,2.27935620168167,2.27935620168167,2.2793661866833,2.28194231710337,2.27994531677773,2.28022489682332,2.28061431188682,2.28089389193241,2.28113353197149,2.28200222711314,2.28237167217338,2.2822718221571,2.28222189714896,2.28269119222549,2.28333023232969,2.28327032231992,2.28431874749088,2.2848579375788,2.28582648273674,2.28643556783606,2.2875838430233,2.28916147328056,2.29083895355409,2.35391420883942,2.35649033925949,2.36200206015826,2.35982532980331,2.36354973541063,2.36375942044482,2.36511738066626,2.36188224013872,2.36223171519571,2.36217180518594,2.36298059031782,2.36293066530968,2.36143291506545,2.36294065031131,2.36323021535853,2.36425867052623,2.3661957608421,2.36396910547901,2.36414883550832,2.36471798060113,2.36413885050669,2.36557669074115,2.36554673573627,2.36519726067928,2.3654868257265,2.36693465096259,2.29356485899859,2.2934250689758,2.29166770868924,2.29194728873482,2.29073910353781,2.29058932851339,2.29190734872831,2.29081898355084,2.29074908853944,2.29065922352479,2.29008009343035,2.29099871358015,2.29039961348245,2.29170764869575,2.29194728873482,2.29105862358992,2.29129826362899,2.29213700376576,2.29192731873157,2.29390434905395,2.29297574390253,2.29300569890741,2.29353490399371,2.29333520396114,2.29393430405884,2.29345502398068,2.29535217429004,2.29861726982246,2.29488287921351,2.29568167934377,2.29556185932423,2.29581148436494,2.2969298045473,2.2964704944724,2.2989867148827,2.29900668488596,2.29970563499993,2.30325031057794,2.30269115048677,2.30394926069192,2.3071644312162,2.37535200733516,2.37548181235632,2.37514232230097,2.37563158738075,2.37610088245727,2.37686972758264,2.37660013253868,2.37760861770313,2.37853722285455,2.37872693788549,2.37934600798644,2.37948579800923,2.37997506308901,2.38109338327137,2.38197206341465,2.38374939370447,2.38434849380216,2.3835097536654,2.38405892875495,2.38593610906105,2.38718423426457,2.38881178952997,2.3905591648149,2.39327508525777,2.39432351042873,2.39441337544339,2.39403394538152
2.24957094182475,2.25037972695664,2.25102875206247,2.25217702724971,2.2533752274451,2.2544735776242,2.25520248274306,2.25698979803451,2.25791840318593,2.25936622842202,2.26078409865322,2.26321045404887,2.26762382476854,2.27195731547517,2.32729419449864,2.32758375954586,2.32807302462564,2.32908150979009,2.3295108648601,2.33059923003758,2.33030966499036,2.33045944001478,2.33126822514667,2.33014990496431,2.32984036991383,2.3302896949871,2.32970057989104,2.32975050489918,2.33260621536484,2.33278594539415,2.33153782019063,2.33131815015481,2.33140801516946,2.33239653033065,2.33311545044788,2.33312543544951,2.33370456554395,2.3342537406335,2.33474300571328,2.33438354565466,2.33539203081911,2.33582138588912,2.33741898614964,2.33707949609428,2.3376186861822,2.33826771128803,2.33989526655343,2.33788828122616,2.28198225710988,2.28262129721409,2.27957587171749,2.27889689160677,2.27777857142441,2.27850747654327,2.27886693660189,2.27809809147651,2.2789068766084,2.2787670865856,2.27881701159374,2.2792962916719,2.27925635166539,2.27931626167515,2.27963578172726,2.28019494181844,2.28026483682983,2.2816327820529,2.28099374194869,2.28146303702522,2.28135320200731,2.28180252708058,2.28214201713593,2.2826612372206,2.28271116222874,2.28281101224502,2.28322039731178,2.28380951240784,2.2853871426651,2.28651544784909,2.28771364804447,2.2884325681617,2.28996027341081,2.35380437382151,2.35315534871568,2.35430362390292,2.3531653337173,2.36214185018105,2.36034454988798,2.36007495484402,2.35950580975121,2.36039447489612,2.36013486485378,2.36065408493845,2.36075393495473,2.36259117525432,2.36143291506545,2.36207195516966,2.36280086028851,2.36359966041877,2.3623016102071,2.36170251010941,2.36247135523478,2.36199207515663,2.36358967541714,2.36607594082256,2.36505747065649,2.35649033925949,2.35580137414715,2.29302566891067,2.2926462388488,2.29240659880972,2.29150794866318,2.29009007843198,2.29096875857526,2.28979052838313,2.29266620885205,2.29001019841895,2.28971064837011,2.28996027341081,2.28969067836685,2.29014998844175,2.29093880357038,2.29097874357689,2.29061928351827,2.29079901354758,2.2910186835834,2.29130824863062,2.29078902854595,2.29144803865341,2.29169766369412,2.29304563891393,2.2921170337625,2.29316545893346,2.29419391410117,2.29332521895952,2.2928958638895,2.29384443904418,2.29551193431609,2.29552191931772,2.29560179933074,2.29645052446914,2.29609106441053,2.29663025449845,2.29760878465801,2.29752890464499,2.30108356522463,2.30034467510414,2.30083394018392,2.303410070604,2.30792329133994,2.37083878659921,2.37457317720816,2.37515230730259,2.37312535197207,2.37477287724072,2.37556169236935,2.37669998255496,2.37964555803528,2.37637047750123,2.37832753782036,2.3775986327015,2.38045434316717,2.37988519807436,2.37919623296201,2.37901650293271,2.38255119350909,2.38065404319973,2.38135299331371,2.38345982865725,2.38340990364911,2.38470795386078,2.3890713995723,2.39138791995004,2.38980030469116,2.39091862487352,2.39216675007704,2.39388417035709
2.24913160175311,2.24931133178242,2.25144812213086,2.25184752219598,2.25358491247929,2.25390443253139,2.2549328876991,2.25612110289285,2.25782853817127,2.25878709832758,2.26242163892024,2.26300076901468,2.26695482965945,2.26815302985483,2.326854854427,2.32683488442375,2.32741401451818,2.32827272465821,2.32881191474613,2.3288718247559,2.32892174976404,2.32808300962727,2.32908150979009,2.32817287464192,2.32796318960773,2.32789329459634,2.32736408951004,2.32768360956214,2.32811296463216,2.32843248468426,2.32911146479498,2.32971056489267,2.32949089485685,2.32986033991709,2.3319172502525,2.33205704027529,2.33264615537136,2.33329518047719,2.33475299071491,2.33452333567746,2.33483287072793,2.3357415058761,2.33678993104706,2.3368398560552,2.33707949609428,2.33654030600635,2.34087379671299,2.33794819123593,2.28058435688194,2.27925635166539,2.27874711658235,2.27835770151885,2.27778855642604,2.27801821146349,2.27906663663445,2.27820792649442,2.27875710158398,2.27854741654978,2.27839764152536,2.27950597670609,2.27917647165236,2.27918645665399,2.27934621668004,2.27937617168492,2.27986543676471,2.28049449186728,2.28035470184449,2.28075410190962,2.28073413190636,2.28130327699917,2.28228180715873,2.28257137220595,2.2834400673476,2.28329029232318,2.28432873249251,2.28440861250554,2.28574660272371,2.28709457794352,2.28777355805424,2.29021988345315,2.29231673379507,2.35133807841934,2.35319528872219,2.35346488376615,2.35535204907388,2.35612089419925,2.35879687463561,2.36013486485378,2.35953576475609,2.3589366646584,2.35882682964049,2.35845738458025,2.35960565976749,2.35956571976098,2.36045438490589,2.36020475986518,2.3615926750915,2.36189222514035,2.36037450489286,2.36052427991728,2.35995513482448,2.3609536349873,2.35821774454117,2.35881684463886,2.35877690463235,2.35672997929857,2.35545189909016,2.29266620885205,2.29164773868598,2.29033970347268,2.29166770868924,2.28984045339127,2.28993031840593,2.28911154827242,2.28969067836685,2.2898504383929,2.28981049838639,2.29050944850036,2.28939112831801,2.28971064837011,2.28919142828544,2.28913151827567,2.29132821863388,2.29012003343686,2.29060929851665,2.29005013842547,2.29047949349548,2.29057934351176,2.29035967347594,2.29131823363225,2.29195727373645,2.29217694377227,2.29173760370063,2.29283595387973,2.29311553392532,2.29306560891718,2.29350494898882,2.29404413907675,2.29421388410443,2.29483295420537,2.29501268423468,2.29600119939587,2.29617094442355,2.29679999952613,2.29831771977361,2.29885690986154,2.29819789975408,2.30225181041512,2.30766368129761,2.3732052319851,2.37222670182553,2.3714378866969,2.3722167168239,2.37230658183856,2.37356469204371,2.37557167737098,2.37354472204045,2.37575140740029,2.37511236729608,2.37609089745564,2.37665005754682,2.37699953260381,2.37722918764126,2.3784473578399,2.37846732784316,2.37846732784316,2.3796854980418,2.38118324828603,2.38256117851072,2.38390915373052,2.38432852379891,2.38521718894382,2.38747379931179,2.38753370932156,2.3937443803343,2.39146779996307
2.24915157175637,2.25029984694361,2.25090893204293,2.2516777771683,2.25248656230019,2.25348506246301,2.25491291769584,2.25535225776748,2.25731930308824,2.2575888981322,2.26019498355716,2.2621919838828,2.26451848926217,2.27083899529281,2.32620582932117,2.3261459193114,2.32624576932768,2.32674501940909,2.32689479443352,2.32771356456703,2.32798315961099,2.32697467444654,2.32629569433582,2.32639554435211,2.32680492941886,2.32664516939281,2.32679494441723,2.32673503440746,2.32634561934396,2.32678495941561,2.32961071487639,2.32744396952307,2.32936108983568,2.32909149479172,2.32986033991709,2.33079893007014,2.33136807516295,2.33228669531274,2.33327521047393,2.33329518047719,2.33446342566769,2.33406402560256,2.33533212080934,2.3333351204837,2.33473302071165,2.33448339567095,2.33656027600961,2.28121341198451,2.28095380194218,2.27900672662468,2.27871716157746,2.28059434188356,2.2787670865856,2.27760882639673,2.27874711658235,2.27846753653676,2.27855740155141,2.27864726656607,2.27823788149931,2.27913653164585,2.27925635166539,2.27911656164259,2.27917647165236,2.27951596170772,2.28035470184449,2.2800052267875,2.28006513679727,2.28082399692101,2.28099374194869,2.28126333699265,2.28178255707732,2.28245155218641,2.28258135720758,2.28341011234272,2.28348999235574,2.2856367677058,2.28606612277582,2.28793331808029,2.28920141328707,2.29095877357363,2.35201705853006,2.35002005820442,2.3527759186538,2.35437351891431,2.35622074421553,2.35689972432625,2.35784829948093,2.35630062422856,2.35864709961118,2.35756871943534,2.35702952934742,2.35831759455745,2.35669003929206,2.35766856945162,2.35865708461281,2.35889672465189,2.35835753456397,2.35862712960793,2.35884679964375,2.35876691963072,2.35894664966003,2.35819777453791,2.35881684463886,2.35517231904457,2.35561165911621,2.35629063922693,2.29455337415978,2.29238662880647,2.29144803865341,2.28971064837011,2.28940111331963,2.28950096333592,2.28880201322194,2.28918144328381,2.28918144328381,2.28935118831149,2.28909157826916,2.28908159326753,2.28877205821706,2.28824285313076,2.28933121830824,2.28895178824637,2.28905163826265,2.28911154827242,2.28931124830498,2.28972063337174,2.29039961348245,2.29009007843198,2.29075907354107,2.29111853359968,2.29134818863713,2.29090884856549,2.2913382036355,2.29207709375599,2.29355487399696,2.29279601387322,2.29455337415978,2.29348497898557,2.2939942140686,2.29453340415653,2.29429376411745,2.29571163434866,2.29504263923957,2.29653040448217,2.29895675987782,2.29924632492504,2.30102365521486,2.30082395518229,2.30435864575867,2.36865207124264,2.36808292614983,2.37036949152269,2.37053923655037,2.37138796168876,2.37249629686949,2.37285575692811,2.37305545696067,2.37307542696393,2.3742336871528,2.37496259227166,2.37714930762823,2.37543188734818,2.37466304222281,2.37600103244099,2.37590118242471,2.37677986256799,2.37882678790177,2.3783774628285,2.38361958868331,2.38087371323555,2.38217176344722,2.38550675399103,2.38698453423201,2.38662507417339,2.39004992973186,2.39024962976443
2.24879211169775,2.24970074684592,2.25056944198757,2.25140818212434,2.2518874622025,2.2543337876014,2.25512260273003,2.25533228776422,2.25664032297752,2.25888694834386,2.25980556849366,2.2616627787965,2.26436871423774,2.2682129398646,2.32461821406229,2.32524726916486,2.32547692420231,2.32590627927232,2.32722429948725,2.32581641425767,2.32616588931466,2.32551686420882,2.32461821406229,2.32445845403624,2.32487782410462,2.32464816906717,2.32491776411113,2.32464816906717,2.32500762912579,2.32564666922999,2.32613593430977,2.3271743744791,2.32728420949701,2.32740402951655,2.32878195974124,2.32921131481126,2.32945095485033,2.33108849511736,2.33174750522482,2.33137806016458,2.33234660532251,2.33226672530949,2.33385434056837,2.33101860010596,2.3302896949871,2.32901161477869,2.33296567542346,2.28036468684612,2.27847752153839,2.27818795649117,2.27865725156769,2.27802819646512,2.27856738655304,2.27943608169469,2.27747902137557,2.27765875140487,2.27787842144069,2.27792834644884,2.27806813647163,2.27918645665399,2.27888690660514,2.27948600670283,2.2793661866833,2.27918645665399,2.27998525678424,2.28004516679401,2.27964576672888,2.2804645368624,2.28020492682006,2.28123338198777,2.28224186715222,2.28182249708383,2.28293083226456,2.28320042730852,2.28522738263905,2.28607610777744,2.28685493790444,2.28881199822357,2.29010006343361,2.34921127307254,2.34968056814906,2.35222674356425,2.35248635360659,2.35387426883291,2.35524221405597,2.35520227404946,2.35562164411784,2.3551823040462,2.35480287398433,2.35560167411458,2.35438350391594,2.35514236403969,2.35539198908039,2.35559168911296,2.3558213441504,2.35652029426438,2.35731909439463,2.35758868943859,2.35720925937672,2.35724919938324,2.35640047424484,2.35671000929531,2.35318530372056,2.35319528872219,2.35340497375638,2.35495264900875,2.29171763369738,2.29051943350199,2.29132821863388,2.28926132329684,2.28890186323822,2.28866222319915,2.28990036340104,2.28886192323171,2.28903166825939,2.2888219832252,2.28773361804773,2.28975058837662,2.28971064837011,2.28788339307215,2.28816297311774,2.28783346806401,2.2884325681617,2.28825283813239,2.28920141328707,2.2892812933001,2.28858234318612,2.2890716082659,2.28959082835057,2.28976057337825,2.29047949349548,2.29009007843198,2.29078902854595,2.29205712375273,2.29171763369738,2.29201718374622,2.29155787367132,2.29281598387648,2.29376455903116,2.29378452903441,2.29488287921351,2.29406410908,2.29517244426073,2.29406410908,2.30030473509763,2.29709954957497,2.29840758478827,2.30060428514647,2.36739396103749,2.36562661574929,2.3670444859805,2.36999006146082,2.36750379605539,2.36908142631265,2.37036949152269,2.3700899114771,2.37151776670993,2.37160763172458,2.37312535197207,2.37134802168225,2.37351476703557,2.37350478203394,2.37440343218048,2.37471296723095,2.37376439207627,2.37559164737423,2.37561161737749,2.37693962259404,2.37779833273407,2.37886672790828,2.38038444815577,2.38218174844885,2.38307041359375,2.38467799885589,2.38516726393568,2.38987019970256
2.24854248665705,2.24938122679382,2.25011013191268,2.25113858708038,2.25172770217644,2.25303573738974,2.25419399757861,2.25531231776097,2.25676014299706,2.25832778825268,2.26090391867276,2.26274115897235,2.26537719940219,2.32100364347288,2.32211197865361,2.32393923395157,2.32430867901181,2.32446843903786,2.32535710418277,2.32434861901833,2.32422879899879,2.32396918895645,2.32377947392552,2.32360972889784,2.32371956391575,2.32302061380177,2.32315041882294,2.32360972889784,2.32395920395483,2.32455830405252,2.32503758413067,2.32541701419254,2.32539704418929,2.32663518439118,2.32746393952632,2.32794321960448,2.32888180975753,2.3297205498943,2.33021979997571,2.3310685251141,2.33082888507503,2.33108849511736,2.33180741523459,2.32916138980312,2.32888180975753,2.32892174976404,2.33045944001478,2.27937617168492,2.2822019271457,2.27794831645209,2.27698975629578,2.2773492163544,2.27716948632509,2.27705965130718,2.27749899137882,2.27721941133323,2.27751896138208,2.27761881139836,2.27799824146023,2.27836768652048,2.27889689160677,2.27905665163282,2.28134321700568,2.27909659163933,2.27924636666376,2.27992534677447,2.27967572173377,2.28091386193567,2.28102369695358,2.28132324700242,2.2824116121799,2.28264126721734,2.28371964739319,2.28424885247948,2.28543706767324,2.28589637774814,2.28876207321543,2.28982048338802,2.34960068813604,2.35118830339492,2.35097861836073,2.35127816840957,2.35154776345354,2.353764433815,2.35439348891757,2.35365459879708,2.35388425383453,2.35358470378569,2.35392419384105,2.35344491376289,2.35368455380197,2.35371450880685,2.35398410385082,2.3544733689306,2.35502254402015,2.35857720459979,2.35574146413738,2.35506248402666,2.35506248402666,2.35506248402666,2.35513237903806,2.35723921438161,2.35331510874173,2.35342494375964,2.35326518373358,2.29195727373645,2.29111853359968,2.29091883356712,2.29043955348897,2.28828279313728,2.28800321309169,2.28807310810308,2.28849247817147,2.28770366304284,2.28782348306238,2.28867220820078,2.28912153327404,2.28725433796957,2.28866222319915,2.28826282313402,2.28755388801842,2.28769367804121,2.28815298811611,2.28793331808029,2.28821289812588,2.28863226819426,2.28840261315681,2.29008009343035,2.28867220820078,2.28901169825613,2.28989037839942,2.29158782867621,2.29001019841895,2.29091883356712,2.29009007843198,2.29132821863388,2.2910885785948,2.29266620885205,2.29362476900836,2.29215697376902,2.2934949639872,2.29387439404907,2.29493280422166,2.29455337415978,2.29548197931121,2.29674008951636,2.29773858967918,2.29991532003413,2.30078401517578,2.36650529589258,2.36827264118077,2.36587624079,2.36631558086164,2.367433901044,2.36836250619542,2.36920124633219,2.36972046641685,2.37021971649826,2.37024967150315,2.37052925154874,2.37130808167574,2.37277587691508,2.37160763172458,2.37162760172784,2.37178736175389,2.37264607189392,2.37599104743936,2.37635050749798,2.37644037251263,2.37831755281873,2.38293062357096,2.38051425317694,2.38207191343094,2.38441838881356,2.38645532914571,2.38659511916851
2.24821298160332,2.2488420367059,2.24973070185081,2.25177762718459,2.25217702724971,2.25297582737997,2.25436374260629,2.25513258773166,2.25582155284401,2.25858739829502,2.25981555349528,2.26269123396421,2.26687494964642,2.32021482834425,2.32113344849405,2.32169260858522,2.32313044881969,2.32417887399065,2.32375950392226,2.32367962390924,2.32298067379526,2.32260124373339,2.32272106375293,2.32250139371711,2.32281092876758,2.32221182866989,2.32157278856569,2.32224178367478,2.32237158869594,2.32282091376921,2.32336010385713,2.32361971389947,2.32415890398739,2.3249776741209,2.32672504940584,2.32450837904438,2.32966063988453,2.32640552935373,2.32857227470705,2.32934111983242,2.33002009994314,2.33016987496756,2.33059923003758,2.33065914004735,2.32884186975101,2.32973053489592,2.28180252708058,2.28033473184123,2.2781979414928,2.27678007126159,2.27685995127462,2.27661032623391,2.27732924635114,2.27701971130067,2.27712954631858,2.27713953132021,2.27735920135603,2.27764876640325,2.27813803148303,2.27857737155467,2.2781979414928,2.27804816646837,2.27881701159374,2.27931626167515,2.27942609669306,2.27937617168492,2.27989539176959,2.28048450686565,2.28063428189008,2.28123338198777,2.28196228710663,2.28211206213105,2.28332024732806,2.28404915244692,2.28553691768952,2.28747400800539,2.28934120330986,2.291727618699,2.3502596982435,2.35004002820768,2.34996014819465,2.3505792182956,2.35140797343074,2.35124821340469,2.35168755347633,2.35517231904457,2.35157771845842,2.3520669835382,2.35159768846168,2.35203702853332,2.35188725350889,2.35187726850727,2.35204701353494,2.35229663857565,2.35232659358053,2.35289573867334,2.35412389387361,2.35427366889803,2.35387426883291,2.35500257401689,2.35390422383779,2.35358470378569,2.35414386387687,2.35513237903806,2.35576143414063,2.29089886356386,2.28837265815193,2.28903166825939,2.28846252316658,2.28763376803144,2.28768369303958,2.28701469793049,2.28823286812913,2.28776357305261,2.28738414299074,2.28750396301028,2.2879732580868,2.28744405300051,2.28710456294515,2.28847250816821,2.28771364804447,2.2875139480119,2.28755388801842,2.2876537380347,2.28761379802819,2.28778354305587,2.28856237318287,2.28863226819426,2.28862228319263,2.28947100833103,2.28941109832126,2.28913151827567,2.2899902284157,2.28976057337825,2.28982048338802,2.29046950849385,2.29096875857526,2.29142806865016,2.29275607386671,2.29295577389927,2.29344503897905,2.29329526395463,2.29376455903116,2.29535217429004,2.29466320917769,2.29628077944146,2.29696974455381,2.29831771977361,2.30183244034674,2.3651673056744,2.3654868257265,2.36481783061741,2.36562661574929,2.36634553586652,2.36773345109284,2.36799306113518,2.36874193625729,2.36861213123612,2.36928112634521,2.36948082637778,2.36915132132405,2.36935102135661,2.36960064639732,2.36877189126218,2.37073893658293,2.37158766172133,2.37119824665783,2.37361461705185,2.37342490202092,2.37539194734167,2.37921620296527,2.37832753782036,2.38106342826649,2.38005494310204,2.383439858654,2.38366951369145
2.24793340155773,2.24896185672543,2.25013010191593,2.25114857208201,2.25194737221226,2.25270623233601,2.25385450752325,2.25422395258349,2.25662035297426,2.25897681335852,2.26073417364508,2.26412907419867,2.26526736438428,2.31946595322214,2.32089380845497,2.32159275856894,2.3222517686764,2.32261122873502,2.32339005886202,2.32393923395157,2.32139305853638,2.32138307353475,2.32078397343706,2.32103359847776,2.31994523330029,2.32029470835728,2.32109350848753,2.32062421341101,2.3207640034338,2.32172256359011,2.32245146870897,2.3232402838376,2.32383938393529,2.32414891898576,2.32476798908671,2.32410897897925,2.32469809407531,2.32676498941235,2.32743398452144,2.32783338458657,2.32931116482754,2.329191344808,2.3295807598715,2.33085884007991,2.33013991996268,2.33095869009619,2.3322367703046,2.2783776715221,2.27790837644558,2.27637068619484,2.27669020624694,2.27669020624694,2.2762508661753,2.2762508661753,2.2769598012909,2.27685995127462,2.27658037122903,2.27762879639999,2.2773492163544,2.27772864641627,2.27793833145046,2.27879704159049,2.27859734155792,2.27959584172074,2.27949599170446,2.28065425189333,2.2801450168103,2.2800751217989,2.28013503180867,2.28119344198126,2.28200222711314,2.28262129721409,2.28391934742575,2.2860960777807,2.28649547784583,2.28816297311774,2.34749385279249,2.34771352282831,2.34846239795042,2.34879190300415,2.34987028318,2.3501898032321,2.35067906831188,2.34966059814581,2.3495507631279,2.34944092810999,2.34969055315069,2.35024971324187,2.34971052315395,2.3527759186538,2.35078890332979,2.3501199082207,2.35122824340143,2.35087876834445,2.35147786844214,2.35195714852029,2.35185729850401,2.35415384887849,2.3523865035903,2.35208695354146,2.35193717851703,2.35545189909016,2.35535204907388,2.34992020818814,2.29053940350525,2.28965073836034,2.28923136829195,2.28890186323822,2.28830276314053,2.28755388801842,2.28665523787188,2.28709457794352,2.28668519287676,2.2864854928442,2.2871245329484,2.28700471292887,2.2864854928442,2.28650546284746,2.28671514788165,2.28628579281164,2.28708459294189,2.28738414299074,2.28721439796306,2.28749397800865,2.28723436796631,2.2877236330461,2.2876537380347,2.28831274814216,2.28793331808029,2.28849247817147,2.28931124830498,2.28848249316984,2.28935118831149,2.29007010842872,2.28976057337825,2.29057934351176,2.29052941850362,2.29167769369086,2.29185742372017,2.29210704876088,2.2929657589009,2.29287589388625,2.29379451403604,2.29487289421189,2.29624083943495,2.29564173933726,2.29818791475245,2.29888686486642,2.30124332525068,2.36964058640383,2.36359966041877,2.36341993038946,2.3650275156516,2.365097410663,2.36608592582419,2.36604598581768,2.3665152808942,2.36779336110261,2.36755372106354,2.36721423100818,2.36744388604563,2.36769351108633,2.36910139631591,2.36939096136312,2.37054922155199,2.36959066139569,2.37085875660247,2.37206694179948,2.37263608689229,2.37634052249635,2.37594112243122,2.37714930762823,2.37946582800598,2.38203197342442,2.38173242337558,2.38424864378588
2.24804323657564,2.25027987694036,2.24998032689151,2.25079909702502,2.25160788215691,2.25240668228716,2.25392440253465,2.25499279770887,2.25591141785866,2.25835774325757,2.26096382868253,2.26241165391862,2.31850739306583,2.31878697311142,2.31968562325796,2.3207640034338,2.32153284855917,2.32188232361616,2.31787833796325,2.31848742306257,2.31859725808048,2.32033464836379,2.31988532329052,2.31926625318957,2.31939605821074,2.31928622319283,2.31930619319609,2.31956580323842,2.31991527829541,2.32040454337519,2.32125326851358,2.3214729385494,2.32244148370734,2.32378945892715,2.32383938393529,2.32457827405577,2.32599614428698,2.32661521438793,2.3266751243977,2.32749389453121,2.3277734745768,2.32783338458657,2.32812294963378,2.32909149479172,2.32969059488941,2.32966063988453,2.27973563174354,2.27814801648466,2.27748900637719,2.27663029623717,2.27610109115087,2.27610109115087,2.27597128612971,2.27587143611343,2.27649050621437,2.27704966630555,2.27701971130067,2.27716948632509,2.27733923135277,2.27794831645209,2.27788840644232,2.27820792649442,2.27888690660514,2.27919644165562,2.27891686161003,2.27955590171423,2.28013503180867,2.28041461185426,2.28057437188031,2.28090387693404,2.28222189714896,2.28320042730852,2.28367970738668,2.28723436796631,2.28663526786862,2.34666509765735,2.3460460275564,2.34661517264921,2.34762365781365,2.34853229296182,2.34927118308231,2.34879190300415,2.34712440773224,2.348312622926,2.34839250293902,2.3491613480644,2.34762365781365,2.34843244294554,2.34846239795042,2.34864212797973,2.34857223296833,2.34911142305626,2.34896164803183,2.34971052315395,2.35161765846493,2.35017981823047,2.3505792182956,2.35076893332654,2.35037951826304,2.35173747848447,2.35000008820116,2.35130812341446,2.34886179801555,2.34913139305951,2.28993031840593,2.28930126330335,2.28958084334894,2.28698474292561,2.28723436796631,2.28665523787188,2.28678504289305,2.28596627275953,2.28640561283117,2.28654540285397,2.28707460794026,2.28610606278233,2.28627580781001,2.28628579281164,2.28625583780675,2.28644555283769,2.28691484791421,2.28607610777744,2.28678504289305,2.28669517787839,2.2871944279598,2.2875838430233,2.2868050128963,2.28820291312425,2.28717445795655,2.28792333307866,2.28910156327079,2.28825283813239,2.28864225319589,2.28845253816496,2.28968069336522,2.28993031840593,2.29155787367132,2.29159781367784,2.29129826362899,2.29113850360294,2.29426380911257,2.29187739372343,2.29332521895952,2.29431373412071,2.29446350914513,2.2944535241435,2.29621088443006,2.29949594996574,2.30056434513996,2.36466805559299,2.36591618079651,2.3639990604839,2.36341993038946,2.36466805559299,2.36482781561904,2.36496760564183,2.36482781561904,2.36571648076395,2.36566655575581,2.3665152808942,2.36685477094956,2.36644538588281,2.36544688571999,2.36727414101795,2.36637549087141,2.37201701679134,2.36983030143477,2.369770391425,2.36972046641685,2.37168751173761,2.37301551695416,2.37668999755334,2.37704945761195,2.37935599298807,2.37938594799295,2.38342987365237
2.24796335656261,2.24833280162286,2.24953100181824,2.25080908202665,2.25185750719761,2.25199729722041,2.25396434254116,2.25505270771863,2.25583153784563,2.25870721831456,2.25931630341388,2.26253147393815,2.31940604321237,2.31802811298768,2.31983539828238,2.3198054432775,2.3199851733068,2.32025476835076,2.31918637317655,2.31809800799907,2.31830769303327,2.31923629818469,2.31780844295186,2.31889680812933,2.31864718308862,2.31735911787859,2.31839755804792,2.3181079930007,2.31845746805769,2.31943599821725,2.32017488833774,2.32042451337844,2.32104358347939,2.32254133372362,2.32308052381154,2.32432864901507,2.32430867901181,2.32542699919417,2.32594621927884,2.32612594930814,2.32672504940584,2.32747392452795,2.3269946444498,2.32877197473962,2.33142798517272,2.27994531677773,2.27745905137231,2.27719944132998,2.27691986128439,2.27612106115413,2.27653044622089,2.27620094116716,2.27569170608412,2.2759313461232,2.27669020624694,2.27617098616227,2.27643059620461,2.27661032623391,2.27683998127136,2.27706963630881,2.27785845143744,2.27799824146023,2.27729929134626,2.27871716157746,2.27963578172726,2.2796857067354,2.28002519679076,2.27988540676796,2.28122339698614,2.28114351697311,2.28213203213431,2.28290087725968,2.28586642274325,2.28659532786211,2.34355976215098,2.34624572758896,2.34561667248639,2.34549685246685,2.34772350782994,2.34836254793414,2.34821277290972,2.34717433274038,2.34729415275992,2.34710443772899,2.34692470769968,2.34720428774527,2.34554677747499,2.3471443777355,2.34770353782668,2.34702455771596,2.3471443777355,2.34784332784947,2.34788326785599,2.34833259292926,2.34915136306277,2.34935106309533,2.35022974323861,2.34940098810347,2.34803304288041,2.34840248794065,2.34901157303997,2.34858221796996,2.34820278790809,2.29005013842547,2.28857235818449,2.28890186323822,2.28810306310797,2.28675508788816,2.28636567282466,2.28620591279861,2.28576657272697,2.28574660272371,2.28606612277582,2.2860261827693,2.28547700767975,2.28596627275953,2.28598624276279,2.28580651273348,2.28568669271394,2.28583646773837,2.28606612277582,2.28598624276279,2.28625583780675,2.28674510288653,2.28643556783606,2.28637565782629,2.28631574781652,2.28649547784583,2.28686492290607,2.28710456294515,2.2875139480119,2.2879732580868,2.28798324308843,2.28881199822357,2.28937115831475,2.28963076835708,2.28980051338476,2.29046950849385,2.29022986845477,2.29123835361922,2.29128827862736,2.29156785867295,2.29221688377879,2.29253640383089,2.29385442404581,2.29446350914513,2.29957582997877,2.29784842469709,2.36145288506871,2.3600350148375,2.36020475986518,2.36111339501335,2.3620519851664,2.36248134023641,2.36378937544971,2.36413885050669,2.36461813058485,2.36452826557019,2.3647778906109,2.36423870052297,2.36453825057182,2.36499756064672,2.36434853554088,2.36576640577209,2.36687474095282,2.36703450097887,2.366655070917,2.36783330110913,2.36804298614332,2.37046934153897,2.37107842663829,2.37568151238889,2.37692963759241,2.37649029752077,2.37940591799621,2.38028459813949
2.24786350654633,2.24820299660169,2.24864233667333,2.25056944198757,2.25145810713248,2.25257642731484,2.25344512245649,2.25487297768933,2.2564206529417,2.25869723331293,2.26071420364182,2.2632204390505,2.31689980780369,2.31850739306583,2.31794823297465,2.31912646316678,2.31952586323191,2.31913644816841,2.31787833796325,2.31826775302675,2.31854733307234,2.31717938784928,2.31635063271414,2.31648043773531,2.31634064771251,2.31622082769297,2.31721932785579,2.31711947783951,2.3172592678623,2.31774853294209,2.3182477830235,2.31923629818469,2.3204444833817,2.32132316352498,2.32176250359662,2.32262121373665,2.32332016385062,2.32437857402321,2.3247280490802,2.32519734415672,2.3251174641437,2.32554681921371,2.32578645925279,2.32643548435862,2.328412514681,2.27920642665724,2.27845755153513,2.27806813647163,2.27653044622089,2.27600124113459,2.27607113614599,2.27610109115087,2.27621092616879,2.27603119613948,2.27602121113785,2.27634073118995,2.27589140611668,2.27642061120298,2.27635071619158,2.27680004126485,2.27774861641953,2.2779882564586,2.27793833145046,2.27855740155141,2.27895680161654,2.27987542176633,2.27932624667678,2.27965575173051,2.28066423689496,2.28183248208546,2.28233173216687,2.28391934742575,2.28593631775465,2.28805313809983,2.34141298680092,2.34279091702561,2.34374947718191,2.34595616254174,2.34869205298787,2.34853229296182,2.34791322286087,2.34768356782342,2.3463655476085,2.34614587757268,2.34498761738381,2.34504752739358,2.34461817232357,2.34481787235613,2.34543694245708,2.34586629752709,2.34576644751081,2.345976132545,2.3459062375336,2.34647538262641,2.34801307287715,2.34729415275992,2.34641547261664,2.34696464770619,2.34725421275341,2.34602605755314,2.34800308787552,2.34840248794065,2.29111853359968,2.28884195322845,2.28793331808029,2.2871944279598,2.28667520787514,2.28993031840593,2.28568669271394,2.2857765577286,2.28565673770906,2.28566672271069,2.28560681270092,2.28552693268789,2.28707460794026,2.28547700767975,2.28510756261951,2.28541709766998,2.28501769760486,2.28533721765696,2.28552693268789,2.28522738263905,2.28547700767975,2.28571664771883,2.28628579281164,2.28579652773185,2.2860960777807,2.28630576281489,2.28614600278884,2.2877236330461,2.28701469793049,2.28735418798585,2.28832273314379,2.2879732580868,2.28993031840593,2.28878204321869,2.28963076835708,2.28950096333592,2.28980051338476,2.2903796434792,2.2914080986469,2.29145802365504,2.29111853359968,2.29273610386345,2.29262626884554,2.29392431905721,2.2949827292298,2.29840758478827,2.30043454011879,2.36288074030154,2.359645599774,2.36193216514686,2.36169252510778,2.36175243511755,2.36216182018431,2.36254125024618,2.36323021535853,2.36289072530317,2.36334005037644,2.36289072530317,2.36267105526735,2.36311039533899,2.36375942044482,2.36323021535853,2.36410889550181,2.3662656558535,2.36515732067277,2.36692466596096,2.36609591082582,2.36943090136964,2.36972046641685,2.37154772171481,2.37366454205999,2.37931605298155,2.37778834773244,2.38004495810041
2.24781358153819,2.24978062685895,2.24973070185081,2.25030983194524,2.25120848209178,2.2525963973181,2.25398431254442,2.25536224276911,2.25598131287006,2.25856742829176,2.26225189389256,2.26380955414656,2.31687983780043,2.31716940284765,2.3170096428216,2.31774853294209,2.31777848794697,2.31654034774507,2.31782841295511,2.31619087268809,2.31549192257411,2.31570160760831,2.31563171259691,2.31508253750736,2.31569162260668,2.31540205755946,2.31514244751713,2.31556181758551,2.31618088768646,2.31692976280857,2.31718937285091,2.31780844295186,2.31956580323842,2.3208338984452,2.32072406342729,2.32185236861128,2.3222517686764,2.32307053880992,2.32385935393854,2.32437857402321,2.32489779410788,2.32466813907043,2.32713443447259,2.32427872400693,2.32886183975427,2.28315050230038,2.27874711658235,2.27648052121275,2.27602121113785,2.275721661089,2.27509260598643,2.275721661089,2.27644058120623,2.27581152610366,2.27561182607109,2.275721661089,2.27595131612645,2.27656040122577,2.27707962131044,2.27716948632509,2.2773492163544,2.27715950132346,2.27772864641627,2.27848750654001,2.27911656164259,2.27956588671586,2.27916648665073,2.28044456685914,2.28160282704801,2.28203218211802,2.2834400673476,2.28537715766347,2.28617595779373,2.28900171325451,2.34445841229752,2.34165262683999,2.34353979214772,2.34396914721773,2.34451832230728,2.34561667248639,2.34602605755314,2.34449835230403,2.34492770737404,2.34454827731217,2.3425412919849,2.34318033208911,2.34371952217703,2.34483784235939,2.34476794734799,2.34561667248639,2.34451832230728,2.34462815732519,2.34482785735776,2.34587628252872,2.34574647750755,2.3459062375336,2.34564662749127,2.34525721242777,2.34541697245382,2.34835256293251,2.34520728741963,2.34513739240823,2.28961079835383,2.28814300311448,2.28674510288653,2.28654540285397,2.28571664771883,2.28555688769278,2.28546702267812,2.28566672271069,2.2857066627172,2.28638564282792,2.28489787758532,2.28480801257066,2.28500771260323,2.28480801257066,2.28556687269441,2.28510756261951,2.28476807256415,2.2849278325902,2.28534720265859,2.28476807256415,2.28505763761137,2.28529727765045,2.28572663272046,2.28686492290607,2.28578654273023,2.28683496790119,2.28635568782303,2.28598624276279,2.28659532786211,2.28808309310471,2.28818294312099,2.28800321309169,2.28760381302656,2.28802318309494,2.28864225319589,2.29005013842547,2.28986042339453,2.29055937350851,2.29090884856549,2.29079901354758,2.29150794866318,2.29227679378856,2.29168767869249,2.29427379411419,2.29426380911257,2.29642056946426,2.35899657466817,2.35750880942557,2.3602446998717,2.35986526980982,2.36036451989123,2.36141294506219,2.36131309504591,2.36140296006057,2.36189222514035,2.36254125024618,2.36214185018105,2.36165258510127,2.36167255510453,2.36162263009639,2.3623715052185,2.36228164020385,2.36288074030154,2.36342991539109,2.3643884755474,2.36459816058159,2.36707444098538,2.36952076638429,2.36954073638755,2.37249629686949,2.37387422709419,2.37598106243773,2.37902648793433,2.37705944261358
2.24778362653331,2.24839271163263,2.24927139177591,2.24992041688174,2.25134827211457,2.25237672728228,2.2540142675493,2.25505270771863,2.25810811821686,2.25870721831456,2.26204220885837,2.31179747197168,2.31417390235919,2.314743047452,2.31647045273368,2.31755881791115,2.31694973281183,2.31633066271088,2.31536211755295,2.31523231253178,2.31465318243735,2.31459327242758,2.31449342241129,2.31527225253829,2.31381444230058,2.31430370738036,2.31409402234617,2.31454334741944,2.31497270248945,2.3158413976311,2.31680994278904,2.31781842795348,2.31848742306257,2.31924628318632,2.32088382345334,2.32189230861779,2.32192226362267,2.32252136372037,2.32256130372688,2.32372954891738,2.32420882899553,2.32409899397762,2.32233164868943,2.32605605429675,2.32517737415347,2.27804816646837,2.27644058120623,2.27613104615576,2.27680004126485,2.27542211104016,2.27568172108249,2.27534223102713,2.27549200605156,2.27577158609714,2.27570169108575,2.27609110614925,2.2758614511118,2.27626085117693,2.27730927634789,2.27718945632835,2.27736918635766,2.27724936633812,2.27803818146675,2.27822789649768,2.27835770151885,2.2791565016491,2.28019494181844,2.28052444687217,2.28178255707732,2.28268120722386,2.28387940741924,2.2857066627172,2.33925622644922,2.33960570150621,2.34078393169834,2.3413730467944,2.34422875726007,2.34421877225844,2.34483784235939,2.33960570150621,2.33799811624407,2.34242147196536,2.34193220688558,2.34389925220634,2.34233160695071,2.34188228187744,2.34283085703212,2.34316036208585,2.34315037708422,2.34360968715912,2.34400908722425,2.343639642164,2.3441688472503,2.34496764738055,2.34493769237567,2.34440848728937,2.34429865227146,2.34539700245057,2.34501757238869,2.34486779736427,2.34525721242777,2.34429865227146,2.28920141328707,2.28747400800539,2.28650546284746,2.28645553783932,2.2862358678035,2.28578654273023,2.28511754762114,2.28511754762114,2.28477805756578,2.28539712766673,2.28490786258695,2.28507760761462,2.28401919744204,2.2844685225153,2.28473811755927,2.28465823754624,2.2840791074518,2.28472813255764,2.28458834253484,2.28535718766021,2.28463826754298,2.28519742763416,2.28530726265207,2.28540711266836,2.28617595779373,2.28568669271394,2.28565673770906,2.2864854928442,2.28780351305912,2.28684495290282,2.28718444295817,2.28818294312099,2.28769367804121,2.28766372303633,2.28905163826265,2.28964075335871,2.28972063337174,2.28993031840593,2.28948099333266,2.29366470901487,2.29138812864365,2.29229676379181,2.29258632883903,2.29433370412396,2.29378452903441,2.29525232427376,2.36011489485053,2.35858718960141,2.35784829948093,2.35866706961444,2.35966556977726,2.36092367998241,2.35990520981634,2.3606341149352,2.36078388995962,2.36117330502312,2.36106347000521,2.36041444489937,2.36035453488961,2.36150281007685,2.36174245011592,2.36316032034713,2.36177240512081,2.36273096527712,2.36583630078349,2.36567654075743,2.36849231121659,2.36733405102772,2.36792316612378,2.37077887658944,2.37138796168876,2.37570148239214,2.37627062748495,2.37718924763475
2.24735427146329,2.24810314658541,2.24986050687197,2.25017004192245,2.25143813712923,2.25226689226437,2.25410413256396,2.25548206278865,2.25739918310126,2.25963582346598,2.26163282379162,2.31423381236896,2.31354484725662,2.31427375237547,2.31572157761156,2.31708952283463,2.31535213255132,2.31519237252527,2.31432367738361,2.31381444230058,2.31347495224522,2.31402412733477,2.31356481725987,2.31273606212473,2.31308553718172,2.31309552218335,2.3135049072501,2.31376451729244,2.31418388736082,2.31560175759202,2.31594124764738,2.31698967281834,2.31797818797954,2.3189567181391,2.31993524829866,2.32048442338821,2.32217188866338,2.32218187366501,2.32096370346637,2.32375950392226,2.3231703888262,2.32328022384411,2.32369959391249,2.32082391344357,2.3222517686764,2.27678007126159,2.27694981628927,2.27545206604504,2.2759313461232,2.27548202104993,2.27553194605807,2.27526235101411,2.2754021410369,2.27549200605156,2.27561182607109,2.27565176607761,2.27563179607435,2.2761809711639,2.27594133112482,2.2766402812388,2.27818795649117,2.27900672662468,2.27820792649442,2.27816798648791,2.27938615668655,2.27931626167515,2.27990537677122,2.28043458185751,2.28113353197149,2.28323038231341,2.28502768260648,2.2861659727921,2.33746891115778,2.33856726133688,2.34103355673904,2.34136306179277,2.34211193691489,2.3415128368172,2.34157274682697,2.33968558151924,2.33758873117731,2.33889676639061,2.34110345175044,2.34159271683022,2.34029466661856,2.34024474161042,2.34038453163321,2.34113340675533,2.34115337675858,2.34132312178626,2.34017484659902,2.34258123199141,2.34320030209236,2.34351982214446,2.34245142697025,2.34273100701584,2.34334009211516,2.34410893724053,2.34302057206305,2.34426869726658,2.34407898223564,2.28862228319263,2.2883626731503,2.28761379802819,2.28590636274977,2.28561679770255,2.28502768260648,2.28511754762114,2.28456837253159,2.28477805756578,2.28478804256741,2.28491784758857,2.28440861250554,2.28534720265859,2.28366972238505,2.28448849251856,2.28408909245343,2.28387940741924,2.28370966239156,2.28504765260974,2.28455838752996,2.28441859750716,2.28445853751368,2.28498774259997,2.28442858250879,2.28516747262928,2.28488789258369,2.28549697768301,2.28564675270743,2.28576657272697,2.28587640774488,2.28598624276279,2.28603616777093,2.28722438296469,2.28693481791747,2.28729427797608,2.28831274814216,2.28795328808355,2.28803316809657,2.28885193823008,2.28955088834406,2.28977055837988,2.29096875857526,2.29099871358015,2.29306560891718,2.29316545893346,2.29720938459288,2.2949827292298,2.35867705461607,2.35715933436858,2.35791819449233,2.35762862944511,2.36109342501009,2.35927615471376,2.35947585474632,2.35962562977075,2.35935603472679,2.35931609472027,2.35905648467794,2.35949582474958,2.35896661966329,2.35957570476261,2.35918628969911,2.36006496984239,2.36111339501335,2.36104350000195,2.36153276508173,2.36300056032108,2.36432856553763,2.36519726067928,2.36746385604888,2.36918127632893,2.3722866118353,2.37382430208604,2.37559164737423,2.37607092745239
2.24777364153168,2.24846260664402,2.24905172174009,2.25049954697618,2.25129834710643,2.25242665229042,2.25382455251837,2.25559189780656,2.25747906311429,2.25883702333572,2.26175264381116,2.31054934676816,2.31264619711008,2.31399417232988,2.31425378237222,2.31527225253829,2.31392427731849,2.31338508723056,2.31386436730872,2.3128658671459,2.31285588214427,2.31300565716869,2.3124764520824,2.31244649707751,2.31360475726638,2.31213696202704,2.31253636209217,2.31334514722405,2.31349492224847,2.31564169759854,2.31511249251224,2.3162308126946,2.3172592678623,2.31744898289324,2.3190266131505,2.32059425840612,2.32062421341101,2.31999515830843,2.32258127373013,2.32180244360314,2.32156280356406,2.32290079378224,2.32471806407857,2.3239492189532,2.27886693660189,2.27757887139185,2.27567173608086,2.27542211104016,2.27530229102062,2.27478307093595,2.27481302594084,2.274942830962,2.27498277096852,2.27558187106621,2.27560184106947,2.275721661089,2.27600124113459,2.27580154110203,2.27592136112157,2.27717947132672,2.27818795649117,2.27722939633486,2.27772864641627,2.27861731156118,2.27885695160026,2.27943608169469,2.28037467184774,2.28132324700242,2.28246153718804,2.28296078726945,2.28604615277256,2.33637056097868,2.33744894115452,2.33765862618871,2.33813790626687,2.3394958664883,2.33962567150947,2.34056426166252,2.34048438164949,2.33912642142806,2.33815787627012,2.34118333176347,2.33872702136293,2.33813790626687,2.3387869313727,2.34136306179277,2.33964564151272,2.34089376671625,2.3402746966153,2.34063415667392,2.34147289681068,2.34111343675207,2.34150285181557,2.34251133698002,2.34189226687907,2.34174249185465,2.34258123199141,2.33953580649481,2.33827769628966,2.33994519156157,2.28979052838313,2.28808309310471,2.28715448795329,2.28626582280838,2.28773361804773,2.28427880748437,2.28488789258369,2.28465823754624,2.28489787758532,2.28452843252507,2.28355988736714,2.28373961739645,2.28403916744529,2.28400921244041,2.28410906245669,2.28385943741598,2.28395928743227,2.2836896923883,2.28342009734434,2.28386942241761,2.283509962359,2.285067622613,2.28424885247948,2.28436867249902,2.28459832753647,2.2842188974746,2.28425883748111,2.28510756261951,2.28480801257066,2.28553691768952,2.28620591279861,2.28592633275302,2.28636567282466,2.28688489290933,2.28686492290607,2.28739412799237,2.28769367804121,2.28794330308192,2.28830276314053,2.2888219832252,2.28932123330661,2.28982048338802,2.29079901354758,2.29182746871529,2.29210704876088,2.2928958638895,2.29383445404255,2.29567169434214,2.36174245011592,2.35528215406248,2.35708943935719,2.3563505492367,2.35685978431974,2.35824769954606,2.35833756456071,2.35842742957536,2.35839747457048,2.35736901940277,2.35846736958188,2.35863711460956,2.35903651467468,2.35821774454117,2.35839747457048,2.35912637968934,2.35904649967631,2.35948583974795,2.35983531480494,2.36178239012244,2.36306047033085,2.36471798060113,2.36916130632568,2.36888172628009,2.36915132132405,2.37400403211535,2.37418376214466,2.37445335718862
2.24756395649749,2.24801328157076,2.24920149676451,2.24999031189314,2.25152800214388,2.25262635232298,2.2540841625607,2.25572170282772,2.25807816321198,2.26077411365159,2.26211210386977,2.31216691703192,2.31261624210519,2.31359477226476,2.31297570216381,2.3133251772208,2.31296571716218,2.31313546218986,2.312406557071,2.31243651207589,2.31191729199122,2.31141804190981,2.31145798191632,2.31058928677467,2.31080895681049,2.31103861184794,2.31179747197168,2.3127959721345,2.31267615211496,2.31369462228104,2.31411399234942,2.31490280747805,2.31604109766366,2.31729920786882,2.31829770803164,2.31924628318632,2.31985536828564,2.32058427340449,2.32121332850707,2.3214729385494,2.32081392844194,2.32220184366826,2.32499764412416,2.2792263966605,2.2775988413951,2.276500491216,2.27558187106621,2.27527233601573,2.27440364087408,2.27545206604504,2.27428382085454,2.27448352088711,2.27454343089688,2.27488292095224,2.27559185606784,2.27527233601573,2.2768200112681,2.2762508661753,2.27573164609063,2.276500491216,2.27728930634463,2.27828780650745,2.27762879639999,2.27874711658235,2.27864726656607,2.27937617168492,2.28107362196172,2.28112354696986,2.28397925743552,2.28456837253159,2.28717445795655,2.3356716108647,2.33608099593146,2.3379382062343,2.33902657141178,2.34157274682697,2.33932612146062,2.3371593761073,2.33802807124896,2.33721928611707,2.3369097510666,2.33673002103729,2.3372292711187,2.33655029100798,2.33624075595751,2.33664015602264,2.33705952609102,2.33815787627012,2.33812792126524,2.33931613645899,2.33934609146388,2.33992522155831,2.34033460662507,2.34074399169183,2.34101358673579,2.34036456162995,2.34008498158436,2.33891673639387,2.34088378171462,2.3390365564134,2.2883626731503,2.28707460794026,2.28696477292235,2.2854570376765,2.28580651273348,2.28496777259671,2.28416897246646,2.28333023232969,2.28386942241761,2.28354990236551,2.28413901746157,2.28334021733132,2.2833701723362,2.283509962359,2.28373961739645,2.28380951240784,2.28342009734434,2.28320042730852,2.28380951240784,2.28339014233946,2.28292084726293,2.28339014233946,2.28361979737691,2.28362978237854,2.28348000735411,2.28313053229713,2.28400921244041,2.28463826754298,2.28434870249577,2.28544705267487,2.28511754762114,2.28559682769929,2.28586642274325,2.28604615277256,2.28606612277582,2.28722438296469,2.28735418798585,2.28766372303633,2.28814300311448,2.28822288312751,2.28958084334894,2.29007010842872,2.29016995844501,2.2903097484678,2.2923267187967,2.29269616385694,2.29350494898882,2.29392431905721,2.35891669465515,2.35725918438486,2.35552179410156,2.35613087920088,2.35689972432625,2.35718928937347,2.35723921438161,2.35882682964049,2.3579082094907,2.35727915438812,2.35702952934742,2.35726916938649,2.35709942435881,2.35780835947442,2.3576985244565,2.35706946935393,2.35797810450209,2.35881684463886,2.35882682964049,2.36225168519896,2.36338997538458,2.36369951043505,2.36537699070859,2.37014982148687,2.36831258118728,2.37120823165946,2.37282580192322,2.37550178235958
2.24686500638351,2.24816305659518,2.24887199171078,2.25023993693384,2.25165780716505,2.25243663729205,2.25464332265188,2.25597132786843,2.25827786324454,2.26066427863368,2.26321045404887,2.31107855185445,2.31307555218009,2.31197720200099,2.31313546218986,2.31347495224522,2.31206706701564,2.31212697702541,2.31112847686259,2.31127825188701,2.31034964673559,2.31031969173071,2.31006008168837,2.30993027666721,2.31006008168837,2.31028973672582,2.31055933176978,2.31089882182514,2.31185738198145,2.31324529720777,2.31371459228429,2.31433366238524,2.31590130764087,2.31696970281509,2.3177884729486,2.31782841295511,2.31892676313421,2.31944598321888,2.32001512831169,2.32028472335565,2.3207640034338,2.32068412342078,2.32096370346637,2.27696978629253,2.27612106115413,2.27563179607435,2.27439365587245,2.2739842708057,2.27460334090665,2.2745534158985,2.27441362587571,2.27433374586268,2.27417398583663,2.27492286095875,2.27532226102388,2.27525236601248,2.27596130112808,2.27662031123554,2.27605116614273,2.2761110761525,2.27681002626648,2.27784846643581,2.27847752153839,2.2785174615449,2.27970567673865,2.27964576672888,2.28051446187054,2.28386942241761,2.28377955740296,2.28525733764393,2.33479293072142,2.33516237578166,2.33580141588587,2.33622078595425,2.33763865618546,2.33812792126524,2.33777844620825,2.34036456162995,2.33647041099496,2.33655029100798,2.33507251076701,2.33616087594448,2.33460321569048,2.3348228857263,2.33486282573282,2.33527221079957,2.33584135589238,2.33725922612358,2.33724924112196,2.33776846120662,2.33781838621476,2.33829766629292,2.33936606146713,2.3384674113206,2.3402048016039,2.33927619645248,2.33972552152575,2.33921628644271,2.3384674113206,2.33823775628315,2.28764375303307,2.2862358678035,2.28603616777093,2.28517745763091,2.28456837253159,2.28478804256741,2.28474810256089,2.2838993774225,2.28430876248925,2.28358984237202,2.2835798573704,2.28370966239156,2.28345005234923,2.28400921244041,2.28313053229713,2.28296078726945,2.28352993236225,2.28301071227759,2.28262129721409,2.28380951240784,2.282731132232,2.28323038231341,2.28345005234923,2.28323038231341,2.28416897246646,2.28351994736063,2.2848579375788,2.2840791074518,2.28471814755601,2.28650546284746,2.28498774259997,2.28587640774488,2.28613601778721,2.28727430797283,2.28567670771232,2.28755388801842,2.28749397800865,2.2879732580868,2.28734420298423,2.28810306310797,2.29006012342709,2.28979052838313,2.29293580389602,2.29028977846454,2.2919373037332,2.29148797865993,2.2934250689758,2.29417394409791,2.35474296397456,2.35659018927577,2.35360467378894,2.35508245402992,2.35439348891757,2.35617081920739,2.35656023427089,2.35665009928554,2.35563162911947,2.35578140414389,2.35623072921716,2.35598110417645,2.35674994930183,2.35638050424158,2.35578140414389,2.35661015927903,2.35748883942231,2.35763861444674,2.35927615471376,2.36118329002475,2.36026466987495,2.36339996038621,2.36519726067928,2.36684478594793,2.36787324111564,2.36965057140546,2.3714378866969,2.37262610189066
2.24795337156099,2.24794338655936,2.24932131678405,2.25005022190291,2.2514281521276,2.25326539242719,2.25474317266816,2.25641066794007,2.25864730830479,2.26178259881604,2.26420895421169,2.31083891181537,2.31167765195214,2.31241654207263,2.31228673705146,2.31204709701239,2.31085888181863,2.31095873183491,2.3105293767649,2.31189732198796,2.31009003669326,2.31076901680398,2.30997021667372,2.30959078661185,2.30962074161673,2.30952089160045,2.30998020167535,2.31053936176653,2.31106856685282,2.31198718700262,2.31297570216381,2.31379447229732,2.31502262749759,2.31572157761156,2.31734913287696,2.31743899789161,2.31823779802187,2.31906655315701,2.31969560825958,2.32026475335239,2.32067413841915,2.31756880291278,2.31974553326773,2.27797827145698,2.27694981628927,2.27458337090339,2.27465326591479,2.27458337090339,2.27471317592456,2.27316550067219,2.27387443578779,2.27371467576174,2.27561182607109,2.27477308593432,2.27512256099131,2.27549200605156,2.27552196105644,2.27615101615902,2.27698975629578,2.27659035623066,2.27730927634789,2.277279321343,2.27771866141464,2.27895680161654,2.27928630667027,2.28060432688519,2.28121341198451,2.28263128221572,2.28406912245018,2.28640561283117,2.33584135589238,2.33492273574259,2.33584135589238,2.33575149087773,2.33651035100147,2.3356017158533,2.33664015602264,2.33426372563513,2.33444345566443,2.3344334706628,2.33381440056186,2.33460321569048,2.33463317069537,2.33399413059116,2.33362468553092,2.33415389061722,2.33448339567095,2.33647041099496,2.33699961608125,2.33675997604217,2.33738903114475,2.33783835621802,2.3380779962571,2.33813790626687,2.33858723134013,2.33849736632548,2.33925622644922,2.34135307679115,2.33448339567095,2.28905163826265,2.28798324308843,2.28560681270092,2.28588639274651,2.28401919744204,2.2837595873997,2.28424885247948,2.28371964739319,2.28342009734434,2.28326033731829,2.2829807572727,2.2831904423069,2.28436867249902,2.28313053229713,2.28323038231341,2.28283098224828,2.28311056229387,2.28299074227433,2.28278105724014,2.28299074227433,2.28308060728898,2.28256138720432,2.28309059229061,2.282731132232,2.28331026232643,2.28279104224177,2.28335020233295,2.28536717266184,2.28345005234923,2.28365973738342,2.28378954240459,2.28396927243389,2.285067622613,2.28510756261951,2.2856367677058,2.28596627275953,2.28614600278884,2.2860960777807,2.28683496790119,2.28695478792073,2.28746402300376,2.2882927781389,2.2886821932024,2.28902168325776,2.28963076835708,2.2914779936583,2.29234668879995,2.2938144840393,2.2982777797671,2.35601105918134,2.35515234904131,2.35494266400712,2.35445339892734,2.35519228904783,2.35513237903806,2.35527216906085,2.35562164411784,2.35584131415366,2.35551180909993,2.35530212406574,2.35584131415366,2.35566158412435,2.35495264900875,2.35509243903154,2.35506248402666,2.3566001742774,2.35690970932788,2.35736901940277,2.35947585474632,2.36257120525107,2.36174245011592,2.36328014036667,2.36561663074767,2.36695462096584,2.36953075138592,2.3711882616562,2.37213683681088
2.24750404648772,2.24815307159355,2.24830284661797,2.24943115180196,2.25223693725948,2.2528460223588,2.25470323266165,2.25581156784238,2.25973567348226,2.26202223885512,2.30946098159068,2.31046946675513,2.310848896817,2.31168763695377,2.31132817689516,2.31227675204983,2.30995024667046,2.31030970672908,2.30963072661836,2.3098204416493,2.31030970672908,2.31070910679421,2.30867216646206,2.30855234644252,2.309291236563,2.30951090659882,2.30970062162976,2.31006008168837,2.31068913679095,2.31157780193586,2.31283591214101,2.31335513222568,2.31473306245037,2.31650040773856,2.3169397478102,2.31755881791115,2.31759875791766,2.31811797800233,2.31871707810002,2.31837758804466,2.31753884790789,2.31735911787859,2.31648043773531,2.27823788149931,2.27561182607109,2.27450349089036,2.27413404583012,2.27427383585291,2.27440364087408,2.27380454077639,2.2739143757943,2.27420394084152,2.27493284596038,2.27457338590176,2.27512256099131,2.27570169108575,2.27567173608086,2.27603119613948,2.27767872140813,2.27767872140813,2.27723938133649,2.27852744654653,2.27765875140487,2.27870717657583,2.27946603669958,2.28051446187054,2.2822718221571,2.28379952740622,2.28373961739645,2.33362468553092,2.33398414558954,2.33390426557651,2.33428369563838,2.33458324568723,2.334643155697,2.33374450555046,2.33365464053581,2.33326522547231,2.33266612537461,2.33249638034693,2.33330516547882,2.3325562903567,2.33231665031763,2.3323765603274,2.33273602038601,2.33253632035345,2.33331515048045,2.33415389061722,2.33530216580446,2.33540201582074,2.33663017102101,2.33764864118708,2.33733910613661,2.33748888116103,2.33763865618546,2.33815787627012,2.33749886616266,2.33923625644597,2.33499263075398,2.28773361804773,2.28689487791096,2.28568669271394,2.28488789258369,2.28427880748437,2.28400921244041,2.28333023232969,2.2831205472955,2.28384945241436,2.28303068228084,2.28387940741924,2.28286093725316,2.28378954240459,2.28218195714245,2.28353991736388,2.28277107223851,2.28268120722386,2.28250147719455,2.28218195714245,2.28285095225154,2.28278105724014,2.28279104224177,2.28295080226782,2.28253143219943,2.28282099724665,2.2830506522841,2.28274111723363,2.28360981237528,2.28325035231666,2.28441859750716,2.2837595873997,2.28432873249251,2.28489787758532,2.28455838752996,2.28504765260974,2.28449847752019,2.2864155978328,2.28640561283117,2.28679502789467,2.28705463793701,2.28728429297446,2.28793331808029,2.28877205821706,2.28848249316984,2.28941109832126,2.29168767869249,2.29400419907023,2.29281598387648,2.29476305919398,2.3544034739192,2.35650032426112,2.35452329393874,2.35388425383453,2.3544733689306,2.35497261901201,2.35480287398433,2.35501255901852,2.3544733689306,2.35624071421879,2.35439348891757,2.35445339892734,2.35549183909667,2.35397411884919,2.35535204907388,2.35513237903806,2.35562164411784,2.35604101418622,2.35648035425786,2.35780835947442,2.35881684463886,2.36339996038621,2.36370949543668,2.36460814558322,2.36713435099515,2.36827264118077,2.36976040642337,2.37013983648524
2.24757394149911,2.24816305659518,2.24881208170101,2.2510387370641,2.25164782216342,2.25326539242719,2.25531231776097,2.2577686281615,2.25867726330967,2.31005009668675,2.30729423623736,2.30960077161348,2.31043951175025,2.31088883682352,2.31069912179258,2.3101399617014,2.3089717165109,2.30861225645229,2.30876203147671,2.30878200147997,2.30793327634157,2.30719438622108,2.30760377128784,2.30735414624713,2.30844251142461,2.30910152153207,2.30994026166884,2.31031969173071,2.31021984171443,2.31106856685282,2.31235663206286,2.31319537219963,2.31407405234291,2.31569162260668,2.31651039274019,2.3172592678623,2.3169397478102,2.3182477830235,2.31867713809351,2.31836760304303,2.31922631318306,2.32142301354126,2.31556181758551,2.27706963630881,2.27539215603527,2.27400424080895,2.27375461576825,2.27361482574545,2.27339515570963,2.27390439079267,2.27325536568684,2.27382451077965,2.27411407582686,2.27450349089036,2.27472316092618,2.27485296594735,2.2753322460255,2.27590139111831,2.27678007126159,2.27736918635766,2.27712954631858,2.27902669662794,2.27846753653676,2.27869719157421,2.27939614168818,2.28196228710663,2.28198225710988,2.2840791074518,2.33199713026552,2.33283587040229,2.33313542045114,2.33317536045765,2.33844744131734,2.33281590039904,2.333085495443,2.33264615537136,2.33254630535508,2.3314579401776,2.3317774602297,2.33149788018411,2.33102858510759,2.33093872009294,2.33070906505549,2.33104855511085,2.33134810515969,2.33141800017109,2.33253632035345,2.33295569042183,2.33376447555372,2.33485284073119,2.33515239078003,2.33597116091355,2.33622078595425,2.336200815951,2.33588129589889,2.33614090594123,2.33742897115126,2.3350325707605,2.2884325681617,2.2864854928442,2.28583646773837,2.28560681270092,2.28374960239807,2.28376957240133,2.28318045730527,2.28314051729875,2.28281101224502,2.2838993774225,2.2836896923883,2.28291086226131,2.2825913422092,2.28295080226782,2.28284096724991,2.28270117722711,2.28252144719781,2.28237167217338,2.2825913422092,2.2824116121799,2.28307062228736,2.28238165717501,2.28284096724991,2.28258135720758,2.28185245208872,2.28270117722711,2.28284096724991,2.28248150719129,2.283509962359,2.28294081726619,2.28309059229061,2.28400921244041,2.2844685225153,2.28450846252182,2.28481799757229,2.28569667771557,2.28482798257392,2.28539712766673,2.28575658772534,2.28607610777744,2.28617595779373,2.28672513288328,2.28686492290607,2.29088887856224,2.29243655381461,2.28925133829521,2.29098872857852,2.29158782867621,2.29291583389276,2.29472311918746,2.35029963825001,2.35533207907062,2.35580137414715,2.35454326394199,2.35347486876778,2.35505249902503,2.35435354891106,2.35402404385733,2.35367456880034,2.352985603688,2.35407396886547,2.35391420883942,2.35799807450535,2.35299558868962,2.3546530989599,2.35439348891757,2.35419378888501,2.35519228904783,2.35561165911621,2.35659018927577,2.35875693462909,2.35941594473656,2.36233156521199,2.36721423100818,2.366655070917,2.36703450097887,2.36882181627032,2.37115830665132
2.24745412147958,2.24816305659518,2.24914158675474,2.25060938199409,2.25183753719435,2.2533752274451,2.25510263272678,2.25717951306544,2.25837771326082,2.30898170151253,2.30880197148322,2.31014994670303,2.31008005169163,2.31040955674536,2.30964071161999,2.30909153653044,2.30775354631226,2.30782344132366,2.30714446121294,2.30673507614619,2.30687486616898,2.30694476118038,2.30776353131389,2.30682494116084,2.30726428123248,2.30730422123899,2.30840257141809,2.30901165651741,2.30988035165907,2.31064919678444,2.3120171420075,2.31317540219637,2.31381444230058,2.31493276248294,2.31488283747479,2.31548193757249,2.31536211755295,2.31658028775159,2.31728922286719,2.31714943284439,2.31763869792418,2.31789830796651,2.27680004126485,2.27541212603853,2.27597128612971,2.27365476575197,2.27314553066893,2.27404418081547,2.27312556066567,2.27380454077639,2.27374463076662,2.27377458577151,2.27341512571289,2.27467323591804,2.27483299594409,2.27511257598968,2.27538217103364,2.27590139111831,2.27573164609063,2.27633074618832,2.2768200112681,2.27917647165236,2.27833773151559,2.27910657664096,2.28056438687868,2.28171266206592,2.28362978237854,2.32801311461587,2.33813790626687,2.3315977302004,2.33305554043811,2.33321530046416,2.33352483551464,2.33318534545928,2.33155779019388,2.33156777519551,2.33079893007014,2.33008000995291,2.32962069987801,2.32851236469728,2.3287320347331,2.32920132980963,2.3293311348308,2.32989029492198,2.33009997995617,2.33082888507503,2.33130816515318,2.33167761021342,2.33337506049022,2.33364465553418,2.33423377063024,2.33439353065629,2.33507251076701,2.33610096593471,2.33472303571002,2.33474300571328,2.33469308070514,2.28877205821706,2.28754390301679,2.28640561283117,2.28575658772534,2.28497775759834,2.28468819255112,2.2835798573704,2.28267122222223,2.28313053229713,2.28603616777093,2.28272114723037,2.28264126721734,2.28289089225805,2.28275110223525,2.28271116222874,2.2823417171685,2.28268120722386,2.28292084726293,2.28270117722711,2.28324036731504,2.28138315701219,2.28236168717175,2.28219194214408,2.28203218211802,2.28201221211477,2.28226183715547,2.28213203213431,2.28236168717175,2.28308060728898,2.28295080226782,2.28249149219292,2.28283098224828,2.28396927243389,2.28398924243715,2.28387940741924,2.28399922743878,2.28400921244041,2.28434870249577,2.2853172476537,2.28593631775465,2.28562678270418,2.28629577781326,2.28667520787514,2.28683496790119,2.28736417298748,2.28870216320566,2.2892812933001,2.29284593888136,2.29245652381786,2.29203715374948,2.29932620493806,2.35043942827281,2.35094866335584,2.35300557369125,2.35209693854309,2.35386428383128,2.35349483877103,2.35349483877103,2.35357471878406,2.35305549869939,2.35219678855937,2.35244641360007,2.35178740349261,2.35297561868637,2.35256623361961,2.35230662357728,2.35377441881662,2.35426368389641,2.35366458379871,2.35719927437509,2.35767855445325,2.35791819449233,2.36057420492543,2.36345987039598,2.36402901548878,2.36645537088443,2.36715432099841,2.36742391604237,2.37056919155525
2.24745412147958,2.24816305659518,2.24926140677428,2.25083903703154,2.25228686226762,2.25379459751348,2.25544212278213,2.25754895812568,2.25996532851971,2.30739408625365,2.30857231644577,2.30928125156138,2.30948095159394,2.30916143154184,2.30806308136273,2.30719438622108,2.30726428123248,2.30707456620154,2.3074140562569,2.30720437122271,2.30590632101104,2.30591630601267,2.30600617102733,2.30652539111199,2.30667516613642,2.30682494116084,2.30745399626341,2.30836263141158,2.30927126655975,2.31087885182189,2.31197720200099,2.31136811690167,2.31103861184794,2.31378448729569,2.31376451729244,2.31470310744549,2.31539207255783,2.31650040773856,2.31698967281834,2.31730919287045,2.31768862293232,2.27716948632509,2.27592136112157,2.27402421081221,2.27514253099457,2.27342511071452,2.27329530569335,2.27299575564451,2.27305566565428,2.2739842708057,2.2742338958464,2.27403419581384,2.27429380585617,2.27433374586268,2.2747631009327,2.27503269597666,2.27550199105318,2.27609110614925,2.27575161609389,2.27633074618832,2.27666025124205,2.27770867641301,2.27845755153513,2.27932624667678,2.28049449186728,2.28236168717175,2.28340012734109,2.33486282573282,2.33527221079957,2.33116837513038,2.33363467053255,2.33369458054232,2.33382438556349,2.33307551044137,2.3306791100506,2.3300400699464,2.32875200473636,2.3293311348308,2.3283426196696,2.32792324960122,2.32828270965984,2.32796318960773,2.3280230996175,2.32831266466472,2.32929119482428,2.32948090985522,2.33032963499362,2.33200711526715,2.33238654532902,2.3330156004316,2.33412393561233,2.3345732606856,2.33455329068234,2.33446342566769,2.33344495550161,2.3348228857263,2.33506252576538,2.3345033656742,2.28646552284094,2.28580651273348,2.2854570376765,2.28435868749739,2.2836896923883,2.28310057729224,2.28287092225479,2.28356987236877,2.28348000735411,2.28279104224177,2.28240162717827,2.28257137220595,2.28336018733457,2.28226183715547,2.28216198713919,2.28237167217338,2.28269119222549,2.28279104224177,2.28336018733457,2.28229179216036,2.2820221971164,2.28175260207243,2.28198225710988,2.28218195714245,2.28247152218966,2.28248150719129,2.28232174716524,2.28251146219618,2.2826612372206,2.28274111723363,2.28365973738342,2.28379952740622,2.28323038231341,2.28507760761462,2.28497775759834,2.28438864250228,2.28503766760811,2.28457835753321,2.28549697768301,2.28679502789467,2.28601619776768,2.28665523787188,2.28792333307866,2.28844255316333,2.28912153327404,2.2892812933001,2.28987040839616,2.29068917852967,2.29332521895952,2.35001007320279,2.35115834839004,2.35004002820768,2.35217681855611,2.35196713352192,2.35280587365869,2.35302554369451,2.35231660857891,2.35195714852029,2.35261615862775,2.35207696853983,2.35165759847145,2.35161765846493,2.35138800342748,2.3516775684747,2.35240647359356,2.35288575367171,2.35422374388989,2.35429363890129,2.35612089419925,2.35653027926601,2.3574488994158,2.35903651467468,2.36041444489937,2.36249132523804,2.36561663074767,2.36595612080302,2.36703450097887,2.36920124633219
2.24700479640631,2.24827289161309,2.24953100181824,2.25055945698595,2.25201726722366,2.25307567739625,2.25556194280167,2.25894685835363,2.26165279379487,2.30633567608106,2.3074839512683,2.30809303636762,2.30917141654347,2.30879198648159,2.30713447621131,2.3078034713204,2.30727426623411,2.3067051211413,2.30596623102081,2.3055368759508,2.30558680095894,2.30531720591498,2.30548695094266,2.30583642599965,2.30607606603872,2.3067051211413,2.30701465619177,2.30862224145391,2.30954086160371,2.30931120656626,2.31080895681049,2.31142802691144,2.31213696202704,2.3135049072501,2.31486286747154,2.31571159260993,2.31661024275647,2.31645048273042,2.31699965781997,2.31874703310491,2.3169397478102,2.31453336241781,2.27573164609063,2.27429380585617,2.27407413582035,2.27270619059729,2.27314553066893,2.27368472075685,2.27337518570638,2.27338517070801,2.27392436079593,2.27348502072429,2.27400424080895,2.27411407582686,2.27512256099131,2.27514253099457,2.27566175107923,2.27575161609389,2.27583149610691,2.27671017625019,2.27771866141464,2.27799824146023,2.27872714657909,2.27969569173703,2.28125335199102,2.28286093725316,2.33039953000501,2.3241289489825,2.32411896398088,2.33396417558628,2.33405404060093,2.32540702919091,2.33263617036973,2.33055929003106,2.32977047490244,2.32829269466146,2.32901161477869,2.32796318960773,2.32715440447585,2.32696468944491,2.32735410450841,2.32707452446282,2.32752384953609,2.32772354956866,2.3279532046061,2.32857227470705,2.3293311348308,2.33029967998873,2.33182738523785,2.33247641034368,2.33341500049673,2.33321530046416,2.33394420558302,2.33404405559931,2.33406402560256,2.33391425057814,2.33024975498059,2.28774360304935,2.28640561283117,2.28413901746157,2.28474810256089,2.28381949740947,2.28373961739645,2.2840791074518,2.28302069727922,2.28364975238179,2.28271116222874,2.28235170217013,2.28246153718804,2.282731132232,2.28225185215384,2.28239164217664,2.28191236209849,2.28254141720106,2.28253143219943,2.28221191214733,2.28177257207569,2.28175260207243,2.28225185215384,2.28226183715547,2.28169269206267,2.28212204713268,2.28244156718478,2.28222189714896,2.28272114723037,2.28228180715873,2.28215200213756,2.28243158218315,2.28297077227107,2.28339014233946,2.28286093725316,2.28458834253484,2.28465823754624,2.28360981237528,2.28487790758206,2.28466822254787,2.28537715766347,2.28595628775791,2.286625282867,2.2871245329484,2.28676507288979,2.28801319809331,2.28840261315681,2.29011004843524,2.29038962848083,2.29369466401976,2.29214698876739,2.34900158803834,2.3487020379895,2.35040947326792,2.35102854336887,2.35192719351541,2.35327516873521,2.35207696853983,2.35201705853006,2.35214686355123,2.3516775684747,2.35098860336236,2.35194716351866,2.35019978823373,2.35094866335584,2.35101855836724,2.35123822840306,2.35536203407551,2.35230662357728,2.35386428383128,2.35489273899898,2.35548185409505,2.36001504483425,2.35957570476261,2.360424429901,2.36497759064346,2.36514733567114,2.36624568585024,2.36698457597073,2.36861213123612
2.24800329656913,2.24804323657564,2.24968077684266,2.2512883621048,2.25275615734415,2.25474317266816,2.25612110289285,2.25901675336503,2.30556683095569,2.30623582606477,2.30619588605826,2.30799318635134,2.3083326764067,2.30734416124551,2.30753387627644,2.30671510614293,2.3052872509101,2.3056067709622,2.30456833079287,2.30449843578147,2.30455834579124,2.30426878074402,2.30498770086125,2.30565669597034,2.30590632101104,2.30620587105989,2.30707456620154,2.30893177650439,2.30866218146043,2.30964071161999,2.31100865684305,2.31199717200424,2.31308553718172,2.31397420232663,2.31443351240152,2.31564169759854,2.31691977780695,2.31464319743572,2.31252637709054,2.31633066271088,2.31138808690493,2.3120870370189,2.27529230601899,2.27542211104016,2.27344508071777,2.27285596562171,2.27355491573568,2.27230679053216,2.27254643057124,2.27331527569661,2.27303569565102,2.27377458577151,2.27385446578453,2.27368472075685,2.2745534158985,2.27496280096526,2.27561182607109,2.27557188606458,2.27612106115413,2.27633074618832,2.27757887139185,2.27840762652699,2.27906663663445,2.28016498681355,2.2828010272434,2.28390936242413,2.32778345957843,2.32956078986824,2.33079893007014,2.33085884007991,2.33077896006688,2.32578645925279,2.33355479051952,2.32789329459634,2.32805305462239,2.32800312961425,2.32693473444003,2.32578645925279,2.32611596430652,2.32580642925604,2.32641551435536,2.32639554435211,2.32640552935373,2.32674501940909,2.32710447946771,2.32764366955563,2.32849239469403,2.33088879508479,2.33102858510759,2.33167761021342,2.33131815015481,2.33213692028832,2.33280591539741,2.33303557043486,2.33339503049347,2.33359473052604,2.28799322809006,2.28683496790119,2.28622588280187,2.28508759261625,2.28463826754298,2.28341011234272,2.28336018733457,2.28306063728573,2.2830506522841,2.28252144719781,2.28263128221572,2.28240162717827,2.28209209212779,2.28249149219292,2.2826612372206,2.28144306702196,2.281952302105,2.28174261707081,2.28176258707406,2.28206213712291,2.28161281204964,2.28174261707081,2.28173263206918,2.28252144719781,2.28190237709686,2.28080402691776,2.28096378694381,2.28253143219943,2.28306063728573,2.28301071227759,2.28238165717501,2.28253143219943,2.28267122222223,2.28276108723688,2.28345005234923,2.28295080226782,2.2846782075495,2.28468819255112,2.28452843252507,2.28396927243389,2.28558684269766,2.28532723265533,2.28594630275628,2.28647550784257,2.28653541785234,2.28980051338476,2.28935118831149,2.29024983845803,2.29091883356712,2.29220689877716,2.29324533894649,2.34891172302369,2.35054926329072,2.34921127307254,2.35008995321582,2.35175744848773,2.35168755347633,2.35088875334607,2.35102854336887,2.35131810841609,2.35072899332002,2.35056923329397,2.35029963825001,2.35059918829886,2.350649113307,2.3501898032321,2.35049933828257,2.35156773345679,2.35217681855611,2.35335504874824,2.35388425383453,2.35537201907713,2.35669003929206,2.35904649967631,2.36041444489937,2.36133306504917,2.36352976540737,2.36597609080628,2.36653525089746,2.36811288115471
2.24741418147306,2.24803325157401,2.25076914202014,2.25176764218296,2.25261636732135,2.25510263272678,2.25706967804753,2.26012508854576,2.3048279408352,2.30570662097848,2.30659528612339,2.30804311135948,2.30700467119015,2.30703462619503,2.30629573607454,2.30582644099802,2.30476803082543,2.30444851077333,2.30437861576193,2.30388935068215,2.30471810581729,2.30392929068866,2.30428875074728,2.30449843578147,2.30530722091335,2.30590632101104,2.30658530112176,2.30740407125527,2.30806308136273,2.30862224145391,2.31018988670954,2.31070910679421,2.31228673705146,2.31323531220614,2.3143536323885,2.31463321243409,2.31469312244386,2.31521234252852,2.31452337741618,2.30840257141809,2.30856233144415,2.31010002169489,2.27950597670609,2.27387443578779,2.27404418081547,2.2731355456673,2.27250649056472,2.27272616060054,2.27284598062008,2.27317548567381,2.27412406082849,2.2742338958464,2.27408412082198,2.27442361087734,2.27503269597666,2.27493284596038,2.27545206604504,2.27566175107923,2.27615101615902,2.277279321343,2.27708960631207,2.2781280464814,2.27981551175656,2.28122339698614,2.28325035231666,2.32765365455726,2.32726423949376,2.32839254467775,2.32922129981289,2.32925125481777,2.32940102984219,2.32758375954586,2.32766363955889,2.32778345957843,2.32684486942537,2.32576648924953,2.32609599430326,2.32475800408508,2.32470807907694,2.32440852902809,2.324518364046,2.32495770411765,2.325297194173,2.32564666922999,2.32697467444654,2.32726423949376,2.32773353457028,2.32908150979009,2.32985035491546,2.33056927503269,2.33104855511085,2.33148789518249,2.33158774519877,2.33201710026878,2.33164765520854,2.33116837513038,2.28717445795655,2.28654540285397,2.28596627275953,2.28423886747786,2.28369967738993,2.2831205472955,2.28329029232318,2.28246153718804,2.28323038231341,2.28331026232643,2.28321041231015,2.28244156718478,2.28243158218315,2.281952302105,2.28160282704801,2.28148300702847,2.28133323200405,2.28134321700568,2.28150297703173,2.28178255707732,2.2814230970187,2.28144306702196,2.28118345697963,2.28157287204313,2.28154291703824,2.28216198713919,2.28231176216361,2.28146303702522,2.28226183715547,2.28210207712942,2.28203218211802,2.28257137220595,2.28252144719781,2.2824116121799,2.28276108723688,2.28318045730527,2.28317047230364,2.28448849251856,2.28410906245669,2.28458834253484,2.28438864250228,2.28528729264882,2.28588639274651,2.2871944279598,2.28723436796631,2.28806312310146,2.28695478792073,2.29036965847757,2.28945103832777,2.29202716874785,2.29351493399045,2.34460818732194,2.35171750848121,2.35047936827932,2.35010992321907,2.35084881333956,2.35029963825001,2.35008995321582,2.35027966824675,2.35016983322884,2.35029963825001,2.3499401781914,2.34961067313766,2.34927118308231,2.34929115308556,2.34958071813278,2.35177741849098,2.35040947326792,2.35180737349587,2.35241645859519,2.35551180909993,2.35723921438161,2.35729912439138,2.35859717460304,2.36215183518268,2.36445837055879,2.36365957042854,2.36565657075418,2.36608592582419,2.36749381105377
2.2478535215447,2.24874218668961,2.25006020690454,2.25178761218621,2.25372470250208,2.2552524077512,2.25773867315662,2.26047456360275,2.30656533111851,2.30656533111851,2.30671510614293,2.3071644312162,2.3083326764067,2.3079432613432,2.30626578106966,2.30579648599313,2.3048279408352,2.30472809081892,2.3041190057196,2.30448845077984,2.30357981563167,2.30338011559911,2.30379948566749,2.3046881508124,2.30449843578147,2.30573657598337,2.30634566108269,2.30681495615921,2.3078034713204,2.30839258641647,2.30983042665093,2.31024979671931,2.3115578319326,2.31307555218009,2.31333516222242,2.31346496724359,2.31304559717521,2.31238658706774,2.31400415733151,2.31663021275973,2.31379447229732,2.31006008168837,2.27434373086431,2.27381452577802,2.27236670054193,2.27289590562822,2.27226685052565,2.27292586063311,2.27314553066893,2.2728160256152,2.27284598062008,2.27349500572592,2.27408412082198,2.27415401583338,2.27425386584966,2.27468322091967,2.27557188606458,2.27560184106947,2.27613104615576,2.27689989128113,2.27712954631858,2.27853743154816,2.27969569173703,2.2823417171685,2.28341011234272,2.32719434448236,2.32719434448236,2.32831266466472,2.3291214497966,2.3293311348308,2.32900162977707,2.32718435948073,2.3266751243977,2.3271743744791,2.32494771911602,2.32530717917463,2.32494771911602,2.32439854402647,2.32430867901181,2.32372954891738,2.32381941393203,2.32385935393854,2.32414891898576,2.32501761412741,2.32592624927558,2.32634561934396,2.32784336958819,2.32811296463216,2.329191344808,2.33008000995291,2.33072903505874,2.33114840512713,2.33026972498385,2.32964066988127,2.33144795517597,2.32907152478846,2.28639562782955,2.28675508788816,2.28536717266184,2.2845384175267,2.28564675270743,2.28267122222223,2.28248150719129,2.28236168717175,2.28308060728898,2.28219194214408,2.28216198713919,2.28235170217013,2.28232174716524,2.28238165717501,2.28186243709034,2.28130327699917,2.28122339698614,2.28139314201382,2.2812433669894,2.28170267706429,2.28318045730527,2.28329029232318,2.28247152218966,2.28200222711314,2.28213203213431,2.28114351697311,2.28107362196172,2.28123338198777,2.28359982737365,2.281952302105,2.28196228710663,2.28235170217013,2.28203218211802,2.28251146219618,2.28269119222549,2.28250147719455,2.28306063728573,2.28318045730527,2.28354990236551,2.28429877748763,2.28456837253159,2.28502768260648,2.28593631775465,2.28673511788491,2.28683496790119,2.28706462293864,2.28817295811937,2.2899203334043,2.28996027341081,2.29221688377879,2.3391064514248,2.34001508657297,2.34732410776481,2.34999010319954,2.34891172302369,2.35151780844865,2.35084881333956,2.35207696853983,2.34915136306277,2.35009993821745,2.3495507631279,2.3503295932549,2.34844242794717,2.34894167802858,2.34888176801881,2.34889175302043,2.35028965324838,2.35131810841609,2.35148785344377,2.35236653358705,2.35367456880034,2.35404401386058,2.35563162911947,2.35821774454117,2.36089372497753,2.36420874551809,2.36498757564509,2.36498757564509,2.36441843055228,2.36415882050995
2.24780359653656,2.24971073184755,2.25080908202665,2.25226689226437,2.25347507746138,2.25624092291239,2.25817801322826,2.30687486616898,2.30719438622108,2.30696473118363,2.30805309636111,2.30692479117712,2.3067051211413,2.30674506114781,2.30629573607454,2.30415894572611,2.30364971064307,2.30377951566424,2.30391930568703,2.30349993561865,2.30324032557632,2.30351990562191,2.30368965064958,2.30364971064307,2.30390932068541,2.30446848077658,2.30597621602244,2.30666518113479,2.30708455120317,2.30784341132691,2.30797321634808,2.31014994670303,2.31119837187399,2.3113781019033,2.31385438230709,2.31184739697982,2.31237660206612,2.31261624210519,2.31312547718823,2.31189732198796,2.31146796691795,2.27467323591804,2.27473314592781,2.27322541068195,2.27395431580081,2.27309560566079,2.27224688052239,2.27220694051588,2.27262631058426,2.27290589062985,2.2731355456673,2.27324538068521,2.27438367087082,2.27505266597991,2.27490289095549,2.27497278596689,2.27534223102713,2.27569170608412,2.27580154110203,2.27739914136254,2.27839764152536,2.27947602170121,2.28043458185751,2.2824116121799,2.32730417950027,2.32833263466798,2.32801311461587,2.32860222971194,2.32922129981289,2.32932114982917,2.32762369955237,2.32665515439444,2.32580642925604,2.32514741914858,2.32447842403949,2.32469809407531,2.32364966890435,2.32312046381806,2.32247143871222,2.32229170868292,2.32318037382783,2.32328022384411,2.32359974389621,2.32431866401344,2.32518735915509,2.32587632426744,2.32720432948399,2.32798315961099,2.3288019297445,2.32948090985522,2.33017985996919,2.32994021993012,2.32996018993337,2.32992024992686,2.3310685251141,2.2871944279598,2.28805313809983,2.28552693268789,2.28500771260323,2.28431874749088,2.28303068228084,2.28270117722711,2.28272114723037,2.28303068228084,2.28214201713593,2.28235170217013,2.28226183715547,2.28242159718152,2.28160282704801,2.28169269206267,2.28159284204638,2.28148300702847,2.28167272205941,2.28123338198777,2.28114351697311,2.2815628870415,2.28133323200405,2.28058435688194,2.28121341198451,2.28106363696009,2.28109359196497,2.2810336819552,2.28074411690799,2.28166273705778,2.28160282704801,2.28186243709034,2.2818824070936,2.28200222711314,2.28182249708383,2.2822019271457,2.28245155218641,2.28275110223525,2.28294081726619,2.28364975238179,2.28343008234597,2.28409907745506,2.28490786258695,2.28434870249577,2.28534720265859,2.28738414299074,2.28779352805749,2.28689487791096,2.28697475792398,2.28803316809657,2.28984045339127,2.29268617885531,2.34154279182208,2.34100360173416,2.34927118308231,2.34972050815557,2.35062914330374,2.3508288433363,2.3501199082207,2.35132809341771,2.35009993821745,2.34978041816534,2.34929115308556,2.34923124307579,2.34855226296508,2.34834257793088,2.34855226296508,2.34890173802206,2.34897163303346,2.34928116808393,2.35108845337864,2.35248635360659,2.35260617362612,2.35549183909667,2.35665009928554,2.35920625970236,2.36057420492543,2.36287075529991,2.36344988539435,2.36403900049041,2.36307045533248,2.36386925546273
2.24875217169124,2.24965082183778,2.25104872206573,2.25365480749069,2.25512260273003,2.25686997801497,2.25966577847086,2.30774356131063,2.30699468618852,2.30774356131063,2.30805309636111,2.30737411625039,2.30616593105338,2.30618590105663,2.30547696594103,2.30471810581729,2.30396923069517,2.30317043056492,2.30370962065284,2.3028808655177,2.303410070604,2.30307058054864,2.30324032557632,2.30354986062679,2.30377951566424,2.30466818080915,2.30626578106966,2.30700467119015,2.30680497115758,2.30356983063005,2.3043686307603,2.31099867184143,2.30618590105663,2.3081928863839,2.30760377128784,2.30976053163953,2.3116976219554,2.30834266140832,2.31053936176653,2.30983042665093,2.30884191148973,2.27360484074383,2.27395431580081,2.27257638557612,2.27219695551425,2.27217698551099,2.27231677553379,2.27223689552076,2.27271617559892,2.2730656506559,2.27343509571615,2.27372466076336,2.27404418081547,2.27372466076336,2.27485296594735,2.27523239600922,2.27528232101736,2.27604118114111,2.27675011625671,2.27753893138534,2.27846753653676,2.27908660663771,2.28123338198777,2.2834400673476,2.32892174976404,2.32808300962727,2.32890177976078,2.3287320347331,2.32952084986173,2.33005005494803,2.32778345957843,2.32688480943189,2.32526723916812,2.32422879899879,2.32318037382783,2.3250475691323,2.32318037382783,2.32223179867315,2.3218623536129,2.32252136372037,2.32272106375293,2.32235161869269,2.32332016385062,2.32367962390924,2.32449839404275,2.32541701419254,2.32694471944166,2.32783338458657,2.32826273965658,2.32909149479172,2.32931116482754,2.32943098484708,2.32980042990732,2.33055929003106,2.3306791100506,2.28760381302656,2.28633571781978,2.28532723265533,2.28355988736714,2.28404915244692,2.28326033731829,2.28321041231015,2.28250147719455,2.28228180715873,2.28173263206918,2.28190237709686,2.28207212212454,2.28160282704801,2.28173263206918,2.28128330699591,2.28240162717827,2.28175260207243,2.28130327699917,2.28222189714896,2.28120342698288,2.28058435688194,2.28204216711965,2.28122339698614,2.28127332199428,2.28095380194218,2.28090387693404,2.28060432688519,2.2810336819552,2.2814929920301,2.28154291703824,2.28201221211477,2.28165275205615,2.28192234710011,2.28196228710663,2.28200222711314,2.28247152218966,2.28254141720106,2.28285095225154,2.28365973738342,2.28399922743878,2.28378954240459,2.28411904745832,2.28551694768626,2.28528729264882,2.28659532786211,2.28699472792724,2.28753391801516,2.28761379802819,2.28915148827893,2.29045952349222,2.29315547393184,2.34334009211516,2.34803304288041,2.34237154695722,2.35221675856262,2.34968056814906,2.35097861836073,2.35098860336236,2.34998011819791,2.34904152804486,2.34936104809696,2.34826269791786,2.34881187300741,2.34837253293577,2.34861217297485,2.34846239795042,2.34893169302695,2.3495507631279,2.35026968324513,2.34999010319954,2.3516775684747,2.35368455380197,2.35538200407876,2.35929612471702,2.35951579475284,2.36337000538132,2.36080385996287,2.360424429901,2.3597853897968,2.3654169307151,2.36519726067928
2.24903175173683,2.24927139177591,2.25155795714877,2.25234677227739,2.2555719278033,2.25755894312731,2.2604246385946,2.3079432613432,2.30782344132366,2.30711450620806,2.30728425123574,2.30604611103384,2.30622584106315,2.30691480617549,2.30415894572611,2.30402914070494,2.30301067053887,2.30259130047048,2.30207208038582,2.3024914504542,2.30254137546234,2.30339010060074,2.30274107549491,2.30315046056166,2.30401915570331,2.30440857076681,2.30550692094592,2.30676503115107,2.30717441621783,2.30834266140832,2.30882194148648,2.31007006669,2.31088883682352,2.31219687203681,2.31281594213776,2.30768365130086,2.30886188149299,2.30823282639041,2.30776353131389,2.30886188149299,2.3128658671459,2.27658037122903,2.27314553066893,2.27266625059077,2.2724266105517,2.27206715049308,2.27209710549797,2.27266625059077,2.2728859206266,2.27302571064939,2.27322541068195,2.27418397083826,2.27378457077313,2.27435371586594,2.2746233109099,2.27539215603527,2.27549200605156,2.27644058120623,2.27753893138534,2.27717947132672,2.27997527178262,2.28120342698288,2.28257137220595,2.32822279965007,2.32874201973473,2.32749389453121,2.32757377454423,2.32784336958819,2.32788330959471,2.32772354956866,2.32662519938955,2.32561671422511,2.32393923395157,2.32429869401018,2.32366963890761,2.32222181367152,2.32114343349567,2.32144298354452,2.32106355348265,2.32135311852987,2.32125326851358,2.32152286355755,2.32195221862756,2.32288082377898,2.32413893398413,2.32552684921045,2.32586633926581,2.32716438947748,2.32787332459308,2.32876198973799,2.32850237969566,2.32825275465495,2.32814291963704,2.32788330959471,2.28759382802493,2.28608609277907,2.2860960777807,2.28526732264556,2.28404915244692,2.28327032231992,2.28251146219618,2.28269119222549,2.28240162717827,2.28244156718478,2.28191236209849,2.28155290203987,2.28221191214733,2.28161281204964,2.28116348697637,2.28128330699591,2.28086393692752,2.28068420689822,2.28079404191613,2.2804645368624,2.28092384693729,2.2811035769666,2.28143308202033,2.28133323200405,2.28054441687542,2.28093383193892,2.28079404191613,2.28102369695358,2.28060432688519,2.2811035769666,2.2816327820529,2.28125335199102,2.28150297703173,2.28155290203987,2.28180252708058,2.28190237709686,2.28200222711314,2.28294081726619,2.28286093725316,2.28301071227759,2.28303068228084,2.28429877748763,2.28456837253159,2.28437865750065,2.28530726265207,2.28625583780675,2.28710456294515,2.28660531286374,2.28819292812262,2.29034968847431,2.29043955348897,2.34498761738381,2.34465811233008,2.34688476769317,2.34836254793414,2.34965061314418,2.35014986322559,2.35000008820116,2.34988026818163,2.35019978823373,2.34958071813278,2.34898161803509,2.34853229296182,2.34836254793414,2.34779340284133,2.34757373280551,2.34823274291297,2.34858221796996,2.34924122807742,2.34928116808393,2.35083882833793,2.35188725350889,2.35385429882965,2.35664011428392,2.3579082094907,2.35933606472353,2.35889672465189,2.35936601972841,2.36213186517942,2.36324020036015,2.36636550586978,2.36441843055228
2.24858242666356,2.2502599069371,2.25152800214388,2.25304572239137,2.25488296269096,2.258158043225,2.30122335524742,2.30185241035,2.30478800082869,2.30543702593452,2.30588635100779,2.30731420624062,2.3059262910143,2.30431870575216,2.30415894572611,2.30343004060725,2.30253139046071,2.30215196039884,2.30237163043466,2.30183244034674,2.3028109705063,2.30233169042815,2.30290083552096,2.30299070053561,2.30350992062028,2.30387936568052,2.30446848077658,2.30661525612665,2.30726428123248,2.30837261641321,2.30958080161022,2.31041954174699,2.31093876183166,2.31124829688213,2.3113781019033,2.311627726944,2.31179747197168,2.31139807190655,2.31398418732826,2.31402412733477,2.27413404583012,2.27438367087082,2.27270619059729,2.27198727048006,2.27284598062008,2.27194733047354,2.2724965055631,2.27236670054193,2.27237668554356,2.27270619059729,2.27297578564125,2.27344508071777,2.27353494573243,2.27429380585617,2.27403419581384,2.27598127113134,2.27543209604179,2.27590139111831,2.27691986128439,2.2776687364065,2.27923638166213,2.28114351697311,2.28330027732481,2.3288718247559,2.32839254467775,2.32783338458657,2.3281628896403,2.32723428448887,2.3273141645019,2.3253670891844,2.32510747914207,2.32396918895645,2.32290079378224,2.32226175367803,2.32197218863081,2.32199215863407,2.32074403343055,2.32046445338496,2.32052436339473,2.32086385345008,2.32112346349242,2.32153284855917,2.32172256359011,2.32243149870571,2.3235598038897,2.32510747914207,2.3266052293863,2.32649539436839,2.32729419449864,2.32785335458982,2.32820282964681,2.32846243968914,2.3272442694905,2.32676498941235,2.32559674422185,2.28629577781326,2.28514750262602,2.28391934742575,2.28334021733132,2.28326033731829,2.28239164217664,2.28253143219943,2.28218195714245,2.28236168717175,2.28198225710988,2.28217197214082,2.28167272205941,2.2814230970187,2.28108360696335,2.28090387693404,2.28134321700568,2.28108360696335,2.28099374194869,2.28043458185751,2.28190237709686,2.28151296203336,2.28145305202359,2.28086393692752,2.28075410190962,2.28065425189333,2.28054441687542,2.28108360696335,2.28154291703824,2.28096378694381,2.28081401191938,2.28088390693078,2.28129329199754,2.28082399692101,2.28126333699265,2.28187242209197,2.28199224211151,2.28302069727922,2.2829807572727,2.28372963239482,2.28307062228736,2.28376957240133,2.28426882248274,2.28430876248925,2.28532723265533,2.28615598779047,2.28685493790444,2.28704465293538,2.28693481791747,2.2895309183408,2.29096875857526,2.34148288181231,2.34322027209562,2.34600608754989,2.34790323785924,2.34818281790483,2.349091453053,2.34892170802532,2.35008995321582,2.34880188800578,2.348312622926,2.34862215797647,2.34913139305951,2.34844242794717,2.34808296788855,2.34751382279574,2.34807298288692,2.3486321429781,2.34886179801555,2.34881187300741,2.35075894832491,2.35194716351866,2.35530212406574,2.35585129915529,2.35651030926275,2.35692967933113,2.35750880942557,2.35809792452163,2.36513735066951,2.36510739566463,2.3650275156516,2.36507744065974
2.24881208170101,2.24996035688825,2.25172770217644,2.25327537742882,2.25695984302962,2.25898679836014,2.303410070604,2.30308056555026,2.30395924569355,2.30480797083194,2.30426878074402,2.30424881074076,2.3052173558987,2.30718440121945,2.3032003855698,2.30259130047048,2.30184242534837,2.30162275531255,2.30187238035325,2.30115346023602,2.30149295029138,2.30175256033371,2.30241157044118,2.3029507605291,2.30369963565121,2.30401915570331,2.30531720591498,2.30635564608431,2.30777351631552,2.30729423623736,2.30955084660534,2.31030970672908,2.31093876183166,2.31200715700587,2.31100865684305,2.31184739697982,2.31317540219637,2.31536211755295,2.31298568716544,2.31390430731523,2.27449350588874,2.27334523070149,2.27294583063636,2.27229680553053,2.27217698551099,2.27229680553053,2.27177758544587,2.2721070904996,2.27321542568033,2.27256640057449,2.27299575564451,2.27408412082198,2.27342511071452,2.27389440579104,2.27466325091641,2.27486295094898,2.27534223102713,2.27585146611017,2.2769598012909,2.27822789649768,2.27937617168492,2.28092384693729,2.2831904423069,2.32831266466472,2.32790327959796,2.32827272465821,2.32797317460936,2.3266751243977,2.32634561934396,2.3247280490802,2.32541701419254,2.32372954891738,2.32374951892063,2.32197218863081,2.32086385345008,2.32028472335565,2.31964568325144,2.31994523330029,2.32032466336216,2.32095371846474,2.32026475335239,2.32112346349242,2.32143299854289,2.32295071879038,2.32323029883597,2.32425875400367,2.32482789909648,2.32627572433257,2.32712444947096,2.32751386453446,2.32784336958819,2.32840252967937,2.32714441947422,2.32733413450516,2.28656537285723,2.28597625776116,2.2840791074518,2.28437865750065,2.28437865750065,2.2831205472955,2.28233173216687,2.28307062228736,2.28242159718152,2.28203218211802,2.28207212212454,2.28155290203987,2.28191236209849,2.28159284204638,2.28100372695032,2.28076408691124,2.28069419189985,2.28095380194218,2.28049449186728,2.281173471978,2.28042459685588,2.2807141619031,2.28042459685588,2.28076408691124,2.28045455186077,2.2804645368624,2.28009509180215,2.28058435688194,2.28138315701219,2.28104366695683,2.28044456685914,2.28125335199102,2.28141311201708,2.28165275205615,2.28194231710337,2.28167272205941,2.28176258707406,2.2828010272434,2.28348999235574,2.283509962359,2.28367970738668,2.28343008234597,2.28454840252833,2.28549697768301,2.28518744263253,2.28606612277582,2.28578654273023,2.28572663272046,2.28596627275953,2.29128827862736,2.29187739372343,2.34454827731217,2.34594617754012,2.3451274074066,2.34729415275992,2.34797313287064,2.34841247294228,2.34872200799276,2.34956074812952,2.34898161803509,2.34825271291623,2.34809295289018,2.34787328285436,2.34770353782668,2.34739400277621,2.34793319286413,2.34790323785924,2.34832260792763,2.34844242794717,2.34982035817186,2.3501199082207,2.35385429882965,2.35538200407876,2.3550425140234,2.35629063922693,2.35817780453466,2.36218179018757,2.36118329002475,2.36215183518268,2.363539750409,2.36316032034713,2.36304050032759
2.24931133178242,2.2511086320755,2.25391441753302,2.25464332265188,2.2563507579303,2.2586872483113,2.30294077552747,2.30331022058771,2.30420887073425,2.3043686307603,2.30487786584334,2.30479798583031,2.3055368759508,2.30312050555678,2.30258131546885,2.3021020353907,2.30133319026533,2.3013931002751,2.30122335524742,2.30121337024579,2.30119340024254,2.30189235035651,2.30168266532232,2.30251142045746,2.30309055055189,2.30385939567726,2.30461825580101,2.30672509114456,2.30668515113804,2.30784341132691,2.30910152153207,2.31047945175676,2.31147795191958,2.31066916678769,2.3117675169668,2.31231669205635,2.31346496724359,2.31455333242106,2.31558178758877,2.31480295746177,2.27328532069172,2.27285596562171,2.27214703050611,2.27194733047354,2.2716477804247,2.27197728547843,2.2715778854133,2.27209710549797,2.27224688052239,2.27244658055495,2.27238667054519,2.27302571064939,2.27326535068847,2.274164000835,2.27439365587245,2.27479305593758,2.2761110761525,2.27637068619484,2.2768899062795,2.2789767716198,2.28113353197149,2.28175260207243,2.32405905397111,2.3262857093342,2.32650537937002,2.32686483942863,2.32719434448236,2.32647542436513,2.32652534937327,2.3249776741209,2.3241289489825,2.32305056880666,2.32165266857871,2.32105356848102,2.32053434839635,2.31982541328075,2.31957578824005,2.31939605821074,2.31965566825307,2.31924628318632,2.31937608820748,2.3205143783931,2.32077398843543,2.32192226362267,2.3228508687741,2.32377947392552,2.32476798908671,2.32595620428047,2.32627572433257,2.32806303962401,2.32618585931791,2.32591626427395,2.32586633926581,2.28718444295817,2.28625583780675,2.28581649773511,2.28465823754624,2.28501769760486,2.28300072727596,2.28247152218966,2.28257137220595,2.28232174716524,2.2823417171685,2.28191236209849,2.28251146219618,2.28107362196172,2.2815628870415,2.28154291703824,2.28130327699917,2.28082399692101,2.28043458185751,2.28027482183146,2.2806442668917,2.28035470184449,2.28065425189333,2.28028480683309,2.2807141619031,2.28012504680704,2.28052444687217,2.28057437188031,2.28023488182495,2.28029479183472,2.28022489682332,2.28067422189659,2.28133323200405,2.281173471978,2.2808539519259,2.28140312701545,2.28173263206918,2.28157287204313,2.28261131221246,2.28274111723363,2.28310057729224,2.28264126721734,2.28362978237854,2.28413901746157,2.28455838752996,2.28434870249577,2.28519742763416,2.28543706767324,2.28704465293538,2.28704465293538,2.28827280813565,2.28991034840267,2.29447349414676,2.34767358282179,2.34431862227472,2.34466809733171,2.34771352282831,2.34864212797973,2.34893169302695,2.34868206798624,2.34890173802206,2.34835256293251,2.34743394278272,2.34685481268828,2.34743394278272,2.34718431774201,2.347533792799,2.34719430274364,2.34793319286413,2.34798311787227,2.34966059814581,2.35020977323536,2.35131810841609,2.35282584366194,2.352985603688,2.35529213906411,2.35676991930508,2.36043441490263,2.36028463987821,2.36059417492868,2.36196212015175,2.36319027535201,2.36252128024292,2.36271099527386
