1.27397990747228,1.40626999808792,1.46435988361412,1.53203000001133,1.19484882605528,1.19400119113299,1.18822749209133,1.22543449064833,1.24805451124409,1.27258012215477,1.41174234621446,1.5022498912878,1.56558374235282,1.63341000001133,1.53462010567444,1.12682847625218,1.12286321820654,1.14183040350807,1.16624955627608,1.22732202549976,1.35390984147732,1.39829381034316,1.42345983596451,1.17196473840737,1.16525054156037,1.1927875897441,1.19179908376485,1.22832061704807,1.26827289161523,1.26931679058432,1.23864175626202,1.22598990931376,1.20598434329316,1.19530114005046,1.22803996508035,1.26407489855166,1.26021022130179,1.2984288586672,1.39146983854239,1.43876985576446,1.50152017486279,1.62561935006961,1.63694005294151,1.25108500959376,1.25124372774754,1.26777901782818,1.28853014489017,1.30400025833874,1.37114999342115,1.28838001311104,1.27089006641739,1.21024999998856,1.27101985304482,1.52019000001133,1.27064999980502,1.20770440232989,1.2047886025879,1.24494217503221,1.27019465593551,1.26750513441548,1.27654924440687,1.25301997280431,1.20038006806613,1.20140797858615,1.21888420898479,1.2690699578399,1.33524997143972,1.34460236820091,1.34962618044062,1.34934159663413,1.3481813147949,1.25437141206971,1.25425902219484,1.27430286731983,1.32351977811421,1.3364493907833,1.3952756994043,1.51882569837944,1.57461477351643,1.59897987087546,1.37340005284562,1.29949347778415,1.29946679985885,1.27195577304094,1.283284195773,1.30564195923566,1.27218609418107,1.43763999966391,1.28807563809437,1.2651947779651,1.27335870651491,1.27590681465022,1.27317980686651,1.29599002906155,1.4169085419198,1.50967999731076,1.3844165304584,1.40709906420851,1.35898028070611,1.37781261449959,1.39193921592652,1.40991195369317,1.43467981123296,1.47688581889187,1.55206981194699,1.64775000000238,1.46850684228248,1.4608449859031,1.46055441163236,1.45961300485128,1.45956953017003,1.48211812277036,1.54017086465878,1.65495999746741,1.91465000154277,1.95085999847422,1.50577480796691,1.47091013092402,1.44305005167329,1.48604770461109,1.48656985896564,1.52630998725001,1.59665999979543,1.4582552825229,1.48234006690642,1.49337031905592,1.52969996712255,1.60627208671771,1.63951001374379,1.75315000610882,1.75414999591582,1.79247999799802,1.48485001248863,1.46244115273878,1.46134270434667,1.50418102460346,1.52281357216757,1.58395024375366,1.6193500002762,1.75450000000566,1.79511313502516,1.79241988794297,1.84780000029649,1.88976999677295,1.86469000295322,1.53362820894727,1.53371867991731,1.5585198152848,1.58648726384289,1.70885218233453,1.70369837474325,1.77563380543244,1.86376000169351,1.89881999832348,1.4474097696376,1.4081740832887,1.41095634865692,1.46733392065003,1.5025994051947,1.60280498818739,1.67231794540115,1.73396000001133,1.35117999997939,1.32337611079763,1.32871389463138,1.38980085480172,1.45222513048359,1.50551232077165,1.58973062872759,1.37093999998826,1.66251041289124,1.69702554779825,1.69758434749834,1.33416316859791,1.34572745977798,1.31549688404969
1.25605692701328,1.34640141843823,1.44297594086762,1.46351989417015,1.19325871275508,1.19352448933265,1.19958721561796,1.22804007501918,1.26254052003533,1.30508276491838,1.40654102867284,1.48488208098576,1.54116578146119,1.56082328378434,1.54981615738727,1.19310544314215,1.12839070028124,1.13270036576645,1.14486714742226,1.22708077937372,1.34202948502311,1.37944485139986,1.38767258655572,1.20102498938221,1.19881969501443,1.19650989544072,1.20915645394262,1.21251725232523,1.26992759452212,1.27046109835786,1.25185955857021,1.24526528644292,1.22786310887907,1.22853341208866,1.23636398584509,1.25544617127507,1.26071389307686,1.29801049590593,1.37969447183327,1.40542003724061,1.53248051906,1.57901528700555,1.58011362244756,1.33002405497738,1.28315934280389,1.2690107511821,1.27589546174889,1.31993570447772,1.32761309986553,1.3104041472395,1.29668334141842,1.30983876815533,1.33102836425297,1.3534036675191,1.30814376086996,1.20667322528697,1.2056425274265,1.22787886004877,1.26784008444335,1.27058801303213,1.27355768197998,1.23544980475035,1.20219630581165,1.20249813797014,1.23045318135775,1.28723433347842,1.29911092946989,1.31640550553842,1.33091933371098,1.32181312538478,1.30831922737109,1.2693285762769,1.26358100128516,1.27346078311991,1.31143076947104,1.34936235249584,1.42518938082754,1.53488927747575,1.54420029404365,1.54924278215215,1.36527571621508,1.30795880458899,1.30514917186081,1.30385287746663,1.30371938808176,1.30445289162943,1.34602550308253,1.3759887244397,1.29647532631243,1.29966125862951,1.30264731805705,1.30445895039782,1.30604183706936,1.30662702469492,1.37469569661766,1.46315319324104,1.44565681655623,1.429185776133,1.4196970295026,1.41928266116541,1.4197760271514,1.42307496824591,1.44548028560653,1.47027106615199,1.53721068161545,1.56677264067407,1.47869581782307,1.46130291056336,1.46201987881922,1.4668936879245,1.47492228703583,1.48504262905823,1.51958424673274,1.62472904044833,1.64258027905956,1.5776251279655,1.51507581196077,1.48022881685722,1.47585255752995,1.49807596192509,1.50522780191727,1.5132957309439,1.5046074081532,1.4721800468094,1.48352344474407,1.5108052702497,1.54397825003238,1.61016760808784,1.65829358348942,1.68751414388942,1.73594568169922,1.7389116464591,1.54958277825623,1.52086454241651,1.48786990581309,1.49177077121264,1.52999126746927,1.6022452790055,1.60904569564323,1.62412578686026,1.77802902015604,1.79367732862237,1.82829144495251,1.58279564149664,1.55763812965164,1.53398248797789,1.53400691431116,1.54601749587638,1.59263058010364,1.64467634354143,1.73940818464196,1.80600072839563,1.8446758874362,1.85533062550131,1.43199199008039,1.41244391825207,1.41476578479487,1.46656311085428,1.50348927410503,1.57271192070807,1.64556298482857,1.65377214324366,1.41962667985877,1.36122866057119,1.35614644043891,1.38549643610849,1.4360354853815,1.50804318194595,1.53516080918018,1.5583222214081,1.68607969178706,1.69502899902904,1.37833209471866,1.32882638872052,1.32442511296213,1.32044654665477
1.23870011973477,1.29774000231402,1.42500008656673,1.54051000001133,1.19216878728188,1.15325000644054,1.2089473821635,1.23264135915455,1.27797954166243,1.33712991620901,1.40092050569947,1.47146014461369,1.52236993688332,1.58203985250632,1.68252000001133,1.62308000000566,1.11506519259951,1.11677092687305,1.1330777185124,1.2268047320128,1.33039015341984,1.3625601818662,1.47543000001133,1.20329987477212,1.20870860467886,1.194180893174,1.24270655553189,1.20476986293253,1.28589697601997,1.32658531985118,1.38228999755508,1.44491000001133,1.22749130991313,1.22945226157994,1.24390208879871,1.24396646679363,1.2616331981974,1.29809270682701,1.37067808420084,1.3713175005434,1.57575787944368,1.57894303063791,1.5819434954457,1.57237009692379,1.29495984738,1.25789042885078,1.2728384740031,1.33971118864141,1.34297883320658,1.34560975976863,1.21204999998866,1.64784000001133,1.55174011140223,1.38397983321868,1.36629999959072,1.18794118010003,1.15695666126421,1.15682334496574,1.26442830470152,1.30650018139109,1.32236981342944,1.21900985506856,1.19458156141915,1.18600865827689,1.23638612812508,1.3094298599759,1.26786665670344,1.26797342233078,1.56074000001133,1.28330423169235,1.29280329538015,1.28179181574477,1.25721583442321,1.27082940130129,1.30430955237993,1.36702972038608,1.45842101581776,1.53682576036106,1.30739999998866,1.62100000001133,1.35829998286169,1.31223266926069,1.33692935025737,1.35596950829757,1.33642263228874,1.28796019229288,1.39367999834603,1.48719000001133,1.29307346028609,1.30609446789169,1.30579336538391,1.30609687001385,1.32563131936744,1.30578400115641,1.32400999835476,1.60185000604641,1.62568999397058,1.4583399910959,1.42085054172833,1.41728206791999,1.41856868701408,1.42487868533024,1.45672874612964,1.46149790218007,1.52453556702638,1.62907999951281,1.48820993458799,1.45328564246721,1.44512114133602,1.47836898109064,1.48728962283761,1.48755390596206,1.48500279787658,1.60630008141385,1.94198000001133,1.54031987515825,1.52118948729625,1.48890529472926,1.47114217509538,1.51323992420752,1.5361101086511,1.57466975338319,1.46208988801588,1.44305011845802,1.4829243821763,1.52956008210694,1.56052994787184,1.61562464285552,1.74023999904596,1.64405000695251,1.73453988587442,1.74409292617613,1.74252105967641,1.53831999804347,1.48531407902552,1.48936462061377,1.53759600666332,1.61238985555424,1.54727476179111,1.54060524130014,1.75179546491044,1.80108666491461,1.83106999735611,1.51224338051362,1.50630490430241,1.49965356104921,1.52790176120321,1.51207967429665,1.59985557537818,1.60387020884882,1.77463474422355,1.8201141253387,1.82218578154078,1.87006999921729,1.4244700757204,1.3873700073718,1.41925675759173,1.46551749641346,1.50457118304753,1.54449254919238,1.62753025914618,1.75801666667516,1.75788333334183,1.37200537776916,1.35288626764361,1.37792200037823,1.41950882722879,1.51040895192263,1.50985158355198,1.62055012464597,1.69988450580057,1.7469599999043,1.32474988419171,1.28569466321511,1.27852291891189,1.31910997578742
1.23257842125762,1.33088489878909,1.36250309395906,1.36253309402304,1.18918805184616,1.18605783139505,1.21050931376915,1.22861816930566,1.28345135162643,1.31579823825078,1.39373865699403,1.44522618329531,1.51452433068978,1.57314529320045,1.57067068387393,1.56334344142216,1.12715165901395,1.12263243104652,1.13094366216638,1.1951173542485,1.27196216653031,1.28838341851426,1.3025355608376,1.2692424997984,1.22977537031828,1.21550178561869,1.23667807451151,1.25571990536505,1.28696672974072,1.32527903422401,1.36460434409037,1.37272911294257,1.2566523662609,1.24059842433162,1.24329354787343,1.25418813544151,1.26936320453498,1.28276503838908,1.35528742813292,1.37248231999559,1.53234589238163,1.57826916002625,1.57940067344487,1.5152040328085,1.33687970248677,1.265476175445,1.28008916026133,1.30418152986349,1.32034714452203,1.35510934531458,1.38319711593946,1.57718071637689,1.56919206162033,1.36883198578887,1.32733595273195,1.18878975570208,1.18860726801143,1.19172557323367,1.26484236729828,1.26537395136198,1.25953670681477,1.2078250727762,1.19148498716656,1.18875019992459,1.21524566531742,1.28464041642055,1.2906641247446,1.32905471682085,1.36061602072936,1.3029709823804,1.29924755547444,1.26949135518776,1.26248454148398,1.2681311974867,1.28359213934245,1.34768248844846,1.45061683823327,1.45873178009106,1.445641061317,1.43067750157562,1.39946695097676,1.33194555426932,1.33790833275532,1.33987763980079,1.33033929485599,1.32402032234199,1.36105696102999,1.33979169709414,1.31256217831602,1.30777990669596,1.30882386531089,1.31142542294577,1.32167733150085,1.32571868732265,1.3791400825637,1.4372669130623,1.42645111518628,1.42216729578662,1.42123422083646,1.42160414812219,1.42162347683187,1.42370217664826,1.45696578589322,1.47453880288786,1.52412495822137,1.53661890153172,1.46747777749559,1.45076283825645,1.44807043951608,1.47425172331463,1.4779685208006,1.48207174399564,1.48560220172569,1.51788771555116,1.51868284595159,1.51919891749951,1.51986501256767,1.52321583767699,1.53563416066815,1.54177221460795,1.54655979854503,1.55644075164105,1.49995049805639,1.49711456747551,1.50104080116205,1.54042632115727,1.59472239918786,1.63808356381713,1.70777811524581,1.70779759789533,1.73607260657565,1.73760748860387,1.73828071431996,1.57426842878543,1.5380329803411,1.53824280169817,1.55572059985378,1.5996864615303,1.6061298634282,1.61873774529459,1.77044700948093,1.77187711905696,1.55202001084783,1.5088589261749,1.50639987715242,1.50357075594033,1.52607434452285,1.54185565741003,1.61626910382144,1.61949076328291,1.76876678489942,1.80444071236509,1.81564768142159,1.81594246967859,1.46844663729112,1.42373329508125,1.42216399617201,1.4611519148606,1.51124373640296,1.55197611021782,1.58002113898898,1.59621147090733,1.61545320375745,1.41330524543805,1.37324362172914,1.38583980435434,1.41799051421725,1.49740163851567,1.51214178135065,1.61190922444499,1.69419981439077,1.71487504860042,1.30673147925277,1.28479763767711,1.28171696585578,1.30642787805566
1.16873004070605,1.37914981910929,1.36359086014089,1.36368084134796,1.18384619258797,1.1831945183187,1.21200758804413,1.22194222345956,1.28899295672355,1.29552017439273,1.38620974888014,1.42415000172817,1.50326015989972,1.57535529505839,1.56826516813204,1.55356977074342,1.13597956650944,1.11640055136941,1.12656728850858,1.1599492177614,1.24264032551146,1.27879061700831,1.32276332277899,1.3233764730176,1.25367972420076,1.17834000562545,1.22491856043835,1.28903032034266,1.28876415515304,1.32430623614913,1.35015937161962,1.38500966601145,1.27630769427746,1.23583466348745,1.22568733305621,1.26706678497116,1.284266472856,1.27490233096753,1.3385999600172,1.37370290740864,1.51237991252579,1.59242684984095,1.59141310667872,1.48166666590484,1.48173333446834,1.26162417845766,1.28482257083413,1.28159569006195,1.20705999998867,1.36837952610867,1.45975005782128,1.58484008224138,1.60527991704114,1.35696016158963,1.30594000166366,1.17424846895067,1.18756881855667,1.20277019454697,1.26531658517397,1.26636614121726,1.25440434195399,1.15584621463755,1.15615403726337,1.16748788604207,1.18585472405222,1.26630011946548,1.31572992045536,1.48284000000566,1.55404000001133,1.3060924671217,1.30553751418985,1.25476935771289,1.24737106249707,1.26618130322431,1.26173214163618,1.33277021932745,1.44392523168268,1.48232992265279,1.56493000001133,1.39331831842261,1.62780000001133,1.32602543478697,1.3388876822347,1.34296574580581,1.30541992966579,1.31670460032733,1.39187999276463,1.30572998617261,1.32388287275865,1.29594543331813,1.32288412274957,1.31364370689077,1.31603896870243,1.34047800523605,1.41978830901311,1.4512328096194,1.42558828831492,1.41624388380731,1.39876061232412,1.4246140505307,1.42213350411973,1.42425333763139,1.45776622044139,1.493161386835,1.52416708545725,1.55476989885981,1.43226298783821,1.43933908202959,1.43830005312964,1.46625344782276,1.47262355511174,1.47105653505282,1.48482563430382,1.51614116042584,1.51318994997099,1.517019255447,1.51982390483847,1.5302070463173,1.55110448277751,1.55394554135157,1.62648012236373,1.85318000001133,1.5015604776705,1.4920475531317,1.50505347341739,1.55837979098563,1.66087398892747,1.66704600882047,1.70935264666385,1.70943485462202,1.73758852936923,1.65573000600581,1.90741000001133,1.74470515088137,1.5377409770346,1.53851510432286,1.57330635142608,1.58824956772566,1.61370974998685,1.65195631429276,1.78979003219589,1.77693335190983,1.50292999893721,1.48439488161548,1.47639131998675,1.49282741747141,1.52454832699312,1.56565999168607,1.63131498803596,1.63169460795065,1.76849199612664,1.70382019601068,1.79481224112237,1.81982377517091,1.50003000018063,1.42411991045909,1.38098000553712,1.4552785292824,1.51917648229467,1.56025817655344,1.56683860606562,1.53693015262485,1.72494000001133,1.45018999737213,1.34996009359288,1.39697004713306,1.41706848778265,1.48270015547838,1.51429913883039,1.60170006497688,1.68596094119435,1.77645000001133,1.27227831105175,1.26862718364626,1.27819763541086,1.29827875559964
1.1984446461093,1.20221085285453,1.19211531048226,1.18735632671439,1.18335086482394,1.18304172508353,1.20085841975611,1.20604417275304,1.26978729802237,1.31432589510115,1.37977158486723,1.36350756911017,1.35017085770533,1.34021836707098,1.32745280573739,1.18246129923829,1.13582632870476,1.13394522621049,1.14714422598056,1.1575772258439,1.24855497567125,1.2688965247452,1.26397776286065,1.254652158365,1.23674517473158,1.2194871613148,1.22280243884275,1.2661679942614,1.29787369256307,1.33089669359685,1.36305977761152,1.37031275035674,1.27845910633061,1.26506743469736,1.25133964986566,1.25914449992914,1.2670622146589,1.27630274156946,1.3262052741,1.37231552721624,1.50470815078525,1.5253442407614,1.54801719588338,1.34939989322215,1.31662596973642,1.26981080645129,1.2758003505821,1.28805987078237,1.30965578586455,1.37672947847885,1.4771915577182,1.49979125213519,1.31002313165142,1.25963816446641,1.22767018839166,1.17924433286642,1.18344676117167,1.18689974333953,1.24484406957691,1.2576895584777,1.25232833881409,1.17752347514895,1.16515532394642,1.16728632698723,1.18509392468564,1.23230516645273,1.28881172359452,1.40387888169253,1.41832659081009,1.37018456254964,1.33834093166641,1.28227338766504,1.27705740489213,1.28078420101685,1.2977471270585,1.32309857894508,1.39064724763283,1.39134201277651,1.39626771206168,1.39575957496901,1.38598720235955,1.33978673088078,1.33606992436234,1.3337202754383,1.32263870812215,1.3223776349384,1.32521776643102,1.32301261926757,1.32176135232528,1.31953951742697,1.31992723256451,1.31747405266279,1.31931430005482,1.34808050686867,1.42120563928068,1.42284081938027,1.42306414529504,1.42044355186312,1.42009300273799,1.42112355014778,1.42141739510274,1.42888585686183,1.46442605069238,1.49500952785699,1.49521266083002,1.46740512833171,1.4353368634262,1.43803465184284,1.43847960019183,1.45602123993882,1.47372665679391,1.48700801848525,1.49973193980697,1.51618746321333,1.51458725031934,1.5200529017987,1.53018857114883,1.5477560850145,1.56099790678803,1.57941960095303,1.64642928609469,1.65686876900017,1.50325833042405,1.50421178266764,1.5052260534188,1.53456138422025,1.59004230890176,1.62300057214919,1.67093523811149,1.68252290025852,1.72593804171635,1.73532251235105,1.75731123357142,1.73577550119154,1.59924025715168,1.56652335283303,1.56983465676227,1.5783653328153,1.5892571202579,1.65093019482318,1.67972417128335,1.6939596066592,1.55173767051363,1.48207800565834,1.47920752015127,1.48547058819929,1.50395428479534,1.55652792343786,1.61569718028265,1.65724297749445,1.76252505317434,1.76134543638726,1.81196782591399,1.81612289967251,1.53115236766658,1.42316418632448,1.40872055508466,1.4358604078132,1.51204219941658,1.53094683010392,1.56151671713949,1.58355925074071,1.6071672434152,1.41114766199842,1.37131790678214,1.38259180368973,1.39630054204191,1.46551490299865,1.51650905023139,1.5650146842874,1.64430157348142,1.64473148274012,1.33755117306705,1.27340291969641,1.27685851408321,1.2950009166249
1.20146252079263,1.21957045137399,1.17705911740822,1.17390594132743,1.1726453312822,1.14475325030503,1.12587924584223,1.18085991322309,1.24826006424506,1.33480982136683,1.4032099105982,1.32932188361972,1.32884800263238,1.31852012797522,1.30957001462067,1.11507171436503,1.11032480203745,1.13072805384481,1.16586201357118,1.15594430254136,1.25436618529391,1.44860000001133,1.25952849733466,1.19187000579727,1.22889766668953,1.21614837601301,1.2231795360374,1.24725961162156,1.30452953733274,1.33700232698757,1.40203999961547,1.52292000001133,1.28152740494003,1.28263466784775,1.24454478217272,1.24447236975377,1.24609424128044,1.2768636094256,1.31276991262905,1.37097056929336,1.4900217975768,1.49058845593659,1.61873000001133,1.24707735077704,1.26733979856333,1.25385215090059,1.25377775658359,1.29606482451013,1.34266999764159,1.38523017156902,1.51008999871731,1.61220000001133,1.27529999999998,1.15638982620926,1.15080153798277,1.17174011231528,1.1638467270022,1.17746009957969,1.22307036646224,1.2867799921117,1.24261791940131,1.19515320774731,1.16014918484201,1.16783307576353,1.18464717603599,1.18513970905028,1.26112007586713,1.38299027755287,1.44057996397772,1.55762166667516,1.55674833334183,1.28839566810444,1.26732054773734,1.28864421719942,1.31865452482436,1.3139495331129,1.35984719672139,1.38010000361254,1.40793940581746,1.5276800000114,1.38120000320491,1.35327985565999,1.32670284989372,1.33109462152197,1.29192000782327,1.35969876174261,1.33219242583355,1.49996021579753,1.59487000001133,1.3759600044013,1.41378056822207,1.30849478896286,1.32492401495422,1.35071582019329,1.4215571080169,1.41260685261681,1.54181000000566,1.62543000001133,1.41744998125621,1.40230294204815,1.41757035953452,1.43927439648971,1.47137166283233,1.49779724519312,1.49728703257803,1.41272485685595,1.42653036231852,1.41672383119068,1.41767180241445,1.44910971967692,1.47508235983129,1.54598756061847,1.53857563417218,1.51686791822834,1.49662044126217,1.52035322569499,1.54042109477331,1.56151995356669,1.57599987960495,1.59623990799518,1.719608977676,1.84837000001133,1.50288710299335,1.50270847232338,1.47172000817391,1.51425154814659,1.55675994490843,1.5907399954113,1.65278989882841,1.65995010671106,1.70924011895486,1.80289833334183,1.80201166667516,1.72432164906016,1.72383914330231,1.56267617842325,1.54248889569715,1.57172982228595,1.58056981053878,1.64943630031595,1.65804536833909,1.7382058287033,1.94140000001133,1.48261128634697,1.44078012105779,1.46375347430359,1.47169578877885,1.54830953622826,1.60273018581783,1.68980999818157,1.78287166059281,1.76373180714368,1.81651581679512,1.87954999695894,1.85490000305806,1.42234250310911,1.39142626841712,1.42769006253119,1.50716103973914,1.51334021032331,1.55597097560138,1.77907999848209,1.74281000153491,1.3612478846106,1.36200795932133,1.35828033261291,1.38065989641093,1.44906003330229,1.51855856769446,1.53402999941072,1.64532947541021,1.64661946642353,1.70736000001133,1.272027839982,1.26241176200703,1.29316320668645
1.19222075510017,1.18587793914605,1.18091413695868,1.17824841299637,1.17588038268929,1.13436233958593,1.13404725253791,1.16315391014651,1.28485857657816,1.31191474144936,1.34918970122319,1.34281724023676,1.3379605801568,1.33388787813747,1.1688598113569,1.11356897193164,1.11246034816246,1.12535314083103,1.18028971834569,1.19774113966151,1.22400379128196,1.23619032766267,1.24401966038076,1.23764054198892,1.23274221930796,1.23562891665659,1.23802723531959,1.25684397434007,1.27307555395109,1.27329328182665,1.27471691335484,1.27743075558975,1.28074442179143,1.28297597290557,1.27167780590199,1.26451797887025,1.26862048970406,1.27502158008155,1.30077076440477,1.37104647316274,1.46407136108458,1.51740870073848,1.5359230671079,1.24679372228361,1.24273547418049,1.23990632763265,1.23866363116535,1.23772149303737,1.22946718723813,1.2212318187393,1.21744231889986,1.21399104165516,1.20803501907626,1.15418480822716,1.15252636529464,1.16009500201538,1.17033131386079,1.18889284357018,1.24516022462297,1.25489246448908,1.22173691939341,1.19632185846626,1.16274896995358,1.17077492394516,1.18540494059799,1.22552427438391,1.28190556300149,1.40568373745212,1.41605249726893,1.39099386209572,1.36663155266012,1.28913388042465,1.2895848360327,1.28943479222798,1.31753320973411,1.33625401110451,1.36669104722747,1.41230557103765,1.43944626233012,1.45628840146481,1.42148200433074,1.36077652227856,1.35480233887892,1.33252049832548,1.33275315901053,1.36746397329643,1.39045642705902,1.51560167082766,1.52823117981702,1.41783041951184,1.40066793572404,1.38904927178916,1.36592135925848,1.36973810183305,1.42405866289968,1.4468369817656,1.49171775759071,1.45975296174462,1.41639925577499,1.4145291971427,1.41930696195889,1.43104639732538,1.47360645308442,1.49555439660439,1.49558100448906,1.41370947723365,1.41502218155625,1.41645956150041,1.41735544980111,1.43644309866,1.4751494631317,1.54408655722007,1.54165141871863,1.52030736726801,1.5152342307566,1.52334012672075,1.54587951414801,1.5786097350467,1.60949772962991,1.63720425998151,1.73959341994898,1.74886953460415,1.57194702303871,1.54331454005778,1.49834384911923,1.50316355956936,1.54021291099114,1.57501498334594,1.64130210175193,1.64519107761158,1.70214201430164,1.76718072702928,1.77404694207164,1.75687973839143,1.75057158506533,1.55752782977797,1.5511963236139,1.56398958000142,1.56743373546557,1.61067456584397,1.66406661144155,1.73887024116124,1.76440427590213,1.48243707585603,1.47128981169751,1.46819126619722,1.47268793154806,1.52319202542429,1.55839493281325,1.63217748326686,1.67113398921256,1.73579086149063,1.73028505170727,1.72565489828961,1.72133553023186,1.41018570010773,1.38460933549003,1.37941623891575,1.37645752603527,1.37560824169551,1.37588699000626,1.3758890310097,1.37195595071074,1.36128086855574,1.36142185909992,1.36102195826134,1.37376350522956,1.38166321018975,1.39310675800169,1.40753911748769,1.42137149089682,1.44142918332071,1.31803485785256,1.26923376772607,1.26603943070275,1.27705883449169
1.23875033672154,1.14613000163886,1.25712213113002,1.20890002494569,1.52972000001133,1.11154029391824,1.13191319958031,1.13205664270042,1.3389299952618,1.28987998259376,1.36422323899412,1.48178500035083,1.47812499687207,1.55723000001133,1.08909353380379,1.09126668398217,1.11276771422734,1.11885754961651,1.21416999931793,1.24004998966981,1.20092013415697,1.17159000421565,1.46782000001133,1.24620009280514,1.22032055059497,1.24016592750619,1.24070607898923,1.26731066391434,1.27388382541002,1.26035383500201,1.26793278324697,1.25980330756723,1.28729382030314,1.28667504824294,1.28625340539378,1.25457484954016,1.27326909366223,1.27343806382928,1.29458994299716,1.37116686733386,1.4474000024458,1.53367993887552,1.70356000001133,1.25084425170353,1.19485070155093,1.18819911069683,1.19996514993376,1.1996250739842,1.18693668799175,1.19347346993098,1.20968971283257,1.18903501300576,1.1890950979651,1.14343993529089,1.12668024854494,1.14690005262097,1.17446481561472,1.2055797810756,1.25913010181915,1.33021999698141,1.19800760064058,1.19803364429446,1.15771141092088,1.17209032699632,1.18618356648007,1.24288999989501,1.30096975685811,1.41777985959839,1.55161000001133,1.2875000013586,1.3516603533271,1.27070018858033,1.30728058445698,1.27159027520137,1.31671408403451,1.35874972309481,1.37411558659128,1.4448670640288,1.53900999968277,1.48180999423202,1.46571999997908,1.37864429199374,1.37972913655664,1.3322929471798,1.33099911323444,1.36885094862486,1.42331006389431,1.52736986879318,1.58538999910877,1.43844477293928,1.38820037461208,1.43663999250033,1.36179616607133,1.37720265033941,1.42740801880472,1.47839999738953,1.58373000001133,1.37496542513776,1.40048934884054,1.41211021102668,1.41879998675551,1.42527752563109,1.47528800818807,1.49431530325096,1.55501000001241,1.38262543193124,1.38440932590098,1.40558570289507,1.41761086662909,1.43073290162793,1.47578916023123,1.59844999699198,1.55843393808992,1.52747577389042,1.50983063339575,1.53003843297975,1.55458006470707,1.59431997409483,1.81403549556996,1.80556789986539,1.79800010898673,1.79672805697831,1.73902212759815,1.73838862152792,1.49603923154782,1.48611961944075,1.51281554650174,1.55136981447571,1.62440824620652,1.62604177300575,1.6850501973495,1.74052075948912,1.85892037933249,1.8491096206845,1.80362567345378,1.51908999967685,1.48592000385448,1.53661368005044,1.5617517520191,1.57453977446358,1.66882635748937,1.74166181171015,1.84707000001133,1.48028844802466,1.50925970442943,1.4525200674719,1.47420199980654,1.49835011332918,1.52360999726604,1.606710002012,1.64411079079352,1.74242388318007,1.71120052850788,1.70182336872174,1.69958776797957,1.36051989399195,1.36040417088414,1.3658268876255,1.34868431388731,1.34958571230245,1.36136385032129,1.3397602880807,1.35750486103099,1.35134710396686,1.3223900100859,1.36321386940774,1.33222648346517,1.32778500832043,1.32254841851749,1.31414996593519,1.30564001784415,1.81891000001133,1.25717823699352,1.2454161532276,1.26499697224515,1.25480640078364
1.24723545848991,1.25143588149114,1.25306357637062,1.22749730419658,1.20468792421959,1.11438788078287,1.13163996516038,1.13165910952514,1.24929504856777,1.28489622341907,1.35216854911754,1.45616604219701,1.45879027184959,1.18119420268984,1.10727207444406,1.09979342030987,1.11850227624453,1.12458973792548,1.17159050031359,1.19843459736542,1.21598673216437,1.26220784507011,1.29592308951697,1.24753240053239,1.22749163892024,1.23809292528077,1.24031953222669,1.2577543738472,1.27200492149547,1.27183963320406,1.27375273813148,1.277280048064,1.28181307181313,1.27300806669551,1.26906211678788,1.26432823573676,1.26902681485764,1.27085267418099,1.28045195535321,1.28950903236208,1.30301420863223,1.28948719274455,1.26580865829715,1.23713958641769,1.22034180017738,1.2168461117994,1.21417046403047,1.21265166375575,1.21212678565077,1.21195817989748,1.21167863032477,1.21152392044146,1.21181409068212,1.21217663886012,1.20932154717301,1.20075582978838,1.21497576297832,1.23808056758732,1.27576957551908,1.28712379608496,1.2545642762759,1.22275114912746,1.19861074440408,1.19513570545765,1.1948054682394,1.26105561108437,1.28710295480099,1.38010063168144,1.41135747971781,1.37381856689969,1.34225632481437,1.29440341333153,1.29169991508753,1.28897261674031,1.33226724740612,1.34049366429415,1.36777896910303,1.43860549073167,1.47723934798818,1.44708444220816,1.42285542789091,1.37396450684375,1.36905967401232,1.34382962185841,1.33874637021479,1.36842909974704,1.42325040111363,1.48888727995234,1.52043762813336,1.43801893044531,1.39723575545476,1.3885746374035,1.37534195737673,1.37597720417159,1.43033581485227,1.43156274165844,1.41329633236108,1.38612447054831,1.39506786771955,1.40177042979703,1.40730330708201,1.42274881412212,1.45857412238529,1.46471833393054,1.44976974230767,1.40453227281046,1.391837471569,1.399443175173,1.40701772816742,1.42584553715263,1.48586921038829,1.52746628721694,1.55938920758961,1.560065332725,1.5603397592356,1.56013404989762,1.56671337033552,1.6267008688873,1.79083842891951,1.79094915968728,1.79166963153163,1.79410325105944,1.7754348878035,1.76891032521378,1.5619807646556,1.51951934895254,1.51630820906396,1.53917689722287,1.60872460900278,1.61381205850283,1.6507584569848,1.76738339685411,1.81654359548302,1.81632461866463,1.81581667984117,1.57036544481534,1.53102227287298,1.53417516487174,1.55730241277479,1.56217642865261,1.56842393006418,1.57676389547408,1.56918691739493,1.47329366398281,1.46999551262145,1.46565383652557,1.48167942407934,1.48983525885751,1.50917511689733,1.53377515830501,1.64684478579461,1.73531072338049,1.73212267328755,1.73103892887868,1.41135706175082,1.36095762544206,1.36047152222292,1.35992919295624,1.35527456145713,1.35425575389855,1.35625534935729,1.35465283398257,1.35524523828309,1.35695463785951,1.36071917675614,1.36241835301788,1.35329581665938,1.3462114901718,1.33994651584531,1.33406860079154,1.29658903908473,1.28440814865195,1.25378650473638,1.24932968607256,1.25104389915855,1.25248549889002
1.28116386093162,1.39215998304426,1.34849012432795,1.4197199962678,1.15809000019535,1.11197845804186,1.12972787319085,1.12973696938836,1.20911092291216,1.27510007905736,1.34258001564683,1.45426351103427,1.4621696042956,1.12988999962376,1.11657450965392,1.09522648036496,1.12403935984228,1.13761136778576,1.13261105026499,1.1678700041349,1.23399904764336,1.50273666667516,1.50516333334183,1.24947861877517,1.20835031218419,1.23385712183441,1.21917490928497,1.24769941648282,1.303889876089,1.30324985154714,1.44697000000566,1.50229000000566,1.55203000001133,1.26825980978477,1.24256322854241,1.24324748261413,1.22465002448393,1.25438425423195,1.26840869468838,1.2692172508816,1.32986962374468,1.18520113620033,1.17620007955765,1.22289541511716,1.2242096340152,1.2604199954538,1.2760698620247,1.29161979064428,1.34266109225143,1.43127610509944,1.5343037614776,1.53017154250399,1.30908155599053,1.2186324421918,1.21864720348623,1.18821478033464,1.26461865874593,1.25745741153267,1.29900981610549,1.57619000001133,1.29490999478573,1.23919996705683,1.20576323159617,1.19493338798431,1.1933060185946,1.29172008515514,1.27314947240195,1.34923026981463,1.53010000001133,1.45090999940495,1.33353171696856,1.29712706250341,1.2842371511593,1.28628475061829,1.40625999937008,1.32538028808127,1.36344495154038,1.43179413227489,1.54061999847842,1.38660580104574,1.39584420029728,1.36429462998254,1.36472545015644,1.35787395147286,1.32981021440392,1.36895220616859,1.42350428819075,1.45353018674354,1.58616000001133,1.43786073616375,1.40701182374047,1.37406833037434,1.3719137505785,1.37573580959953,1.4337144507741,1.43330745117838,1.40606866999985,1.36758123546897,1.36554787273639,1.38544845676147,1.39903650408405,1.41945497603688,1.45035950064296,1.47793978818454,1.43921003875607,1.42997985962554,1.36000011851024,1.38856200469389,1.38435788224293,1.42233940440532,1.4982642636988,1.4847886302873,1.65159999833519,1.5864939321672,1.57071036325415,1.55941459675164,1.58741006725516,1.78641348043141,1.7922802519467,1.77682190682213,1.77570829696603,1.81742020815884,1.85219015317777,1.86521994431933,1.86405990233232,1.52059582356384,1.51381307037083,1.53372921768862,1.58878974021471,1.60275997226678,1.60824006740634,1.77168457526292,1.78688068365199,1.81859348364842,1.87506333334183,1.87347666667516,1.52790916217418,1.52804498646716,1.5544938978267,1.55642073493939,1.55256474981965,1.59722972522746,1.55511006393616,1.42665494477736,1.40525022097425,1.43412042724822,1.49066619991505,1.48200166043854,1.39127845710204,1.39872154288048,1.65690940616976,1.75212206078222,1.82730999921089,1.78623786299741,1.33983212812228,1.33757593582427,1.3464023906558,1.43079130679417,1.41948850965575,1.47434999677429,1.51955999849953,1.67061000000566,1.89649000001133,1.71730000000566,1.36273475732652,1.37335673971635,1.389999915006,1.40194666280509,1.39981313103515,1.52303000001133,1.24764422463452,1.24886737294653,1.24361856141457,1.2083196752575,1.20225033236827,1.25213391459774
1.27623516572819,1.3642518471654,1.3692851806149,1.38488274635563,1.20579235891045,1.12641105828089,1.13378074161044,1.13894183700418,1.20959734898678,1.26717555925873,1.33019522390851,1.45596361818172,1.4585845212126,1.15982818702345,1.15311668843212,1.14168829204659,1.14197428082157,1.14044659049378,1.14131019058903,1.20111360585093,1.22621587707141,1.40703256580194,1.43512733121994,1.30249443646644,1.22771351955752,1.23453394944414,1.2358172254828,1.25826505139965,1.28884942931944,1.28066947017913,1.27039129511878,1.26341012173742,1.25935124548335,1.2565624979901,1.24936385168129,1.23407961941712,1.22876769541157,1.25612275358431,1.2695065631897,1.29045428007732,1.30544548865536,1.18533851546499,1.18112970421363,1.20718459435028,1.21570402916992,1.23441618457869,1.26599566305937,1.2686884312053,1.3402431435369,1.42814640462616,1.53120899130864,1.5300797632576,1.31426072309015,1.22818336190118,1.20539780088763,1.19840957365563,1.24779813885497,1.25832921636259,1.286382136518,1.27213720954627,1.26426232149499,1.25815279399423,1.25308626640043,1.24055647148116,1.23978400750873,1.28146859386407,1.30753087199291,1.34002841683369,1.37819945030588,1.40691022739315,1.33099317494781,1.31655494513459,1.30393900176671,1.30382426407393,1.3354413297232,1.3433267628123,1.37136974861049,1.42913913582781,1.48583655556958,1.46059554214782,1.43442270424713,1.4069113330112,1.38086672678372,1.36039926487572,1.36100877540956,1.37547443950602,1.41968961116581,1.47470906003475,1.48255514208749,1.45881032957395,1.38579770146082,1.37346725774917,1.37429859935127,1.37489632088974,1.40686315034183,1.41800626302043,1.40433347262171,1.36977464361137,1.36739218615041,1.39542962747009,1.39901424206692,1.41077612193262,1.424419924231,1.42777636787794,1.42951579972003,1.40561255664989,1.37647703644422,1.38819579825742,1.39074889896213,1.42007473218311,1.47856426190829,1.4939761389507,1.60930584054248,1.58948763305678,1.57968674564356,1.56760600442172,1.57671441089972,1.61865076482992,1.75749586208807,1.76938805658887,1.77102428288681,1.81073720694993,1.82590027039367,1.82435099452007,1.8240178532284,1.56684486945087,1.518108244652,1.5244441228192,1.58769401167835,1.5947120400536,1.62105461233223,1.75756321751246,1.78782822871033,1.84614767805249,1.85860866537117,1.55542764024906,1.52613957922685,1.52612034196912,1.54197468101875,1.54262251158822,1.54631136229474,1.51486633032648,1.48378646545293,1.43637783944966,1.41597593905223,1.42340721031665,1.48711870153543,1.48433024382459,1.50656422089686,1.53243213543732,1.68712056086305,1.75099601475197,1.79461918455047,1.79311849187138,1.34040788254541,1.34014122415558,1.34399074259491,1.38281796400035,1.40845545136191,1.44891129301758,1.48165161191325,1.51268070800674,1.40969619318815,1.3818396734318,1.36436106654851,1.367830993605,1.38278249407899,1.3842275501205,1.43139782287194,1.46077718597324,1.3343540699832,1.30191800997861,1.25343123296978,1.24690597742032,1.23935409648004,1.26152931221586
1.27209392384191,1.35883395733616,1.37492632894121,1.51972000104397,1.55108999761852,1.12083512879156,1.14639721991512,1.14685991111093,1.20965757511755,1.25773829855593,1.31402654783201,1.50448000000566,1.55528000001133,1.17731309593455,1.16491974001062,1.14176121881332,1.14105541998396,1.14174066654972,1.14083442656457,1.24351972929786,1.21816384564656,1.3833500016448,1.57654000000566,1.64863000001133,1.22255256058564,1.25395223484339,1.23868503804383,1.2708896901439,1.29547918415577,1.25269602290249,1.23030177376918,1.22986834845824,1.24929458489613,1.24753163368117,1.60892000001133,1.19989172816454,1.20187019671231,1.25772774847335,1.27075086027003,1.31412983387351,1.39696999986543,1.18566659716673,1.16742998088368,1.20145058970497,1.18724521174024,1.20383334534616,1.25652806234778,1.2546779762729,1.33817310432952,1.42518010509951,1.56320499885172,1.561104999483,1.31972452918627,1.23540986671689,1.18463034757302,1.18321386304549,1.23221998224499,1.25857454244706,1.299991158815,1.24383501860811,1.24273500386596,1.3418098253305,1.27122094286016,1.24199349248252,1.23993483733858,1.27465734245571,1.33356397872316,1.33209546945927,1.32917491818308,1.50177000001133,1.32963741562701,1.3319376795474,1.30479686813759,1.30422982043543,1.32195298734823,1.35967266802165,1.38400445621182,1.42679914731227,1.59921317785796,1.70876000058327,1.75228999943373,1.43451294252865,1.39897005919064,1.34205033421105,1.35967066353081,1.38495989902548,1.41556176796216,1.50104043828456,1.50166766155722,1.50222752023627,1.36937798595848,1.3726175988044,1.35410035215916,1.35245492883553,1.39320692385062,1.45179999364671,1.40286798938483,1.37289516608312,1.36537553989605,1.40116667266271,1.39961882273463,1.40234092451734,1.41955998363275,1.41460184536411,1.43594914416351,1.36757537590273,1.37359562282372,1.38623840589474,1.40287068664382,1.41817327229656,1.45800769208555,1.50275825326721,1.63746992547437,1.59187882098168,1.59191731508909,1.56002896027843,1.55786370446738,1.57702930008069,1.72581064188432,1.74177619806666,1.76286035603875,1.80348392197727,1.83035294168231,1.79626862614319,1.79382238462088,1.81571985158536,1.50464323499873,1.4908713372582,1.58636199795257,1.5728342123517,1.63591980143976,1.75566040316447,1.79192152867749,1.85376000000566,1.94203000001133,1.47088242355221,1.48481542802756,1.48141826472726,1.512439946688,1.54005395407842,1.59458999665721,1.43430977189009,1.44131745118885,1.441451580401,1.38899019449641,1.41299765575052,1.48619042955531,1.48389835858392,1.58457011172543,1.59568988729394,1.71139000000566,1.75479414871075,1.79945563019968,1.79827882962475,1.31591999994818,1.30003108967129,1.27242000501235,1.35395980113697,1.40098993928116,1.42604017005699,1.45061014419785,1.63020000001133,1.30926998949271,1.294654623252,1.28299434301813,1.32532999645336,1.3369498148679,1.28041000124193,1.47317982451643,1.58589000001133,1.42877501012008,1.42891499862277,1.26564980673872,1.2551337369445,1.22800996692134,1.2681251023099
1.25667464384795,1.33655641539064,1.41021607821614,1.49289772597758,1.48891382080608,1.15384197553106,1.15077494148905,1.15149725307326,1.20265704743296,1.25811927099914,1.32202979030052,1.4612243285317,1.45877528475132,1.18160626177266,1.17239195310659,1.14524087831234,1.14536013191348,1.14787358963977,1.1498225516004,1.20080265492312,1.24946195671601,1.27058135023901,1.29452971976174,1.32222359399081,1.22725806366135,1.23080770323858,1.23518168434351,1.24934681252061,1.24939357123632,1.24889288033415,1.24540971951111,1.24394066008545,1.24536870858514,1.23735712165304,1.2238095768873,1.20108446036191,1.20178398471668,1.24176652641526,1.28255142327885,1.30346773386981,1.33390217890243,1.23541769972829,1.17672152076033,1.1828466193252,1.19125463860911,1.20376721649784,1.24117766442289,1.26321437647422,1.31014294066354,1.38557005389608,1.38304383289589,1.29429974941159,1.26152464883775,1.21201069672373,1.18898553623947,1.19070870291958,1.2193939323395,1.24480570473502,1.30923560963155,1.31278974844936,1.31429253676873,1.3226122178233,1.26486797221935,1.24398861015242,1.24600040340528,1.29282117443921,1.32997594582866,1.36623075706736,1.39389581764756,1.42349513663973,1.33577780248858,1.32707559273826,1.31685937908324,1.31119101271631,1.31898967141961,1.35813075062814,1.38346528766613,1.46267884434729,1.59657121717182,1.60735987947161,1.51432093957485,1.42893057038181,1.40740844485343,1.38086812820385,1.3815362515408,1.38976259143639,1.43200039471394,1.50046797858699,1.50014482564728,1.3987120349578,1.36491562731428,1.36181230000671,1.36006367819314,1.35529318385122,1.39530494384689,1.40334730046692,1.38590882193228,1.37044341935952,1.3679288261233,1.38508421340934,1.39962042603152,1.40096602207132,1.41835450308133,1.41619974434846,1.40915391430009,1.37362659337296,1.37365477475602,1.401661208372,1.42234354699905,1.4311543186773,1.46444143056977,1.51801146527417,1.611204229323,1.59425485578482,1.58140026129722,1.55878985585789,1.5580755842383,1.57251571675857,1.71947457652212,1.74072424898465,1.75525587138683,1.80136867320569,1.7994726647611,1.78897836703599,1.73460991148736,1.7295398392658,1.49786692786884,1.49524047616916,1.51722963864619,1.51853075097005,1.5107513080435,1.50648548381376,1.50267333730585,1.50044374980641,1.50110844652578,1.47351047158943,1.47631156726139,1.4789413016694,1.49547726169461,1.53545558843804,1.5449402747026,1.50960333110574,1.48126291472513,1.4229266364564,1.39650681263995,1.41125186136496,1.46241303857598,1.4671112846262,1.52602218592201,1.54746846489585,1.5479006493577,1.54753557272839,1.54711482694328,1.54736924831904,1.36899002467413,1.30155607858852,1.30494276722422,1.3398391584744,1.38963637829574,1.45118207240591,1.4736048194424,1.48530373215434,1.3662506553736,1.29684248188873,1.28783728000332,1.30878199980259,1.34404622324356,1.37926324552136,1.46601420654409,1.47528375325055,1.46185390956408,1.44289927616404,1.27078403876264,1.25947975715175,1.26375765625546,1.2698259378989
1.23719020615403,1.31646334948049,1.44214000155194,1.4981888064396,1.48073198213163,1.16237741196284,1.13050033401997,1.16728199972325,1.19591613194762,1.25817488049278,1.33270629220531,1.4647767388972,1.45780526003801,1.194139781162,1.18201576577098,1.145465383087,1.14408115613857,1.1727096434538,1.15504856275983,1.15543996915218,1.33634000001133,1.19615332968298,1.19896667215675,1.62088000001133,1.20154106271003,1.2189450592001,1.23466009017362,1.24919526776743,1.25064852830075,1.3136702287722,1.35459025047435,1.36048381062926,1.3727213261328,1.14341892694363,1.14308582173512,1.17744710287225,1.17703316009055,1.22787441429555,1.29304312276184,1.29451651724257,1.40377000000566,1.46665000001133,1.16308011085214,1.17406042094492,1.19383692543609,1.2032769608741,1.22565622734568,1.27257040467241,1.27603995364487,1.38936919442215,1.38168630558758,1.25110981731128,1.21769982938792,1.1918829215538,1.17486032521514,1.19964881153396,1.20696006919185,1.23538010852511,1.52780986283453,1.5856500020418,1.6065400068399,1.63026999114095,1.26057731853597,1.22917032029135,1.24715936680634,1.3119783653143,1.32687794234038,1.42492981154159,1.47867011142464,1.57912000001133,1.349046518658,1.31905725604,1.34669938710002,1.29176029731926,1.3143891560817,1.35701857360745,1.38305347790723,1.50710999945452,1.59316517785796,1.75554000001133,1.45554344211878,1.41853787208496,1.42164311763128,1.38080567839806,1.38255019031802,1.40007014860258,1.45373893617018,1.50155375057603,1.63248000001133,1.30928450534756,1.32124514449469,1.30143863700269,1.36611890147666,1.35271010612428,1.39793443435301,1.42788980733041,1.3659272718728,1.35173367052794,1.36052815809843,1.36984808417014,1.40000432104398,1.40034999576813,1.42213232557107,1.41422341983398,1.40365674101938,1.37221249466452,1.37303221522757,1.42200223281247,1.49830999571151,1.44017000382094,1.47074803470148,1.53167005502469,1.76218000001133,1.59596294131247,1.5711797236397,1.51966501874742,1.51928499879943,1.56705447174767,1.71031042073053,1.71992000199716,1.72702026959063,1.80434856883618,1.76170640728451,1.77469690166579,1.69948055945737,1.6993202229583,1.45805167272284,1.45725832976916,1.5183014890131,1.52534601511032,1.48229432339189,1.49113556373056,1.48164211400046,1.49278800491934,1.46023997541906,1.44337449157965,1.43467780523366,1.44546070770429,1.48237995387811,1.5284712815926,1.56229992937262,1.57162001872793,1.83235000001133,1.41774041887712,1.39477581116646,1.40815363072598,1.44744014454832,1.45994991559609,1.48889983134992,1.54691059655457,1.54939375962427,1.54635210701511,1.5475614979292,1.54735392651553,1.53724009380344,1.29713517162598,1.30637795694938,1.3269602558587,1.37747020224651,1.46721995032398,1.48805887472333,1.51908202843076,1.5231279651465,1.29725598473267,1.25624000793709,1.28906468741999,1.352879929138,1.42119983290079,1.46060139504638,1.49862050868707,1.49542880577315,1.77201000001133,1.28813975962972,1.24155019341239,1.27173194457746,1.27058734290136
1.25737058145079,1.3182938709462,1.46320637174718,1.49309406050443,1.48966547780366,1.15770203272217,1.14476952230863,1.1570257190236,1.19562742616269,1.25047248009501,1.32142855239399,1.39325270333839,1.36658889529089,1.24094521677958,1.18943443046862,1.19187381280665,1.19887088107989,1.2058990011446,1.22051643495166,1.23182517041511,1.26824965329273,1.24124931953649,1.26994777239381,1.30007676402812,1.20784366222248,1.21267292598259,1.22506061593801,1.23204796931317,1.25572323302521,1.30449562995501,1.34805915466832,1.36545491241072,1.36817679710595,1.14781400414213,1.15120392969224,1.18727346963391,1.19330158860107,1.22072108117553,1.22164756469777,1.22269054815533,1.21057777372793,1.20905988341903,1.18677515843876,1.19065682254616,1.19240154546176,1.20679246478973,1.23391440641988,1.26693925669385,1.30173647935415,1.31978591260859,1.28807874109731,1.23861215207616,1.20535416270418,1.19413376592764,1.19481638385902,1.2145561305699,1.24834013992084,1.29176372731513,1.51452885025742,1.53325599081567,1.56188222360252,1.55759140673299,1.29643575260654,1.27978511546521,1.27928552248518,1.30998862734531,1.3246126125125,1.41059286498379,1.49713103609697,1.51502770846442,1.3382022889379,1.32367268668681,1.31639488100652,1.31569015167935,1.32051248736851,1.36422854991386,1.39806603255164,1.44939580754852,1.45831106730864,1.4568063007339,1.4559466890329,1.42759269154794,1.40578775095033,1.40129208708387,1.39600374672304,1.41463205612296,1.45068335600999,1.45517254841489,1.36631474592009,1.31039225088941,1.30688209454061,1.30393631628197,1.33786103526325,1.34404552400964,1.38933213101293,1.39427977951267,1.36773774375025,1.35578806618894,1.35934706045731,1.37333739958862,1.40303824401915,1.40375569343879,1.42036914880915,1.41785406336097,1.4035534531209,1.38368331723251,1.38702291749978,1.42203912825564,1.44388019843236,1.44829949709902,1.47886531108579,1.54293405596273,1.65006862271042,1.62630164009287,1.59944285465955,1.55695838688976,1.54205441810607,1.55218673572391,1.64181446850476,1.68252544164992,1.69471202454138,1.71902607419117,1.76740349672956,1.77035164256187,1.73470531014135,1.72946631129308,1.53409271670495,1.49033340825914,1.50521923047656,1.51437236054215,1.50869306111051,1.50418243779035,1.50071730101589,1.4986912134222,1.49832317232591,1.4856013288063,1.44741736368519,1.44726449969172,1.46930728476751,1.49615592736509,1.52727199324652,1.58957420081661,1.61120048902113,1.40988593376965,1.39842944933374,1.4027608667798,1.42712229775022,1.44175239388961,1.47690067314845,1.54746019553091,1.54775100445702,1.54702459678393,1.54592536502889,1.5455325303943,1.53987531018777,1.31854340544785,1.31741604776738,1.34058014106703,1.37329691015618,1.42227168364491,1.49414628748373,1.50653576151533,1.33692843993768,1.29517797436292,1.29272444379857,1.29441202573814,1.36075386071131,1.40436565800554,1.44996447822887,1.49990044633409,1.50153903112127,1.50383307715031,1.33081027702626,1.27763070567532,1.28107495359971,1.30681385639079
1.27768990729172,1.31944841863059,1.49942013468326,1.5406823446174,1.54006026891909,1.15112548205441,1.12605015349403,1.14950218583234,1.19560687699045,1.24165631635274,1.31166604755401,1.45096999910353,1.33078361529046,1.33627658057207,1.10498999998867,1.19653314150995,1.22514778713815,1.24385197340369,1.24093242096435,1.24595525588196,1.32323999656325,1.14305000326203,1.57400006414282,1.59526993587417,1.1849493313135,1.19157572889617,1.20546984750573,1.21547699099239,1.26202801151467,1.29476853355763,1.33355677814202,1.36840529474934,1.53196000001133,1.12942006141584,1.1530025425817,1.21696033769449,1.20100096564567,1.21982299213107,1.22303803808389,1.22200321935934,1.19554996204951,1.17876277837912,1.18108417822606,1.19573009685222,1.19183571083197,1.210066281283,1.23970021760306,1.26152186335777,1.33983000111524,1.36508999476961,1.22495996685095,1.22888033961658,1.19813989132348,1.17436027206758,1.19385818370132,1.23240989732249,1.26932999953606,1.33803999999995,1.49887885311393,1.49872527221192,1.56584943922544,1.5478776307982,1.31257188617487,1.28015816106908,1.27834253462924,1.3083618923195,1.32296077123227,1.39369023279945,1.50647001454706,1.60705000001133,1.33004284756909,1.33253516366317,1.3133301981682,1.30202011050902,1.33256012189245,1.37025908901627,1.41607969916048,1.43322722251579,1.45870691376175,1.45619099996565,1.46920817575871,1.43692630099946,1.3911830248282,1.4098340256809,1.3880364483306,1.43741153720207,1.44092276022215,1.47063977121942,1.30331573192371,1.31550575740309,1.27161480673484,1.27128143977279,1.33016845569556,1.33208154663379,1.38054323784845,1.39994929803147,1.36794302925856,1.34836062109755,1.35883836244529,1.37529139425646,1.40583636582263,1.40761888682042,1.43960065216046,1.44145776410598,1.40332311198786,1.37908728983837,1.39557205602174,1.42250069106997,1.43053392101499,1.46284633683145,1.49307009172247,1.55622967089986,1.77771000000566,1.8403799981924,1.80632000182459,1.57817988131623,1.52497866132539,1.52032733086856,1.61311632204146,1.66461162974605,1.66437841002017,1.69195130225674,1.77123699329768,1.82843824256329,1.91087012943275,1.92537999094323,1.92377987964668,1.467970176841,1.48768590734243,1.53403480566581,1.55423000015888,1.62912411082761,1.76305403810171,1.76355108251114,1.83868390335462,1.91846000001133,1.44566643527839,1.4166317730418,1.4147583837227,1.46208976167448,1.49946982467654,1.70969166667516,1.70913833334183,1.4037971770888,1.37078585532942,1.37496432377018,1.40068948607614,1.43012230935953,1.46666982026158,1.59934999902976,1.64258000000566,1.72237591384155,1.78277006826871,1.7915701544154,1.79038519469908,1.31917108441627,1.31451139024061,1.3645397031282,1.36833497798128,1.38302997399232,1.49956720244276,1.52067991079656,1.25896025523311,1.25936538467363,1.2900159024976,1.29985604920519,1.3701049506823,1.390052877674,1.43656017847741,1.53858982536332,1.50982658252881,1.50638322015859,1.49893009872974,1.27255238719316,1.28988935191191,1.33240254285011
1.24970601875969,1.30986458720581,1.51841897653067,1.53946773247691,1.53924462082258,1.15582048178379,1.15950766799563,1.16381421369768,1.2184652801209,1.25276694480024,1.31056717503381,1.35571537395168,1.34468928367064,1.21885192901934,1.18617441682747,1.19006860899904,1.23095800591462,1.24024855466429,1.2528492544199,1.26293741592077,1.28032148754503,1.16014633464534,1.16216943839986,1.16859901337962,1.1785586546622,1.18347877285169,1.1938332643205,1.21682584524896,1.25894451740403,1.29587257602656,1.33969690912492,1.35110187259473,1.21464436665968,1.16469100953901,1.17539420735457,1.19923023593543,1.19996316106759,1.22159238231726,1.22244816411176,1.22336330960667,1.21097120713024,1.20904492918546,1.19787376317031,1.19619617553305,1.19438527654006,1.19939275910338,1.21851266600337,1.26137930222511,1.26115198166196,1.25989873931246,1.25709222474536,1.25315547159347,1.24906746016571,1.25624923458069,1.26249508836907,1.2685811827171,1.29331991330819,1.37599737259621,1.48997172450223,1.52283635873448,1.54062766437936,1.48048135266738,1.31898080722884,1.28340740500147,1.28731017347986,1.31646339585461,1.34643675803455,1.41671730361905,1.52464891865001,1.5453298277456,1.36382174094592,1.35367922109316,1.34032280045521,1.34239206178963,1.34242842492572,1.35339186436591,1.39803722473042,1.43863682275938,1.45917494483829,1.4582210496822,1.44689200303814,1.43139709443845,1.40900778100108,1.40036266151955,1.39541343063001,1.40952259754689,1.42751973850037,1.43981165603415,1.29559303754334,1.28931022347628,1.27464746787382,1.27874458499386,1.31091514228106,1.31796302446107,1.38074282478599,1.38230677207583,1.37720084622903,1.37186710067111,1.37491798481469,1.37646832755736,1.40202075456305,1.40571765827261,1.43216502329534,1.43651486953525,1.43148970165877,1.42559143273802,1.41759354572183,1.41936388653446,1.43502416419796,1.46148635832057,1.49977604711686,1.55739462838258,1.63481453616961,1.6108249421563,1.59322124935455,1.56698086490473,1.5285289563665,1.53039890765773,1.6078657431831,1.64100639909303,1.65090016871232,1.6923331752801,1.76131996397172,1.83164420890851,1.86551859126,1.87954543692709,1.61784434642379,1.49225966033581,1.49552713711956,1.53588757284923,1.57051243672228,1.62543595230373,1.75458375508395,1.76278049735874,1.85726331087481,1.86735786522043,1.48068064466856,1.42979920012476,1.42171097538276,1.44655453688158,1.48700867055305,1.59418213875672,1.61126424008233,1.40364771977696,1.40076799342797,1.39747626731239,1.39855721230049,1.42641382493699,1.47121640068394,1.52105963294859,1.591262006805,1.72180556386257,1.75599861136639,1.78795539029377,1.78720198836614,1.31986693408254,1.31824358903086,1.34105585628389,1.35339428019904,1.36761372353062,1.37611808939484,1.32935622055021,1.25998009715291,1.26007894413435,1.2724668867579,1.30840892319764,1.36851014580947,1.39144776978486,1.47404882740299,1.51727028079161,1.51335075796052,1.36738673903973,1.33516991117399,1.27766894142284,1.28116466397071,1.30639536856127
1.2235267141315,1.30045981913539,1.53801999782524,1.58746078919894,1.59908838299904,1.14968115821897,1.17144042329592,1.16936938902387,1.24477984612514,1.26471972370672,1.30947577260869,1.36922981864271,1.51032000001133,1.10496999998791,1.18110077399654,1.17497684745443,1.23677390456379,1.23720990910589,1.27878291841622,1.273906475194,1.3279599939043,1.14304945750819,1.14617061067609,1.15937044299788,1.14651947438016,1.17257881597806,1.1839407963201,1.21874055199033,1.25670501563832,1.29771616113612,1.34668486968873,1.44806000001133,1.13603019471514,1.1535700506241,1.18914401469705,1.1986913310029,1.19996898898138,1.24388964729414,1.29840113216424,1.30574842310437,1.25011000060861,1.39854999848489,1.19903123836272,1.17397274610724,1.15323991043621,1.16754099209185,1.19231143763171,1.26125353850874,1.17925333332485,1.18014666665813,1.60678000001133,1.25535091034391,1.24501949485262,1.26093354310207,1.28211567111263,1.28425884122981,1.31239010806261,1.49272792822321,1.47933187031552,1.6292333293906,1.62740666936478,1.43293000015979,1.32397108177227,1.26759012270923,1.29659394683411,1.32676302363188,1.36627362845623,1.43751009079906,1.55827022625237,1.61993999789607,1.37391976738468,1.39171745692819,1.33725088273613,1.34386179564756,1.34209956517259,1.34307339761166,1.3808301609892,1.44369936011732,1.52266686760803,1.70970000001133,1.43110007424945,1.42612252824087,1.42404078643356,1.36394986240113,1.33714290535688,1.32078017298603,1.41279014496818,1.54083000001133,1.28206983776212,1.26011462204334,1.27311952933326,1.28116159457195,1.29680739268997,1.29276538322969,1.39842080642226,1.38447216881886,1.38311103239573,1.36898153899573,1.41337973555358,1.377701965825,1.39513095780734,1.39291748916056,1.42580002855035,1.47540334319,1.45422377140664,1.44487740396483,1.41627656393837,1.41862085727714,1.43962165892601,1.46072592775639,1.50489284356003,1.5585819364879,1.74337000001133,1.54881012579106,1.56391071667622,1.55610909482308,1.51271027494974,1.53006981580937,1.60390767211691,1.62404971985175,1.63060020733958,1.69191931842677,1.73353030237707,1.84268650197961,1.84220030045425,1.92078000001133,1.57517000226769,1.48850035534228,1.49788391713112,1.53828706033597,1.59517992988119,1.62261622660586,1.74899639147505,1.75927938930518,1.89675015908637,1.91381984093062,1.50188999866052,1.44522090615213,1.41486224192416,1.44055039363106,1.47533573453096,1.57527005385729,1.73720000001133,1.4041032523218,1.40476614870466,1.38988465067939,1.39681282346546,1.42063268014752,1.47606680668272,1.48256986884924,1.55978999938495,1.71826402930384,1.73084029586363,1.81697987216157,1.80550596656841,1.3216561624859,1.28624010608769,1.31303875816962,1.33666094681338,1.36047425446621,1.39084969807517,1.28319898535888,1.22635010146748,1.24630995438365,1.26394016983171,1.32317559616486,1.36622572955861,1.39247029442521,1.52126926678397,1.52322911279062,1.70085000001133,1.31245999999402,1.27433000047495,1.23969000631206,1.26875996176529,1.27514006603252
1.22907419370982,1.33925573077149,1.43668190588838,1.5826546344742,1.58047287201348,1.19027516501861,1.19025359530603,1.19690772920565,1.2330011427944,1.24287947473903,1.3088937369924,1.32815296682296,1.21825026108759,1.19243075627446,1.179331596912,1.17873851402915,1.22245498594578,1.23250972375624,1.27322529609115,1.28250631088232,1.29673719070783,1.26433243396146,1.23472996943615,1.20406134133204,1.15641293909055,1.16119479793081,1.19247229783052,1.20724709301629,1.23708293854333,1.29757706759074,1.29756294653601,1.23178161291981,1.17323734113632,1.1760794089048,1.18234327476701,1.18567965935929,1.20191186485929,1.24473974470423,1.28722849892083,1.30145806106143,1.3204035695891,1.34442469798561,1.17909206264728,1.17236199531772,1.16293768316708,1.17446547140737,1.18396555287804,1.21733854255397,1.24670404447776,1.27630328477718,1.30698409961458,1.25283613188856,1.24951179065651,1.25499646659503,1.2783945544354,1.29237091357307,1.32084143030434,1.47067824157594,1.51279342204385,1.56395851054495,1.58300744156531,1.48048579160907,1.31634815241167,1.29630578515246,1.29604939253927,1.32970029840887,1.36529321988426,1.43283579501347,1.57401575603036,1.58163817669826,1.43199886365631,1.38870853879227,1.38314141987162,1.38135658797713,1.37815530248128,1.37441772196872,1.40062949193601,1.45090398263165,1.5211884251794,1.5454905830523,1.48062552635621,1.41356373347443,1.38243794593549,1.35250090394426,1.33701324586716,1.33527464987634,1.35630479676642,1.32657719744996,1.27442380977172,1.26536303138731,1.26878298148366,1.27644921378733,1.29692514684857,1.30490613730452,1.38646725329061,1.38522156868668,1.38503841982076,1.37354974178929,1.38219882517904,1.38281074443452,1.40453590620047,1.40935044991551,1.4460437690997,1.46831470909316,1.46225788420835,1.45568803664842,1.41907487143768,1.41978538128366,1.43809547240691,1.44122013186341,1.50239982018335,1.5881630550979,1.63643496584091,1.61212535942263,1.5937499913357,1.56780662540639,1.56163201271618,1.54731907514027,1.58348206146855,1.5982113893155,1.61985822622489,1.65336735082548,1.67618384290867,1.69612930833997,1.76975535347554,1.77041464931789,1.61784434642379,1.49314462201691,1.49614206012489,1.53922776599139,1.57739151032218,1.62180355917752,1.63695605148307,1.64017098111606,1.83023543531043,1.83023531414803,1.53467461923043,1.4322408851381,1.42548728911248,1.43151189312393,1.47364927948758,1.56670722958521,1.57471880497906,1.45542249100095,1.4010214531763,1.39374563199116,1.39590758681689,1.4175131572462,1.44405989901788,1.46644055646218,1.52547490387336,1.52210986418058,1.52146262933929,1.51456119768154,1.51136105455015,1.30632230948085,1.29786320368605,1.30319633190504,1.34341525401791,1.35401714527618,1.36732677965993,1.28876597941526,1.2667311792674,1.26687694370075,1.27530248036998,1.32431233936273,1.37170178292832,1.38343492865464,1.49060617710063,1.5135961338945,1.52979418515504,1.36288234446761,1.30321462563185,1.28787046376993,1.28727606986935,1.2976617077197
1.23422878351195,1.3825099977861,1.40373999908302,1.60339991982465,1.58106448596282,1.18904305494762,1.18987501378241,1.19879327966533,1.22239821354111,1.23216797073379,1.30814034906031,1.38583999903125,1.09735999998867,1.21080974193181,1.15336978346266,1.18080013692709,1.21015016883086,1.22856017821354,1.26562532040518,1.29288993518383,1.35010987262862,1.4308699278047,1.44416006729135,1.54010000001134,1.13815547427779,1.13153239190003,1.19831599321732,1.20046791148104,1.20632419201323,1.29883266238556,1.29943028250283,1.14310009258939,1.170897116823,1.18016057530742,1.1755197735381,1.17790821889635,1.20467447642367,1.24575406686016,1.27330002709586,1.29701891450523,1.41039999835766,1.57391000001133,1.1657753329697,1.16919039637574,1.13618012856439,1.18004979321854,1.17944109114638,1.16704955880738,1.29562999860525,1.47994000001133,1.38774000000566,1.22834836107055,1.2309830113062,1.23114917081661,1.27562007094223,1.30324977800213,1.3375196605854,1.45265273784229,1.55399077310812,1.53440923222329,1.6774800000085,1.6772800000085,1.30640517020808,1.2946871464713,1.29377635322459,1.33407086560439,1.36447364987148,1.42895013658296,1.59256014722183,1.6170698285487,1.57871013170136,1.36248039160705,1.38332582245108,1.40495969510704,1.39442898072418,1.37048988214989,1.41971970390625,1.45906628925035,1.51960038139948,1.59924000057377,1.59975999919948,1.39883970763354,1.34688999797961,1.28277025021009,1.31654044758868,1.33200460199445,1.38737998105913,1.28423000209456,1.2481522059653,1.20852020200223,1.24908994921377,1.26023006977533,1.29741949266181,1.32290847947785,1.38848324001763,1.43025999363075,1.38691923139644,1.36294400639117,1.38024355132804,1.38589902653535,1.4156041024405,1.4260300111617,1.46670981749966,1.50521341948346,1.50818082760335,1.45735224551,1.40025978897404,1.41033049421418,1.43709303421296,1.4272794026191,1.49934546974815,1.61796350673146,1.71584000023722,1.76200999977978,1.62064000068706,1.57715983324254,1.57485014622889,1.48630000067585,1.56628084105112,1.56379524094832,1.60705259751543,1.63064987366456,1.65550785812038,1.65653803662487,1.77414198857476,1.77618256298039,1.78139415739677,1.47731573195753,1.48724657545764,1.54071987557002,1.56098008510914,1.62342854520009,1.49435986510066,1.4762201348803,1.90631485708382,1.90821428585502,1.90709085708382,1.41600175080314,1.37418000432859,1.42075692137495,1.47172011133741,1.55114023063242,1.6035715877977,1.60028840923953,1.37735603499103,1.36086505814432,1.35364283129621,1.41195843920325,1.40965100092921,1.4454412072312,1.53916411290384,1.51729145840756,1.51932348229562,1.49959997076497,1.4862400714914,1.2961701142989,1.25394008699656,1.28931019038665,1.35017690185633,1.34584430504315,1.43586999875218,1.29429096725427,1.26682270422787,1.26714605374084,1.28983430323669,1.3257120758683,1.37736863242016,1.37499120026381,1.47101041217482,1.50629079022574,1.54821902118286,1.54789043123778,1.32050988033458,1.28846543454387,1.28675729879554,1.31601479170051
1.25961421259699,1.34686225148739,1.3781094566107,1.51750387393142,1.52609601466704,1.19506545958191,1.19224643849461,1.20429240466112,1.21492150923773,1.23214794901677,1.2427722085583,1.21238583710031,1.18642265269884,1.17689259733782,1.16678241991273,1.17252556113222,1.1916634733878,1.21514267391296,1.24214299702099,1.27717122740796,1.33382193957591,1.44075775612532,1.4599509364544,1.47349001535486,1.14191033893212,1.14904321412274,1.17169664765463,1.18065363422295,1.18353879264627,1.18128325760844,1.18000752301154,1.17915383266929,1.17951586631563,1.17855048619514,1.17712811579055,1.1879614524938,1.21446260974951,1.23570577525242,1.26208691385937,1.31907661661905,1.38569108535865,1.39465897953357,1.22339464930871,1.16621247506002,1.15531876292195,1.17686871464346,1.19116640320372,1.21705511670904,1.25452179872268,1.26525972782724,1.26177413805039,1.25278767323482,1.24083979122152,1.24237664448591,1.25823834271839,1.28162758357537,1.32387588810063,1.45307834571779,1.50305864858345,1.56374118962894,1.58212986170536,1.51861912765232,1.38162629711655,1.34794273915092,1.32904386704453,1.3356163868945,1.38378347283228,1.43884308878953,1.58547770267645,1.59867597334722,1.59014485278488,1.38565465743062,1.38446285797706,1.39217522620106,1.39339791536129,1.40448375037092,1.42639942414709,1.45994663391277,1.52043243953188,1.54142145242266,1.45751073684355,1.4052153587167,1.32747798570257,1.30045962395172,1.30737010874645,1.33315755986049,1.34788478790541,1.32167881094544,1.24320651169489,1.22750047504221,1.23807465712643,1.25199879581115,1.27749083463933,1.32296831027348,1.3579940628163,1.38451385609593,1.37567453564856,1.3712896941369,1.37571249310663,1.37877911649068,1.41228746757989,1.41715739983832,1.45323559478502,1.50348893489053,1.50466365378808,1.4652379087957,1.43390084134024,1.43408819591173,1.4410972151726,1.48855544470432,1.52747234496632,1.62142751095826,1.67606389244219,1.68710607974487,1.64872571448312,1.61563592204173,1.58455254626386,1.54885674881904,1.55931678071945,1.56531424311487,1.60449287259585,1.62110175056451,1.65760792919582,1.65823039906791,1.67477448308792,1.69435406759592,1.52359838194307,1.48140134281179,1.48465549212638,1.52700947001394,1.54422076177521,1.59003541426041,1.60062203599826,1.60937698101142,1.80912801163505,1.81735481738454,1.49285498539187,1.42154589861609,1.41631029009364,1.42674666726789,1.48415440641767,1.5232154024104,1.55216931945977,1.42626102933796,1.36979260905504,1.36438759661157,1.36769339855261,1.39715405045165,1.40942936963742,1.44160309578605,1.52554501501292,1.52213867519609,1.5214787396813,1.51372747780528,1.51160643882614,1.34348817255415,1.26800974688904,1.27492415706782,1.33138048241436,1.35341105962856,1.37995209618437,1.34108052090471,1.28684437166345,1.27900988273329,1.29458142205612,1.32786202822747,1.35912106034159,1.39223058968438,1.46348561667905,1.52570074066455,1.54777393615339,1.54762169654887,1.36341031717956,1.28976005074306,1.28890758015917,1.31482250326668
1.29115999553089,1.32477994216562,1.33412999961596,1.50226020624148,1.551349996269,1.1980778028845,1.15001000631221,1.20760836448008,1.20606637888875,1.23222347642268,1.26798972093718,1.10513999998867,1.19819984790537,1.1480206695608,1.15625215128928,1.15313439664282,1.13952150039174,1.20544344561097,1.21164655149955,1.26708014223562,1.32091016965928,1.4483203761572,1.49979032620407,1.50933966928051,1.12764969174863,1.16368202879725,1.14171966770652,1.16961814702492,1.19577814079784,1.17064010111795,1.17063635016051,1.34054000001133,1.18112306558637,1.15725451737809,1.15732899811048,1.19775039938111,1.22591356128875,1.22913221342224,1.24984962263421,1.34286683634382,1.36606047625382,1.41436007301339,1.42623987133718,1.16241396255287,1.13691018033776,1.17293627404884,1.21006966279685,1.24664364957816,1.23331643150123,1.26681633064229,1.25674969160205,1.26945220348568,1.23820868493238,1.24191817786006,1.24185214359504,1.2386505509264,1.31589004962785,1.45327619620051,1.45526008463527,1.63079015915352,1.62004983526084,1.47428000154172,1.43032013223675,1.36024418609615,1.32442587598391,1.34174874927713,1.39997999196408,1.45076309210826,1.57207021084048,1.62155993828613,1.67249999978195,1.38693980231678,1.34908011048208,1.39274938778719,1.39492640797996,1.41633572174804,1.43471992729367,1.46124076162983,1.52088170039352,1.59720999825686,1.41621006728216,1.41184923218412,1.28270252700315,1.26444612062752,1.28146000636413,1.33433828431668,1.37109293962989,1.48519000001133,1.2340538089183,1.20240019271665,1.22365049072509,1.24720278665979,1.2425633763071,1.32342202780298,1.33821743739796,1.39124104943002,1.37068832621058,1.36414027902856,1.36785155971945,1.35457037538821,1.40896558424608,1.40336912445967,1.44324956997162,1.49180023770329,1.64377000001133,1.47440006247557,1.43450659900102,1.43495821573499,1.4520300409395,1.53027983167256,1.55813979462013,1.62430592134199,1.64904022202379,1.73975023418869,1.74000704984464,1.82013000001133,1.59373987867284,1.53910247705345,1.50430000757759,1.56677769557689,1.60091529954314,1.6082103019061,1.65772852712633,1.64417535563803,1.64379511993257,1.92502000001133,1.47118982031199,1.45052952043911,1.44228733835571,1.5094334468517,1.51782115227474,1.57264699826031,1.63129460840622,1.63207556082864,1.79549946191031,1.84503000001133,1.44626018402656,1.43383680336183,1.39887022932615,1.43224013739084,1.49545242293384,1.49586743511941,1.61955000001194,1.36349999906572,1.34385671133992,1.31605021082693,1.37076584396152,1.38294335098466,1.40996408751327,1.43778218166485,1.63100000000566,1.66357027577221,1.83583981950319,1.8200901805138,1.53704791642189,1.54747173494412,1.24973500304489,1.25063500149682,1.30897021469243,1.36042013578165,1.48208009549415,1.58626000001133,1.30231351779032,1.25022000615616,1.29857337292113,1.33023236837321,1.34188013943387,1.40653999502181,1.4574998834455,1.59717848818831,1.59671758010912,1.66565776025095,1.73479000001133,1.27973873364181,1.28895631268404,1.3140248525261
1.26096789943048,1.31075700852431,1.38252262440582,1.43505448136327,1.43651390494969,1.19227706008899,1.18855126739039,1.2073949553784,1.21361230557472,1.22289175241797,1.23877222450551,1.22551877987872,1.21125688950209,1.1919844456232,1.15466512275292,1.15279726351517,1.15020584916261,1.18693502020652,1.194372835579,1.24829306137089,1.28995311721966,1.3644651237405,1.36684445026216,1.23615677297245,1.13883399441196,1.14819963689381,1.151464597874,1.16703543728138,1.18068792483265,1.17446956486305,1.16519616319168,1.16128537155601,1.15885785131125,1.15776423183196,1.15752572977336,1.17678219385771,1.20248031549151,1.22529079205566,1.26070543256565,1.34448368645715,1.38658068938533,1.39473669470993,1.25565440327846,1.17174395426473,1.17271351849552,1.17322605624872,1.18541528298665,1.23560609960573,1.2575481099411,1.26693423385873,1.26712867441493,1.2665389006054,1.25053952819745,1.2416785429089,1.24097173066836,1.2454682355403,1.30061308566042,1.34957331366922,1.50271645930788,1.60513958132037,1.60234438902432,1.51865160702045,1.44006540130512,1.35859595673089,1.35603227456217,1.37527662583051,1.41758796382153,1.4418865674086,1.50365738238565,1.61585253874821,1.62162977651244,1.38756060112142,1.37023828549505,1.3795087977735,1.38564399524271,1.42467492034602,1.45074164371864,1.46952612617967,1.51822973029753,1.5407838287707,1.39241253765767,1.36441282717875,1.28644249986003,1.26949034935705,1.27329596115292,1.3112633571877,1.36445470045341,1.39387649720909,1.24163253124555,1.20550972924235,1.21468525754002,1.23146715806329,1.25462546925056,1.33411535615786,1.33935809489265,1.34509786770215,1.34954535919202,1.35495829513197,1.36043819575767,1.37850918337596,1.40315376522883,1.41306234074039,1.43816128897359,1.4485859430193,1.44351075080305,1.44122017889734,1.4385058075525,1.44953191564772,1.4546859221968,1.51719280283156,1.54312499117669,1.62959103024915,1.67515700040803,1.71720939251358,1.74093087163905,1.74208395981238,1.62634876625249,1.54290107928601,1.53243987100331,1.55287516307207,1.57254417587106,1.60874138466858,1.64169236036759,1.6427821687702,1.64311616558958,1.57653696278175,1.45805053603378,1.44832702147844,1.44513902908145,1.50346090831956,1.52210164400983,1.57611724187247,1.62275831220286,1.65239050091135,1.78908404630478,1.79951913090426,1.44567221486491,1.4440784324982,1.44841611193567,1.45024307946141,1.49315273131628,1.49510486055198,1.54118493802759,1.41903065163165,1.34405119773547,1.33324198307089,1.35473080219224,1.3779038438053,1.39253394809441,1.44905317211539,1.53979350163469,1.68656658520747,1.71573817705734,1.72565250560722,1.57478448202453,1.55403917828345,1.28788678508183,1.28218683991212,1.32188404664652,1.35913258211353,1.50077926240248,1.51736214462754,1.30143241249312,1.29036004857505,1.29359395149617,1.33292203332473,1.38563171734998,1.41382536570047,1.44841587136795,1.56229680663307,1.60286646537656,1.66261659221902,1.67179168299602,1.32861456482423,1.29622786472948,1.30905443982615
1.23672995880836,1.28900006097121,1.44763370961967,1.43473261940865,1.43910601407899,1.18179803564843,1.18301545889426,1.20867520469723,1.22199939643773,1.09705999998775,1.32217000181385,1.44175353489142,1.44096557520005,1.57384000001133,1.14432007985118,1.1523399816866,1.14638926491464,1.17141010801394,1.18332990978938,1.22952035700195,1.26011995602247,1.35697604506029,1.37165314804363,1.18784999999433,1.11298594733088,1.12355291558476,1.16460617988922,1.16371904893367,1.2219983954237,1.23290999901654,1.16336936299357,1.14597137497461,1.1002350512978,1.10025501467139,1.14853727824956,1.16112875975064,1.17984619681097,1.21980754554827,1.26993032964061,1.34649082136398,1.40403999770663,1.55246000001133,1.18700393086305,1.17070606333387,1.18451087448759,1.15548003587089,1.17293750325005,1.22599976516164,1.28258999623631,1.30321991621578,1.50884000001133,1.26361008838713,1.26364887406501,1.20555000877181,1.23346245455282,1.25626052174743,1.27951013606102,1.29321997322855,1.57063000000564,1.60962823608207,1.60118248703596,1.5995782946748,1.44940987455032,1.31768000457174,1.35269641487195,1.39647530818506,1.45871970214258,1.43013051463297,1.46936999807137,1.59913023052222,1.73112000001133,1.38875142802495,1.36373254650328,1.36600348709935,1.36785246102905,1.42962315309225,1.47252163145928,1.4736884111903,1.51507446112409,1.60905000001166,1.35500996042616,1.337400000865,1.29083278210718,1.24413027466123,1.27190810161266,1.26392375280719,1.35805834431174,1.46517000001133,1.25440981069022,1.2031999047051,1.21267148894387,1.21327167601536,1.26950977846329,1.35085277054005,1.34062211334857,1.3306251639967,1.31719042942907,1.34071111677065,1.35022294900224,1.40206061061812,1.39333911646135,1.42402079937838,1.43287522029328,1.45725430189216,1.43201646452139,1.38552016523812,1.42040036566701,1.52752999752506,1.46774262678565,1.50036026726964,1.52820029218168,1.63551842739267,1.69297874663402,1.6920513763195,1.74699980057595,1.74326576328772,1.74117994153264,1.54670130742902,1.52383661566124,1.51455617807522,1.52982759976682,1.60898738838398,1.64096162075712,1.73870737603153,1.83144000001133,1.53421000266909,1.43637631135442,1.4127202115142,1.44399393294635,1.49977011260299,1.52690778233735,1.57946235788796,1.61219998298606,1.68319999867043,1.7671724386646,1.80827999892645,1.39637825168621,1.39510898107935,1.44977173487229,1.44976256469553,1.4907179301974,1.49451364261546,1.64454833334198,1.64434166667516,1.34327182718843,1.29947020573849,1.32027567146003,1.37323605955723,1.38168112860782,1.46066528190537,1.49748000323618,1.69247440318235,1.69237609060639,1.80922788690825,1.88589000001133,1.56119032591204,1.3020887874161,1.27414021825355,1.3370496908006,1.35743278593248,1.53026999897978,1.62527000001133,1.29956801350732,1.2869783049375,1.29238929008368,1.33572952584564,1.47119999694501,1.42315983062173,1.43801007701851,1.53974860104992,1.61095259796981,1.64711005781359,1.75503000001133,1.34522995307743,1.28433030102324,1.30299198993349
1.23551309520644,1.31569054573125,1.4451598176707,1.44266463920613,1.44061585955667,1.18167330081032,1.18214559549576,1.19878134632862,1.20639841841079,1.22842577280906,1.34258692655653,1.44047850006531,1.44023136173267,1.17899500065381,1.14496797589671,1.14600510632614,1.14583488695445,1.1581530530223,1.16701398022059,1.22221120083612,1.24355392511673,1.31322905226232,1.31462571262583,1.23619457852225,1.11706800611301,1.12040594472972,1.14164853278036,1.15199539375988,1.2214288874792,1.22692791678491,1.19097882319655,1.15165085301089,1.11799712309757,1.11614988184573,1.15090489505474,1.15699929603801,1.17381240207954,1.20186831831082,1.19543814530993,1.19143371971141,1.18870136807608,1.18726633464211,1.18672991222502,1.18249949393257,1.18440568377413,1.16133813484772,1.1741625437238,1.20632874426163,1.25437573567763,1.28614276127848,1.29273489966325,1.26754419201349,1.25527409363356,1.24778824284716,1.23860070398761,1.26461526548518,1.30321719784897,1.30795842288859,1.43568756760892,1.59505160425708,1.59229361284277,1.56872410010157,1.48280454684489,1.4113713857418,1.4099626964968,1.40542439472661,1.41262342944183,1.44216331741674,1.45103134861246,1.43599499729417,1.42222643698399,1.4140104510833,1.36497679523374,1.36608323441582,1.36710601747121,1.40375724233194,1.43380920138739,1.45875397296284,1.53141830979874,1.54049981760568,1.33861859726057,1.31153967158803,1.27688558797414,1.26312825052724,1.27394304694119,1.27711844149686,1.37559776329683,1.38584926351624,1.28976831755424,1.24466935017976,1.24804261006003,1.25293611379625,1.2891960861481,1.3295938746026,1.34230497860619,1.34257630560654,1.34180559905138,1.34087872807679,1.35011006647965,1.37031109888628,1.38164261435558,1.41363413449174,1.43256681576842,1.45064765232517,1.44170581513943,1.40160201527054,1.40851736793568,1.45582270744297,1.46578396849569,1.52341235428476,1.5445647897995,1.60342386433437,1.65163431421683,1.68666141009269,1.73669016750644,1.73984962974164,1.74070089787962,1.53366055585295,1.51982688361043,1.51679051055872,1.53634197446717,1.60409463033064,1.64595319033515,1.73914929359172,1.76764266388546,1.57172133799352,1.43697645560132,1.42651763288805,1.43356982369874,1.47181587259473,1.49806027003561,1.53847720747763,1.55397395947303,1.54992179746587,1.53293858910419,1.4523705168487,1.39702156626788,1.39644986143535,1.42470949460835,1.45494703968743,1.48596880764952,1.49496510863627,1.56557565755004,1.58735399708171,1.32929747086033,1.32087197781394,1.32119449793443,1.37381570637384,1.39043644871093,1.45813551780898,1.52899347985581,1.66963758610201,1.72084802621097,1.82609155356078,1.83619725871568,1.37539139385868,1.29544974813579,1.28298241881859,1.3126574914407,1.35720770155877,1.45032456931841,1.47781455346471,1.3041486828598,1.2918506433813,1.29572176352343,1.32916428821812,1.38979482968721,1.40760350572563,1.46930457608771,1.54705654210931,1.61351940478751,1.63879869024088,1.65079445030882,1.38722786042913,1.30358002086934,1.30271461336221
1.23393753279558,1.34385999499303,1.45833988026194,1.53093833334183,1.52797166667516,1.17851973546647,1.16070651705048,1.09451984317393,1.07735015680842,1.30514999728617,1.37897999818841,1.46205999830122,1.52023000001133,1.12287999866341,1.10676260777321,1.09265829966672,1.06774012184477,1.1207676354474,1.10990235489644,1.2156883350745,1.2160017840987,1.31253537277733,1.31740246907431,1.31856549553294,1.09614767549226,1.10923007621481,1.13482998504307,1.06260000261622,1.20780767870709,1.23726764914708,1.32207999917382,1.15818579768919,1.11909291755389,1.11328352918585,1.15391414957028,1.13804622555329,1.16658209890695,1.21044124602973,1.16385012367231,1.16489002119912,1.18342172848805,1.17451813290415,1.48602000001133,1.17941560148515,1.18828046325854,1.13494013215894,1.17373704679794,1.18394741342485,1.23745998378831,1.27507164474837,1.311469504572,1.2714557398282,1.22907030529638,1.25985937228901,1.22754005280865,1.27716993819196,1.32551900297843,1.3255857329669,1.38784000003734,1.60035677450384,1.58464119081163,1.5500201383436,1.52768999956227,1.4134469392146,1.41465167118306,1.35173028618586,1.37449825224722,1.45445535952466,1.46096486709763,1.38667013600756,1.39884986945223,1.62729000001133,1.33713608385847,1.3395026200546,1.34086133997448,1.38318993833054,1.40083856080914,1.44900999481742,1.56445156936343,1.55780836834044,1.3140513508316,1.27835987866105,1.22947018538487,1.24402988245511,1.27699223563251,1.29459319995826,1.38675986587423,1.43831999821758,1.32214449283524,1.24104018781846,1.39063000001133,1.26232982655298,1.31388215079625,1.30956784157019,1.36007039887393,1.35223869230172,1.34776579772689,1.30653001073914,1.34898562977982,1.34808859835525,1.36589012038194,1.40279011028844,1.43309702717403,1.45458079254783,1.46822974552616,1.3917481005475,1.36280000536783,1.43700830246054,1.46377378005005,1.54187245447401,1.55959003394289,1.56827908121861,1.62354937714881,1.67312866639169,1.73492874741943,1.77554000000566,1.83084000001133,1.49783465151237,1.49661553182789,1.45447018549357,1.54290966429144,1.59948385303741,1.65109075042497,1.74337136150283,1.82227000001133,1.60788533001731,1.43763235581081,1.38896016472892,1.40320984193457,1.45112822746165,1.4556557614154,1.5242481890186,1.56055202103565,1.53974468030519,1.51676000325624,1.38357673709877,1.39365656452848,1.37107444936206,1.40856554490461,1.46008116583079,1.48056979708751,1.49592657157915,1.54770003166575,1.64868000001133,1.28963000535618,1.32055957127282,1.32233860108435,1.37434028081924,1.39839567001332,1.45590593458018,1.56165999767385,1.64738014118769,1.76270000000566,1.84378017584249,1.8591998241745,1.3230008476279,1.28894449761797,1.26632006539994,1.30079304840192,1.35674915057318,1.41922321081921,1.64764000001133,1.30884419538388,1.26143000752386,1.30585375319111,1.32032723687317,1.3646799397841,1.38657052169035,1.50319999696787,1.55633851127688,1.6145681787696,1.61993231106311,1.72302000001133,1.63716000000566,1.3036497754069,1.30102315230766
1.22497441626197,1.31446318170101,1.40336308039973,1.40275309544126,1.21093052557283,1.17501221024763,1.16264729067739,1.16541229468403,1.1853339746775,1.27450162935985,1.3222641124895,1.36056048248379,1.36944570391215,1.17434297471546,1.10239759659363,1.08027888827257,1.07600208658589,1.09825681965405,1.12855353503397,1.20793238486207,1.2371286936195,1.26741640285479,1.18756764315137,1.15220440242333,1.09570633550376,1.0956925246827,1.09620296314836,1.09706199409764,1.14714546870999,1.23997655157334,1.26355180122983,1.20042519223213,1.12313431378543,1.11856526927606,1.12661174620577,1.13042016141809,1.16537888987785,1.19063302691841,1.21168513874573,1.23203345816087,1.25409977874441,1.27876478560271,1.30685233612083,1.23369900020708,1.19546288869516,1.14942947224021,1.1606610700393,1.17816573605194,1.22124064846159,1.27520179338767,1.28924330827463,1.27880555135504,1.25354068712424,1.25435610842662,1.25237391883097,1.28528270794434,1.31971386775472,1.37376058322722,1.43566635179226,1.57822414499648,1.58356430648506,1.49902159523652,1.44840305012296,1.40022007724749,1.39551837326046,1.37101944750597,1.37342121914788,1.41015547065149,1.44374489063187,1.43176910432678,1.41800791235986,1.41115283566388,1.33835194382746,1.33941311969576,1.34022062471325,1.36714062675267,1.40037771998541,1.43977523322325,1.49610867712397,1.49507952324328,1.31923410343858,1.28789853545734,1.2736380189122,1.27045652669703,1.27556407427277,1.29267442593423,1.35932893414682,1.35328334057778,1.31803365187595,1.31381092853852,1.30831082417772,1.28764239050166,1.29513059136925,1.30143809998382,1.33517658321884,1.35062564663306,1.34983543433187,1.34248561043943,1.35361620642177,1.36216705943007,1.38988846510599,1.418925149554,1.43927256056858,1.44255620279432,1.4373410723729,1.39413197560763,1.39541926005268,1.43767187663266,1.44810248985858,1.54389624660222,1.57013369280873,1.57699857690882,1.62526468210463,1.67361940408042,1.73960136244461,1.75783504980821,1.7543454097678,1.48652996565054,1.48353370344191,1.47064427090777,1.51579479065714,1.56460799675423,1.59737153312581,1.62702118863921,1.61019472162239,1.60250588381309,1.49178220400209,1.44003211100908,1.43228692033593,1.43878787602747,1.45819677497387,1.52687710526057,1.55073913720612,1.54933989131029,1.43503550000745,1.38008079157567,1.37707873457675,1.3743872623727,1.39988620195913,1.42243825763015,1.41079882360045,1.40081645750776,1.38677114365,1.37525132620997,1.34479182931309,1.32579228445045,1.32378987168127,1.38325850844357,1.38867465115658,1.42603207594162,1.50943716276295,1.59762616082979,1.71834081026529,1.74321173100841,1.74348383629363,1.33279233757927,1.31905853859063,1.30331901256046,1.30258126798796,1.38027012197328,1.42794038692432,1.45987180994143,1.31507081616517,1.29254459690185,1.30527803290605,1.32231510401446,1.34729976083258,1.38194676223902,1.46470488519685,1.49614429075164,1.60673676112744,1.60951859819173,1.63473526824947,1.33547594120459,1.30210495833649,1.30124036040633
1.21839969330045,1.2855100053612,1.40520065773532,1.40337066128607,1.15957722042381,1.14773020023094,1.06488999998867,1.16939388695466,1.21410001391615,1.24691000511753,1.2750100008925,1.34713028396795,1.38555541417621,1.36438151354122,1.09830153292773,1.04629024408269,1.07088923268692,1.08228534787384,1.1465288643064,1.19905999689715,1.25660980071127,1.32958999973383,1.15029999773584,1.08383945587541,1.05067015812113,1.07404624835361,1.07636659403952,1.09812302556434,1.08408938222815,1.24225165428315,1.3053145203293,1.40464000001133,1.13219572147537,1.08685000851392,1.1219037440148,1.09903027010504,1.1643179457014,1.17136012376337,1.32671000053017,1.34734039738501,1.48895005261396,1.51072994740303,1.4615216665638,1.46164833344753,1.20879324350726,1.1364916819727,1.13929838541492,1.17409391247733,1.20398908234342,1.27536745681386,1.40162833334183,1.40158166667516,1.25196680153079,1.25236274837849,1.24957425610572,1.29703825208087,1.31312211257701,1.42670999736194,1.49124999999808,1.56643113292588,1.6028599953917,1.45080000020558,1.40532985446139,1.35708559760635,1.39039443683978,1.36729763012592,1.32561006229311,1.31434997936437,1.50301000000566,1.64609018122157,1.66188981879542,1.39340000204523,1.30487225324053,1.27730021592454,1.31195283908951,1.35478001632601,1.39986754380368,1.42701157062311,1.49750010993757,1.494412807509,1.32396719775322,1.30243964746952,1.27632398123691,1.26726940532027,1.27375909528615,1.29154621896055,1.36487991222576,1.34141408447571,1.24548000037321,1.32483696485865,1.29897755656619,1.27530142121157,1.2781824163812,1.27735655042826,1.31658968406316,1.36174939285693,1.35147267989517,1.3329988741678,1.35872968034639,1.37740805547286,1.41281971970837,1.4356254540092,1.49511999740316,1.56890000001173,1.43416149222792,1.38507411101597,1.3964223145021,1.43794215004297,1.44114530768941,1.54611246333036,1.58284378470284,1.58417579518279,1.62682941015101,1.67360810751596,1.74847303070326,1.76398315025232,1.73408973726172,1.48161987768818,1.43758972569425,1.44783028174833,1.48275177880994,1.53382682610631,1.57497000216515,1.74019000001133,1.42876999998851,1.59209128169114,1.58657766003106,1.45698960918121,1.41914805739646,1.42016660214369,1.4610777541105,1.5286159343028,1.5537626109728,1.65216000001133,1.37697979865824,1.34620226956469,1.3643741055896,1.36186047792613,1.39253975855399,1.44357950856069,1.35254767257985,1.35102993858081,1.3564425704781,1.34429900118102,1.36413038727304,1.32734139693519,1.32213337894786,1.39478469351768,1.37046051583995,1.39071527141906,1.47684999917638,1.5694100011594,1.68890044255953,1.74807370199057,1.74924406692089,1.34157265489037,1.34202724016462,1.30312959684792,1.28845649707825,1.40671979991372,1.43726737619193,1.53747000001158,1.32745973461369,1.27206027917474,1.30315017347585,1.32511052708296,1.32357864990081,1.37711292138819,1.43721029965389,1.44269991844828,1.60262784150715,1.60217410279607,1.74760000001133,1.2713197809429,1.24119596959119,1.24914370087762
1.2036910693871,1.31154121774571,1.34339982715855,1.22099985994756,1.16615697090112,1.17049248797738,1.17494277038736,1.18426982765398,1.22214454534604,1.27611154660659,1.31724315557062,1.3610627272079,1.37800926561245,1.37081970872839,1.08058425014438,1.05654198282714,1.069776798714,1.08142375899622,1.15194795044392,1.19026839617217,1.24275443622559,1.25235870399917,1.13284381915995,1.09069800262904,1.07336798296871,1.07343469786536,1.07965150908391,1.1139521427944,1.13622282264797,1.26116748107385,1.29906836717309,1.32521288045666,1.14393896265184,1.11630073024177,1.11939613323439,1.12756239022892,1.17736158919223,1.17999961736437,1.24472400204939,1.36003219964256,1.36740614877702,1.37161467128285,1.37946370416573,1.32337327901293,1.21029391402025,1.19909639169918,1.17393671509352,1.17378748073954,1.19956537468192,1.251493133784,1.33033856121787,1.29948661569775,1.26228570172028,1.27376088688915,1.28791029887683,1.30365570200893,1.31080278116966,1.39554329074243,1.44333799708899,1.52021846258997,1.53408850375042,1.49760157638076,1.38642098485417,1.3630948691052,1.3713739451262,1.36715538614951,1.34645952996977,1.38585456636069,1.42729146762793,1.39677342946825,1.36738627041964,1.33593522185036,1.29429145684573,1.28929645496055,1.31060473471528,1.33813751622541,1.39794311760505,1.43630739320988,1.49611327329377,1.49508411809374,1.37559086383445,1.28154434213432,1.27310609723148,1.2701919771802,1.27902549729584,1.30959041798656,1.33625573540792,1.33556944409851,1.3328483396476,1.32904086077522,1.29541127799583,1.29166636052336,1.29836734227827,1.31049188812463,1.31585487510185,1.35914539524975,1.3549070817907,1.34046300016569,1.35280137728822,1.37881959184408,1.39350746282707,1.43026836670139,1.47010141836996,1.48860732075046,1.42368580377566,1.39225522504689,1.39688290969715,1.42224879153775,1.43555813029418,1.52570312697688,1.56049475182344,1.57871293082796,1.60562584546324,1.64878636259108,1.72528864425969,1.76102263437716,1.75456671276324,1.50559374564603,1.48691806926183,1.47769483023225,1.48831040815419,1.53279330022389,1.54538940371716,1.54892390433807,1.55724128192307,1.58874100074533,1.58690915263446,1.43367808300652,1.4198627536264,1.42023753057939,1.46337714770282,1.53297974101938,1.55271226675457,1.55372738656067,1.36388379827837,1.35312853532135,1.35733393156627,1.36147590582965,1.41453804404639,1.42206633695154,1.41216793590345,1.40327806137509,1.39064775045833,1.37764915407727,1.34430391406609,1.32703012255415,1.32581866329143,1.39296549620989,1.38945009981271,1.38868505026859,1.4513263798752,1.48226132217634,1.660197448067,1.66524247394782,1.66679979152001,1.32890839357075,1.32062685904588,1.303246833544,1.30199625564371,1.392513120194,1.42139437516093,1.45418153987208,1.30507990858766,1.28415883000793,1.29127192695182,1.3196136168114,1.32501763528532,1.38452302980329,1.43092695413874,1.49277514811326,1.60287721299187,1.62587634858662,1.64020732638621,1.25547019700236,1.24455347509175,1.2472363233332
1.19498000827243,1.34084999707866,1.40927000001133,1.1580772881593,1.15997436221445,1.17460136084177,1.18217287422189,1.20473315597976,1.22960996584355,1.30178714067145,1.34728002622488,1.48776000110368,1.52731999891336,1.47019711848242,1.04017914566849,1.04130979327051,1.06501445556131,1.08129284871775,1.15731872973607,1.17659034825586,1.22615005578797,1.29781999675154,1.09247276502682,1.09687258267709,1.07140698754262,1.07207569710117,1.08160072580536,1.13238996983329,1.15767063169419,1.2916627044698,1.29100426914469,1.42979000001133,1.16360397323174,1.11350325703056,1.11966032063682,1.13681041320937,1.1906864456184,1.19034026791881,1.1912338295722,1.43010000001133,1.15018166665817,1.15062833332481,1.52019000001133,1.27786000141072,1.21274000316404,1.21575308508976,1.17201260361311,1.17199190528902,1.19217928936299,1.22620019644793,1.48194000001133,1.2347431682293,1.22553712187905,1.2849581439881,1.30895407049815,1.308837995764,1.30948754688231,1.37593144235554,1.40624999838534,1.5068801522335,1.55535999831924,1.59219999793337,1.37796996035636,1.3570496224574,1.38426391436202,1.36736731250233,1.30009023341476,1.44880021171395,1.52760000001176,1.33868991899722,1.32621008188519,1.26052706991143,1.25935091703737,1.25671001672213,1.30999410925305,1.30980792528771,1.39604993102966,1.4449854620319,1.53645000038359,1.55765999958277,1.59602999842617,1.27150984061887,1.21732000666305,1.25479100007259,1.28579337576613,1.33178860410427,1.33483875973961,1.24450999998861,1.38143333537235,1.37840666362105,1.26700028726929,1.28513246316704,1.30637020880252,1.32986057214153,1.31525133885086,1.40351982720918,1.35382055001418,1.32892043218927,1.34629519922327,1.3807051761116,1.37931969363242,1.42219382310399,1.44772975881662,1.54367999862205,1.41622636770909,1.38856387125948,1.40834582010804,1.40650544949293,1.42609239008314,1.50476006733331,1.54133022002106,1.57095341376895,1.57516836583381,1.62832576021318,1.69930667168796,1.76424113506426,1.82917000001133,1.52284990920076,1.49605989011513,1.45752026799656,1.4964540003531,1.53384276963865,1.44198602706133,1.43482397292134,1.77169476969752,1.81776676242442,1.86238000001133,1.41832039746327,1.40393524580653,1.40138702300131,1.4660276272475,1.54323855117184,1.5689599909845,1.55610417016033,1.35719976511163,1.32456855315208,1.33124147824903,1.36143349347903,1.43107592380343,1.47483988764788,1.50685146136703,1.54109722347634,1.70764666667516,1.70911333334183,1.33583990618588,1.31402985175474,1.31447039329814,1.42422999217493,1.38535293984822,1.38481071011999,1.41951666047344,1.41922334255559,1.65157659036931,1.41053000013375,1.77968000001133,1.28264904244675,1.26433742433407,1.28895581292865,1.29932865588696,1.38217012433803,1.40941849412615,1.5179599999689,1.29532638138434,1.26305010593495,1.27061674863817,1.31270598265101,1.32646344838189,1.3928032489798,1.42417963969161,1.57625620149189,1.60258503847719,1.65251000107143,1.68538999792306,1.24890032985255,1.20207001342625,1.24131408460322
1.18190806790662,1.18124660432448,1.16896636168391,1.16867856862444,1.16766281092003,1.17060016852223,1.17628031883444,1.20634546543222,1.24464336436866,1.29624548936171,1.36356507445273,1.42993213186433,1.46586331458809,1.46759574119954,1.04078373538773,1.04112333412522,1.05101247484133,1.08228791262732,1.14270814400697,1.19518639952827,1.21190382819441,1.2422451871107,1.14981247774557,1.0996037207164,1.10144041354746,1.10238853475334,1.11276412627351,1.13222894721879,1.15278612314631,1.24182697455198,1.26594249845064,1.21980098253757,1.1660604773897,1.1220934187908,1.13168609800503,1.13931622400468,1.18994615404983,1.19492584489395,1.23337649809286,1.2667092189449,1.21285062112364,1.24435514346768,1.34902226828208,1.31974400506602,1.21790157772519,1.21623531350185,1.18334981484074,1.17760872603947,1.19813343799827,1.24004120862129,1.25857340090328,1.24959999849646,1.24014864236082,1.28532409903199,1.29196710220675,1.30378950034104,1.31043473277438,1.37985395350428,1.38352412727306,1.37239505408524,1.36778971342246,1.36285113332736,1.35760479299931,1.3551271588623,1.3442927242083,1.33194251517025,1.31848958268713,1.46449520655121,1.46901974235367,1.39999658727316,1.36878102409943,1.26703760750151,1.26274765330894,1.25966231832436,1.28845908943113,1.30582072621063,1.38701148294642,1.41262868496678,1.51085222308054,1.51920685711546,1.321537513088,1.25663158527504,1.24463224224003,1.2533985521397,1.27987930116345,1.3180640667686,1.3346178260545,1.33405208098327,1.33213921925953,1.31062372315901,1.28957643264219,1.29655699174948,1.32208849122998,1.33567915410508,1.34632105897194,1.3772205490679,1.36411700517398,1.34539897819947,1.34932958283176,1.39213855724631,1.39622488497439,1.42036970066295,1.45509934225571,1.47364966021676,1.4169260890083,1.40585637235118,1.40677330325001,1.40636719542125,1.43520533690022,1.51715848336523,1.53433820836917,1.55135831640403,1.57712853747029,1.63189288496989,1.69718518871966,1.71636763480607,1.7247674381902,1.5642498516004,1.53269704329127,1.48460128109481,1.49353645896063,1.51455370327722,1.52557308193616,1.55210316338324,1.76217879298113,1.83205490291518,1.83840709456232,1.40835996627359,1.40344391950886,1.40252869764646,1.46537449566753,1.48720341502035,1.54016531257707,1.54876701802155,1.41643527903585,1.35746534567041,1.35359144395212,1.36078974754349,1.429694746089,1.45526895781322,1.49966152974629,1.53558495573128,1.55745845824697,1.4332563018495,1.39145318202929,1.33729416527557,1.33145413384906,1.37955186753814,1.39644956670875,1.41757607789183,1.44779087289659,1.47835750958055,1.50881246882686,1.47397736623899,1.32719925914396,1.27567823421786,1.26979599685671,1.28663398857794,1.29162621714275,1.36723540436738,1.4036264696248,1.41565126240041,1.29825677794013,1.26625049495361,1.27175875324035,1.33233232802292,1.33732365047887,1.38414083268286,1.4058911921955,1.57869312219822,1.59201029841714,1.37284486800236,1.34123371553364,1.24349923804459,1.2229119119581,1.2323664579146
