1.0035532505397,1.02367938242632,1.08194330594317,1.14843911248942,1.19922894587046,1.31328353717805,1.322517798427,1.34081828237938,0.973476605518053,0.937667345676953,0.939020819785883,0.940805257294423,0.990431373984176,1.04416183457743,1.05156882278212,0.985551156808007,0.953343258104027,0.896512541114492,0.909202242733098,0.921480254512343,1.00489952921353,1.01004907375976,1.04230166492225,1.18039523110284,1.20086546700269,0.962673838503843,0.96320650057756,0.964744605643206,0.973602291281874,1.03762264664027,1.09029195122378,1.14608293438115,1.27618257643667,1.3136407884783,1.32242629292272,1.04787720407813,1.03593156414339,1.05271089550307,1.08589590340124,1.0889274831518,1.10986798243155,1.14214352988839,1.15493965508487,1.08501824219625,1.05293006241075,1.01447356800642,1.01202502477049,1.00886533942155,1.04461800476867,1.04979052788571,1.06490155286207,1.11134502253149,1.14037943071973,1.12494504991986,1.01504745402718,1.01491395212172,1.02540844094848,1.0407714192777,1.0966083157429,1.09527770635387,1.09403649236132,1.09330725173549,1.09464613638376,1.09748947921774,1.09889996249464,1.11239739351358,1.15261672070632,1.19319851675329,1.19809957850831,1.21098985478092,1.24151533322923,1.362976778143,1.36836453947269,1.12111739492192,1.05842766508648,1.05880306316118,1.07375113508055,1.14196300933492,1.15468410420679,1.2319213031402,1.22790694655031,1.22492426240519,1.22319574434343,1.2004961708238,1.19708292700489,1.14102331078759,1.14338069539157,1.15775097575997,1.17227408057788,1.19317175446253,1.24020821037511,1.23833456215083,1.18073946349371,1.12287281575721,1.07033232713209,1.07693802829622,1.10598089987386,1.15266823228829,1.15803369747236,1.15962124072895,1.16296698787068,1.16602492120977,1.17058846876044,1.16585868614331,1.10986082641201,1.11300527872082,1.13588506509064,1.18963366493719,1.19143126647604,1.19441349341713,1.19755009055673,1.19973080360326,1.20051658134676,1.172475324727,1.16611415859734,1.16777357776276,1.17129212275215,1.1973309936965,1.19833356032428,1.2002594602873,1.20066175979562,1.19210084501722,1.18996916605509,1.14969746013486,1.14766749186977,1.19251387960813,1.24385411804966,1.24506450842805,1.24747444605184,1.25348351992519,1.25547698049951,1.25977504179995,1.23025813035279,1.23147098544663,1.24462022512524,1.26964836587499,1.28819354235536,1.32203246383419,1.30024627449262,1.2798917675858,1.27988926825356,1.23372465278018,1.22845908160091,1.24837147464373,1.24932630581023,1.28131058986486,1.32058684470752,1.29888065499626,1.26588097457592,1.26426943607526,1.26592977222907,1.27182612798643,1.28727911710645,1.34273786869376,1.39598923484062,1.44278342460254,1.39456908920726,1.37634582735504,1.35598665713962,1.37295370459788,1.38306981377947,1.39802065353741,1.39922064559221,1.43576852550937,1.48215007505927,1.46348532195683,1.4485206574502,1.43301316102188,1.41281504864542,1.41436855760712,1.41572214203869,1.41672196003948,1.44247291994849,1.4778659358821,1.49005907980784,1.51894402194748
1.00504288246239,1.00591339328877,1.05086952349618,1.11406965570242,1.22493997027556,1.3045431761828,1.322128829304,1.38969041761577,0.881298843197618,0.891726788227921,0.894965877719267,0.905196265092491,0.988946123127019,1.05692756155505,1.09499038960395,0.885662809701304,0.883684556373455,0.862782241430424,0.916151225146338,0.897807335437918,1.00550816289719,1.0119077204485,1.09419033482464,1.22844996683438,1.27365003589986,0.934598042993531,0.936893461983636,0.964484460715879,0.965410218431663,1.04822963945513,1.08088325772757,1.13704069479994,1.27084813711096,1.33673017883894,1.40524999876588,1.04795710758347,1.01135498019686,1.03180253085621,1.08066814252508,1.09781530926826,1.1152889204732,1.15412765626913,1.32979999876588,0.998145039594034,0.959759424548212,0.994554566069804,0.99190782547693,0.991824217063878,1.03782548472049,1.04898800157992,1.056629658549,1.10578871122516,1.18414032307227,1.10881867925229,1.01546743747094,1.01528663253351,1.03777944396925,1.04093866038001,1.11501900249013,1.12409190544347,1.12622104840218,1.24494999876588,1.06522928091199,1.09891968181718,1.09868752548375,1.10827616112824,1.13499527557682,1.20246637750623,1.04077000123412,1.42271037204663,1.40263294940521,1.48186916825081,1.48635731387989,1.48654056091323,1.05547613116958,1.05757853628274,1.09258699375624,1.12614917050058,1.16148411762592,1.25828181422455,1.22263714088247,1.22001898777964,1.22223091040357,1.21917746572631,1.2061931880364,1.14117223098072,1.10213307528317,1.12007233326062,1.08133020250633,1.09680478343978,1.23777379722459,1.23286008047667,1.43774999876588,1.0679601293684,1.04224673055219,1.04090187047538,1.09898935833749,1.13629450750534,1.16766090890527,1.26742029014262,1.22223360882273,1.33353999938294,1.41859950305493,1.41313049509389,1.08110266622526,1.11495978435128,1.15747034278933,1.18737307310501,1.25439636762965,1.36333520618889,1.36101676082291,1.43133189861657,1.45174846481678,1.18313075549072,1.14425888327742,1.19507747954803,1.16471389604673,1.19709387086035,1.24389500079054,1.24571341033981,1.22602820998201,1.22840898621653,1.21499326899203,1.1491853352883,1.1464060170445,1.18536697554104,1.24338505186856,1.24449276796183,1.25081426626487,1.25104820233688,1.25332515247189,1.29789082918066,1.23050585008358,1.23504271522463,1.25287412837152,1.29763700281859,1.28015494901875,1.349180254429,1.45190999876588,1.27835139596613,1.27941579181409,1.21910744454597,1.21030668135567,1.2451591006067,1.25225340215154,1.2711786762494,1.46007999876588,1.33378033168141,1.2362083836233,1.25031624325077,1.25269782510973,1.24282999079575,1.28006772825835,1.35154876890276,1.39868299902221,1.55146999876588,1.40319786193457,1.39973387064047,1.32272955819989,1.38912677958484,1.38799946165516,1.40380371185485,1.40279338961923,1.42539259681223,1.51765050307486,1.41906006638578,1.3995026335159,1.39600114315848,1.41188289534461,1.41387103147775,1.4151855737278,1.41559009647557,1.42965191372797,1.48914280815875,1.51939715918141,1.51429041707129
1.00644530926147,1.01196264252075,1.08009963527618,1.14979646995195,1.24850033814637,1.30782603695785,1.34064977548843,1.35313349719781,0.897102352094099,0.895130159283178,0.894953848003186,0.894742119498645,0.957233803633829,0.952889550096668,0.941479201578029,0.930133063459668,0.909054387161855,0.908355458048052,0.945117143644093,0.978892668613373,1.01305590923323,1.02203139651752,1.06869682438706,1.05423218528153,1.04241613549729,0.936665569247335,0.937357018962077,0.949427906032315,0.986915713727888,1.04544579688511,1.0712134609291,1.07294984061708,1.07452369154137,1.07536730899029,1.06122630647933,1.05596398998738,1.03269885236948,1.04291840295682,1.06481833966553,1.07794836190833,1.11913212587882,1.16432355359601,1.19627844051997,1.05271064036149,1.0040184895902,0.99381447689847,0.992807158447885,0.992464084743995,1.02145675851889,1.03266791368566,1.04989069786957,1.07453158606228,1.1058189678941,1.09735063753609,1.02141687256748,1.02609903899636,1.04331360683456,1.07455826774867,1.10431843968185,1.12713803069247,1.12862306441354,1.13042093603058,1.11909243929912,1.10047983402943,1.10059069668431,1.10062745762613,1.13793461736009,1.15068165116058,1.17430008475587,1.38360601085327,1.38984508932958,1.48374658313658,1.48471457278166,1.4850581026586,1.10999313814778,1.07875035192604,1.07982300601091,1.12343341659154,1.14036317069264,1.18759864585035,1.21203793110891,1.22124454202757,1.22169996695068,1.22077682990969,1.1627372970302,1.12893438560065,1.11879936951321,1.10743560559276,1.09230304658338,1.15345975225565,1.23717244896722,1.23615252462693,1.14976149184002,1.11771598043817,1.05039657258985,1.04970140813248,1.10158395947556,1.13640099434308,1.15176410642484,1.17391740701045,1.18691258643086,1.20186803498236,1.21498957546828,1.18764396157393,1.0921828313986,1.09941736583386,1.15385386803417,1.18848531938832,1.23846577076839,1.35985002898133,1.35931545607454,1.39633252776166,1.41087093535377,1.22217076845095,1.17285087841531,1.17887939978632,1.17282386708096,1.19515039714419,1.21992623370872,1.22686566621123,1.22333544946015,1.2204031586108,1.21748380610391,1.1664080359512,1.17032073444232,1.1726205745731,1.22092523598438,1.22900704784678,1.22880449088318,1.23140120548994,1.23376480934681,1.23554998017928,1.23271371044538,1.2339388801478,1.25421216949518,1.29513162083235,1.29375855815341,1.29750480165218,1.29955395156155,1.28665600503876,1.28585542593683,1.24038906616225,1.24297726591987,1.2453040973818,1.24807433434828,1.27943687968953,1.29584794071308,1.29284204792851,1.25498062000255,1.25278484472967,1.25375351755201,1.25494641664805,1.29398229559393,1.35317153835292,1.42397773139324,1.4768492180669,1.44483851757923,1.40739426650358,1.3924426682809,1.38947304032667,1.38667722920575,1.3964447891905,1.40459953398354,1.4383010965004,1.46769783759119,1.45171082524855,1.44002359907839,1.41557300110992,1.41447170663584,1.41485762791667,1.41515160724055,1.41439411717993,1.4388536789491,1.47508746399503,1.52052953428057,1.52228797717961
1.00849549470157,1.02631020103439,1.10771554109357,1.1862902826525,1.28450031286779,1.31159642290452,1.37019010104318,1.41417008224738,0.895975842231924,0.875277972975825,0.885534269238122,0.873813649377291,0.964061514016932,0.947166605092696,0.890347878400717,1.10001999876588,0.909193100835526,0.907083327760084,0.971745851518408,1.07118953663994,1.0364473570751,1.03601794830193,1.15442999876588,0.935518001234118,1.02810575717678,0.924119637889045,0.92417137945899,0.94271443322854,1.00566411022644,1.04182730691699,1.07060653909582,1.07090513270503,1.07426388577774,1.07257018148832,1.05825793713552,1.07019420453459,1.02711355070997,1.05411398840104,1.02867378608435,1.02553788996355,1.12351546334349,1.17827830760205,1.24459994422616,1.37832999876588,1.02112621489741,0.93561285226974,0.935356820859742,0.977572034644604,1.00414712684696,0.997958605642343,1.03611827923055,1.00413949966414,1.13050843546317,1.08278528453502,0.991150560287722,1.03619175477225,1.05015590267458,1.10565502254231,1.09053755273018,1.12853282731877,1.1304275792557,1.13195357536365,1.13330236513891,1.08899513964262,1.08250251796729,1.08839399654769,1.14048380611328,1.05588999333964,1.19868986673645,1.37155884765998,1.38242762677012,1.48493351903671,1.48433962433293,1.50501926983336,1.12609104279996,1.07340677482261,1.07438170564411,1.12006108830917,1.10791302664806,1.16197011454895,1.19426128644145,1.39541999514363,1.42639980248347,1.44385457706778,1.0750755645626,1.08900394784795,1.1386283030466,1.08317222576553,1.08303526395602,1.23183509742109,1.2351776447253,1.36793999876588,1.07679000123412,1.40866999876588,1.05060123985367,1.04855694293857,1.10484601602072,1.13617566672792,1.13665519854198,1.15241859216017,1.15090063570364,1.14085943911759,1.23990634203413,1.160960108974,1.08882939268761,1.09110494039786,1.14375027530031,1.19037086827541,1.22678229720662,1.35730874159046,1.35771144243172,1.37807876003332,1.45263032658036,1.26778008787541,1.16840926760657,1.24332027065988,1.12327956748263,1.19342461765507,1.20611140347812,1.24052579632612,1.22309371168581,1.19263232272659,1.27454002774501,1.1630292323059,1.17350311236115,1.15023750759439,1.20281207828776,1.21871835347773,1.21000554028328,1.23299793117569,1.23525374079413,1.23772732720493,1.22697488252832,1.23473476715183,1.2555987702052,1.30151245800579,1.28917710067844,1.26586497595712,1.30037322613674,1.30276046523874,1.28686816525321,1.23685428680396,1.33611035751378,1.25738599379038,1.23048691533137,1.36751000508783,1.2980329385932,1.2870734640542,1.25696283074588,1.25168466422499,1.25368126236844,1.25529339868147,1.31054357674476,1.35428081048864,1.45231399389582,1.58616499907441,1.58586499907441,1.4107457038977,1.39492138548898,1.37561834290098,1.38138319888252,1.39123245451086,1.40554161038696,1.45480419162247,1.48027079151369,1.59158047618761,1.56464592917378,1.4189764194083,1.40262466576485,1.40150437459091,1.40944320887618,1.409705750237,1.44999369561117,1.46479395446561,1.52039596307024,1.57010735362931
1.0100682578989,1.02436921882768,1.08648078572299,1.14809950432023,1.24809181406484,1.29907867630167,1.31460658953678,1.31894235826771,0.900182559063492,0.886232992993143,0.887382156344419,0.909621037971644,0.96115137127549,0.957594477479765,0.953450182205506,0.949420212207236,0.946195957268581,0.943567337337692,0.97651309847631,1.03533712499384,1.03652664443794,1.06300834526659,1.07052412871671,1.06290664689811,1.04321534538134,0.988830078965431,0.985126149794788,1.00006958700915,1.02009878170118,1.04034351042816,1.06918947079804,1.0702497342456,1.06635915523013,1.06317046608456,1.0610539484767,1.05854257240309,1.05143043184135,1.05372229285239,1.07202558479483,1.08710382272557,1.1267597630896,1.17249476296712,1.27380518593367,1.3044689771569,1.05737949045795,1.00469423255904,0.997962579149551,1.00923598433655,1.0098546771821,1.02550349089518,1.051508260613,1.0652548568155,1.08391927958643,1.08367183999217,1.04344370854561,1.04565429108245,1.05082956656917,1.09743441986857,1.11824273731693,1.13119473344198,1.13204381268684,1.13282666764279,1.13349286099734,1.11475783125745,1.1151401676294,1.11452255618358,1.12972262319878,1.13757512894153,1.2146870500277,1.30797461386754,1.33610284033081,1.36014590610997,1.38632998586749,1.41513798041387,1.1634619919506,1.10422418301077,1.10588550177388,1.10718179474417,1.10811689680203,1.14442484160385,1.17421891117216,1.20962058767646,1.43670846820151,1.43822862469238,1.0795341670989,1.08406016670276,1.08765679930495,1.0903481519236,1.11580543040995,1.13097457296101,1.14652087316528,1.16639726480732,1.18983774854678,1.21738237517523,1.05130638037344,1.05069911701887,1.08563643155988,1.11385933773599,1.14671208196026,1.15005178932242,1.14860052393299,1.14494278999072,1.14376174290086,1.13948871332543,1.09102792166727,1.09321174495102,1.12230077398101,1.17537543217638,1.21488910444221,1.35656366499632,1.35657762423118,1.38489381305931,1.39985984428839,1.22240195923817,1.16959426760654,1.16055947077972,1.15778563652552,1.17536865341042,1.21869823424671,1.22580061930864,1.22176069830596,1.19948251872166,1.20798983253343,1.17300620503121,1.16316735475768,1.15637612581382,1.19571467094705,1.23034686462864,1.23226796661018,1.23321912444914,1.23497893658991,1.23798549175604,1.24260663370944,1.25046070161207,1.25470179360289,1.28147259242356,1.29257366250411,1.29438416379484,1.29574255665456,1.29026277412783,1.28723755841367,1.30616131700094,1.31533685995558,1.25872059730394,1.26000376362912,1.26157164363851,1.26563318601269,1.26769716582971,1.26131130242769,1.26691297628629,1.27012332290754,1.3040886783139,1.31793492301362,1.35762092016073,1.43372228411136,1.50395265474279,1.47467385781772,1.44578420719965,1.40093546478315,1.37630202191045,1.37672014768227,1.40020468945661,1.41154997524064,1.43617403238633,1.4891429331554,1.55578499145041,1.56073126658229,1.40836174241596,1.40425165032696,1.40476058400421,1.40829198625701,1.40979040034134,1.44388637600724,1.46387648917403,1.52712604384896,1.56279840893203
1.01117740630208,1.02276080499235,1.07191375940959,1.11936183115666,1.21949572940993,1.28199278785972,1.30355380986301,1.32844017083995,0.902750828889025,0.874332479957642,0.889576260042937,0.921606121708341,0.977619565409416,1.02551022684878,1.19455999876588,0.902684750680469,0.958800419925565,0.941545430581297,0.980712188887893,1.02703430164853,1.03819066662258,1.08799266787701,1.08639592614731,1.24668709363828,1.20174316351256,0.995369953408249,0.981309795947045,1.00535058520579,1.03441692426915,1.03830508633114,1.06827651336843,1.07328781945804,1.06082590857668,1.05924856317721,1.07808602385516,1.04897215787037,1.04911516855103,1.0560057802921,1.08509021846132,1.10907176244369,1.12802217818279,1.16532624000163,1.32784367541792,1.39721060866632,1.37337938948251,1.01215833492433,0.981257288917257,1.01683578494886,1.01787191730966,1.03975089809907,1.06168010411392,1.13295065775192,1.08463210551649,1.08470292120021,1.02748707052316,1.09411454053221,1.06021449600135,1.0876170016429,1.14063811215578,1.19143099362288,1.19063026657896,1.29617185350159,1.2968185627057,1.11516690694652,1.11357282707458,1.11521128742608,1.11913539657434,1.15702757200769,1.23982192500188,1.28118994680462,1.30487086087386,1.31137368721243,1.32523688840081,1.47278033065896,1.40255176457656,1.10253533745871,1.12230021284571,1.09568965040043,1.10882986809852,1.10893511845136,1.15031983989776,1.17406016641109,1.449452412849,1.46531783351137,1.03698357105896,1.05332421461496,1.07165868840157,1.09789372091575,1.15055055337187,1.06573815216791,1.07247893393748,1.07257847476089,1.35233993110221,1.39516006704661,1.03825937969728,1.04073124009884,1.05883671448383,1.08692064375326,1.16764071907463,1.15636400492985,1.19739859709642,1.31947999876588,1.14320759348898,1.11325181890727,1.09017507757952,1.09633347775214,1.10401712567875,1.16169883363165,1.20156725471174,1.35622012132578,1.35609278112589,1.39313420499302,1.45186016967224,1.1823338909544,1.16956582383511,1.1591650710134,1.13318061101814,1.13353187776136,1.24947578986382,1.26710494811766,1.21890221212862,1.18301128416756,1.21755175965944,1.19159473897022,1.1368909931176,1.13881759253122,1.18804383405562,1.29499789139889,1.3194547110618,1.27130007862074,1.27808256719604,1.29670792529454,1.31957709397282,1.25665471855873,1.25694405009774,1.26799903992269,1.36439718204197,1.37710336840353,1.31840127841495,1.26841630116752,1.28425718514914,1.3254440860174,1.33552685469626,1.22681923051753,1.25922991418239,1.25818620963905,1.24072385146569,1.2748079495214,1.22220827140721,1.27418471494565,1.27625485555905,1.34620358111986,1.33272478637386,1.36124545259835,1.41453549789542,1.58335999876588,1.36125000132041,1.57452999876588,1.41249620391777,1.37069893537711,1.37276820412704,1.41454186118291,1.42041302263709,1.42944086728447,1.4982433543235,1.54613364422283,1.65870999876588,1.40339117618823,1.40524765347306,1.38893154545703,1.39119985779506,1.39282695684937,1.43634334482834,1.46411394953053,1.53238813690705,1.5574288751466
1.01201731534762,1.0219832769527,1.05012285365072,1.10658955013691,1.22235405594739,1.24769796164773,1.27187889434192,1.27154893434348,0.901701008569582,0.898890729390538,0.895419365825873,0.941837653259715,0.988536712443584,0.992677642982395,1.06056264442984,1.02854107355603,1.00115970892818,0.994884384868892,0.998210384244201,1.03365822609035,1.04015000092728,1.08184025664372,1.1305356077911,1.22359424051429,1.21473478823781,1.06847046493299,1.00841420020526,1.0127496541302,1.03125989518484,1.04581208925494,1.06784462969852,1.07099102694928,1.072514953026,1.07395050169302,1.07596267219059,1.05029821392107,1.05136753736841,1.05428783132343,1.08406326564661,1.10362259038181,1.12927942654645,1.16706802104456,1.32769295285372,1.3366528523243,1.05779820950998,1.01117072383771,1.00906550734747,1.02390564187789,1.03185853473718,1.05976024981179,1.07286167346953,1.0944572589088,1.07357911851248,1.06695776884971,1.04107036310332,1.04425735534211,1.0521021996346,1.09474804218734,1.12771635868542,1.19064069451531,1.19004686983977,1.25121148523829,1.26481171726785,1.17520750570956,1.11564378009096,1.11532265675488,1.11700233518187,1.14316938555377,1.22176591189063,1.25489328145405,1.29380064359494,1.35637847415767,1.38702170912521,1.43169267899285,1.41769962101458,1.10230392994639,1.10135845051384,1.09898627714828,1.1044952591397,1.11215616147315,1.12991961202494,1.13914877263695,1.11888723692709,1.09113741319712,1.04113737065134,1.0445890308744,1.06003579830494,1.0954156139941,1.09261859302579,1.06978694974924,1.07231466282243,1.07325176901181,1.07395180180842,1.06367295869471,1.04132484019463,1.04324422473318,1.0562948961364,1.08724699938113,1.15593929309689,1.1915949095707,1.21612699272276,1.23940943450145,1.12441566320046,1.11531601622312,1.09363397591264,1.09554071841689,1.09887271068592,1.1142143351127,1.12660182071572,1.13932730909952,1.14820488478887,1.15462341577934,1.16209757765702,1.17399486029458,1.17237203110617,1.16134500942594,1.15049009184372,1.13886920846833,1.22100572310843,1.21797109761097,1.21460175766989,1.21041990621538,1.20726875447702,1.18062604309811,1.17190868722534,1.16821454556031,1.18458929554532,1.30281029643746,1.31227205799362,1.28567894660255,1.28291651082461,1.28715822542965,1.29083420660663,1.25815438853808,1.25845896408373,1.27677449645519,1.33050887262699,1.34179393492472,1.32886635782564,1.28220629283791,1.28206629092313,1.27530541241665,1.26929300340441,1.26448360907776,1.26249637883693,1.25831018293295,1.25392221862555,1.25171922030312,1.24757639739793,1.26445215368097,1.27999382872771,1.31539665652076,1.31961437226901,1.34803301649078,1.44072525816659,1.46124710748865,1.48469488730169,1.51212534958506,1.45316760722672,1.36989647213196,1.37056150891836,1.39891559401711,1.4058349888935,1.41691505191004,1.50985647663973,1.51867926568922,1.44231740532778,1.40171877473383,1.40013080420125,1.39030945680216,1.39144951129584,1.39238201970237,1.41787206899725,1.45982868964136,1.51793940700744,1.55078794839972
1.01258326629269,1.0217616253162,1.00461687458988,1.0917534716358,1.22534941634379,1.22931907964051,1.27255957296125,1.27164146323688,0.904509524334353,0.89985051734337,0.897656741607703,0.967066881008484,0.995431684092336,0.891415001234118,1.25990316602125,1.28096683212757,1.00681027078104,0.990847147951633,1.00044932560052,1.04154606365013,1.04199498635047,1.07402966652687,1.17835777666608,1.25688298546256,1.29906211063499,1.28440817251445,1.00447927449244,1.01783346416612,1.02822031944133,1.05453495805031,1.06496376228814,1.162510245259,1.18207771263916,1.2085875316248,1.20716325231049,1.02204291084784,1.05125261499085,1.03315155925448,1.08302247240615,1.09821727779912,1.1296760205557,1.16927795018967,1.32750760610848,1.37478034862779,1.00335453841944,0.967516715845783,1.00592011300365,1.03257978943535,1.04750305213217,1.08366488876488,1.08359057533231,1.14900030139244,1.05927063797449,1.05881455583171,1.03987516275566,1.04022910001492,1.0512148437432,1.10088208121794,1.12080069879588,1.19051877643218,1.18904825067864,1.22967827410894,1.42586271979056,1.40741727835827,1.05791702832797,1.11553890318165,1.11560793194395,1.13561390342111,1.2092358950002,1.22094683361496,1.2805793809945,1.42425976749516,1.51974219363492,1.4938837603249,1.49458422492677,1.08845821324658,1.0877312587951,1.05079555670922,1.06779061169779,1.11512554065205,1.1209403180968,1.15690585872844,1.05075444622099,1.05400333906922,1.03543462136911,1.04258726778309,1.04641858476981,1.10260293419072,1.08740134034643,1.05838856761595,1.07312703919028,1.0736473654785,1.07368424816477,1.05837590985309,1.00789915496638,1.047014570145,1.05100439030074,1.08829484240079,1.1439355548854,1.29020014771232,1.23569412046054,1.29092027800877,1.08745896347134,1.11760179829803,1.09439518247491,1.06809161498611,1.05488712111008,1.02551146861305,1.06449976626155,1.09949804207029,1.12575851645366,1.12555424784889,1.14377777170825,1.17487587384889,1.1944552410656,1.16267430445408,1.1620134360539,1.12908883066378,1.22538933782892,1.14174991565563,1.21136396809385,1.30854999876588,1.20571877026627,1.1455716853338,1.17713813195605,1.16535628009477,1.18263456349616,1.31490220051769,1.39071137509715,1.41097862305167,1.26605346365944,1.22105944427526,1.29639952899411,1.24574490103851,1.24708242915095,1.29035229120015,1.31055961135228,1.35410585284913,1.55484999876588,1.28120362678689,1.28180879461399,1.26680481437991,1.23092930778227,1.28191693438268,1.36144019685072,1.39310004328011,1.51950999876588,1.23501704473864,1.23587161734687,1.25657356143179,1.28158583261848,1.29849623606974,1.30987357828216,1.33894455023089,1.51223007685112,1.39123000127672,1.66342036929023,1.62072152441793,1.62063227021165,1.34376441996605,1.36783165809269,1.37960497762582,1.39198194803428,1.40850155800293,1.51826588332469,1.5754200745058,1.38084968241469,1.37967492264267,1.33303249115954,1.34465858179589,1.3547145275445,1.35943473491358,1.38603147766871,1.45623070368471,1.50710589342245,1.54436936296655
1.01260847842763,1.01562847901828,1.03734581043585,1.09041620150797,1.22646084966687,1.22896734573706,0.998382496854389,0.957012944673633,0.901065462034303,0.899533670528583,0.898199931721023,0.934367931360883,0.954111461064439,0.986789956802568,1.07720105347985,1.04356370723227,1.00313610408452,0.994143652514017,0.997547825251066,1.01815126744075,1.0431832597171,1.09153397875175,1.17748674656632,1.25410239381358,1.26323806362815,1.08000553868111,1.00982006832018,1.01899921722959,1.03100336126585,1.05998701056366,1.06328817877233,1.13976627919102,1.193503200356,1.20840302110119,1.20787181438717,1.05070354631238,1.05153477996553,1.05275371034003,1.07320127071444,1.08956085405318,1.12889544685595,1.16829968774078,1.30723505084111,1.30691711108954,0.989892921780139,0.983216893662962,0.991315683886181,1.02900039934607,1.06332294225535,1.08356133088953,1.08352270703428,1.07066196738372,1.05752389334206,1.05745987697553,1.04488194967152,1.04747997031955,1.05140891642509,1.0804444913029,1.10480185315776,1.18479397448105,1.1864036059583,1.24705445396699,1.27518879346127,1.12980276702056,1.0837797818932,1.10243475497592,1.11849766587983,1.13525947621765,1.18066238145329,1.23048728338004,1.2654242292518,1.44154171466676,1.4596368726143,1.46348804731727,1.43138403755077,1.14511091507106,1.07507856897877,1.06833672346722,1.07497171535444,1.11235071442796,1.11343962903354,1.11553783965362,1.09760556887167,1.05486076557768,1.0446726871132,1.04274304683594,1.04486190111943,1.09170754788153,1.08544604750907,1.07399929565919,1.07354414755294,1.0737738099134,1.07421689236295,1.04788374735188,1.04340503747971,1.04513669867932,1.05754055593885,1.06635293914631,1.15474776073686,1.16615156529611,1.21619720537416,1.21438627272896,1.15345442415921,1.11034919793395,1.08077002871081,1.05992546334681,1.05072079049819,1.04591309367442,1.09703205632133,1.11080238393339,1.12603285159763,1.12614397758471,1.14536237073444,1.1575719692983,1.15924084782751,1.16029968020607,1.16112104435815,1.17461560469247,1.18864542532919,1.19908613694989,1.20718094926809,1.20272886470525,1.2004758839703,1.1872367876236,1.18114270309496,1.17685715118984,1.18989498643473,1.22128403234626,1.23434549448187,1.23503185437693,1.2386677163768,1.24065818040864,1.27821240596686,1.28148253964621,1.28549706081225,1.28933987379327,1.30480019961573,1.35180793562534,1.38575878322536,1.28946680922273,1.28860011184141,1.26487358935034,1.26391031317144,1.27927579475151,1.33343835636791,1.31557808925251,1.29785499457677,1.2768457769946,1.28278897790163,1.28467668672738,1.2860092961341,1.29743591105572,1.32461211174902,1.38593348342471,1.45675806426269,1.46685620212288,1.64766424849927,1.63869362559911,1.41906068572155,1.35865520327221,1.36353519181083,1.36821831659727,1.39061680223501,1.42650329190104,1.44289848828665,1.42416648188389,1.3759332937266,1.36865042997037,1.35124741117524,1.35032046019414,1.35285890971492,1.35459874845787,1.38364668324462,1.43702478782667,1.48829897230885,1.53865275072753
1.01184373124428,1.0097337173386,1.05643853989792,1.08848956511078,1.23590385267713,1.23414214201006,0.96038214210362,0.885106682478969,0.86571800910576,0.891343045332252,0.892869511487748,0.880061945230419,0.888264408301439,1.15739058102402,1.19736736285021,0.98448714251346,0.985290623213042,0.956436943902879,0.993488107075076,0.927772927308282,1.04350977695075,1.11288829678721,1.17682177666608,1.25132293493518,1.31561005151539,0.984859891668458,0.985177142227986,1.0195979074054,1.03334738639375,1.06368463421275,1.06348551823637,1.12314467135847,1.24720436862189,1.24693862588021,1.25080713739601,1.04884627845136,1.02603029815593,1.06390247625961,1.0644524088465,1.08044642331046,1.12725406961238,1.16729464222668,1.30792646902891,1.30693766174376,0.963214530080617,0.963368510340183,0.984613773927553,1.02585582767069,1.0910523413297,1.1258636340206,1.09828617251596,1.04996605652983,1.05690738003225,1.07255415923931,1.03332449006025,1.05509630082753,1.05144126874865,1.07023037891735,1.09849885138461,1.18298781302224,1.18490193875994,1.26171925591935,1.35667999876588,1.03946005861024,1.05332487089221,1.0619043439071,1.12150079071024,1.1368322457697,1.14904503681133,1.24013406610565,1.24783232876468,1.52763999876588,1.45569991016905,1.46747910150525,1.40733987471554,1.32310999938294,1.0518567725655,1.0423480142639,1.08708355848583,1.10891796522296,1.1120609587928,1.1180365511873,1.20077999876588,1.05478150525487,1.0449425589503,1.03859758684911,1.04441183941123,1.09726895058119,1.05681441008563,1.07619920842353,1.07417654809585,1.25741333240774,1.25734666574108,1.01858668358483,1.04209082003905,1.01297125734768,1.06560529887741,1.05483268340913,1.16327883959191,1.08736988053592,1.21498497436692,1.21004902592396,1.21223274415472,1.10030382622323,1.07134894208144,1.01286308649303,1.01086834325169,1.03956279517007,1.183950631998,1.11635194999783,1.12648292398671,1.12723556001335,1.14775496040009,1.15524230329282,1.13297471895006,1.13953895857072,1.08275960248725,1.26202999876588,1.16408451535858,1.23697632461436,1.20633506228865,1.19825082948678,1.20022499471946,1.19581512044554,1.19901833312361,1.1434691602714,1.19542362449017,1.17343369473401,1.21516143643296,1.21568808564431,1.24065317935789,1.24345070869001,1.27112916247007,1.30239779678019,1.28888885625066,1.28847425365269,1.30034029648577,1.34989572154281,1.63720999876588,1.29826711416083,1.29196368929842,1.26318193153073,1.26177475093205,1.27586514512793,1.38254014901165,1.26345036439551,1.27070463050887,1.26819614062006,1.31910224142875,1.29183386900046,1.29177829969033,1.29492066389649,1.34258306486515,1.42725469701772,1.44498778976314,1.48222123013215,1.68613969096399,1.71103030718483,1.35100019998873,1.35223671624052,1.35744201912051,1.35835052691205,1.38877954199414,1.44322632961399,1.48018062149996,1.38816631423129,1.37047263496969,1.35796203867981,1.35243123233459,1.3488043310219,1.35068473122292,1.34912617060327,1.38242149678766,1.41638738196628,1.46364378703512,1.53171872765108
0.998893894108454,1.01971625805439,1.06798575781832,1.1025482612382,1.22765977832413,1.2293192063223,0.934572446761566,0.88332445211599,0.877112443324742,0.89390465582838,0.897784277849373,0.927747241675622,0.945049282839364,1.17064440607658,1.17831707797153,0.984196277048903,0.984746846266701,0.972369497841776,0.998696860261426,1.00094932733751,1.04342455628538,1.08173792765187,1.14300668568696,1.14926273825056,1.06562427430096,1.0101943134015,1.00663220912521,1.02983506122993,1.03597105080791,1.06325552117037,1.06578989411622,1.06945011035613,1.074073611023,1.07641287589662,1.07118548444386,1.03627407248052,1.02896813315609,1.0774826687319,1.09635864162512,1.10714238032718,1.12540949507476,1.20856888740464,1.30714943159016,1.30682192177682,0.998665762668489,0.999368684871116,1.00845870279858,1.03180226553545,1.08347715692091,1.11189774098653,1.10205555311125,1.09464703499599,1.08686693519204,1.07579585971639,1.0570413376481,1.05982386746301,1.06172110610827,1.0678013005337,1.09497327707187,1.14043642900568,1.16345930021366,1.19145944659942,1.22069863722488,1.15455858802569,1.1226872218402,1.08404316356557,1.10775942311746,1.11807427626132,1.14838115189802,1.19679339929824,1.23386885881687,1.37080513269141,1.39181510321488,1.36968291618188,1.34634827156498,1.11670509003535,1.04831608082472,1.04512349341559,1.06827575750977,1.10978629432882,1.11109883384063,1.11359530870824,1.13137426788748,1.06092166260437,1.05020460185486,1.05412613805778,1.05569563439489,1.05884025209633,1.06132812971513,1.06392707726791,1.06347099731049,1.06220608712088,1.05649930840242,1.0505085711837,1.04965943205511,1.0336765578412,1.04224381598259,1.0484947173862,1.1351615808893,1.15404290060834,1.21607617918617,1.21381531515057,1.21350775217286,1.12011222628651,1.05004447801868,1.01809231176884,1.01989458198608,1.04433908955467,1.14516787665373,1.14040059085584,1.13604196704913,1.1324140561728,1.13024958280035,1.12943131417285,1.12762404612856,1.12473802291358,1.12104488756192,1.17459250850827,1.20903681690222,1.22672834694788,1.21608511908784,1.19911872549783,1.1992145361054,1.19876716069542,1.1989198774162,1.17895421143465,1.19311857760582,1.2242263012748,1.24624686865482,1.25739576556836,1.26572670184317,1.27733946171189,1.28467024158302,1.2962496083586,1.28948153136421,1.29026530825425,1.30821224417902,1.35302003592596,1.38838326455865,1.331510110642,1.29733243707932,1.26465673469203,1.26438884215357,1.26840542069931,1.30179206786947,1.2874531783476,1.29851675814634,1.30904245404223,1.32453157218385,1.32883508241008,1.33389849102628,1.33817348321384,1.35787014322878,1.42533517961846,1.43673931121344,1.45893602561922,1.43865438609978,1.41254197827956,1.36313844610873,1.35358368991371,1.3558396346481,1.35721265738714,1.38034781124287,1.39082583425367,1.38871195729403,1.3883699079607,1.37806531290749,1.37359446214413,1.35091179934475,1.35028514417175,1.35015937450473,1.34984295301383,1.39158117024608,1.41839661613998,1.4878309910805,1.51495537461103
0.988436240569048,1.02953678462181,1.08442625178446,1.11656747005373,1.21811381615377,1.32126999876588,0.90222429841304,0.880885212719657,0.871966279652686,0.896059999829781,0.904748078237159,0.952327522010571,0.962016526153401,1.19533992701769,1.22047050671919,0.982634283917303,0.984042028204934,0.946638847271303,1.00447682542832,1.00416067505797,1.04366552799292,1.04446553166848,1.12991266702675,1.1614372727598,0.990159153049679,1.012745407464,1.00209886488578,1.03850833009164,1.03800729300963,1.09908700981794,1.06900946983556,1.06150277499173,1.07626808406727,1.07760792961774,1.06847869654227,1.02139892503232,1.02186805993325,1.09273948047431,1.1361760025366,1.12669060698078,1.12443124335348,1.27210292347571,1.36787975752768,1.39774024062114,0.998762794141126,1.0007317122179,1.01714309908997,1.03605251476831,1.07433547216164,1.18427905046387,1.17870022723135,1.19033190082125,1.18875406504852,1.08884914959956,1.05416634048927,1.06461770718939,1.06114482299989,1.06494816825108,1.08927945210044,1.12566480383142,1.11921970713784,1.0625499495659,1.48143999938294,1.55875999876588,1.45704999938294,1.06451584792699,1.01926121897896,1.10195999576049,1.14798800556408,1.15631949670285,1.21550375485569,1.35106980329915,1.43383036992424,1.31358256773235,1.33340726097696,1.07113982221448,0.99277085942946,1.00106742724644,1.02234556815547,1.10968351017824,1.11041153572732,1.11034029057876,1.15784974056451,1.07873922506012,1.04701677004745,1.05835248336795,1.07950997287144,1.0590876588846,1.14665027945699,1.06480061328112,1.06319644747187,1.0623199307732,1.05573007282354,1.40809999876588,1.06408552379572,1.02188840727526,0.98795464872035,1.03682260090122,1.11743053295843,1.21909899788513,1.21895120992281,1.32447029205063,1.29844970609819,1.14033600973918,0.992247250110772,0.991405843948021,1.02915606377807,1.04955436980105,1.15144091053858,1.27076419027987,1.26931408841458,1.40401999876588,1.11883086903505,1.1009466523347,1.0913307836767,1.10287926284685,1.11572600465702,1.09788573395591,1.31587714481712,1.38494999876588,1.2514123219792,1.1965260561475,1.22062165464965,1.17821434720776,1.24505622176418,1.13763968664452,1.19120261062234,1.357789513814,1.39493696259906,1.53624999876588,1.31319704305801,1.303568504371,1.30543757478177,1.30638531013728,1.2882182219821,1.27718309207851,1.31947605461743,1.35638309422141,1.64934999876588,1.36211452646302,1.30361652597736,1.24061265052929,1.26659139885682,1.2608210270866,1.3304188743596,1.26880247741222,1.58416844395926,1.56382155418956,1.33233269559982,1.33458301570003,1.33921940409088,1.3446428158191,1.37577008145654,1.42322468173004,1.42600390930436,1.56181999876588,1.36979011985043,1.37335576343874,1.37405660436752,1.35263170949644,1.35494678527671,1.35742927101082,1.37353013257699,1.39131145349159,1.3866946165382,1.56657335255042,1.56698667840405,1.67784999876588,1.33539132631723,1.33616150279418,1.33426760353276,1.3334825779937,1.39980885363588,1.42036648744587,1.51262090865834,1.49672680607561
0.979375698653886,1.00597211911988,1.036634914936,1.06753505920906,1.09838115406813,0.953680177995823,0.890893943311261,0.876468633559657,0.873710003837204,0.886291002895656,0.91244978429136,0.93461939361544,0.98555199215396,1.15642018517789,1.17261184179362,0.983852303601257,0.984413991943784,0.970527887275715,1.02056062420814,1.04128924227597,1.0579181750199,1.06384805404007,1.14276252077425,1.14986760910665,1.07636287018592,1.02350763484621,1.0295046742472,1.03505546717202,1.05302954055872,1.07703410435171,1.07433303381201,1.07510480667123,1.07422398939181,1.07212222228289,1.07008845181395,1.0258942326213,1.02891958974365,1.09251296908775,1.11141051017407,1.11741946513112,1.12240817459051,1.2565570395752,1.30689940331747,1.31262626193561,1.05098336854881,1.0367241099088,1.03429867754479,1.05643021251282,1.08423801811093,1.16906761293705,1.17540157021914,1.18762015625322,1.18729716881741,1.13626218672523,1.06336392535088,1.06346319399035,1.06336908001835,1.06311739920731,1.07703596829133,1.11356469729536,1.11426499168468,1.13485525406333,1.1679178431232,1.12294897448554,1.09155412488555,1.05254112109687,1.04213413301527,1.08263074926444,1.11165135521718,1.16020882379115,1.19980931664703,1.22891218952624,1.19036321021367,1.16105975303357,1.13411281642536,1.10902028126736,0.995731038899595,0.99846232320687,1.00702854986521,1.07567537795481,1.09112795184927,1.11286175656067,1.12711030267566,1.08368902798555,1.06206312082748,1.06085153948919,1.07696022628422,1.07387504892426,1.06984067092402,1.06512459522813,1.06295199416506,1.06264864501413,1.06567232028582,1.13771472568644,1.06612680712845,1.00868642339924,1.00243484989756,1.0273034268929,1.05826334394609,1.05887431465711,1.0672443922519,1.06925624010378,1.07181649536881,1.06440369270857,1.01536898969,1.00819522138317,1.02987215826424,1.05611165827589,1.15335553732611,1.2683551210493,1.26793791030444,1.27577180766508,1.17509866650751,1.11808549829672,1.12024166918533,1.1224021495604,1.12805811249514,1.14625200987257,1.31115525375601,1.30746239997552,1.27423006645747,1.25614219771798,1.23832375289805,1.23775405001494,1.24087653230336,1.24915576827883,1.25347951262336,1.33914383084895,1.41136227884981,1.44039676847201,1.31586029352785,1.31481329924434,1.31274202968242,1.29522054612017,1.28466073738685,1.282597778509,1.31645235932981,1.34666811344115,1.3898438362649,1.33938263356537,1.31018300163333,1.24767784145669,1.26123668938439,1.26191242999057,1.26612577068965,1.2751352528487,1.32965025622161,1.33692611035587,1.3472339421332,1.35878768145898,1.36959795262406,1.378432385189,1.38511446279626,1.39920529769199,1.44257881665564,1.48761793017394,1.45340708685606,1.42106979697722,1.35931298573963,1.35303824744959,1.35434358962029,1.35609059551664,1.37448845162819,1.3983091194174,1.42571487682063,1.53237985798392,1.53885977503481,1.38304604041136,1.33507954894293,1.33489321551463,1.33337442356577,1.3502948844504,1.38022690301577,1.41688319931101,1.50014560011563,1.49602059843312
0.958908362944674,0.965677097805376,1.0073514376197,0.880969001234118,1.19997999876588,0.829715330492624,0.847325335531579,0.825881683007603,0.825916628271784,0.866007238130095,0.919466732528304,0.922206378491622,1.01080236916915,1.13352442032861,1.23392004035272,0.898273001234118,0.997195245259628,0.958259047794745,1.05364397580985,1.08799921909906,1.08258350274127,1.07226487103562,1.14496527608616,1.18773019536826,1.27533999876588,1.01435108586912,1.03953127437081,1.03056531848419,1.07008357253633,1.07947780506126,1.07815164933009,1.18610999871311,1.05012340578218,1.04104551869957,1.06946079507958,0.99836728020391,1.03211908852927,1.09227754886219,1.10564262135259,1.1048777119148,1.12163798363987,1.24343194808795,1.29437670157773,1.32013730756858,1.06385218310752,1.03961603057878,1.03302150802483,1.07345507084459,1.09508836942789,1.15397184072717,1.17196722488481,1.18632134815908,1.20184560065374,1.1840250401934,1.08456180808082,1.0322110443557,1.03025764916258,1.06203180712351,1.07210294963114,1.11027091700322,1.11032069164026,1.15141698203678,1.32006999876588,1.02851995979599,1.03127419938332,0.981523335485501,1.01175945728266,1.0695499426836,1.03410711340631,1.16439268882089,1.18227678618716,1.31836999876588,1.04634412520604,1.02407587664513,1.08375960709327,1.40330999876588,0.953332949840937,0.975402569777557,0.99325492711688,1.0584454998283,1.07664590601757,1.11523396751023,1.25756999876588,1.09763046854058,1.06173201471384,1.03264019590469,1.08477533483241,1.07522835198271,1.07193259066209,1.16232165838231,1.13258649928211,1.28699999876588,1.07217076900609,1.38468999876588,1.06893614134399,1.00584762457835,0.980387036432033,1.01892186268266,1.02446799771304,1.02561158642814,1.06679315736143,1.0698474420469,1.07399196587308,1.04639997132061,1.02623963018873,0.996983917357924,1.03018219405758,1.07048521122961,1.15655654307802,1.26639330089031,1.26712871732534,1.30819071135849,1.31218959428357,1.11536095543716,1.1595859861157,1.12492072305481,1.13555298181694,1.16490947656888,1.3148749629729,1.30480019872733,1.30434498187142,1.30519312879502,1.23985623507117,1.23526797044662,1.2397701785358,1.2643355454831,1.25541290275765,1.3194263921753,1.44006026598753,1.64571999876588,1.32160407604668,1.32502579373617,1.32432030628708,1.26561131419779,1.26497635461735,1.28217912007665,1.31375846981513,1.33742561772246,1.61997999876588,1.31722133436212,1.31513015176147,1.23229029149743,1.25910943962036,1.23860675241209,1.2644351399356,1.2804401549081,1.3242704822621,1.30668808510317,1.35965969103792,1.40160844229884,1.39990291885133,1.42826466111539,1.39592820602664,1.37027425453899,1.45736333867601,1.5890006121641,1.63526283982802,1.7009801397478,1.35142615026846,1.342348955713,1.35035744828672,1.35094496674044,1.37599068712707,1.40427943557282,1.45691030651073,1.52067340866463,1.54966246430388,1.30199286807854,1.30860718362781,1.32501096210783,1.33137469801477,1.36423455866061,1.36406296358856,1.41396928572964,1.50519592192037,1.47534844125174
0.954799194116056,0.973781657526471,1.01603910537394,1.04578741010273,1.07734827723626,0.846719626333325,0.850173794992073,0.856435958393565,0.884893541613946,0.891611890171533,0.924717456150383,0.927877296848782,1.00984446689327,1.15803286056117,1.16576788747178,1.03621153727221,0.984853324490814,0.968982816935842,1.04211077869296,1.09045347563397,1.09266526797398,1.09375774809442,1.14345891529006,1.15182684627914,1.18391325032836,1.09496919593245,1.0420091683531,1.04375612780762,1.05997941226037,1.07941647342476,1.07902721180967,1.06386437247367,1.04637601203709,1.04312792615111,1.03925107091648,1.03671622890589,1.03556444583543,1.09471092355115,1.09867267465909,1.11030768266496,1.12136993118381,1.17897020863545,1.26696773727738,1.27376144116633,1.05132226941797,1.04323812263455,1.0745531047507,1.09086811704902,1.09992985791644,1.15703396811794,1.16949820439216,1.18610182962187,1.18590844129348,1.18527630683356,1.12794750225046,1.06767363033722,1.0668754673068,1.0646787664648,1.06849508205113,1.08930231635672,1.10761741905376,1.1387340500973,1.16134765665872,1.03891603219248,1.01650579846268,1.0046835391358,1.01169928968827,1.06857207666247,1.06987823886957,1.1357154649031,1.16785048345964,1.17527949351014,1.1534091022677,1.13027219428728,1.10902889782068,1.06071878338788,0.98610885252234,0.987746761975853,0.990371906441244,1.04404995435572,1.06685009703181,1.08978794772476,1.10538949564081,1.10231318685804,1.05024909451971,1.04138416948615,1.05853473100361,1.06797750598774,1.07163341743237,1.10459172052792,1.11625011386405,1.15097470069389,1.17730296521625,1.2062738891903,1.07624455969239,0.993339776425483,0.986739343991932,1.0261608583695,1.02823864990001,1.06017002282055,1.0659799545945,1.06729455067251,1.06297443996089,1.05370853187239,1.05054163700497,1.03496343937715,1.03547197474492,1.07225732096221,1.16387048345722,1.21273068117719,1.19596591660793,1.18551833951786,1.17325417118645,1.16445848343439,1.15930522029894,1.15864124395681,1.16520288641906,1.16566621867974,1.25450711400636,1.30182993074549,1.303032043196,1.30410636294833,1.28126981746977,1.25485590560275,1.26104199946084,1.26666369824829,1.29185728008978,1.3343244007045,1.37386526657228,1.37032685599924,1.32105538525231,1.32237645160001,1.32346592106815,1.27312231077358,1.27990625637937,1.30333129976667,1.32963029812363,1.34833465491479,1.35273804525972,1.33767838690113,1.32627011623197,1.28383763415004,1.2805575424413,1.27808092809926,1.28564223178301,1.3103889106626,1.32246153807582,1.33599750221534,1.34572874097249,1.37022212586194,1.39790647755365,1.41133470440721,1.40276009791173,1.40576961318841,1.46230661742302,1.59174259939191,1.65096635811845,1.66010581733867,1.34914316886869,1.34634405032479,1.34912903460175,1.3500370773023,1.37058827352118,1.37065638949143,1.37042574273759,1.36947091992699,1.36730092943531,1.31978056264022,1.32301537909289,1.32729431391748,1.33049315514967,1.35943786804876,1.39790492497732,1.42200005083557,1.4755235809267,1.47547414753514
0.952812781552474,0.979768017178784,1.02373071535718,1.10622999938294,1.21341999876588,0.846641449016637,0.915081605787649,0.864257849153529,0.890975326688023,0.907849161541799,0.929212393702714,0.933842418783924,1.00883912814399,1.16940596034782,1.19527300554389,1.19581129724471,0.977935743255785,0.953173698024481,1.03063330678559,1.09724884967221,1.09486673625542,1.11595576610935,1.14249096441722,1.03433000123412,1.31178999938294,1.36814999876588,1.04068074501491,1.04600607209503,1.05254776881436,1.08877336461603,1.07982272322492,1.02698645233344,1.02665308862139,1.33353999876588,1.03707980521196,1.03780493639682,1.03437671653061,1.09654246950029,1.08369944823641,1.11610411898176,1.11794264899921,1.12065945744732,1.25468914409093,1.29004653171493,1.03385884603777,1.0350684057701,1.08883318017285,1.11312572093534,1.11182977103504,1.16005557474503,1.16573837203577,1.20557282359381,1.03578000123412,1.25104340210587,1.24981671519936,1.06950267873938,1.0682192212241,1.05761020452082,1.04693926396993,1.0708472823856,1.10469390758377,1.12902772037614,1.21217020374028,1.05698441585325,0.997888128553579,1.00045794329802,1.01121104331535,1.06754408873748,1.07323771283394,1.11198716980917,1.16000343301053,1.18318619961233,1.17910745330744,1.34223999876588,1.12645020439334,0.986738324258678,0.985377751626565,1.0151947408032,0.990516704945738,1.02481203343214,1.0561644368248,1.0763359402439,1.10754127422865,1.16041017239986,1.02909530702122,1.03673710477521,1.04179820520226,1.06436478885753,1.07311060356711,1.06455353946626,1.0995189706709,1.07275630099824,1.36979345704642,1.3909865411024,1.08384149848862,0.97323400006408,0.972923292850082,1.03351324416453,1.03396869988657,1.17737999876588,1.12049133147347,1.13172307437549,1.03691923192386,1.12532047879443,1.06124329211118,1.03435349774903,1.03565098882864,1.07489050666381,1.17017087481135,1.23433282637278,1.18698222349906,1.12936458004668,1.12662456164564,1.18508132817021,1.1289217507094,1.15814836593145,1.17804515258759,1.1667734460292,1.20905978360282,1.29778086276915,1.31101681065414,1.49906999876588,1.33363025034855,1.24593926078195,1.27771398540941,1.27304102434908,1.30868754919174,1.34391092364305,1.39228634431004,1.36162527936652,1.31959354888555,1.31963171188827,1.45079999876588,1.25792938952522,1.29335679037921,1.32041555987789,1.34506185029256,1.353772259683,1.35521077263578,1.3695442124703,1.33306141382931,1.28901364745526,1.3026363930182,1.26796558376794,1.29099934906302,1.46418999870619,1.32006547051992,1.38645081674285,1.33719271189931,1.29639975543858,1.39388857013663,1.44362056511167,1.38537682145173,1.41037057291303,1.46786797228309,1.59469661230984,1.68616421708742,1.69330595931889,1.3384882795996,1.30820329847191,1.30947117366036,1.31063250551115,1.37071401847765,1.33380261374496,1.33128358122612,1.37004517677791,1.36429907603666,1.31432909050494,1.34028600351974,1.3317170104394,1.33165763775647,1.3529771757304,1.4433057112106,1.42456858471044,1.47821511533598,1.27308000129249
0.949590416349327,0.987928229750987,1.03692525680959,1.04619962121935,0.977573993472437,0.945594992586698,0.910916134617784,0.903555715191149,0.906056281894392,0.913591820470891,0.932527635383626,0.971142202564467,1.00127998837666,1.17996697890793,1.18609486310016,1.05284089032725,0.984734225639872,0.988585332994235,1.0295367719284,1.0730729016875,1.09432533633805,1.10319097237498,1.11546734296133,1.14023432807024,1.17134562472726,1.09397901781658,1.04362121843539,1.0467262206446,1.04845862083571,1.08479151151142,1.08089268883373,1.07856692376724,1.07704170598702,1.07708309001603,1.0757190494599,1.07532715234336,1.07353507655109,1.08920225045964,1.0953048427705,1.11560793007724,1.11655956458973,1.11785440367754,1.11738533005889,1.11713406592011,1.11411918200149,1.10334702373838,1.10028016813912,1.11614021130027,1.11824049059849,1.13820366269339,1.15003262610853,1.18440808519086,1.18446864292705,1.20246023543574,1.09244191970731,1.06855724693487,1.06739151379634,1.06444117288941,1.06797593903404,1.08060121573899,1.10051821214952,1.12596429152822,1.14585806628579,1.05439385890797,1.05173779507292,1.04907918928362,1.04464578027383,1.07774538987346,1.07942048458171,1.1240630903506,1.15050499250466,1.20540845696495,1.23508042512155,1.26573626031643,1.16091549887246,1.06954484484278,0.991232111053352,0.991665216545035,0.992298502008193,1.01873973616981,1.03659166920017,1.04541871828509,1.04687193689745,1.04937145255382,1.04248065281684,1.03940367544057,1.0409228436808,1.06673820592922,1.06957447456649,1.06806706963222,1.11289939172438,1.14517746562332,1.17300473573723,1.20239866519056,1.08117544505345,1.0132317570499,1.0056846445634,1.0360650501959,1.07022597716799,1.11163330851702,1.11167947448723,1.1105965635901,1.10052633937564,1.09142979771833,1.08692172282697,1.07403606498946,1.07455428273469,1.08096381290681,1.15100554707447,1.15607381170943,1.16639163487147,1.1655864872476,1.1642884332399,1.16623654728043,1.16961874399256,1.17029272850686,1.18248680194181,1.19377425717324,1.24245296148097,1.31085967200491,1.31463889979751,1.33276947533205,1.30121367241978,1.25426903227299,1.26254823074283,1.28485607300659,1.32616575679594,1.34847484450927,1.36496346236777,1.34696403652561,1.31847559333969,1.31872866742698,1.31888247728032,1.29263580327999,1.29420710717836,1.33028407333354,1.34885683301389,1.35193472032591,1.35224760638867,1.36113029698235,1.34511732112143,1.32928879749138,1.32866897811651,1.32593982807546,1.33636027296525,1.40201200636914,1.39025347609899,1.3884075422335,1.38238236819356,1.38315068342049,1.38631238316771,1.38672592609849,1.38630009056849,1.39433556373676,1.43680330563208,1.46962126524744,1.63586504483847,1.63539518986243,1.32394034107561,1.30895017903687,1.30930097252587,1.3091893724803,1.35162330004307,1.34546771776793,1.33821885135953,1.33229009485958,1.33080322233001,1.32216673618773,1.32979302826288,1.33017870760831,1.33375766079755,1.3563524139834,1.41862970856251,1.43847305609923,1.44732202500687,1.45281062617759
0.944670939549729,1.00335392019144,1.0585260932368,1.06013550384107,0.852010854231607,1.20832999876588,0.887976662939009,0.900047128803057,0.907236079465158,0.918681955353881,0.935325725041317,1.01129629517591,0.99078491658774,1.18266885699348,1.26967999876588,0.991272541591422,0.962290240213862,0.992101903978603,1.02883871572697,1.05072440927456,1.09287972432043,1.09631540340754,1.01496997170098,1.21988999938294,1.33398999876588,1.02924285316943,1.0203053772347,1.08146211146221,1.04588642027934,1.15306060311279,1.15149082607854,1.19013151249308,1.25295021740764,1.07983397777132,1.09694177430178,1.08885009114979,1.05978215829194,1.08380672312239,1.10783666862331,1.16048381370371,1.14339863970795,1.17337675823026,1.03933998509044,1.03953997858372,1.43019999876588,1.10693634384745,1.09754816912442,1.12004057187499,1.12051891083578,1.12061887299243,1.14058012991372,1.18504243094348,1.18529144218971,1.43863999876588,1.0055301136091,0.974071048262533,0.994980699182184,1.00883861131234,1.0695846314931,1.08768000474078,1.09699453357113,1.12277291703884,1.18837059767109,1.02161348789093,1.060914859095,1.06097631452483,1.03861523555034,1.08413999976998,1.09459558908985,1.13580040800998,1.13907426430622,1.24545012054427,1.40950999907441,1.40794999907441,1.28215006533412,1.13444003303939,0.991494594630978,0.960308121450477,0.994841513569919,1.01365837473561,1.03585260700757,1.04333832648796,1.04436607130171,1.05683267703816,1.06406766165234,1.03294500511426,1.04150905730066,1.07717669043839,1.10725267969523,1.06779689778956,1.12056352013992,1.25432021875508,1.08062000123412,1.38276999876588,1.07826954100123,1.02448839373616,0.988856050043839,1.03843548032604,1.10874246141916,1.11221931293721,1.11254208211948,1.02897993612205,1.11794680995109,1.08070426152866,1.09229765091374,1.07422319379117,1.07531033787308,1.08468368297081,1.14572753896569,1.14629165743861,1.16712531874698,1.16726025736963,1.18345421851546,1.1657278428358,1.17589856515542,1.17101720129807,1.18693949227834,1.21280188803688,1.26789142526564,1.33902885421632,1.32499300960396,1.36549065822102,1.26791022544486,1.24714241265784,1.25373871510383,1.3038257351488,1.34418814887178,1.35662152869067,1.40576046154434,1.32361053172925,1.3176529064803,1.30502190389972,1.31906926823164,1.2887548506811,1.27764768398214,1.33997885378885,1.39493618728263,1.35293599856854,1.34717434959533,1.39237627578849,1.35865971005979,1.33021819170685,1.33245803793427,1.32443905871154,1.34660350794016,1.43339090122033,1.39186412146432,1.39195441552985,1.38238725041367,1.3800323445358,1.3845622894294,1.38575813253226,1.30151973701724,1.38803713629956,1.41359369675892,1.41424681846371,1.63824865897854,1.63683869321204,1.29448416810543,1.29203778326351,1.30375793005707,1.30666168877978,1.36000428848767,1.37502119888575,1.43868001590496,1.31562274350041,1.30640965181338,1.3041611882274,1.32814954252232,1.32778242498928,1.33650932218498,1.35968708858566,1.39930497037623,1.46621033796867,1.27146966151717,1.50286999938294
0.941825795156068,0.975149771873438,0.985732784538269,0.946121352816378,0.879677814104362,0.890159521700294,0.891005589161531,0.901738673175445,0.904079315577375,0.911128353249016,0.93858633711239,0.989932465493627,0.985178875859572,0.979954836690295,0.974846768072933,0.970236295916795,0.966081979471855,0.977131506340171,1.01511176289758,1.06542908356167,1.09063879577209,1.08957705824845,1.06915125073169,1.05772264138667,1.04885024983514,1.02687715759072,1.02392719121072,1.05860402557696,1.06401685573167,1.1466947436515,1.15042059914535,1.18748120523095,1.20243808431152,1.17095910146321,1.13837933116598,1.08448523301426,1.0808612040615,1.08268015206042,1.10341074200182,1.12762826137337,1.1340178406499,1.14280621190519,1.11564593711446,1.09302163076153,1.13068142547993,1.10407647304664,1.10116199663987,1.11286024303821,1.11614804814492,1.11722931653678,1.13177276250315,1.15500762847779,1.183718066412,1.18346553266589,1.06996314038741,1.00943821867132,1.00494161550644,1.01019389043613,1.05123670433553,1.06680709248196,1.09510440769621,1.14218497433155,1.15358593382325,1.10309852616955,1.06253436418708,1.06236700201042,1.0486414802393,1.06241065941608,1.07244415839346,1.12437030433446,1.1307617978524,1.16127471676193,1.18579256203705,1.21176177875427,1.23899379354138,1.08757686844122,1.0141559465053,1.0085389747905,1.00004747186387,1.01376666465928,1.02906794906229,1.03288825970384,1.04802123190794,1.05050567928393,1.03913172716532,1.03559241747114,1.03780584215306,1.07911791334674,1.0814666673328,1.10278354096762,1.12398866500233,1.22325824431757,1.22559721629915,1.22798554362768,1.07238196663792,1.0300157480472,1.03146718078977,1.03392803417716,1.11151405034654,1.11276551929243,1.11394250025312,1.11596978260276,1.11719783307609,1.1088586019955,1.10331241583047,1.10243575299218,1.10078035548722,1.11852086020547,1.15125780816,1.15330610873729,1.16682837401473,1.16600543967327,1.16681954486704,1.16835320839364,1.17212450571607,1.17220419474729,1.2176193616517,1.23941229013069,1.24845882664099,1.32665470557599,1.30964411710521,1.296745514437,1.2694315879303,1.26954562655591,1.26676751769353,1.30736466037773,1.34827265792421,1.35272333387785,1.34211878096822,1.33663580241481,1.31492939299691,1.30296528249897,1.30140301924435,1.30058296584067,1.31069380345282,1.35684230029234,1.37786491137768,1.36657490065381,1.35857019679405,1.36083985218499,1.36882851173103,1.37839179024587,1.37788774980137,1.37905847478217,1.38153545230211,1.38525832872558,1.38943675848381,1.3910044523985,1.38530841273886,1.38198183912895,1.36828956284133,1.36262033912351,1.34616365609179,1.37334069946859,1.41004719108349,1.41155150179615,1.44110250842168,1.362485199866,1.29380991983764,1.29302640386328,1.30086815909423,1.30570658984004,1.34015761802407,1.35178577216439,1.36141151336476,1.35262103196278,1.34435166267951,1.33686423116848,1.33127294866325,1.33427956454364,1.33884573967468,1.34347061793796,1.32983033669788,1.31937031488658,1.30389216488382,1.39152572874449
0.936452175345419,0.965615612449724,1.00749738604987,0.877841327654293,0.870673527242094,0.887320725237313,1.31306999876588,0.91414217880835,0.866257812673242,0.864182552821221,0.940942207134062,0.995920230302333,0.942922082018262,0.960320153640892,0.974376283467668,0.951773648763383,0.956827059207844,0.966392913160045,1.00403011596968,1.07330211017827,1.08901039317961,1.08861060554204,1.15371039506078,1.03218846638598,1.01995139087994,0.9912692513495,0.990679919862032,1.04351835146238,1.08406188859755,1.14279643179867,1.15249696911531,1.1852563588502,1.26184695128533,1.37854673937064,1.37813342906767,1.06406529679575,1.07320559187087,1.08110334344956,1.09853105351785,1.1190114105119,1.1247080597521,1.15087320970756,1.29290999876588,1.03835985488631,1.38257999876588,1.03537502713681,1.05952090228077,1.05101965266123,1.07229982925975,1.10523210421414,1.12155154734414,1.13994938352636,1.18387913682297,1.18539655882794,1.13065999938294,1.02216316644855,0.971290976573725,1.01083219611644,1.03456680568552,1.03360871537706,1.09393199770039,1.1686401882102,1.26125989748554,1.30157010066328,1.0390609711327,1.07700412122487,1.03073761858783,1.0438860273612,1.04971668377917,1.10490514670013,1.10484547440172,1.10781723934182,1.12567729587862,1.12537801693145,1.34185999876588,1.0225740362554,1.01680376576502,1.01585310194511,0.988408497288228,1.01364630640353,1.01589504822835,1.01466515817964,1.12147986141465,1.39579999876588,1.03776371764383,1.03471675494075,1.0356632262613,1.08069100317594,1.06189754862508,1.12313854619692,1.12839087986299,1.21892038647475,1.38221999876588,1.2303529779671,1.06641336160444,1.02747227053299,1.03157569339973,1.01819907736882,1.11242611055563,1.1323040724306,1.13968372348504,1.15328640775817,1.15406241791075,1.12978852679648,1.10538353645238,1.10182156775498,1.09968613516864,1.13601430900647,1.23305986582379,1.26688464910104,1.21260522557619,1.16297197728583,1.1602488935041,1.19403745816542,1.15833791211494,1.17199620729545,1.30185043669041,1.27599039602723,1.2329013960178,1.33964635005551,1.29806817041705,1.28696607699306,1.26989815798268,1.27147240580164,1.26296018493874,1.31185197153472,1.35671829462846,1.3920283698799,1.304559261705,1.35465323926429,1.3139532022027,1.27316825073368,1.26413045462244,1.30014052096474,1.32684941387244,1.4000897300555,1.38183219462074,1.63755999876588,1.35032355289198,1.35400748269435,1.387869623761,1.41321442193689,1.43275738768108,1.41055405026958,1.41760977150648,1.34032986010983,1.49604993418134,1.59346849136681,1.65554023776311,1.38326626020531,1.36055918780684,1.35407297283034,1.31592507659971,1.35510687250817,1.4063252611804,1.29956979648628,1.63828999876588,1.32016026581926,1.25870761238098,1.28704077083107,1.29756498825557,1.30403171779917,1.32092270848296,1.32535491955227,1.37385545327194,1.47459214122021,1.62002999876588,1.34107285612352,1.31113300534823,1.33729328845095,1.338094566831,1.34618801003576,1.27930186741736,1.27802972163204,1.26218826698242,1.55657999876588
0.906473857902082,0.906881381246508,0.901066641503448,0.891422821746686,0.89030059813472,0.89833489455267,0.917090096305979,0.915837040559355,0.899062600850002,0.922630069061065,0.942872249963495,0.94826908197184,0.945793169144414,0.960612941381751,0.961811700804676,0.954931731103331,0.957936729777826,0.969413120280002,1.00308547999077,1.06492706380298,1.08710650964297,1.09599539551878,1.11290919245916,1.08931023400269,1.06229711100582,1.01996278407443,1.01104913169975,1.04880479801635,1.07747978056944,1.11516517735132,1.15370001437844,1.18077148728056,1.2782043617558,1.32992690325759,1.34603883671051,1.06742704121828,1.07049167032468,1.08667239092626,1.10166606635878,1.10765575535391,1.11608399084699,1.1483497694078,1.1576891176825,1.10469760338805,1.13653250121238,1.03945143256544,1.05474729137994,1.05392911792047,1.06339933728724,1.09519949294723,1.10908602331871,1.12120861325793,1.13388333547791,1.07432690303318,1.04169202666955,1.0057234210541,0.994856866166013,1.01106827314046,1.02050894571433,1.03948973394738,1.09135554159543,1.09258802422532,1.07272907495254,1.05862268591738,1.03618135980095,1.03373133974696,1.03177020824243,1.03955222753982,1.05655391378574,1.1031968224234,1.10341746755541,1.10452920573414,1.12696337585178,1.12686505199529,1.11989333958324,1.01825530620133,1.0154879362965,1.01415229623116,1.011473596699,1.01707599235576,1.01816050251988,1.03673881760457,1.13448757923853,1.14109145340589,1.06246200116,1.05513345026537,1.04835493506382,1.06418473307775,1.07426802611792,1.13232793938071,1.13416506509835,1.15607895822318,1.15734185521395,1.15828130660408,1.10491866091109,1.04449093579374,1.02806435544336,1.02412302377189,1.10440774150086,1.12443768946665,1.14350756149788,1.15431369232514,1.15462862987105,1.11140692228886,1.1049822642144,1.10463976030109,1.10767542144452,1.15640864010551,1.2300113298797,1.24110090493396,1.22823711629301,1.2186628383555,1.20515659445042,1.18718145006378,1.17457859245153,1.17392903289617,1.22734452277466,1.24420203752967,1.25034600942416,1.26953863367621,1.27164948330715,1.2776764480065,1.26968223159716,1.27041926995698,1.27844344484586,1.30709255094145,1.33226942310244,1.36247445542065,1.34447289616689,1.32977956849646,1.3140277314414,1.30350263598763,1.30746080593239,1.31076093099183,1.32628630151865,1.39486072395945,1.39676406510546,1.40018240447969,1.36741404612306,1.38657592235582,1.39863296117075,1.41804307374427,1.42614986784917,1.42415990926143,1.42116830061252,1.4400134643776,1.50305135486262,1.6090952267489,1.61966731325706,1.37991502331601,1.35294425556775,1.34949724344162,1.33743453750839,1.35483541403954,1.3555826636579,1.34520088112283,1.32747786465822,1.30169239730811,1.27496945540384,1.28703368934507,1.29397478967879,1.29869610466326,1.3225005323168,1.33433330417822,1.38809661284552,1.48382984006196,1.50664031040144,1.32432822538581,1.32005981444802,1.32632822851706,1.33323282711357,1.33669061325423,1.3399468344338,1.35536311817722,1.38103428519351,1.40953209922031
0.907513450170205,0.90738501756002,0.872763080966948,0.890791972324002,0.887555485630909,1.15953999876588,0.915721320366211,0.913987167921612,0.877956978574799,0.957130695296455,0.957252868191657,0.957302299543921,0.93850360793192,1.17943999876588,0.963574375594143,0.923488000128282,0.962432499357562,0.97061668866318,1.00222526894484,1.05099647275806,1.08517886313573,1.10547846195898,1.16763000073799,1.27787999938294,1.40994999876588,1.03717268078543,0.992184618551919,1.05750463569598,1.06923298474804,1.08350972849298,1.1535175275961,1.17755776084855,1.30080149267742,1.31430632922787,1.37367039634274,1.03182478952905,1.03188476719759,1.09373908933379,1.10446182500642,1.08923804027716,1.10441566237614,1.14742154304247,1.17416915153803,1.04765383896928,1.32075999876588,1.03283294665674,1.05311727329826,1.04235714127917,1.05938708506001,1.08437100554773,1.09946038178675,1.11208235525516,1.15274453852536,1.01479000061756,0.919422543817702,0.960324783917653,0.972947856839344,1.01123203015469,1.00971861900688,1.04629845820822,1.08791994653766,1.11128726317672,1.00967227343047,1.01159011477684,0.996757667599807,1.00903370901359,1.00823834710065,1.03676787912952,1.06713814196371,1.1954972808531,1.1492436758201,1.09449733713658,1.41401999938294,1.47206999876588,1.11604186807275,1.0083963460206,0.97622198402807,1.00702987398908,1.00884108018235,1.01931103973728,1.02171521412759,1.05919314783967,1.1622185173486,1.15061570843611,1.08177638923931,1.06168461492057,1.04088799689371,1.05672899065624,1.09240286069856,1.14116209613605,1.1418106541413,1.15326694395026,1.15769184071778,1.15765775087065,1.13952929513864,1.06420514482984,1.01587093315853,1.00701577999068,1.09365344038168,1.114953735682,1.15226978562373,1.18789508054571,1.41715999876588,1.09441554721582,1.09526115367003,1.09614866515704,1.11774149148663,1.17751802687669,1.22608369357664,1.37942845359592,1.37336684289023,1.41359780845122,1.42094974772054,1.17871443762414,1.17406814614389,1.16235669562577,1.20332602499055,1.23503523789086,1.26718224935649,1.2680894953393,1.27072832179417,1.31956564788509,1.26593751060304,1.23141907756237,1.29050214401246,1.30206665980794,1.3021952672735,1.61197994221848,1.65563005593034,1.30894817152451,1.31292217430257,1.29627277980105,1.31459069990164,1.31523668606578,1.32686616869543,1.38470320560243,1.56006999876588,1.41147573873783,1.34337894558986,1.3994911455243,1.40630088933656,1.68186999876588,1.43860237280547,1.48199056912512,1.39117197684902,1.46380104703303,1.50782434236339,1.64441999938294,1.70384999876588,1.37191726332577,1.34311704354599,1.2894564454966,1.28996521795916,1.38391034204243,1.35725378450258,1.42421036125109,1.25904517406531,1.26004075852614,1.26092249348886,1.28524128616845,1.29044207950201,1.29460342134024,1.32501625718401,1.35186156524131,1.40396661628148,1.49210897215138,1.67607999876588,1.31187397697388,1.30062878125623,1.31732824517304,1.32038007721443,1.29009785233661,1.34330085898103,1.41029266291203,1.4689910519145,1.52022007504625
0.897644136383124,0.904218372162526,0.90153429758247,0.900363075760482,0.902382851030604,0.907528115272928,0.912754177288212,0.914995628046439,0.901046076917254,0.969410634540773,0.973509653833539,1.0016678169565,1.03293777974357,1.06445135344893,0.960065650103545,0.959241318785894,0.961622489636208,0.969242378872334,0.993764058122217,1.07045045437816,1.08377841249387,1.10244361960276,1.10684142624078,1.1157541402454,1.07911639453028,1.01831688169171,1.00996118243627,1.07792646784361,1.08303015518769,1.11542649339032,1.15281704810978,1.15904058834456,1.3005537129028,1.31084068458245,1.30817934756949,1.11401608363537,1.0659828165858,1.06360417025308,1.0587008644879,1.05581762125649,1.05459193181293,1.0544123938139,1.05405660894248,1.0535329872396,1.1157323721506,1.08707047112836,1.04944584632485,1.0457675703653,1.05217702707003,1.06817030309523,1.08865078171168,1.11442645770727,1.12981859764832,1.06290990903732,0.934044337897418,0.949277244420505,0.961620722348146,0.984955492644784,0.992747379183009,1.06174491116832,1.08336962492681,1.08463186574347,1.05908255547146,1.01496016354081,1.01698449559685,1.01780116125269,1.01747727933475,1.06198948521478,1.080061857465,1.17258749180195,1.17784876715704,1.20410454439895,1.25068944399548,1.25116991165052,1.15932255461915,1.01763047893392,0.994810378519791,1.00159319242687,1.00618725781512,1.0098016002359,1.02526324451458,1.05612275705973,1.11252162824035,1.09423423038841,1.07255319260171,1.06584193726758,1.0464152798304,1.04988469701247,1.08696353299028,1.13115957740331,1.14450646355928,1.15591470325668,1.15719751864197,1.15812291949185,1.14997471239229,1.09021739040657,1.04087462921697,1.04272155631654,1.10099708461995,1.13550049551378,1.16740305073259,1.1758957010643,1.16771630107144,1.10210272889476,1.1000560840808,1.09832722128601,1.12233130210841,1.18495064476239,1.26700156651495,1.36399540321172,1.36873300072308,1.41092799889691,1.41683233010832,1.2028831522709,1.19176250169758,1.18470515701907,1.20848316436372,1.22620681195754,1.25347398553448,1.27020158702446,1.27009138437048,1.26860118726831,1.26703555571625,1.27724640977086,1.28492809847075,1.29356754638025,1.30138643731223,1.3782009871762,1.35773299826784,1.31801846461438,1.31682767938995,1.30725008565185,1.31414756946181,1.31307100780356,1.33342421562922,1.42118362183768,1.4524264849481,1.39198539109784,1.37893101152616,1.40609161240616,1.41307488661027,1.4306498092166,1.43297661139061,1.42973756128001,1.41654696454904,1.45608551888543,1.48965785463005,1.52497575524969,1.55469129875073,1.3536568428637,1.32972185438533,1.29127062923673,1.29075549892853,1.33677201833067,1.37614453151947,1.38779765034173,1.33893559544067,1.29020292349356,1.26663653613266,1.27229875830968,1.2854175823965,1.30154677375743,1.33541493745956,1.3450365932397,1.4048494011559,1.46364544678814,1.49467318970277,1.30809741577277,1.30454254922167,1.32123651005984,1.32295784780351,1.32463148306022,1.36278097338143,1.41171139837472,1.48392298836901,1.49171729193915
0.891870877163858,0.935921806062919,0.967361361751849,1.07694999876588,0.924380023378476,0.907868906165826,0.901113058601591,0.915949201216457,0.894093136505279,0.975084123405706,0.98173105488259,1.03281285316021,1.07891337601194,1.15394002534099,0.944013279073103,0.953983484629379,0.950250716974986,0.967216777736327,0.984634322223932,1.08180243581764,1.0828202663996,1.10051580855426,1.09941480257299,1.1332912832298,1.01667359135717,1.00535274556999,0.994264618783001,1.09901988548899,1.10109970409567,1.15552557118066,1.15254523828631,1.150075237706,1.30011360631472,1.36240048676328,1.30616687046879,1.43439999876588,1.06873706007763,1.06666897441023,1.05921339312748,1.05727933315516,1.05575735963178,1.05610896130095,1.05529261371333,1.02163930478476,1.16608260892024,1.16114749493457,1.04049285894302,1.03199720303259,1.03145915652621,1.04913926779657,1.07912897318334,1.11717090103359,1.13980895434505,1.26620999876588,0.925420343075157,0.918914743396415,0.948446542765293,0.954243996104763,0.981002955368876,1.07492142079131,1.07841023399541,1.13666015525199,1.18194017382294,1.00155422290626,1.01668498191015,1.01803520015635,1.02974957637935,1.08867348213751,1.1019215569723,1.15686844126343,1.18130025870794,1.24527518754285,1.25020940592762,1.25180297989095,1.27197440064173,1.03163798383382,0.98748917330589,0.965233038200934,0.96747604567119,0.988370619007917,1.02830283997167,1.0542244647498,1.15416031416071,1.05423426587394,1.05365260576475,1.12259032368405,1.01900960792217,1.03992128480513,1.08239982835922,1.11940218698978,1.14840854275323,1.23250020843268,1.42550972699142,1.4530902711574,1.38206999938294,1.11642487923263,1.03741692552328,1.04343967534571,1.10847063172414,1.1520345868605,1.1793298855036,1.26918023166473,1.16006194133777,1.10307753664705,1.1059168358917,1.07693119901754,1.12637876449873,1.19219080676166,1.3196199993932,1.34960406690598,1.36316997723665,1.39731760386383,1.57211999876588,1.22251325601798,1.19916104597422,1.17936831935192,1.21281444783902,1.21763133966038,1.24375657278303,1.30380073488593,1.25591270338009,1.23257002487419,1.22848018600056,1.2805970625787,1.27944475437672,1.28478664712609,1.30106557421435,1.40929064451657,1.33585438271391,1.32657941972234,1.31797547995291,1.3038175435823,1.34679451729367,1.31030448460231,1.35182328746865,1.52959942835786,1.55164666235553,1.34996218700757,1.34198746446658,1.41316263676873,1.41611608224495,1.42688488867198,1.4696611235199,1.35789490497433,1.35775490664834,1.44736791666528,1.47466324922995,1.49634003745264,1.65336999876588,1.32349182077997,1.3158239080299,1.26951151203965,1.28940791762365,1.29129006723123,1.38580025111148,1.43741030596089,1.54485999876588,1.30920160080728,1.26396081078747,1.26394904119418,1.28056555398073,1.31218031315111,1.34294830018341,1.33420009073743,1.40644024997947,1.43619140098164,1.60151999876588,1.29831091999765,1.29851319637166,1.32416556165802,1.32478970757027,1.32551344833848,1.38847051836744,1.41344458472355,1.51096856574968,1.51244192857117
0.892028712312065,0.919793569525309,0.935086625717541,0.990355247321958,0.961429110793157,0.911292299780728,0.915795605188074,0.917641042811902,0.947190217067629,0.97656104886256,0.990666695144681,1.03256076472168,1.05876313898985,1.09149401132558,0.979745503258628,0.956008028806325,0.956470186191807,0.972924320670391,1.01717955714021,1.05764527417105,1.05999859828393,1.06203410046592,1.05174221461214,1.05019460492532,1.04494142923666,1.0140012628313,1.01131247909576,1.05967458596892,1.08770615471014,1.1021220856201,1.11929200101573,1.13303698392729,1.21766380584362,1.3262978841806,1.31818691999409,1.33623862400296,1.06135934871682,1.0583494185102,1.05362040166254,1.04931274157451,1.04454100286351,1.03909249032321,1.0345955454831,1.02925710950811,1.03201449719797,1.03315191795357,1.03259543593745,1.03168310625706,1.03102297083315,1.0381261867497,1.07135413831809,1.09621679952009,1.14664518164614,1.17493433409788,0.998590714881635,0.96651207795759,0.95085686474255,0.952767398206139,0.979249310196469,1.04167100837806,1.07645624772045,1.10081171968321,1.12649774329675,1.01885751685062,1.01755549299072,1.01660946973463,1.0308266733729,1.07690693202908,1.09981140682777,1.17613138222933,1.18386721886354,1.24004146948358,1.25082261722836,1.25127570223026,1.11479055375913,1.03750915714733,1.02031372404953,0.967543207393536,0.966967733883243,0.988200040577264,1.03065377326863,1.04771874971197,1.04838281910436,1.04926370810359,1.05173370092571,1.04874797677906,1.04547917006186,1.05275892025402,1.08475223102308,1.1195097587898,1.15318606872418,1.19754818019669,1.18175816542453,1.16561669149355,1.1470140594468,1.10678001973398,1.09982775895217,1.09094936953318,1.11786819228724,1.14776904768324,1.19496631947733,1.2199984015273,1.19408119003352,1.12161065668298,1.11340967806313,1.12600815249391,1.13414859568813,1.18244957005371,1.27167306200336,1.34750443022057,1.35804224621047,1.37965122675418,1.33109459359705,1.21708383511199,1.20575690613567,1.19580355640886,1.21052445830271,1.21457757159694,1.23925852334072,1.24863874900685,1.24851653371837,1.23148422322076,1.23027886704717,1.2562448013579,1.27359309239587,1.29242019065703,1.33124656386553,1.35750205479019,1.35388139722015,1.35190844219202,1.35165041049657,1.35051108295759,1.35434929457107,1.36964885910362,1.41109897169331,1.52474983990761,1.53294174685581,1.49639966026797,1.47926182104841,1.46549259435243,1.44627726055816,1.43968826094425,1.42912269769789,1.41495363273113,1.41686104323734,1.43009852432827,1.4364316322299,1.44606080311205,1.45984393490848,1.31919794376113,1.30708430987369,1.28562127077219,1.28777351268923,1.29262906778804,1.37455483173497,1.4085985158723,1.44050236567264,1.35002909348954,1.29589574553954,1.27612400775579,1.27674279564621,1.31395002911238,1.32114065343799,1.33364900233872,1.39463773635239,1.45818408213116,1.48764912521122,1.29895335239754,1.29898646591037,1.32648372587902,1.32643266182777,1.33310478626236,1.37135950354768,1.37663865784696,1.34423165395723,1.3175330723773
0.884696927768872,0.873710054678188,0.884725799950345,1.03383006908052,1.26422999876588,0.903421947737687,0.918284376876048,0.919730311617915,0.981230676588621,0.9777468121299,0.99693051358939,1.03268027791157,1.03997189862973,1.20665999876588,0.997253601129446,0.940722806854971,0.957275387944188,0.984945817332516,1.05067006975391,1.05749851752118,1.06197529930887,1.06483485545543,1.03457601705252,1.02996304166374,1.29153999876588,1.02165178339107,1.00603168741621,1.02625983772292,1.07884684454837,1.05591810478047,1.09676301300682,1.09953347737134,1.182280000009,1.33361023072399,1.04961000123412,1.39451007735165,1.02442141801152,1.04302793220312,1.02676003698658,0.980052200858407,0.990861347739505,0.971333325062567,0.997972684495423,1.02960642089887,1.00392771427382,0.99223209757549,0.979415413086991,0.981235982142886,0.980905891491579,1.01308379878799,1.06485425083072,1.06932890183731,1.15212504174132,1.29849999876588,1.02965988312587,0.980614394219221,0.933490914398558,0.919482918327745,0.977399136732732,1.01681705275418,1.07398364355352,1.07506672864549,1.23983999876588,1.02438699752271,1.0077654494643,1.01485520518107,1.03006812689057,1.06410597910566,1.09865939956554,1.19237986558505,1.19425236610071,1.23460154687481,1.32613553083029,1.32827752942469,1.05565607621568,1.04700063892258,1.06543846315449,0.960369051448525,0.964567665066668,0.987493218715171,1.0323677454056,1.04664701464892,1.02890810322413,1.04620651448219,1.05535263629945,1.04007777094499,1.04156242159049,1.0661914461507,1.08718180921043,1.119535651689,1.15821668839705,1.25446011158998,1.11563529838402,1.10913215322198,1.1293570030364,1.09780994173965,1.10974165749818,1.08248345886602,1.12709383743475,1.14428857795492,1.21512083221924,1.35338009976085,1.38710044587714,1.13761967790945,1.0962677006618,1.13554875136557,1.14996514048827,1.1741269634353,1.22553615577538,1.34462735591915,1.35279186546739,1.43078028646241,1.29781010355261,1.21134987793169,1.21583934022355,1.18024676439543,1.20905023112406,1.21095646117287,1.22988167919387,1.24811890673919,1.24819775438916,1.22615022206809,1.21328753492736,1.2352376660809,1.26526336862692,1.29851212431195,1.35872380924414,1.36806602024333,1.56480999876588,1.35035239615859,1.35206271912279,1.34953469820789,1.36506319982573,1.39169794847378,1.49198472564049,1.51796098761876,1.61361219924171,1.60450779952417,1.73754999876588,1.68857999938294,1.44819926061709,1.459256482747,1.41189557707011,1.41551563784067,1.41746689986795,1.41724772560935,1.4275957907162,1.43609928704139,1.47879946458562,1.315954727197,1.29665846281227,1.28241213911175,1.28150025071065,1.29285087931675,1.36427980423577,1.38491762967253,1.63780172328684,1.65163827486198,1.31892838068932,1.26389408275035,1.27448505480912,1.31590136456878,1.29221244304732,1.33353185873849,1.38291569890453,1.47843925535383,1.57882999876588,1.29212056794839,1.28453350930711,1.32867362932296,1.32768657842485,1.34812731829603,1.36107048395146,1.3911765356531,1.25091955875098,1.28883378182476
0.881940078367518,0.879493678061526,0.89351462018686,0.963289342134804,0.944415534527114,0.9164988386329,0.918305874956268,0.919292703958159,0.982461362093154,0.987835958144229,1.00258687325879,1.02987473981515,1.0715897126364,1.09268776206568,1.03482473657115,0.960591273186303,0.96602774146302,0.98798845200392,1.02615109020774,1.03817614001828,1.06228457807877,1.06346603048365,1.04862693449895,1.04498973282134,1.04245667685704,1.02918501788024,1.03814118349507,1.04281607466491,1.06400264896542,1.0662416577829,1.09322571614993,1.09997514192456,1.14660752952734,1.24425174007994,1.26493578359597,1.29160397180947,1.09126706695785,1.03747875808181,1.01256264802701,0.989639404955312,0.989441125652081,1.00012874170262,1.0078168787373,1.01802202645359,0.993242100509428,0.992483020166593,0.981340203213985,0.982630018445992,0.983994271864494,1.02601664232178,1.0554335665985,1.06898599805164,1.14326221680181,1.16924433787153,1.05200330814934,0.980141329088956,0.95631898572849,0.956485436888192,0.992724675723351,1.03912764836801,1.07111999494421,1.08458519405068,1.12211247407917,1.02919247245199,1.02696445375556,1.0282971368987,1.02935208224515,1.07772739018552,1.10129447741204,1.17564293074517,1.19570840690597,1.27778579919355,1.32575422736841,1.3264682214142,1.05391063374532,1.05097658622142,1.05641852316088,0.995493816675026,0.993140223954097,1.00058535265486,1.03367420890975,1.03433894701071,1.03437070374348,1.04900412965929,1.05116383117433,1.04898457908642,1.0469928839048,1.05193993358746,1.08720554844348,1.13585211292912,1.16346318709524,1.16545299794272,1.1541217680295,1.1467277293722,1.13683812390483,1.10909125765435,1.1094099858544,1.10921576379321,1.14311565741305,1.18914646287124,1.23699968086603,1.33793052101064,1.34467309089136,1.21359107536199,1.18565570189957,1.16337043603974,1.1835865548274,1.20806042903669,1.24172950338308,1.34446136099988,1.34798082410612,1.38094518790402,1.27194194162743,1.20572246990103,1.19585851640831,1.18726097278161,1.20810526806682,1.21789984757824,1.23832614835203,1.24797575878655,1.24775426324478,1.23360808259478,1.23612435100434,1.23581495160496,1.27898766286884,1.32049130330263,1.35266152166624,1.39285203353542,1.41238903948325,1.35373028036011,1.35644357549601,1.36041951476117,1.36315077816438,1.3694133813489,1.50329363555347,1.50695900134421,1.53168469319494,1.52993869169166,1.5286004724887,1.52743440687234,1.44235121531786,1.43672134265946,1.41291541487457,1.41345334278954,1.403347563696,1.39479276894828,1.38931777884478,1.37867174160465,1.36676034496892,1.29842400034945,1.28935531479058,1.28301545806724,1.28268091452577,1.28900506692738,1.36268723843943,1.40157047142195,1.59064877922507,1.59781837127376,1.29730066742637,1.2713936455966,1.27319785170806,1.28286256997996,1.28589537293025,1.31303741676199,1.34664111401383,1.45891077201132,1.48405839803177,1.2884067052629,1.28592720996061,1.28752993269063,1.29023170703908,1.2959461988822,1.29655443131581,1.29838352783078,1.29293079849892,1.29153127196954
0.871179094429138,0.868620549275152,0.910078868909622,0.997826631810018,0.917394643132757,0.913636514359025,0.8840596910166,0.872045388628225,0.98364538169968,1.00144978208016,1.00973440131151,1.02760608538561,1.12654459818033,1.12680133502973,1.12786464966794,0.956664548688458,0.97591899760409,0.990375947737593,1.0067958608067,1.0089321267384,1.06201437044367,1.10521957061223,1.14778007613351,1.27899999876588,1.03371999310677,1.0076750407324,1.07701725170275,1.05104478723824,1.06102177465932,1.06826846147239,1.08941308254383,1.09904689161481,1.07418986709633,1.21281969450929,1.29674208959227,1.33208714402356,1.33118925597191,1.03190814319398,0.988908161539285,0.966862517634013,0.987436587339951,1.06711275490215,1.16424165889107,1.17809838251543,0.989926008539732,0.992437120134928,0.943849195704805,0.983632816988122,0.987799499320092,1.03817990728102,1.04492849233011,1.06952686816955,1.13496352362036,1.23190001845416,1.07387015359292,0.980745014856248,0.955393908936076,0.955889728541503,1.01377288006602,1.05744593507529,1.06815487188567,1.09195500985963,1.34722999876588,1.03951533693479,1.02448898862877,1.0275186537661,1.02852886255089,1.09249042034238,1.10481438091265,1.15739868270277,1.1965936312808,1.31871322601918,1.39180114954599,1.41078462404164,1.03998650673415,1.04165743149705,1.06157895192019,0.997846447287294,0.991552339675058,1.00836817132099,1.0344448924995,1.03546314394498,1.03464217091412,1.35238999876588,1.08299955383026,1.08486031505741,1.04503592065421,1.04549049071453,1.08754188498079,1.14430961817707,1.16566676724063,1.16936543632567,1.37858999876588,1.18173002552715,1.14331601027748,1.10875169204971,1.07790895100308,1.10934826578872,1.1610492877259,1.23302976251123,1.25942798206174,1.3137719034456,1.42297999876588,1.23987012648847,1.22006112758061,1.1178997104623,1.2154606544432,1.22649615668058,1.25650436145334,1.34343813836112,1.34409942666701,1.51670999876588,1.23763516021176,1.18867859868011,1.18389985725304,1.18285897072423,1.20674540951453,1.22638511726303,1.26095236928124,1.25278727207685,1.24704906409169,1.23120930749809,1.23844498811514,1.2358241679019,1.29618163982918,1.3572385016268,1.34589220872323,1.52969999876588,1.44493024616446,1.32949087306797,1.35886836853408,1.36491286906441,1.32225909310944,1.36147635255973,1.51682420883734,1.48188224945417,1.53261824168308,1.5292036731179,1.52743123901428,1.52567707744306,1.43808471536305,1.37079965325627,1.41135538516735,1.41335321849106,1.39257309961896,1.3931662857821,1.38504282366002,1.36363198828292,1.34317997661839,1.27202651770018,1.26375522310543,1.2481836301042,1.26509992618042,1.27246388274893,1.361290644061,1.41632769047315,1.57766020981431,1.6026338701363,1.28185473468882,1.23081934929255,1.26185340208001,1.26067135197197,1.25995087746323,1.27015661601542,1.29237852514319,1.44204307847144,1.57747999876588,1.24013616476187,1.24001384198088,1.28513323578914,1.28975401552631,1.29935480161824,1.29669651371741,1.30151223320203,1.31525209155365,1.33010964511307
0.88500688504276,0.885527689607305,0.920017772972677,0.952626015316439,0.915638377399586,0.914829829196859,0.883521983529652,0.876985436173178,0.974873178374636,0.978774911284851,1.01246213603138,1.04216251670562,1.07634702630006,1.09694234755354,1.06910535930481,1.01877915191875,1.01282894482146,1.00457790065193,1.00470342515991,1.01187909331494,1.06280900213584,1.1048645677988,1.11210681215927,1.11870497550746,1.1105209131887,1.09642434296467,1.07939739661389,1.05422891588327,1.05849365005401,1.07380711267693,1.08585313459052,1.08755295118022,1.09664113145876,1.25652735102529,1.31164846762912,1.33164085383412,1.33130263182273,1.07444803562281,0.989397219156569,0.986348039733458,0.986493803353815,1.06253877060782,1.10066236638551,1.12249053715947,0.998764811522331,0.996468837409827,0.985410156110429,0.98498465638288,0.990465911426255,1.03181885751088,1.03592247496624,1.04916900871275,1.0948248799523,1.13895083675563,1.10734867671747,1.00520322463583,0.978138472460067,0.971260335956208,0.992699563214015,1.03370575824646,1.0654058363719,1.0751252201933,1.11756070789221,1.0430055714387,1.04396364268282,1.04546967248634,1.04589765243259,1.06683369870675,1.10404360918951,1.18066007647906,1.19991445084355,1.31658334696098,1.39217236275962,1.40661590358667,1.07208247876844,1.07065670653079,1.06265494934594,1.01429900131772,1.0186343360009,1.02191309660228,1.04003841690002,1.04759179645484,1.09198296726051,1.13758186449764,1.0898289328045,1.06408572646733,1.05320334934597,1.05063899062484,1.10357708567457,1.15952205118023,1.17911062601035,1.21204634549364,1.24166550820381,1.21180970196237,1.13771297854865,1.11417672840445,1.11926468473076,1.12271237663417,1.17069233383374,1.25328540579132,1.27181480025878,1.33558792849966,1.34613802529154,1.27570267804243,1.20044603473463,1.18762107275221,1.19816251283535,1.24381069342539,1.2655721541533,1.33843066012162,1.34062001837018,1.37964914158713,1.22771808861969,1.19428436431301,1.19478558247453,1.19532867268014,1.20687882240851,1.22640451263963,1.25746494636868,1.25487208110443,1.25008875497344,1.23884052850375,1.23721871717198,1.24567579404701,1.2966801865161,1.31543323459508,1.32958680807529,1.33552316013657,1.34769680225978,1.3437558848045,1.36099379887412,1.36408415012287,1.36349705780712,1.3624724828745,1.43628988095708,1.48298923093224,1.53278003850289,1.53025334350337,1.52901920228473,1.48705220533786,1.43398309049462,1.43250424905203,1.42551795050805,1.41622172891876,1.39019357330102,1.38780189988642,1.38147253652194,1.37262167566582,1.3262036100631,1.26411784589679,1.26286845107188,1.25952743242851,1.26297370344564,1.26581744544815,1.31600609174469,1.34403627456157,1.33008965948347,1.31599331935544,1.30068887298701,1.26425255613485,1.26264341425392,1.26168043300363,1.27824441939024,1.27960609830548,1.28133893295587,1.27541630929617,1.27167741131244,1.26952013655418,1.25868241617062,1.27299197410999,1.28120612371944,1.28757744758013,1.29445729411424,1.31461672793961,1.31681325007585,1.33250746103434
0.884780572695406,0.885591755901018,0.940302733714779,1.01339006201289,0.914505131110282,0.924608667561948,0.881790990421678,0.872009073362854,0.960127757763492,0.958567168881268,1.01359710361306,1.06764263189425,1.03637334432382,1.19200011482159,1.02044374017136,1.03000932268446,1.01707443303677,1.00445439935534,1.00342802774998,1.01429683393553,1.06372082203382,1.1053818824255,1.02360000123412,1.13473743800924,1.13776561837058,1.15183290689025,1.15273508883298,1.03573765550253,1.05763177310232,1.08083375345615,1.0811585398262,1.0806013659771,1.12057805622495,1.33881013923269,1.35048990082754,1.41559999907441,1.41447999907441,1.31091999938294,0.990366516586165,0.98155888393785,0.987913123473982,1.05476486297191,1.0703612906948,1.17602019012039,0.999264867992959,1.13800999876588,0.98497560267452,0.963612769271618,0.991601357142726,1.02657964968929,1.03010221367162,1.03191257801261,1.00069695802682,1.18746992609886,1.22959007723971,1.02591720801534,0.991860117157409,0.957068367176175,0.983927125568634,1.0116157792462,1.06276742971866,1.06669111394057,1.22548999876588,1.04273947735338,1.04331609571938,1.05663198882212,1.04474176306499,1.04121705358094,1.10416034386674,1.21259142972579,1.20492526966665,1.31465722601911,1.39502665041372,1.40900901073985,1.08108882610537,1.07956900990203,1.0654557073318,1.00937056862264,1.01992962909095,1.02384042003433,1.05284212558757,1.06546568710002,1.13325042956406,1.48001999876588,1.0974657058187,1.05460283700754,1.05478700831763,1.04799168014513,1.11831260275656,1.17393075051465,1.19045123567524,1.26472528489091,1.2651452175493,1.44359999876588,1.13268413909664,1.09032783896356,1.1238656621432,1.13366919986076,1.18224601300984,1.29869563041268,1.28291650267888,1.36592523462512,1.36927095046844,1.37149951491179,1.18804683566742,1.17214584941329,1.1292094755748,1.27201776099876,1.26869763959657,1.33316639935235,1.3379370202599,1.54139999876588,1.21976048761764,1.19449266590065,1.19597416012276,1.19255051419589,1.20634847142524,1.22632696859088,1.27368000499984,1.26940922218305,1.25495512599146,1.24130041111287,1.23492668873637,1.25444742305999,1.29760401853345,1.29504893638461,1.29620366781869,1.31327349576925,1.35085288482825,1.33919637891681,1.36360180764035,1.37621769037138,1.3667580758569,1.35128462145383,1.38780359832906,1.48317010034785,1.53520777279366,1.63260999938294,1.70056999876588,1.37774988322689,1.43245475401459,1.66062999876588,1.4751301043051,1.42032340298381,1.36778251647472,1.38480682646093,1.35835522239112,1.48819999876588,1.29869955384907,1.23828405882484,1.24344060097685,1.22529438654216,1.24639827647758,1.24670398772744,1.28146960778527,1.37241735533957,1.24981666761266,1.24832333427933,1.61998999876588,1.26630904522477,1.26290464297898,1.26191369790244,1.29964839689636,1.30853736319914,1.30938175570477,1.26120674857458,1.2677925825733,1.63448999876588,1.23419233715081,1.2615064511441,1.26322162228433,1.26258275768543,1.29183053701127,1.34519996772949,1.48843009420592,1.54121292239271
0.909652031207828,0.911430957790962,0.913545503755174,0.915159522011206,0.915524617819763,0.916092546218364,0.917032168417806,0.917908316954769,0.951385328639883,0.961464204591851,1.01634460530843,1.04212217678162,1.09040074279348,1.13516939684392,1.10900303651992,1.08283659979959,1.05586269281882,1.01039816687859,1.01835171786955,1.02303916051359,1.06408998790308,1.1029794288514,1.11672579960557,1.13826924492684,1.14089891041209,1.14606827625361,1.10217775464111,1.05950868871935,1.06662363230727,1.07293033249464,1.0808143966855,1.08004396559989,1.0950216384158,1.28305341215687,1.28057030889575,1.27692708588715,1.27217443151214,1.05763057893504,0.993840456201506,0.992438066050734,0.991906747060938,1.03621783585251,1.0828010286253,1.116072978799,1.06861046682858,1.03666185327483,0.976177481931468,0.968085690492434,0.981926470730261,1.01322619425224,1.01626869621763,1.02300543591037,1.04294761185201,1.09228333143854,1.0593957012596,1.023751577265,0.976259945344661,0.976093530383895,0.98003124864871,1.01890993671568,1.05972956079292,1.06121890097593,1.14803204164763,1.11589816388254,1.0643227713706,1.05087235628409,1.04443412062624,1.04264495978736,1.08379123296577,1.15883125280046,1.18080683025732,1.2058868404984,1.23264571265159,1.2618098998897,1.09026023096539,1.08413353371075,1.0626617504314,1.0314127415619,1.03071534674442,1.0328557971496,1.06497693550144,1.07457616716518,1.10852083617613,1.18084549078627,1.14919566962488,1.12164646555398,1.10967353557683,1.10915555279151,1.12884349308306,1.15782359880406,1.20076592579266,1.23912173860643,1.2994494938079,1.33038169066947,1.14124826457365,1.12481319737496,1.1238713956576,1.16525195687968,1.21384329125265,1.27200911775514,1.27583566056065,1.35287154674733,1.35953116184654,1.28566406301316,1.19904726643419,1.1578063072476,1.14778445635771,1.22704847074934,1.2314571517712,1.23456599275493,1.23445615726129,1.23371223939244,1.22879054619747,1.19416534887179,1.19428323501754,1.19403090110509,1.21874086303214,1.24904916729774,1.27340951046034,1.27213515217675,1.25928252989586,1.24423571491484,1.2403863469576,1.25730523458917,1.27609853276598,1.31683058790265,1.32759889627389,1.33682430581932,1.35089105464498,1.34964632977088,1.36596530147952,1.3795634314345,1.38457832316291,1.38956099422511,1.39569102723054,1.40211258794362,1.40042053286393,1.40057530983249,1.39845326337468,1.39888112987418,1.40217129044191,1.40486929578308,1.40449509583944,1.39323569916674,1.37357959930602,1.37781008578053,1.35178031942798,1.34294650888773,1.33435260059225,1.24375255635328,1.24554934799559,1.24771735102126,1.24815156732177,1.24831775058515,1.30043191948947,1.32382558326808,1.34313334074241,1.36530826561637,1.39201981656173,1.27433366855283,1.2612909171495,1.26103854789658,1.27627519708143,1.28449131619457,1.29314852968382,1.31818170225383,1.346459992586,1.37643856462915,1.28672850440912,1.26626570487707,1.26529354061241,1.26511777506516,1.29147040973044,1.36165779267705,1.44645499266559,1.53257365871158
