1.24664201447922,1.23247777011316,1.23370563908836,1.25536687622841,1.273626407523,1.31886980591411,1.38549718666483,1.41476620664231,1.43041814311988,1.15074582103517,1.15164553065004,1.14093405370891,1.15782494048077,1.15703718568409,1.26486225877553,1.34372662965888,1.49750003137751,1.32880507359777,1.14654424477023,1.09944661235111,1.14476301147338,1.1439567848571,1.19170599894743,1.20442396888679,1.16450995235242,1.2774317598874,1.24712012436642,1.24766344416146,1.20764534091914,1.20411301191408,1.2074247998386,1.23949248445691,1.24521527006332,1.25483029964978,1.26887728333999,1.40581002551482,1.24997997192827,1.30497684889336,1.26022998774385,1.20954045581782,1.19631830045696,1.22634624021015,1.22567426168749,1.25405144956137,1.27721409372587,1.49507003137751,1.40305338465808,1.40451249340459,1.40570909816645,1.19665659698012,1.13887998120927,1.18418193706395,1.20191287811478,1.20668246421469,1.23622862349183,1.29863490270932,1.17990487783165,1.20903429771963,1.21689697788042,1.22294167541075,1.29320002267731,1.34341002373548,1.31902406716894,1.17148779122243,1.16192092009815,1.19600625611249,1.20994839860491,1.21929031682479,1.24702412794582,1.20150596400024,1.2235109747816,1.41252001568875,1.28170806125676,1.20299359862868,1.16546859968184,1.1900999634923,1.22014983222328,1.24631779844277,1.2670106026589,1.34138241797241,1.4660300135297,1.53077003137751,1.27771743620559,1.25406414416129,1.23247475595864,1.21620415358871,1.30021291112462,1.28961752025337,1.28868481598036,1.40159323237844,1.58780003137751,1.46671167451104,1.32954301268854,1.24396339050353,1.24667033950599,1.24613413767526,1.33180891925696,1.3360614159568,1.37822032350258,1.38165960050433,1.38358162613538,1.72627003137751,1.35782550106763,1.27740302855291,1.29968989446973,1.27173558382104,1.3675804287203,1.36937825242603,1.44862652774155,1.56800003137751,1.31265894756011,1.28386441599091,1.29371646976925,1.29345497665382,1.36317671862035,1.42699502667334,1.69931003137751,1.44183513000887,1.32685771711741,1.26939423278231,1.2703961982525,1.33157272183687,1.34187872824238,1.37909806382384,1.47724791441173,1.46660301689358,1.56599058881014,1.57358415102116,1.57687281721007,1.55358001623076,1.31702921603632,1.35173795839651,1.3725381245025,1.37674167183123,1.41229783530144,1.63494952441758,1.73037003137751,1.70124348164721,1.72099003137751,1.39315032122501,1.41761983366698,1.43807417932406,1.44803942972321,1.48499555634206,1.57851003339584,1.43998391894939,1.4402816790153,1.45441586472558,1.45088757687514,1.47864931544671,1.5227338018507,1.57873002380073,1.51669036895078,1.45388706079104,1.42846285457463,1.42961128651457,1.44908887481124,1.46897453961494,1.48036465119764,1.52631408068278,1.58174456053152,1.8627700180902,1.79666195579201,1.83817001666486,1.42761999433628,1.38118710245724,1.36388260376242,1.37148847483078,1.36813904352722,1.39607795072577,1.43310724544845,1.61357595143078,1.67133288839496,1.93063003137751,1.86577001568875,1.55785561775215
1.18590920794131,1.18525528828859,1.20538573103135,1.20620746620091,1.27373590105666,1.27444354132287,1.38297718572442,1.41030830169377,1.45809001204359,1.15359053346915,1.12270595032637,1.14038866413704,1.16314292088288,1.18917899133501,1.2506880987641,1.33312929570189,1.37090429866217,1.32829171256694,1.16364396235508,1.1259573286105,1.14185641845687,1.16492044235956,1.20339918518978,1.24475999305245,1.24422478125935,1.19156997413463,1.51725003137751,1.27724695244709,1.22659758793812,1.22730374387801,1.19180975041806,1.22650586565684,1.24446744507107,1.28931287749079,1.29194046293167,1.27112590004051,1.66577003137751,1.59522005258011,1.66317728406543,1.26481031288098,1.22670023543498,1.22328301528286,1.22538261534179,1.23436867864939,1.25781697028726,1.3501820509456,1.41522153690452,1.43438604165148,1.58290003137751,1.19487948774824,1.19305612995669,1.16919689480431,1.20338853473014,1.21496390509086,1.25753906631631,1.28804513835808,1.20482599362125,1.20312624477227,1.19693452454563,1.19690420173619,1.19943553666399,1.20021701272631,1.32120288366006,1.39472001568875,1.16204123716634,1.19742128069983,1.21885283539187,1.21888250390962,1.2194978102564,1.21951975542275,1.35679001568875,1.53365003137751,1.27208436881009,1.24477962450679,1.23707329974726,1.19528962065282,1.24032241786181,1.256071457397,1.26514304449459,1.24986158593992,1.23921031050909,1.21997751798105,1.25833457342686,1.19809997790574,1.25040459544494,1.2302012685297,1.27398147533907,1.28390456088398,1.27473975136377,1.38134902399668,1.38035565845308,1.46343834117771,1.32061496385514,1.26987030406185,1.26367944956099,1.30201000767115,1.31562073415402,1.3437154744719,1.36783988120139,1.46387339716174,1.38864387237305,1.38802563057572,1.34359909284171,1.29010201082807,1.2808437048904,1.30846107350255,1.35353777922922,1.36938816073352,1.44159350349854,1.25346763628565,1.27525491592992,1.29814624716847,1.29481050978239,1.28900474384076,1.30806998225,1.43414498583904,1.51488308726352,1.51315174711856,1.5110510899636,1.28193095104294,1.30525455566901,1.30607457192425,1.34678748918333,1.37436188964622,1.43004999811398,1.46024873446405,1.66520330126541,1.69430099329855,1.78530003027937,1.38846997479226,1.35512153601267,1.33880478214259,1.37475568137047,1.37521674478414,1.43242998354551,1.63612421430548,1.6752100133953,1.47382018761784,1.39134763752707,1.38109715352835,1.39096860186088,1.42363826782886,1.44794429030103,1.50498777515178,1.4937867452559,1.47856042577105,1.45383455438461,1.45270535611285,1.45235788988268,1.48221758911738,1.50552823866139,1.52419728507829,1.52044096584658,1.44452537636197,1.41104718799052,1.3988495385328,1.46861660358455,1.46948443105076,1.46952732556301,1.52469666030629,1.60036064064104,1.90247002897607,1.79640732770979,1.8837100304014,1.40185999179728,1.3706673048024,1.38204746310008,1.37579379307991,1.35878556034252,1.42462832968488,1.46810999819575,1.67445275656199,1.71092431894319,1.87518001568875,1.77754,1.55047837756394
1.15424439857771,1.20267202097723,1.2045748912213,1.21491712041179,1.25499034362594,1.2670295641947,1.40319135599614,1.40741885010637,1.50584001568875,1.55225045873999,1.1926448684544,1.16318176882231,1.16517459367639,1.20618950222384,1.2416665501523,1.29202287462412,1.36752573223022,1.32721526063378,1.13643477855124,1.13686165106104,1.19773702354916,1.2154399426758,1.21957929511136,1.25288602061714,1.29527160973597,1.30226060550212,1.34253,1.30413298959686,1.21305351613992,1.20288920007104,1.24192035809827,1.24280201305394,1.24378372045977,1.26541057030962,1.2757431615359,1.37855131141502,1.56034910230324,1.57726152067205,1.67998276300084,1.23073307481522,1.23563342761202,1.22423649930594,1.2238011568854,1.23694104735022,1.24627173197053,1.36190015579896,1.47623844598173,1.4751263816473,1.51606001568875,1.202765532641,1.20447194270332,1.16861729497993,1.20597601336144,1.25762725708993,1.2585461695604,1.18742724961216,1.14982998041942,1.20270944200155,1.20168105822626,1.24773700224074,1.26433233347915,1.31299999693739,1.33051952615837,1.43385001568875,1.18847998788174,1.22650846525826,1.21599811431593,1.22642241587617,1.23045266645141,1.23536778751446,1.23630426501346,1.35156001568875,1.26351801235342,1.20065668382098,1.22125952408811,1.21275045799503,1.20097302593462,1.26372418801898,1.26974168393898,1.34471003491285,1.42375500003572,1.54077001568875,1.28261933528081,1.25371812751109,1.2360537476693,1.26896234370055,1.25731282538144,1.28715132772803,1.32204283081598,1.40277273683865,1.50301210151296,1.6862420554567,1.31243992125657,1.24511734468227,1.25275612001722,1.25127103497918,1.35093384543805,1.35339039818576,1.38481349145259,1.46516673018984,1.41174829244813,1.71980615959606,1.33169344926877,1.24779274148189,1.25617217089111,1.27006746565736,1.30860921216264,1.36788129104296,1.37810275002539,1.34550001298147,1.27362334020138,1.30782163983938,1.30528742961024,1.3157834636511,1.37554856416005,1.38103745230404,1.5502480487982,1.54137857341152,1.70704003137751,1.30297784524006,1.31911863144268,1.35534273603544,1.35742034507476,1.3670883208401,1.41055955623542,1.59496001568875,1.70287090426682,1.69984786246172,1.74026001678689,1.42405002636642,1.36136069920057,1.33901790354066,1.37618292577662,1.38887325977847,1.44775345871635,1.5342,1.65086001777114,1.44001710580783,1.36998868520173,1.3810335763337,1.41680342319659,1.45117293971773,1.44806758973463,1.48781275411199,1.48062430296158,1.43005963333768,1.44704471964134,1.44940977509994,1.44458140817434,1.55019485661698,1.5473342728606,1.56246999692091,1.58045697363405,1.73076001568875,1.44197764550537,1.44175609655513,1.47130366751412,1.46969390336203,1.50221315983734,1.52582673165888,1.57777989624676,1.42361996859398,1.49282278953301,1.44064356616284,1.44569725342534,1.38609087166793,1.34522975841206,1.38848724010166,1.39891176417501,1.43636159914522,1.53400001568875,1.86182002765022,1.71513258777567,1.6762422985029,1.67490891599467,1.56181196896813
1.1642947952033,1.16460780836778,1.198653291773,1.21180944678338,1.2495788503121,1.28157774424319,1.39253766806821,1.39946316885006,1.44797,1.55890958832628,1.17793512481563,1.14934720898723,1.16925644447124,1.20566014953753,1.23370769637738,1.2921495268585,1.32175986205737,1.32461768555078,1.16480267629988,1.14678948733128,1.21328121491455,1.21402879182464,1.22306672374288,1.23973357397672,1.29311871599839,1.41286222244295,1.39169800826347,1.33104859742344,1.24101999332219,1.20549627452076,1.22404188661136,1.26002613348043,1.24484297571333,1.24668470492822,1.28874662873905,1.36369947007667,1.54743617033159,1.56609850523734,1.61229001568875,1.30710555903441,1.30258444216608,1.19470522859259,1.2103457962083,1.20954351783475,1.26834678348978,1.34570184832583,1.47770065411154,1.47464517721163,1.21505466679748,1.22866051083418,1.22560498558312,1.19759544673799,1.20906646370449,1.21203001062972,1.25815055461154,1.20957633093317,1.19474964031771,1.20470014746254,1.20408912449649,1.23928506648321,1.27246366876123,1.33725129795003,1.34168604951995,1.50123003137751,1.22636275731828,1.21623468765376,1.27143393320862,1.25148164251733,1.28841894444867,1.30445824290498,1.25523664414156,1.25279007371143,1.25815848367533,1.25134057777523,1.24008103780209,1.2393866173093,1.25742388920412,1.2719594717866,1.29171999505654,1.31101996396498,1.41957499996428,1.65951003137751,1.30777253013434,1.25390481179606,1.22250658275625,1.2387393246967,1.26494810337781,1.29010790875367,1.33391042074228,1.38896934306547,1.4843279141758,1.68119799160957,1.30394081528352,1.28218959971874,1.27903644903114,1.29858648456748,1.31452729950207,1.35656897033683,1.37672785155238,1.43401811948498,1.42253347613077,1.71774614605487,1.32022643397782,1.25518246869005,1.26436737573762,1.29257383695738,1.34012970869428,1.3649236954416,1.37834940396396,1.30284209157259,1.27626069650029,1.28229016407753,1.30099511422403,1.31975604803543,1.36384040082071,1.39717260589794,1.48563758330922,1.53350276828285,1.63378,1.33390234643691,1.31407185389651,1.34440223227394,1.36072148080843,1.37604408259047,1.40511906727268,1.35315997832581,1.37837997890444,1.44238323364773,1.39571998473807,1.37790807443619,1.37255318590917,1.37824788493779,1.37739290253712,1.39761200218354,1.42287472946661,1.49104001136797,1.3608081284903,1.37184296672797,1.36406259319113,1.38454809134728,1.3979988819866,1.42899714857145,1.44544911278061,1.4439167766017,1.46201310074769,1.44236282053224,1.45698795450585,1.45356122999723,1.47716385145695,1.49778920411895,1.54497073171926,1.59608850246736,1.60049314969522,1.79536001568875,1.8862700302989,1.43955185621768,1.46595638980349,1.4673047058557,1.50451172108699,1.5015417720117,1.63453975839855,1.8822466901998,1.87043341804179,1.86841162327231,1.44277951199667,1.41830348833701,1.38590287734319,1.38989785158039,1.41736814951644,1.45960919306759,1.45845237071582,1.81643736887532,1.81109179068391,1.81239734523826,1.91351002947344,1.67819
1.12196916833519,1.16645229839885,1.19640430119544,1.21458923493325,1.23264725935736,1.25814758892783,1.34478969054554,1.36805631602772,1.26695997178007,1.32007999684481,1.24016001368986,1.17985298779789,1.18302797736029,1.20544504696037,1.22559481137033,1.2786464259473,1.28166009371608,1.32422565137515,1.38293001787337,1.21375290964645,1.19885359610589,1.22464865405974,1.22663467638109,1.23089563221455,1.28207120951496,1.32255999985888,1.37522884355382,1.39780923302204,1.42244001052729,1.22715960751202,1.20198372726226,1.22706503409486,1.23981722946714,1.23789105577631,1.27979863558894,1.35519921881613,1.52289483982205,1.51853336886736,1.41180070799798,1.40561927591495,1.37080001568875,1.20294299770184,1.21172199136262,1.26348479169436,1.27096425091415,1.34366595907858,1.22083996862206,1.49734788116262,1.56872334139124,1.28501000000246,1.21740001044297,1.2182405560651,1.22410245116426,1.22966782647449,1.26108481840215,1.18480355212761,1.18493842966125,1.20767401005346,1.22904457390745,1.24882974307512,1.25801399337627,1.30942605380225,1.35173094539484,1.39974,1.24504341114274,1.22062102002338,1.20273007911526,1.24153166993505,1.22577703315013,1.30092496948372,1.32414001456609,1.24085944438622,1.27189210992646,1.51038003137751,1.26532793204309,1.24074708378752,1.24651931827202,1.2796010375455,1.32543952492877,1.36420027975354,1.56936003137751,1.47981998431125,1.33291247748615,1.2819530134006,1.23688850136799,1.25355462931884,1.25801534625679,1.29367922859771,1.31212692717269,1.36510216974098,1.45593001569427,1.28558760033678,1.29679772008044,1.29234760971011,1.29546741711446,1.28375107366233,1.33731370235941,1.36197199702618,1.36957000875179,1.46552964238158,1.46712987331015,1.70350775710408,1.30601222453491,1.25359956715747,1.25661076932423,1.24006033955109,1.28799202632933,1.36135733904255,1.35948689123747,1.2841978654397,1.24753813733002,1.28396230420213,1.29597867783717,1.3387529402119,1.38778421261115,1.46424218373765,1.48795092566023,1.52532077639038,1.71251001568875,1.35961115102423,1.36288970265199,1.34389957742436,1.36703135983984,1.36751215527545,1.41850182823374,1.46863980026772,1.5868285467849,1.47376442744866,1.60662003137751,1.34355464664775,1.3524740206784,1.37928219740634,1.37711689459978,1.43354548228209,1.43349503470424,1.46604334163529,1.39918013092359,1.3845473881732,1.38638607142463,1.38600957501927,1.43768387630419,1.42654399312654,1.45198325871389,1.50556426357436,1.4517570532905,1.46191278734007,1.44246973431178,1.44514786893787,1.46174055125585,1.49148163497481,1.54657014801731,1.59792776973516,1.60420774074895,1.65982727064977,1.84115001676737,1.45332979680431,1.43784562347939,1.46607302326554,1.46153473279491,1.51898424587786,1.64321200600332,1.88079335686647,1.86292852168722,1.8452781868773,1.41418070858434,1.40381475635117,1.38331431384279,1.39375696507441,1.42374840243069,1.44750007308321,1.53386,1.83300434195097,1.82678051078326,1.90396002391995,1.83805999506883,1.83837999515839
1.14738768950353,1.16426366949848,1.19370780834709,1.2055236772695,1.22512209084291,1.3017743000899,1.36906967782384,1.37855784042979,1.51097615127824,1.51161983667437,1.18414998789933,1.1579356097114,1.1840431581131,1.18623939859648,1.26036012789417,1.27227107087891,1.34466632731743,1.33812196240018,1.41828230059551,1.20861909658767,1.22877486608954,1.23823590692449,1.23555571787594,1.23257389099405,1.26166786555255,1.28239763783095,1.50454175689063,1.50227964839243,1.5917816901998,1.22557264123012,1.23948358122225,1.22487140832842,1.24265000295233,1.27431244435193,1.27664117862257,1.41220500784438,1.53457205746661,1.51715166254035,1.44778998505039,1.5440800195782,1.30330998431125,1.21577908189569,1.21402263330697,1.27116419309984,1.29713061020387,1.29397061712033,1.40163000001553,1.5021865255112,1.56529667460415,1.67102003137751,1.19326575653477,1.20781042487647,1.22606618795724,1.2511933946026,1.25283926628418,1.22669166595053,1.1924707813867,1.21037535740331,1.22649453115507,1.23607306498945,1.2996257279563,1.32562114427482,1.35996192358769,1.54173003137751,1.2048092091523,1.21784798568763,1.21398951023655,1.24458281010975,1.26252020039347,1.28686790623745,1.34804001247646,1.54203003137751,1.28061682853212,1.29273968043134,1.26321664599834,1.26311107651806,1.27208569609565,1.28719451407685,1.33908058171666,1.33524657979079,1.4861,1.65786963923575,1.36231854525531,1.28923756699869,1.27195506431914,1.27106174295349,1.28511084022645,1.29817423883003,1.34067903622286,1.36698883046966,1.42127001595299,1.30651664030931,1.31766670732272,1.32324976473165,1.32289387154004,1.34830598231909,1.31367509868732,1.36762472014873,1.40282865159782,1.47443035787335,1.50613637034731,1.49981364133149,1.29285179553786,1.25377184432066,1.27603322608043,1.25175645021304,1.2726579544376,1.36024615586515,1.3749233524147,1.3124109762532,1.26275515643613,1.27119812600392,1.29186916782641,1.30526125008818,1.37692969486265,1.44579783163973,1.51262148848089,1.51805320759338,1.92370003137751,1.76724119241795,1.35872259930269,1.37527902950663,1.3749052584336,1.37462136156332,1.42130955000022,1.49282021085717,1.59983986871425,1.44499440790922,1.31926820057027,1.31919492802672,1.35514269065603,1.37111016439908,1.37417628328151,1.40033148227871,1.43159347972431,1.46785667496365,1.38429153929706,1.38417778299355,1.3845365483059,1.41846182698251,1.42009909032165,1.45445946113237,1.45606952668683,1.49858577314469,1.40580989232468,1.40540310871386,1.43369573426649,1.44066458174088,1.44619199295503,1.46739914592948,1.5100845255757,1.55805998954435,1.60791269329461,1.6931427436273,1.44282990702641,1.44182994542369,1.47213872816223,1.46901976099787,1.47487735187444,1.51866377962625,1.65493825128688,1.79339904673689,1.82044994828728,1.87169029448979,1.45860999940708,1.42302073607765,1.37990295253144,1.4014915838198,1.40929501789301,1.45556841437972,1.59307,1.8091643374971,1.82535448859131,1.84859560343527,2.02220973741656,2.01339031403077
1.16217210683895,1.13559928621661,1.18453913140262,1.18524889442341,1.23857672617815,1.29441421230579,1.42562176446282,1.39843728585356,1.503275952814,1.50427893541936,1.23187000732164,1.18503829972087,1.18584738926706,1.2063491851465,1.23473533566417,1.23415499279816,1.32225455251682,1.3328216508989,1.40013774218246,1.23415368753501,1.22533658868501,1.23981701227536,1.24124129651712,1.2688651855025,1.30258153350967,1.28400379405187,1.50241744445263,1.50157032485785,1.58890835686647,1.25960408435195,1.24694466554175,1.24983292016377,1.24619629660113,1.30499170102812,1.26657725292348,1.41326500784438,1.51086184635576,1.51790594316276,1.55362827930792,1.57334176341242,1.49329001568875,1.20771460656455,1.21651857980442,1.23425447497326,1.23042054092755,1.215138584012,1.53013716759434,1.54820454275776,1.62605092918801,1.20544221719614,1.22577241163586,1.23003860376034,1.23241118492386,1.27771758847085,1.26813617039365,1.22321833257316,1.18266385027929,1.21192472143596,1.21917569553247,1.21911119330958,1.30557638474312,1.33918151460838,1.36548945130675,1.46208978376788,1.54486603343394,1.244367719097,1.24505338314557,1.24679879933324,1.26550247847974,1.26071081061197,1.26830636868207,1.27300778685312,1.27759480248309,1.26597944821016,1.26499282947395,1.28377610686802,1.29578683941909,1.29661918311649,1.31045979517887,1.33628210833413,1.43177209956461,1.67076040783051,1.65098392385663,1.66950003137751,1.29853651274016,1.29975538031236,1.30203187595346,1.30451754094233,1.34023236111157,1.35106787824427,1.30858996159354,1.56700001568875,1.33780762400966,1.35120978157125,1.31272018129816,1.3134422542583,1.3802764004363,1.3769785141273,1.41542134810172,1.47287012681709,1.67392198011349,1.28924772463257,1.28619407386443,1.2670547318715,1.245539821357,1.26530981665756,1.33653762711238,1.36055503903066,1.36009531304345,1.30205110803177,1.30257765830859,1.27195289354921,1.28929366865163,1.28793267341995,1.38118706942917,1.39695310818077,1.47189346261559,1.51272919392531,1.76504919241795,1.76347654566547,1.35008865190054,1.34373508201975,1.37288415215741,1.39396469377805,1.45214001507262,1.46320000097607,1.62060164725587,1.41443371640189,1.37853000737389,1.32432442864084,1.35603953819371,1.35673912349766,1.37102391542913,1.38176424355002,1.39890998678665,1.53348668239114,1.45538500689161,1.39625605325283,1.39337173391512,1.41587127505099,1.42763026313401,1.46993347941637,1.46176314161154,1.42071002914449,1.3995369008202,1.46791001850138,1.42194008892283,1.43552525392145,1.46382108865416,1.50939915659941,1.51965632734616,1.62231334065509,1.61380673178096,1.64730701287434,1.44338753032717,1.41198665528227,1.44771573449887,1.45368812839599,1.45271249428148,1.52708911490544,1.59160400465547,1.61676585943603,1.64518654841795,1.51692105936276,1.51389892498179,1.44935999604521,1.42460998951198,1.45173221571651,1.49060349129738,1.62892499913529,1.72679001102069,1.80177345153486,1.8259943552249,1.8431054227137,1.98728192675706,2.04832120940682
1.2148900218385,1.14993195685403,1.18284465048976,1.19626543042076,1.23632295978245,1.29524150175574,1.32940999993527,1.3631803086349,1.48536960179631,1.48576960046149,1.18907998823786,1.15983686169392,1.1890185876531,1.2166869663491,1.23837864993102,1.25343057140225,1.27383752133637,1.31068558160615,1.37056001792703,1.19995425331835,1.19985426178979,1.26525667857625,1.24402895780561,1.24307539583786,1.27905984107642,1.40716001568875,1.26865997103342,1.32546423035196,1.29753999850908,1.23595713433761,1.23586029054229,1.22791062219878,1.24282629920608,1.25739342647078,1.28472203412883,1.31256998108974,1.48242668840435,1.4825466066725,1.48185868345651,1.53689001771031,1.24945999845088,1.22235940552789,1.21936784495851,1.23761990107428,1.26643139630425,1.22933083773351,1.61259002964841,1.58774098406899,1.61105605207427,1.50264001568875,1.19262930638366,1.23343128396863,1.23583643017635,1.24789831174303,1.31398003242989,1.25301452488687,1.21870854341643,1.21268762113382,1.19974520259522,1.23356156216182,1.28479062678757,1.37931668400611,1.38158163857017,1.4747201974837,1.53388401363232,1.25982578581675,1.25046289251056,1.25117690126744,1.26527316799936,1.29557024901849,1.28454533211122,1.50316250049327,1.32361334068388,1.29289105927008,1.28629606520172,1.29135033139376,1.26967416861282,1.29933269322913,1.34101853223088,1.34284629948062,1.41312788474664,1.6036285542121,1.62510953337292,1.60176200569165,1.25912807698368,1.29082587722789,1.27877964439852,1.31111658908919,1.32299042943606,1.36818273917078,1.44746,1.66131002151931,1.3295079802296,1.30742890165855,1.28524350905307,1.30667953816439,1.36343986149853,1.37206661466579,1.44704001001786,1.66294117243213,1.6650969102094,1.27970947437722,1.28417266197994,1.24745155997528,1.2580727505996,1.2777285749011,1.36388310153948,1.36216207035268,1.4439366574643,1.44989558394644,1.31635027676532,1.27380493516008,1.30182527042056,1.31374109785413,1.34030886311187,1.38975497557003,1.46939049416417,1.5098258577836,1.57231998550533,1.77297310087613,1.41346001175647,1.36880720230285,1.37053319526313,1.37267584733151,1.41813891265459,1.43153983679187,1.4221512672905,1.38634490464398,1.33444876760999,1.34401141275076,1.34697687652567,1.36845361407837,1.36807028370082,1.36546066013234,1.48302220259725,1.53299334898637,1.45692500688992,1.39768322877021,1.39903776296852,1.41357116752598,1.47397964241651,1.47723795356352,1.50045740714808,1.51964002040055,1.4330708427373,1.40286837323243,1.43811603495764,1.43657542324031,1.43316501412177,1.48191149794501,1.46054961140265,1.57286935604365,1.60094419709148,1.67159301873735,1.43858684927407,1.41037332194709,1.44726309398366,1.45440073145988,1.48177495596738,1.53461510945247,1.5998327320723,1.65459282210623,1.67009025959583,1.7917900143856,1.91673003137751,1.47468999752762,1.42352998940847,1.4652102543788,1.47663826230397,1.62722499908412,1.69295016853373,1.75423263219117,1.80099311045322,1.84494189346811,1.99911420425778,2.01877881382311
1.13400805692712,1.15153154432824,1.18048634586875,1.17295367501587,1.21427484146041,1.20698495071707,1.20773845216815,1.21522434394139,1.20552297617942,1.20561631356066,1.2392672669812,1.19554085216045,1.19168858647477,1.18000595659906,1.21936952659411,1.23947277283422,1.28591356886003,1.28371129484298,1.28467940097165,1.25405735157361,1.24506005929785,1.24446331225172,1.24527713768464,1.27390177980285,1.27167986404301,1.44103001232475,1.53370003137751,1.34808775951471,1.25777001795024,1.24610160279798,1.22626225941166,1.21570541047745,1.24050420432451,1.24242813947473,1.27061596976829,1.3643400311717,1.29884128225364,1.29946140254842,1.29662126542763,1.21872162284592,1.20742411284859,1.18504716384455,1.21542763937647,1.22016556566491,1.25652274605314,1.34832944399231,1.46726686675937,1.58864547530801,1.6148030811861,1.23017968057763,1.1987287799874,1.24023649289124,1.24038573430336,1.25407235022586,1.27878331285722,1.26071850387248,1.21583567650702,1.21395150781992,1.21358114440472,1.24033626993568,1.29203581550143,1.3811053492923,1.38243814589778,1.51995003443718,1.25358810328889,1.27761230388072,1.24733417882665,1.25204647885955,1.26707814619935,1.26342210266201,1.29112282906704,1.48717754657299,1.33913013294206,1.26542573814295,1.28740862933818,1.27371325904569,1.27248123135753,1.30168710699572,1.35053610956007,1.41751867495453,1.63563845610506,1.61882480983285,1.6424627059716,1.70055003137751,1.30436716465568,1.27161640830847,1.2865254900145,1.31792010281766,1.32491152999508,1.32226277668816,1.51614001568875,1.68696002554696,1.32833475219742,1.32603934967279,1.30368866112726,1.31699794579473,1.32948189311517,1.36703827275349,1.39745000596709,1.26289941645454,1.2638194233426,1.29501109632021,1.28674177042783,1.24978225780434,1.26616562564943,1.28115476170571,1.31487692946038,1.36262793070396,1.37544254693562,1.43434782099903,1.3378102361116,1.32727300046231,1.33095996864857,1.33444448034424,1.35477521187926,1.41012312450407,1.47902932592052,1.50790265692935,1.63348001449467,1.83117003137751,1.37157737738721,1.34755226808369,1.35336780270901,1.30608998158452,1.30676998159079,1.33419199709664,1.3256679788338,1.35211848415032,1.33327157899478,1.38404741022755,1.35787840744498,1.38466036614538,1.39592728677327,1.42851971735046,1.46394930223143,1.62032003137751,1.396754254071,1.39771959602205,1.37470762534998,1.42520348929122,1.4606909688745,1.53356144212909,1.53327078972443,1.64123003137751,1.45776977314122,1.49839023767931,1.41216799004167,1.42416117191063,1.48166127455637,1.45953560024745,1.4955360072862,1.61044276879505,1.5957027792979,1.55880938062109,1.67917003137751,1.45749874791538,1.42690778354569,1.45472445886284,1.46058329168338,1.48542998791489,1.59291702255159,1.60233235442311,1.67933086239521,1.74941053081316,1.81212001568875,1.56833000251952,1.53296785514136,1.56514786332415,1.6445726898913,1.65280870306128,1.67714801055665,1.76657710808807,1.80007338645014,1.83235370608287,1.98958385706293,2.11368003137751
1.14443053764661,1.15735895797912,1.18962097031904,1.19181517623972,1.2171712886582,1.21734196581827,1.21742908828217,1.21780217271005,1.22210462135192,1.22734617503983,1.23314340744874,1.23147219518976,1.21102288760818,1.20031877569817,1.20605480489298,1.23642236289342,1.2785029936011,1.280668494839,1.28243476134269,1.26659164400008,1.2450551885195,1.24457586953792,1.24675953357357,1.26699845320561,1.28027518780322,1.42882576227133,1.43327382166001,1.37362777980083,1.31984698478957,1.25267131568652,1.23424197228491,1.23187325464921,1.23722707439074,1.25104761862569,1.28208430088322,1.30431339106327,1.29881921756306,1.29941565720203,1.29922575467198,1.27356596683224,1.21370995912572,1.2072878093153,1.21077448936694,1.21917262833317,1.23993472317546,1.34934500190423,1.49644900335356,1.58959631327289,1.58999444794724,1.2263533475903,1.22293397403705,1.2254277163548,1.24152001854608,1.26178677063461,1.26950656409088,1.26433661011063,1.24199409947557,1.23524370876635,1.22591460376898,1.23665062825592,1.29248826822934,1.33014400783759,1.34115085950463,1.34086257791941,1.26586024380161,1.26892560014923,1.25358780965908,1.25488943512687,1.26637293980462,1.27755805394602,1.29311123420766,1.37612865299937,1.36035721982069,1.32993613443004,1.28992875938955,1.27249024659741,1.27213627095048,1.3037326476787,1.34319138184829,1.41679761473745,1.63238449315316,1.65146182479202,1.66588364492883,1.68926907057737,1.28965564370876,1.28191873937295,1.28899423289437,1.32351743654587,1.32311345829556,1.32167638652431,1.33967800346131,1.33011564792428,1.31877167493415,1.31653316345804,1.31084119903875,1.3207589289015,1.32220090407597,1.36295678027519,1.37594878257702,1.34750312179475,1.32449835611602,1.29293645709889,1.28881151763813,1.2768307550978,1.28401944946255,1.28681869834491,1.33289256725,1.36337573457658,1.3624744507169,1.35896306181456,1.35172573299537,1.34357885350412,1.34161499868463,1.33900134005759,1.35987669187723,1.41166283145823,1.48330578614746,1.50195228591938,1.51667192929544,1.43710684965955,1.36553702655761,1.36030838173539,1.36258492122904,1.36538672466559,1.36946665590258,1.37305425006384,1.37565215543635,1.37746732064285,1.37912064062833,1.38189604785114,1.38839821156296,1.40007242807567,1.40724091534546,1.4264179917388,1.45572345591052,1.4336945462885,1.3994027741617,1.40345291405755,1.41519479163298,1.42349231431304,1.45862621503507,1.53158145620853,1.5333200060826,1.56205365823648,1.49710885235636,1.45521072988258,1.41344913555111,1.41876980813001,1.45654030324704,1.48787238853895,1.49632200378364,1.575787307769,1.58605986052763,1.57047509651666,1.56440229890451,1.46015991956029,1.45330696906693,1.45503336447506,1.457312154701,1.49561385895125,1.59626733039291,1.60120679677327,1.68487181674591,1.76880721539228,1.77918990486556,1.63147221540181,1.63564803892002,1.63969342384801,1.64266584913556,1.65958359522811,1.67891484185769,1.7608542535053,1.79823971874485,1.82954952773634,1.86249021504415,1.87540850974809
1.13671895189889,1.16426943907833,1.19147239269229,1.19466748176321,1.26226000620634,1.28531622693822,1.31983238957777,1.32465671093071,1.33141217572929,1.49090852245434,1.50042742449303,1.5001341001189,1.2152899667285,1.16178997976412,1.1992002277455,1.23364087912901,1.27709109206809,1.2783779546674,1.2983542712998,1.28833779705997,1.23503206061365,1.24389199294564,1.24837192449613,1.25755104043644,1.29566261552317,1.42386469313106,1.43975091281285,1.41849467800013,1.41353547244983,1.2571757750939,1.23551738748009,1.22951443517656,1.23347731830126,1.26607985267273,1.2894204615926,1.31453390766514,1.22407996862047,1.35583370691084,1.57530002697473,1.54380002009153,1.23167236868644,1.20215162635731,1.2081530001956,1.21563691361636,1.22933900297337,1.35028144288816,1.63376003137751,1.58982357992404,1.61850003137751,1.21409345185672,1.21716049970224,1.21964523563041,1.24416229512302,1.28109469892222,1.30829424782235,1.26813645639539,1.25126407779091,1.24451866232116,1.21376649316129,1.23291558259983,1.29287449965311,1.310169119726,1.34091599668294,1.34030048315263,1.26117556173559,1.27154741596009,1.25269872748569,1.25958415048501,1.26392410565769,1.29770916288554,1.29727775346275,1.4186700178976,1.37647831391038,1.41802002658502,1.29228110631893,1.27168538508381,1.2727963237987,1.3063501286314,1.33494408119548,1.4160943814822,1.63322279943536,1.69240003137751,1.67486059085259,1.7035928577749,1.27336020134716,1.27401294500768,1.30266672640826,1.32853058261725,1.33384417254528,1.32065430259768,1.36000254676419,1.30575086913546,1.29117737716102,1.28820503049494,1.27501069804215,1.36056006029625,1.3107382995731,1.35977593747503,1.38207028551281,1.46719844055747,1.56225003137751,1.28969262937665,1.2899693121214,1.26390954581239,1.29125580118129,1.30293335452798,1.34307104327279,1.36446640262201,1.36419187964316,1.35340319218708,1.37078200756574,1.34843773471546,1.34330506243779,1.32775474522586,1.3711367599424,1.41322115417088,1.48589236821964,1.49384244243112,1.56409002517593,1.37686147514366,1.35080404066241,1.35938082125706,1.36194454709719,1.36400988836503,1.42142645912855,1.47653001568875,1.37536901467349,1.37912195430805,1.37848410212022,1.3803460974087,1.44995004427195,1.40950856951749,1.41520721408576,1.42406566171057,1.47830003766261,1.42307878196397,1.39695270567313,1.40729736711261,1.42708952082493,1.42161270835477,1.45628676595245,1.52851480533452,1.53560276622759,1.59080667234884,1.80458632631343,1.40290689808356,1.40398628414223,1.41556202549875,1.43130788042118,1.50140669503062,1.49711448979981,1.55288612824188,1.59660102207774,1.65159001568875,1.5505076437605,1.46594929763483,1.45147674862252,1.45503828839759,1.45521315244627,1.5093834388023,1.59774251718379,1.59875151460313,1.68840099099005,1.78501000572867,1.81399973655876,1.61491491333116,1.64784247538738,1.64654387725796,1.64448098500799,1.67254724625678,1.67888377623185,1.73626379389806,1.79763280133208,1.81750147006452,1.83947710411815,1.97612460553959
1.13577507888106,1.15268478477323,1.19659935460306,1.21040282937153,1.29804626477101,1.26773736024508,1.32334407390888,1.34259890702498,1.48909028603367,1.32269996862249,1.60039003137751,1.21956132836617,1.21764674814649,1.24426257677506,1.18606800982305,1.23159310093487,1.27517632361596,1.27701902606922,1.26742296428744,1.25514627946287,1.2282413680977,1.22824952683782,1.25055143026828,1.26566156820714,1.32601170265575,1.35850748138786,1.43011881237079,1.42307103140319,1.41528772400352,1.25683093806032,1.20098090320314,1.21628217258687,1.23065974629104,1.23814213791903,1.21199718311817,1.34718001462508,1.54812820349681,1.48449494284684,1.4225549840966,1.42541498416827,1.21305242549628,1.1954788972796,1.19686000527562,1.2010428057771,1.26726001421323,1.32041000291063,1.42115160203017,1.42616589537786,1.43152737841475,1.1845294609691,1.2165394326724,1.20479492873662,1.24789164486258,1.2531300915002,1.31956832250008,1.26594999006711,1.28406974574685,1.25486751681366,1.23369536563405,1.25772391738612,1.2986678548946,1.33452935255064,1.34534477958742,1.50342003029157,1.45833001677469,1.28574790964959,1.30944216586116,1.25951312203186,1.25521188782873,1.28042991950158,1.32748014360493,1.39207001739753,1.35468186018097,1.29538965764668,1.27051581568795,1.27946338634901,1.31356548425721,1.3116241274045,1.35586038527549,1.40372849769907,1.53894,1.62190288622161,1.65022451233664,1.69449718929136,1.2706199235966,1.27160686751579,1.32363000518492,1.33645488797122,1.40156005876404,1.32259986048053,1.44372001568875,1.28459195272562,1.28579949862684,1.28496304999268,1.26126623136653,1.3006220611577,1.33432200159758,1.35722934306065,1.402036283218,1.48666445654896,1.28036996862249,1.56504003137751,1.30275735979608,1.26417667742876,1.30616017286334,1.33359850077549,1.36790955031075,1.3703301710604,1.39536539350288,1.36008409952889,1.81385003137751,1.40680589452808,1.39639094055415,1.39550523126587,1.36892299008403,1.41292614664404,1.45657056707163,1.47698370027506,1.50608000946916,1.3612560784867,1.35349539523819,1.38128120072673,1.38224560429928,1.4101215298158,1.41241390304003,1.52542196275923,1.38526893556701,1.38013234522416,1.38228938773582,1.40746338238683,1.38600135218426,1.41637629231336,1.43015380314339,1.46482142943902,1.49680001058884,1.37781859223972,1.37816790004673,1.41027048404558,1.41238311618944,1.46584767348525,1.44121772005974,1.54062272506229,1.53762995154029,1.5931933390276,1.81476372075283,1.4082292408079,1.41426643155675,1.41367506383735,1.41327073836752,1.47178478689663,1.51586325508109,1.61543829114434,1.6136584790352,1.78165003137751,1.58067999690065,1.4962336072669,1.47144149014264,1.46529559011339,1.45898231565647,1.49916681161334,1.65394001930501,1.67624962911911,1.69094337250296,1.89306003137751,1.82442490697322,1.67490999679859,1.64851990781433,1.64703512788976,1.64673665645071,1.64989008741351,1.710418319177,1.74645918407974,1.79646122307793,1.87737001568875,1.96607835173701,1.98320710159244
1.18537873188931,1.21710102828398,1.19826412109298,1.19881215249182,1.27810514999762,1.26656363186728,1.37579982499638,1.3695505609545,1.47819974534383,1.53868001568875,1.34155531285052,1.33979467146073,1.21864769584429,1.21970116335795,1.22883514777755,1.23812483561931,1.29886583417332,1.31243783726192,1.33764895333165,1.27509210682144,1.23123272508867,1.25620967937049,1.25368368241427,1.25416378360865,1.3184134676901,1.38339383497987,1.39570000065593,1.43321315121911,1.60720236875249,1.58729767176788,1.20836238715176,1.22000178838262,1.22773184078995,1.23601111459645,1.25660252663035,1.31578765239292,1.56362366405746,1.55141993048832,1.63577802304227,1.62410201384182,1.20641555524164,1.16733947860531,1.19413520632809,1.19188045223319,1.21173866431055,1.26836766589082,1.36060000046483,1.39259959198512,1.69860003137751,1.22666918984401,1.22838461853914,1.26659786796181,1.27151801312916,1.29226893353301,1.29212866619669,1.28215721857025,1.28290983827216,1.26558893555763,1.23061235208321,1.2230019094509,1.34135978681301,1.3584652021553,1.36133831872819,1.38145999540298,1.26670996862249,1.48206335686647,1.25928953081807,1.26060642673297,1.26233092399438,1.26296883217028,1.27017132854834,1.32803743770123,1.33039214059375,1.31265147686916,1.30003713781679,1.31070639685251,1.29644355903476,1.31339057836743,1.38429693140838,1.38200359480834,1.50348,1.66208001340934,1.42232467086599,1.34028000003491,1.31415479791679,1.30124647991629,1.34758228337972,1.35056004190855,1.35349427758242,1.44514000990491,1.66815003137751,1.26757710990089,1.27173301684909,1.24841194271852,1.25147692647287,1.28974960010639,1.29913001553963,1.35519752415288,1.41246536476901,1.46144614734177,1.4628333319528,1.31973960496918,1.30828051303617,1.2964696931118,1.31981145221212,1.34402149344215,1.37458977658832,1.3726851790404,1.34368907426486,1.60268001568875,1.75467115641092,1.39591294966487,1.39612832012197,1.4376421216855,1.41069697022748,1.41230334903533,1.4432597554872,1.45816979583255,1.45678850520943,1.34805610250851,1.34877838444811,1.32608640825113,1.38214963559186,1.39333698049576,1.42472036024065,1.506288084451,1.35720069740411,1.36330684264038,1.35810795183496,1.39485402949715,1.36458513937944,1.42418005351306,1.4421426923672,1.46214116135288,1.54112004970118,1.37891456479781,1.37765859226233,1.416050590689,1.45396000978188,1.46580760836703,1.48927023447481,1.53278654657549,1.53531405770918,1.52470761614213,1.71661,1.45072326439151,1.41853562528138,1.41453468588155,1.41291510284833,1.490008452578,1.47228673220363,1.54119999359757,1.61131990435666,1.68863000463524,1.734210024574,1.47062347802412,1.47124237743347,1.47171067583432,1.47134315294048,1.55947022240086,1.59442495661949,1.68986805348857,1.6902004199639,1.73077733950361,1.83145538211686,1.89699002847965,1.69247,1.68508566348667,1.70574004022969,1.64158479507684,1.71470123526325,1.72455736883084,1.79056749570626,1.81738337258217,1.92712768211998,1.94513233745475
1.24102035834171,1.19865303254234,1.19907532952003,1.22648394705625,1.24931411757245,1.29200411372717,1.29177003107641,1.36608586679737,1.36303103549378,1.64146003137751,1.39702998431125,1.58970003137751,1.21916013013973,1.18819665236302,1.2283599758745,1.26458255511721,1.31163585893899,1.32165219909494,1.34742106622661,1.21531323606064,1.21413325551448,1.24908426683346,1.25361738782331,1.28806332393505,1.32041175826124,1.37264870404641,1.25810996861924,1.43835535111901,1.56479998440533,1.62014947799056,1.30431,1.2217704002268,1.22469180883773,1.206638153528,1.22817904929548,1.33569234731544,1.49376997163942,1.54971626632589,1.59936353817182,1.58960430025939,1.2168087976121,1.21853223044385,1.21581100336074,1.21320007914334,1.21157540027476,1.28836476334405,1.24273994286696,1.35905911545293,1.31013998458643,1.27025002697959,1.22727718987067,1.27903535318578,1.28130679845772,1.29953456580076,1.33277000762443,1.42669003335423,1.27909979081331,1.27488209086191,1.2703139753649,1.26883971448931,1.27772366301683,1.27821700028093,1.3628464502427,1.49015003137751,1.36393998431125,1.4840766901998,1.29202743906244,1.2908087798458,1.28998744505718,1.26010596331645,1.25650617977107,1.5416379476555,1.33281185901889,1.2713519048634,1.27168448319098,1.28566506981571,1.28727798240162,1.31740314624625,1.35596193735462,1.35931744198021,1.46386,1.71589003137751,1.39454899914165,1.2842092682956,1.28428927696737,1.32345961496861,1.35839582451974,1.36454325874137,1.38939719295006,1.4202800069154,1.31892008110666,1.31253381373631,1.29842627079289,1.2535278235836,1.28213238042197,1.27630133668523,1.34877032933343,1.35302969476374,1.39471836322355,1.55022001568875,1.46299765678165,1.33721989161762,1.34755726463747,1.35394682625397,1.35711602357512,1.39184920899729,1.4080100120163,1.42787114925774,1.53518379689858,1.54425045383559,1.75535572997447,1.75422316068088,1.38593629475562,1.37891966937301,1.40960885561092,1.41492817596134,1.4583168832472,1.45899377382946,1.51689967368048,1.32413518071002,1.3431963500139,1.3787878590352,1.38085284853544,1.34265699558438,1.44907651168352,1.44725609417251,1.41374133708086,1.39666485030528,1.38217170385733,1.37503584779108,1.41638710521676,1.42624662501734,1.45419444528197,1.47053508093693,1.50732998098475,1.40870490167516,1.42219831976662,1.42154369094962,1.42054313365264,1.45486706934916,1.49181832080868,1.56631800337723,1.57647556757893,1.62499130181963,1.82332886834328,1.42508016276012,1.41972274298573,1.4241714496458,1.42694341118511,1.4685206011868,1.47789650774057,1.515919990084,1.60509695817603,1.6021711773153,1.6784446655045,1.67374530116694,1.48168183102866,1.48843246472906,1.50324121388301,1.55848392383928,1.60573003661788,1.63389836362889,1.68937084237748,1.75556785288181,1.73474374187847,1.85704001524201,1.75326,1.6677160712129,1.63746952858324,1.64451146302925,1.69703853264658,1.74067749015864,1.78170982323384,1.81093661172908,1.88254197900508,1.863558002377
1.21077600729532,1.17254469330224,1.20055943064131,1.19886786777732,1.25991587931041,1.28868962538852,1.3813389643756,1.37943251188274,1.28594843218927,1.28989794617213,1.63710003137751,1.41399737970427,1.2205288830203,1.19034331903824,1.23253414155836,1.24654033413045,1.31018626806728,1.33108601638632,1.43129002853913,1.25858276031324,1.24209903461842,1.25271997893031,1.25336587669071,1.26874914093451,1.32484309144503,1.25681997294222,1.3900599997881,1.44602585450022,1.60311992056929,1.62286283389078,1.59460001712877,1.20074682592184,1.22724004051079,1.28987001574579,1.321070023637,1.23759997192678,1.53345961581511,1.54473379969379,1.6124172831204,1.60629050381524,1.25257253010678,1.27534467719738,1.23416977580261,1.22956183235295,1.2602830022768,1.29553834183819,1.64749003137751,1.39174427126815,1.65043003137751,1.26941058962982,1.25143587818529,1.26811459002964,1.28232564780017,1.2812199467018,1.28371651817015,1.36334203563364,1.31905859373598,1.27802890147706,1.27733001669578,1.25648494960939,1.32356000791581,1.36757065226342,1.36329364360363,1.35901904931116,1.67737003137751,1.36023832454878,1.36067165816552,1.29818965468869,1.31401532859757,1.30468223336139,1.3052838578708,1.53407208736312,1.33579356293725,1.31890203468321,1.273919921625,1.31954342694752,1.3040551739394,1.32133539718086,1.32443411197295,1.38753295572047,1.38446196757293,1.38719669456084,1.37541743848933,1.34319260049223,1.32286651682602,1.33214663294578,1.34915303040689,1.37404044934463,1.38297330027899,1.44299000199056,1.47796001408682,1.31297735783633,1.31282832187386,1.31309387104365,1.25489403908467,1.28658191474502,1.34672601731092,1.35010132863597,1.29792997031567,1.61006001695454,1.48161910064274,1.73766003137751,1.37481278080863,1.35200978977053,1.35763267824747,1.40315206407766,1.44439751417905,1.44209854490464,1.52919857758848,1.5129189430727,1.39767999582073,1.41056075010613,1.38112892672169,1.33699885004236,1.36597050797724,1.43612289209184,1.46033902592636,1.45994504955683,1.50465036866192,1.35048555810548,1.34002571336835,1.33154222096158,1.38102968846587,1.4044568711426,1.42703464888611,1.46170112075846,1.41868118281489,1.4065935801279,1.40168152946068,1.3786390853377,1.42709038232603,1.44099189399346,1.46542427407768,1.4840412725436,1.60105003137751,1.40740564492793,1.3948029597203,1.42215660041729,1.42279439048636,1.45752734705578,1.49286571968554,1.59585393869965,1.59656798765349,1.59595299470844,1.84475117577142,1.8047784952498,1.43494712188409,1.43146940559652,1.42736905255186,1.48936541603839,1.5116200014484,1.58703371311995,1.6061931473163,1.6128951750467,1.70463099537507,1.7576500174935,1.54361219731806,1.53489979005841,1.52654406329424,1.54602585035427,1.61336795213391,1.65790869741801,1.68896825940805,1.75251969661929,1.8351703418141,1.82049844991153,1.84184125868524,1.65060815790952,1.6308419099991,1.64338457340106,1.66509999408903,1.77395036435522,1.77488851986439,1.87767001568875,1.91024001861791,1.99171335686647
1.23301364417294,1.17348469012563,1.20357659626992,1.20470275475953,1.22663989214606,1.26760543065033,1.39353942503053,1.37977428183904,1.46691005840329,1.28791598683341,1.27046755636475,1.43843263598449,1.22243016715919,1.22447443995548,1.21345533956157,1.24586712022904,1.30219785441605,1.34044138506457,1.38183770325851,1.18952088231271,1.22949510118097,1.20699571051298,1.25284081446082,1.2779169335982,1.26882688209799,1.42296001094912,1.5412500311967,1.45763158793046,1.41496364450372,1.6094178353162,1.46091999808568,1.24340706791343,1.241539686035,1.24954611092915,1.23662875994394,1.3128896329165,1.44213000000749,1.4867087668887,1.71711003137751,1.60351440050408,1.25431310625703,1.24440977837591,1.23854858976528,1.20162758001438,1.24089429109505,1.26660925762219,1.33794398471752,1.33824778511605,1.33874285881219,1.2518307167804,1.26691790384902,1.25422827268453,1.28276429220675,1.28511214901287,1.28389708203069,1.34843975842636,1.32938408237474,1.28569200824152,1.24722762230648,1.3189234679225,1.27819399605612,1.34808062712853,1.36673576930788,1.39035002169664,1.41271999535243,1.39553003247216,1.30064233767052,1.2904748790364,1.28122567280418,1.30523570150943,1.33964241702846,1.5656300277364,1.33965934171559,1.31980525697512,1.30213540866896,1.32628266356262,1.31521394132057,1.32575290225891,1.36105036300308,1.40967212747468,1.44922001467821,1.35504571709061,1.35886881976761,1.30142797218126,1.32508676011505,1.37152625841014,1.38518853897616,1.39534099151197,1.41623334696181,1.50665071332737,1.49482123549542,1.35861999710077,1.3346945374351,1.28842722454643,1.2740004018536,1.28515810117266,1.40524500253476,1.40552740798736,1.40546109995701,1.63790001442297,1.50380088186337,1.39539605574963,1.39467451010555,1.40188648921157,1.35686733527651,1.4053761945965,1.41672100581817,1.43991785614908,1.49180493707031,1.49767332476498,1.4029492458775,1.34758105983327,1.35237918088952,1.33427886328955,1.35319068765144,1.38771375624264,1.36566621177864,1.42848595339289,1.38769998813867,1.35107843843105,1.37580208075681,1.36708684319928,1.38087457318186,1.4082640443085,1.44849499591464,1.59143811879515,1.61067192827112,1.4212177760551,1.41455471629735,1.4357039836601,1.46088856874946,1.44785531785451,1.47509460070445,1.49611818014022,1.52920697716885,1.46757050174392,1.42330501989498,1.42329511360439,1.42489179985285,1.47382464077624,1.48738893345981,1.59874127884964,1.59769392514159,1.61731522263317,1.78028971003926,1.80697182682555,1.49985099001511,1.47931874057959,1.48629146484338,1.4646864690417,1.4780886144239,1.56591798659803,1.60588390549391,1.60255102973103,1.67981786375444,1.79606002410351,1.60271999716889,1.58137077378064,1.56305627649418,1.60329034603905,1.6062363557505,1.66537369751925,1.69069130927549,1.75075136665359,1.66575027170272,1.66455141846195,1.66555827965176,1.63058034512367,1.59919400059335,1.62463053606289,1.7103500125293,1.74502013278548,1.77155549412798,1.81031,1.84825,1.9938066901998
1.18203694453111,1.21584319971109,1.21033675732814,1.23719107942444,1.24013702991563,1.289911303255,1.37084437609408,1.37286429404425,1.41991995728546,1.56727001586316,1.60855234989135,1.20879768280269,1.21202267078566,1.2081030051987,1.23810077503413,1.31615069230011,1.36216984178097,1.35663446521415,1.40746371774212,1.18856755818101,1.23171558792897,1.23039907398284,1.25276341252013,1.25326767904254,1.3155390134738,1.38923999940655,1.48970036462944,1.4711198526753,1.42334583024872,1.42447463224431,1.42603583899702,1.21496419917365,1.23922739163151,1.2398527210346,1.27804283227448,1.34187606976161,1.24829996861767,1.47426726848902,1.46141259777138,1.53703,1.47807000429555,1.26420547786109,1.24615051758493,1.24802210552827,1.23112948691393,1.31300265099493,1.33744622822139,1.3378769312625,1.3158556425958,1.38535001862122,1.29827703483401,1.28927050933824,1.28628660105651,1.29951755436491,1.31407683050397,1.35111940626889,1.34019465319545,1.29395762139665,1.2796490607551,1.29064928819979,1.28848192834846,1.36394733784901,1.37356880666563,1.45532001280491,1.489380014922,1.32016998431125,1.27492728780933,1.27831774916071,1.33523495927607,1.33595550750383,1.31614717460059,1.35024357696277,1.34421702066518,1.30641497651748,1.32424927913905,1.30866372356311,1.32497596942433,1.32940642511864,1.36750515329716,1.40348579154614,1.53978002737012,1.36082101208664,1.3612290330673,1.36132795251665,1.35986113087011,1.36361758756573,1.43005663447184,1.39654703866801,1.39188098326573,1.49365808143097,1.53550844748872,1.51956159178952,1.36097696585658,1.3276387543858,1.29973056009231,1.29459137671901,1.37115823274626,1.41434774537556,1.48279901138006,1.6729474263945,1.70450002578721,1.38923597922651,1.39314965716553,1.3786701445523,1.38099753761526,1.3988336656679,1.41384767247835,1.43831690259603,1.46214997698719,1.53865122627809,1.37178874943962,1.37744173641434,1.35686611396271,1.35471584369037,1.43554260636951,1.44484752752217,1.49648032796902,1.48706046706542,1.51366889291812,1.52290115394474,1.36724297773933,1.35559914823794,1.38023362641177,1.37910965200354,1.44076742364381,1.50244536160326,1.44379329009079,1.43504740127673,1.40025855501772,1.40754276761841,1.43327955301658,1.4758099634173,1.47962280329673,1.48576725202976,1.52044303400756,1.46478031368996,1.40725691124967,1.43408091989909,1.45741129922878,1.48197170793251,1.46881381247515,1.53717146883936,1.59684509897366,1.62840771223904,1.7292145681542,1.78000001666431,1.46156713058998,1.47733702976982,1.47104189992107,1.4722055645341,1.49534291654161,1.54057225525138,1.60854005263743,1.62513509628043,1.68245119145765,1.74267763525852,1.82537599426091,1.58738301703229,1.57804106365209,1.58806242437155,1.60741079154289,1.69571509710691,1.69388507466778,1.69517090371102,1.72085730894313,1.71880398367374,1.61486232122567,1.60729903152423,1.59803741513022,1.55833035604893,1.56130830669705,1.55418128416482,1.60256993290936,1.55803998730228,1.48083998431125,1.43691500044028
1.33164998054784,1.19070699088387,1.19301526170933,1.19187959260477,1.23675209700688,1.28029097496805,1.36471309931606,1.36749298633444,1.47945083879054,1.45665832401659,1.59848754119018,1.21153590936931,1.21804564967604,1.226190617839,1.27226000826333,1.29882263495174,1.34390933281456,1.35508456785382,1.38784862191728,1.20826048587927,1.2190595144753,1.26463869614962,1.26684095550302,1.3141200167615,1.33734113900612,1.36564296854172,1.41971998420216,1.48126937498604,1.63817335067364,1.6402266839499,1.68234002813148,1.23577382292396,1.23536897054759,1.23091826875582,1.2607288018745,1.32685450391342,1.40619333073783,1.48217091577845,1.65930808593843,1.61325001568875,1.50877000957833,1.2404589056526,1.24331969828128,1.2099193313301,1.25294141796196,1.29259738621589,1.37480607045767,1.36656947712396,1.35815650190761,1.42182002714281,1.28371192340516,1.28180944051559,1.28270486372057,1.280690189389,1.31809073477409,1.36730153508005,1.30604308417931,1.3006625983525,1.26159754322262,1.29180574476644,1.29289235278055,1.31517998702732,1.38077112124369,1.42826999988611,1.66153001589053,1.71469003090462,1.26631954517763,1.27278086501014,1.28220643176734,1.29978112284803,1.35410809931143,1.3930800087731,1.36686229992871,1.32602232749477,1.29927802809427,1.29280643664575,1.34263433266152,1.33968905832553,1.36583521964119,1.41934125111547,1.50666001969614,1.364927088901,1.3637256705917,1.35345168467423,1.37620515539574,1.34291557613779,1.39961765901901,1.40455133546191,1.41545699741982,1.43889998458483,1.49204997388172,1.61401001568875,1.38358440121059,1.34310992528594,1.316377928877,1.33589061986437,1.3923311085577,1.42888380378456,1.47109098982184,1.66560261057331,1.41958003472145,1.40524480708126,1.40275321230946,1.4158754869467,1.42869100344612,1.3984926441749,1.4372772149738,1.43694622615531,1.49921001806041,1.51737881819085,1.38178127755459,1.37026435140954,1.36230349776391,1.37462344116278,1.42947622016195,1.44747414124757,1.45835977334125,1.47592911195957,1.43009998894911,1.38136590937536,1.36829732218081,1.36893399690664,1.3956216163595,1.41491785218271,1.40295310297507,1.50034535740522,1.45657686854358,1.44674494407917,1.42292918387772,1.45463792599656,1.43821020882613,1.49466310430707,1.49626789832852,1.49799079987521,1.58835001612495,1.45879220575564,1.41384814632989,1.44457924664777,1.44722327307413,1.46745318270706,1.45530599893753,1.5518461624737,1.59521976260873,1.60039907799546,1.73343457343192,1.48397769014314,1.48284395309672,1.4916854315056,1.50105584191988,1.5179310590567,1.51688089541341,1.53276773015069,1.60980547916507,1.62464703704501,1.62689862838782,1.75849235931142,1.80994174588029,1.59890871687562,1.59434931610101,1.5867395372777,1.63503027472127,1.6904163216805,1.69316405258841,1.75124065877023,1.84810001941791,1.88236002764835,1.59757874219134,1.59831800542243,1.60175370714888,1.60919269279207,1.66665361907393,1.69388076166924,1.6961016709205,1.71707,1.83995001568875,1.39602546220464
1.61560003137751,1.18489890460359,1.19389447171808,1.19753028750598,1.28592787235582,1.28651938384607,1.35316867403709,1.35867222889724,1.4967108409888,1.52245001189282,1.59317017149908,1.23633030661873,1.23250578529593,1.22560035794821,1.22462433838438,1.3096433780458,1.34848110453885,1.35112364590525,1.2620099851487,1.21846837851824,1.21629547417223,1.22457050597014,1.2683438067614,1.27846771827251,1.30880364599906,1.37323569205483,1.51110369235443,1.49013192187824,1.59076667327253,1.58040190517656,1.31336999886405,1.23362810464166,1.23479956559857,1.2155891731521,1.23935835525403,1.30197904328229,1.38483667280808,1.48725008562855,1.64761196112783,1.53213,1.46960000181487,1.24116023096855,1.24286149410042,1.24384429895077,1.27421996824206,1.28702998702554,1.42204002368375,1.37771702798019,1.39527253498685,1.32213580422099,1.27083633013017,1.27782003845914,1.29133602702321,1.29471480357189,1.33872977349345,1.30269456612507,1.33404300019756,1.30672508519531,1.29800444371938,1.27396135110739,1.30480097847311,1.37458911615311,1.387153860942,1.39102993991535,1.66265001595988,1.28746120017924,1.26821390854544,1.26794834021948,1.2627566701552,1.2703663054934,1.36481076792444,1.43245391421511,1.38058680351979,1.34631964522531,1.34022900527764,1.32844191431144,1.32542418020807,1.33596499572472,1.33301389030161,1.41946644051463,1.35366997218535,1.69209003137751,1.40864819415947,1.38481123662445,1.3824170926288,1.41420185462633,1.42764690033782,1.43012245123784,1.45844037646665,1.51474000339678,1.71952935119346,1.72344658092629,1.40364154503546,1.34290346823971,1.33709220620728,1.34739705255078,1.42724895960267,1.43235231346957,1.53396463591269,1.41868996890738,1.63364003137751,1.55318001568875,1.40246323354031,1.40090384919365,1.41072531611642,1.40904263356262,1.4290093708547,1.43504315714459,1.47269231715729,1.34990863321749,1.36282714485677,1.35044960321901,1.35611396391084,1.35236049349477,1.40945303655819,1.41936869648997,1.48417590911851,1.49880486790207,1.62621003137751,1.38062625408433,1.36795833570315,1.40067568103358,1.40561300904604,1.43730774721275,1.45067585379358,1.48180193865282,1.4525219404436,1.45633621291654,1.46151492088666,1.47620720420542,1.46765626958458,1.53062814269442,1.51722470096302,1.63940001568875,1.72726003137751,1.44140697538733,1.41879648051723,1.45513577809885,1.46555821427618,1.47359534369635,1.49848954329669,1.54307866012899,1.59280436887961,1.66506001568875,1.75595779390563,1.76300311281341,1.57409914721963,1.53494909094951,1.50733858551533,1.5134656235781,1.52480643696406,1.60692260907088,1.60912105232391,1.61904013783263,1.75933001568875,1.79548001314001,1.83354232037311,1.61760135453694,1.56596713747964,1.56637383738487,1.58154809858685,1.63706191890682,1.66743364635304,1.72835935691853,1.79195804884988,1.81919001085643,1.54375997406372,1.59351106886413,1.65259001801232,1.60448157794953,1.65760687603034,1.68103470676399,1.69757482414144,1.76890001568875,1.89048003137751,1.39505177219523
1.37794537949169,1.20979642329162,1.20911268775745,1.20923704662149,1.28801586414548,1.29145754608699,1.33550499410946,1.33550876421095,1.33389109548025,1.33077663417297,1.2968955657182,1.23819747398597,1.24061951497596,1.24084386646557,1.2409154135489,1.3243598535133,1.34857184460368,1.34949740889912,1.30850850897088,1.23420909485865,1.23809617298716,1.24922232497684,1.26940656366992,1.28445619288225,1.30753465722949,1.39119330088298,1.45932623688395,1.48288151430359,1.58412916332021,1.58072499763088,1.28312670271576,1.23397869645171,1.23449500212035,1.2346461799204,1.26307936084065,1.30901191845859,1.41795582327903,1.49276825993955,1.49458184625998,1.34197592804943,1.31075617068393,1.29918585566489,1.29995102674707,1.30095511052757,1.30127989130401,1.33181906716629,1.37129094718003,1.37125769130565,1.34909995382591,1.34249671520412,1.27334173456619,1.27598696215921,1.29574229818286,1.29763929545573,1.34040503705682,1.3402447245891,1.33805550008083,1.31229077794482,1.29843812043539,1.28436001548128,1.31435434003047,1.36926474103848,1.39310304484521,1.4133987717604,1.45507799657295,1.28134581973407,1.26943875089028,1.269800110027,1.27320998358826,1.29573978989349,1.38334670083943,1.40790583509358,1.38860547046815,1.37891343544663,1.33616850605576,1.3331596790354,1.33806906060495,1.3387707575444,1.35194473494301,1.41037451662955,1.43634960934795,1.4681972811926,1.42865774527325,1.3839602760801,1.38360773072298,1.41938099769774,1.42609665003794,1.43224825076228,1.46336094386537,1.54031187345925,1.72946201436574,1.73068590272597,1.42284830418067,1.38795302116111,1.39739304844985,1.40481640194601,1.4334393414544,1.43423828766246,1.53258673549982,1.53415038228389,1.53540621028671,1.46719052632983,1.40393746092152,1.40331009269242,1.40948363009911,1.40840204097933,1.43207335162126,1.43401884670191,1.46047163249705,1.41584406372038,1.36223649729536,1.36111315766741,1.35987525526305,1.36159255029741,1.40212802011006,1.42185446837318,1.50257646198475,1.51120839790964,1.53843840110947,1.39879341042079,1.39981584175444,1.40088725410203,1.41323553425032,1.43705130763569,1.450415450756,1.4658622756885,1.46113052512893,1.46734971561538,1.46972261304958,1.47805450179612,1.49874768658756,1.50281183971183,1.5067936371143,1.54865825238225,1.57673619698124,1.50212219956509,1.46344281887692,1.46709432737177,1.46784190460859,1.47777866061646,1.50708365715062,1.5668493388332,1.58974940349111,1.59150332865663,1.72921326708071,1.73031618822028,1.59405769517452,1.56272192483472,1.54703115687075,1.54678857122348,1.54696795201807,1.57602576053586,1.59429374439703,1.60739054386247,1.68147734919975,1.7736941163758,1.78411681688562,1.63084890698559,1.60560399143663,1.5914670283161,1.60715419235464,1.63147387760232,1.65964602344222,1.69986287319742,1.80071420035502,1.81190076414033,1.58945560029426,1.59058985350585,1.63871060770934,1.62640256364579,1.6570398771391,1.67784276297765,1.69782273169774,1.7378617309513,1.68655751775205,1.39317751452809
1.38330629783927,1.21923188304123,1.20733939940657,1.20677915836205,1.29904535461515,1.29723396062916,1.33449551470001,1.33548508558972,1.33447004585026,1.32737004880462,1.25015334340334,1.23829608699123,1.24002781065655,1.24180243510315,1.23956570125511,1.33707290876109,1.4091844816281,1.40770440217959,1.47734001709323,1.229699954139,1.24297313326115,1.25974819503368,1.27104619675707,1.29028092649311,1.30639562397356,1.40290127294918,1.42841999260157,1.4768813178982,1.67148275068894,1.67643290017334,1.23128864568236,1.23285641063308,1.23405577221937,1.23370294455224,1.28967138590012,1.31748952872356,1.46443851357223,1.49507451516444,1.53095501489032,1.26957855670882,1.24686730352767,1.29697238939744,1.29866961317623,1.30844814538341,1.30058783298914,1.40885157435402,1.37128652534276,1.37128788355009,1.3072699658855,1.35667121860874,1.26811614502839,1.26865635704588,1.2979405757437,1.30712470216138,1.36225166515571,1.43684001852966,1.36409003545688,1.31857127880637,1.29821254426473,1.27512787135465,1.34012372498535,1.36353096125111,1.39892246721704,1.43231971533668,1.79863003137751,1.27324603489367,1.22262593303077,1.26887149428361,1.27478236142189,1.31402169365064,1.40548001317579,1.53079002892839,1.47396439044416,1.62669003137751,1.32525662492772,1.29940572538637,1.34412460793474,1.34499128359674,1.37173582052613,1.40197295050084,1.50225,1.78580003137751,1.44715792500063,1.36038815990413,1.37608185382877,1.48491002695422,1.42347075438702,1.4358262270384,1.46898313149415,1.61749001597183,1.77330901461984,1.78255103244642,1.44241971301461,1.37265664314921,1.4013113653019,1.41310154413145,1.44109084644372,1.44176516528743,1.53075679562482,1.53847926570425,1.53868121346615,1.41790189106391,1.3946964315971,1.39227616017704,1.40844767520366,1.40706133370143,1.43605049846287,1.43483045097761,1.48591889186196,1.51821003867972,1.35482332315299,1.40624416821991,1.36955382903453,1.36391069751181,1.39127174107761,1.42451768132547,1.55786209673795,1.52455723972915,1.65473003137751,1.39782831571605,1.4001258111374,1.40258005424156,1.42007334542815,1.43675094421179,1.44963217988212,1.47207029106478,1.45400138645871,1.47253927802997,1.49165523758187,1.47971949421488,1.51205350769285,1.49356517479507,1.50177104956167,1.49556264786032,1.63436001590768,1.8068690186889,1.45943098797282,1.46922720258627,1.47039046153911,1.49270221948552,1.51623972730303,1.57722604661527,1.58401948815937,1.50413997255202,1.71894460380643,1.73512860410726,1.78843884786347,1.57890180698336,1.54760636496492,1.5472377697433,1.54715660249734,1.54935974226304,1.58002260629473,1.57772442245868,1.64715797963572,1.75300841582297,1.91780002793635,1.63889007379952,1.93551003137751,1.563197445568,1.61911003058768,1.61783374346111,1.64354223966921,1.66908634288421,1.79267691404515,1.8103896214801,1.57877236120261,1.58931384392006,1.64386538865734,1.58857929049274,1.62992539831521,1.67970372566178,1.69714970104728,1.84481003137751,1.64484646603782,1.39135272296721
1.21978998358228,1.20479235930838,1.20560765138968,1.18112432115808,1.2101891815463,1.27969097067994,1.32203548697256,1.32556661547018,1.44664001404929,1.49268003002473,1.23764329443865,1.24108109177065,1.24176559833077,1.24172463608592,1.30045323356939,1.32661058540409,1.37660909072529,1.40752712963681,1.50171676314171,1.51933032807457,1.24917845362709,1.27422841208624,1.27343433783997,1.27814579382042,1.34323000991782,1.44050056084909,1.49621003441156,1.46892428331328,1.45268871105367,1.68744441189274,1.25678183390016,1.2346598441068,1.24040166495596,1.24991050204034,1.24969487912304,1.39099001568875,1.52986005835947,1.49590677687989,1.5302950148096,1.27145189284571,1.24750275245383,1.24065412314888,1.28151528820695,1.2927766530704,1.32574479701267,1.38036845013762,1.31531997328881,1.39289891418975,1.51869001568875,1.37199070484479,1.31827280918894,1.29340719101896,1.30631930623038,1.34514958726961,1.36369833176664,1.47104002336066,1.32860873894806,1.32951072988185,1.32996010270919,1.31550782005217,1.31529491646318,1.36421275618421,1.40495629230449,1.43414607501096,1.71637001568875,1.27761166000441,1.23162403484875,1.26786426324414,1.27502442388257,1.33536010773327,1.3513799564763,1.43762712435107,1.4632323627997,1.37045998556892,1.32359868342871,1.32128399824757,1.35485782982144,1.35661520638499,1.35659786108568,1.43971086548452,1.62771003137751,1.53121998431125,1.46729976927266,1.36002814458119,1.39072567324592,1.37857229008876,1.44943353840217,1.44723731461736,1.44229019511572,1.55794060142152,1.61544727092218,1.63229271823141,1.46297996667207,1.40409907672481,1.40769726196209,1.4063319038716,1.44144873545106,1.44749648535683,1.48789239254744,1.60318001072951,1.65120053068803,1.36890440630856,1.36593927908219,1.35093707701937,1.37471871343178,1.39678981197785,1.40546072497898,1.43565714408964,1.49322764059047,1.38464228709168,1.35628607923437,1.35898096270146,1.38063629422281,1.38836464827808,1.40577241388833,1.42637322812207,1.54248796896001,1.49121385312499,1.45908999737917,1.40217892369533,1.44277413523593,1.41360847338509,1.42730167510917,1.43487241314998,1.44052067190257,1.48938140037229,1.45333315319362,1.47794975078748,1.4805220043325,1.48897710195019,1.53805490326261,1.55791975368475,1.56141805495063,1.62200500983218,1.50892996862249,1.79941102837737,1.49892182621376,1.48735976311239,1.46793196914604,1.4784363803686,1.53660692836269,1.52569077074184,1.58544741124092,1.64295000428981,1.69164000559806,1.53640996862249,1.77235118351404,1.59598244605557,1.57263592617993,1.5686710253299,1.55511556912139,1.58214683501013,1.58234607446801,1.5918809793382,1.63525873728923,1.71922699058396,1.88236001912991,1.59456422672562,1.56532527239824,1.55797221768902,1.55801381092433,1.61370969706673,1.63407832871156,1.67163447365491,1.7164,1.81033422370133,1.54133953003002,1.5307537581352,1.52039951595244,1.58961928333656,1.63407596545766,1.63366095376496,1.69679184562698,1.72442166426621,1.72494833088291,1.81611003137751
1.61997003137751,1.16713175061728,1.20541800539994,1.20670732646451,1.1953051331201,1.26732867850257,1.2579166004477,1.31513107027954,1.424950018681,1.22992998802969,1.20205128832705,1.2016855761616,1.24090125159853,1.2770999997905,1.27869442463004,1.32036205331083,1.39167152769932,1.40880361325737,1.52258296983645,1.27634230864951,1.2919859773028,1.27412197660804,1.27277119069619,1.27148073246809,1.28211082132332,1.42556946725622,1.28223164370175,1.33660294105566,1.26797219822905,1.26821899939265,1.26039839563362,1.25656681170041,1.24606860291101,1.2645825901543,1.27825711231794,1.31581624527929,1.41218999991361,1.48124940400358,1.56808715331527,1.56808454680208,1.28034939249371,1.25443329983616,1.27394782506529,1.31919563373535,1.30982050674554,1.45403002973588,1.40370209435537,1.40935092919541,1.71647003137751,1.30326999197469,1.27060200364068,1.32848282228567,1.3258206071041,1.36318168792029,1.39609000301992,1.44011001472433,1.37382563224005,1.32962501860916,1.3080326192507,1.29235725862624,1.31353921622379,1.38327338847846,1.41099052925571,1.44308668428459,1.6181,1.31606001051028,1.26737886753213,1.26672362019278,1.27710562810057,1.32660009737618,1.36070002722671,1.59898001568875,1.47396717240096,1.42003333270955,1.32542824106492,1.32190965002178,1.31968868742787,1.35762049443142,1.38366863278056,1.42611914684914,1.55484,1.75572003137751,1.49393898462521,1.45772999986567,1.38749220533869,1.39050023166429,1.4942300491906,1.45860598591796,1.4704517643213,1.54883939620764,1.84552003137751,1.66799001084641,1.48640142443663,1.43131999624726,1.38435647686678,1.3852030953528,1.44390738993417,1.45751067103879,1.47554015123899,1.57396000495924,1.63400950616198,1.35969359255188,1.36237549704707,1.36337029641647,1.3781240874527,1.3807548983708,1.41971424673463,1.43748153017317,1.49492350027501,1.37990525853147,1.40234370486249,1.37239794689071,1.39011550605921,1.39771346809449,1.41207023323885,1.47446224759545,1.43380120325565,1.4377900027811,1.42359798975324,1.43907309872079,1.43777191232009,1.44878041573257,1.46198183861725,1.46942777468319,1.49513420033506,1.503937455383,1.48778360655648,1.48764312249364,1.48721567236641,1.510434496257,1.5232444968445,1.53748786377059,1.56341532322796,1.61738500970479,1.76231003137751,1.50741168809395,1.52414955849115,1.50493388405683,1.47642599982518,1.53007997086911,1.53468897105631,1.54897303795695,1.59511973264351,1.66723145878922,1.75252001626553,1.7718578385096,1.84154133525582,1.61477770426473,1.5510651805473,1.54868441813819,1.56797743464961,1.55516193645869,1.58450771723406,1.62145347554256,1.61771315697871,1.73452302816875,1.64048,1.5674009582949,1.54722000139396,1.51765999251357,1.54686961626354,1.56805802560912,1.57895940056477,1.53133664421375,1.53268331087062,1.84730001524059,1.48232381695585,1.48995678337819,1.49628178620294,1.4958196185464,1.58378166660077,1.69650738910915,1.69646092149072,1.69557942184521,1.81028271147431,1.34047292297446
1.18988665769218,1.15150243545177,1.21562411546387,1.22741538588945,1.23276761687285,1.26426008298958,1.27216280023442,1.30384140188856,1.26692685376625,1.27203428427312,1.19625038433183,1.23329852003473,1.23868251462518,1.25040796985913,1.28877124739138,1.33460551646144,1.38787741966625,1.4109504490052,1.44769998460907,1.51581001568875,1.28949134987721,1.2908731438007,1.28159053777651,1.27804211759586,1.2968363827896,1.34379000001228,1.28191831036354,1.36816028505315,1.43354,1.57546001568875,1.44373,1.2200852255311,1.24083617437489,1.23494908202101,1.26525896021647,1.30491656390327,1.34233998429438,1.47370588282413,1.63190003137751,1.56363833126016,1.30334061551009,1.24332393756061,1.26916488471926,1.28836999671163,1.3430639140972,1.31792219503875,1.57686003137751,1.41179724346462,1.40207929961474,1.27145651554951,1.2712443756392,1.31807454026404,1.32250805583426,1.37181873536146,1.43757320058576,1.40851649483811,1.35881411968302,1.32947786364626,1.28965835644692,1.27775798080747,1.29177824186773,1.37865685616774,1.41698544010179,1.45093014907265,1.74504001568875,1.28039898662263,1.25441251281673,1.26407893473023,1.26046217910518,1.36546000752756,1.49028001089131,1.78791003137751,1.49449620320835,1.41680666597916,1.35046211922782,1.31038535122599,1.36108795228842,1.35799116754175,1.37848239669447,1.36084027871164,1.3783914701872,1.60358831197207,1.61419713774175,1.62087733082754,1.38480876073616,1.38269083856682,1.40827798836224,1.44678831151258,1.46139666327264,1.51312220369371,1.61910211511493,1.56585998623485,1.51222869733576,1.56984002919427,1.38523292185329,1.38484980952269,1.43495489127608,1.46701455033446,1.46780668698346,1.50585998458312,1.66473247632964,1.34502193993339,1.34255723222152,1.31218040113959,1.34054050277796,1.37928611192418,1.41362276609209,1.43981114199217,1.43777309697426,1.38661917937102,1.36176719935221,1.40999629972308,1.41057992828683,1.41247542274012,1.44160828781775,1.45243831853338,1.46169195362917,1.44035070320615,1.44075556959017,1.42643794738961,1.43871125464979,1.46879393580502,1.47002791206502,1.47104455332561,1.52341091493194,1.65453001568875,1.52374055359239,1.49508728466228,1.49349676524109,1.51234138446347,1.55392106542451,1.56709814197068,1.56728440972458,1.65443000994328,1.67988999594868,1.77324562990992,1.53969224000818,1.5242192282592,1.49927998781343,1.53943347809174,1.55161147201319,1.65047018024499,1.64002222265696,1.66294854972416,1.67594742516124,1.78738217181026,1.82267250659555,1.84065922850226,1.86865731080838,1.5528465092892,1.54055590841909,1.59006531389766,1.58706367479359,1.59609074256244,1.6364532315016,1.70215001524487,1.53003232679484,1.5203412407909,1.50343671076069,1.49216852706832,1.52816315835917,1.60168575763413,1.5875596761081,1.66447001097128,1.68708889469957,1.90932003137751,1.46490277654397,1.46712018662488,1.4692150303014,1.50833553576225,1.58486833333947,1.62796208452119,1.66321668025218,1.70729815546915,1.79332733559195,1.34613975235427
1.19163332435588,1.15183575815262,1.21777942274594,1.22366928385219,1.25001023470486,1.29586940261064,1.29634955882381,1.33264362917756,1.39903019596403,1.27231885884743,1.19698150033014,1.23120493542857,1.23645757758142,1.24943517055073,1.30707004293246,1.32277094184043,1.38999174757824,1.4132857945507,1.51264145439498,1.57093001568875,1.26687872081006,1.30150637888618,1.28324459141441,1.28697070981165,1.2967361371064,1.45246001036957,1.51637745278067,1.5286330306356,1.63680001568875,1.6897817352153,1.67492831185096,1.24577668036464,1.24518233957559,1.25086299126637,1.26432601997826,1.3160871790521,1.40640999978233,1.46181181500393,1.44265658867202,1.32874999724969,1.24458254637778,1.22450467819215,1.25812335336051,1.25365266335041,1.29608699026419,1.31685636917536,1.51650001568875,1.4159315771109,1.42553412227867,1.2819269422114,1.2358106435817,1.27142703962271,1.29143022660236,1.28856556242539,1.30429161405565,1.4303403526969,1.38816025563781,1.32947853410367,1.3289712731709,1.27628475545635,1.31020226017916,1.39312028758905,1.42311342598744,1.43368889933244,1.8099182252833,1.30367006920412,1.26396520119964,1.2679266953695,1.27400591729593,1.32677890852211,1.45434666904029,1.73432001568875,1.61890916001748,1.79508003137751,1.31294846859715,1.31731445021592,1.34827938915149,1.35583191868934,1.40241626221431,1.41240030234106,1.53400000532961,1.64340383613299,1.63889694762265,1.39428173682331,1.39288544486318,1.40171726735096,1.40171241795926,1.43215888871058,1.43232628338339,1.52063225276508,1.60045789865022,1.74171003137751,1.45300065582473,1.38558234794735,1.38703896233993,1.40408326526089,1.41716689471281,1.47026460401979,1.47469390273503,1.56467861981285,1.64109110798122,1.35756634978071,1.34069720385766,1.31234049116567,1.33203129967629,1.37817789336248,1.4314552765815,1.44379796597304,1.47671226946959,1.39353660541288,1.37096308336299,1.43704358959032,1.4089008344217,1.40677921166483,1.4259768534951,1.47131233732109,1.46900408158699,1.44099049865184,1.40951487741866,1.42088385233784,1.42944029798609,1.48874310116285,1.48620663746859,1.48287709331033,1.53133908470226,1.72386001568875,1.51443958100676,1.49698582222914,1.49183148444912,1.50287826492024,1.539089859807,1.55400210703391,1.5671970138487,1.6129300739918,1.64694998836257,1.75817393143983,1.78862951301691,1.56802922414188,1.54763456897116,1.53462883409886,1.5726938851779,1.60567370348931,1.62790840990258,1.63117536509841,1.67629714218163,1.75823706826891,1.83611085088606,1.83831137359068,1.86815692271076,1.5678804167728,1.53644215081402,1.53609955307502,1.5610879405091,1.56346746951,1.61626759149581,1.66151000251765,1.5302760473771,1.51366069809222,1.49791773768328,1.49480441412219,1.52845648976661,1.57806059912254,1.58304442102617,1.63038666733748,1.69677248729153,1.70322664057198,1.45080347243575,1.44498808764963,1.42245712141367,1.47755000225328,1.52068,1.63987480831784,1.65634067168539,1.7378332515889,1.70507510538583,1.70234735016526
1.24496870867142,1.19410939490276,1.21949328388904,1.23330653343088,1.2818900139608,1.30479213768665,1.34455897806195,1.35653345334828,1.38864983183982,1.23373085185219,1.19953620999615,1.25171586403637,1.2358505040584,1.23598516248664,1.2982482013946,1.29305743076733,1.41316461462684,1.41570877231734,1.49616579237382,1.63421003137751,1.24069985615647,1.28380059835979,1.28265270827814,1.29896739027197,1.35366001663414,1.4146268498249,1.54616837033171,1.54732643473813,1.56418651654118,1.56275149549776,1.56940765356636,1.24775901916159,1.24637463023149,1.24696902384603,1.28246079019112,1.35885001287661,1.5272979949689,1.51715438424427,1.49607508037085,1.29974988766116,1.22593674650646,1.25115302378925,1.26122770823631,1.26608387296472,1.32169113783967,1.30326613270149,1.29198260141845,1.35198283341566,1.27889344939815,1.28242936691902,1.24207243713272,1.29238671866798,1.29323553782166,1.32666166640909,1.37124556401067,1.34752515359372,1.34803883163087,1.33044019837692,1.33060805808796,1.28936178863339,1.33404599876285,1.38220089017779,1.4290613042961,1.48369000953532,1.82946182178296,1.3141934556168,1.29556483593922,1.29065928119348,1.28583480427432,1.33389108484429,1.45481333575715,1.59499348024824,1.59547755424024,1.59578547846909,1.31930677672161,1.33067654400968,1.34113053567114,1.355324865973,1.38836616356787,1.44242000652641,1.5606800089868,1.64724340141958,1.67134211389649,1.73466865467102,1.40683817182968,1.39988674789923,1.43399597431429,1.43181788229449,1.42835604648172,1.52980554608439,1.56915001236795,1.40099109438769,1.4039145423247,1.40545332670633,1.3861648482298,1.42300003853351,1.45402160925591,1.48090954688189,1.4993902448382,1.57493138239967,1.65227433279028,1.34012419580548,1.3395920834565,1.29800703025572,1.32328123417149,1.36597777800491,1.4229533419999,1.44654732850207,1.45707830866104,1.37584344619606,1.37991094731246,1.3984947746464,1.40820878487311,1.40800699640601,1.43783473206594,1.45594436197477,1.42892604456847,1.44026897969994,1.45191282856035,1.42676421524089,1.44887160939477,1.47758943488586,1.49749495845012,1.52714596538043,1.59408000000141,1.81642003137751,1.52462295543254,1.49980294368098,1.49003532713296,1.49642935493486,1.52266458306634,1.53501794386877,1.56808022822446,1.59180426486972,1.71776001209383,1.79294148661427,1.79252077804926,1.59160807936772,1.55162366971176,1.53969898613191,1.56495879406393,1.63072400120597,1.62734570759345,1.62500346863317,1.67911543034469,1.75846373023642,1.83431716720395,1.83755296127268,1.88048582923588,1.50808146998103,1.52002780768262,1.52641859139865,1.55864635867096,1.58834675682661,1.66449,1.7603899909062,1.8406998903692,1.50697192717489,1.49477390347329,1.47886102967194,1.48914891627447,1.54971128993647,1.57170190466338,1.63065333403281,1.71027264629088,1.74400001059135,1.44787733013236,1.44000565105496,1.43011754050698,1.4378846907993,1.47117734917325,1.50516295098841,1.59210541743695,1.70618050125747,1.70578509459561,1.86601002635237
1.23395305725588,1.22367423598314,1.22159962293708,1.22017366216814,1.25024679056863,1.312682725029,1.35751900101919,1.36292638998644,1.48251001568875,1.23105427984159,1.20426238344129,1.21623259924224,1.2259535789265,1.225003907942,1.29097650051383,1.33988046767989,1.42281906273708,1.41868714663814,1.49671275512526,1.54049001339559,1.24141976666569,1.26492980058386,1.27358946917125,1.27579335931871,1.27518825810533,1.43848315549428,1.55311515449411,1.54989726782595,1.56556431319209,1.64380696230074,1.65376308476552,1.23996739451811,1.23328344647652,1.22886646913672,1.32282002051274,1.2422699714317,1.53590683453186,1.52804613917729,1.67802003137751,1.29423010208442,1.28071283142265,1.24963971087945,1.27157785328081,1.28395236791384,1.32879035049412,1.37886072967963,1.51316003388377,1.47488592167325,1.53729002760525,1.26329429846133,1.2382555008368,1.26660998373749,1.29476955664958,1.32850833309292,1.38049748046837,1.37280740349313,1.31745823520175,1.33081876621578,1.33137189792629,1.33273468215733,1.33535534793963,1.43523758462191,1.4365049808485,1.43537357732304,1.70357001568875,1.31176622490355,1.31060192045201,1.32126837725494,1.33151017162056,1.35384999376352,1.38743001199515,1.3518199566779,1.42233967433519,1.35329119622743,1.34721146541197,1.32804244965487,1.34721310101799,1.35676708865323,1.39637728161053,1.41424215783225,1.51144184401908,1.73054003137751,1.68285597049199,1.75546139239525,1.3990209548539,1.38847401433216,1.41671455890107,1.42570982585602,1.44393116199199,1.47537000100754,1.54973001900956,1.39777308645445,1.39372591318375,1.38880151541351,1.4021509400218,1.46647345529835,1.44561384599895,1.48498796798921,1.50892670974272,1.61634000891915,1.67207425893663,1.33778932751436,1.33849724998757,1.29907536836192,1.29632659608984,1.3540505607205,1.42977282996707,1.44813791290111,1.55885003140311,1.42010274732421,1.40597486051917,1.40652879551699,1.41437706102173,1.45834234761546,1.43719755933365,1.43600767321527,1.441436042844,1.44021716408309,1.43922109086342,1.43707890018372,1.54460002965983,1.47533375357583,1.50959999890786,1.51436484042683,1.68253892131851,1.66614953068561,1.51077484317369,1.50414146220861,1.48906435106083,1.51105686739735,1.54203146356882,1.55096965113841,1.57076046272168,1.6023579155232,1.68295000359492,1.73708000064364,1.77790875153103,1.61678817249471,1.5947500019922,1.56228748315112,1.56661598095344,1.57161107924342,1.61425174997894,1.61744103435224,1.63043131656005,1.74143920521703,1.80522509538186,1.81795034071991,1.58644998589782,1.51148377769703,1.53598964123099,1.53214378854681,1.55622561924832,1.58517326601671,1.73704502837482,1.77896950495737,1.86491054477846,1.50248415648978,1.48994408522867,1.46773604768554,1.49138857149813,1.53673911631421,1.56272999726725,1.59292999055857,1.71063932477925,1.79188002744822,1.45312188201631,1.43266703922344,1.36154994435025,1.426588837068,1.46385264855231,1.5005470367296,1.58624089458355,1.64185,1.74799000025183,1.77500079698185
1.30269000011671,1.25175761623951,1.24296256645347,1.23318659935934,1.26724141986542,1.3046923278102,1.34145138130534,1.36804856986226,1.53133285574858,1.22999485156252,1.17881934972686,1.21596002390701,1.22687660026524,1.22401636486559,1.26534263478496,1.31248224680661,1.35285998547907,1.41810546098433,1.53844129503995,1.2926899974585,1.24113964599201,1.2512692026476,1.27270278993973,1.27933331736185,1.27745074921796,1.32784166000793,1.49071895053083,1.50075014455247,1.46277809723216,1.43044076323653,1.41972810985297,1.23805101847971,1.23142059599821,1.22381655912385,1.26749999223748,1.42316001568875,1.51440885508996,1.52361962083099,1.37577998383872,1.33633000834012,1.25589533423718,1.2810504463553,1.28945151311804,1.32690052584118,1.33662376514818,1.34795926560494,1.44331362042269,1.46340200091729,1.5026200179154,1.27311225455385,1.24007996087545,1.23549139554765,1.29556493506337,1.29689669885262,1.36140262850525,1.35083333548435,1.34856104018125,1.35941899809679,1.37229098708441,1.33138939114179,1.37901171812321,1.39804822105515,1.43808168589245,1.4877899310372,1.48848004278945,1.5396400512636,1.32244705040841,1.32762919403118,1.33233896633634,1.40853124251593,1.43652000392637,1.74382659582523,1.75501856451313,1.80906001994265,1.39671333265262,1.39532666604828,1.36352209710159,1.35987404010863,1.35670290235927,1.39576782889651,1.52570735729777,1.51547008548977,1.5986962647447,1.68856001568875,1.38780196466251,1.38889413495627,1.40335001220982,1.4141354803077,1.42484950535927,1.4252828522749,1.40384014576772,1.40385006647176,1.39014275635952,1.37440308192521,1.38451345706154,1.44749273946517,1.43609098348478,1.49276668169582,1.50727303337994,1.57046998886833,1.64622789908838,1.35758234405147,1.34519135541655,1.30705698726905,1.34456077142077,1.3669770962876,1.41285584314665,1.44921224682642,1.4586638132825,1.37744638751135,1.37747961489585,1.39254926069345,1.41919023122626,1.44393965606187,1.42331284715392,1.42431871765632,1.45703901639973,1.45162507363361,1.44644393794621,1.43650508870935,1.47046805326963,1.50685197656139,1.52290783206591,1.53401191299475,1.69326096152528,1.69078061784812,1.53782152772149,1.53513162375368,1.53383430100293,1.50704209622643,1.5120901029742,1.55180273275743,1.57506813672141,1.5804477591264,1.60278426806109,1.72436192519027,1.6971251510553,1.69551110174635,1.89916003137751,1.58639203784373,1.57444145227749,1.57420422133533,1.59981333520148,1.60385498051774,1.63283130526019,1.69628998778231,1.82448366540175,1.82101087171951,1.83083003137751,1.50561975620765,1.50636173441528,1.55382447026742,1.55448596098949,1.60185213199235,1.73080498731394,1.79204051612367,1.84134962760736,1.49868804048131,1.4600922155461,1.42476605424388,1.46798750937561,1.52075960020454,1.54992607907541,1.64754001358695,1.7407092927385,1.75000075165549,1.45534555691767,1.42692594384224,1.39273338866216,1.39939749272518,1.43558999754933,1.53848903539172,1.55974531472847,1.56340752652496,1.79418001475973,1.83928166272454
1.65374003137751,1.25195255442969,1.25407578483898,1.25412147994037,1.27715088905688,1.29295348020615,1.37157887988563,1.37282737572501,1.51479719131768,1.39420917816555,1.17857935824803,1.22921593155773,1.22887177581642,1.22839422914069,1.27057782445488,1.31237558673326,1.41855257403282,1.41807944071578,1.51735875242542,1.25902645951031,1.25873702526876,1.25736598728831,1.27278366438221,1.27746136691428,1.31716873189429,1.30484638496354,1.55473002803075,1.50727475438358,1.46017143355519,1.4394495806269,1.61372003137751,1.21529817174846,1.22250313693344,1.22291515697905,1.31632659162984,1.30494410579947,1.59079003137751,1.5344569466261,1.74873003137751,1.28479695063589,1.30780497242509,1.30527363870671,1.30513710372331,1.30248590353257,1.31018320960292,1.38229001666438,1.46947324180526,1.37817101261987,1.31610192625844,1.28972592266885,1.29421837103928,1.26720112314018,1.29571238055327,1.2976539233287,1.31444920556534,1.32401830004129,1.37443672097553,1.38551523180794,1.40979125108576,1.34059986044699,1.36010854146259,1.42036224180139,1.43929227670687,1.44460555453806,1.76423003137751,1.39377515623479,1.36226119619163,1.35710880841775,1.35187643240725,1.37911875779694,1.46443176200504,1.74413621569549,1.75853506793145,1.84117002712361,1.43094999595293,1.41289000062966,1.36920771582621,1.37461308516945,1.38196118863094,1.50768074363751,1.54371447238684,1.61035002168643,1.59673743408993,1.5517612848215,1.39117746266633,1.39174912621901,1.36393176478484,1.39398643971897,1.40573289964847,1.49298003016672,1.41730849557253,1.38367158315236,1.38680540495838,1.3831604769573,1.40901997153584,1.43659172827566,1.45732130522835,1.50073187229108,1.609470015278,1.63538996969626,1.68125380326339,1.74434003137751,1.3991005315105,1.35309617369301,1.35048304197172,1.37233486011396,1.42921093801952,1.45047605772628,1.45703311825135,1.40381789598012,1.38237415353487,1.39908216947662,1.42449850025476,1.43293181198116,1.44013600479884,1.50348407807806,1.49287121153096,1.47457670258554,1.45380574652627,1.45134543427654,1.48566193776202,1.5143276051562,1.53662035661213,1.57017564302403,1.57263860336902,1.76169001568875,1.81374003137751,1.53940709408282,1.5410926387794,1.51676834090328,1.53799238091718,1.67131003137751,1.61497275100338,1.66090002601627,1.59557575100281,1.59638632622057,1.73605055973528,1.69931172276077,1.70767560291749,1.6133334795728,1.55960862420672,1.56060166925139,1.5986605626967,1.6195746627768,1.61481598128772,1.75414001398064,1.79615001930231,1.59753170692607,1.49958711800456,1.48659059392118,1.47897598579783,1.50476329841851,1.5457244548686,1.54921909664589,1.63326939093569,1.76663000770214,1.79725001168812,1.4943913576976,1.44308260223048,1.44550435575731,1.45909735562149,1.48534953731089,1.51847704268304,1.52595069804471,1.71391001726744,1.49003998879568,1.45911175900507,1.42074694005314,1.39532388252329,1.39360569939161,1.40759637045329,1.55812612602905,1.55753942499404,1.60064518929326,1.72727631499398,1.81338110320259
1.50725122593409,1.26098261501313,1.26092766202016,1.26130588201339,1.28485347444616,1.30244350710545,1.38017786072547,1.38159372804929,1.39696245139055,1.39648687201315,1.19252170795056,1.20895304929503,1.21747151595731,1.22600565000027,1.25979670580064,1.33462174039695,1.34869879972786,1.33203932865306,1.3118863508102,1.26900229042742,1.26214820187546,1.26518847782916,1.27317650901324,1.27608759838885,1.30879159009549,1.34868393608539,1.51428061252991,1.5123276422015,1.47848928746853,1.46860600764214,1.4638819587344,1.21758885987312,1.22065887955469,1.22087897625332,1.29964095402626,1.30376508871587,1.42014198703852,1.4034633037518,1.35539494038066,1.30393505197065,1.30603862169363,1.30652730197302,1.30739030614828,1.30735066011034,1.3094285035299,1.32452654715667,1.32044388597627,1.31815521472915,1.30805784018616,1.29703155745341,1.28164911034502,1.27284446207777,1.30646514360177,1.30819152622595,1.31951019790894,1.32895898908849,1.38142117947777,1.38953906730974,1.3963392159911,1.36685813264396,1.37337702295299,1.42587194865696,1.46312059887062,1.49049257880395,1.53114439356115,1.39913607691551,1.39128183178154,1.39071109513287,1.3902141904208,1.41675602669722,1.46835902182054,1.75901688186831,1.76952613963192,1.78372757959661,1.48410806865327,1.43708574890706,1.42431574368047,1.4206318602455,1.41487386169584,1.4990350800701,1.54243171229844,1.59557528202712,1.59196192567339,1.5577197789747,1.44501211952107,1.38627759685197,1.37868552825697,1.38934561915805,1.39651137776807,1.44365200318565,1.43157469954264,1.4083762615881,1.41423162942624,1.41710617790283,1.41901363734922,1.43897263427553,1.48381082149949,1.50876935985597,1.56983503590235,1.63431078634384,1.7068911862573,1.72399471637334,1.44122868305459,1.41062324454898,1.36275742540814,1.37676371183828,1.4442784890491,1.45230553416188,1.45461683689104,1.40719204155529,1.41024584278557,1.41243241187675,1.43007807802995,1.43809240230005,1.46476056529716,1.50052612381994,1.49707637306866,1.4785763352375,1.47577031951871,1.49714818553159,1.51518398745963,1.53544731272719,1.55117455634841,1.57004682306315,1.57056431480133,1.56982066495443,1.55528067118236,1.53768581799328,1.53710562903272,1.53305769861229,1.53625585577322,1.60085968417519,1.59816262911175,1.59678585402089,1.59527752271132,1.59475470074852,1.59537471360665,1.59539545484449,1.59601221800007,1.59473352386675,1.57719710301514,1.57655845742648,1.59110579174542,1.6093265560673,1.61800150608684,1.7125297604276,1.72442875582453,1.59700665891396,1.50618898897398,1.48546265053206,1.48281066746598,1.51029209192482,1.54362848567247,1.55061598300339,1.6364653408563,1.66599866461745,1.508207389637,1.47656263285131,1.44439103569783,1.44518951904195,1.45754760473526,1.49815344857946,1.51311167029746,1.56102989287291,1.58704760883604,1.5286561043603,1.43931168994308,1.41241200241601,1.39550949035659,1.39504816358595,1.40816891712741,1.55644311181593,1.5560665861209,1.62599119146222,1.75197536489116,1.82330992063352
1.50838236604011,1.26049188361522,1.26040181538041,1.26162288698786,1.29837009675336,1.31676243768318,1.39503959243278,1.39551644422465,1.39536102128741,1.62263039428577,1.18060570465367,1.18119637647395,1.21131341878265,1.22391891542289,1.25018268919551,1.36136792353142,1.37957312166385,1.31240398656339,1.28406995991385,1.28451062402029,1.20909997957361,1.2675349198035,1.26940985714713,1.26453091922247,1.30161662362408,1.39231001462688,1.5158949105877,1.51424983996434,1.63058003137751,1.47423153608737,1.45734809675268,1.16803997311907,1.22127477405045,1.21948632353271,1.29094122924624,1.30274276234633,1.4847100204918,1.40432487932284,1.30153097467557,1.30211937089138,1.34117376929026,1.29455406226176,1.309124453377,1.30915462860676,1.29870627696019,1.33472378644134,1.31061709269473,1.31489176521799,1.3003348817627,1.30164607372629,1.2570955224761,1.26757779309508,1.30894471309248,1.31449042494206,1.37203297085112,1.3337123803287,1.38474734235172,1.3907916365787,1.44331920972263,1.31883997252983,1.38956325329459,1.43083363159067,1.47498966554253,1.7635512110158,1.77216880502396,1.40467176896067,1.39158522090368,1.39045678470464,1.3898311670522,1.44660000747768,1.47129349657443,1.76054455159925,1.768548265857,1.79547001444399,1.82122304134211,1.45086226176897,1.42988538609196,1.42344419635238,1.40806904343353,1.48252699802533,1.5412183774862,1.60640002009786,1.57808446733099,1.5675811741077,1.52258001568875,1.32218425329411,1.33624351264344,1.3352775943024,1.33224523710058,1.45163065044473,1.4643804241876,1.40165469043042,1.41623241897843,1.41892165055013,1.42093948431345,1.44124146229125,1.49435000449901,1.51568951030494,1.5441964688158,1.63152582764072,1.70999044680342,1.77127327394062,1.48686120099789,1.76446003137751,1.34976611850723,1.38424133421532,1.46069477042042,1.46270634588884,1.46133844521886,1.39219545309355,1.42420351089529,1.41426843987742,1.43498082258603,1.44267781450365,1.48352910992046,1.53812582765292,1.57074002941274,1.4814869872746,1.47356913499356,1.50804770101301,1.56623302184769,1.57014996338218,1.56955413191573,1.56880477705161,1.56917328177951,1.56867034731798,1.55064930345803,1.53752906850355,1.51378071817548,1.52682881082565,1.53404074212279,1.58080467297308,1.59363364468252,1.59495355607738,1.64695043131368,1.72081919237754,1.59881114635495,1.59724250195469,1.59934127298114,1.59704993708694,1.57576947739143,1.57429203958454,1.58238687037423,1.60528216086941,1.62028624219701,1.68556987514259,1.86207946425485,1.59637099648662,1.51329869202765,1.43433191667829,1.44414843988821,1.51479799829836,1.54271041405152,1.55234262003332,1.63922939067282,1.74114691111128,1.44707187212596,1.43692750408912,1.42239784306433,1.42857172864182,1.45634628432371,1.50806245772387,1.50959161452433,1.60452001017173,1.80013254030529,1.8096575008746,1.40155612757808,1.39262987699725,1.35584044011462,1.3759464814571,1.40926073574767,1.55530623487618,1.55510817472051,1.66747440266276,1.75628303764521,1.82652279331926
1.25315987371735,1.25051344391009,1.25621185883204,1.27191894987993,1.29509652380697,1.341599924517,1.3693772110893,1.40085570232197,1.44693872100415,1.60975965278049,1.19891261502669,1.17950148211627,1.20441894718205,1.24550375494322,1.25745785547947,1.30138501309691,1.26967450015901,1.2581487091791,1.2499392984261,1.20457783268477,1.26790999755962,1.26853579733433,1.2715101295183,1.29073658734921,1.30337947287042,1.32664998489323,1.56783171330593,1.48554646209252,1.40446999996747,1.19574046296349,1.2131707329708,1.21199405052121,1.22294766149235,1.23343224421021,1.28824439043184,1.35489895953354,1.51457002657447,1.40610440832669,1.29111690719111,1.36181001352632,1.3194813591118,1.30704171894567,1.30905612336293,1.34807615782957,1.35431410253559,1.3239668618488,1.3303642040424,1.32944201842582,1.34032685610885,1.31082572402236,1.27869003815876,1.37280002630827,1.33704734050975,1.32727244683489,1.34460424738939,1.33547308208216,1.41295537600037,1.39796166754199,1.43587084535758,1.37803432059306,1.43075899313792,1.43270639924734,1.48780627485951,1.80059035101701,1.80998866992698,1.39988374242513,1.40209840700988,1.39506791773024,1.3909658062491,1.39137124139416,1.56852120541578,1.70314047335101,1.74757684170139,1.76144625370009,1.82444556819925,1.82711144878802,1.49053000061332,1.4494020204,1.42754556210138,1.42912556877996,1.51775984640117,1.54467354397398,1.5721022171032,1.65524003137751,1.39868999841458,1.31682635365497,1.32341396760077,1.33753956320855,1.33827163017189,1.43840935512129,1.36581997096575,1.4311503331009,1.41572749541023,1.41435345122775,1.44816614979017,1.48376797968928,1.52968225813638,1.52944511009848,1.55404337605334,1.60214794534069,1.68935726120966,1.75216445881511,1.46198450909816,1.38268212419873,1.36859776400041,1.40247319848851,1.45071697008159,1.46619960011999,1.46960636832182,1.39477515995546,1.40590949844111,1.41279641791656,1.43933214880658,1.47587141550667,1.47172665710485,1.53743146530299,1.485523283098,1.48343293329496,1.48317000694363,1.5050710972785,1.49573782991595,1.59674128604258,1.59404063034226,1.62296060447372,1.62965043500349,1.75726952442969,1.58941000628703,1.53876887068854,1.50264962991159,1.4851373381648,1.56903126134898,1.52692886916985,1.59337631948047,1.6074125569898,1.61670639374405,1.73511050220494,1.75206918638111,1.78271172516759,1.80815001568875,1.59840990009759,1.5497666837111,1.56134375643248,1.5756882990309,1.59252855945619,1.64739826163154,1.67740891201879,1.86879058281141,1.59598437634541,1.51338041673355,1.43485891729445,1.48613260725938,1.53336522432755,1.5411293527427,1.54741688282724,1.60769000025272,1.73629313595498,1.63456001568875,1.42955571406647,1.38223892169454,1.38515206318413,1.42733696734916,1.46030999091604,1.50791452576348,1.57322999961079,1.74262152174306,1.76835367080712,1.77690873809672,1.38700313774374,1.35436640109911,1.3665400300328,1.4202372391511,1.55476045913355,1.5548935648923,1.67831561302599,1.79214956324131,1.80501392658606
