1.64811, 1.64856, 1.66038, 1.64076, 1.64079, 1.64005, 1.64046, 1.65653, 1.65496, 1.63771, 1.62896, 1.63326, 1.62361, 1.63967, 1.62502, 1.59963, 1.59904, 1.61833, 1.63655, 1.70232, 1.73134, 1.71986, 1.73943, 1.75818, 1.76334, 1.75532, 1.74593, 1.76186, 1.66618, 1.57514, 1.56676, 1.58622, 1.59021, 1.58057, 1.57708, 1.5745, 1.57265, 1.57155, 1.56815, 1.56486, 1.56227, 1.56044, 1.55674, 1.55152, 1.56115, 1.56047, 1.55768, 1.5706, 1.56637, 1.54171, 1.53704, 1.53387, 1.53728, 1.52883, 1.52504, 1.52279, 1.5225, 1.52197, 1.52029, 1.51826, 1.51741, 1.51294, 1.52391, 1.51115, 1.51022, 1.50881, 1.50402, 1.50324, 1.4998, 1.49785, 1.49483, 1.4961, 1.49103, 1.48974, 1.4906, 1.5005, 1.4858, 1.48503, 1.48454, 1.4855, 1.47903, 1.46242, 1.45751, 1.53571, 1.54841, 1.61725, 1.64073, 1.69332, 1.69357, 1.67574, 1.65082, 1.53069, 1.4715, 1.425, 1.44779, 1.4608, 1.44458, 1.44689, 1.43641, 1.43652, 1.44131, 1.43361, 1.43207, 1.43068, 1.42781, 1.4265, 1.42338, 1.42258, 1.42094, 1.4189, 1.42026, 1.41968, 1.41583, 1.41576, 1.41579, 1.41764, 1.41, 1.41203, 1.40609, 1.40336, 1.40197, 1.39989, 1.39864, 1.39674, 1.39694, 1.39709, 1.39483, 1.39377, 1.3926, 1.3905, 1.38885, 1.39041, 1.38815, 1.38788, 1.38584, 1.38304, 1.37824, 1.37622, 1.37787, 1.37333, 1.37117, 1.37182, 1.3704, 1.36797, 1.36502, 1.3654, 1.36455, 1.36839, 1.36269, 1.36216, 1.36006, 1.35842, 1.35807, 1.35918, 1.35844, 1.35624, 1.35722, 1.35874, 1.35907, 1.35289, 1.34694, 1.36356, 1.36781, 1.38951, 1.41913, 1.43286, 1.44202, 1.43749, 1.44671, 1.44063, 1.46454, 1.39278, 1.33259, 1.31632, 1.34437, 1.35077, 1.34001, 1.32057, 1.31899, 1.32059, 1.31042, 1.31002, 1.30932, 1.30562, 1.30453, 1.30269, 1.30558, 1.30365, 1.2998, 1.30132, 1.2992
1.65108, 1.64801, 1.65258, 1.64955, 1.64025, 1.64815, 1.65346, 1.65167, 1.65494, 1.65118, 1.6408, 1.63866, 1.64529, 1.64717, 1.63804, 1.63253, 1.61417, 1.62419, 1.67253, 1.70893, 1.70478, 1.74221, 1.77571, 1.79064, 1.80301, 1.80935, 1.74347, 1.70739, 1.60031, 1.56862, 1.59676, 1.60344, 1.60338, 1.58515, 1.58175, 1.57851, 1.58944, 1.57233, 1.56943, 1.5683, 1.56647, 1.57612, 1.56164, 1.55703, 1.55858, 1.55444, 1.55866, 1.57251, 1.56164, 1.55108, 1.55179, 1.54069, 1.55252, 1.55479, 1.53024, 1.52763, 1.52605, 1.52508, 1.52273, 1.52286, 1.51832, 1.5168, 1.51439, 1.51211, 1.51022, 1.50839, 1.5062, 1.50439, 1.49979, 1.49935, 1.4974, 1.50533, 1.49956, 1.49136, 1.49227, 1.48932, 1.48969, 1.49242, 1.49822, 1.4855, 1.4888, 1.47124, 1.46129, 1.54126, 1.58107, 1.6053, 1.60984, 1.66968, 1.67986, 1.66872, 1.61827, 1.5769, 1.50227, 1.42739, 1.45195, 1.46471, 1.45727, 1.45812, 1.44977, 1.44628, 1.4398, 1.43803, 1.43656, 1.44293, 1.43113, 1.42924, 1.43, 1.42588, 1.42334, 1.4231, 1.42476, 1.42051, 1.43005, 1.41904, 1.41961, 1.41697, 1.4157, 1.41274, 1.41165, 1.40871, 1.40847, 1.40596, 1.40345, 1.40195, 1.40174, 1.40193, 1.4096, 1.39719, 1.39614, 1.39472, 1.39241, 1.39202, 1.38911, 1.38832, 1.3881, 1.3853, 1.38215, 1.38127, 1.37783, 1.37735, 1.37579, 1.37419, 1.37327, 1.37169, 1.37201, 1.37536, 1.37502, 1.36666, 1.36616, 1.36358, 1.3638, 1.36227, 1.37366, 1.36012, 1.35802, 1.35937, 1.35873, 1.37394, 1.37861, 1.35275, 1.35036, 1.36905, 1.38459, 1.39769, 1.41362, 1.42355, 1.42975, 1.44112, 1.44311, 1.43982, 1.41373, 1.37935, 1.36499, 1.3187, 1.33426, 1.34783, 1.34367, 1.33464, 1.32261, 1.31971, 1.31987, 1.31733, 1.31661, 1.31329, 1.31271, 1.3135, 1.30772, 1.30832, 1.30518, 1.30907, 1.30958
1.65535, 1.65313, 1.65465, 1.64893, 1.64635, 1.64358, 1.64455, 1.64433, 1.63625, 1.66557, 1.64884, 1.64994, 1.63822, 1.63648, 1.63587, 1.62957, 1.61304, 1.64012, 1.652, 1.65111, 1.6627, 1.70155, 1.7276, 1.76384, 1.76171, 1.74509, 1.73998, 1.69363, 1.65501, 1.56769, 1.59349, 1.60071, 1.61082, 1.60072, 1.58984, 1.57609, 1.57373, 1.57197, 1.57044, 1.56799, 1.56792, 1.56475, 1.5641, 1.56089, 1.56563, 1.55759, 1.55775, 1.56954, 1.56802, 1.55536, 1.56859, 1.54153, 1.53709, 1.53376, 1.531, 1.53218, 1.53667, 1.52352, 1.52125, 1.5191, 1.51904, 1.51311, 1.51314, 1.51315, 1.5105, 1.50928, 1.50695, 1.5058, 1.50626, 1.50248, 1.50098, 1.49807, 1.49584, 1.49388, 1.49291, 1.49005, 1.48867, 1.48707, 1.48684, 1.4922, 1.48664, 1.47241, 1.46902, 1.56238, 1.5815, 1.63325, 1.6653, 1.69374, 1.69606, 1.6842, 1.64913, 1.58961, 1.50895, 1.44106, 1.46768, 1.46953, 1.45922, 1.46182, 1.46093, 1.44973, 1.44711, 1.44346, 1.44093, 1.43886, 1.43439, 1.43085, 1.42944, 1.42739, 1.42513, 1.4229, 1.42239, 1.42146, 1.42002, 1.41939, 1.41924, 1.41849, 1.41978, 1.41401, 1.41348, 1.41205, 1.41008, 1.40937, 1.41098, 1.40852, 1.40604, 1.40328, 1.40268, 1.40156, 1.39977, 1.39889, 1.39564, 1.39174, 1.38915, 1.3884, 1.38638, 1.38113, 1.3809, 1.37785, 1.37736, 1.37448, 1.37396, 1.37318, 1.37461, 1.37135, 1.3685, 1.36923, 1.36501, 1.36201, 1.36343, 1.36177, 1.36131, 1.36146, 1.35936, 1.35723, 1.35747, 1.35727, 1.36799, 1.36773, 1.37417, 1.35871, 1.3496, 1.38894, 1.4057, 1.41856, 1.43051, 1.43364, 1.43463, 1.44761, 1.45166, 1.48118, 1.41993, 1.38521, 1.34697, 1.31225, 1.35413, 1.35638, 1.34804, 1.33502, 1.325, 1.32006, 1.31985, 1.31862, 1.3164, 1.31949, 1.31597, 1.31301, 1.31293, 1.31085, 1.30849, 1.31356, 1.31235
1.66214, 1.65896, 1.66025, 1.6544, 1.65311, 1.65863, 1.64902, 1.65712, 1.65364, 1.66856, 1.65862, 1.65804, 1.63812, 1.64548, 1.63976, 1.63764, 1.61601, 1.63002, 1.62788, 1.66233, 1.74647, 1.75659, 1.6352, 1.65826, 1.76521, 1.75191, 1.74669, 1.70504, 1.62636, 1.59704, 1.58212, 1.60303, 1.61003, 1.59814, 1.59002, 1.57751, 1.57681, 1.57408, 1.56945, 1.57635, 1.56733, 1.5654, 1.56343, 1.56147, 1.56374, 1.55903, 1.56071, 1.56507, 1.55965, 1.58512, 1.56372, 1.55757, 1.54171, 1.53909, 1.53537, 1.53438, 1.53057, 1.52778, 1.52398, 1.5221, 1.52102, 1.51958, 1.51872, 1.51619, 1.51414, 1.51984, 1.50989, 1.52365, 1.506, 1.50434, 1.5037, 1.50055, 1.49886, 1.49719, 1.49554, 1.49366, 1.49089, 1.48968, 1.48856, 1.48961, 1.48981, 1.48002, 1.47244, 1.51712, 1.56493, 1.62062, 1.64849, 1.66203, 1.67503, 1.64225, 1.5919, 1.56122, 1.51539, 1.44407, 1.43379, 1.46641, 1.46785, 1.46039, 1.45896, 1.45508, 1.45002, 1.44515, 1.4522, 1.44151, 1.43732, 1.44737, 1.43182, 1.43288, 1.42842, 1.42505, 1.42424, 1.42329, 1.42067, 1.41949, 1.4187, 1.42002, 1.41878, 1.41555, 1.41366, 1.41076, 1.41263, 1.41027, 1.40918, 1.40763, 1.40564, 1.40508, 1.40575, 1.40341, 1.40248, 1.40752, 1.3944, 1.39043, 1.39158, 1.38678, 1.38572, 1.3819, 1.38129, 1.37874, 1.37498, 1.37633, 1.37285, 1.37, 1.36808, 1.36442, 1.3681, 1.36488, 1.36399, 1.36189, 1.36093, 1.36091, 1.35837, 1.36732, 1.35803, 1.35602, 1.35716, 1.35623, 1.36579, 1.37057, 1.3706, 1.36653, 1.3476, 1.34831, 1.41264, 1.41015, 1.43063, 1.44184, 1.44105, 1.44788, 1.45586, 1.44831, 1.41529, 1.41714, 1.38674, 1.32962, 1.32003, 1.34421, 1.33146, 1.33645, 1.32369, 1.32241, 1.31874, 1.31864, 1.31929, 1.31977, 1.31943, 1.31408, 1.3119, 1.31009, 1.31898, 1.31354, 1.32686
1.66142, 1.65936, 1.65837, 1.65538, 1.65321, 1.64866, 1.64656, 1.64847, 1.66249, 1.67077, 1.65856, 1.64786, 1.63468, 1.64985, 1.64833, 1.63145, 1.61435, 1.6234, 1.71238, 1.71325, 1.693, 1.78973, 1.76293, 1.76262, 1.77059, 1.79664, 1.75818, 1.70506, 1.64188, 1.6065, 1.59295, 1.60155, 1.60993, 1.59538, 1.5786, 1.57941, 1.57496, 1.57248, 1.57589, 1.56921, 1.56626, 1.56501, 1.56197, 1.56219, 1.55985, 1.55753, 1.55554, 1.55504, 1.55283, 1.56933, 1.58014, 1.55853, 1.55081, 1.54877, 1.53738, 1.53536, 1.53356, 1.53068, 1.52971, 1.52505, 1.5226, 1.5207, 1.51955, 1.52001, 1.51651, 1.51552, 1.51213, 1.50929, 1.50893, 1.50687, 1.50505, 1.50252, 1.50238, 1.49787, 1.49725, 1.49718, 1.50576, 1.50157, 1.49942, 1.50307, 1.49499, 1.46749, 1.4668, 1.51671, 1.54019, 1.61141, 1.65057, 1.6678, 1.68156, 1.67516, 1.65239, 1.5922, 1.51901, 1.4409, 1.4447, 1.46611, 1.4693, 1.46856, 1.46818, 1.46419, 1.45219, 1.44921, 1.45472, 1.45775, 1.44071, 1.43857, 1.43701, 1.43295, 1.43137, 1.42896, 1.42537, 1.42559, 1.4242, 1.42397, 1.42313, 1.42152, 1.41953, 1.41897, 1.41673, 1.41467, 1.41317, 1.41279, 1.41365, 1.41156, 1.40923, 1.4089, 1.40927, 1.40588, 1.40414, 1.40146, 1.39975, 1.3958, 1.39475, 1.39223, 1.38922, 1.38794, 1.38398, 1.38283, 1.37958, 1.37873, 1.37575, 1.37405, 1.37369, 1.36943, 1.36827, 1.36672, 1.36577, 1.36383, 1.36115, 1.36125, 1.3609, 1.3608, 1.36281, 1.37415, 1.35987, 1.36094, 1.37483, 1.37507, 1.36544, 1.35688, 1.37184, 1.37201, 1.41659, 1.42613, 1.43765, 1.45763, 1.48229, 1.4507, 1.46025, 1.46216, 1.43334, 1.45119, 1.37834, 1.32413, 1.34723, 1.35784, 1.34424, 1.33064, 1.32758, 1.32711, 1.32861, 1.33036, 1.31962, 1.31795, 1.32538, 1.31521, 1.31647, 1.31329, 1.31549, 1.31646, 1.3201
1.66402, 1.66174, 1.65778, 1.65548, 1.65459, 1.65214, 1.65349, 1.66531, 1.65154, 1.65934, 1.65982, 1.67034, 1.65121, 1.64654, 1.63787, 1.62726, 1.6172, 1.61727, 1.66582, 1.65457, 1.70029, 1.74518, 1.76399, 1.78644, 1.78921, 1.78877, 1.76221, 1.7332, 1.6727, 1.5919, 1.58922, 1.59579, 1.59686, 1.59145, 1.59573, 1.5776, 1.57454, 1.5758, 1.57204, 1.57194, 1.57092, 1.56916, 1.56564, 1.56429, 1.5612, 1.55991, 1.56778, 1.60427, 1.59974, 1.58968, 1.58795, 1.56413, 1.54793, 1.54238, 1.54037, 1.53834, 1.53553, 1.53339, 1.53187, 1.53032, 1.53172, 1.52465, 1.52525, 1.5235, 1.52028, 1.51953, 1.51537, 1.51351, 1.51377, 1.5092, 1.50843, 1.50518, 1.50036, 1.49873, 1.49827, 1.51245, 1.49796, 1.50248, 1.5025, 1.51689, 1.49625, 1.48797, 1.46857, 1.52656, 1.55367, 1.62654, 1.6791, 1.66384, 1.68674, 1.68601, 1.64308, 1.55729, 1.50911, 1.4496, 1.46462, 1.4642, 1.47469, 1.46563, 1.46249, 1.46087, 1.45736, 1.45461, 1.45281, 1.44997, 1.44748, 1.44662, 1.4432, 1.43857, 1.43534, 1.433, 1.43208, 1.42908, 1.42794, 1.42778, 1.42637, 1.42535, 1.42335, 1.41979, 1.41854, 1.41858, 1.41578, 1.4127, 1.41213, 1.41274, 1.41029, 1.41188, 1.40862, 1.40576, 1.40425, 1.40261, 1.39822, 1.39858, 1.39649, 1.39556, 1.39203, 1.39047, 1.38949, 1.38628, 1.38419, 1.3816, 1.37843, 1.37662, 1.37468, 1.37576, 1.37381, 1.37458, 1.37079, 1.36775, 1.36725, 1.36492, 1.36551, 1.36417, 1.36427, 1.37426, 1.36527, 1.36651, 1.38226, 1.37126, 1.38475, 1.37804, 1.34414, 1.36132, 1.40972, 1.42434, 1.42469, 1.45218, 1.46546, 1.45874, 1.45731, 1.44729, 1.38567, 1.40319, 1.35795, 1.33153, 1.33842, 1.33361, 1.34384, 1.3338, 1.33671, 1.3265, 1.3236, 1.32324, 1.32042, 1.32719, 1.31584, 1.32021, 1.31673, 1.31871, 1.31749, 1.31644, 1.31775
1.66571, 1.66336, 1.65958, 1.65765, 1.6554, 1.66908, 1.64872, 1.65369, 1.65753, 1.6586, 1.67136, 1.67343, 1.65804, 1.64122, 1.63952, 1.64458, 1.63443, 1.63394, 1.64568, 1.6577, 1.67172, 1.71099, 1.74898, 1.82801, 1.82035, 1.83048, 1.79157, 1.73444, 1.62381, 1.59347, 1.58305, 1.60101, 1.59717, 1.60361, 1.6068, 1.58474, 1.5826, 1.58013, 1.57692, 1.57564, 1.58177, 1.57225, 1.57666, 1.56687, 1.56672, 1.56342, 1.56399, 1.56819, 1.56786, 1.57111, 1.55888, 1.56474, 1.5715, 1.56444, 1.55182, 1.54081, 1.539, 1.53711, 1.54095, 1.53635, 1.53209, 1.53153, 1.52788, 1.52857, 1.53619, 1.52204, 1.523, 1.52012, 1.5134, 1.51194, 1.51026, 1.50919, 1.50769, 1.51572, 1.51033, 1.50488, 1.50768, 1.50449, 1.50707, 1.50731, 1.50785, 1.48565, 1.46976, 1.5026, 1.57515, 1.61774, 1.71094, 1.68403, 1.66144, 1.65565, 1.62476, 1.57316, 1.52349, 1.47156, 1.44692, 1.48314, 1.47191, 1.46593, 1.46563, 1.46208, 1.46809, 1.45726, 1.45494, 1.45374, 1.45176, 1.44998, 1.44767, 1.44438, 1.44129, 1.45475, 1.43764, 1.43583, 1.43601, 1.434, 1.43184, 1.42981, 1.42865, 1.42616, 1.42367, 1.42212, 1.4202, 1.41822, 1.41932, 1.41497, 1.4092, 1.40888, 1.40863, 1.40641, 1.40567, 1.40406, 1.33035, 1.40231, 1.39886, 1.39729, 1.396, 1.39508, 1.39032, 1.38809, 1.38705, 1.38803, 1.38272, 1.3853, 1.3804, 1.37542, 1.37842, 1.37398, 1.37353, 1.37095, 1.37072, 1.36858, 1.36839, 1.36919, 1.36968, 1.3702, 1.3697, 1.37437, 1.37089, 1.37071, 1.39504, 1.36007, 1.3971, 1.36789, 1.42336, 1.46752, 1.46483, 1.46035, 1.46006, 1.45549, 1.46479, 1.45773, 1.44847, 1.4215, 1.40984, 1.34996, 1.31632, 1.34523, 1.35464, 1.33127, 1.33758, 1.33048, 1.32749, 1.32806, 1.32489, 1.32085, 1.32184, 1.31937, 1.3208, 1.34406, 1.32078, 1.31878, 1.31643
1.66414, 1.66274, 1.65859, 1.65769, 1.65931, 1.65017, 1.66171, 1.6478, 1.64435, 1.65857, 1.66221, 1.66817, 1.66749, 1.65884, 1.65752, 1.63962, 1.61292, 1.63829, 1.67709, 1.70937, 1.7273, 1.77888, 1.79861, 1.79998, 1.78531, 1.77915, 1.76842, 1.70734, 1.64388, 1.58032, 1.60308, 1.59982, 1.6034, 1.59087, 1.58964, 1.58606, 1.58536, 1.58031, 1.57985, 1.57704, 1.57465, 1.57286, 1.57037, 1.56816, 1.56729, 1.5644, 1.56397, 1.56086, 1.55953, 1.55787, 1.5574, 1.57228, 1.56513, 1.55411, 1.55428, 1.5401, 1.53788, 1.53673, 1.53582, 1.53463, 1.5335, 1.53004, 1.52367, 1.52608, 1.52431, 1.52247, 1.52023, 1.51442, 1.5136, 1.51125, 1.51035, 1.50896, 1.50758, 1.50451, 1.50316, 1.50228, 1.51906, 1.49972, 1.5084, 1.51552, 1.50623, 1.4904, 1.48185, 1.51691, 1.5568, 1.59691, 1.64333, 1.6616, 1.67961, 1.67653, 1.66387, 1.58528, 1.54333, 1.48244, 1.45146, 1.46217, 1.47882, 1.47556, 1.46736, 1.46064, 1.46066, 1.46865, 1.45255, 1.44887, 1.45032, 1.44845, 1.47951, 1.44197, 1.43985, 1.43956, 1.43855, 1.43666, 1.438, 1.43494, 1.43325, 1.43282, 1.42982, 1.42783, 1.42553, 1.42404, 1.42269, 1.4205, 1.41759, 1.41595, 1.3224, 1.41304, 1.41582, 1.41045, 1.40894, 1.40766, 1.40633, 1.40502, 1.40231, 1.40496, 1.39615, 1.39502, 1.39219, 1.39149, 1.39024, 1.39502, 1.38561, 1.38705, 1.38135, 1.3798, 1.37919, 1.37897, 1.37782, 1.38159, 1.38138, 1.37327, 1.37406, 1.37441, 1.37313, 1.38198, 1.37174, 1.37352, 1.38274, 1.37665, 1.38291, 1.36784, 1.35067, 1.38705, 1.40538, 1.43199, 1.46011, 1.46164, 1.46237, 1.47273, 1.46858, 1.45725, 1.47179, 1.49897, 1.39566, 1.36819, 1.34719, 1.33993, 1.34161, 1.33406, 1.33021, 1.33026, 1.32993, 1.33298, 1.33101, 1.32967, 1.32717, 1.32531, 1.32408, 1.32364, 1.32637, 1.32525, 1.32205
1.66252, 1.67357, 1.65977, 1.65384, 1.64792, 1.64788, 1.64534, 1.64352, 1.6557, 1.64016, 1.64762, 1.66253, 1.66324, 1.65568, 1.62874, 1.64491, 1.62809, 1.61212, 1.66634, 1.70991, 1.7162, 1.71777, 1.80282, 1.81106, 1.81641, 1.83426, 1.77797, 1.77243, 1.69035, 1.59868, 1.59074, 1.5966, 1.6072, 1.60275, 1.59283, 1.59812, 1.5829, 1.58013, 1.5788, 1.57547, 1.58626, 1.57021, 1.56988, 1.56661, 1.56479, 1.56251, 1.56027, 1.56817, 1.56418, 1.55906, 1.56072, 1.56437, 1.55894, 1.55942, 1.54232, 1.54701, 1.53863, 1.53595, 1.53486, 1.53231, 1.53231, 1.53043, 1.52984, 1.52673, 1.52389, 1.52068, 1.51804, 1.51433, 1.51119, 1.5081, 1.50365, 1.50537, 1.50107, 1.50025, 1.49857, 1.49766, 1.49563, 1.4954, 1.49673, 1.49748, 1.49667, 1.49267, 1.50318, 1.50448, 1.60221, 1.6123, 1.64053, 1.65966, 1.67623, 1.67929, 1.63901, 1.64198, 1.50943, 1.50254, 1.43864, 1.49602, 1.47887, 1.4744, 1.45582, 1.4683, 1.46811, 1.44896, 1.44731, 1.44535, 1.44426, 1.44046, 1.43804, 1.43845, 1.43575, 1.43533, 1.44677, 1.43478, 1.43079, 1.42969, 1.42741, 1.42664, 1.42388, 1.42938, 1.42314, 1.42313, 1.4197, 1.42042, 1.42021, 1.41579, 1.41659, 1.41556, 1.41053, 1.41193, 1.41163, 1.40697, 1.40618, 1.40492, 1.40373, 1.40018, 1.41013, 1.39813, 1.39746, 1.39435, 1.39313, 1.3913, 1.39061, 1.38843, 1.38564, 1.38346, 1.37916, 1.37825, 1.37999, 1.39545, 1.3742, 1.375, 1.37425, 1.37273, 1.37082, 1.37114, 1.37101, 1.36855, 1.37055, 1.37995, 1.3726, 1.36259, 1.3517, 1.36865, 1.41581, 1.44817, 1.47507, 1.46618, 1.46956, 1.47474, 1.47754, 1.46832, 1.46202, 1.42322, 1.39981, 1.35212, 1.33603, 1.33966, 1.36423, 1.33574, 1.33778, 1.33164, 1.33149, 1.33331, 1.34163, 1.33086, 1.32831, 1.33013, 1.32501, 1.32603, 1.32471, 1.32203, 1.32087
1.66538, 1.664, 1.66156, 1.65832, 1.65276, 1.65211, 1.64878, 1.65379, 1.65594, 1.64948, 1.64112, 1.64744, 1.66858, 1.66021, 1.66134, 1.62838, 1.61811, 1.61666, 1.64529, 1.66653, 1.6941, 1.75195, 1.79575, 1.82518, 1.8261, 1.83106, 1.78663, 1.74182, 1.67889, 1.62976, 1.57366, 1.59934, 1.59903, 1.6036, 1.58325, 1.59577, 1.58073, 1.59177, 1.58121, 1.56749, 1.56939, 1.56885, 1.56607, 1.5648, 1.56222, 1.56195, 1.56119, 1.56067, 1.55371, 1.55481, 1.55882, 1.56193, 1.56916, 1.56089, 1.57099, 1.54428, 1.54436, 1.53389, 1.53168, 1.53094, 1.53734, 1.53149, 1.54798, 1.52315, 1.52083, 1.51686, 1.51586, 1.51249, 1.50979, 1.50712, 1.50643, 1.50011, 1.49675, 1.49755, 1.50628, 1.5057, 1.49122, 1.49166, 1.49253, 1.50931, 1.50361, 1.48912, 1.45286, 1.48306, 1.56748, 1.62018, 1.6249, 1.67631, 1.69243, 1.6887, 1.61479, 1.61608, 1.50829, 1.48986, 1.45011, 1.45224, 1.46795, 1.46528, 1.46845, 1.45266, 1.44868, 1.45071, 1.45073, 1.44777, 1.44019, 1.43774, 1.43513, 1.43371, 1.43251, 1.43129, 1.43021, 1.43029, 1.43031, 1.42799, 1.42616, 1.42222, 1.41988, 1.41789, 1.41972, 1.41956, 1.42199, 1.41934, 1.41717, 1.41885, 1.41477, 1.41315, 1.40906, 1.40908, 1.40927, 1.40784, 1.40692, 1.43754, 1.40988, 1.40447, 1.40176, 1.40166, 1.39875, 1.39728, 1.39763, 1.39674, 1.39025, 1.39074, 1.38603, 1.38481, 1.38233, 1.37875, 1.37832, 1.37956, 1.37792, 1.37461, 1.3748, 1.37873, 1.37863, 1.38641, 1.37751, 1.37471, 1.3712, 1.36831, 1.38114, 1.37118, 1.33982, 1.38162, 1.38071, 1.42069, 1.44852, 1.46488, 1.47097, 1.48193, 1.48178, 1.47392, 1.47126, 1.49878, 1.42164, 1.36077, 1.32987, 1.34306, 1.34384, 1.34968, 1.3386, 1.33695, 1.341, 1.33413, 1.33372, 1.33103, 1.32754, 1.32816, 1.32815, 1.32322, 1.32149, 1.31889, 1.31868
1.66637, 1.66199, 1.65997, 1.65737, 1.65431, 1.65558, 1.6473, 1.64532, 1.64447, 1.64787, 1.63871, 1.64204, 1.66063, 1.65732, 1.65724, 1.63007, 1.61514, 1.62763, 1.63058, 1.69231, 1.6937, 1.75446, 1.83148, 1.82013, 1.82165, 1.82505, 1.79141, 1.73825, 1.67556, 1.60532, 1.58086, 1.60142, 1.60556, 1.58649, 1.58887, 1.57861, 1.59412, 1.57518, 1.57434, 1.57342, 1.57205, 1.56739, 1.56506, 1.56254, 1.55988, 1.55862, 1.55779, 1.55477, 1.55155, 1.54878, 1.54458, 1.54252, 1.54734, 1.56868, 1.56272, 1.5407, 1.53628, 1.52758, 1.52755, 1.54699, 1.52946, 1.53011, 1.52871, 1.52993, 1.51296, 1.51695, 1.51255, 1.50962, 1.50621, 1.49963, 1.49556, 1.49221, 1.48924, 1.50522, 1.4996, 1.48766, 1.49562, 1.51066, 1.48961, 1.50177, 1.49196, 1.50569, 1.46902, 1.5066, 1.52747, 1.60694, 1.63355, 1.66221, 1.66506, 1.61206, 1.63274, 1.59025, 1.52202, 1.47857, 1.44691, 1.46709, 1.48511, 1.45818, 1.46093, 1.45591, 1.45244, 1.45014, 1.4454, 1.43712, 1.4364, 1.43471, 1.43371, 1.43273, 1.4327, 1.43254, 1.43031, 1.42958, 1.42627, 1.42412, 1.42167, 1.41936, 1.41715, 1.41739, 1.41641, 1.41818, 1.41899, 1.4171, 1.41528, 1.41346, 1.4123, 1.41004, 1.40815, 1.40844, 1.40581, 1.40398, 1.403, 1.40361, 1.40186, 1.40966, 1.399, 1.39802, 1.39479, 1.39333, 1.3916, 1.39092, 1.38722, 1.38747, 1.38287, 1.37949, 1.37808, 1.37646, 1.37512, 1.37565, 1.37606, 1.36984, 1.37099, 1.37898, 1.37143, 1.36884, 1.37291, 1.36496, 1.36255, 1.36707, 1.37572, 1.36422, 1.35053, 1.37165, 1.42637, 1.47138, 1.50505, 1.49742, 1.50366, 1.5279, 1.50715, 1.50889, 1.46661, 1.46361, 1.44498, 1.4193, 1.31594, 1.35677, 1.35376, 1.34102, 1.3361, 1.33658, 1.33262, 1.34044, 1.34788, 1.32851, 1.32609, 1.32607, 1.32448, 1.323, 1.32026, 1.31965, 1.31712
1.67297, 1.6693, 1.66926, 1.66677, 1.66533, 1.66243, 1.65974, 1.65868, 1.65803, 1.66568, 1.65258, 1.65135, 1.65405, 1.66513, 1.66787, 1.66192, 1.63656, 1.62045, 1.62246, 1.64806, 1.68743, 1.76513, 1.78954, 1.80877, 1.825, 1.84135, 1.81268, 1.76463, 1.64867, 1.58928, 1.61039, 1.60417, 1.61618, 1.59333, 1.59216, 1.58983, 1.58536, 1.57984, 1.57845, 1.57844, 1.59901, 1.57582, 1.61352, 1.57113, 1.57197, 1.57173, 1.56964, 1.56448, 1.55782, 1.55471, 1.55392, 1.55693, 1.55845, 1.53951, 1.55418, 1.55753, 1.5522, 1.53809, 1.53776, 1.53816, 1.54776, 1.53514, 1.53328, 1.53176, 1.5284, 1.5251, 1.52125, 1.5147, 1.51428, 1.50627, 1.51404, 1.50445, 1.50095, 1.50336, 1.49215, 1.49097, 1.49328, 1.49623, 1.50131, 1.52035, 1.51972, 1.51068, 1.49282, 1.51702, 1.56811, 1.61445, 1.66711, 1.65042, 1.65591, 1.66175, 1.62522, 1.63026, 1.5515, 1.49105, 1.44482, 1.43947, 1.47495, 1.46306, 1.47213, 1.47214, 1.45465, 1.45736, 1.45735, 1.4466, 1.44819, 1.44296, 1.44232, 1.44009, 1.43816, 1.43664, 1.43413, 1.43116, 1.43021, 1.42807, 1.4244, 1.4236, 1.41988, 1.41951, 1.42018, 1.42264, 1.42313, 1.42272, 1.41985, 1.41838, 1.41614, 1.41443, 1.41192, 1.4103, 1.41239, 1.40907, 1.41645, 1.40608, 1.4027, 1.39965, 1.3964, 1.39471, 1.39405, 1.4007, 1.39194, 1.38974, 1.38715, 1.38842, 1.41226, 1.38378, 1.38047, 1.37926, 1.37867, 1.38072, 1.37622, 1.3728, 1.37275, 1.37952, 1.37278, 1.36849, 1.36863, 1.37915, 1.36676, 1.37454, 1.37529, 1.37824, 1.35333, 1.39309, 1.42389, 1.43463, 1.44966, 1.48255, 1.48834, 1.50821, 1.50383, 1.48994, 1.51647, 1.4754, 1.44102, 1.40533, 1.35722, 1.34786, 1.35881, 1.36485, 1.3481, 1.33656, 1.33493, 1.33308, 1.33323, 1.33697, 1.33029, 1.33103, 1.32823, 1.32355, 1.32298, 1.32334, 1.32096
1.6791, 1.6782, 1.6723, 1.67168, 1.67148, 1.66873, 1.66667, 1.66476, 1.66406, 1.66245, 1.67671, 1.65862, 1.66084, 1.65565, 1.65557, 1.65417, 1.64156, 1.60943, 1.62022, 1.66482, 1.70334, 1.73026, 1.80375, 1.82787, 1.83682, 1.83812, 1.8478, 1.75877, 1.70941, 1.6163, 1.60678, 1.61605, 1.59801, 1.60968, 1.61231, 1.59683, 1.5971, 1.61707, 1.58792, 1.5847, 1.58192, 1.5796, 1.57928, 1.57817, 1.57727, 1.57634, 1.5829, 1.56769, 1.56813, 1.58132, 1.55912, 1.55755, 1.55732, 1.55715, 1.56735, 1.56785, 1.572, 1.54873, 1.54955, 1.54717, 1.54479, 1.53735, 1.52959, 1.53058, 1.53114, 1.53028, 1.52751, 1.52441, 1.52179, 1.52056, 1.51755, 1.5158, 1.51458, 1.51274, 1.51131, 1.516, 1.50796, 1.52297, 1.51086, 1.52155, 1.51738, 1.52457, 1.48643, 1.51201, 1.57574, 1.58541, 1.62161, 1.64816, 1.64872, 1.64078, 1.6137, 1.6192, 1.57544, 1.4995, 1.46233, 1.45778, 1.48524, 1.48632, 1.47293, 1.49635, 1.48125, 1.46876, 1.46905, 1.45818, 1.46293, 1.45414, 1.45595, 1.45619, 1.44773, 1.44732, 1.44428, 1.44133, 1.4371, 1.43381, 1.43016, 1.42967, 1.42916, 1.42956, 1.43262, 1.43357, 1.43585, 1.43353, 1.43049, 1.42527, 1.42202, 1.41997, 1.41926, 1.41919, 1.41912, 1.41786, 1.41589, 1.41433, 1.41304, 1.4121, 1.4058, 1.40566, 1.40004, 1.4023, 1.40015, 1.39869, 1.3985, 1.39859, 1.39487, 1.39344, 1.38849, 1.38778, 1.38718, 1.38799, 1.38503, 1.38458, 1.37698, 1.37774, 1.37751, 1.37717, 1.3771, 1.3756, 1.38611, 1.38006, 1.37613, 1.37159, 1.36659, 1.38572, 1.40243, 1.44533, 1.45737, 1.48225, 1.48942, 1.53712, 1.50802, 1.51762, 1.50899, 1.45672, 1.44039, 1.38149, 1.33873, 1.36494, 1.35157, 1.35771, 1.35642, 1.3397, 1.33652, 1.33893, 1.34091, 1.34011, 1.34145, 1.33965, 1.33436, 1.33263, 1.3306, 1.33184, 1.33225
1.67796, 1.66191, 1.65653, 1.6519, 1.65164, 1.66994, 1.64855, 1.64993, 1.65781, 1.65611, 1.65724, 1.66468, 1.64704, 1.64791, 1.64215, 1.64338, 1.64534, 1.61767, 1.66175, 1.69053, 1.70949, 1.72145, 1.79291, 1.82284, 1.84021, 1.84293, 1.86313, 1.77916, 1.67501, 1.60274, 1.58891, 1.60273, 1.60009, 1.5962, 1.59146, 1.59034, 1.58675, 1.58964, 1.57273, 1.56544, 1.55913, 1.56048, 1.56797, 1.57012, 1.57104, 1.56553, 1.56066, 1.55258, 1.55433, 1.55064, 1.55453, 1.55545, 1.55376, 1.5617, 1.55518, 1.56082, 1.5682, 1.56198, 1.55482, 1.54003, 1.53209, 1.53372, 1.52775, 1.52865, 1.52776, 1.52605, 1.52647, 1.52139, 1.52142, 1.51462, 1.50867, 1.50896, 1.52666, 1.50956, 1.50911, 1.51636, 1.52009, 1.50645, 1.51015, 1.52259, 1.51117, 1.5069, 1.46907, 1.48837, 1.55674, 1.59249, 1.63069, 1.65086, 1.6594, 1.66742, 1.62123, 1.59986, 1.5749, 1.50019, 1.46493, 1.44741, 1.46857, 1.47521, 1.46894, 1.48327, 1.4718, 1.46503, 1.46695, 1.46481, 1.45916, 1.45445, 1.45477, 1.45955, 1.46178, 1.44908, 1.44836, 1.44325, 1.43799, 1.43489, 1.4274, 1.42931, 1.423, 1.42719, 1.43204, 1.43206, 1.43076, 1.42587, 1.42291, 1.41689, 1.41244, 1.40955, 1.41936, 1.41216, 1.41179, 1.41073, 1.41028, 1.40692, 1.4053, 1.40352, 1.402, 1.40172, 1.4008, 1.39638, 1.39254, 1.38954, 1.38944, 1.38935, 1.3884, 1.38802, 1.38528, 1.38495, 1.38162, 1.37833, 1.37714, 1.3736, 1.37161, 1.37008, 1.37211, 1.39544, 1.38852, 1.38937, 1.37109, 1.38827, 1.37484, 1.38653, 1.34981, 1.37602, 1.41619, 1.48958, 1.49919, 1.51643, 1.53516, 1.51995, 1.48561, 1.51664, 1.54347, 1.45663, 1.43305, 1.38486, 1.33975, 1.35126, 1.3541, 1.3518, 1.33819, 1.3403, 1.34127, 1.33825, 1.33931, 1.34436, 1.33297, 1.33264, 1.32759, 1.32419, 1.35737, 1.31992, 1.31945
1.67271, 1.66452, 1.65518, 1.67961, 1.66525, 1.65711, 1.6658, 1.65134, 1.65606, 1.65769, 1.65668, 1.66614, 1.64059, 1.6375, 1.63105, 1.6465, 1.62667, 1.60533, 1.61786, 1.6648, 1.6827, 1.74358, 1.76892, 1.81627, 1.85582, 1.87168, 1.89751, 1.80735, 1.72367, 1.62466, 1.60619, 1.60751, 1.61066, 1.60317, 1.59925, 1.6068, 1.59476, 1.59258, 1.59281, 1.56461, 1.57828, 1.55981, 1.56831, 1.56954, 1.57214, 1.57145, 1.55974, 1.55417, 1.54475, 1.54531, 1.54439, 1.54552, 1.54506, 1.54373, 1.55613, 1.55116, 1.55712, 1.55185, 1.5526, 1.54102, 1.53313, 1.53441, 1.53495, 1.534, 1.53151, 1.52968, 1.52702, 1.52265, 1.51463, 1.50768, 1.50378, 1.50302, 1.51676, 1.51016, 1.5097, 1.50301, 1.49787, 1.49634, 1.50285, 1.50736, 1.49887, 1.49363, 1.47616, 1.47441, 1.57184, 1.58807, 1.60993, 1.62085, 1.63886, 1.64001, 1.62986, 1.61184, 1.57063, 1.51741, 1.46546, 1.43792, 1.46891, 1.46569, 1.4618, 1.4891, 1.48836, 1.47458, 1.47227, 1.45407, 1.45414, 1.4558, 1.45607, 1.45106, 1.44652, 1.43518, 1.43401, 1.43322, 1.42698, 1.42149, 1.41638, 1.41427, 1.4132, 1.41758, 1.42679, 1.43186, 1.43158, 1.4255, 1.41461, 1.40996, 1.40191, 1.39686, 1.3944, 1.39368, 1.39494, 1.39536, 1.39414, 1.39316, 1.39152, 1.38862, 1.38666, 1.38754, 1.38584, 1.38098, 1.37391, 1.37239, 1.3717, 1.37219, 1.37414, 1.37413, 1.38004, 1.38906, 1.38351, 1.38097, 1.38488, 1.39436, 1.36473, 1.35775, 1.35662, 1.35676, 1.35752, 1.35754, 1.35836, 1.37254, 1.37116, 1.38507, 1.34515, 1.34534, 1.39109, 1.46116, 1.47459, 1.52354, 1.53106, 1.50728, 1.52256, 1.52412, 1.53004, 1.46592, 1.3969, 1.39286, 1.29642, 1.35087, 1.348, 1.3606, 1.34071, 1.3383, 1.33866, 1.3385, 1.3345, 1.33374, 1.32478, 1.31123, 1.30867, 1.31602, 1.30708, 1.30516, 1.30612
1.67642, 1.69668, 1.67083, 1.67117, 1.66843, 1.66818, 1.66638, 1.669, 1.67371, 1.66899, 1.67384, 1.65752, 1.65366, 1.65777, 1.64179, 1.64236, 1.64001, 1.6618, 1.6147, 1.68203, 1.70663, 1.75759, 1.80265, 1.89088, 1.88515, 1.88806, 1.87963, 1.80636, 1.72666, 1.65495, 1.58959, 1.63414, 1.63502, 1.61103, 1.60783, 1.60649, 1.60165, 1.60062, 1.58934, 1.60242, 1.58529, 1.6078, 1.58, 1.57818, 1.57826, 1.60902, 1.57393, 1.56796, 1.56595, 1.56485, 1.58143, 1.57504, 1.57521, 1.55867, 1.56491, 1.57119, 1.56561, 1.58893, 1.58004, 1.555, 1.55487, 1.54342, 1.54011, 1.53958, 1.53387, 1.53293, 1.5276, 1.53422, 1.52695, 1.52615, 1.5251, 1.54837, 1.52162, 1.53498, 1.51705, 1.51468, 1.51137, 1.51067, 1.51675, 1.51207, 1.51921, 1.50758, 1.50699, 1.55463, 1.51293, 1.6004, 1.62838, 1.668, 1.66307, 1.66376, 1.64857, 1.64724, 1.57899, 1.50166, 1.46832, 1.44728, 1.46113, 1.4735, 1.48972, 1.49216, 1.49595, 1.4917, 1.46883, 1.47436, 1.47588, 1.46411, 1.46022, 1.46067, 1.45518, 1.45412, 1.44359, 1.4398, 1.43844, 1.43475, 1.43137, 1.45717, 1.43478, 1.43419, 1.44303, 1.43647, 1.43537, 1.43424, 1.43032, 1.42693, 1.4211, 1.42762, 1.42299, 1.41846, 1.41296, 1.40706, 1.40613, 1.40372, 1.40903, 1.40051, 1.40279, 1.39988, 1.40637, 1.39673, 1.39266, 1.39204, 1.39315, 1.39574, 1.39261, 1.39217, 1.39455, 1.39511, 1.39493, 1.39505, 1.39203, 1.38372, 1.38253, 1.39149, 1.37479, 1.37643, 1.38638, 1.37191, 1.39104, 1.38277, 1.37905, 1.37908, 1.38203, 1.37135, 1.39531, 1.39907, 1.42508, 1.4484, 1.51758, 1.52327, 1.5167, 1.51957, 1.52333, 1.43435, 1.42989, 1.38498, 1.33168, 1.35648, 1.36421, 1.35685, 1.35809, 1.34882, 1.34355, 1.34181, 1.34287, 1.33009, 1.32783, 1.32928, 1.33266, 1.33042, 1.3296, 1.32967, 1.32717
1.66842, 1.66627, 1.66565, 1.66241, 1.66181, 1.65935, 1.65758, 1.6543, 1.65186, 1.6538, 1.66233, 1.64401, 1.65205, 1.65358, 1.64734, 1.65277, 1.62407, 1.63395, 1.62825, 1.66287, 1.72701, 1.75768, 1.81373, 1.82157, 1.85975, 1.87366, 1.8559, 1.79619, 1.69238, 1.6172, 1.58575, 1.60913, 1.60219, 1.59971, 1.59543, 1.592, 1.60267, 1.58644, 1.59907, 1.58064, 1.59908, 1.57439, 1.57263, 1.5751, 1.56999, 1.56935, 1.5673, 1.56577, 1.56451, 1.56103, 1.558, 1.56249, 1.57066, 1.55237, 1.55099, 1.54867, 1.5646, 1.55494, 1.57178, 1.55457, 1.54774, 1.54695, 1.54149, 1.53406, 1.54072, 1.52355, 1.52128, 1.5208, 1.51984, 1.51892, 1.5163, 1.51666, 1.53044, 1.52282, 1.51651, 1.50648, 1.50373, 1.50179, 1.51241, 1.51993, 1.50922, 1.50529, 1.47656, 1.55145, 1.52589, 1.59051, 1.61785, 1.63828, 1.64421, 1.63501, 1.63057, 1.61612, 1.59533, 1.54537, 1.51382, 1.45752, 1.47118, 1.47057, 1.47154, 1.47481, 1.48994, 1.49308, 1.46733, 1.46364, 1.45745, 1.45202, 1.46279, 1.45186, 1.45467, 1.45747, 1.43702, 1.4358, 1.43491, 1.43545, 1.44251, 1.42999, 1.4374, 1.4305, 1.43678, 1.42742, 1.42436, 1.43043, 1.42151, 1.41773, 1.41853, 1.44887, 1.41788, 1.41652, 1.41637, 1.41326, 1.41241, 1.41136, 1.42167, 1.4084, 1.40418, 1.40335, 1.40003, 1.39615, 1.4052, 1.39343, 1.39165, 1.39259, 1.38839, 1.38802, 1.38598, 1.38532, 1.38463, 1.38547, 1.38264, 1.38163, 1.39538, 1.37901, 1.37801, 1.38921, 1.38484, 1.38314, 1.37813, 1.37902, 1.38558, 1.37878, 1.37854, 1.35612, 1.38595, 1.43059, 1.43355, 1.4645, 1.48522, 1.51317, 1.53311, 1.5238, 1.48621, 1.47772, 1.4615, 1.38929, 1.34306, 1.35158, 1.36374, 1.3632, 1.35522, 1.34306, 1.34035, 1.33708, 1.35407, 1.34989, 1.33935, 1.32995, 1.33223, 1.32922, 1.32984, 1.32937, 1.32811
1.66306, 1.66059, 1.65833, 1.66263, 1.65642, 1.65611, 1.65241, 1.6572, 1.65282, 1.64601, 1.64242, 1.63927, 1.63729, 1.63165, 1.64328, 1.63557, 1.64527, 1.6304, 1.61826, 1.65515, 1.69248, 1.72688, 1.76471, 1.79535, 1.82357, 1.83499, 1.81368, 1.76632, 1.7391, 1.64236, 1.58532, 1.61354, 1.59888, 1.60493, 1.59726, 1.58967, 1.58843, 1.58589, 1.578, 1.57006, 1.57196, 1.56501, 1.56085, 1.5571, 1.5541, 1.55321, 1.55404, 1.55534, 1.56118, 1.55277, 1.54978, 1.54581, 1.54365, 1.54482, 1.54694, 1.54408, 1.54748, 1.53855, 1.55293, 1.56588, 1.54013, 1.53502, 1.52523, 1.53141, 1.53047, 1.51665, 1.51617, 1.51317, 1.51227, 1.51274, 1.50991, 1.50645, 1.51618, 1.50852, 1.51422, 1.49858, 1.49446, 1.49409, 1.49516, 1.5071, 1.4953, 1.5, 1.4752, 1.47873, 1.53774, 1.60962, 1.58566, 1.63411, 1.63358, 1.62338, 1.6152, 1.59544, 1.56841, 1.54213, 1.489, 1.44111, 1.45454, 1.46306, 1.46207, 1.46954, 1.46843, 1.46903, 1.46283, 1.46392, 1.4531, 1.4549, 1.44096, 1.43727, 1.43065, 1.42763, 1.42724, 1.42621, 1.42658, 1.42978, 1.43142, 1.43092, 1.42939, 1.42628, 1.42525, 1.42074, 1.41887, 1.41868, 1.41912, 1.41655, 1.41173, 1.40883, 1.40595, 1.40545, 1.40538, 1.40593, 1.41103, 1.39782, 1.40029, 1.39219, 1.39107, 1.38838, 1.38611, 1.38825, 1.38817, 1.38485, 1.38249, 1.37857, 1.37909, 1.37746, 1.37861, 1.37471, 1.3729, 1.37227, 1.3731, 1.38157, 1.375, 1.37077, 1.36961, 1.37121, 1.37924, 1.37599, 1.36849, 1.36626, 1.37063, 1.37131, 1.35941, 1.36649, 1.40372, 1.38781, 1.44547, 1.50378, 1.48804, 1.50967, 1.52634, 1.53115, 1.50225, 1.49379, 1.44459, 1.36057, 1.32657, 1.34905, 1.35458, 1.34917, 1.33418, 1.34379, 1.33133, 1.32934, 1.32636, 1.32529, 1.32315, 1.32133, 1.32718, 1.32608, 1.33894, 1.3205, 1.31997
1.66315, 1.65951, 1.65916, 1.66166, 1.65645, 1.65312, 1.65073, 1.65525, 1.65067, 1.64711, 1.64211, 1.63709, 1.64909, 1.63476, 1.64049, 1.63456, 1.63116, 1.63709, 1.59981, 1.65118, 1.69696, 1.73735, 1.78071, 1.8019, 1.83674, 1.83761, 1.87134, 1.82107, 1.73992, 1.62711, 1.56433, 1.59677, 1.59593, 1.59521, 1.58304, 1.58432, 1.57629, 1.57513, 1.5736, 1.57259, 1.57757, 1.57877, 1.56534, 1.5649, 1.565, 1.55338, 1.55183, 1.5484, 1.54727, 1.54782, 1.54703, 1.55184, 1.54374, 1.54363, 1.54418, 1.54272, 1.53813, 1.55072, 1.54514, 1.54699, 1.55859, 1.53666, 1.52339, 1.52441, 1.52726, 1.51619, 1.52811, 1.51353, 1.51214, 1.51128, 1.52337, 1.53359, 1.49756, 1.49615, 1.49354, 1.49607, 1.49449, 1.49225, 1.48945, 1.49599, 1.49983, 1.49095, 1.46978, 1.49362, 1.53785, 1.57312, 1.57996, 1.6031, 1.62693, 1.62734, 1.61365, 1.58757, 1.56326, 1.52562, 1.48311, 1.43845, 1.46475, 1.45856, 1.47127, 1.46378, 1.46726, 1.47971, 1.47275, 1.4534, 1.43578, 1.43733, 1.43704, 1.42701, 1.43771, 1.42625, 1.42585, 1.42596, 1.42504, 1.42591, 1.42632, 1.42473, 1.42403, 1.42119, 1.42036, 1.41697, 1.41597, 1.41299, 1.40934, 1.4101, 1.40613, 1.40324, 1.40764, 1.40805, 1.411, 1.41122, 1.40707, 1.42296, 1.4018, 1.38904, 1.38584, 1.40498, 1.38169, 1.38189, 1.37833, 1.37586, 1.37496, 1.37353, 1.37277, 1.37113, 1.37054, 1.36938, 1.37049, 1.36762, 1.36799, 1.37743, 1.36742, 1.36474, 1.36061, 1.35875, 1.35781, 1.35508, 1.3599, 1.37161, 1.37749, 1.36551, 1.37397, 1.33933, 1.38528, 1.39441, 1.42715, 1.41525, 1.42411, 1.515, 1.53468, 1.54449, 1.53075, 1.51016, 1.43497, 1.39533, 1.32301, 1.34323, 1.34686, 1.34018, 1.33201, 1.32673, 1.32301, 1.32953, 1.32048, 1.32224, 1.31978, 1.31961, 1.3175, 1.31861, 1.33006, 1.31531, 1.31573
1.66808, 1.66642, 1.66828, 1.66424, 1.7217, 1.65754, 1.67132, 1.66822, 1.65582, 1.65093, 1.64374, 1.63757, 1.6385, 1.63243, 1.63692, 1.63391, 1.63514, 1.6303, 1.60164, 1.66879, 1.67663, 1.68962, 1.76467, 1.82062, 1.856, 1.86431, 1.85361, 1.82117, 1.68494, 1.65483, 1.57762, 1.60609, 1.6037, 1.601, 1.59079, 1.5988, 1.58586, 1.57912, 1.57674, 1.57662, 1.57786, 1.57264, 1.56958, 1.56767, 1.58533, 1.55787, 1.55634, 1.55484, 1.55032, 1.55033, 1.54784, 1.54604, 1.55362, 1.55009, 1.54411, 1.53514, 1.53328, 1.53125, 1.5322, 1.55479, 1.54632, 1.54067, 1.54042, 1.54029, 1.5339, 1.5213, 1.52781, 1.52344, 1.51324, 1.5106, 1.51593, 1.5088, 1.49997, 1.49883, 1.5124, 1.50722, 1.50005, 1.51728, 1.49204, 1.51279, 1.50187, 1.50515, 1.49289, 1.46833, 1.5273, 1.60739, 1.6027, 1.59788, 1.6416, 1.62902, 1.6548, 1.59332, 1.5519, 1.5352, 1.5032, 1.46506, 1.46156, 1.47247, 1.47211, 1.47153, 1.45846, 1.45882, 1.46655, 1.45811, 1.45027, 1.44646, 1.44468, 1.43462, 1.4435, 1.43514, 1.43662, 1.43326, 1.43419, 1.43091, 1.42857, 1.42508, 1.42443, 1.42035, 1.42007, 1.41982, 1.41956, 1.41761, 1.41536, 1.41377, 1.41357, 1.41202, 1.40918, 1.41209, 1.40846, 1.40596, 1.40347, 1.40293, 1.41218, 1.39714, 1.39572, 1.39002, 1.39563, 1.38825, 1.38446, 1.38521, 1.38283, 1.38261, 1.37962, 1.38101, 1.37724, 1.37748, 1.3776, 1.37475, 1.3762, 1.37079, 1.36981, 1.36851, 1.36555, 1.38465, 1.37312, 1.36197, 1.37827, 1.36939, 1.37062, 1.36535, 1.35133, 1.33019, 1.38082, 1.3823, 1.43962, 1.47646, 1.47853, 1.508, 1.51708, 1.54632, 1.54976, 1.50647, 1.46469, 1.38137, 1.35189, 1.33743, 1.35134, 1.35378, 1.35651, 1.35345, 1.34657, 1.33104, 1.33078, 1.32715, 1.32622, 1.32413, 1.33304, 1.33561, 1.31968, 1.31945, 1.32057
1.65856, 1.65501, 1.6536, 1.66283, 1.64725, 1.64586, 1.64153, 1.63996, 1.64402, 1.63666, 1.62976, 1.62453, 1.62188, 1.61973, 1.62421, 1.61396, 1.61272, 1.60708, 1.57537, 1.62708, 1.68681, 1.69944, 1.75922, 1.79418, 1.85577, 1.87627, 1.87317, 1.81273, 1.73033, 1.63846, 1.56416, 1.56805, 1.59372, 1.58096, 1.57479, 1.57294, 1.58592, 1.56909, 1.56598, 1.58209, 1.56099, 1.56885, 1.55774, 1.55666, 1.5549, 1.55361, 1.5515, 1.54994, 1.54719, 1.54479, 1.54336, 1.53827, 1.53714, 1.53749, 1.53019, 1.52789, 1.52434, 1.5206, 1.51995, 1.52689, 1.51012, 1.53457, 1.53257, 1.51945, 1.51575, 1.50699, 1.50433, 1.50152, 1.49994, 1.5002, 1.49498, 1.49319, 1.4924, 1.4901, 1.49252, 1.48559, 1.48628, 1.48225, 1.48991, 1.48716, 1.48341, 1.48125, 1.45584, 1.47881, 1.51528, 1.55576, 1.62446, 1.63228, 1.64305, 1.6211, 1.6165, 1.61586, 1.57228, 1.51073, 1.47925, 1.45854, 1.45458, 1.46543, 1.46343, 1.45703, 1.44758, 1.45504, 1.46695, 1.45697, 1.46141, 1.43328, 1.42911, 1.42806, 1.42426, 1.42246, 1.42201, 1.42108, 1.41946, 1.41909, 1.41581, 1.414, 1.41095, 1.4081, 1.40604, 1.40572, 1.4032, 1.40133, 1.39953, 1.40572, 1.39599, 1.39569, 1.39152, 1.39126, 1.39122, 1.38723, 1.38702, 1.38272, 1.39111, 1.38206, 1.38086, 1.37835, 1.37693, 1.37532, 1.37767, 1.37201, 1.36905, 1.36786, 1.36666, 1.36669, 1.36315, 1.36383, 1.36132, 1.36004, 1.35767, 1.35714, 1.35775, 1.35338, 1.35093, 1.35071, 1.34984, 1.34816, 1.34852, 1.34815, 1.34829, 1.36483, 1.33116, 1.31461, 1.36122, 1.37068, 1.42012, 1.41966, 1.50659, 1.50819, 1.50427, 1.54302, 1.54761, 1.51165, 1.46488, 1.39324, 1.29723, 1.31191, 1.32912, 1.33736, 1.33291, 1.33417, 1.32635, 1.3364, 1.31529, 1.31912, 1.31935, 1.31044, 1.30601, 1.30603, 1.31244, 1.30505, 1.30602
1.65475, 1.65412, 1.65089, 1.64942, 1.64701, 1.66473, 1.64223, 1.6374, 1.64043, 1.64012, 1.6486, 1.62057, 1.61925, 1.61779, 1.61467, 1.61512, 1.6172, 1.59298, 1.57361, 1.59339, 1.59431, 1.67592, 1.72323, 1.78994, 1.81352, 1.8518, 1.8497, 1.81518, 1.71016, 1.64429, 1.55602, 1.58547, 1.58356, 1.58013, 1.59868, 1.57365, 1.58116, 1.56893, 1.56488, 1.57911, 1.55987, 1.56027, 1.55743, 1.55489, 1.55122, 1.55003, 1.54735, 1.54708, 1.54566, 1.54402, 1.54083, 1.53761, 1.53364, 1.53108, 1.52961, 1.52379, 1.54465, 1.52119, 1.51119, 1.51357, 1.51344, 1.52723, 1.5331, 1.519, 1.51075, 1.52996, 1.51748, 1.50995, 1.51137, 1.51553, 1.49775, 1.49606, 1.49434, 1.49235, 1.49777, 1.48807, 1.49564, 1.49592, 1.48197, 1.50151, 1.48672, 1.49201, 1.47402, 1.45819, 1.50656, 1.52356, 1.56735, 1.66228, 1.64004, 1.65856, 1.6214, 1.59457, 1.56548, 1.53015, 1.5325, 1.44934, 1.45321, 1.4512, 1.45362, 1.4626, 1.44179, 1.44031, 1.44221, 1.47034, 1.45404, 1.44821, 1.42663, 1.4266, 1.42174, 1.42054, 1.41913, 1.41877, 1.41669, 1.41354, 1.4113, 1.40759, 1.40639, 1.40495, 1.4015, 1.39886, 1.3985, 1.39666, 1.39603, 1.39407, 1.3934, 1.39237, 1.38824, 1.38578, 1.38265, 1.38127, 1.38073, 1.38011, 1.3822, 1.38144, 1.37963, 1.37873, 1.37807, 1.37614, 1.3722, 1.37281, 1.36944, 1.36711, 1.36441, 1.36439, 1.36146, 1.36127, 1.36028, 1.35905, 1.35693, 1.35396, 1.34847, 1.35045, 1.34895, 1.34844, 1.34771, 1.34682, 1.34413, 1.34404, 1.34389, 1.3479, 1.32023, 1.33683, 1.34528, 1.43058, 1.42953, 1.47247, 1.51953, 1.48306, 1.51348, 1.53044, 1.5218, 1.5268, 1.42215, 1.42867, 1.30182, 1.32592, 1.32676, 1.34487, 1.31661, 1.31522, 1.31397, 1.30931, 1.30839, 1.31299, 1.30635, 1.30606, 1.3048, 1.30432, 1.3037, 1.3037, 1.30482
1.64832, 1.64732, 1.65095, 1.64095, 1.63813, 1.63549, 1.63369, 1.63193, 1.63135, 1.62715, 1.62691, 1.62384, 1.62159, 1.61863, 1.61716, 1.61771, 1.62401, 1.61676, 1.59307, 1.63695, 1.65709, 1.70815, 1.764, 1.82463, 1.88735, 1.87291, 1.88915, 1.86006, 1.68475, 1.63911, 1.56758, 1.58199, 1.59266, 1.57915, 1.57717, 1.57339, 1.57258, 1.56788, 1.5662, 1.56282, 1.55989, 1.55627, 1.55405, 1.55247, 1.55014, 1.54779, 1.547, 1.54669, 1.54621, 1.5443, 1.54165, 1.5399, 1.54067, 1.53051, 1.52847, 1.52451, 1.52993, 1.52133, 1.5196, 1.51865, 1.51785, 1.52032, 1.53227, 1.5374, 1.52272, 1.51664, 1.50741, 1.50546, 1.50359, 1.51006, 1.50215, 1.50018, 1.49859, 1.49789, 1.49492, 1.4942, 1.49304, 1.49618, 1.48709, 1.48794, 1.49033, 1.49978, 1.48503, 1.45249, 1.50185, 1.59151, 1.70316, 1.59782, 1.60195, 1.61629, 1.61356, 1.60517, 1.586, 1.56189, 1.52624, 1.47936, 1.43026, 1.45837, 1.46388, 1.4544, 1.44475, 1.44437, 1.44372, 1.45829, 1.45891, 1.44919, 1.45137, 1.43049, 1.43027, 1.42754, 1.42339, 1.41966, 1.41999, 1.41589, 1.4132, 1.41264, 1.41037, 1.40741, 1.40585, 1.40487, 1.40215, 1.40146, 1.39892, 1.47108, 1.39667, 1.39544, 1.39355, 1.39228, 1.3913, 1.39124, 1.38812, 1.38745, 1.38493, 1.38533, 1.3841, 1.38324, 1.38079, 1.38129, 1.37991, 1.37509, 1.37429, 1.37184, 1.36733, 1.3638, 1.36173, 1.36026, 1.35887, 1.35799, 1.35988, 1.3575, 1.35657, 1.35478, 1.35319, 1.3507, 1.34909, 1.34773, 1.34752, 1.34801, 1.35461, 1.35686, 1.34824, 1.32427, 1.35886, 1.43389, 1.43426, 1.46227, 1.49566, 1.51338, 1.52037, 1.51653, 1.50903, 1.47151, 1.43044, 1.36145, 1.31505, 1.30753, 1.32678, 1.3263, 1.31619, 1.31326, 1.31566, 1.31394, 1.30717, 1.31089, 1.30772, 1.30491, 1.30511, 1.30266, 1.30537, 1.30576, 1.30654
1.64629, 1.64274, 1.63831, 1.63702, 1.63528, 1.63254, 1.62853, 1.62704, 1.62459, 1.62321, 1.62164, 1.62338, 1.62351, 1.63512, 1.64073, 1.62328, 1.63095, 1.6285, 1.59674, 1.6037, 1.65218, 1.69684, 1.76715, 1.80034, 1.86963, 1.87178, 1.87546, 1.82173, 1.70999, 1.62443, 1.56054, 1.58323, 1.58224, 1.58663, 1.57905, 1.58322, 1.56569, 1.5674, 1.57815, 1.585, 1.57213, 1.55361, 1.5577, 1.54719, 1.54363, 1.54148, 1.5377, 1.54083, 1.54408, 1.54233, 1.55099, 1.53636, 1.53319, 1.52992, 1.52828, 1.52429, 1.52386, 1.52007, 1.51789, 1.518, 1.51737, 1.52291, 1.52656, 1.54521, 1.52458, 1.51712, 1.50404, 1.50182, 1.50567, 1.51083, 1.49975, 1.49923, 1.4962, 1.49818, 1.50268, 1.48905, 1.48746, 1.48432, 1.48664, 1.49141, 1.50268, 1.48927, 1.46683, 1.45907, 1.48465, 1.50692, 1.58198, 1.58308, 1.60165, 1.60388, 1.60099, 1.59053, 1.55693, 1.55023, 1.47923, 1.45387, 1.45178, 1.4582, 1.45077, 1.46117, 1.44541, 1.43891, 1.44479, 1.45161, 1.47564, 1.45589, 1.44785, 1.44168, 1.4324, 1.42676, 1.41853, 1.41938, 1.4147, 1.41321, 1.4129, 1.4134, 1.41921, 1.41298, 1.41132, 1.40939, 1.40525, 1.40025, 1.39961, 1.40381, 1.40098, 1.39776, 1.39898, 1.39554, 1.39522, 1.39522, 1.3935, 1.39168, 1.39018, 1.38785, 1.38573, 1.38599, 1.38426, 1.38436, 1.37939, 1.37747, 1.37701, 1.37418, 1.37155, 1.3826, 1.36702, 1.36748, 1.3659, 1.36371, 1.36398, 1.3623, 1.35983, 1.35742, 1.35602, 1.35493, 1.35328, 1.35208, 1.3513, 1.35033, 1.36438, 1.36496, 1.35395, 1.34042, 1.34542, 1.40997, 1.43421, 1.44779, 1.47484, 1.51542, 1.52041, 1.53745, 1.51391, 1.49895, 1.43662, 1.41658, 1.3299, 1.33293, 1.33052, 1.33075, 1.31879, 1.31542, 1.31394, 1.31066, 1.32004, 1.31657, 1.31305, 1.30948, 1.30975, 1.30926, 1.30637, 1.30873, 1.30398
1.65081, 1.64821, 1.64472, 1.64381, 1.645, 1.64736, 1.63876, 1.63095, 1.63256, 1.62707, 1.63195, 1.62424, 1.62136, 1.62014, 1.62629, 1.62458, 1.61974, 1.62067, 1.59953, 1.63819, 1.67822, 1.72712, 1.79265, 1.80661, 1.85558, 1.88637, 1.8797, 1.88925, 1.78637, 1.65865, 1.56104, 1.57931, 1.58337, 1.59208, 1.57623, 1.57366, 1.5711, 1.56754, 1.56862, 1.558, 1.55562, 1.55524, 1.55463, 1.54918, 1.54722, 1.55011, 1.54305, 1.54217, 1.54151, 1.54327, 1.53914, 1.53816, 1.5356, 1.53242, 1.53758, 1.52598, 1.52456, 1.52464, 1.52239, 1.51776, 1.51647, 1.51395, 1.51275, 1.52226, 1.5173, 1.52427, 1.50393, 1.50314, 1.49957, 1.49843, 1.49625, 1.49367, 1.49291, 1.48974, 1.49137, 1.48409, 1.48195, 1.48593, 1.48867, 1.48208, 1.48265, 1.48232, 1.49517, 1.46071, 1.47959, 1.50279, 1.56205, 1.57948, 1.59481, 1.59032, 1.57641, 1.56609, 1.55902, 1.55165, 1.50957, 1.4746, 1.42055, 1.45086, 1.44678, 1.44712, 1.43384, 1.43259, 1.43161, 1.43444, 1.44732, 1.4444, 1.43374, 1.42243, 1.42246, 1.42132, 1.42058, 1.4364, 1.41994, 1.41252, 1.41268, 1.41302, 1.4126, 1.40905, 1.40783, 1.41261, 1.40565, 1.40237, 1.39967, 1.39916, 1.39833, 1.39857, 1.39789, 1.39831, 1.3923, 1.39137, 1.39149, 1.38971, 1.38864, 1.3868, 1.38545, 1.3812, 1.38284, 1.38458, 1.37331, 1.37497, 1.37056, 1.36777, 1.36823, 1.36439, 1.36379, 1.3617, 1.36407, 1.36202, 1.36096, 1.35707, 1.35525, 1.35401, 1.35515, 1.35423, 1.35331, 1.35288, 1.35233, 1.35016, 1.35829, 1.35267, 1.35065, 1.33824, 1.34771, 1.43695, 1.45489, 1.47375, 1.50907, 1.51045, 1.55105, 1.55261, 1.54621, 1.51388, 1.44109, 1.40001, 1.2865, 1.32634, 1.33711, 1.33108, 1.32863, 1.31568, 1.31187, 1.3128, 1.31326, 1.31107, 1.30912, 1.31024, 1.31024, 1.30811, 1.30873, 1.30497, 1.30425
1.65821, 1.65632, 1.65548, 1.65507, 1.65649, 1.64504, 1.64475, 1.64753, 1.64302, 1.63758, 1.63126, 1.63044, 1.62657, 1.62502, 1.62115, 1.61974, 1.62019, 1.62106, 1.60311, 1.59648, 1.65057, 1.68368, 1.7416, 1.80428, 1.83119, 1.87659, 1.93206, 1.80615, 1.73732, 1.63791, 1.57651, 1.57232, 1.5995, 1.58802, 1.58675, 1.57588, 1.57168, 1.57023, 1.57516, 1.56296, 1.55971, 1.56913, 1.55403, 1.55694, 1.551, 1.57451, 1.54832, 1.54848, 1.5452, 1.54289, 1.54057, 1.53782, 1.53495, 1.53289, 1.53092, 1.52873, 1.52651, 1.52423, 1.52175, 1.52012, 1.51792, 1.52155, 1.51975, 1.50169, 1.51069, 1.53976, 1.51467, 1.50912, 1.51308, 1.50373, 1.50252, 1.49332, 1.49288, 1.48916, 1.50354, 1.49305, 1.48499, 1.48426, 1.4829, 1.48865, 1.49813, 1.48214, 1.48487, 1.45437, 1.48931, 1.51586, 1.54369, 1.58577, 1.65385, 1.61026, 1.61015, 1.58291, 1.5637, 1.54008, 1.51164, 1.47533, 1.41575, 1.44789, 1.45327, 1.44478, 1.43782, 1.43438, 1.43289, 1.44705, 1.43177, 1.45019, 1.44792, 1.45829, 1.43752, 1.42958, 1.41989, 1.41742, 1.42588, 1.41447, 1.41319, 1.41212, 1.41026, 1.41058, 1.40915, 1.40495, 1.40331, 1.40228, 1.3999, 1.3991, 1.39766, 1.39514, 1.39299, 1.39215, 1.38989, 1.39042, 1.38887, 1.38885, 1.38553, 1.38316, 1.3819, 1.38492, 1.37822, 1.37515, 1.37363, 1.37238, 1.37049, 1.36834, 1.36543, 1.36356, 1.363, 1.36742, 1.36243, 1.35922, 1.35992, 1.35945, 1.35811, 1.35483, 1.35513, 1.35475, 1.35443, 1.35253, 1.35145, 1.35215, 1.35775, 1.36674, 1.37143, 1.34213, 1.34589, 1.39635, 1.43781, 1.4439, 1.49832, 1.49755, 1.53145, 1.53177, 1.54094, 1.47532, 1.41454, 1.41619, 1.32737, 1.33543, 1.33179, 1.33679, 1.32587, 1.31727, 1.31478, 1.31525, 1.33997, 1.33349, 1.31363, 1.31208, 1.31019, 1.30974, 1.30698, 1.30748, 1.3046
1.65535, 1.65355, 1.65229, 1.6485, 1.65063, 1.64499, 1.64281, 1.63938, 1.63399, 1.63525, 1.64143, 1.63788, 1.62458, 1.62207, 1.62055, 1.61942, 1.63836, 1.6194, 1.58658, 1.58718, 1.64349, 1.68243, 1.7175, 1.82283, 1.83432, 1.85642, 1.92845, 1.86265, 1.77053, 1.66455, 1.56147, 1.57109, 1.58626, 1.5858, 1.58936, 1.58169, 1.57133, 1.56688, 1.56292, 1.56199, 1.55415, 1.55215, 1.55132, 1.55144, 1.55072, 1.5477, 1.54713, 1.54458, 1.54338, 1.54019, 1.53958, 1.53915, 1.53651, 1.53379, 1.53183, 1.52825, 1.52523, 1.52391, 1.52111, 1.51956, 1.51727, 1.51636, 1.5191, 1.51752, 1.50294, 1.53032, 1.52421, 1.51943, 1.5061, 1.49659, 1.49475, 1.49175, 1.50717, 1.48953, 1.48839, 1.48692, 1.48155, 1.48038, 1.48551, 1.48638, 1.498, 1.48743, 1.4796, 1.44435, 1.46181, 1.50797, 1.50921, 1.55504, 1.57477, 1.62433, 1.66133, 1.59125, 1.56799, 1.53296, 1.49421, 1.4852, 1.42164, 1.45448, 1.44785, 1.44726, 1.45047, 1.43745, 1.44444, 1.44185, 1.43589, 1.43353, 1.45144, 1.44849, 1.43999, 1.43989, 1.42559, 1.41977, 1.41953, 1.41388, 1.41277, 1.41284, 1.41175, 1.41196, 1.40623, 1.40413, 1.40348, 1.40366, 1.40241, 1.3999, 1.39738, 1.39591, 1.39601, 1.40227, 1.39331, 1.39131, 1.38811, 1.38876, 1.38458, 1.38438, 1.38074, 1.37896, 1.37807, 1.37656, 1.37567, 1.37437, 1.37104, 1.37062, 1.36784, 1.36773, 1.36758, 1.3652, 1.36367, 1.3618, 1.36185, 1.36129, 1.37492, 1.35853, 1.35712, 1.36375, 1.35471, 1.36198, 1.37562, 1.34834, 1.34742, 1.35388, 1.35261, 1.31641, 1.3474, 1.43312, 1.41365, 1.45495, 1.48856, 1.52346, 1.55405, 1.55404, 1.55319, 1.51332, 1.47483, 1.38677, 1.30266, 1.34083, 1.34307, 1.3344, 1.33644, 1.32494, 1.32988, 1.33007, 1.32124, 1.32224, 1.31765, 1.31551, 1.31553, 1.3126, 1.31975, 1.30886, 1.30861
1.65454, 1.65187, 1.65088, 1.64856, 1.64459, 1.64188, 1.6399, 1.63802, 1.63442, 1.6338, 1.62919, 1.62655, 1.6255, 1.62404, 1.6219, 1.61933, 1.62082, 1.62879, 1.6098, 1.58726, 1.63096, 1.66616, 1.68493, 1.71992, 1.80436, 1.83742, 1.93155, 1.96202, 1.78948, 1.59017, 1.57159, 1.58651, 1.58783, 1.58718, 1.57555, 1.56849, 1.56648, 1.56666, 1.56989, 1.55943, 1.57177, 1.55284, 1.55244, 1.55426, 1.5532, 1.54925, 1.54645, 1.54553, 1.5434, 1.54367, 1.53869, 1.53733, 1.55471, 1.53429, 1.53014, 1.52795, 1.52721, 1.52444, 1.5223, 1.52125, 1.51735, 1.51563, 1.51435, 1.51195, 1.5076, 1.52049, 1.52925, 1.51693, 1.51846, 1.49489, 1.49508, 1.4941, 1.4918, 1.49021, 1.49296, 1.48733, 1.48485, 1.48492, 1.48232, 1.4796, 1.48154, 1.48452, 1.46665, 1.44477, 1.47563, 1.56781, 1.55396, 1.56061, 1.56196, 1.56821, 1.57537, 1.57674, 1.56352, 1.54366, 1.56041, 1.46153, 1.41541, 1.43802, 1.45994, 1.45392, 1.44119, 1.4361, 1.43463, 1.44078, 1.44038, 1.4378, 1.44022, 1.44725, 1.43511, 1.44491, 1.42295, 1.42352, 1.41414, 1.41299, 1.41153, 1.4118, 1.40973, 1.40738, 1.4062, 1.40497, 1.40589, 1.4048, 1.40287, 1.39999, 1.39868, 1.3984, 1.39578, 1.39476, 1.39208, 1.39052, 1.3882, 1.38672, 1.38489, 1.38532, 1.38951, 1.38193, 1.37805, 1.38117, 1.37415, 1.371, 1.37087, 1.36736, 1.36721, 1.36535, 1.36509, 1.36295, 1.36241, 1.36152, 1.36186, 1.3611, 1.36031, 1.35812, 1.35703, 1.36847, 1.35476, 1.35391, 1.34745, 1.34695, 1.35988, 1.34744, 1.34716, 1.34379, 1.34074, 1.39176, 1.41939, 1.46104, 1.46384, 1.51746, 1.55181, 1.54685, 1.53078, 1.53182, 1.46863, 1.38178, 1.34241, 1.33998, 1.34322, 1.35321, 1.32994, 1.33253, 1.3339, 1.3224, 1.33999, 1.3222, 1.31838, 1.31546, 1.31449, 1.31261, 1.31146, 1.30781, 1.30806
1.65453, 1.65203, 1.65043, 1.64664, 1.6438, 1.64125, 1.63834, 1.63523, 1.63239, 1.62985, 1.62896, 1.62753, 1.62751, 1.62322, 1.62625, 1.62384, 1.62859, 1.62885, 1.63424, 1.60009, 1.66496, 1.67263, 1.71177, 1.7455, 1.80878, 1.84528, 1.90001, 1.893, 1.82263, 1.62295, 1.59386, 1.58663, 1.59257, 1.59592, 1.58608, 1.57551, 1.57949, 1.56874, 1.56643, 1.56443, 1.56283, 1.55986, 1.55812, 1.55709, 1.58652, 1.55452, 1.55186, 1.55144, 1.54748, 1.54365, 1.54265, 1.53924, 1.53733, 1.53694, 1.53541, 1.53201, 1.52944, 1.52676, 1.52477, 1.52264, 1.521, 1.52303, 1.5139, 1.51469, 1.51231, 1.51156, 1.51391, 1.51968, 1.52409, 1.50158, 1.50977, 1.50277, 1.50634, 1.49587, 1.50674, 1.49579, 1.48948, 1.49574, 1.48825, 1.5064, 1.49962, 1.49307, 1.4551, 1.46803, 1.51052, 1.48596, 1.53049, 1.55212, 1.58944, 1.59228, 1.58042, 1.57296, 1.54796, 1.54827, 1.50958, 1.46195, 1.44388, 1.44966, 1.45785, 1.45068, 1.44219, 1.44165, 1.44198, 1.44391, 1.43282, 1.44081, 1.44048, 1.43145, 1.44086, 1.46598, 1.43248, 1.42871, 1.41733, 1.41649, 1.41311, 1.41088, 1.41101, 1.40879, 1.40576, 1.40672, 1.40705, 1.40552, 1.40524, 1.40357, 1.4019, 1.40071, 1.3988, 1.39519, 1.39252, 1.39024, 1.38897, 1.38693, 1.38433, 1.38242, 1.38086, 1.38025, 1.37738, 1.3761, 1.37488, 1.372, 1.37094, 1.36855, 1.3672, 1.36531, 1.36388, 1.36169, 1.3625, 1.3604, 1.36091, 1.35821, 1.35766, 1.35596, 1.35419, 1.35468, 1.35335, 1.35121, 1.35004, 1.34806, 1.34969, 1.34754, 1.34996, 1.33036, 1.35899, 1.40183, 1.44781, 1.42317, 1.48448, 1.50592, 1.54388, 1.5611, 1.58953, 1.50967, 1.42194, 1.43072, 1.30985, 1.33377, 1.34586, 1.33731, 1.32991, 1.32992, 1.32583, 1.32556, 1.32297, 1.3208, 1.32758, 1.31929, 1.31603, 1.31523, 1.31341, 1.31267, 1.30952
1.65283, 1.65046, 1.64838, 1.64563, 1.64045, 1.64948, 1.6405, 1.63467, 1.63413, 1.63123, 1.62768, 1.62751, 1.63764, 1.62143, 1.61967, 1.62805, 1.62578, 1.6309, 1.62431, 1.59175, 1.62133, 1.67561, 1.72431, 1.75826, 1.81316, 1.85295, 1.90308, 1.90439, 1.79623, 1.678, 1.56227, 1.58638, 1.59007, 1.58598, 1.58719, 1.57492, 1.57071, 1.56855, 1.56534, 1.56271, 1.56343, 1.56641, 1.55698, 1.55399, 1.54775, 1.54654, 1.54397, 1.54262, 1.5415, 1.54172, 1.5389, 1.53726, 1.53723, 1.53664, 1.53543, 1.53293, 1.53177, 1.52796, 1.52436, 1.5207, 1.51984, 1.51743, 1.51485, 1.51159, 1.51004, 1.52425, 1.51348, 1.51698, 1.52087, 1.5198, 1.49917, 1.49848, 1.51375, 1.51312, 1.49897, 1.48854, 1.49287, 1.48462, 1.48339, 1.49026, 1.48562, 1.48345, 1.48218, 1.45515, 1.48891, 1.5587, 1.53116, 1.5945, 1.59269, 1.58233, 1.58473, 1.53949, 1.57, 1.50997, 1.51215, 1.48035, 1.43026, 1.45465, 1.45735, 1.45053, 1.44769, 1.45391, 1.43949, 1.44437, 1.43384, 1.43208, 1.4343, 1.43794, 1.43924, 1.44444, 1.43628, 1.41886, 1.41731, 1.41734, 1.41365, 1.4119, 1.41067, 1.40976, 1.40837, 1.40648, 1.40604, 1.40595, 1.405, 1.40322, 1.40187, 1.3992, 1.39593, 1.39556, 1.39465, 1.39143, 1.39078, 1.38806, 1.38645, 1.38444, 1.38326, 1.38376, 1.38152, 1.37782, 1.37516, 1.37277, 1.37054, 1.37005, 1.36737, 1.36568, 1.36466, 1.36127, 1.36029, 1.35922, 1.3593, 1.3557, 1.35649, 1.35532, 1.35532, 1.35084, 1.34931, 1.34871, 1.34945, 1.34878, 1.35463, 1.35028, 1.36304, 1.34696, 1.36101, 1.3776, 1.39002, 1.44032, 1.47019, 1.50378, 1.54335, 1.55695, 1.54867, 1.555, 1.40218, 1.40482, 1.34463, 1.34175, 1.3432, 1.3395, 1.32566, 1.34709, 1.31458, 1.31445, 1.31585, 1.31533, 1.31539, 1.31243, 1.31334, 1.31471, 1.312, 1.30996, 1.30797
1.65302, 1.65165, 1.64931, 1.64547, 1.64354, 1.63864, 1.63819, 1.63461, 1.63355, 1.63005, 1.64379, 1.62427, 1.63372, 1.643, 1.63199, 1.62844, 1.62072, 1.62585, 1.6171, 1.59267, 1.60591, 1.67671, 1.70891, 1.7894, 1.8142, 1.93857, 2.04916, 1.96026, 1.74513, 1.67495, 1.56149, 1.58008, 1.59695, 1.58601, 1.57622, 1.57475, 1.57069, 1.5728, 1.56605, 1.56509, 1.56039, 1.55749, 1.55471, 1.55174, 1.54946, 1.54715, 1.54779, 1.54358, 1.54139, 1.54102, 1.54018, 1.53759, 1.53613, 1.53307, 1.53229, 1.53101, 1.52878, 1.52257, 1.52027, 1.51889, 1.5159, 1.51351, 1.5135, 1.50984, 1.51534, 1.51377, 1.50685, 1.51899, 1.53018, 1.5263, 1.51164, 1.50231, 1.49676, 1.49686, 1.49681, 1.49903, 1.48868, 1.49173, 1.4839, 1.48325, 1.48331, 1.48296, 1.48071, 1.45538, 1.48184, 1.51596, 1.5343, 1.56157, 1.56567, 1.56078, 1.55925, 1.57104, 1.52956, 1.52325, 1.50337, 1.4561, 1.41982, 1.44436, 1.4612, 1.45524, 1.44619, 1.44778, 1.43803, 1.43679, 1.43476, 1.43301, 1.42999, 1.4285, 1.44092, 1.44847, 1.44814, 1.42464, 1.42278, 1.42243, 1.41452, 1.40941, 1.41045, 1.40912, 1.41006, 1.40808, 1.40683, 1.40582, 1.40366, 1.40212, 1.40024, 1.40024, 1.39837, 1.39577, 1.39386, 1.39149, 1.38923, 1.38832, 1.38706, 1.38527, 1.38478, 1.384, 1.38081, 1.37803, 1.37666, 1.37282, 1.37062, 1.36724, 1.36581, 1.36182, 1.35942, 1.35491, 1.35445, 1.35303, 1.35294, 1.35295, 1.3533, 1.35445, 1.35409, 1.35273, 1.34803, 1.34728, 1.34849, 1.34652, 1.35431, 1.36355, 1.35278, 1.36355, 1.33404, 1.38499, 1.39316, 1.45494, 1.50721, 1.59399, 1.6069, 1.61046, 1.6212, 1.57589, 1.48885, 1.35339, 1.31397, 1.31373, 1.33402, 1.32495, 1.31789, 1.31732, 1.3235, 1.31895, 1.31567, 1.31535, 1.31384, 1.3163, 1.31357, 1.31303, 1.31298, 1.30842, 1.30652
1.65268, 1.65193, 1.64898, 1.64495, 1.64132, 1.63968, 1.63816, 1.63432, 1.63122, 1.62826, 1.62806, 1.62556, 1.62423, 1.62351, 1.62668, 1.61829, 1.61934, 1.62066, 1.61918, 1.59234, 1.63134, 1.68669, 1.73867, 1.75497, 1.81636, 1.85559, 1.91998, 1.91324, 1.804, 1.70801, 1.5804, 1.58705, 1.58854, 1.58204, 1.57716, 1.58838, 1.56925, 1.56757, 1.56466, 1.56168, 1.56062, 1.55807, 1.55579, 1.554, 1.55027, 1.54926, 1.54793, 1.54219, 1.54101, 1.5404, 1.53983, 1.53632, 1.53293, 1.53001, 1.52859, 1.53491, 1.52978, 1.52124, 1.52011, 1.51829, 1.51667, 1.51376, 1.5206, 1.51991, 1.50715, 1.50697, 1.50584, 1.51391, 1.51108, 1.52655, 1.51934, 1.5021, 1.49523, 1.50244, 1.49395, 1.48961, 1.48603, 1.48512, 1.4829, 1.4829, 1.49214, 1.48639, 1.48622, 1.45245, 1.49276, 1.51061, 1.54475, 1.56912, 1.569, 1.61337, 1.55935, 1.55295, 1.54078, 1.5422, 1.49487, 1.47811, 1.42105, 1.46149, 1.45434, 1.45047, 1.44455, 1.44671, 1.43705, 1.43413, 1.43074, 1.4296, 1.42727, 1.44053, 1.42323, 1.44223, 1.45443, 1.43913, 1.42861, 1.41397, 1.41252, 1.41064, 1.40899, 1.41011, 1.4083, 1.40754, 1.40527, 1.40545, 1.40503, 1.40306, 1.40241, 1.3997, 1.39838, 1.39789, 1.39505, 1.39457, 1.39511, 1.3913, 1.38931, 1.38757, 1.38469, 1.38309, 1.38015, 1.37961, 1.37759, 1.37457, 1.37249, 1.37123, 1.36518, 1.36394, 1.3621, 1.36259, 1.3611, 1.35386, 1.35253, 1.35197, 1.35321, 1.35164, 1.35227, 1.35114, 1.35203, 1.35164, 1.35091, 1.35177, 1.35064, 1.35356, 1.36052, 1.35244, 1.33673, 1.41663, 1.3999, 1.42398, 1.48871, 1.51756, 1.57614, 1.59569, 1.59972, 1.55824, 1.50712, 1.42951, 1.2978, 1.32292, 1.33378, 1.32391, 1.33252, 1.31931, 1.32507, 1.31771, 1.31829, 1.3168, 1.31693, 1.31533, 1.31337, 1.31123, 1.31228, 1.30874, 1.30633
1.65043, 1.64871, 1.64689, 1.64566, 1.644, 1.64501, 1.64365, 1.63033, 1.62769, 1.62546, 1.62621, 1.6212, 1.62112, 1.62008, 1.62046, 1.62027, 1.61766, 1.61944, 1.62784, 1.58363, 1.61655, 1.66318, 1.70731, 1.78435, 1.88531, 1.93628, 1.94359, 1.90741, 1.77744, 1.64701, 1.56443, 1.57908, 1.58471, 1.59943, 1.59671, 1.5785, 1.57298, 1.56698, 1.56586, 1.56288, 1.55985, 1.55975, 1.55796, 1.5546, 1.55136, 1.54736, 1.54535, 1.5413, 1.53958, 1.53835, 1.53785, 1.55168, 1.53148, 1.53016, 1.53093, 1.52665, 1.52109, 1.51956, 1.51613, 1.51303, 1.51308, 1.51877, 1.50589, 1.50429, 1.50196, 1.50253, 1.4994, 1.50635, 1.50909, 1.50596, 1.527, 1.51817, 1.50241, 1.49669, 1.49242, 1.48809, 1.48549, 1.492, 1.48108, 1.48304, 1.49835, 1.48034, 1.49264, 1.45825, 1.48086, 1.50025, 1.57535, 1.59296, 1.57155, 1.56954, 1.55504, 1.54541, 1.54918, 1.5348, 1.4875, 1.5067, 1.44114, 1.44631, 1.47156, 1.45141, 1.45417, 1.45514, 1.43502, 1.43163, 1.4302, 1.42858, 1.42687, 1.43641, 1.42335, 1.42876, 1.43686, 1.43939, 1.44377, 1.43033, 1.40899, 1.4078, 1.40776, 1.41012, 1.40527, 1.40562, 1.40613, 1.40384, 1.40303, 1.39942, 1.39731, 1.39636, 1.39458, 1.39277, 1.39122, 1.38985, 1.39148, 1.38831, 1.38668, 1.38416, 1.38462, 1.38408, 1.38203, 1.38064, 1.3786, 1.37622, 1.37435, 1.37259, 1.36827, 1.36757, 1.36505, 1.36284, 1.3611, 1.35852, 1.35758, 1.35662, 1.35569, 1.35465, 1.35419, 1.35415, 1.35812, 1.3677, 1.35163, 1.35112, 1.35122, 1.35205, 1.35446, 1.35054, 1.33311, 1.3644, 1.43633, 1.44566, 1.50275, 1.53424, 1.56302, 1.57981, 1.59169, 1.51855, 1.47786, 1.3741, 1.32403, 1.30965, 1.33068, 1.34447, 1.32235, 1.32022, 1.31842, 1.31851, 1.31555, 1.31699, 1.31597, 1.32973, 1.31325, 1.32691, 1.30874, 1.30821, 1.30582
1.65247, 1.6491, 1.64712, 1.64396, 1.64093, 1.63807, 1.63607, 1.63234, 1.62895, 1.62415, 1.62392, 1.62727, 1.62652, 1.62079, 1.6221, 1.61884, 1.61764, 1.61591, 1.62334, 1.60002, 1.62095, 1.63758, 1.68403, 1.73306, 1.82019, 1.88111, 1.99017, 2.08748, 1.88109, 1.63364, 1.5445, 1.57218, 1.59028, 1.58566, 1.57465, 1.57111, 1.56952, 1.56747, 1.56509, 1.5625, 1.55876, 1.55636, 1.55425, 1.56085, 1.54832, 1.54548, 1.54474, 1.54402, 1.54222, 1.53997, 1.53908, 1.53788, 1.53378, 1.53209, 1.52973, 1.52696, 1.5236, 1.52177, 1.51978, 1.51481, 1.51312, 1.51187, 1.5085, 1.50555, 1.50218, 1.50167, 1.49978, 1.49948, 1.51891, 1.49974, 1.51304, 1.52485, 1.50396, 1.49542, 1.49322, 1.49177, 1.48968, 1.49253, 1.49311, 1.48146, 1.4924, 1.48137, 1.50929, 1.46957, 1.47023, 1.53323, 1.56579, 1.56807, 1.58544, 1.59399, 1.55146, 1.54451, 1.54326, 1.52405, 1.50068, 1.47782, 1.43481, 1.4405, 1.44866, 1.46064, 1.45468, 1.43818, 1.44144, 1.43275, 1.43028, 1.42898, 1.42821, 1.42722, 1.42748, 1.42344, 1.41388, 1.43023, 1.41939, 1.39888, 1.40607, 1.41283, 1.40541, 1.4048, 1.40272, 1.40178, 1.4019, 1.40064, 1.39915, 1.39762, 1.3948, 1.39251, 1.39128, 1.39522, 1.38838, 1.3881, 1.38786, 1.38762, 1.386, 1.38522, 1.38429, 1.38466, 1.38139, 1.38069, 1.3783, 1.37689, 1.37619, 1.3729, 1.37165, 1.37038, 1.36848, 1.36729, 1.36602, 1.36258, 1.36096, 1.36017, 1.35804, 1.35545, 1.35495, 1.35856, 1.35221, 1.34991, 1.34807, 1.34779, 1.3478, 1.35865, 1.35351, 1.35187, 1.34339, 1.33952, 1.38461, 1.46031, 1.49553, 1.50892, 1.58519, 1.60038, 1.58821, 1.55087, 1.43045, 1.33767, 1.28632, 1.32968, 1.32942, 1.33786, 1.32379, 1.31732, 1.32543, 1.3164, 1.31856, 1.31547, 1.31532, 1.31976, 1.31158, 1.31688, 1.30614, 1.30506, 1.30298
1.64932, 1.65182, 1.64593, 1.64265, 1.64022, 1.63474, 1.63312, 1.62998, 1.62892, 1.62864, 1.62494, 1.62356, 1.6231, 1.62314, 1.62053, 1.62399, 1.61849, 1.61668, 1.62387, 1.59634, 1.59787, 1.63648, 1.70717, 1.71583, 1.83371, 1.8761, 1.92767, 1.94462, 1.81955, 1.67851, 1.55449, 1.56949, 1.58976, 1.57875, 1.57778, 1.58885, 1.5686, 1.566, 1.56295, 1.56101, 1.55798, 1.55599, 1.58227, 1.55163, 1.5502, 1.54723, 1.54509, 1.54385, 1.54293, 1.54153, 1.53969, 1.53562, 1.53472, 1.53237, 1.53042, 1.52876, 1.52601, 1.52285, 1.52107, 1.51929, 1.51585, 1.51321, 1.50981, 1.50647, 1.50483, 1.50304, 1.50165, 1.49946, 1.50604, 1.50753, 1.50908, 1.53432, 1.51764, 1.51003, 1.49313, 1.48985, 1.49286, 1.49146, 1.48466, 1.47898, 1.48124, 1.48273, 1.47546, 1.46853, 1.49977, 1.5271, 1.54238, 1.5449, 1.54647, 1.54523, 1.53975, 1.53405, 1.52511, 1.50939, 1.50622, 1.48298, 1.43213, 1.43829, 1.46858, 1.44908, 1.45588, 1.44065, 1.45435, 1.44118, 1.45435, 1.43577, 1.44107, 1.44658, 1.42986, 1.43694, 1.44229, 1.43196, 1.42055, 1.42285, 1.41811, 1.40883, 1.40432, 1.40378, 1.4092, 1.40228, 1.40054, 1.39914, 1.39825, 1.39582, 1.39466, 1.39264, 1.38981, 1.38793, 1.38627, 1.38618, 1.38659, 1.39186, 1.38379, 1.38286, 1.3811, 1.3799, 1.37787, 1.37529, 1.37246, 1.37305, 1.37078, 1.37081, 1.36815, 1.36787, 1.36738, 1.36697, 1.36494, 1.36474, 1.36389, 1.36376, 1.36576, 1.361, 1.37163, 1.35432, 1.35483, 1.35234, 1.3529, 1.35034, 1.34974, 1.35792, 1.36208, 1.35433, 1.33758, 1.35784, 1.40174, 1.45158, 1.49238, 1.52439, 1.55759, 1.56155, 1.57304, 1.50296, 1.44777, 1.35408, 1.31036, 1.33091, 1.33592, 1.3261, 1.33193, 1.3196, 1.31749, 1.31612, 1.31532, 1.31464, 1.32322, 1.31353, 1.31193, 1.30836, 1.30898, 1.3058, 1.30379
1.65145, 1.6453, 1.6404, 1.63811, 1.63399, 1.63119, 1.62781, 1.62883, 1.63122, 1.62822, 1.62778, 1.62644, 1.62326, 1.61946, 1.61784, 1.6238, 1.6154, 1.61475, 1.61886, 1.60647, 1.61104, 1.62632, 1.68265, 1.71146, 1.79714, 1.84765, 1.89124, 1.9179, 1.7898, 1.72418, 1.56611, 1.57939, 1.583, 1.57451, 1.56962, 1.56772, 1.56511, 1.56198, 1.55869, 1.55633, 1.55358, 1.55271, 1.55186, 1.5485, 1.54791, 1.54657, 1.54531, 1.54049, 1.53799, 1.53695, 1.53479, 1.53292, 1.53181, 1.52918, 1.52955, 1.52508, 1.52311, 1.52309, 1.51771, 1.51685, 1.51312, 1.51016, 1.50865, 1.50597, 1.50384, 1.50072, 1.50047, 1.49989, 1.49786, 1.50167, 1.4995, 1.51805, 1.53223, 1.52577, 1.50016, 1.48464, 1.48609, 1.48353, 1.47964, 1.47873, 1.47835, 1.48152, 1.47282, 1.45918, 1.48468, 1.51263, 1.58173, 1.57201, 1.56932, 1.56535, 1.54019, 1.52924, 1.52917, 1.52682, 1.49403, 1.469, 1.43043, 1.43458, 1.44555, 1.44878, 1.44832, 1.43865, 1.43973, 1.44059, 1.43696, 1.43568, 1.43241, 1.42951, 1.45722, 1.46391, 1.44143, 1.43788, 1.42633, 1.41445, 1.41569, 1.40982, 1.40955, 1.40755, 1.40507, 1.40409, 1.4027, 1.40097, 1.39811, 1.39709, 1.39467, 1.39259, 1.39017, 1.38889, 1.38788, 1.38717, 1.38696, 1.38507, 1.38479, 1.38229, 1.37964, 1.37792, 1.37739, 1.37512, 1.37433, 1.3722, 1.37061, 1.36903, 1.36743, 1.36469, 1.36488, 1.36472, 1.36338, 1.36383, 1.36458, 1.36124, 1.36063, 1.35661, 1.35559, 1.35456, 1.35535, 1.35202, 1.34855, 1.3469, 1.34617, 1.36107, 1.35083, 1.35606, 1.32218, 1.32173, 1.39554, 1.45817, 1.49652, 1.53667, 1.60404, 1.63166, 1.62547, 1.61914, 1.45745, 1.36068, 1.3507, 1.30085, 1.33103, 1.3382, 1.32434, 1.3189, 1.31804, 1.31517, 1.31326, 1.33433, 1.3118, 1.31075, 1.30895, 1.30687, 1.3072, 1.30572, 1.30469
1.65223, 1.64976, 1.64592, 1.6439, 1.63858, 1.63483, 1.63506, 1.63312, 1.63127, 1.64859, 1.62644, 1.6221, 1.62022, 1.62076, 1.61751, 1.61757, 1.61423, 1.6152, 1.61536, 1.62045, 1.59306, 1.65548, 1.68219, 1.75695, 1.84152, 1.86844, 1.91403, 1.92259, 1.88684, 1.60925, 1.55083, 1.59146, 1.58838, 1.57684, 1.57558, 1.58719, 1.57471, 1.56307, 1.56037, 1.55833, 1.55819, 1.5548, 1.55506, 1.5517, 1.55144, 1.573, 1.5448, 1.54267, 1.53964, 1.53711, 1.53407, 1.53099, 1.52852, 1.52501, 1.52279, 1.51975, 1.51844, 1.51778, 1.51605, 1.51399, 1.51139, 1.50945, 1.50706, 1.50713, 1.50545, 1.50404, 1.50303, 1.50987, 1.49869, 1.51072, 1.49619, 1.5113, 1.516, 1.53353, 1.50778, 1.49912, 1.4887, 1.4909, 1.48774, 1.47978, 1.48283, 1.48191, 1.48664, 1.45291, 1.49572, 1.51393, 1.5208, 1.55953, 1.55028, 1.5468, 1.52834, 1.53712, 1.535, 1.5332, 1.52672, 1.51068, 1.45414, 1.42983, 1.44521, 1.45036, 1.44434, 1.44408, 1.44793, 1.43553, 1.43257, 1.46908, 1.44108, 1.47475, 1.5015, 1.47363, 1.44852, 1.44322, 1.42047, 1.41469, 1.40932, 1.40751, 1.40664, 1.40626, 1.40445, 1.40169, 1.40044, 1.39897, 1.39572, 1.39542, 1.39293, 1.39231, 1.391, 1.3896, 1.38674, 1.38519, 1.3845, 1.38379, 1.38251, 1.38052, 1.37865, 1.378, 1.37457, 1.37184, 1.37025, 1.36802, 1.36676, 1.3673, 1.36469, 1.36695, 1.36239, 1.36162, 1.36177, 1.36158, 1.36131, 1.35891, 1.35804, 1.35746, 1.35643, 1.35523, 1.35372, 1.34767, 1.34879, 1.34684, 1.34505, 1.34744, 1.35709, 1.35834, 1.35065, 1.33751, 1.36537, 1.44406, 1.49556, 1.49632, 1.59648, 1.60115, 1.61957, 1.50591, 1.44902, 1.41097, 1.32366, 1.30491, 1.32387, 1.34374, 1.32367, 1.32624, 1.31896, 1.31956, 1.31617, 1.31574, 1.31421, 1.31193, 1.3098, 1.30868, 1.30757, 1.30591, 1.30414
1.6545, 1.65269, 1.65126, 1.6483, 1.64506, 1.64336, 1.63879, 1.63736, 1.66692, 1.63195, 1.62835, 1.62623, 1.62482, 1.62194, 1.61992, 1.63448, 1.61575, 1.62985, 1.62059, 1.61077, 1.59239, 1.62726, 1.67256, 1.70656, 1.77951, 1.84645, 1.88647, 1.90953, 1.84436, 1.64444, 1.57492, 1.57851, 1.58611, 1.58624, 1.58153, 1.57845, 1.57235, 1.5662, 1.5635, 1.56157, 1.55776, 1.55727, 1.553, 1.57146, 1.54937, 1.55109, 1.55156, 1.54855, 1.53832, 1.53639, 1.5349, 1.52926, 1.52794, 1.52389, 1.52208, 1.54789, 1.5173, 1.51524, 1.51284, 1.51182, 1.50928, 1.50831, 1.50785, 1.50642, 1.50883, 1.50456, 1.50426, 1.50374, 1.51077, 1.50224, 1.51038, 1.49887, 1.50932, 1.53241, 1.5347, 1.52543, 1.50219, 1.4849, 1.49923, 1.48981, 1.48772, 1.48606, 1.46508, 1.45705, 1.47228, 1.49653, 1.54058, 1.54463, 1.54214, 1.5538, 1.53603, 1.52316, 1.54329, 1.53709, 1.49217, 1.47971, 1.44053, 1.42369, 1.43467, 1.45839, 1.46921, 1.45854, 1.46825, 1.47152, 1.48689, 1.48268, 1.48488, 1.46604, 1.47782, 1.44122, 1.4275, 1.42428, 1.42814, 1.41993, 1.4157, 1.41293, 1.41078, 1.40915, 1.40642, 1.40629, 1.40302, 1.39988, 1.39894, 1.39552, 1.39188, 1.39113, 1.39074, 1.38757, 1.38688, 1.38588, 1.38475, 1.38435, 1.38278, 1.38074, 1.37664, 1.3894, 1.37515, 1.37415, 1.37108, 1.37077, 1.37153, 1.36847, 1.36913, 1.36802, 1.36481, 1.36398, 1.36337, 1.36411, 1.36151, 1.38881, 1.35722, 1.35546, 1.35478, 1.35362, 1.35155, 1.36117, 1.36529, 1.35528, 1.34635, 1.34501, 1.35806, 1.34717, 1.34158, 1.32018, 1.40515, 1.38306, 1.4651, 1.49836, 1.596, 1.59303, 1.60234, 1.63094, 1.47476, 1.43111, 1.30897, 1.32858, 1.34423, 1.3399, 1.33081, 1.31996, 1.32666, 1.32424, 1.31758, 1.31598, 1.31473, 1.31582, 1.31055, 1.30902, 1.30694, 1.3059, 1.30568
1.65113, 1.64961, 1.64678, 1.64503, 1.64303, 1.64004, 1.63877, 1.63453, 1.6314, 1.62878, 1.62627, 1.62383, 1.62345, 1.61702, 1.61525, 1.61104, 1.60984, 1.62139, 1.61396, 1.6135, 1.58158, 1.59259, 1.66789, 1.77214, 1.82439, 1.89901, 1.93043, 1.91497, 1.82883, 1.70622, 1.54181, 1.59369, 1.58978, 1.58323, 1.58615, 1.57373, 1.57454, 1.56842, 1.57539, 1.572, 1.55773, 1.55453, 1.55681, 1.55489, 1.54575, 1.54112, 1.53857, 1.57166, 1.53572, 1.53087, 1.53056, 1.52727, 1.53058, 1.52506, 1.51628, 1.51382, 1.52108, 1.51, 1.5092, 1.50605, 1.50504, 1.5058, 1.50435, 1.50338, 1.50212, 1.5005, 1.49919, 1.49889, 1.49698, 1.49598, 1.49433, 1.49323, 1.49919, 1.51789, 1.54388, 1.53271, 1.55105, 1.5034, 1.50359, 1.48898, 1.4796, 1.47635, 1.4746, 1.47242, 1.46949, 1.49383, 1.5059, 1.53296, 1.54147, 1.52811, 1.53108, 1.52287, 1.53371, 1.53426, 1.52242, 1.48557, 1.46483, 1.46239, 1.47122, 1.48132, 1.48215, 1.48607, 1.47836, 1.48859, 1.46366, 1.45364, 1.46083, 1.45245, 1.44417, 1.43572, 1.43535, 1.42284, 1.41911, 1.41588, 1.41346, 1.41085, 1.409, 1.40726, 1.40538, 1.40377, 1.40039, 1.39927, 1.39738, 1.39546, 1.39388, 1.38999, 1.38842, 1.38794, 1.38588, 1.38449, 1.38232, 1.37885, 1.37843, 1.37764, 1.37673, 1.37561, 1.37184, 1.37185, 1.37513, 1.36689, 1.36678, 1.36662, 1.36427, 1.36377, 1.3619, 1.36179, 1.36041, 1.35928, 1.35903, 1.3556, 1.35393, 1.35248, 1.34992, 1.34779, 1.34706, 1.34654, 1.34476, 1.34358, 1.34278, 1.34163, 1.35318, 1.36941, 1.35807, 1.31929, 1.39333, 1.40859, 1.4624, 1.52138, 1.56941, 1.65228, 1.61718, 1.60757, 1.5211, 1.43651, 1.34841, 1.31958, 1.32684, 1.33667, 1.3186, 1.31645, 1.31409, 1.31575, 1.32262, 1.31242, 1.3109, 1.3097, 1.30578, 1.30668, 1.30393, 1.30219, 1.30181
1.64454, 1.64199, 1.64041, 1.63927, 1.64014, 1.65137, 1.63697, 1.6421, 1.6353, 1.64653, 1.63332, 1.62713, 1.62567, 1.6202, 1.61777, 1.61554, 1.61097, 1.61401, 1.6199, 1.60726, 1.59316, 1.63674, 1.67815, 1.72404, 1.74433, 1.84486, 1.84414, 1.9747, 1.93796, 1.73015, 1.56294, 1.59185, 1.59411, 1.59229, 1.5802, 1.58511, 1.58499, 1.58163, 1.57166, 1.58277, 1.5648, 1.56379, 1.55969, 1.57098, 1.55763, 1.55068, 1.54571, 1.54231, 1.54137, 1.53797, 1.53497, 1.53133, 1.52989, 1.52627, 1.52455, 1.52263, 1.52339, 1.51753, 1.51536, 1.51284, 1.5103, 1.50904, 1.50779, 1.50655, 1.50425, 1.50256, 1.50116, 1.49989, 1.49659, 1.49625, 1.49703, 1.50111, 1.49521, 1.49276, 1.5271, 1.52628, 1.51971, 1.54128, 1.54508, 1.50427, 1.46847, 1.4888, 1.47957, 1.46245, 1.4558, 1.48625, 1.5302, 1.54045, 1.53673, 1.52368, 1.53152, 1.49158, 1.49069, 1.51763, 1.52282, 1.49616, 1.48079, 1.46447, 1.45902, 1.45753, 1.44653, 1.45421, 1.43746, 1.45012, 1.43849, 1.43914, 1.44211, 1.43157, 1.42744, 1.43413, 1.42967, 1.42295, 1.41821, 1.4159, 1.41287, 1.41116, 1.40995, 1.41026, 1.40794, 1.40437, 1.40277, 1.40076, 1.40017, 1.3975, 1.39691, 1.39293, 1.39152, 1.38918, 1.38756, 1.3864, 1.38564, 1.38414, 1.38172, 1.37991, 1.37877, 1.37821, 1.37658, 1.37545, 1.37519, 1.37393, 1.37307, 1.37206, 1.36844, 1.36783, 1.36743, 1.36315, 1.36018, 1.36077, 1.35834, 1.357, 1.35535, 1.35249, 1.35212, 1.35167, 1.34867, 1.34565, 1.34562, 1.34296, 1.34326, 1.343, 1.34311, 1.34652, 1.34782, 1.3223, 1.38532, 1.43199, 1.47427, 1.50381, 1.5835, 1.61739, 1.63388, 1.5889, 1.49724, 1.39654, 1.30942, 1.29029, 1.32839, 1.33724, 1.32292, 1.31674, 1.31619, 1.31419, 1.31418, 1.31335, 1.3104, 1.3107, 1.30877, 1.31006, 1.3076, 1.30454, 1.3025
1.64244, 1.64005, 1.64054, 1.63969, 1.63668, 1.63722, 1.63716, 1.63683, 1.63693, 1.63437, 1.63007, 1.6245, 1.62283, 1.64005, 1.61723, 1.61388, 1.61268, 1.60981, 1.61272, 1.60574, 1.59341, 1.58201, 1.67885, 1.73559, 1.76382, 1.92881, 1.95891, 1.95939, 1.90876, 1.67705, 1.55436, 1.56951, 1.60562, 1.59854, 1.58979, 1.58012, 1.57953, 1.57809, 1.5727, 1.58268, 1.56562, 1.56359, 1.55964, 1.55625, 1.55465, 1.55097, 1.55399, 1.56195, 1.53969, 1.54602, 1.53465, 1.53506, 1.52952, 1.52723, 1.52635, 1.52255, 1.51859, 1.51475, 1.51201, 1.50934, 1.50773, 1.5054, 1.50474, 1.50382, 1.50258, 1.50118, 1.49921, 1.49796, 1.49214, 1.48988, 1.49246, 1.49515, 1.50328, 1.50607, 1.50218, 1.49706, 1.5266, 1.51322, 1.51051, 1.51334, 1.50793, 1.50615, 1.49189, 1.47321, 1.47286, 1.49424, 1.50903, 1.51428, 1.51983, 1.51679, 1.50445, 1.48229, 1.52345, 1.52318, 1.53753, 1.50019, 1.47568, 1.44815, 1.43783, 1.45076, 1.46598, 1.44155, 1.43892, 1.43689, 1.43233, 1.43012, 1.42744, 1.42569, 1.42505, 1.42165, 1.42086, 1.41682, 1.41988, 1.41401, 1.41205, 1.41237, 1.4108, 1.40849, 1.40665, 1.40368, 1.40224, 1.40238, 1.39918, 1.39747, 1.39519, 1.39253, 1.39143, 1.39864, 1.39031, 1.39158, 1.38768, 1.38564, 1.38397, 1.38413, 1.38083, 1.37735, 1.37749, 1.37654, 1.37499, 1.37505, 1.37485, 1.37431, 1.37135, 1.36993, 1.36779, 1.36613, 1.36372, 1.36306, 1.3614, 1.35749, 1.35797, 1.35649, 1.35296, 1.36122, 1.34777, 1.34986, 1.34532, 1.3455, 1.34918, 1.34499, 1.3647, 1.3624, 1.36076, 1.32863, 1.37112, 1.46452, 1.45327, 1.50878, 1.58218, 1.6231, 1.6355, 1.62101, 1.47738, 1.43791, 1.32237, 1.31372, 1.33165, 1.33795, 1.3338, 1.32791, 1.32048, 1.31688, 1.31718, 1.31559, 1.31159, 1.31298, 1.31029, 1.30908, 1.31068, 1.30651, 1.30851
1.64847, 1.64283, 1.64238, 1.6405, 1.64013, 1.64084, 1.63811, 1.64351, 1.63491, 1.63124, 1.62921, 1.62741, 1.62311, 1.62016, 1.61915, 1.61569, 1.61312, 1.61158, 1.60879, 1.60959, 1.60234, 1.59994, 1.64887, 1.71326, 1.77642, 1.83757, 1.8888, 1.95192, 1.88538, 1.71175, 1.56581, 1.57845, 1.59068, 1.59245, 1.59529, 1.58945, 1.58493, 1.59084, 1.58577, 1.57984, 1.5664, 1.57474, 1.5555, 1.55095, 1.54789, 1.54678, 1.54413, 1.55428, 1.53886, 1.53623, 1.53422, 1.53041, 1.52808, 1.52484, 1.53604, 1.52262, 1.52088, 1.51716, 1.51453, 1.51153, 1.50886, 1.5059, 1.50352, 1.50287, 1.5012, 1.4998, 1.49955, 1.49817, 1.49665, 1.49356, 1.50501, 1.49148, 1.48916, 1.4876, 1.48551, 1.48522, 1.48965, 1.48436, 1.48497, 1.50602, 1.51729, 1.48266, 1.51263, 1.47566, 1.48067, 1.49264, 1.53764, 1.54647, 1.57712, 1.54036, 1.4791, 1.55875, 1.50141, 1.51443, 1.51627, 1.50548, 1.46753, 1.45911, 1.4571, 1.45405, 1.4519, 1.44106, 1.43775, 1.43794, 1.4338, 1.43104, 1.42798, 1.42636, 1.42418, 1.42007, 1.4159, 1.41579, 1.41331, 1.41221, 1.40953, 1.40884, 1.4069, 1.4048, 1.4038, 1.40225, 1.39847, 1.39756, 1.3982, 1.39682, 1.39618, 1.39222, 1.39217, 1.39151, 1.38944, 1.38829, 1.38488, 1.37963, 1.3795, 1.37884, 1.37605, 1.37582, 1.37747, 1.37442, 1.37272, 1.37098, 1.38109, 1.36841, 1.37068, 1.36737, 1.36617, 1.36626, 1.36431, 1.36174, 1.36001, 1.35741, 1.3604, 1.35279, 1.34981, 1.34871, 1.34616, 1.34883, 1.34504, 1.34322, 1.34286, 1.34294, 1.34514, 1.3486, 1.36013, 1.33018, 1.35522, 1.38888, 1.48341, 1.48782, 1.60253, 1.61998, 1.66145, 1.62029, 1.5301, 1.48169, 1.34936, 1.29537, 1.32905, 1.33144, 1.32196, 1.32016, 1.31617, 1.31509, 1.31359, 1.31125, 1.31014, 1.31083, 1.30927, 1.30847, 1.30833, 1.30904, 1.30511
1.64348, 1.64119, 1.64028, 1.63916, 1.63842, 1.63702, 1.63355, 1.63253, 1.63382, 1.62853, 1.62676, 1.62305, 1.62021, 1.61756, 1.61411, 1.61114, 1.60968, 1.60807, 1.60823, 1.61313, 1.58389, 1.5993, 1.67957, 1.68884, 1.73848, 1.8147, 1.8782, 2.12484, 1.77469, 1.60226, 1.55238, 1.55213, 1.56442, 1.56989, 1.56929, 1.5778, 1.58763, 1.59827, 1.60786, 1.57882, 1.57535, 1.56884, 1.56056, 1.55312, 1.55729, 1.54391, 1.54405, 1.53659, 1.53583, 1.53408, 1.53166, 1.52963, 1.52712, 1.52528, 1.52179, 1.52063, 1.51945, 1.51713, 1.5145, 1.51356, 1.50942, 1.50826, 1.50461, 1.50278, 1.50047, 1.49891, 1.4969, 1.49532, 1.49311, 1.49108, 1.48915, 1.48799, 1.48544, 1.48461, 1.48184, 1.48053, 1.47898, 1.4777, 1.47662, 1.47553, 1.48644, 1.47879, 1.49141, 1.48135, 1.47312, 1.49981, 1.54345, 1.53194, 1.53992, 1.52434, 1.52054, 1.49578, 1.49925, 1.5312, 1.51427, 1.47464, 1.47424, 1.45023, 1.47659, 1.45256, 1.45062, 1.44174, 1.43888, 1.43653, 1.4343, 1.4322, 1.42943, 1.42705, 1.42479, 1.42295, 1.42121, 1.41606, 1.41538, 1.41311, 1.41202, 1.4111, 1.40771, 1.40572, 1.40595, 1.40342, 1.40134, 1.40186, 1.39894, 1.39716, 1.39563, 1.39621, 1.39402, 1.39212, 1.38951, 1.38807, 1.38655, 1.38423, 1.38304, 1.38114, 1.37834, 1.3778, 1.37539, 1.37464, 1.37397, 1.37077, 1.3685, 1.36777, 1.36502, 1.3647, 1.36506, 1.36139, 1.3604, 1.35723, 1.35687, 1.35636, 1.37298, 1.35372, 1.35189, 1.35021, 1.34958, 1.34614, 1.35807, 1.34692, 1.34561, 1.34492, 1.34421, 1.35268, 1.35274, 1.3339, 1.36385, 1.39563, 1.47827, 1.54429, 1.56925, 1.62125, 1.63849, 1.65307, 1.59972, 1.46881, 1.3609, 1.31079, 1.338, 1.32303, 1.31912, 1.31787, 1.31613, 1.31495, 1.31257, 1.31159, 1.31163, 1.31111, 1.30962, 1.31503, 1.31198, 1.3118, 1.30713
1.64145, 1.63933, 1.6375, 1.63475, 1.63448, 1.63297, 1.63066, 1.62673, 1.62371, 1.62248, 1.62272, 1.62113, 1.6178, 1.61525, 1.61727, 1.61097, 1.6089, 1.60644, 1.60605, 1.60663, 1.58651, 1.60306, 1.63664, 1.6702, 1.77166, 1.80727, 1.85197, 2.20504, 1.92686, 1.83023, 1.55413, 1.54319, 1.5541, 1.58228, 1.62327, 1.60698, 1.56147, 1.56145, 1.58444, 1.58372, 1.59332, 1.57453, 1.57212, 1.56846, 1.54556, 1.54137, 1.5382, 1.53391, 1.53443, 1.53856, 1.5305, 1.52821, 1.52563, 1.52459, 1.52238, 1.52198, 1.51767, 1.51638, 1.51317, 1.51082, 1.50837, 1.50737, 1.50223, 1.49922, 1.50021, 1.49642, 1.49499, 1.49359, 1.49374, 1.49167, 1.49086, 1.48521, 1.48381, 1.48131, 1.47914, 1.47786, 1.47535, 1.47437, 1.47307, 1.47402, 1.47622, 1.47939, 1.48027, 1.47969, 1.48672, 1.52701, 1.51726, 1.52602, 1.52707, 1.52227, 1.38971, 1.35717, 1.50544, 1.5098, 1.53014, 1.4962, 1.47781, 1.44655, 1.4646, 1.44933, 1.44519, 1.43713, 1.4349, 1.43367, 1.43293, 1.42761, 1.42478, 1.42106, 1.41913, 1.41922, 1.43387, 1.41341, 1.41209, 1.40937, 1.4085, 1.40678, 1.40817, 1.40662, 1.40746, 1.40381, 1.40163, 1.40027, 1.39817, 1.39498, 1.39359, 1.39381, 1.3918, 1.39054, 1.38622, 1.38517, 1.38388, 1.38375, 1.38044, 1.37984, 1.37822, 1.37671, 1.37658, 1.37316, 1.36879, 1.36753, 1.38242, 1.36275, 1.36197, 1.3626, 1.36142, 1.36066, 1.3601, 1.35788, 1.35501, 1.35039, 1.35075, 1.3515, 1.35101, 1.34415, 1.34333, 1.34276, 1.34403, 1.3437, 1.34352, 1.33933, 1.34162, 1.35668, 1.35448, 1.34244, 1.32268, 1.39601, 1.41544, 1.4854, 1.52478, 1.60302, 1.62316, 1.61773, 1.49991, 1.41402, 1.30772, 1.30756, 1.32804, 1.3307, 1.3232, 1.31854, 1.31579, 1.31387, 1.31249, 1.31694, 1.30845, 1.31191, 1.30787, 1.30838, 1.30849, 1.31579, 1.30708
1.64301, 1.63984, 1.6385, 1.6344, 1.63299, 1.6308, 1.6286, 1.62671, 1.62382, 1.62204, 1.62097, 1.61637, 1.61486, 1.61039, 1.60766, 1.60596, 1.60427, 1.60405, 1.60547, 1.60432, 1.60686, 1.58451, 1.61012, 1.6481, 1.70231, 1.82509, 1.86536, 2.02699, 1.97378, 1.82441, 1.53763, 1.53192, 1.57219, 1.65461, 1.73152, 1.79019, 1.81015, 1.66083, 1.59938, 1.59944, 1.58668, 1.58159, 1.58534, 1.57681, 1.55382, 1.54645, 1.54167, 1.53869, 1.53664, 1.5482, 1.53038, 1.52856, 1.52708, 1.52337, 1.52244, 1.52092, 1.51682, 1.51541, 1.52018, 1.51086, 1.5078, 1.5064, 1.50247, 1.50063, 1.49945, 1.50211, 1.49975, 1.51354, 1.49157, 1.48976, 1.48827, 1.48736, 1.48461, 1.48111, 1.48028, 1.47798, 1.47518, 1.47431, 1.47258, 1.47185, 1.47418, 1.47664, 1.48576, 1.48885, 1.49212, 1.50233, 1.52996, 1.51866, 1.51981, 1.53761, 1.506, 1.46971, 1.51631, 1.49202, 1.50322, 1.49671, 1.47502, 1.44928, 1.44557, 1.45389, 1.45037, 1.43866, 1.43094, 1.42742, 1.42463, 1.42259, 1.41962, 1.42409, 1.41578, 1.41458, 1.41229, 1.4103, 1.40908, 1.40745, 1.40658, 1.4072, 1.40985, 1.4079, 1.40548, 1.40519, 1.40284, 1.39863, 1.39436, 1.39291, 1.39221, 1.39853, 1.38724, 1.38558, 1.38482, 1.3823, 1.38096, 1.37867, 1.37889, 1.37584, 1.3747, 1.37322, 1.37087, 1.37071, 1.37163, 1.36791, 1.36639, 1.36449, 1.36347, 1.36073, 1.35938, 1.3566, 1.35375, 1.35233, 1.35171, 1.35054, 1.35286, 1.35344, 1.35751, 1.34732, 1.34543, 1.34568, 1.3467, 1.34321, 1.34208, 1.34115, 1.34459, 1.34458, 1.36067, 1.33396, 1.31113, 1.41751, 1.45518, 1.4896, 1.57489, 1.62358, 1.65779, 1.64517, 1.52307, 1.44632, 1.34753, 1.32236, 1.33054, 1.32654, 1.3215, 1.31748, 1.34432, 1.31333, 1.32428, 1.31567, 1.30886, 1.30633, 1.3037, 1.30714, 1.30346, 1.30158, 1.30056
1.63897, 1.63566, 1.6372, 1.63491, 1.63135, 1.62848, 1.62671, 1.62527, 1.62139, 1.62211, 1.61644, 1.61418, 1.61126, 1.6159, 1.60393, 1.60434, 1.60668, 1.6043, 1.61628, 1.61101, 1.61391, 1.5801, 1.63847, 1.6914, 1.73566, 1.83114, 1.92676, 1.9719, 1.89925, 1.76104, 1.54421, 1.56155, 1.53093, 1.57617, 1.62681, 1.66838, 1.61159, 1.61177, 1.59286, 1.58542, 1.59181, 1.58133, 1.5684, 1.55437, 1.55192, 1.54432, 1.53776, 1.53835, 1.53056, 1.52912, 1.52648, 1.52451, 1.52359, 1.51937, 1.51749, 1.51916, 1.51538, 1.51346, 1.51184, 1.51119, 1.51012, 1.50551, 1.50164, 1.49977, 1.49708, 1.4961, 1.49303, 1.49018, 1.48904, 1.48796, 1.48514, 1.48537, 1.48279, 1.48103, 1.47806, 1.47605, 1.4756, 1.47277, 1.47303, 1.48182, 1.47296, 1.47597, 1.47817, 1.47195, 1.4784, 1.49515, 1.50202, 1.50882, 1.52612, 1.5065, 1.47883, 1.48154, 1.48398, 1.48514, 1.5077, 1.48802, 1.4809, 1.43328, 1.44726, 1.45056, 1.44855, 1.44192, 1.43138, 1.42466, 1.42105, 1.41871, 1.41832, 1.41443, 1.41441, 1.4129, 1.42411, 1.4049, 1.40736, 1.4166, 1.4085, 1.40853, 1.40645, 1.40534, 1.40201, 1.40154, 1.40044, 1.39724, 1.39356, 1.396, 1.39274, 1.39169, 1.38571, 1.38434, 1.38292, 1.38164, 1.37937, 1.37911, 1.37674, 1.37467, 1.37462, 1.37245, 1.37082, 1.3685, 1.36776, 1.36685, 1.36432, 1.36334, 1.36258, 1.3594, 1.36009, 1.35793, 1.35746, 1.35669, 1.35702, 1.3564, 1.35452, 1.35319, 1.35085, 1.34963, 1.34775, 1.34556, 1.34472, 1.34423, 1.35005, 1.3446, 1.34224, 1.34292, 1.34396, 1.33742, 1.33373, 1.376, 1.43583, 1.4643, 1.52718, 1.59795, 1.71269, 1.75027, 1.4774, 1.42105, 1.33121, 1.31181, 1.32779, 1.34003, 1.32415, 1.32459, 1.32265, 1.31681, 1.33361, 1.32433, 1.3073, 1.3095, 1.30596, 1.30651, 1.30437, 1.29995, 1.29936
1.63357, 1.63007, 1.62827, 1.62661, 1.62391, 1.62086, 1.61962, 1.61711, 1.61627, 1.61341, 1.61114, 1.60969, 1.60904, 1.60424, 1.6029, 1.59952, 1.59863, 1.5968, 1.59542, 1.59578, 1.59378, 1.56141, 1.64253, 1.64487, 1.6888, 1.80993, 1.87121, 2.0274, 1.79879, 1.64174, 1.55252, 1.54685, 1.5677, 1.58188, 1.57926, 1.58711, 1.57326, 1.57278, 1.57352, 1.57124, 1.57935, 1.55879, 1.55533, 1.55457, 1.55102, 1.54029, 1.52977, 1.5292, 1.52615, 1.52304, 1.52062, 1.51995, 1.51903, 1.51355, 1.5119, 1.51094, 1.50841, 1.50645, 1.50593, 1.50589, 1.50497, 1.50184, 1.49855, 1.49798, 1.49555, 1.49264, 1.48865, 1.48512, 1.48293, 1.47831, 1.47774, 1.47609, 1.47247, 1.47262, 1.47144, 1.46958, 1.46761, 1.4666, 1.46502, 1.47927, 1.46477, 1.46797, 1.48628, 1.47142, 1.4768, 1.50295, 1.50916, 1.51327, 1.53525, 1.53586, 1.48583, 1.47572, 1.47434, 1.48478, 1.52333, 1.52973, 1.46176, 1.44762, 1.44994, 1.4386, 1.43738, 1.45008, 1.43031, 1.42404, 1.42095, 1.41873, 1.41615, 1.41927, 1.41328, 1.40963, 1.40903, 1.40777, 1.40711, 1.40381, 1.40397, 1.40209, 1.39995, 1.39826, 1.39756, 1.39619, 1.39387, 1.38835, 1.38528, 1.38435, 1.38149, 1.37816, 1.38209, 1.37822, 1.37545, 1.37423, 1.374, 1.37798, 1.37781, 1.37741, 1.37587, 1.37571, 1.37328, 1.36963, 1.36505, 1.36528, 1.36397, 1.35661, 1.35491, 1.35347, 1.35688, 1.3576, 1.35228, 1.35168, 1.35107, 1.35093, 1.34971, 1.34731, 1.35044, 1.34498, 1.34461, 1.34259, 1.34272, 1.33997, 1.33806, 1.33696, 1.35234, 1.33998, 1.34848, 1.34768, 1.32619, 1.32711, 1.34664, 1.46131, 1.55471, 1.61817, 1.62515, 1.64086, 1.56554, 1.4205, 1.27532, 1.29276, 1.32668, 1.32342, 1.31698, 1.31292, 1.3081, 1.30659, 1.30633, 1.326, 1.30238, 1.29981, 1.2967, 1.29683, 1.29869, 1.29771, 1.296
1.62832, 1.62806, 1.62623, 1.62324, 1.62213, 1.61972, 1.61832, 1.618, 1.61697, 1.61321, 1.61228, 1.61053, 1.60611, 1.60862, 1.60075, 1.59754, 1.59663, 1.59561, 1.59389, 1.59431, 1.59415, 1.56866, 1.63032, 1.65133, 1.72865, 1.78001, 1.87647, 1.97996, 1.94539, 1.74927, 1.5476, 1.53009, 1.56223, 1.56319, 1.56481, 1.56449, 1.57483, 1.57176, 1.56088, 1.56125, 1.55076, 1.55571, 1.54731, 1.5378, 1.53578, 1.53081, 1.53289, 1.5252, 1.53057, 1.52191, 1.51999, 1.51772, 1.51453, 1.5121, 1.51163, 1.50932, 1.50638, 1.50527, 1.50368, 1.50319, 1.50115, 1.4987, 1.49758, 1.49596, 1.49227, 1.4903, 1.4858, 1.48301, 1.4795, 1.47718, 1.47339, 1.47151, 1.47039, 1.46999, 1.46926, 1.46796, 1.46662, 1.46427, 1.46441, 1.46202, 1.46098, 1.46523, 1.46563, 1.47334, 1.48511, 1.5042, 1.55331, 1.51542, 1.50538, 1.50706, 1.47929, 1.46704, 1.46572, 1.48566, 1.50658, 1.50963, 1.47824, 1.44454, 1.43889, 1.45009, 1.44153, 1.43768, 1.42945, 1.44084, 1.42394, 1.42044, 1.42003, 1.41441, 1.41398, 1.4106, 1.40751, 1.4069, 1.40282, 1.40091, 1.39999, 1.39927, 1.3981, 1.39401, 1.39277, 1.39152, 1.3881, 1.38562, 1.38373, 1.38108, 1.38129, 1.37789, 1.37704, 1.37493, 1.37481, 1.37343, 1.37559, 1.37461, 1.37531, 1.37416, 1.37423, 1.37371, 1.37259, 1.37058, 1.36734, 1.3662, 1.36148, 1.35793, 1.35332, 1.35278, 1.34921, 1.34529, 1.34746, 1.34723, 1.3498, 1.34958, 1.34696, 1.34424, 1.34414, 1.34404, 1.34299, 1.34011, 1.33972, 1.3389, 1.33613, 1.33383, 1.33324, 1.33928, 1.33812, 1.34286, 1.33953, 1.3897, 1.45743, 1.47957, 1.58262, 1.66302, 1.70864, 1.66546, 1.65421, 1.43287, 1.28856, 1.30057, 1.31527, 1.3238, 1.31057, 1.30675, 1.30498, 1.30418, 1.30359, 1.3017, 1.29921, 1.30141, 1.29798, 1.29582, 1.29531, 1.29552, 1.29374
1.62814, 1.62674, 1.62699, 1.62385, 1.62179, 1.6194, 1.6192, 1.61931, 1.61803, 1.61658, 1.61419, 1.61105, 1.60829, 1.60549, 1.60262, 1.60049, 1.59727, 1.59612, 1.59533, 1.60369, 1.59661, 1.57567, 1.62469, 1.63664, 1.71396, 1.7414, 1.78143, 2.13307, 1.8667, 1.74831, 1.57529, 1.54757, 1.55682, 1.56173, 1.57325, 1.55783, 1.55782, 1.55646, 1.55477, 1.55105, 1.54952, 1.55129, 1.5496, 1.54042, 1.53848, 1.53516, 1.53798, 1.52802, 1.52741, 1.52318, 1.5286, 1.5192, 1.51534, 1.51194, 1.51051, 1.5091, 1.50687, 1.50371, 1.50185, 1.49988, 1.49967, 1.49837, 1.49576, 1.49329, 1.4915, 1.48887, 1.48722, 1.48259, 1.47913, 1.47576, 1.47557, 1.48901, 1.47239, 1.47057, 1.46903, 1.4662, 1.46452, 1.46428, 1.46244, 1.46205, 1.47515, 1.4797, 1.4724, 1.46182, 1.46824, 1.47814, 1.50407, 1.50761, 1.51256, 1.5277, 1.48118, 1.49508, 1.47314, 1.50033, 1.4789, 1.47492, 1.4807, 1.45738, 1.45397, 1.44389, 1.43882, 1.43715, 1.429, 1.42632, 1.42362, 1.41912, 1.41616, 1.41903, 1.41162, 1.40885, 1.40754, 1.40529, 1.40479, 1.40297, 1.40023, 1.39886, 1.39655, 1.39377, 1.3925, 1.38971, 1.3877, 1.38756, 1.38434, 1.3828, 1.37858, 1.37823, 1.37694, 1.37574, 1.38198, 1.37408, 1.37372, 1.37431, 1.37345, 1.37262, 1.3727, 1.37118, 1.36876, 1.3663, 1.36379, 1.3617, 1.35733, 1.35692, 1.35054, 1.3509, 1.34867, 1.34796, 1.34709, 1.34567, 1.34691, 1.34633, 1.34443, 1.34032, 1.34105, 1.34106, 1.34066, 1.3377, 1.33445, 1.34276, 1.33095, 1.32966, 1.32922, 1.33877, 1.33367, 1.33316, 1.33243, 1.34292, 1.44166, 1.47733, 1.51063, 1.55942, 1.68522, 1.72345, 1.56212, 1.41533, 1.27414, 1.29499, 1.30312, 1.32281, 1.32093, 1.3063, 1.31313, 1.32312, 1.30375, 1.3034, 1.30301, 1.30379, 1.30182, 1.29771, 1.29614, 1.29651, 1.29384
1.62679, 1.62369, 1.62368, 1.62244, 1.61948, 1.61742, 1.61656, 1.61621, 1.61417, 1.61253, 1.61109, 1.60694, 1.6069, 1.60452, 1.60062, 1.59882, 1.59554, 1.59431, 1.59194, 1.59333, 1.59242, 1.58901, 1.57621, 1.63525, 1.73013, 1.78658, 1.82176, 1.79001, 1.65572, 1.65318, 1.52616, 1.52309, 1.55582, 1.56823, 1.56616, 1.55752, 1.56029, 1.55252, 1.55234, 1.54789, 1.54605, 1.54544, 1.54795, 1.53872, 1.53645, 1.5348, 1.53098, 1.52791, 1.52582, 1.5233, 1.52011, 1.51841, 1.51694, 1.51133, 1.50822, 1.50182, 1.50193, 1.50238, 1.50201, 1.4991, 1.49666, 1.49399, 1.49182, 1.49168, 1.4896, 1.48858, 1.48604, 1.48318, 1.48114, 1.47792, 1.47761, 1.4741, 1.47184, 1.47132, 1.46851, 1.46632, 1.46353, 1.4619, 1.46058, 1.46138, 1.46086, 1.46153, 1.46274, 1.47314, 1.46953, 1.49838, 1.49801, 1.55469, 1.56861, 1.51651, 1.51674, 1.46441, 1.47829, 1.47807, 1.47466, 1.48307, 1.47055, 1.46383, 1.45462, 1.44831, 1.43597, 1.42956, 1.42554, 1.42911, 1.41642, 1.41348, 1.41269, 1.42077, 1.4101, 1.40781, 1.40586, 1.40542, 1.40173, 1.40048, 1.40145, 1.39839, 1.39822, 1.39194, 1.39244, 1.39307, 1.38817, 1.38662, 1.38475, 1.38353, 1.38963, 1.38181, 1.37833, 1.37729, 1.37448, 1.37483, 1.37416, 1.3714, 1.37137, 1.37072, 1.3681, 1.36543, 1.36422, 1.36459, 1.35904, 1.35574, 1.35196, 1.35166, 1.35943, 1.34742, 1.34722, 1.34679, 1.34699, 1.34553, 1.34675, 1.34689, 1.34309, 1.34191, 1.34138, 1.34046, 1.3433, 1.33642, 1.33502, 1.33294, 1.3385, 1.32629, 1.32527, 1.32435, 1.32888, 1.30941, 1.30433, 1.30903, 1.44134, 1.43661, 1.47888, 1.58543, 1.5874, 1.69922, 1.56197, 1.41369, 1.29261, 1.28954, 1.31357, 1.30566, 1.3063, 1.30644, 1.31135, 1.30699, 1.30393, 1.3028, 1.32094, 1.31517, 1.29945, 1.29868, 1.29788, 1.29839, 1.29468
1.62554, 1.62362, 1.62332, 1.62169, 1.62344, 1.62009, 1.61918, 1.61684, 1.61658, 1.61606, 1.6133, 1.60769, 1.60637, 1.60559, 1.61209, 1.60939, 1.59536, 1.59603, 1.59379, 1.61176, 1.59467, 1.59239, 1.58881, 1.67103, 1.70349, 1.78682, 1.91409, 1.73639, 1.77558, 1.73704, 1.55174, 1.54799, 1.56381, 1.57889, 1.56265, 1.56431, 1.56002, 1.56767, 1.55449, 1.55177, 1.55135, 1.54457, 1.54342, 1.53943, 1.56127, 1.53317, 1.53085, 1.53017, 1.53038, 1.53019, 1.52331, 1.51988, 1.51911, 1.51544, 1.51347, 1.50875, 1.50703, 1.50781, 1.50479, 1.50448, 1.49933, 1.49633, 1.49459, 1.49372, 1.48988, 1.48783, 1.48697, 1.48822, 1.48774, 1.48244, 1.47688, 1.4749, 1.47422, 1.47175, 1.4701, 1.47101, 1.46886, 1.46731, 1.46559, 1.46441, 1.46557, 1.46909, 1.47956, 1.4728, 1.48137, 1.47738, 1.51032, 1.52498, 1.50629, 1.50161, 1.46931, 1.49556, 1.47345, 1.46702, 1.51242, 1.50149, 1.48816, 1.49946, 1.45018, 1.44534, 1.43573, 1.43345, 1.43332, 1.4274, 1.41796, 1.41465, 1.41375, 1.41117, 1.40928, 1.40859, 1.40574, 1.40503, 1.40314, 1.40178, 1.39996, 1.39839, 1.39818, 1.39621, 1.39652, 1.39197, 1.38937, 1.38873, 1.38755, 1.38521, 1.3955, 1.37911, 1.37848, 1.37735, 1.37602, 1.37376, 1.37232, 1.3693, 1.36959, 1.3669, 1.36482, 1.36349, 1.36274, 1.35885, 1.35686, 1.35324, 1.35083, 1.34855, 1.35023, 1.34544, 1.34645, 1.34604, 1.34606, 1.34675, 1.34582, 1.35055, 1.34329, 1.33964, 1.33791, 1.33971, 1.33509, 1.3334, 1.33175, 1.33048, 1.33006, 1.33092, 1.33082, 1.32857, 1.3531, 1.3365, 1.30568, 1.33801, 1.4066, 1.48102, 1.52244, 1.59614, 1.68355, 1.68563, 1.56636, 1.4929, 1.31332, 1.30635, 1.31524, 1.32533, 1.30942, 1.31048, 1.30602, 1.3039, 1.30397, 1.30387, 1.30166, 1.30365, 1.30173, 1.30305, 1.2982, 1.29687, 1.29631
1.62927, 1.62674, 1.62285, 1.61857, 1.61817, 1.61589, 1.61329, 1.61399, 1.61126, 1.60868, 1.60786, 1.60464, 1.60226, 1.60619, 1.59678, 1.59442, 1.60392, 1.58987, 1.5933, 1.58562, 1.58613, 1.58689, 1.5749, 1.62786, 1.66134, 1.80001, 1.81128, 1.70736, 1.71815, 1.69712, 1.59589, 1.55034, 1.56207, 1.56644, 1.57284, 1.56257, 1.56157, 1.55432, 1.55102, 1.5614, 1.54469, 1.54057, 1.53791, 1.53557, 1.5327, 1.52849, 1.52513, 1.53389, 1.52238, 1.52154, 1.52022, 1.51739, 1.51656, 1.51589, 1.51334, 1.51126, 1.50953, 1.50667, 1.50336, 1.50272, 1.49803, 1.49802, 1.49649, 1.49266, 1.48948, 1.48607, 1.48434, 1.48248, 1.47875, 1.47854, 1.47621, 1.4746, 1.47079, 1.47896, 1.46901, 1.47033, 1.46723, 1.46533, 1.46342, 1.48278, 1.46424, 1.47595, 1.47964, 1.4858, 1.47314, 1.47448, 1.50727, 1.49006, 1.49133, 1.49127, 1.47228, 1.46792, 1.45504, 1.48541, 1.47225, 1.46721, 1.46805, 1.4652, 1.44699, 1.44271, 1.42713, 1.4257, 1.41787, 1.41284, 1.41134, 1.4097, 1.40898, 1.40855, 1.4087, 1.40695, 1.40877, 1.40573, 1.40511, 1.40052, 1.39911, 1.39517, 1.39448, 1.39131, 1.39, 1.38812, 1.38674, 1.38456, 1.38404, 1.38239, 1.38146, 1.38003, 1.37594, 1.38192, 1.3729, 1.37265, 1.36807, 1.3667, 1.36387, 1.37423, 1.361, 1.36183, 1.35529, 1.3521, 1.35116, 1.34945, 1.34721, 1.34506, 1.3435, 1.3439, 1.34479, 1.34344, 1.34289, 1.34396, 1.34404, 1.34214, 1.34318, 1.35368, 1.35872, 1.33494, 1.35767, 1.33286, 1.33293, 1.3462, 1.34177, 1.33635, 1.33003, 1.32948, 1.33635, 1.33652, 1.31331, 1.35814, 1.42534, 1.46594, 1.48832, 1.51931, 1.68589, 1.70898, 1.47344, 1.40315, 1.29296, 1.2674, 1.31041, 1.31853, 1.3123, 1.30252, 1.31655, 1.30102, 1.30215, 1.29963, 1.30124, 1.2992, 1.29864, 1.29693, 1.29324, 1.29479, 1.29133
1.62068, 1.61802, 1.61657, 1.61361, 1.61126, 1.60957, 1.60831, 1.61321, 1.60306, 1.62167, 1.59859, 1.59756, 1.59434, 1.59293, 1.58981, 1.58661, 1.58673, 1.58166, 1.57992, 1.57809, 1.57846, 1.57354, 1.5657, 1.58636, 1.70731, 1.74895, 1.82747, 2.13547, 2.15537, 1.81006, 1.60413, 1.55246, 1.5745, 1.56456, 1.55328, 1.55001, 1.56335, 1.547, 1.54124, 1.53975, 1.54797, 1.53057, 1.52773, 1.52526, 1.51995, 1.51798, 1.51502, 1.51349, 1.51407, 1.51238, 1.51189, 1.5119, 1.51064, 1.50915, 1.50739, 1.51445, 1.50242, 1.49868, 1.49632, 1.49178, 1.49161, 1.48916, 1.488, 1.4844, 1.48116, 1.47962, 1.4766, 1.47518, 1.47307, 1.47133, 1.4693, 1.46772, 1.46418, 1.46679, 1.4631, 1.46137, 1.47443, 1.45802, 1.46728, 1.45852, 1.45725, 1.45757, 1.45923, 1.47319, 1.47903, 1.4919, 1.51036, 1.48068, 1.49546, 1.47085, 1.46771, 1.45307, 1.4671, 1.46866, 1.46751, 1.47901, 1.482, 1.45176, 1.43882, 1.44757, 1.42245, 1.4204, 1.41401, 1.40825, 1.40753, 1.40398, 1.40205, 1.39985, 1.39857, 1.39924, 1.401, 1.40898, 1.41672, 1.39658, 1.3996, 1.39194, 1.38832, 1.38503, 1.38309, 1.38115, 1.38027, 1.37836, 1.37795, 1.37701, 1.37458, 1.37401, 1.37111, 1.36845, 1.36753, 1.36574, 1.3642, 1.3605, 1.35904, 1.35557, 1.35384, 1.3513, 1.34794, 1.34529, 1.34478, 1.34315, 1.34311, 1.34327, 1.33939, 1.33807, 1.33948, 1.33923, 1.33915, 1.34083, 1.33884, 1.33969, 1.33741, 1.3366, 1.33626, 1.33223, 1.33137, 1.32935, 1.32535, 1.32416, 1.32197, 1.32148, 1.33136, 1.3255, 1.32267, 1.32719, 1.33572, 1.31201, 1.34639, 1.44167, 1.48564, 1.53874, 1.67827, 1.69015, 1.46813, 1.37467, 1.33658, 1.28208, 1.29946, 1.29865, 1.31212, 1.29625, 1.29596, 1.29566, 1.29522, 1.29356, 1.29447, 1.29799, 1.29014, 1.28614, 1.28608, 1.28274, 1.28217
1.62082, 1.61819, 1.61622, 1.61372, 1.61287, 1.60894, 1.60955, 1.60621, 1.60094, 1.59785, 1.59595, 1.59289, 1.5962, 1.58987, 1.58662, 1.58559, 1.5865, 1.57687, 1.5749, 1.58205, 1.57819, 1.57909, 1.54755, 1.61174, 1.71283, 1.74237, 1.80629, 1.94398, 1.94173, 1.69221, 1.61994, 1.53288, 1.56113, 1.56394, 1.54911, 1.54526, 1.55793, 1.54051, 1.53492, 1.53416, 1.5281, 1.52517, 1.52134, 1.51828, 1.51512, 1.51639, 1.51015, 1.50821, 1.50597, 1.50616, 1.50485, 1.50383, 1.50426, 1.50201, 1.50163, 1.49878, 1.49671, 1.49623, 1.49356, 1.48995, 1.48717, 1.48502, 1.48249, 1.48487, 1.48047, 1.47809, 1.47547, 1.47412, 1.46917, 1.46407, 1.46372, 1.46166, 1.46055, 1.46036, 1.45499, 1.45592, 1.45372, 1.45133, 1.45802, 1.45798, 1.45797, 1.4534, 1.45575, 1.45553, 1.45751, 1.4586, 1.47119, 1.48533, 1.47784, 1.46613, 1.47777, 1.45722, 1.47061, 1.46116, 1.47537, 1.46721, 1.4576, 1.47404, 1.43934, 1.43722, 1.42088, 1.42231, 1.41475, 1.41238, 1.40373, 1.40123, 1.39879, 1.39593, 1.39549, 1.39358, 1.39349, 1.39405, 1.39272, 1.39032, 1.38981, 1.38703, 1.38416, 1.37848, 1.37735, 1.37464, 1.37173, 1.36911, 1.36789, 1.367, 1.3656, 1.36421, 1.36521, 1.36196, 1.36155, 1.36071, 1.36304, 1.36025, 1.35398, 1.35099, 1.35081, 1.34835, 1.34867, 1.34475, 1.3431, 1.34348, 1.34781, 1.34341, 1.33587, 1.33099, 1.33322, 1.33313, 1.33407, 1.33462, 1.33472, 1.33343, 1.3315, 1.33107, 1.32961, 1.32718, 1.32597, 1.32369, 1.32133, 1.33024, 1.31844, 1.31627, 1.31454, 1.31562, 1.3263, 1.33023, 1.31092, 1.29167, 1.35433, 1.4472, 1.47267, 1.53136, 1.61945, 1.75413, 1.48167, 1.44133, 1.2688, 1.26258, 1.2898, 1.29603, 1.29463, 1.29146, 1.31244, 1.29153, 1.29177, 1.28991, 1.28661, 1.28665, 1.28558, 1.28141, 1.2804, 1.28064, 1.27704
1.61701, 1.61638, 1.61405, 1.61161, 1.60987, 1.60676, 1.60641, 1.61386, 1.60018, 1.59529, 1.59411, 1.59258, 1.59246, 1.59238, 1.58936, 1.58602, 1.58505, 1.5841, 1.60063, 1.57656, 1.59742, 1.57475, 1.55181, 1.60924, 1.63574, 1.85549, 1.87556, 2.00317, 2.00116, 1.72071, 1.5943, 1.54144, 1.56164, 1.56012, 1.55605, 1.55672, 1.54114, 1.53834, 1.53737, 1.53347, 1.52901, 1.52502, 1.52045, 1.51998, 1.51814, 1.51769, 1.51408, 1.51089, 1.51062, 1.50649, 1.50402, 1.50256, 1.50248, 1.50644, 1.49832, 1.49674, 1.49535, 1.49373, 1.49161, 1.48882, 1.49207, 1.48549, 1.48011, 1.47951, 1.47558, 1.47398, 1.47185, 1.47131, 1.46796, 1.46665, 1.46514, 1.46358, 1.46108, 1.45858, 1.46529, 1.45396, 1.45088, 1.45092, 1.45043, 1.45014, 1.45868, 1.45076, 1.46002, 1.45673, 1.45588, 1.4488, 1.48228, 1.48531, 1.46786, 1.46268, 1.45734, 1.45245, 1.46039, 1.46968, 1.4638, 1.47016, 1.45736, 1.455, 1.43578, 1.44193, 1.42114, 1.41881, 1.42698, 1.40399, 1.41262, 1.41228, 1.39646, 1.3957, 1.39282, 1.39455, 1.39304, 1.39172, 1.39023, 1.388, 1.3879, 1.39549, 1.38311, 1.381, 1.38044, 1.37732, 1.37481, 1.37456, 1.37195, 1.37102, 1.369, 1.36578, 1.36451, 1.36435, 1.36163, 1.36196, 1.35987, 1.36009, 1.35986, 1.35677, 1.35671, 1.35023, 1.34826, 1.34516, 1.34277, 1.33949, 1.33761, 1.33469, 1.3346, 1.33375, 1.3356, 1.33613, 1.33504, 1.33421, 1.33507, 1.33518, 1.33556, 1.33121, 1.33045, 1.32936, 1.32966, 1.33336, 1.32617, 1.32014, 1.31935, 1.31912, 1.31701, 1.32522, 1.32192, 1.32093, 1.31279, 1.28201, 1.33662, 1.4503, 1.48911, 1.55158, 1.6646, 1.66167, 1.5273, 1.42384, 1.27105, 1.2907, 1.29348, 1.29845, 1.31291, 1.29511, 1.29389, 1.29695, 1.29662, 1.28847, 1.28939, 1.28581, 1.28422, 1.28284, 1.28394, 1.28218, 1.28307
1.6158, 1.61065, 1.61036, 1.60958, 1.60981, 1.60488, 1.60298, 1.60255, 1.5977, 1.60952, 1.59294, 1.59162, 1.5958, 1.58736, 1.58484, 1.58397, 1.58802, 1.59951, 1.59331, 1.57875, 1.59033, 1.57624, 1.57116, 1.59478, 1.64488, 1.73843, 1.8958, 2.00121, 1.99052, 1.7286, 1.56804, 1.52709, 1.54854, 1.5498, 1.5512, 1.55189, 1.53753, 1.55123, 1.53377, 1.53047, 1.54833, 1.53183, 1.52411, 1.55261, 1.51882, 1.51655, 1.51421, 1.51239, 1.51089, 1.50624, 1.50537, 1.50035, 1.49706, 1.49487, 1.49602, 1.49525, 1.49222, 1.49032, 1.489, 1.48831, 1.48367, 1.48171, 1.47947, 1.47617, 1.47611, 1.4741, 1.47152, 1.46961, 1.46838, 1.46481, 1.46518, 1.46072, 1.4604, 1.45785, 1.45567, 1.45359, 1.45767, 1.44878, 1.4478, 1.44772, 1.44829, 1.45367, 1.46156, 1.4509, 1.45751, 1.45961, 1.46274, 1.4616, 1.46878, 1.47217, 1.46424, 1.4758, 1.45078, 1.4614, 1.4746, 1.4589, 1.45653, 1.45746, 1.43429, 1.43077, 1.44399, 1.42488, 1.42165, 1.40675, 1.4041, 1.40649, 1.39866, 1.40513, 1.39584, 1.3985, 1.39367, 1.39046, 1.38924, 1.41346, 1.39238, 1.38605, 1.39546, 1.38039, 1.37902, 1.37471, 1.37712, 1.3715, 1.37648, 1.36803, 1.36611, 1.3637, 1.36097, 1.35875, 1.36012, 1.35678, 1.35335, 1.35379, 1.35321, 1.35363, 1.3515, 1.35123, 1.3504, 1.34694, 1.34906, 1.34281, 1.34161, 1.34021, 1.33819, 1.33632, 1.33439, 1.33705, 1.33351, 1.3326, 1.33274, 1.3311, 1.33313, 1.33098, 1.32767, 1.33724, 1.32666, 1.32449, 1.33035, 1.33081, 1.33443, 1.32662, 1.32299, 1.31921, 1.32945, 1.33295, 1.31714, 1.29597, 1.35427, 1.41077, 1.48808, 1.51644, 1.61019, 1.72049, 1.50028, 1.50405, 1.33772, 1.29629, 1.31393, 1.31374, 1.31275, 1.31666, 1.31165, 1.30864, 1.30655, 1.28788, 1.29015, 1.30867, 1.30578, 1.30583, 1.30289, 1.28521, 1.28117
