1.63363, 1.61748, 1.61834, 1.60247, 1.59932, 1.58867, 1.60049, 1.60559, 1.57013, 1.59966, 1.607, 1.61007, 1.67833, 1.70256, 1.542, 1.56739, 1.54711, 1.54341, 1.53491, 1.54109, 1.52368, 1.51048, 1.50926, 1.5044, 1.50028, 1.49815, 1.49612, 1.49077, 1.48227, 1.4797, 1.47435, 1.46903, 1.46496, 1.45987, 1.45478, 1.45193, 1.4516, 1.45531, 1.4469, 1.44762, 1.5359, 1.78129, 1.65517, 1.41344, 1.42226, 1.42593, 1.41324, 1.41169, 1.4023, 1.40129, 1.39465, 1.39299, 1.40879, 1.38104, 1.37875, 1.37327, 1.36898, 1.36702, 1.36203, 1.3579, 1.35363, 1.35187, 1.35187, 1.35853, 1.34221, 1.33976, 1.32998, 1.32937, 1.32397, 1.32023, 1.31856, 1.31514, 1.3138, 1.3202, 1.32325, 1.33508, 1.3349, 1.33441, 1.34423, 1.34444, 1.33222, 1.31628, 1.30169, 1.28566, 1.27924, 1.27817, 1.27513, 1.27521, 1.28186, 
1.64589, 1.61047, 1.60805, 1.6061, 1.60212, 1.59526, 1.59795, 1.59583, 1.59687, 1.62993, 1.6509, 1.64709, 1.66552, 1.63337, 1.52865, 1.56352, 1.54521, 1.54559, 1.53806, 1.56446, 1.52042, 1.51439, 1.51126, 1.50805, 1.50377, 1.49941, 1.49991, 1.4913, 1.48505, 1.48017, 1.476, 1.47236, 1.46941, 1.46749, 1.45688, 1.45489, 1.45075, 1.44896, 1.46581, 1.46993, 1.60562, 1.74833, 1.72032, 1.39258, 1.42154, 1.41654, 1.41594, 1.40627, 1.40305, 1.40214, 1.39523, 1.3864, 1.38614, 1.38482, 1.37832, 1.37317, 1.37043, 1.36681, 1.36439, 1.35783, 1.356, 1.35253, 1.35062, 1.34673, 1.34639, 1.34239, 1.33691, 1.33744, 1.33258, 1.32944, 1.32437, 1.32068, 1.31963, 1.3231, 1.33017, 1.32689, 1.3513, 1.37829, 1.38311, 1.35445, 1.31297, 1.31721, 1.31579, 1.28764, 1.28596, 1.27325, 1.27116, 1.27476, 1.27269, 
1.66351, 1.66015, 1.6104, 1.61691, 1.60016, 1.59751, 1.59616, 1.5997, 1.58629, 1.63113, 1.64859, 1.64702, 1.75822, 1.65121, 1.55235, 1.55962, 1.55352, 1.54851, 1.54858, 1.54731, 1.53207, 1.5361, 1.51003, 1.50882, 1.50709, 1.50467, 1.49568, 1.4911, 1.4902, 1.48398, 1.49448, 1.47897, 1.47518, 1.46407, 1.46861, 1.45684, 1.45471, 1.44928, 1.41726, 1.43205, 1.64107, 1.69589, 1.7415, 1.45136, 1.42623, 1.43629, 1.41929, 1.41009, 1.40705, 1.39931, 1.39464, 1.38737, 1.38633, 1.38594, 1.38283, 1.37628, 1.37254, 1.37217, 1.37142, 1.3621, 1.35939, 1.35583, 1.35159, 1.34922, 1.34513, 1.34147, 1.34003, 1.33952, 1.3392, 1.33643, 1.33338, 1.32977, 1.32777, 1.32877, 1.33227, 1.34393, 1.37508, 1.36074, 1.34733, 1.37799, 1.35286, 1.30602, 1.30872, 1.29119, 1.28226, 1.27515, 1.27764, 1.27549, 1.28164, 
1.66349, 1.65908, 1.63123, 1.6177, 1.60719, 1.60293, 1.60131, 1.62331, 1.59819, 1.62262, 1.63135, 1.67583, 1.7087, 1.66005, 1.54671, 1.56611, 1.56028, 1.54467, 1.53977, 1.55804, 1.53964, 1.52986, 1.53398, 1.52463, 1.51001, 1.50604, 1.49928, 1.49738, 1.49006, 1.48653, 1.49002, 1.48267, 1.4774, 1.47454, 1.46585, 1.46153, 1.46016, 1.46085, 1.45791, 1.43944, 1.57315, 1.69149, 1.5986, 1.41058, 1.43025, 1.43257, 1.42024, 1.41327, 1.42894, 1.40601, 1.39899, 1.39739, 1.39457, 1.39169, 1.3888, 1.38315, 1.38059, 1.37765, 1.37448, 1.37026, 1.36642, 1.36056, 1.35638, 1.35249, 1.35075, 1.34774, 1.34529, 1.35442, 1.34929, 1.3428, 1.36077, 1.33376, 1.33398, 1.33816, 1.34444, 1.33391, 1.34856, 1.35568, 1.37548, 1.38012, 1.34257, 1.30663, 1.30604, 1.29931, 1.28889, 1.29113, 1.28902, 1.28507, 1.28102, 
1.65816, 1.65646, 1.66359, 1.62425, 1.61151, 1.60709, 1.60723, 1.63518, 1.58473, 1.65136, 1.66757, 1.68013, 1.68309, 1.69222, 1.58213, 1.56108, 1.55088, 1.54866, 1.55411, 1.55262, 1.55615, 1.55038, 1.54106, 1.51723, 1.51396, 1.50947, 1.50471, 1.50043, 1.49346, 1.49225, 1.48673, 1.48345, 1.48006, 1.4752, 1.47301, 1.46924, 1.47018, 1.46651, 1.46869, 1.43909, 1.55457, 1.72457, 1.71625, 1.49505, 1.44794, 1.44659, 1.43063, 1.42518, 1.41893, 1.41294, 1.40731, 1.40341, 1.40024, 1.39608, 1.38899, 1.38856, 1.38508, 1.3833, 1.38068, 1.37766, 1.37442, 1.36636, 1.36272, 1.35923, 1.35099, 1.34818, 1.3503, 1.352, 1.35121, 1.35328, 1.34663, 1.34092, 1.33988, 1.3374, 1.34446, 1.32981, 1.35511, 1.37187, 1.38474, 1.42959, 1.35001, 1.3236, 1.32545, 1.30456, 1.29797, 1.29013, 1.29946, 1.28935, 1.28983, 
1.63845, 1.64406, 1.66803, 1.61928, 1.6232, 1.61755, 1.60822, 1.6087, 1.61409, 1.61926, 1.66216, 1.6936, 1.70023, 1.67101, 1.56074, 1.56841, 1.56816, 1.56872, 1.54788, 1.54752, 1.54733, 1.5576, 1.52897, 1.52337, 1.52039, 1.51292, 1.50896, 1.50659, 1.5006, 1.4957, 1.49571, 1.48887, 1.51748, 1.4834, 1.49212, 1.49275, 1.4696, 1.46922, 1.47959, 1.53652, 1.58348, 1.73444, 1.73537, 1.48401, 1.45766, 1.44853, 1.43741, 1.42848, 1.42337, 1.41699, 1.41208, 1.41244, 1.40673, 1.40305, 1.39683, 1.39539, 1.39088, 1.38851, 1.38527, 1.38512, 1.37836, 1.37692, 1.37745, 1.36042, 1.3547, 1.34816, 1.34912, 1.35032, 1.3494, 1.35546, 1.34486, 1.34328, 1.33935, 1.35074, 1.34856, 1.34054, 1.36102, 1.36518, 1.37135, 1.43112, 1.3799, 1.30803, 1.32614, 1.31537, 1.32015, 1.3026, 1.29785, 1.29837, 1.29665, 
1.64398, 1.66477, 1.63071, 1.63321, 1.62591, 1.61488, 1.61059, 1.61175, 1.61308, 1.62338, 1.66811, 1.66933, 1.732, 1.72756, 1.55772, 1.57442, 1.56849, 1.56119, 1.54845, 1.5464, 1.54837, 1.57125, 1.53435, 1.53278, 1.5266, 1.51823, 1.51574, 1.51101, 1.50535, 1.50008, 1.49565, 1.49298, 1.49154, 1.49105, 1.48492, 1.48341, 1.47516, 1.48524, 1.48041, 1.47648, 1.57524, 1.70048, 1.71431, 1.57857, 1.44398, 1.46295, 1.43567, 1.42905, 1.42531, 1.42261, 1.41733, 1.41239, 1.41099, 1.4065, 1.40282, 1.39883, 1.39636, 1.39255, 1.39212, 1.38829, 1.3875, 1.37866, 1.37236, 1.36289, 1.36065, 1.35679, 1.35365, 1.35002, 1.34677, 1.34439, 1.34509, 1.3442, 1.34192, 1.34379, 1.34824, 1.36265, 1.4026, 1.3917, 1.38811, 1.39968, 1.41918, 1.31299, 1.32959, 1.31754, 1.31546, 1.30729, 1.30233, 1.29801, 1.3017, 
1.64212, 1.64048, 1.6275, 1.65287, 1.62999, 1.62046, 1.61142, 1.61854, 1.60124, 1.68992, 1.66486, 1.70039, 1.77416, 1.73944, 1.55136, 1.57576, 1.58688, 1.56144, 1.5511, 1.54731, 1.54382, 1.55496, 1.54484, 1.53575, 1.52875, 1.5258, 1.519, 1.51906, 1.50921, 1.50226, 1.49812, 1.49399, 1.48931, 1.48877, 1.48606, 1.48186, 1.47389, 1.48596, 1.47309, 1.47861, 1.6269, 1.71612, 1.61967, 1.4498, 1.42666, 1.44785, 1.44015, 1.4486, 1.4263, 1.41914, 1.41743, 1.41653, 1.41125, 1.40948, 1.40556, 1.40141, 1.39786, 1.39259, 1.39172, 1.39228, 1.3913, 1.38805, 1.38378, 1.37447, 1.3675, 1.36363, 1.35887, 1.35433, 1.35182, 1.3532, 1.34979, 1.34649, 1.34433, 1.33999, 1.34567, 1.34062, 1.36734, 1.38317, 1.40878, 1.39633, 1.38543, 1.29752, 1.32955, 1.3169, 1.3128, 1.31181, 1.30234, 1.32202, 1.29836, 
1.6456, 1.64367, 1.64287, 1.65161, 1.64469, 1.6268, 1.61609, 1.61239, 1.59632, 1.63944, 1.65455, 1.74662, 1.73745, 1.71018, 1.5587, 1.58878, 1.56497, 1.55548, 1.55471, 1.54562, 1.54377, 1.54721, 1.56181, 1.53572, 1.52691, 1.52503, 1.52218, 1.51301, 1.51035, 1.50162, 1.50018, 1.49656, 1.49287, 1.49152, 1.48653, 1.479, 1.47555, 1.47394, 1.47081, 1.48247, 1.54406, 1.64544, 1.667, 1.54431, 1.42195, 1.44664, 1.43888, 1.42813, 1.4249, 1.41991, 1.4163, 1.41487, 1.41025, 1.40954, 1.40362, 1.39902, 1.39455, 1.39124, 1.39055, 1.3913, 1.3922, 1.38707, 1.38411, 1.37806, 1.37468, 1.36765, 1.36158, 1.36318, 1.3612, 1.35867, 1.35735, 1.35047, 1.34144, 1.34188, 1.34699, 1.34075, 1.37229, 1.40275, 1.401, 1.41194, 1.39772, 1.30643, 1.3235, 1.33674, 1.31342, 1.30727, 1.30257, 1.30223, 1.29873, 
1.65698, 1.66516, 1.64814, 1.64874, 1.6492, 1.63821, 1.62345, 1.61468, 1.59665, 1.62653, 1.69934, 1.74719, 1.7546, 1.72119, 1.557, 1.5966, 1.57834, 1.5679, 1.55921, 1.5581, 1.54788, 1.54813, 1.5516, 1.5401, 1.53674, 1.52724, 1.52407, 1.52053, 1.51606, 1.5098, 1.50447, 1.50229, 1.49784, 1.49319, 1.48856, 1.486, 1.47826, 1.476, 1.46484, 1.50008, 1.60413, 1.68491, 1.70418, 1.53365, 1.40571, 1.4474, 1.43822, 1.43721, 1.42436, 1.42, 1.41732, 1.41387, 1.41242, 1.41057, 1.4075, 1.40797, 1.39812, 1.39461, 1.39539, 1.38826, 1.38791, 1.38595, 1.38356, 1.37995, 1.37637, 1.37107, 1.36598, 1.36397, 1.3656, 1.36417, 1.36317, 1.35563, 1.35191, 1.35491, 1.34727, 1.34998, 1.41582, 1.39, 1.40021, 1.4172, 1.43414, 1.33816, 1.32607, 1.31883, 1.33, 1.31919, 1.31239, 1.30315, 1.30827, 
1.65793, 1.649, 1.64317, 1.65334, 1.66933, 1.635, 1.63164, 1.6164, 1.61288, 1.628, 1.6803, 1.71056, 1.71685, 1.72066, 1.63755, 1.58619, 1.5824, 1.56996, 1.56404, 1.56104, 1.55069, 1.54586, 1.55596, 1.55161, 1.53439, 1.52834, 1.52303, 1.52175, 1.51816, 1.512, 1.51048, 1.50392, 1.49879, 1.49692, 1.48937, 1.51345, 1.48013, 1.48565, 1.48386, 1.54399, 1.61217, 1.67231, 1.68606, 1.5886, 1.4261, 1.44087, 1.43642, 1.43103, 1.42926, 1.42576, 1.42199, 1.41417, 1.41373, 1.41183, 1.40811, 1.40468, 1.40119, 1.39637, 1.39296, 1.39009, 1.39006, 1.38918, 1.38813, 1.38686, 1.3783, 1.37218, 1.36834, 1.36754, 1.36601, 1.36082, 1.36121, 1.35748, 1.35805, 1.35739, 1.35424, 1.35562, 1.39251, 1.42272, 1.43179, 1.43672, 1.41914, 1.38132, 1.33424, 1.3234, 1.31334, 1.30828, 1.30478, 1.31179, 1.30171, 
1.6558, 1.64611, 1.64412, 1.65134, 1.65836, 1.65425, 1.63108, 1.63493, 1.61143, 1.64053, 1.72109, 1.75939, 1.77374, 1.76237, 1.57303, 1.58944, 1.58674, 1.57548, 1.57295, 1.56825, 1.57121, 1.55187, 1.56826, 1.56356, 1.54491, 1.53493, 1.52537, 1.52387, 1.52167, 1.5149, 1.51204, 1.5071, 1.50346, 1.49934, 1.49578, 1.49135, 1.48657, 1.48476, 1.49244, 1.50248, 1.63274, 1.69957, 1.67929, 1.51614, 1.44631, 1.45193, 1.45068, 1.43965, 1.43439, 1.43015, 1.42499, 1.433, 1.4196, 1.42006, 1.4193, 1.42367, 1.40684, 1.40875, 1.40183, 1.40023, 1.39392, 1.39187, 1.38777, 1.38536, 1.37902, 1.37604, 1.37328, 1.37771, 1.36962, 1.3678, 1.363, 1.36041, 1.35921, 1.35772, 1.37718, 1.3415, 1.36607, 1.40175, 1.44211, 1.44403, 1.43613, 1.32197, 1.34137, 1.32629, 1.31629, 1.31037, 1.30635, 1.30375, 1.30134, 
1.65985, 1.65255, 1.64754, 1.64372, 1.64291, 1.64323, 1.65103, 1.63645, 1.617, 1.69926, 1.66566, 1.68349, 1.75846, 1.74481, 1.68325, 1.59389, 1.59826, 1.57914, 1.57206, 1.56817, 1.56306, 1.56092, 1.56459, 1.56913, 1.55789, 1.53945, 1.53003, 1.5253, 1.52257, 1.51485, 1.51324, 1.50855, 1.50363, 1.50275, 1.4961, 1.49158, 1.48845, 1.49322, 1.48825, 1.491, 1.55047, 1.68686, 1.69197, 1.52926, 1.46216, 1.46202, 1.45479, 1.44724, 1.44169, 1.43456, 1.42924, 1.42624, 1.42092, 1.41888, 1.41774, 1.41472, 1.4132, 1.4083, 1.40491, 1.40248, 1.40019, 1.39609, 1.38969, 1.38724, 1.38262, 1.37789, 1.37322, 1.3743, 1.37138, 1.36342, 1.36146, 1.36067, 1.35717, 1.35595, 1.35901, 1.34765, 1.38957, 1.3994, 1.4273, 1.41807, 1.43364, 1.36551, 1.34377, 1.33701, 1.33768, 1.317, 1.31567, 1.31216, 1.31048, 
1.66564, 1.66401, 1.6548, 1.65153, 1.64581, 1.676, 1.65483, 1.65007, 1.64033, 1.62986, 1.70717, 1.73813, 1.76582, 1.75607, 1.64161, 1.59365, 1.59431, 1.58648, 1.57421, 1.57484, 1.56764, 1.56097, 1.55742, 1.55935, 1.56459, 1.54304, 1.54354, 1.53033, 1.5246, 1.51913, 1.51811, 1.51413, 1.50793, 1.50401, 1.49907, 1.49598, 1.49177, 1.48864, 1.4889, 1.48905, 1.60409, 1.65767, 1.66569, 1.57906, 1.48628, 1.4657, 1.45779, 1.45623, 1.45051, 1.43886, 1.43655, 1.42957, 1.4262, 1.42361, 1.41879, 1.41624, 1.41509, 1.40976, 1.4077, 1.41609, 1.40198, 1.40157, 1.38925, 1.3865, 1.38119, 1.3763, 1.37209, 1.3675, 1.36682, 1.36274, 1.35896, 1.36498, 1.35678, 1.36802, 1.3651, 1.35436, 1.38835, 1.43462, 1.43835, 1.45706, 1.4348, 1.38143, 1.34352, 1.32409, 1.3178, 1.31921, 1.31409, 1.31361, 1.31068, 
1.66905, 1.66102, 1.65787, 1.65234, 1.6526, 1.65913, 1.67284, 1.63521, 1.6365, 1.62731, 1.71881, 1.79003, 1.79704, 1.77179, 1.62325, 1.59218, 1.59344, 1.57849, 1.57126, 1.57073, 1.56583, 1.56113, 1.57205, 1.57478, 1.59941, 1.54338, 1.5371, 1.53664, 1.52714, 1.53312, 1.51918, 1.51622, 1.51094, 1.50629, 1.50545, 1.49544, 1.51316, 1.50704, 1.49148, 1.46036, 1.56127, 1.63626, 1.68854, 1.64182, 1.44699, 1.47466, 1.46783, 1.45837, 1.45062, 1.45467, 1.43832, 1.43425, 1.42944, 1.42645, 1.42346, 1.42033, 1.41465, 1.41339, 1.40943, 1.40913, 1.40525, 1.40012, 1.39703, 1.39162, 1.39083, 1.38117, 1.37592, 1.37147, 1.36952, 1.36404, 1.36343, 1.37859, 1.36748, 1.36248, 1.37162, 1.37911, 1.43695, 1.45142, 1.47968, 1.45441, 1.43322, 1.37465, 1.34723, 1.33787, 1.3249, 1.3221, 1.31858, 1.3139, 1.31413, 
1.67031, 1.66692, 1.65844, 1.65297, 1.64879, 1.65498, 1.67798, 1.6424, 1.63798, 1.62536, 1.65143, 1.76412, 1.81994, 1.81589, 1.72451, 1.6037, 1.59615, 1.59133, 1.58165, 1.57561, 1.57828, 1.56418, 1.56282, 1.57602, 1.57885, 1.54849, 1.54981, 1.53915, 1.53045, 1.53361, 1.52591, 1.52708, 1.51474, 1.51189, 1.50802, 1.50298, 1.51065, 1.50973, 1.5026, 1.46597, 1.57456, 1.63309, 1.65072, 1.58591, 1.44405, 1.47465, 1.46473, 1.46218, 1.45661, 1.45159, 1.4475, 1.44021, 1.43522, 1.43269, 1.42999, 1.4273, 1.42125, 1.41723, 1.41571, 1.40878, 1.40853, 1.40132, 1.39971, 1.39461, 1.39016, 1.38559, 1.38222, 1.37723, 1.37437, 1.36972, 1.36724, 1.36661, 1.36698, 1.37117, 1.37237, 1.3779, 1.39589, 1.44785, 1.46394, 1.46576, 1.46543, 1.38952, 1.33017, 1.34505, 1.32301, 1.32331, 1.32379, 1.31947, 1.31827, 
1.66855, 1.66282, 1.6575, 1.65405, 1.64879, 1.65771, 1.6585, 1.65809, 1.64803, 1.65018, 1.72797, 1.78051, 1.78434, 1.78476, 1.63333, 1.60007, 1.59575, 1.58658, 1.58628, 1.58389, 1.57317, 1.58256, 1.56436, 1.55897, 1.55589, 1.57584, 1.54022, 1.53742, 1.5349, 1.53059, 1.52603, 1.52287, 1.52221, 1.51046, 1.50807, 1.5028, 1.50018, 1.50717, 1.51018, 1.45672, 1.56614, 1.66444, 1.678, 1.62457, 1.43234, 1.46463, 1.47022, 1.47163, 1.46254, 1.44838, 1.44409, 1.43796, 1.43755, 1.43341, 1.43194, 1.42981, 1.4238, 1.42155, 1.41658, 1.4126, 1.40954, 1.40701, 1.40808, 1.40415, 1.40318, 1.38921, 1.38311, 1.38146, 1.37879, 1.37512, 1.37207, 1.37889, 1.36913, 1.37077, 1.38658, 1.37488, 1.40326, 1.45753, 1.46121, 1.47035, 1.47888, 1.40533, 1.36496, 1.34061, 1.3273, 1.32804, 1.32744, 1.32342, 1.32469, 
1.66663, 1.66236, 1.6554, 1.65467, 1.64437, 1.64392, 1.662, 1.66849, 1.64421, 1.62054, 1.74791, 1.7996, 1.8284, 1.79876, 1.74035, 1.60975, 1.6051, 1.59379, 1.57839, 1.57471, 1.56559, 1.56398, 1.5592, 1.55613, 1.55224, 1.54841, 1.55258, 1.53682, 1.53001, 1.52856, 1.52393, 1.51993, 1.51279, 1.50536, 1.50034, 1.49503, 1.49231, 1.49901, 1.49519, 1.47906, 1.60518, 1.62551, 1.69647, 1.66563, 1.51264, 1.47582, 1.45724, 1.45836, 1.45343, 1.44122, 1.43965, 1.43309, 1.43057, 1.42816, 1.4251, 1.42086, 1.42815, 1.41642, 1.4157, 1.41473, 1.40935, 1.40606, 1.39994, 1.39828, 1.3964, 1.39627, 1.38917, 1.38515, 1.38821, 1.37469, 1.37315, 1.37198, 1.38423, 1.381, 1.38155, 1.37641, 1.39926, 1.43616, 1.44996, 1.47818, 1.46898, 1.3295, 1.31597, 1.33659, 1.33296, 1.33282, 1.34006, 1.32447, 1.32146, 
1.66962, 1.66597, 1.65882, 1.6542, 1.64551, 1.64044, 1.63711, 1.65559, 1.65044, 1.60887, 1.69771, 1.80082, 1.81543, 1.77615, 1.68648, 1.60517, 1.59233, 1.57986, 1.57315, 1.58631, 1.56578, 1.56119, 1.55738, 1.55349, 1.54829, 1.55254, 1.55097, 1.53396, 1.52743, 1.5287, 1.52513, 1.51715, 1.5272, 1.49701, 1.49798, 1.4892, 1.49763, 1.49805, 1.50249, 1.4865, 1.58303, 1.66232, 1.61751, 1.62004, 1.50036, 1.46812, 1.46156, 1.4558, 1.44071, 1.44664, 1.43315, 1.43202, 1.42918, 1.42733, 1.42183, 1.41797, 1.41797, 1.41687, 1.41434, 1.41224, 1.40746, 1.40327, 1.40312, 1.39978, 1.39572, 1.39227, 1.38831, 1.3848, 1.37796, 1.37585, 1.39778, 1.38277, 1.3679, 1.3635, 1.37489, 1.35389, 1.39569, 1.44094, 1.45996, 1.48846, 1.46064, 1.45209, 1.34076, 1.34095, 1.33638, 1.35462, 1.33151, 1.32582, 1.32, 
1.67991, 1.67362, 1.67, 1.6634, 1.6575, 1.6579, 1.65235, 1.66514, 1.65846, 1.62306, 1.61626, 1.80299, 1.8112, 1.81146, 1.594, 1.6032, 1.5965, 1.59263, 1.5882, 1.5792, 1.5747, 1.57201, 1.57173, 1.57196, 1.5516, 1.54707, 1.55571, 1.55919, 1.53901, 1.53363, 1.53219, 1.52261, 1.51475, 1.50543, 1.50333, 1.50605, 1.49284, 1.50237, 1.51784, 1.50042, 1.56198, 1.64496, 1.65435, 1.62407, 1.4895, 1.45778, 1.46225, 1.47184, 1.45195, 1.44406, 1.44164, 1.43818, 1.43614, 1.42912, 1.42965, 1.41942, 1.42037, 1.4231, 1.41807, 1.41323, 1.41034, 1.40901, 1.40196, 1.39827, 1.39363, 1.38942, 1.38856, 1.38423, 1.37811, 1.37928, 1.38097, 1.3716, 1.36733, 1.36757, 1.36661, 1.36975, 1.40048, 1.43789, 1.4882, 1.50331, 1.50321, 1.40601, 1.3374, 1.36469, 1.3454, 1.34944, 1.33045, 1.32702, 1.32286, 
1.68883, 1.67819, 1.66754, 1.66493, 1.66928, 1.6594, 1.65609, 1.6535, 1.64411, 1.61149, 1.65942, 1.75276, 1.83089, 1.83484, 1.71627, 1.6104, 1.61028, 1.59525, 1.59617, 1.58512, 1.57593, 1.57571, 1.57425, 1.57888, 1.56242, 1.55728, 1.56182, 1.57319, 1.55133, 1.5422, 1.5333, 1.52915, 1.52188, 1.51804, 1.5247, 1.51275, 1.52257, 1.51071, 1.52051, 1.49347, 1.56225, 1.62947, 1.65647, 1.62518, 1.55834, 1.47213, 1.47046, 1.47861, 1.4704, 1.4588, 1.45352, 1.45224, 1.44769, 1.43939, 1.43144, 1.43085, 1.43424, 1.43551, 1.42462, 1.42221, 1.41727, 1.4154, 1.41132, 1.40547, 1.40261, 1.39958, 1.39754, 1.39446, 1.39031, 1.38629, 1.38048, 1.37733, 1.37587, 1.37574, 1.37851, 1.37881, 1.39301, 1.43278, 1.51178, 1.5199, 1.5166, 1.40276, 1.35645, 1.36246, 1.34733, 1.34062, 1.33976, 1.33429, 1.34329, 
1.67505, 1.67556, 1.65588, 1.64625, 1.64488, 1.65519, 1.65355, 1.63393, 1.64328, 1.60164, 1.6886, 1.78304, 1.83304, 1.83113, 1.71025, 1.60557, 1.61698, 1.59267, 1.59876, 1.56535, 1.56415, 1.56894, 1.5626, 1.54508, 1.54478, 1.54673, 1.54387, 1.56913, 1.53914, 1.52936, 1.52886, 1.52755, 1.52938, 1.52075, 1.50101, 1.5071, 1.50229, 1.4959, 1.49768, 1.48308, 1.49403, 1.62372, 1.63973, 1.63187, 1.55094, 1.46523, 1.47208, 1.47174, 1.47147, 1.45038, 1.45342, 1.45095, 1.43824, 1.43404, 1.4188, 1.41265, 1.42977, 1.42802, 1.41077, 1.4019, 1.39511, 1.39994, 1.39807, 1.39321, 1.39136, 1.37726, 1.37408, 1.37453, 1.37723, 1.3764, 1.37252, 1.36207, 1.35996, 1.3607, 1.3702, 1.37503, 1.40936, 1.4743, 1.48812, 1.49703, 1.4906, 1.43953, 1.35641, 1.36791, 1.3373, 1.34073, 1.34425, 1.31769, 1.30657, 
1.68305, 1.68725, 1.67033, 1.676, 1.66596, 1.6662, 1.67203, 1.66182, 1.64219, 1.63461, 1.68159, 1.75872, 1.88702, 1.88997, 1.72655, 1.61802, 1.61681, 1.60968, 1.61885, 1.58634, 1.5933, 1.57843, 1.5736, 1.56577, 1.56501, 1.56105, 1.57239, 1.56503, 1.57703, 1.55465, 1.53804, 1.53458, 1.52674, 1.52531, 1.52128, 1.51673, 1.51249, 1.51848, 1.51273, 1.49947, 1.60303, 1.63573, 1.66164, 1.64733, 1.55202, 1.44723, 1.47664, 1.50192, 1.47509, 1.46436, 1.46068, 1.45901, 1.44339, 1.43917, 1.43096, 1.43404, 1.43604, 1.43702, 1.42754, 1.42225, 1.41014, 1.40634, 1.41018, 1.40101, 1.41954, 1.39229, 1.39135, 1.39126, 1.39063, 1.3939, 1.38952, 1.38445, 1.37407, 1.37202, 1.38155, 1.38403, 1.35372, 1.4297, 1.447, 1.51615, 1.51284, 1.43722, 1.33328, 1.36422, 1.35798, 1.34104, 1.33651, 1.33371, 1.32822, 
1.67497, 1.66581, 1.6622, 1.66037, 1.65732, 1.64969, 1.6439, 1.63869, 1.64919, 1.61295, 1.70259, 1.76331, 1.84429, 1.91134, 1.67622, 1.60338, 1.60985, 1.59523, 1.5919, 1.57533, 1.57556, 1.56664, 1.56401, 1.56241, 1.55602, 1.55132, 1.54878, 1.54909, 1.56183, 1.54375, 1.53302, 1.52065, 1.51849, 1.51793, 1.51291, 1.51094, 1.50273, 1.49979, 1.50539, 1.49359, 1.56147, 1.63125, 1.6419, 1.63686, 1.5572, 1.44448, 1.47064, 1.46139, 1.46555, 1.45314, 1.44854, 1.4387, 1.43091, 1.43012, 1.42951, 1.42752, 1.42453, 1.42138, 1.41899, 1.41822, 1.41454, 1.40864, 1.413, 1.41301, 1.39749, 1.3897, 1.3858, 1.38407, 1.38186, 1.37939, 1.37687, 1.38557, 1.38152, 1.37612, 1.37629, 1.38042, 1.37393, 1.44517, 1.50528, 1.50604, 1.48588, 1.44451, 1.34463, 1.3515, 1.33945, 1.33169, 1.32876, 1.35296, 1.32541, 
1.6619, 1.65864, 1.65137, 1.65021, 1.65409, 1.65419, 1.63472, 1.63367, 1.64014, 1.62409, 1.63353, 1.75392, 1.83215, 1.86788, 1.58869, 1.59615, 1.59588, 1.58179, 1.58336, 1.57466, 1.55966, 1.55463, 1.54851, 1.54714, 1.54607, 1.53996, 1.55111, 1.54784, 1.54317, 1.54476, 1.51972, 1.5129, 1.50984, 1.5057, 1.50003, 1.49869, 1.49091, 1.48726, 1.4952, 1.46191, 1.57166, 1.59202, 1.63129, 1.60127, 1.56151, 1.4428, 1.46532, 1.45128, 1.47079, 1.44138, 1.43415, 1.44397, 1.42565, 1.42594, 1.42704, 1.42435, 1.41742, 1.41288, 1.41168, 1.40354, 1.40593, 1.40867, 1.39541, 1.38703, 1.38199, 1.38177, 1.37374, 1.37135, 1.37171, 1.36927, 1.36918, 1.36769, 1.36127, 1.37187, 1.38174, 1.37214, 1.3967, 1.43154, 1.50017, 1.52091, 1.56883, 1.48301, 1.34397, 1.34596, 1.32561, 1.32458, 1.33062, 1.31916, 1.31829, 
1.67169, 1.68049, 1.66202, 1.66656, 1.67612, 1.66125, 1.64379, 1.63274, 1.64439, 1.62764, 1.66345, 1.75754, 1.88556, 1.86944, 1.73411, 1.60715, 1.60356, 1.59565, 1.57995, 1.59434, 1.58525, 1.56786, 1.55506, 1.55091, 1.54947, 1.55036, 1.53768, 1.53397, 1.53098, 1.54667, 1.53389, 1.52078, 1.51676, 1.51654, 1.50097, 1.51048, 1.49543, 1.5039, 1.50948, 1.4932, 1.50944, 1.64896, 1.64012, 1.61112, 1.54203, 1.45017, 1.46421, 1.45795, 1.47302, 1.4657, 1.44407, 1.43381, 1.44359, 1.43067, 1.42617, 1.42398, 1.41905, 1.41755, 1.41452, 1.41087, 1.40884, 1.40956, 1.40078, 1.39433, 1.38847, 1.38587, 1.38169, 1.37798, 1.37801, 1.37458, 1.37801, 1.38591, 1.37802, 1.3619, 1.3692, 1.35635, 1.3602, 1.41238, 1.49582, 1.52398, 1.54517, 1.45815, 1.34833, 1.34709, 1.34738, 1.34559, 1.32485, 1.32307, 1.32012, 
1.66146, 1.65575, 1.65091, 1.64489, 1.63897, 1.63083, 1.62689, 1.61618, 1.61136, 1.6094, 1.63638, 1.71679, 1.88048, 1.88296, 1.74488, 1.5628, 1.58951, 1.57307, 1.59253, 1.57963, 1.55902, 1.55481, 1.55369, 1.54785, 1.5424, 1.5383, 1.52968, 1.52366, 1.52517, 1.54416, 1.5172, 1.50781, 1.50049, 1.49758, 1.49287, 1.48768, 1.49238, 1.48915, 1.4924, 1.47908, 1.55878, 1.62697, 1.62989, 1.61941, 1.53912, 1.43438, 1.45581, 1.454, 1.46099, 1.45797, 1.4359, 1.42845, 1.41963, 1.41693, 1.41297, 1.40787, 1.40332, 1.40024, 1.396, 1.39194, 1.39681, 1.3842, 1.37898, 1.38433, 1.37606, 1.37469, 1.3691, 1.3657, 1.36141, 1.35841, 1.35524, 1.35183, 1.34729, 1.3463, 1.3478, 1.34441, 1.32474, 1.37544, 1.44752, 1.50639, 1.49638, 1.41476, 1.31476, 1.32627, 1.31931, 1.31208, 1.31217, 1.30534, 1.30677, 
1.66198, 1.64768, 1.64752, 1.63928, 1.63398, 1.62873, 1.62309, 1.63045, 1.61372, 1.60493, 1.60658, 1.71323, 1.86297, 1.87392, 1.73307, 1.5783, 1.58184, 1.57208, 1.56663, 1.5635, 1.55802, 1.5507, 1.54828, 1.54642, 1.54045, 1.53542, 1.52619, 1.51962, 1.51649, 1.51603, 1.5241, 1.50624, 1.50343, 1.49989, 1.49648, 1.5024, 1.48872, 1.48513, 1.49995, 1.47604, 1.48795, 1.58983, 1.61393, 1.61371, 1.54772, 1.42783, 1.45476, 1.44661, 1.44365, 1.46608, 1.44017, 1.4261, 1.43016, 1.41283, 1.41112, 1.40957, 1.40243, 1.39828, 1.39521, 1.3906, 1.38773, 1.38595, 1.38229, 1.37787, 1.37525, 1.37151, 1.36757, 1.36422, 1.35826, 1.35661, 1.35298, 1.34843, 1.34495, 1.35016, 1.34197, 1.34383, 1.32743, 1.4623, 1.48942, 1.53356, 1.53078, 1.47079, 1.32047, 1.32213, 1.31227, 1.31027, 1.306, 1.30447, 1.30102, 
1.64961, 1.64438, 1.63813, 1.63211, 1.62718, 1.62382, 1.62294, 1.62314, 1.63319, 1.6229, 1.60628, 1.73902, 1.86855, 1.8719, 1.63141, 1.57671, 1.58794, 1.57507, 1.57079, 1.5808, 1.55274, 1.54487, 1.53837, 1.54134, 1.54061, 1.53223, 1.52639, 1.52147, 1.52606, 1.51634, 1.5246, 1.51651, 1.50233, 1.50243, 1.5027, 1.49686, 1.49269, 1.48831, 1.48592, 1.47089, 1.52961, 1.57175, 1.60645, 1.60371, 1.53096, 1.46539, 1.4567, 1.4415, 1.43868, 1.4542, 1.44091, 1.45588, 1.44129, 1.41654, 1.41298, 1.41467, 1.40798, 1.40373, 1.4024, 1.3994, 1.39513, 1.3931, 1.39005, 1.38691, 1.3837, 1.37915, 1.37644, 1.36785, 1.36734, 1.36442, 1.36347, 1.3581, 1.3549, 1.35063, 1.35258, 1.36718, 1.34096, 1.43756, 1.48866, 1.51559, 1.51656, 1.43239, 1.34468, 1.33349, 1.31815, 1.3123, 1.32055, 1.31004, 1.3046, 
1.65533, 1.65198, 1.64609, 1.64645, 1.64024, 1.62995, 1.6268, 1.62044, 1.62288, 1.61752, 1.65488, 1.78219, 1.84763, 1.89334, 1.6689, 1.57546, 1.58783, 1.57231, 1.56843, 1.56269, 1.55869, 1.54871, 1.54374, 1.54161, 1.53881, 1.53585, 1.52858, 1.52292, 1.52353, 1.51405, 1.51566, 1.53341, 1.50105, 1.49877, 1.49161, 1.49024, 1.48047, 1.47972, 1.48157, 1.47857, 1.47176, 1.50582, 1.59295, 1.57459, 1.56225, 1.48911, 1.44569, 1.438, 1.43102, 1.44068, 1.45809, 1.43619, 1.41937, 1.42214, 1.41387, 1.41028, 1.40497, 1.40143, 1.39842, 1.39598, 1.3944, 1.39165, 1.38578, 1.38319, 1.37889, 1.375, 1.37049, 1.36586, 1.36171, 1.36024, 1.35813, 1.35475, 1.35254, 1.35323, 1.3506, 1.35144, 1.35119, 1.40763, 1.50027, 1.54842, 1.54857, 1.40863, 1.31904, 1.31985, 1.31551, 1.3122, 1.31009, 1.30959, 1.31313, 
1.65922, 1.65552, 1.65033, 1.6477, 1.6419, 1.63529, 1.63194, 1.62455, 1.62079, 1.62565, 1.59456, 1.71209, 1.81682, 1.86546, 1.82093, 1.57222, 1.58939, 1.58674, 1.57686, 1.56227, 1.56244, 1.5548, 1.54946, 1.55033, 1.53979, 1.53516, 1.53084, 1.5238, 1.52168, 1.51913, 1.51625, 1.52408, 1.51105, 1.51212, 1.50357, 1.48884, 1.492, 1.4888, 1.49125, 1.45066, 1.50653, 1.55245, 1.62441, 1.59104, 1.56221, 1.51009, 1.45834, 1.44868, 1.4472, 1.44799, 1.4521, 1.43609, 1.43291, 1.41589, 1.42072, 1.40975, 1.40904, 1.40191, 1.39898, 1.3937, 1.39246, 1.38887, 1.38541, 1.3796, 1.37876, 1.37443, 1.37106, 1.36507, 1.36359, 1.36021, 1.3598, 1.35543, 1.35435, 1.3511, 1.35426, 1.36695, 1.34822, 1.40631, 1.48092, 1.56698, 1.56441, 1.50279, 1.34511, 1.33856, 1.33495, 1.31563, 1.31326, 1.31176, 1.32537, 
1.6574, 1.65401, 1.64858, 1.64179, 1.6584, 1.6553, 1.63768, 1.63106, 1.62927, 1.61733, 1.59734, 1.69347, 1.75258, 1.97153, 1.75498, 1.55704, 1.58025, 1.57035, 1.56392, 1.55867, 1.55159, 1.55157, 1.54587, 1.5423, 1.53613, 1.53562, 1.5301, 1.52488, 1.52847, 1.51478, 1.50749, 1.52693, 1.51269, 1.49558, 1.49178, 1.48907, 1.48561, 1.48174, 1.48407, 1.46861, 1.50381, 1.55997, 1.57227, 1.57584, 1.56237, 1.48887, 1.44935, 1.43873, 1.4335, 1.43389, 1.44846, 1.44375, 1.42329, 1.41305, 1.4119, 1.40706, 1.40515, 1.4037, 1.40013, 1.39779, 1.39427, 1.38784, 1.38295, 1.37831, 1.37461, 1.37078, 1.36796, 1.36717, 1.36488, 1.36194, 1.35998, 1.35637, 1.35547, 1.34664, 1.34474, 1.34622, 1.35058, 1.36745, 1.46831, 1.54456, 1.53754, 1.49089, 1.3094, 1.331, 1.33327, 1.33089, 1.32187, 1.31518, 1.31196, 
1.65862, 1.65745, 1.64768, 1.64058, 1.63591, 1.63031, 1.62541, 1.62316, 1.62145, 1.62809, 1.58612, 1.71741, 1.79479, 1.8943, 1.67589, 1.59268, 1.58672, 1.57628, 1.58842, 1.57279, 1.56837, 1.56517, 1.551, 1.55526, 1.54203, 1.53738, 1.53357, 1.52822, 1.52271, 1.51933, 1.51304, 1.51839, 1.52775, 1.5165, 1.51336, 1.50761, 1.49475, 1.49567, 1.4947, 1.48717, 1.48117, 1.56212, 1.59658, 1.58255, 1.54525, 1.49382, 1.46426, 1.45386, 1.44018, 1.43538, 1.43226, 1.43666, 1.42296, 1.4181, 1.41324, 1.40945, 1.40626, 1.40639, 1.40344, 1.39986, 1.39246, 1.38833, 1.38474, 1.38154, 1.37797, 1.37567, 1.36909, 1.36675, 1.36184, 1.36013, 1.36, 1.35554, 1.35341, 1.34995, 1.34664, 1.35486, 1.34313, 1.41961, 1.46895, 1.50741, 1.59957, 1.50364, 1.3161, 1.3362, 1.33645, 1.34661, 1.32229, 1.31604, 1.31516, 
1.65809, 1.65169, 1.65417, 1.64652, 1.63741, 1.62981, 1.63245, 1.62043, 1.61983, 1.62155, 1.60666, 1.63089, 1.83318, 1.92804, 1.6575, 1.57478, 1.58939, 1.57314, 1.567, 1.57244, 1.55773, 1.55141, 1.54288, 1.53951, 1.53797, 1.53278, 1.53344, 1.52403, 1.52031, 1.51719, 1.52036, 1.51714, 1.51646, 1.5095, 1.49578, 1.49364, 1.4926, 1.48927, 1.48311, 1.45459, 1.48731, 1.50379, 1.58859, 1.55184, 1.54025, 1.48234, 1.46159, 1.45647, 1.44032, 1.43548, 1.44035, 1.43306, 1.4248, 1.41625, 1.41092, 1.40894, 1.40569, 1.40553, 1.40094, 1.39725, 1.39471, 1.39151, 1.39118, 1.38146, 1.37984, 1.37597, 1.37204, 1.36769, 1.36152, 1.35689, 1.35415, 1.35406, 1.34792, 1.34916, 1.34534, 1.35584, 1.34425, 1.41235, 1.45314, 1.57141, 1.61491, 1.32552, 1.30245, 1.3297, 1.31921, 1.31477, 1.30997, 1.30955, 1.31187, 
1.6598, 1.65402, 1.64851, 1.64014, 1.63592, 1.62922, 1.6276, 1.62389, 1.61995, 1.61944, 1.60715, 1.73821, 1.84967, 1.91943, 1.73364, 1.57157, 1.5922, 1.57267, 1.56664, 1.56595, 1.55554, 1.55111, 1.54666, 1.54265, 1.53846, 1.53469, 1.52821, 1.52319, 1.51947, 1.51245, 1.51023, 1.50895, 1.50423, 1.51664, 1.49724, 1.49349, 1.48497, 1.48283, 1.48256, 1.45313, 1.46372, 1.56621, 1.58489, 1.54567, 1.54508, 1.5036, 1.46125, 1.45068, 1.43552, 1.43289, 1.42686, 1.42316, 1.43563, 1.41986, 1.41171, 1.40779, 1.40775, 1.40505, 1.40294, 1.39909, 1.39727, 1.39351, 1.3892, 1.38465, 1.38124, 1.37506, 1.37178, 1.36241, 1.36121, 1.35445, 1.35205, 1.35097, 1.35149, 1.3507, 1.34958, 1.35736, 1.35056, 1.38217, 1.49262, 1.53445, 1.56909, 1.54108, 1.3315, 1.3353, 1.33294, 1.31644, 1.31376, 1.31504, 1.3127, 
1.65288, 1.6497, 1.64215, 1.64109, 1.63247, 1.62476, 1.62089, 1.62016, 1.61763, 1.61772, 1.59395, 1.74265, 1.77896, 1.9347, 1.64247, 1.58241, 1.59816, 1.58667, 1.56981, 1.56122, 1.55806, 1.55049, 1.54638, 1.53973, 1.53745, 1.53114, 1.52997, 1.52314, 1.51301, 1.5125, 1.50347, 1.49923, 1.50564, 1.51134, 1.51202, 1.4925, 1.49197, 1.48579, 1.48241, 1.47211, 1.47947, 1.52981, 1.56796, 1.55573, 1.54532, 1.50016, 1.45042, 1.44803, 1.44729, 1.43045, 1.4266, 1.42304, 1.42184, 1.42278, 1.40716, 1.41269, 1.4049, 1.40319, 1.40095, 1.39825, 1.39224, 1.38946, 1.38726, 1.38437, 1.38079, 1.37927, 1.37419, 1.36826, 1.36472, 1.35972, 1.35629, 1.35262, 1.35211, 1.35197, 1.34857, 1.3677, 1.35717, 1.41724, 1.5, 1.57008, 1.57296, 1.50565, 1.32086, 1.34428, 1.31923, 1.31664, 1.31529, 1.31252, 1.30891, 
1.65555, 1.64902, 1.6445, 1.64095, 1.6315, 1.63016, 1.62112, 1.62031, 1.6232, 1.61805, 1.62461, 1.65564, 1.89564, 1.89338, 1.65469, 1.57616, 1.59108, 1.58536, 1.56529, 1.56398, 1.55592, 1.5507, 1.57785, 1.54194, 1.54046, 1.53359, 1.52834, 1.52245, 1.51843, 1.51358, 1.50583, 1.50216, 1.50876, 1.51951, 1.52705, 1.5055, 1.48918, 1.48224, 1.49093, 1.47919, 1.48504, 1.60731, 1.57911, 1.59128, 1.53377, 1.46118, 1.45075, 1.44895, 1.45409, 1.43067, 1.42984, 1.42846, 1.42519, 1.45493, 1.40572, 1.41184, 1.40246, 1.39885, 1.39619, 1.39267, 1.38852, 1.3878, 1.38586, 1.38167, 1.37829, 1.37546, 1.37292, 1.36933, 1.36778, 1.36385, 1.36272, 1.359, 1.35235, 1.35385, 1.34884, 1.34659, 1.35144, 1.38614, 1.46565, 1.57229, 1.55784, 1.46187, 1.32344, 1.34091, 1.32944, 1.31673, 1.31327, 1.31066, 1.30686, 
1.65345, 1.65036, 1.63764, 1.63186, 1.6284, 1.62765, 1.63118, 1.62074, 1.61865, 1.61641, 1.61733, 1.70088, 1.76979, 1.94508, 1.77393, 1.56654, 1.58618, 1.56915, 1.56426, 1.56431, 1.55279, 1.5486, 1.54403, 1.53803, 1.53571, 1.53268, 1.52885, 1.52418, 1.51718, 1.51523, 1.50571, 1.50351, 1.49756, 1.49641, 1.52406, 1.52336, 1.49099, 1.49125, 1.47924, 1.45917, 1.50616, 1.56998, 1.5696, 1.53123, 1.52721, 1.4569, 1.44598, 1.46076, 1.44801, 1.43814, 1.45029, 1.43761, 1.46115, 1.42621, 1.41459, 1.40672, 1.40369, 1.40069, 1.39709, 1.39199, 1.38637, 1.38533, 1.38421, 1.37924, 1.37681, 1.37317, 1.36966, 1.36587, 1.36537, 1.36455, 1.36168, 1.35744, 1.3557, 1.35041, 1.34604, 1.34708, 1.34907, 1.42292, 1.49132, 1.57967, 1.60948, 1.47476, 1.31934, 1.3464, 1.31984, 1.32649, 1.31239, 1.30871, 1.30928, 
1.65687, 1.65358, 1.64576, 1.63707, 1.63552, 1.6287, 1.6215, 1.61944, 1.62128, 1.62285, 1.60552, 1.69602, 1.75456, 1.92168, 1.80351, 1.59394, 1.5809, 1.57433, 1.56352, 1.55975, 1.55538, 1.57508, 1.54686, 1.54011, 1.5347, 1.52708, 1.52079, 1.51783, 1.51378, 1.50912, 1.50612, 1.50444, 1.50292, 1.49689, 1.5081, 1.53773, 1.48851, 1.48893, 1.48287, 1.47332, 1.45311, 1.53533, 1.5494, 1.54002, 1.53306, 1.51916, 1.43653, 1.45102, 1.44949, 1.42668, 1.45104, 1.47039, 1.46395, 1.41721, 1.40803, 1.40736, 1.40427, 1.39833, 1.39474, 1.39141, 1.38837, 1.38459, 1.38189, 1.37815, 1.37424, 1.36872, 1.36777, 1.36472, 1.36133, 1.36061, 1.35823, 1.35654, 1.35568, 1.34787, 1.34589, 1.3508, 1.35417, 1.36857, 1.48604, 1.54396, 1.60712, 1.50693, 1.32626, 1.34387, 1.31958, 1.31643, 1.31878, 1.3127, 1.30676, 
1.6564, 1.65238, 1.65089, 1.64868, 1.63435, 1.63003, 1.62654, 1.61995, 1.61667, 1.60975, 1.61803, 1.67921, 1.77532, 1.91309, 1.72074, 1.57569, 1.57861, 1.58534, 1.57899, 1.56364, 1.56688, 1.54933, 1.55159, 1.53837, 1.53508, 1.53565, 1.51725, 1.51075, 1.5134, 1.50756, 1.50564, 1.50333, 1.49958, 1.49838, 1.4951, 1.53015, 1.51747, 1.50991, 1.49361, 1.48134, 1.47176, 1.53687, 1.55532, 1.52754, 1.52843, 1.45168, 1.44812, 1.4682, 1.48962, 1.48318, 1.47745, 1.45822, 1.44165, 1.43011, 1.41747, 1.40957, 1.40355, 1.39876, 1.39438, 1.3916, 1.39132, 1.38488, 1.39357, 1.37727, 1.38227, 1.37086, 1.36869, 1.36623, 1.36391, 1.36195, 1.35762, 1.3546, 1.35371, 1.34772, 1.34359, 1.36383, 1.345, 1.37537, 1.46127, 1.5858, 1.61676, 1.45838, 1.32432, 1.3298, 1.32347, 1.321, 1.31713, 1.31202, 1.31944, 
1.65492, 1.64748, 1.6417, 1.63962, 1.63687, 1.63175, 1.62713, 1.61977, 1.61641, 1.61, 1.60926, 1.68146, 1.76849, 1.8722, 1.64808, 1.57249, 1.58553, 1.57513, 1.5699, 1.56591, 1.56005, 1.5514, 1.54421, 1.53842, 1.53369, 1.52692, 1.52205, 1.51403, 1.51001, 1.50886, 1.50546, 1.50091, 1.49867, 1.49592, 1.49852, 1.51024, 1.51651, 1.50959, 1.47965, 1.48014, 1.45077, 1.54123, 1.543, 1.51739, 1.5317, 1.49956, 1.45908, 1.47637, 1.46215, 1.44603, 1.4406, 1.43069, 1.4233, 1.41595, 1.41156, 1.4096, 1.40502, 1.40032, 1.3978, 1.39332, 1.39059, 1.38389, 1.38173, 1.3786, 1.37661, 1.37321, 1.37234, 1.37067, 1.36588, 1.35883, 1.3551, 1.35309, 1.3498, 1.34516, 1.34225, 1.33983, 1.35074, 1.39156, 1.44426, 1.55041, 1.62986, 1.54856, 1.31536, 1.32124, 1.31655, 1.31232, 1.3121, 1.30835, 1.30544, 
1.64882, 1.64007, 1.63724, 1.63665, 1.63666, 1.63438, 1.62532, 1.6194, 1.61349, 1.6107, 1.60641, 1.63957, 1.76551, 1.95875, 1.95578, 1.55101, 1.59598, 1.5788, 1.57981, 1.57815, 1.56467, 1.5544, 1.54732, 1.54383, 1.53483, 1.52776, 1.52559, 1.51447, 1.50948, 1.5057, 1.50351, 1.50007, 1.49783, 1.50408, 1.4929, 1.50315, 1.49995, 1.51036, 1.51761, 1.50017, 1.47153, 1.52234, 1.52099, 1.50364, 1.52401, 1.47898, 1.45552, 1.46713, 1.44171, 1.43713, 1.42771, 1.42437, 1.41973, 1.41566, 1.41046, 1.40959, 1.40378, 1.40121, 1.39648, 1.39191, 1.39121, 1.38847, 1.38401, 1.37887, 1.37651, 1.37407, 1.37289, 1.36888, 1.36715, 1.36179, 1.35737, 1.35486, 1.35326, 1.34783, 1.34459, 1.36665, 1.36085, 1.32546, 1.48811, 1.60008, 1.6353, 1.45799, 1.31217, 1.33357, 1.33703, 1.3207, 1.31232, 1.3114, 1.3077, 
1.64626, 1.64308, 1.64147, 1.63996, 1.63644, 1.632, 1.62199, 1.61919, 1.61391, 1.61054, 1.6236, 1.65239, 1.75489, 1.9521, 1.62309, 1.56962, 1.5842, 1.57811, 1.59886, 1.57533, 1.55548, 1.54991, 1.54148, 1.53726, 1.53224, 1.5284, 1.52086, 1.5178, 1.51039, 1.50406, 1.50087, 1.49906, 1.49634, 1.49195, 1.49264, 1.48321, 1.48144, 1.48098, 1.47557, 1.46991, 1.4906, 1.58285, 1.53402, 1.48215, 1.50668, 1.4968, 1.44813, 1.46234, 1.45045, 1.43376, 1.4293, 1.4243, 1.41945, 1.41377, 1.41124, 1.40392, 1.40179, 1.39871, 1.3967, 1.39286, 1.39125, 1.3857, 1.38082, 1.37774, 1.37407, 1.37104, 1.36822, 1.36498, 1.3652, 1.36069, 1.3554, 1.35384, 1.34944, 1.34434, 1.34544, 1.34535, 1.34749, 1.32229, 1.49355, 1.55653, 1.64558, 1.53227, 1.34003, 1.32705, 1.31926, 1.31437, 1.30897, 1.3085, 1.31071, 
1.65053, 1.64533, 1.63769, 1.63464, 1.63286, 1.62372, 1.62075, 1.62446, 1.61099, 1.6067, 1.60366, 1.61235, 1.79286, 1.94482, 1.86511, 1.54347, 1.54788, 1.57179, 1.57164, 1.5799, 1.58099, 1.57288, 1.53895, 1.53356, 1.52995, 1.5268, 1.52318, 1.51615, 1.51229, 1.50822, 1.49949, 1.49598, 1.49382, 1.49236, 1.48843, 1.4804, 1.47768, 1.47482, 1.48196, 1.48286, 1.48875, 1.5273, 1.5341, 1.48017, 1.52171, 1.49199, 1.46356, 1.46665, 1.43703, 1.4325, 1.42954, 1.42211, 1.41712, 1.41303, 1.40863, 1.40859, 1.40517, 1.40174, 1.39592, 1.3936, 1.39024, 1.38466, 1.38134, 1.37883, 1.37754, 1.37272, 1.36818, 1.36605, 1.36234, 1.35864, 1.356, 1.35253, 1.35131, 1.35038, 1.34282, 1.34439, 1.34358, 1.33813, 1.45137, 1.50399, 1.61309, 1.55728, 1.3132, 1.33594, 1.32638, 1.31228, 1.31294, 1.30908, 1.30782, 
1.64585, 1.64146, 1.63495, 1.63144, 1.62699, 1.62294, 1.62796, 1.61266, 1.60514, 1.60985, 1.60393, 1.58303, 1.68943, 1.82377, 2.0422, 1.54835, 1.66909, 1.80868, 1.5934, 1.59342, 1.58548, 1.57747, 1.54555, 1.54444, 1.52843, 1.5272, 1.52169, 1.51592, 1.5103, 1.50688, 1.50145, 1.49781, 1.49229, 1.48935, 1.48634, 1.47948, 1.47575, 1.47214, 1.47345, 1.47747, 1.50358, 1.53736, 1.52026, 1.47628, 1.50413, 1.50382, 1.44607, 1.45065, 1.45079, 1.4271, 1.42023, 1.41474, 1.41187, 1.40964, 1.40558, 1.40875, 1.40485, 1.39712, 1.39274, 1.39629, 1.38573, 1.38103, 1.37857, 1.37499, 1.3707, 1.36936, 1.36687, 1.36183, 1.35953, 1.35255, 1.3507, 1.35177, 1.3484, 1.34374, 1.34133, 1.34466, 1.34326, 1.30965, 1.45488, 1.5931, 1.64509, 1.59792, 1.32114, 1.32761, 1.32165, 1.32098, 1.30931, 1.30662, 1.30461, 
1.64115, 1.6359, 1.63125, 1.62783, 1.62446, 1.61802, 1.61076, 1.60559, 1.60124, 1.61237, 1.62287, 1.58542, 1.66072, 1.86295, 1.70923, 1.56461, 1.57419, 1.59257, 1.59582, 1.57779, 1.58228, 1.5523, 1.55766, 1.5283, 1.53321, 1.52098, 1.51419, 1.5123, 1.50968, 1.5067, 1.49829, 1.49405, 1.48911, 1.48558, 1.49345, 1.47829, 1.47236, 1.46941, 1.47977, 1.49307, 1.48549, 1.51012, 1.48202, 1.46416, 1.49388, 1.48277, 1.43884, 1.44045, 1.43182, 1.42051, 1.41565, 1.4163, 1.41124, 1.40891, 1.40699, 1.40314, 1.39951, 1.39822, 1.38996, 1.38915, 1.38414, 1.3782, 1.37559, 1.37395, 1.37165, 1.36765, 1.36492, 1.36084, 1.35816, 1.35471, 1.35422, 1.35198, 1.3449, 1.34339, 1.3413, 1.34144, 1.3561, 1.35433, 1.4447, 1.55762, 1.70689, 1.49496, 1.31209, 1.33861, 1.3155, 1.34001, 1.31523, 1.30941, 1.32983, 
1.63408, 1.6285, 1.62552, 1.62092, 1.61688, 1.61393, 1.60921, 1.6011, 1.60619, 1.59555, 1.59331, 1.60256, 1.74461, 2.00771, 1.69345, 1.54369, 1.56506, 1.56707, 1.56931, 1.57966, 1.54958, 1.53876, 1.53287, 1.52379, 1.51856, 1.51699, 1.51062, 1.50548, 1.50338, 1.50024, 1.49686, 1.48908, 1.48194, 1.47674, 1.47189, 1.47071, 1.46718, 1.46164, 1.46226, 1.46739, 1.49856, 1.51403, 1.50996, 1.47768, 1.52395, 1.49051, 1.44129, 1.44026, 1.43035, 1.42697, 1.41668, 1.41291, 1.40905, 1.40669, 1.4013, 1.39571, 1.39184, 1.38823, 1.38188, 1.37893, 1.3746, 1.37477, 1.37506, 1.37558, 1.37174, 1.36487, 1.35924, 1.35719, 1.35023, 1.35088, 1.35097, 1.34623, 1.34402, 1.34029, 1.33675, 1.3343, 1.34394, 1.35057, 1.38794, 1.55857, 1.69567, 1.67668, 1.28781, 1.32536, 1.31234, 1.30111, 1.30017, 1.30549, 1.30152, 
1.63135, 1.62738, 1.62367, 1.62092, 1.61929, 1.61642, 1.61014, 1.60852, 1.60133, 1.59437, 1.60374, 1.57072, 1.7062, 1.78223, 1.69647, 1.55399, 1.56179, 1.5591, 1.55536, 1.55331, 1.55499, 1.53942, 1.53121, 1.53729, 1.52151, 1.51779, 1.50866, 1.50424, 1.50181, 1.49893, 1.49377, 1.48986, 1.48492, 1.47533, 1.47158, 1.46951, 1.46458, 1.46158, 1.47482, 1.4673, 1.47401, 1.51705, 1.53782, 1.49644, 1.48546, 1.47781, 1.47451, 1.44104, 1.43399, 1.42511, 1.41685, 1.41091, 1.40655, 1.4008, 1.39863, 1.39457, 1.39113, 1.38522, 1.38071, 1.37851, 1.37595, 1.37298, 1.37394, 1.37198, 1.36847, 1.36438, 1.35531, 1.35019, 1.34661, 1.34525, 1.34407, 1.34182, 1.33942, 1.3387, 1.33053, 1.33012, 1.33646, 1.30726, 1.44082, 1.56796, 1.56555, 1.41368, 1.27094, 1.31484, 1.31098, 1.3021, 1.30172, 1.29991, 1.29578, 
1.63176, 1.63436, 1.61973, 1.6198, 1.61609, 1.61262, 1.60785, 1.60372, 1.59919, 1.60649, 1.59206, 1.59186, 1.745, 1.80341, 1.65454, 1.54102, 1.57112, 1.55678, 1.5538, 1.54835, 1.55721, 1.53775, 1.53646, 1.52637, 1.51922, 1.51493, 1.5041, 1.50208, 1.50074, 1.49361, 1.49062, 1.48822, 1.48447, 1.47743, 1.4895, 1.46902, 1.46399, 1.46123, 1.46339, 1.47753, 1.46441, 1.49963, 1.49052, 1.4958, 1.4718, 1.48925, 1.46205, 1.44111, 1.42309, 1.41862, 1.41226, 1.41089, 1.4043, 1.40144, 1.39924, 1.3985, 1.39171, 1.38821, 1.38315, 1.38184, 1.37494, 1.37234, 1.3708, 1.3663, 1.36364, 1.35718, 1.35371, 1.3479, 1.34352, 1.34385, 1.34251, 1.34086, 1.33733, 1.3333, 1.33289, 1.32591, 1.32745, 1.33095, 1.42618, 1.54187, 1.6344, 1.65382, 1.28345, 1.30613, 1.30654, 1.33999, 1.32609, 1.31657, 1.29959, 
1.63562, 1.6248, 1.61811, 1.61662, 1.61344, 1.61162, 1.60708, 1.61473, 1.60449, 1.59177, 1.59049, 1.59585, 1.73699, 1.72312, 1.76156, 1.55592, 1.57643, 1.55903, 1.56618, 1.55811, 1.56846, 1.53472, 1.53086, 1.52503, 1.51887, 1.51624, 1.51323, 1.50725, 1.503, 1.49857, 1.49368, 1.48626, 1.48471, 1.50583, 1.47516, 1.47233, 1.46862, 1.46424, 1.47062, 1.468, 1.47419, 1.50335, 1.4942, 1.47573, 1.48884, 1.47842, 1.45876, 1.43804, 1.42652, 1.41354, 1.41132, 1.4083, 1.40864, 1.40271, 1.39653, 1.39292, 1.39166, 1.38574, 1.38402, 1.37944, 1.37595, 1.38074, 1.36601, 1.3629, 1.35835, 1.35323, 1.34944, 1.34531, 1.34377, 1.34323, 1.34407, 1.34849, 1.33618, 1.33316, 1.33216, 1.33006, 1.32785, 1.3276, 1.35112, 1.52729, 1.62333, 1.38256, 1.27674, 1.30721, 1.31123, 1.30403, 1.30562, 1.30048, 1.3011, 
1.62718, 1.62164, 1.61903, 1.61044, 1.6079, 1.59972, 1.59908, 1.59441, 1.58722, 1.58167, 1.57876, 1.58141, 1.71556, 1.83499, 2.13896, 1.55349, 1.5617, 1.5526, 1.56055, 1.54044, 1.53583, 1.52397, 1.52239, 1.51565, 1.5128, 1.5127, 1.50747, 1.5033, 1.49295, 1.48975, 1.48637, 1.48022, 1.47494, 1.4711, 1.46799, 1.46247, 1.46056, 1.45792, 1.45645, 1.46054, 1.47983, 1.49238, 1.47878, 1.45715, 1.46602, 1.48732, 1.43751, 1.42103, 1.41896, 1.40629, 1.40797, 1.3993, 1.40645, 1.39746, 1.39436, 1.38703, 1.38308, 1.3806, 1.37682, 1.37505, 1.36867, 1.36481, 1.35876, 1.35211, 1.34723, 1.34466, 1.34236, 1.33716, 1.3401, 1.33854, 1.33768, 1.33413, 1.33165, 1.32594, 1.3251, 1.32349, 1.32198, 1.32085, 1.36512, 1.49159, 1.6907, 1.57064, 1.28539, 1.30634, 1.30745, 1.30547, 1.29762, 1.3058, 1.28559, 
1.62412, 1.62027, 1.61689, 1.60963, 1.60323, 1.59877, 1.59395, 1.58964, 1.58573, 1.57718, 1.58252, 1.58153, 1.65719, 1.91328, 1.95412, 1.55093, 1.56108, 1.54417, 1.54299, 1.53279, 1.52481, 1.51807, 1.51093, 1.50606, 1.5033, 1.50165, 1.49965, 1.4966, 1.49312, 1.48687, 1.48202, 1.47672, 1.4717, 1.46362, 1.46117, 1.45884, 1.45382, 1.44872, 1.44899, 1.46107, 1.4711, 1.49444, 1.47315, 1.45688, 1.46216, 1.46956, 1.42815, 1.4236, 1.41616, 1.40409, 1.39894, 1.3987, 1.39289, 1.38913, 1.38835, 1.38135, 1.37641, 1.36935, 1.36511, 1.36383, 1.36386, 1.36545, 1.35587, 1.35027, 1.34626, 1.34264, 1.3378, 1.33458, 1.33066, 1.33345, 1.33494, 1.33004, 1.32544, 1.32437, 1.33664, 1.32055, 1.31196, 1.31253, 1.37538, 1.52143, 1.81391, 1.45889, 1.26455, 1.29836, 1.29508, 1.28791, 1.28626, 1.28452, 1.29123, 
1.62981, 1.61702, 1.6088, 1.60799, 1.60284, 1.59658, 1.59443, 1.59289, 1.58932, 1.59267, 1.58241, 1.5771, 1.65634, 1.81296, 2.04148, 1.54293, 1.55098, 1.55116, 1.5345, 1.5303, 1.52585, 1.51859, 1.52716, 1.51105, 1.50444, 1.49831, 1.49679, 1.49508, 1.48696, 1.48298, 1.47493, 1.4728, 1.47021, 1.46502, 1.45939, 1.4558, 1.45216, 1.44749, 1.44718, 1.45158, 1.44842, 1.46215, 1.48886, 1.46669, 1.45489, 1.47024, 1.44032, 1.43331, 1.4278, 1.40274, 1.39646, 1.39542, 1.39449, 1.38712, 1.38136, 1.37918, 1.37526, 1.37853, 1.36722, 1.36125, 1.35918, 1.35781, 1.35546, 1.35339, 1.35063, 1.34732, 1.33991, 1.33526, 1.33659, 1.33253, 1.33294, 1.33065, 1.32872, 1.32501, 1.32231, 1.31748, 1.32945, 1.33351, 1.27898, 1.45653, 1.69506, 1.404, 1.28493, 1.30257, 1.30279, 1.30256, 1.29453, 1.28855, 1.28144, 
1.6234, 1.61736, 1.61046, 1.60664, 1.60335, 1.59441, 1.58852, 1.58495, 1.58235, 1.57982, 1.58483, 1.59346, 1.59857, 1.9951, 2.02018, 1.51758, 1.55401, 1.54844, 1.53729, 1.5405, 1.52662, 1.52448, 1.51551, 1.50795, 1.50358, 1.49906, 1.49686, 1.49474, 1.4901, 1.4848, 1.47897, 1.47228, 1.46994, 1.46532, 1.45932, 1.45385, 1.45139, 1.44779, 1.44723, 1.46171, 1.45802, 1.45481, 1.47494, 1.45852, 1.46061, 1.45363, 1.45478, 1.44416, 1.41895, 1.41001, 1.39511, 1.39292, 1.39141, 1.4118, 1.38423, 1.38126, 1.37764, 1.36886, 1.36561, 1.36044, 1.3586, 1.35703, 1.35429, 1.34974, 1.34813, 1.34559, 1.34463, 1.344, 1.33792, 1.3333, 1.33151, 1.32813, 1.32608, 1.32083, 1.32163, 1.32003, 1.32634, 1.32562, 1.35598, 1.46258, 1.76266, 1.76355, 1.27206, 1.30173, 1.31536, 1.29176, 1.28941, 1.28959, 1.2952, 
1.61509, 1.60851, 1.62711, 1.59941, 1.61075, 1.58831, 1.58311, 1.58973, 1.57795, 1.57276, 1.58895, 1.58184, 1.59752, 1.80079, 1.98501, 1.52046, 1.54669, 1.53351, 1.5302, 1.52138, 1.51653, 1.51417, 1.50953, 1.50511, 1.49674, 1.49652, 1.49227, 1.48689, 1.48202, 1.49257, 1.46968, 1.4659, 1.46114, 1.45744, 1.45643, 1.45183, 1.46214, 1.45126, 1.45107, 1.46104, 1.44919, 1.45071, 1.45763, 1.44864, 1.45855, 1.46286, 1.45444, 1.42259, 1.41224, 1.40339, 1.3902, 1.38743, 1.38552, 1.39593, 1.38539, 1.3776, 1.37006, 1.36787, 1.36386, 1.36179, 1.361, 1.35663, 1.35395, 1.34975, 1.34368, 1.34488, 1.33908, 1.3353, 1.33096, 1.3276, 1.33325, 1.32389, 1.32411, 1.32642, 1.32168, 1.32698, 1.32873, 1.32897, 1.31316, 1.44084, 1.71287, 1.4296, 1.27342, 1.30625, 1.29844, 1.29884, 1.28529, 1.28639, 1.29444, 
1.59385, 1.58761, 1.58174, 1.57818, 1.57273, 1.56829, 1.56021, 1.55554, 1.55196, 1.54982, 1.55157, 1.55427, 1.6328, 1.72086, 1.91422, 1.4856, 1.5154, 1.51271, 1.5205, 1.51363, 1.49457, 1.49555, 1.49294, 1.4915, 1.48347, 1.47775, 1.47158, 1.46545, 1.46072, 1.45482, 1.45244, 1.44638, 1.44661, 1.44208, 1.44001, 1.4312, 1.42774, 1.43034, 1.42118, 1.43371, 1.45015, 1.43544, 1.44032, 1.43049, 1.42791, 1.44498, 1.45467, 1.39434, 1.38922, 1.37663, 1.37109, 1.36749, 1.36401, 1.37115, 1.37391, 1.36532, 1.35203, 1.34795, 1.34522, 1.34315, 1.34159, 1.33454, 1.32981, 1.32417, 1.31878, 1.31302, 1.31288, 1.32424, 1.31895, 1.30654, 1.29994, 1.30562, 1.30439, 1.29855, 1.29648, 1.31154, 1.30214, 1.29772, 1.28482, 1.41812, 1.53957, 1.44086, 1.26144, 1.2881, 1.2773, 1.27471, 1.27882, 1.26141, 1.25977, 
1.59841, 1.59193, 1.59881, 1.59488, 1.59843, 1.57905, 1.56937, 1.56994, 1.56443, 1.57812, 1.56364, 1.56175, 1.59829, 1.80299, 1.92069, 1.4921, 1.5445, 1.53003, 1.52713, 1.52636, 1.5068, 1.50338, 1.49772, 1.49387, 1.49218, 1.49007, 1.48518, 1.47506, 1.46816, 1.46823, 1.46767, 1.46484, 1.45629, 1.44861, 1.44231, 1.43738, 1.43731, 1.42781, 1.42611, 1.43333, 1.4414, 1.44478, 1.46121, 1.44041, 1.44125, 1.45175, 1.4435, 1.41049, 1.39701, 1.40224, 1.39298, 1.37093, 1.36777, 1.36969, 1.37181, 1.35587, 1.35676, 1.35342, 1.34774, 1.34407, 1.3449, 1.34211, 1.33823, 1.3291, 1.3266, 1.32752, 1.31461, 1.31861, 1.31404, 1.31933, 1.31194, 1.29952, 1.30878, 1.30439, 1.29649, 1.29255, 1.31255, 1.30676, 1.27452, 1.40239, 1.45689, 1.54756, 1.25857, 1.29176, 1.27309, 1.26822, 1.26, 1.27529, 1.26308, 
1.61057, 1.60145, 1.60061, 1.59588, 1.59275, 1.58593, 1.59072, 1.57496, 1.57666, 1.5787, 1.57523, 1.56943, 1.55125, 1.74073, 1.77683, 1.56, 1.53697, 1.52683, 1.52744, 1.5311, 1.51642, 1.51159, 1.50668, 1.53631, 1.493, 1.49716, 1.48513, 1.4813, 1.47838, 1.47309, 1.47668, 1.46317, 1.45542, 1.45264, 1.44756, 1.44683, 1.44456, 1.43733, 1.44127, 1.43801, 1.43897, 1.46874, 1.44891, 1.4454, 1.4386, 1.43783, 1.44042, 1.42269, 1.41248, 1.41344, 1.39184, 1.39272, 1.39939, 1.37975, 1.37387, 1.36908, 1.37454, 1.3636, 1.35816, 1.36467, 1.35669, 1.34904, 1.34479, 1.34055, 1.34744, 1.34655, 1.33148, 1.32774, 1.32498, 1.322, 1.32256, 1.31538, 1.31503, 1.31448, 1.32423, 1.3371, 1.30519, 1.30975, 1.29613, 1.34727, 1.5899, 1.48918, 1.27324, 1.3031, 1.28849, 1.28101, 1.28903, 1.27516, 1.27596, 
1.603, 1.60036, 1.5955, 1.5937, 1.58673, 1.57694, 1.57203, 1.56751, 1.57159, 1.5649, 1.56802, 1.58015, 1.55161, 1.65096, 2.1441, 1.51655, 1.53712, 1.52975, 1.5123, 1.516, 1.51159, 1.50525, 1.49831, 1.47478, 1.48023, 1.4845, 1.48346, 1.48452, 1.47622, 1.47155, 1.46218, 1.45645, 1.45044, 1.44834, 1.44528, 1.43974, 1.43973, 1.43491, 1.43677, 1.44193, 1.45421, 1.44878, 1.4411, 1.43179, 1.44102, 1.43309, 1.44517, 1.43212, 1.40605, 1.39132, 1.38405, 1.37919, 1.37945, 1.37247, 1.37005, 1.36845, 1.36436, 1.36063, 1.35689, 1.35421, 1.35054, 1.34831, 1.3411, 1.3382, 1.33609, 1.33062, 1.32842, 1.32394, 1.32201, 1.3187, 1.31661, 1.31369, 1.31116, 1.31184, 1.30703, 1.30859, 1.30328, 1.30281, 1.29524, 1.40282, 1.60798, 1.57171, 1.52441, 1.49882, 1.28528, 1.2823, 1.28098, 1.27503, 1.2705, 
1.60117, 1.59409, 1.59026, 1.59383, 1.59512, 1.57809, 1.57096, 1.56956, 1.56862, 1.56226, 1.55625, 1.56225, 1.56023, 1.90794, 2.05198, 1.4931, 1.53241, 1.52469, 1.51725, 1.51247, 1.507, 1.50468, 1.50613, 1.49476, 1.48575, 1.48361, 1.47838, 1.47642, 1.47095, 1.47012, 1.46337, 1.45256, 1.45114, 1.44906, 1.44591, 1.44012, 1.43628, 1.43625, 1.43416, 1.44813, 1.45124, 1.45041, 1.44003, 1.43644, 1.44201, 1.42794, 1.42961, 1.41886, 1.40545, 1.38678, 1.38817, 1.38116, 1.37436, 1.37333, 1.36549, 1.36516, 1.36163, 1.35979, 1.35821, 1.35219, 1.35099, 1.34673, 1.34179, 1.33791, 1.33643, 1.33611, 1.33408, 1.32798, 1.32363, 1.32004, 1.31868, 1.3151, 1.31294, 1.31223, 1.30613, 1.30188, 1.30189, 1.29812, 1.30279, 1.34778, 1.56376, 1.71099, 1.50361, 1.47738, 1.33023, 1.27228, 1.27268, 1.27146, 1.27137, 
1.59254, 1.59233, 1.58042, 1.58828, 1.57764, 1.57002, 1.56631, 1.56406, 1.56564, 1.56471, 1.56191, 1.55071, 1.53833, 1.78724, 1.82655, 1.50663, 1.5234, 1.51918, 1.51327, 1.50676, 1.51799, 1.51406, 1.51011, 1.48562, 1.48091, 1.47676, 1.47146, 1.46595, 1.46322, 1.46088, 1.45261, 1.44856, 1.44563, 1.44321, 1.44223, 1.43664, 1.43355, 1.42947, 1.45057, 1.44322, 1.44057, 1.43895, 1.45114, 1.42946, 1.41987, 1.41132, 1.41737, 1.40641, 1.40581, 1.38427, 1.37849, 1.37205, 1.36923, 1.36819, 1.3625, 1.36038, 1.35641, 1.35199, 1.3507, 1.34812, 1.34346, 1.33978, 1.33525, 1.33399, 1.32967, 1.33044, 1.32445, 1.32319, 1.31265, 1.31977, 1.30877, 1.30542, 1.30299, 1.30786, 1.29274, 1.29085, 1.29226, 1.29577, 1.28917, 1.38147, 1.67187, 1.57357, 1.43118, 1.38463, 1.26896, 1.26765, 1.26031, 1.26292, 1.26227, 
1.58831, 1.58263, 1.581, 1.57911, 1.57417, 1.56629, 1.56168, 1.55695, 1.55977, 1.55162, 1.5487, 1.54909, 1.57101, 1.58525, 1.609, 1.48915, 1.51322, 1.50916, 1.50954, 1.49901, 1.49925, 1.49722, 1.49068, 1.48868, 1.48056, 1.47562, 1.46753, 1.46422, 1.45779, 1.44918, 1.45014, 1.44507, 1.44329, 1.43935, 1.43724, 1.43627, 1.4354, 1.42485, 1.43367, 1.45132, 1.43521, 1.43309, 1.43014, 1.42001, 1.41856, 1.41818, 1.41166, 1.40624, 1.40298, 1.37789, 1.36817, 1.36127, 1.35894, 1.35929, 1.35679, 1.35501, 1.35091, 1.35029, 1.34641, 1.34098, 1.33656, 1.3329, 1.32336, 1.32365, 1.32363, 1.32175, 1.3201, 1.31718, 1.3133, 1.31034, 1.30624, 1.30486, 1.29823, 1.29415, 1.28909, 1.28518, 1.28327, 1.28217, 1.28384, 1.25441, 1.51931, 1.5197, 1.36292, 1.2671, 1.2704, 1.28405, 1.25749, 1.25965, 1.25421, 
1.59058, 1.58751, 1.58106, 1.57662, 1.5783, 1.56807, 1.56563, 1.56008, 1.55515, 1.55467, 1.55551, 1.54883, 1.51493, 1.76178, 1.70675, 1.51549, 1.52736, 1.51646, 1.50496, 1.49979, 1.49936, 1.49631, 1.48859, 1.48716, 1.48255, 1.47836, 1.47425, 1.46751, 1.46207, 1.45843, 1.45563, 1.45369, 1.44877, 1.4439, 1.4536, 1.43768, 1.45053, 1.4358, 1.43399, 1.4273, 1.43706, 1.43126, 1.45815, 1.43126, 1.4203, 1.42174, 1.41207, 1.40838, 1.38151, 1.38454, 1.3691, 1.36398, 1.36585, 1.36097, 1.35853, 1.35763, 1.35459, 1.35432, 1.34739, 1.34333, 1.33897, 1.33325, 1.32558, 1.32047, 1.32104, 1.32214, 1.32629, 1.31655, 1.31567, 1.31607, 1.31163, 1.30709, 1.3266, 1.31919, 1.30283, 1.29639, 1.29219, 1.29946, 1.2907, 1.37871, 1.5741, 1.63344, 1.40916, 1.27276, 1.28988, 1.2675, 1.26726, 1.26453, 1.25415, 
1.58736, 1.58175, 1.58197, 1.57319, 1.56798, 1.56225, 1.55261, 1.55122, 1.54786, 1.55084, 1.54715, 1.54447, 1.55199, 1.6833, 1.68724, 1.52365, 1.50275, 1.51647, 1.5209, 1.50439, 1.49714, 1.49165, 1.4828, 1.47581, 1.47009, 1.47895, 1.46496, 1.45864, 1.46253, 1.44631, 1.44355, 1.44002, 1.43661, 1.43584, 1.43762, 1.42678, 1.41962, 1.4185, 1.43337, 1.41968, 1.42421, 1.43482, 1.44373, 1.44726, 1.41596, 1.41331, 1.41526, 1.38947, 1.38309, 1.37441, 1.37845, 1.36395, 1.36048, 1.35373, 1.35095, 1.35579, 1.35089, 1.34568, 1.34363, 1.33639, 1.3403, 1.33104, 1.33328, 1.33085, 1.35797, 1.31475, 1.31268, 1.31002, 1.31474, 1.30483, 1.30219, 1.30186, 1.29939, 1.29797, 1.30347, 1.30017, 1.29939, 1.28496, 1.30134, 1.25007, 1.50198, 1.79628, 1.49796, 1.27283, 1.29413, 1.26727, 1.2578, 1.26384, 1.24746, 
