1.66959, 1.66524, 1.66517, 1.66456, 1.66076, 1.66096, 1.65835, 1.66911, 1.65746, 1.6547, 1.64882, 1.64717, 1.64471, 1.64099, 1.64858, 1.65049, 1.6445, 1.64585, 1.64514, 1.6299, 1.6279, 1.67679, 1.69722, 1.73219, 1.77141, 1.79987, 1.84169, 1.85096, 1.88234, 1.81468, 1.71095, 1.68352, 1.60471, 1.58192, 1.60404, 1.60305, 1.59974, 1.59684, 1.59344, 1.59796, 1.59975, 1.59999, 1.59261, 1.59019, 1.57243, 1.57278, 1.57246, 1.56846, 1.56748, 1.56582, 1.56619, 1.565, 1.56293, 1.56159, 1.5575, 1.55401, 1.55266, 1.5519, 1.55133, 1.54817, 1.54741, 1.55847, 1.55763, 1.55533, 1.55414, 1.54032, 1.54415, 1.5415, 1.52485, 1.5305, 1.53109, 1.52059, 1.52005, 1.52977, 1.51949, 1.51594, 1.51377, 1.51424, 1.51267, 1.51119, 1.50793, 1.50548, 1.50336, 1.50868, 1.50341, 1.50323, 1.50245, 1.50351, 1.49912, 1.49848, 1.52802, 1.57755, 1.60507, 1.62344, 1.64475, 1.64094, 1.62326, 1.62895, 1.606, 1.59997, 1.53336, 1.49681, 1.44953, 1.46768, 1.46738, 1.46841, 1.46792, 1.48656, 1.47962, 1.48258, 1.46231, 1.45451, 1.46344, 1.45492, 1.44447, 1.44146, 1.43967, 1.44066, 1.43278, 1.43419, 1.43286, 1.43263, 1.4309, 1.43096, 1.43334, 1.43353, 1.42873, 1.42677, 1.42503, 1.42343, 1.42216, 1.41953, 1.41808, 1.41965, 1.41704, 1.41784, 1.41622, 1.44507, 1.41331, 1.41308, 1.40814, 1.42334, 1.40714, 1.40416, 1.40444, 1.40716, 1.3967, 1.39404, 1.39268, 1.39281, 1.38869, 1.41903, 1.38836, 1.39813, 1.38512, 1.38478, 1.3834, 1.38301, 1.38914, 1.37868, 1.37871, 1.37792, 1.38766, 1.37688, 1.37597, 1.37471, 1.38081, 1.37533, 1.37208, 1.38545, 1.3748, 1.38132, 1.36037, 1.36776, 1.38091, 1.43678, 1.4612, 1.48552, 1.521, 1.51165, 1.5134, 1.50898, 1.50783, 1.4862, 1.47501, 1.38635, 1.34448, 1.35364, 1.35744, 1.3596, 1.34869, 1.36537, 1.35335, 1.33716, 1.34061, 1.3297, 1.3373, 1.32681, 1.34599, 1.35021, 1.34065, 1.34849, 1.33625, 1.32647
1.69982, 1.66173, 1.65875, 1.65512, 1.65437, 1.65428, 1.65211, 1.65069, 1.66777, 1.66709, 1.66122, 1.65241, 1.64703, 1.63522, 1.6381, 1.63394, 1.64023, 1.64714, 1.65113, 1.61737, 1.63358, 1.65024, 1.68802, 1.73446, 1.77608, 1.80239, 1.81695, 1.83495, 1.8408, 1.8136, 1.70658, 1.67251, 1.61212, 1.58482, 1.60926, 1.5974, 1.60016, 1.59232, 1.59103, 1.59868, 1.57685, 1.57341, 1.58197, 1.57511, 1.56782, 1.56312, 1.5592, 1.55517, 1.55294, 1.55189, 1.55089, 1.55425, 1.55445, 1.5542, 1.54614, 1.54414, 1.54191, 1.55188, 1.54561, 1.54591, 1.54284, 1.54846, 1.55443, 1.56669, 1.55452, 1.54057, 1.53451, 1.53084, 1.53121, 1.52382, 1.51637, 1.51982, 1.51349, 1.51428, 1.51011, 1.51388, 1.50712, 1.52659, 1.51379, 1.50585, 1.5021, 1.49746, 1.50635, 1.49239, 1.49907, 1.50302, 1.50525, 1.49761, 1.47157, 1.48128, 1.52587, 1.56102, 1.57947, 1.59971, 1.62113, 1.62779, 1.62471, 1.61515, 1.59081, 1.56068, 1.53763, 1.46772, 1.44514, 1.44855, 1.46878, 1.46439, 1.46372, 1.47273, 1.48158, 1.48117, 1.47111, 1.4589, 1.44497, 1.43886, 1.43893, 1.43634, 1.42864, 1.42898, 1.42763, 1.42685, 1.42696, 1.42686, 1.43021, 1.43176, 1.43002, 1.42984, 1.4284, 1.42335, 1.4195, 1.41822, 1.41648, 1.41742, 1.41709, 1.41302, 1.40664, 1.40633, 1.4037, 1.40529, 1.40645, 1.40462, 1.39922, 1.39554, 1.39509, 1.3956, 1.38823, 1.38736, 1.38563, 1.38764, 1.3875, 1.38618, 1.3821, 1.38101, 1.37558, 1.37743, 1.37831, 1.37551, 1.37288, 1.37258, 1.37128, 1.37541, 1.37468, 1.37423, 1.37114, 1.36897, 1.3667, 1.36406, 1.3858, 1.36085, 1.3649, 1.37387, 1.37256, 1.37327, 1.34445, 1.36823, 1.38879, 1.44686, 1.45024, 1.4944, 1.48959, 1.50293, 1.51394, 1.52949, 1.50765, 1.49008, 1.43722, 1.40264, 1.35631, 1.33773, 1.36486, 1.34032, 1.34046, 1.34282, 1.33248, 1.33007, 1.3295, 1.32671, 1.3237, 1.32265, 1.34443, 1.32408, 1.3236, 1.33346, 1.32321, 1.31979
1.66552, 1.66862, 1.66176, 1.66179, 1.65855, 1.66137, 1.65465, 1.66944, 1.65426, 1.64977, 1.6446, 1.64126, 1.63719, 1.65129, 1.63554, 1.658, 1.63456, 1.63448, 1.63075, 1.6208, 1.60228, 1.67263, 1.70555, 1.73488, 1.75603, 1.80177, 1.84444, 1.84172, 1.85741, 1.8384, 1.74024, 1.72228, 1.59024, 1.56447, 1.59468, 1.59994, 1.60069, 1.58382, 1.59847, 1.58222, 1.58946, 1.57468, 1.57413, 1.58011, 1.58504, 1.56745, 1.57082, 1.56501, 1.57449, 1.55348, 1.55166, 1.54959, 1.54889, 1.54896, 1.54862, 1.54432, 1.54374, 1.54394, 1.54443, 1.56489, 1.56051, 1.54039, 1.53492, 1.55017, 1.54436, 1.53461, 1.54097, 1.52442, 1.52732, 1.52059, 1.51926, 1.51773, 1.53334, 1.51355, 1.51001, 1.51062, 1.50561, 1.50688, 1.50438, 1.50296, 1.4947, 1.4902, 1.50254, 1.48847, 1.49303, 1.50242, 1.49715, 1.50208, 1.47909, 1.47732, 1.53829, 1.56564, 1.58035, 1.59303, 1.63481, 1.62821, 1.62322, 1.61511, 1.60239, 1.59869, 1.52482, 1.5143, 1.42636, 1.45937, 1.45951, 1.47183, 1.46859, 1.46541, 1.47935, 1.45962, 1.46652, 1.46428, 1.44143, 1.44012, 1.43793, 1.43372, 1.42669, 1.42749, 1.42651, 1.42566, 1.42629, 1.42613, 1.427, 1.42559, 1.42318, 1.42312, 1.42048, 1.41918, 1.4168, 1.41598, 1.41382, 1.41302, 1.40925, 1.40738, 1.42081, 1.40613, 1.40912, 1.41114, 1.41207, 1.40982, 1.40301, 1.39803, 1.3925, 1.39109, 1.38667, 1.38313, 1.38371, 1.38316, 1.38118, 1.37655, 1.37534, 1.37457, 1.37332, 1.37088, 1.37166, 1.37114, 1.36844, 1.3689, 1.36916, 1.37138, 1.3781, 1.36691, 1.3644, 1.36281, 1.35875, 1.35701, 1.35593, 1.382, 1.37091, 1.3801, 1.36919, 1.36428, 1.3295, 1.36006, 1.43057, 1.41737, 1.42903, 1.46043, 1.4152, 1.51233, 1.53857, 1.5469, 1.52743, 1.52957, 1.48194, 1.39743, 1.33064, 1.34693, 1.35377, 1.35134, 1.346, 1.33781, 1.32613, 1.32409, 1.3201, 1.32114, 1.32091, 1.31958, 1.31801, 1.32911, 1.31857, 1.31587, 1.31648, 1.31628
1.66765, 1.66761, 1.66633, 1.66842, 1.66107, 1.72133, 1.65775, 1.67169, 1.66876, 1.65602, 1.65009, 1.64463, 1.63723, 1.64052, 1.63594, 1.63083, 1.63532, 1.63341, 1.63712, 1.62371, 1.63686, 1.66831, 1.67645, 1.68946, 1.76255, 1.79607, 1.83448, 1.86352, 1.85381, 1.82058, 1.6856, 1.68477, 1.60555, 1.58831, 1.6051, 1.60354, 1.60285, 1.59084, 1.59927, 1.58174, 1.57918, 1.57658, 1.57627, 1.57811, 1.57257, 1.56981, 1.57759, 1.56803, 1.58566, 1.5574, 1.55675, 1.55527, 1.55046, 1.55011, 1.54744, 1.5461, 1.552, 1.55702, 1.54381, 1.53519, 1.54112, 1.5332, 1.54467, 1.53316, 1.54233, 1.5376, 1.54636, 1.54154, 1.53892, 1.53368, 1.52152, 1.53465, 1.52541, 1.51434, 1.51171, 1.51574, 1.50483, 1.50128, 1.50026, 1.49868, 1.50125, 1.50678, 1.50139, 1.51738, 1.49999, 1.51247, 1.50226, 1.50287, 1.47873, 1.46869, 1.50843, 1.52067, 1.60634, 1.59861, 1.64341, 1.64196, 1.62877, 1.62736, 1.58004, 1.55247, 1.52656, 1.50345, 1.44957, 1.46002, 1.47186, 1.47303, 1.47151, 1.45992, 1.45885, 1.46343, 1.47135, 1.44795, 1.44424, 1.44054, 1.44462, 1.43486, 1.44372, 1.43545, 1.44011, 1.43372, 1.43352, 1.43192, 1.42974, 1.42601, 1.42356, 1.42189, 1.42052, 1.42012, 1.41974, 1.41884, 1.41835, 1.41479, 1.41391, 1.41268, 1.40972, 1.40981, 1.41262, 1.40919, 1.40744, 1.40588, 1.40291, 1.40076, 1.39871, 1.3957, 1.39262, 1.38896, 1.389, 1.38765, 1.38459, 1.38513, 1.38253, 1.38219, 1.3798, 1.37825, 1.37702, 1.37788, 1.37702, 1.37593, 1.37878, 1.37253, 1.37206, 1.36878, 1.3688, 1.37895, 1.38594, 1.37206, 1.3623, 1.36581, 1.37132, 1.37241, 1.36692, 1.37839, 1.33155, 1.33299, 1.38168, 1.4155, 1.43996, 1.45886, 1.4885, 1.50829, 1.51716, 1.54617, 1.55096, 1.51304, 1.46497, 1.38896, 1.35624, 1.33665, 1.35506, 1.35012, 1.34358, 1.34849, 1.35187, 1.35149, 1.33324, 1.3303, 1.32699, 1.3267, 1.32261, 1.32298, 1.34977, 1.31918, 1.33287, 1.32003
1.65993, 1.65749, 1.65406, 1.65244, 1.6465, 1.64814, 1.6459, 1.65794, 1.63902, 1.64414, 1.63399, 1.63018, 1.62478, 1.62403, 1.62022, 1.61897, 1.62462, 1.61528, 1.61295, 1.59545, 1.57438, 1.61351, 1.68785, 1.69916, 1.75859, 1.8005, 1.85513, 1.87642, 1.87336, 1.8594, 1.81264, 1.6412, 1.56471, 1.54088, 1.5967, 1.58167, 1.5849, 1.58923, 1.57239, 1.57154, 1.56877, 1.56654, 1.56452, 1.56241, 1.56136, 1.57894, 1.55718, 1.55737, 1.55424, 1.55306, 1.55201, 1.549, 1.546, 1.54393, 1.54246, 1.54099, 1.53584, 1.54082, 1.5311, 1.52838, 1.52471, 1.52149, 1.52078, 1.5201, 1.5171, 1.51356, 1.52926, 1.52765, 1.52337, 1.52966, 1.5067, 1.50447, 1.50444, 1.49999, 1.49973, 1.49616, 1.49525, 1.49244, 1.49201, 1.48935, 1.48508, 1.48536, 1.48343, 1.48135, 1.48966, 1.48972, 1.49004, 1.48228, 1.47667, 1.45766, 1.5096, 1.51661, 1.58343, 1.63619, 1.62254, 1.62088, 1.61648, 1.61678, 1.57528, 1.57004, 1.50832, 1.48625, 1.4511, 1.44029, 1.4556, 1.46328, 1.47252, 1.45008, 1.45409, 1.46438, 1.46386, 1.45805, 1.44203, 1.43236, 1.4279, 1.42776, 1.4336, 1.42324, 1.42254, 1.42135, 1.41909, 1.4182, 1.41613, 1.41529, 1.41254, 1.40964, 1.40743, 1.4053, 1.40496, 1.40492, 1.40257, 1.40565, 1.40643, 1.41089, 1.39493, 1.39367, 1.39249, 1.39106, 1.38872, 1.38846, 1.38752, 1.3884, 1.38471, 1.38106, 1.37933, 1.37878, 1.37617, 1.37495, 1.37292, 1.37194, 1.37131, 1.36807, 1.37788, 1.36646, 1.36396, 1.36358, 1.36226, 1.362, 1.35999, 1.35767, 1.35624, 1.35586, 1.35363, 1.35241, 1.35024, 1.36903, 1.34984, 1.34886, 1.3486, 1.35738, 1.35764, 1.34655, 1.32893, 1.3163, 1.34788, 1.37113, 1.41768, 1.37748, 1.49291, 1.51706, 1.50402, 1.52097, 1.54759, 1.50968, 1.47499, 1.42496, 1.34012, 1.3093, 1.32822, 1.34407, 1.33411, 1.3296, 1.33482, 1.32715, 1.31751, 1.31551, 1.31973, 1.31927, 1.31068, 1.30816, 1.3333, 1.30572, 1.34838, 1.31197
1.65648, 1.65622, 1.65266, 1.65035, 1.64835, 1.64902, 1.64442, 1.64137, 1.63895, 1.64056, 1.63667, 1.63511, 1.62126, 1.6231, 1.61925, 1.62654, 1.62032, 1.61979, 1.61092, 1.59209, 1.57167, 1.6172, 1.62035, 1.65644, 1.70357, 1.78569, 1.83319, 1.85052, 1.85505, 1.83478, 1.75683, 1.65826, 1.61995, 1.56197, 1.58956, 1.58307, 1.58041, 1.58199, 1.57361, 1.5718, 1.56906, 1.57656, 1.56412, 1.56034, 1.56751, 1.55794, 1.5559, 1.55161, 1.55167, 1.55029, 1.54763, 1.54728, 1.54579, 1.5435, 1.54087, 1.53891, 1.53568, 1.53058, 1.52803, 1.52657, 1.53004, 1.53328, 1.52191, 1.51117, 1.51165, 1.53462, 1.52723, 1.53001, 1.53043, 1.51009, 1.53415, 1.52036, 1.52638, 1.50345, 1.49753, 1.49774, 1.49762, 1.49579, 1.49394, 1.49079, 1.48971, 1.48868, 1.48531, 1.49932, 1.47917, 1.48398, 1.50434, 1.48579, 1.49176, 1.45605, 1.47169, 1.53594, 1.56362, 1.65404, 1.63022, 1.63669, 1.63387, 1.61781, 1.60915, 1.54463, 1.51526, 1.4812, 1.46775, 1.43387, 1.45348, 1.46018, 1.45705, 1.44865, 1.44056, 1.45569, 1.45193, 1.45231, 1.43966, 1.42097, 1.42703, 1.42513, 1.42178, 1.41971, 1.41875, 1.41699, 1.4165, 1.41567, 1.41328, 1.40965, 1.40701, 1.4056, 1.40347, 1.40119, 1.39995, 1.39816, 1.39667, 1.39605, 1.3947, 1.39362, 1.3936, 1.39006, 1.38655, 1.38267, 1.38167, 1.38087, 1.38015, 1.38077, 1.37957, 1.37849, 1.38484, 1.37858, 1.37846, 1.37684, 1.3728, 1.3708, 1.3692, 1.372, 1.367, 1.36486, 1.36409, 1.36341, 1.39027, 1.35872, 1.35776, 1.35571, 1.35436, 1.35714, 1.35036, 1.34982, 1.35109, 1.3485, 1.3466, 1.34541, 1.34433, 1.34359, 1.35161, 1.34988, 1.32198, 1.34385, 1.42461, 1.41877, 1.45745, 1.48938, 1.48909, 1.47907, 1.50657, 1.53343, 1.52405, 1.49496, 1.51789, 1.45112, 1.34473, 1.32897, 1.32305, 1.33632, 1.32855, 1.31748, 1.31589, 1.31071, 1.3124, 1.30857, 1.33231, 1.3373, 1.30665, 1.30929, 1.30485, 1.30535, 1.32897, 1.30216
1.65218, 1.64923, 1.64658, 1.64535, 1.64195, 1.63997, 1.65003, 1.63715, 1.63088, 1.63085, 1.62771, 1.6268, 1.624, 1.64184, 1.61971, 1.61715, 1.6177, 1.62096, 1.61741, 1.61043, 1.58573, 1.61995, 1.68418, 1.70431, 1.75075, 1.80688, 1.83728, 1.93559, 1.88613, 1.88266, 1.80694, 1.65887, 1.57709, 1.56479, 1.58173, 1.58527, 1.5791, 1.59558, 1.57289, 1.57161, 1.56881, 1.56709, 1.56392, 1.56144, 1.55828, 1.55691, 1.55369, 1.55339, 1.55162, 1.54997, 1.5485, 1.54711, 1.54683, 1.54463, 1.54218, 1.53989, 1.53702, 1.53277, 1.5297, 1.52793, 1.5243, 1.52255, 1.51961, 1.51824, 1.51925, 1.52307, 1.5369, 1.52859, 1.54421, 1.51778, 1.51635, 1.51684, 1.50523, 1.50337, 1.50243, 1.50083, 1.50017, 1.49743, 1.49697, 1.49403, 1.49928, 1.49004, 1.48945, 1.48671, 1.48669, 1.48642, 1.4991, 1.49886, 1.4732, 1.46202, 1.48993, 1.52777, 1.54772, 1.58678, 1.59154, 1.61941, 1.6092, 1.61182, 1.59387, 1.57337, 1.54439, 1.48612, 1.47807, 1.43487, 1.45781, 1.46161, 1.46304, 1.44672, 1.45082, 1.44706, 1.45009, 1.46218, 1.45919, 1.45353, 1.43094, 1.42982, 1.43286, 1.4256, 1.42427, 1.42052, 1.44053, 1.41619, 1.41251, 1.41164, 1.40959, 1.40822, 1.40581, 1.40305, 1.40048, 1.4, 1.39928, 1.39801, 1.39727, 1.39531, 1.39487, 1.39205, 1.3927, 1.39064, 1.38925, 1.38835, 1.38517, 1.38443, 1.38464, 1.38401, 1.38304, 1.38171, 1.38026, 1.37945, 1.37775, 1.37472, 1.3742, 1.37027, 1.36809, 1.36537, 1.36216, 1.3601, 1.35868, 1.35696, 1.35533, 1.3547, 1.35499, 1.35402, 1.35105, 1.35104, 1.34976, 1.34823, 1.37538, 1.34625, 1.3448, 1.3554, 1.3472, 1.36107, 1.32238, 1.33433, 1.42613, 1.42081, 1.44985, 1.46421, 1.49614, 1.51964, 1.54346, 1.51995, 1.50796, 1.49641, 1.45078, 1.42826, 1.32537, 1.30131, 1.31509, 1.32695, 1.32051, 1.31711, 1.324, 1.31263, 1.31154, 1.30993, 1.32723, 1.30392, 1.30603, 1.30334, 1.30181, 1.30438, 1.30366, 1.30274
1.64809, 1.65128, 1.64362, 1.66274, 1.63873, 1.6354, 1.63361, 1.63008, 1.62661, 1.63469, 1.62474, 1.62397, 1.6237, 1.62331, 1.62336, 1.6234, 1.62969, 1.62077, 1.62453, 1.62446, 1.60014, 1.6236, 1.66185, 1.70766, 1.75657, 1.80745, 1.85549, 1.88092, 1.89208, 1.86736, 1.79532, 1.62326, 1.57233, 1.55945, 1.59062, 1.59223, 1.59753, 1.57852, 1.57459, 1.57328, 1.57912, 1.56574, 1.56241, 1.57234, 1.55477, 1.5536, 1.55087, 1.54715, 1.54418, 1.54068, 1.53749, 1.54128, 1.54378, 1.54339, 1.54046, 1.53909, 1.53422, 1.53089, 1.52853, 1.53412, 1.52733, 1.52304, 1.52902, 1.52047, 1.51976, 1.51641, 1.52079, 1.53781, 1.53681, 1.53478, 1.52262, 1.52086, 1.51281, 1.50984, 1.50387, 1.50792, 1.49993, 1.49985, 1.49763, 1.49798, 1.49998, 1.49247, 1.49057, 1.48837, 1.49275, 1.49134, 1.50139, 1.49172, 1.49047, 1.4584, 1.47763, 1.49669, 1.54697, 1.58522, 1.57763, 1.59533, 1.6128, 1.60306, 1.58595, 1.54777, 1.5387, 1.49508, 1.44988, 1.43299, 1.4586, 1.4517, 1.44871, 1.45089, 1.44107, 1.44809, 1.44592, 1.45217, 1.46854, 1.45218, 1.44014, 1.44042, 1.42937, 1.4296, 1.43439, 1.42125, 1.42004, 1.41677, 1.42512, 1.41522, 1.41243, 1.41277, 1.41511, 1.40933, 1.40837, 1.40499, 1.40351, 1.40295, 1.40322, 1.3998, 1.39903, 1.39721, 1.3963, 1.39536, 1.39495, 1.39246, 1.39521, 1.38982, 1.38847, 1.42611, 1.38803, 1.38674, 1.38405, 1.38243, 1.38132, 1.37962, 1.37768, 1.37496, 1.37303, 1.37142, 1.36918, 1.36762, 1.36695, 1.36394, 1.36861, 1.36272, 1.36076, 1.36039, 1.3573, 1.35659, 1.35579, 1.36474, 1.35132, 1.35332, 1.35095, 1.35803, 1.35381, 1.37217, 1.33667, 1.34614, 1.35212, 1.44352, 1.41974, 1.45828, 1.48339, 1.49906, 1.51444, 1.52954, 1.51935, 1.49121, 1.45752, 1.42999, 1.3201, 1.30131, 1.32062, 1.33396, 1.32795, 1.31732, 1.31314, 1.3146, 1.31527, 1.31294, 1.31439, 1.31227, 1.3128, 1.30937, 1.32349, 1.307, 1.30598, 1.30576
1.64967, 1.64762, 1.64552, 1.64772, 1.64386, 1.64415, 1.63877, 1.63676, 1.62969, 1.62749, 1.62524, 1.6279, 1.61981, 1.62138, 1.62052, 1.62332, 1.62301, 1.62038, 1.61937, 1.62027, 1.60503, 1.59698, 1.66895, 1.71451, 1.72692, 1.81778, 1.85454, 1.86904, 1.87304, 1.86383, 1.83536, 1.66899, 1.61957, 1.56895, 1.58518, 1.5847, 1.58884, 1.574, 1.5872, 1.56796, 1.56648, 1.56279, 1.56203, 1.55569, 1.5579, 1.5513, 1.55065, 1.56652, 1.5467, 1.5417, 1.54051, 1.54324, 1.54417, 1.54382, 1.54082, 1.53829, 1.5353, 1.52996, 1.5283, 1.5269, 1.52501, 1.52464, 1.52054, 1.52012, 1.51842, 1.5158, 1.51035, 1.51237, 1.534, 1.52687, 1.51457, 1.50344, 1.50884, 1.49931, 1.49952, 1.49755, 1.49627, 1.49532, 1.49113, 1.48924, 1.4877, 1.48701, 1.48435, 1.48244, 1.48609, 1.48344, 1.49096, 1.48173, 1.47846, 1.45724, 1.47141, 1.51285, 1.55413, 1.63035, 1.59239, 1.60183, 1.61415, 1.58903, 1.57856, 1.56054, 1.5279, 1.53774, 1.47591, 1.4407, 1.45019, 1.44726, 1.44649, 1.43663, 1.4333, 1.43305, 1.43187, 1.43728, 1.46835, 1.45843, 1.42962, 1.42272, 1.43088, 1.42157, 1.42012, 1.43277, 1.43031, 1.41442, 1.41396, 1.41403, 1.41572, 1.41379, 1.41173, 1.40944, 1.40792, 1.40477, 1.40031, 1.40037, 1.3999, 1.39954, 1.39951, 1.39655, 1.39493, 1.39573, 1.39482, 1.39477, 1.39303, 1.39167, 1.38866, 1.38903, 1.38696, 1.38278, 1.37929, 1.37925, 1.37802, 1.37679, 1.37437, 1.37098, 1.36875, 1.3674, 1.3658, 1.36382, 1.36352, 1.36104, 1.36171, 1.35873, 1.3601, 1.35802, 1.35508, 1.35811, 1.35591, 1.35416, 1.36128, 1.34813, 1.34848, 1.34885, 1.35675, 1.366, 1.34328, 1.32747, 1.38924, 1.43744, 1.45713, 1.47176, 1.4999, 1.51777, 1.5405, 1.54207, 1.52663, 1.52204, 1.44764, 1.39482, 1.31989, 1.30158, 1.32706, 1.33479, 1.31979, 1.32083, 1.31374, 1.31294, 1.31362, 1.31176, 1.31167, 1.31084, 1.30934, 1.30876, 1.30997, 1.30657, 1.30535, 1.30375
1.65723, 1.65553, 1.65418, 1.65265, 1.65824, 1.64956, 1.64774, 1.65305, 1.64, 1.63693, 1.64286, 1.6341, 1.63323, 1.63449, 1.6244, 1.62288, 1.62004, 1.62715, 1.62044, 1.62449, 1.58736, 1.58862, 1.63706, 1.68405, 1.74629, 1.80293, 1.82292, 1.87562, 1.89654, 1.89572, 1.84152, 1.69326, 1.62781, 1.56255, 1.58411, 1.59718, 1.58348, 1.59273, 1.57812, 1.57449, 1.5701, 1.5666, 1.56395, 1.56167, 1.55842, 1.56893, 1.55467, 1.55191, 1.54846, 1.54798, 1.54791, 1.54702, 1.55013, 1.54383, 1.54142, 1.53807, 1.53378, 1.53402, 1.53104, 1.52944, 1.52681, 1.52562, 1.52282, 1.52168, 1.51928, 1.51662, 1.51688, 1.52289, 1.52846, 1.5279, 1.51682, 1.51441, 1.51275, 1.50417, 1.49991, 1.49611, 1.49321, 1.49596, 1.4924, 1.49002, 1.49555, 1.4856, 1.48333, 1.48188, 1.48554, 1.48846, 1.48434, 1.4863, 1.47852, 1.45052, 1.4747, 1.49403, 1.53646, 1.52646, 1.56511, 1.59307, 1.59682, 1.58207, 1.58538, 1.5793, 1.53454, 1.53307, 1.44783, 1.41977, 1.45465, 1.44836, 1.44484, 1.4447, 1.44781, 1.44129, 1.43306, 1.43342, 1.44771, 1.45641, 1.45834, 1.44681, 1.42457, 1.42199, 1.41934, 1.4179, 1.42818, 1.41321, 1.41329, 1.41556, 1.41291, 1.41197, 1.40909, 1.40737, 1.40579, 1.40208, 1.40169, 1.39985, 1.3994, 1.39802, 1.396, 1.39455, 1.39393, 1.39147, 1.39134, 1.39192, 1.38903, 1.38769, 1.38459, 1.38334, 1.38106, 1.37988, 1.37837, 1.37597, 1.37407, 1.37296, 1.36976, 1.36877, 1.36622, 1.36415, 1.36359, 1.36273, 1.36114, 1.35968, 1.35895, 1.35745, 1.35765, 1.3567, 1.35658, 1.35573, 1.35583, 1.35481, 1.35279, 1.35264, 1.35136, 1.3509, 1.36453, 1.36162, 1.34132, 1.33641, 1.35554, 1.40303, 1.43924, 1.46487, 1.52056, 1.54148, 1.53899, 1.5376, 1.52506, 1.5097, 1.4285, 1.41178, 1.3598, 1.3232, 1.32754, 1.33974, 1.32735, 1.31927, 1.31645, 1.31396, 1.31429, 1.31439, 1.31273, 1.31272, 1.31154, 1.30932, 1.309, 1.30728, 1.30861, 1.30592
1.65778, 1.65638, 1.65549, 1.65144, 1.6506, 1.64835, 1.64532, 1.6438, 1.65533, 1.63973, 1.63726, 1.64479, 1.62888, 1.62718, 1.62312, 1.6229, 1.62199, 1.63716, 1.6342, 1.62594, 1.60203, 1.5957, 1.65874, 1.67908, 1.71298, 1.76186, 1.82088, 1.85517, 1.86496, 1.85577, 1.86875, 1.77132, 1.61026, 1.56516, 1.58596, 1.58856, 1.59147, 1.58987, 1.58625, 1.58343, 1.58507, 1.56779, 1.56488, 1.56771, 1.57091, 1.55434, 1.58066, 1.55301, 1.54911, 1.549, 1.54797, 1.54643, 1.54499, 1.54063, 1.54171, 1.53916, 1.53777, 1.53476, 1.53204, 1.53026, 1.52847, 1.54658, 1.52295, 1.52052, 1.52663, 1.5161, 1.51384, 1.51392, 1.51773, 1.51703, 1.51614, 1.52189, 1.51022, 1.50435, 1.49964, 1.49844, 1.49565, 1.49969, 1.4989, 1.49513, 1.48793, 1.48491, 1.49992, 1.49034, 1.48997, 1.48469, 1.48967, 1.48839, 1.48159, 1.45238, 1.4648, 1.47903, 1.53353, 1.53738, 1.57934, 1.59205, 1.59231, 1.59522, 1.57957, 1.56524, 1.52611, 1.51638, 1.44886, 1.43066, 1.44763, 1.45771, 1.45719, 1.45786, 1.43728, 1.43519, 1.43401, 1.43336, 1.43392, 1.44874, 1.45339, 1.44683, 1.4432, 1.42627, 1.43439, 1.41946, 1.42729, 1.41637, 1.42099, 1.41289, 1.41218, 1.41255, 1.40985, 1.40826, 1.40686, 1.40347, 1.40201, 1.40251, 1.39946, 1.39816, 1.39578, 1.39425, 1.39304, 1.3913, 1.3905, 1.39068, 1.38843, 1.38605, 1.38563, 1.38214, 1.38002, 1.38216, 1.37733, 1.3761, 1.37479, 1.37257, 1.37109, 1.37036, 1.36748, 1.36681, 1.36583, 1.36471, 1.36287, 1.36284, 1.3608, 1.36135, 1.36056, 1.35918, 1.35768, 1.35668, 1.35604, 1.35588, 1.35252, 1.35196, 1.35079, 1.35083, 1.35825, 1.37069, 1.35131, 1.34528, 1.39639, 1.37704, 1.42318, 1.4714, 1.52361, 1.56225, 1.5663, 1.56598, 1.56757, 1.54701, 1.51035, 1.45115, 1.34056, 1.31633, 1.33127, 1.3316, 1.3382, 1.3288, 1.32383, 1.32163, 1.31941, 1.31752, 1.31406, 1.3139, 1.3122, 1.31236, 1.31242, 1.31048, 1.3082, 1.30673
1.65733, 1.65491, 1.65601, 1.65336, 1.65006, 1.64966, 1.64543, 1.64145, 1.63824, 1.63671, 1.6363, 1.65523, 1.65008, 1.6283, 1.62622, 1.62341, 1.61914, 1.61817, 1.6329, 1.62117, 1.59259, 1.58861, 1.6235, 1.67524, 1.69607, 1.7521, 1.84961, 1.84976, 1.90756, 1.88606, 1.81635, 1.71067, 1.57491, 1.5615, 1.58935, 1.58385, 1.58724, 1.58958, 1.56955, 1.56583, 1.56331, 1.56204, 1.55904, 1.55628, 1.55397, 1.5524, 1.55169, 1.55154, 1.55051, 1.54801, 1.54572, 1.54426, 1.54386, 1.542, 1.53969, 1.53762, 1.53737, 1.53423, 1.53189, 1.53011, 1.52524, 1.54387, 1.52292, 1.5239, 1.51972, 1.51614, 1.51344, 1.5129, 1.50912, 1.50969, 1.51948, 1.51845, 1.52342, 1.50071, 1.49706, 1.49241, 1.49997, 1.49291, 1.49149, 1.48893, 1.48676, 1.48582, 1.48435, 1.48169, 1.48199, 1.48109, 1.48933, 1.48576, 1.4764, 1.45016, 1.49873, 1.5069, 1.53079, 1.55949, 1.5853, 1.59076, 1.58205, 1.57791, 1.56647, 1.5618, 1.50982, 1.48901, 1.46868, 1.41646, 1.46196, 1.46814, 1.46059, 1.44928, 1.43759, 1.4348, 1.43289, 1.45088, 1.44432, 1.44437, 1.44437, 1.44063, 1.44787, 1.4305, 1.42062, 1.41997, 1.41459, 1.41278, 1.41273, 1.41078, 1.41049, 1.40846, 1.40616, 1.40505, 1.40438, 1.40367, 1.40194, 1.39989, 1.39933, 1.39727, 1.39869, 1.39688, 1.39535, 1.39382, 1.39193, 1.38804, 1.38675, 1.38484, 1.38371, 1.38431, 1.38251, 1.37654, 1.37661, 1.37505, 1.37302, 1.37074, 1.36777, 1.36718, 1.36742, 1.36757, 1.37108, 1.36344, 1.36199, 1.36156, 1.35991, 1.35921, 1.35974, 1.35917, 1.35858, 1.35768, 1.35673, 1.35096, 1.3499, 1.34907, 1.34876, 1.34419, 1.35517, 1.35018, 1.34708, 1.33141, 1.4096, 1.41985, 1.43046, 1.472, 1.50889, 1.55005, 1.56507, 1.56548, 1.55876, 1.53406, 1.45421, 1.42583, 1.32098, 1.33352, 1.35465, 1.34776, 1.33365, 1.35142, 1.32788, 1.32428, 1.32353, 1.32304, 1.32119, 1.32342, 1.31561, 1.31537, 1.31328, 1.3104, 1.31021, 1.30701
1.65732, 1.65357, 1.6528, 1.64816, 1.64609, 1.6443, 1.64112, 1.64051, 1.6373, 1.63419, 1.63278, 1.63121, 1.62962, 1.62673, 1.62631, 1.62291, 1.6213, 1.62672, 1.61999, 1.63292, 1.60199, 1.59077, 1.65208, 1.66926, 1.70855, 1.73658, 1.76773, 1.84708, 1.92109, 1.94654, 1.80201, 1.70366, 1.58396, 1.56774, 1.58651, 1.58697, 1.58128, 1.57452, 1.57278, 1.56919, 1.56647, 1.56452, 1.5623, 1.55978, 1.55798, 1.55844, 1.55838, 1.55383, 1.55366, 1.55263, 1.55043, 1.54833, 1.54661, 1.54371, 1.54123, 1.53748, 1.5371, 1.53536, 1.53535, 1.53117, 1.52938, 1.52805, 1.52613, 1.52304, 1.51917, 1.51832, 1.5145, 1.51955, 1.5137, 1.51115, 1.52092, 1.52285, 1.51993, 1.50965, 1.49871, 1.49888, 1.49785, 1.50416, 1.49397, 1.49214, 1.49154, 1.48953, 1.48704, 1.48694, 1.48566, 1.49257, 1.49236, 1.48599, 1.48959, 1.45735, 1.45829, 1.49365, 1.52008, 1.56949, 1.58327, 1.57122, 1.59884, 1.6163, 1.5734, 1.56905, 1.52282, 1.53349, 1.48287, 1.43937, 1.46185, 1.46204, 1.45205, 1.44788, 1.44037, 1.43673, 1.43556, 1.43435, 1.43372, 1.43207, 1.43916, 1.44272, 1.45537, 1.44266, 1.42285, 1.41911, 1.42284, 1.41417, 1.41321, 1.41191, 1.40932, 1.40845, 1.40666, 1.4058, 1.40556, 1.40562, 1.40223, 1.40097, 1.40026, 1.40025, 1.40187, 1.39654, 1.3947, 1.39445, 1.39127, 1.39003, 1.388, 1.38659, 1.38452, 1.3834, 1.38201, 1.37945, 1.3773, 1.37489, 1.37186, 1.37135, 1.36911, 1.36805, 1.36643, 1.36519, 1.36478, 1.3639, 1.36155, 1.36118, 1.35998, 1.35918, 1.35881, 1.35658, 1.35696, 1.35494, 1.35364, 1.35232, 1.34968, 1.34683, 1.34539, 1.34547, 1.34635, 1.35547, 1.35012, 1.32372, 1.34782, 1.3998, 1.41931, 1.44404, 1.49248, 1.38167, 1.38667, 1.5648, 1.56603, 1.52555, 1.48869, 1.37883, 1.3446, 1.31263, 1.34304, 1.33747, 1.33245, 1.3376, 1.32844, 1.32655, 1.32361, 1.32517, 1.32616, 1.32835, 1.31566, 1.31449, 1.31449, 1.31312, 1.31252, 1.30902
1.6613, 1.65276, 1.6522, 1.64912, 1.64747, 1.6455, 1.64178, 1.63775, 1.64257, 1.63201, 1.63068, 1.63009, 1.62838, 1.62494, 1.63861, 1.6229, 1.63789, 1.62881, 1.62646, 1.62206, 1.60336, 1.60069, 1.62647, 1.6776, 1.70625, 1.75404, 1.78974, 1.85615, 1.90358, 1.90006, 1.8645, 1.7585, 1.56901, 1.5626, 1.58779, 1.58882, 1.58525, 1.58289, 1.57656, 1.57547, 1.5774, 1.57204, 1.56907, 1.56494, 1.56244, 1.56535, 1.56088, 1.55517, 1.55345, 1.5509, 1.54821, 1.54761, 1.54597, 1.54461, 1.5429, 1.54031, 1.5397, 1.53757, 1.53628, 1.53406, 1.53178, 1.53637, 1.52636, 1.52346, 1.52646, 1.51794, 1.52277, 1.51354, 1.51353, 1.52699, 1.51203, 1.51539, 1.54851, 1.51442, 1.52057, 1.51366, 1.51818, 1.51023, 1.52064, 1.50451, 1.50251, 1.49339, 1.49099, 1.50102, 1.48809, 1.48998, 1.49509, 1.49869, 1.48861, 1.46029, 1.47917, 1.50898, 1.53618, 1.57652, 1.64494, 1.60979, 1.5893, 1.58015, 1.56909, 1.57288, 1.53387, 1.49647, 1.46026, 1.44459, 1.44034, 1.46419, 1.46575, 1.44665, 1.44401, 1.44166, 1.43808, 1.43752, 1.44036, 1.43335, 1.43634, 1.45064, 1.45341, 1.44766, 1.43849, 1.4274, 1.41871, 1.42755, 1.41685, 1.41413, 1.41242, 1.40973, 1.40989, 1.40832, 1.40743, 1.4069, 1.40589, 1.41045, 1.40834, 1.40169, 1.39931, 1.39797, 1.39609, 1.39404, 1.39158, 1.39093, 1.38856, 1.38587, 1.38462, 1.38237, 1.37976, 1.37902, 1.38042, 1.37693, 1.37472, 1.3739, 1.37138, 1.37012, 1.3675, 1.36698, 1.36479, 1.36311, 1.36161, 1.36071, 1.36063, 1.35894, 1.35963, 1.35718, 1.35284, 1.35353, 1.35386, 1.35192, 1.3504, 1.34961, 1.34846, 1.35071, 1.35058, 1.36051, 1.36508, 1.32732, 1.33357, 1.39498, 1.41799, 1.45333, 1.48335, 1.58639, 1.56815, 1.58871, 1.58311, 1.55764, 1.4551, 1.40194, 1.31583, 1.30524, 1.33812, 1.34367, 1.33956, 1.33783, 1.33842, 1.32897, 1.32689, 1.32291, 1.32066, 1.31742, 1.3175, 1.31642, 1.31592, 1.31352, 1.31339, 1.31108
1.65597, 1.65245, 1.65081, 1.65101, 1.64558, 1.64261, 1.64237, 1.63921, 1.67274, 1.63315, 1.62985, 1.63099, 1.62464, 1.62361, 1.62358, 1.62105, 1.62081, 1.62061, 1.64863, 1.62149, 1.61238, 1.57865, 1.61052, 1.63781, 1.69733, 1.75913, 1.78006, 1.82557, 1.94257, 1.92743, 1.8086, 1.74533, 1.64238, 1.57186, 1.58845, 1.58741, 1.58861, 1.57806, 1.5741, 1.58245, 1.56873, 1.56645, 1.56448, 1.56199, 1.55759, 1.55595, 1.58688, 1.55309, 1.54803, 1.54533, 1.54326, 1.54213, 1.5402, 1.53844, 1.53799, 1.54017, 1.53455, 1.53315, 1.53518, 1.53362, 1.52677, 1.52531, 1.52307, 1.52229, 1.51966, 1.51753, 1.5171, 1.51629, 1.51286, 1.50912, 1.5134, 1.50548, 1.52381, 1.52027, 1.51726, 1.50996, 1.49893, 1.49723, 1.49616, 1.49414, 1.49708, 1.49286, 1.48893, 1.48974, 1.48374, 1.48301, 1.485, 1.4825, 1.48006, 1.45465, 1.4623, 1.50641, 1.50353, 1.50241, 1.59516, 1.5933, 1.57503, 1.5657, 1.57886, 1.54317, 1.53427, 1.51005, 1.4497, 1.42908, 1.43725, 1.45803, 1.46162, 1.46732, 1.44743, 1.44443, 1.45385, 1.43482, 1.434, 1.43277, 1.43103, 1.43677, 1.4393, 1.43757, 1.43666, 1.43431, 1.42313, 1.41562, 1.41301, 1.41084, 1.41096, 1.40926, 1.40845, 1.40595, 1.40587, 1.40557, 1.40644, 1.40637, 1.40301, 1.39893, 1.39821, 1.39799, 1.39648, 1.39439, 1.39342, 1.3919, 1.3906, 1.39037, 1.3879, 1.38503, 1.38257, 1.38124, 1.37972, 1.37808, 1.37756, 1.37563, 1.37227, 1.36986, 1.36967, 1.36598, 1.36293, 1.36057, 1.36019, 1.35842, 1.35553, 1.35507, 1.35422, 1.3538, 1.35491, 1.35658, 1.35022, 1.35014, 1.34981, 1.36259, 1.34771, 1.34759, 1.34986, 1.35208, 1.36498, 1.34632, 1.34254, 1.44705, 1.40285, 1.46073, 1.46109, 1.52086, 1.57902, 1.5753, 1.58566, 1.54311, 1.50951, 1.36046, 1.35115, 1.30391, 1.32617, 1.32778, 1.34295, 1.32208, 1.31578, 1.31529, 1.31685, 1.31599, 1.31462, 1.30908, 1.31149, 1.31136, 1.31429, 1.31251, 1.30684, 1.30798
1.65567, 1.65242, 1.6499, 1.64759, 1.6454, 1.64125, 1.64065, 1.63661, 1.63592, 1.63167, 1.62925, 1.62814, 1.62739, 1.62493, 1.62436, 1.62206, 1.61971, 1.63373, 1.62038, 1.62822, 1.62114, 1.60213, 1.6305, 1.70072, 1.69869, 1.78669, 1.85008, 1.96964, 1.96588, 2.00104, 1.92471, 1.73491, 1.56857, 1.55422, 1.57386, 1.58236, 1.60404, 1.57564, 1.57592, 1.57125, 1.56792, 1.56569, 1.56297, 1.56096, 1.55909, 1.55639, 1.55514, 1.55159, 1.54956, 1.54762, 1.54588, 1.54339, 1.54345, 1.54139, 1.54104, 1.5373, 1.5351, 1.53376, 1.53267, 1.52974, 1.52773, 1.52386, 1.52308, 1.51914, 1.51766, 1.51455, 1.5137, 1.51059, 1.51046, 1.51557, 1.50593, 1.50537, 1.5053, 1.52274, 1.53901, 1.51086, 1.51923, 1.49884, 1.49766, 1.50238, 1.49302, 1.49149, 1.48894, 1.48488, 1.48317, 1.48366, 1.48279, 1.48261, 1.4773, 1.45568, 1.47335, 1.52354, 1.54089, 1.51905, 1.57261, 1.56115, 1.55717, 1.56266, 1.55813, 1.55793, 1.50583, 1.49496, 1.49244, 1.4249, 1.44172, 1.45444, 1.4513, 1.447, 1.45729, 1.43986, 1.44443, 1.43487, 1.43464, 1.43063, 1.43076, 1.42654, 1.42717, 1.43712, 1.43793, 1.4384, 1.42412, 1.41635, 1.41294, 1.411, 1.41001, 1.40875, 1.40828, 1.40848, 1.40823, 1.40695, 1.40583, 1.40415, 1.40373, 1.40247, 1.39972, 1.39823, 1.39675, 1.39483, 1.39338, 1.3917, 1.39046, 1.38961, 1.38909, 1.38617, 1.38448, 1.38074, 1.38115, 1.37912, 1.37726, 1.37429, 1.37243, 1.36765, 1.36397, 1.36299, 1.36103, 1.3585, 1.35688, 1.35756, 1.35354, 1.35383, 1.35475, 1.35399, 1.36835, 1.36159, 1.35408, 1.3535, 1.35278, 1.35117, 1.3509, 1.35162, 1.35118, 1.35448, 1.35273, 1.33766, 1.33114, 1.38382, 1.41756, 1.42745, 1.47934, 1.52784, 1.57442, 1.58532, 1.60238, 1.51977, 1.48798, 1.39423, 1.3181, 1.31879, 1.33589, 1.33013, 1.33211, 1.3188, 1.31688, 1.31978, 1.31594, 1.31301, 1.3152, 1.31442, 1.31594, 1.31475, 1.31332, 1.31189, 1.31048, 1.30935
1.65589, 1.64906, 1.64767, 1.64673, 1.64358, 1.64062, 1.63854, 1.63499, 1.63403, 1.63077, 1.62816, 1.63112, 1.62543, 1.6242, 1.62444, 1.62132, 1.61827, 1.62425, 1.61806, 1.6252, 1.61333, 1.59754, 1.65158, 1.67554, 1.70397, 1.77142, 1.78433, 1.8604, 1.92683, 1.97328, 1.86964, 1.81457, 1.66747, 1.55481, 1.57607, 1.58526, 1.58667, 1.57714, 1.5727, 1.57169, 1.56882, 1.56446, 1.56166, 1.56003, 1.55861, 1.55882, 1.56508, 1.55301, 1.55075, 1.54852, 1.54608, 1.5434, 1.53916, 1.53896, 1.53837, 1.53621, 1.53278, 1.53092, 1.52828, 1.52732, 1.52536, 1.52337, 1.52016, 1.51937, 1.51681, 1.51489, 1.51263, 1.51256, 1.50851, 1.5067, 1.51609, 1.50608, 1.50661, 1.5108, 1.52049, 1.51246, 1.50996, 1.50456, 1.49549, 1.49461, 1.4936, 1.49664, 1.49456, 1.48571, 1.48492, 1.48344, 1.49801, 1.5026, 1.47544, 1.45561, 1.46662, 1.51006, 1.56399, 1.59671, 1.57208, 1.56953, 1.57418, 1.55844, 1.54966, 1.54717, 1.53134, 1.52027, 1.49258, 1.43763, 1.44952, 1.45976, 1.4655, 1.45487, 1.4449, 1.43751, 1.43348, 1.43286, 1.42947, 1.42785, 1.42657, 1.42358, 1.43032, 1.45479, 1.45804, 1.45677, 1.45804, 1.43517, 1.42639, 1.41186, 1.40953, 1.40934, 1.40576, 1.40588, 1.40601, 1.40505, 1.40435, 1.40331, 1.40316, 1.40249, 1.39944, 1.39743, 1.39824, 1.39636, 1.39462, 1.39401, 1.39168, 1.39177, 1.38872, 1.38658, 1.38447, 1.38247, 1.38134, 1.37918, 1.37778, 1.37822, 1.37527, 1.37189, 1.36832, 1.36543, 1.36224, 1.36245, 1.36257, 1.35861, 1.35429, 1.35364, 1.35386, 1.35419, 1.37899, 1.3532, 1.35452, 1.35365, 1.35386, 1.35229, 1.35219, 1.35343, 1.35251, 1.35374, 1.3532, 1.3521, 1.36804, 1.37564, 1.44376, 1.4604, 1.54748, 1.54143, 1.58929, 1.59839, 1.61656, 1.57024, 1.58267, 1.41721, 1.32997, 1.29221, 1.33493, 1.33917, 1.33409, 1.32653, 1.31986, 1.32884, 1.3206, 1.32906, 1.32295, 1.3221, 1.31671, 1.31667, 1.31171, 1.31065, 1.30958, 1.30733
1.65203, 1.64794, 1.64497, 1.64308, 1.64209, 1.6407, 1.63815, 1.63453, 1.63029, 1.63036, 1.62533, 1.62483, 1.624, 1.6213, 1.62361, 1.6216, 1.62325, 1.61729, 1.61817, 1.62747, 1.62691, 1.58939, 1.65526, 1.63375, 1.68924, 1.73282, 1.8126, 1.85981, 1.92859, 1.9235, 1.86135, 1.65121, 1.63065, 1.57162, 1.59175, 1.58925, 1.59572, 1.57644, 1.57267, 1.56853, 1.56763, 1.56556, 1.56182, 1.56816, 1.55808, 1.5584, 1.56089, 1.5516, 1.5493, 1.54581, 1.54452, 1.54099, 1.54006, 1.53945, 1.5363, 1.53667, 1.53426, 1.53198, 1.53453, 1.52471, 1.52355, 1.52016, 1.51774, 1.51626, 1.51243, 1.51373, 1.52288, 1.50571, 1.50321, 1.50941, 1.50042, 1.4985, 1.50174, 1.49851, 1.49923, 1.5174, 1.52567, 1.52991, 1.50621, 1.49266, 1.49715, 1.48896, 1.49228, 1.48871, 1.482, 1.48323, 1.49515, 1.48886, 1.48376, 1.45131, 1.45141, 1.51173, 1.5313, 1.58828, 1.58923, 1.57795, 1.57082, 1.54451, 1.54804, 1.55099, 1.54761, 1.50738, 1.50436, 1.43453, 1.43789, 1.4576, 1.45833, 1.46195, 1.44415, 1.43729, 1.4332, 1.43168, 1.42968, 1.4338, 1.42609, 1.42452, 1.4236, 1.42753, 1.42626, 1.42259, 1.41353, 1.42013, 1.42142, 1.41225, 1.40791, 1.41685, 1.40524, 1.4053, 1.40498, 1.40617, 1.40354, 1.4027, 1.39889, 1.39635, 1.39591, 1.39374, 1.394, 1.39277, 1.39134, 1.39092, 1.38878, 1.38793, 1.38647, 1.38532, 1.38483, 1.38255, 1.38315, 1.38155, 1.37959, 1.37752, 1.37575, 1.37471, 1.37155, 1.36879, 1.36696, 1.36361, 1.36284, 1.36134, 1.36026, 1.35831, 1.35742, 1.35466, 1.35347, 1.35251, 1.35371, 1.35334, 1.35326, 1.3499, 1.34825, 1.35035, 1.35207, 1.35883, 1.3541, 1.34675, 1.31596, 1.38288, 1.4196, 1.46794, 1.51284, 1.53324, 1.60463, 1.57406, 1.57439, 1.55794, 1.53367, 1.44373, 1.34423, 1.30572, 1.32989, 1.34412, 1.32302, 1.32259, 1.32143, 1.31895, 1.31958, 1.31604, 1.31643, 1.31566, 1.31513, 1.31542, 1.35022, 1.30969, 1.3069, 1.30644
1.65383, 1.651, 1.64911, 1.64629, 1.64347, 1.64106, 1.63809, 1.63543, 1.63468, 1.63898, 1.62469, 1.62924, 1.62089, 1.62025, 1.62113, 1.62177, 1.62405, 1.61863, 1.61759, 1.618, 1.62084, 1.59457, 1.61313, 1.6293, 1.7161, 1.73936, 1.81872, 1.85709, 1.99027, 2.1348, 2.10698, 1.73217, 1.5837, 1.55346, 1.57533, 1.58352, 1.59256, 1.59243, 1.57553, 1.57185, 1.56868, 1.56556, 1.58334, 1.5595, 1.55751, 1.55544, 1.55619, 1.54999, 1.54877, 1.5469, 1.54453, 1.54385, 1.54236, 1.54043, 1.53897, 1.53725, 1.53501, 1.53379, 1.53034, 1.52798, 1.5254, 1.52285, 1.52121, 1.51945, 1.51614, 1.51422, 1.51185, 1.50831, 1.50618, 1.50241, 1.50153, 1.50062, 1.50945, 1.49874, 1.51181, 1.5299, 1.51862, 1.50492, 1.50359, 1.51324, 1.49447, 1.49949, 1.48824, 1.48753, 1.4829, 1.48218, 1.48315, 1.48945, 1.4828, 1.4649, 1.48509, 1.50064, 1.53511, 1.55849, 1.64004, 1.58304, 1.56666, 1.54655, 1.54543, 1.53897, 1.51592, 1.49836, 1.47119, 1.47459, 1.44138, 1.44687, 1.44758, 1.44676, 1.44292, 1.4377, 1.43401, 1.43286, 1.42998, 1.42926, 1.4289, 1.42843, 1.43578, 1.42254, 1.40587, 1.4476, 1.43126, 1.40816, 1.40593, 1.40649, 1.40595, 1.40713, 1.4101, 1.40208, 1.4018, 1.40047, 1.39945, 1.39892, 1.39587, 1.39494, 1.39311, 1.39198, 1.3901, 1.38883, 1.38818, 1.38803, 1.38697, 1.38817, 1.3862, 1.38498, 1.38287, 1.38172, 1.3814, 1.38054, 1.37891, 1.37748, 1.37517, 1.37392, 1.37135, 1.37072, 1.36879, 1.36814, 1.36682, 1.36542, 1.36482, 1.36091, 1.36173, 1.35864, 1.35775, 1.3565, 1.35405, 1.35212, 1.35191, 1.35109, 1.34977, 1.34895, 1.3498, 1.36001, 1.3562, 1.35844, 1.3303, 1.39685, 1.4306, 1.45512, 1.48977, 1.547, 1.5725, 1.60697, 1.58555, 1.5514, 1.45962, 1.38014, 1.31192, 1.30831, 1.33193, 1.33012, 1.3296, 1.33319, 1.32085, 1.31887, 1.3173, 1.31645, 1.31524, 1.31372, 1.31325, 1.31158, 1.33344, 1.30749, 1.30815, 1.30289
1.65264, 1.64975, 1.6463, 1.64491, 1.64115, 1.63733, 1.635, 1.63333, 1.63, 1.63045, 1.62826, 1.62547, 1.62462, 1.62433, 1.62412, 1.63532, 1.61963, 1.61837, 1.62676, 1.61628, 1.61675, 1.59656, 1.59138, 1.65081, 1.6863, 1.75396, 1.80761, 1.85251, 1.89914, 1.92452, 1.89024, 1.83011, 1.66224, 1.5546, 1.58261, 1.58719, 1.5781, 1.57446, 1.58453, 1.56909, 1.56617, 1.56266, 1.561, 1.55888, 1.55688, 1.5552, 1.55246, 1.55124, 1.55453, 1.54739, 1.54506, 1.54384, 1.54368, 1.54148, 1.53912, 1.53675, 1.5344, 1.53256, 1.53047, 1.52994, 1.52745, 1.52551, 1.52276, 1.52092, 1.51881, 1.51547, 1.51092, 1.50997, 1.50739, 1.504, 1.50359, 1.50824, 1.4992, 1.49789, 1.50923, 1.51269, 1.52459, 1.52004, 1.51735, 1.50885, 1.48926, 1.49797, 1.48711, 1.48954, 1.47986, 1.48728, 1.48758, 1.48863, 1.48121, 1.46805, 1.48463, 1.50841, 1.50898, 1.5416, 1.54163, 1.54466, 1.54168, 1.53767, 1.53319, 1.51015, 1.51723, 1.53825, 1.465, 1.46137, 1.43896, 1.45064, 1.45236, 1.45167, 1.44911, 1.45122, 1.43491, 1.43748, 1.43683, 1.45777, 1.44305, 1.44126, 1.42456, 1.45698, 1.45549, 1.43267, 1.41768, 1.40777, 1.42286, 1.4091, 1.41701, 1.40504, 1.40366, 1.40357, 1.40222, 1.40035, 1.39926, 1.3978, 1.39666, 1.3944, 1.39222, 1.39062, 1.38957, 1.38742, 1.38812, 1.38574, 1.38579, 1.3849, 1.3832, 1.382, 1.38486, 1.37956, 1.37753, 1.37526, 1.37476, 1.37309, 1.37343, 1.36925, 1.36757, 1.36754, 1.36801, 1.36664, 1.36692, 1.36617, 1.36445, 1.364, 1.36317, 1.363, 1.36109, 1.35779, 1.3613, 1.35399, 1.35341, 1.35361, 1.35104, 1.35138, 1.35253, 1.35218, 1.35387, 1.36353, 1.31914, 1.37489, 1.426, 1.43143, 1.48392, 1.52741, 1.55538, 1.5685, 1.57554, 1.57115, 1.52751, 1.43366, 1.30116, 1.33235, 1.35085, 1.34444, 1.33856, 1.33282, 1.32092, 1.31678, 1.31654, 1.31636, 1.31499, 1.3225, 1.31256, 1.31981, 1.31066, 1.30694, 1.30537, 1.305
1.65196, 1.64924, 1.6425, 1.64051, 1.63711, 1.63508, 1.63121, 1.62758, 1.62919, 1.63002, 1.62863, 1.62844, 1.62497, 1.62421, 1.62061, 1.61767, 1.62655, 1.61593, 1.61497, 1.61531, 1.61575, 1.60603, 1.61715, 1.63679, 1.68233, 1.71114, 1.79688, 1.84832, 1.872, 1.91097, 1.86217, 1.78961, 1.58954, 1.55191, 1.57808, 1.58566, 1.57565, 1.56978, 1.5673, 1.5653, 1.56273, 1.5587, 1.55747, 1.5605, 1.55268, 1.55253, 1.55024, 1.54809, 1.54722, 1.54552, 1.54523, 1.5444, 1.53718, 1.5369, 1.53445, 1.53247, 1.53115, 1.52998, 1.52925, 1.52527, 1.5238, 1.52159, 1.51341, 1.51808, 1.51422, 1.51241, 1.51057, 1.50802, 1.52063, 1.50376, 1.50424, 1.5013, 1.5003, 1.49789, 1.50016, 1.50721, 1.51552, 1.53272, 1.51985, 1.52099, 1.48428, 1.4919, 1.48522, 1.49012, 1.47853, 1.47744, 1.47804, 1.48244, 1.48953, 1.46065, 1.48011, 1.48459, 1.53101, 1.57213, 1.57211, 1.56668, 1.55999, 1.54185, 1.52984, 1.52883, 1.52697, 1.49638, 1.46819, 1.44084, 1.42375, 1.44991, 1.44986, 1.44674, 1.44146, 1.43946, 1.44012, 1.43826, 1.43875, 1.4433, 1.43463, 1.43804, 1.45384, 1.46056, 1.44305, 1.43469, 1.43014, 1.41469, 1.4151, 1.4181, 1.40943, 1.40855, 1.40616, 1.40496, 1.40488, 1.40208, 1.40115, 1.39859, 1.39713, 1.39487, 1.39301, 1.39207, 1.38974, 1.38792, 1.3877, 1.3881, 1.38559, 1.38432, 1.38259, 1.381, 1.38004, 1.37769, 1.37655, 1.37556, 1.37458, 1.37269, 1.37135, 1.36892, 1.3676, 1.36503, 1.36464, 1.36495, 1.36352, 1.3639, 1.36372, 1.37262, 1.3617, 1.36082, 1.35683, 1.35652, 1.35403, 1.35711, 1.35681, 1.34833, 1.3476, 1.34665, 1.3451, 1.36648, 1.35823, 1.34683, 1.32227, 1.36794, 1.39789, 1.45837, 1.49532, 1.55804, 1.60617, 1.60693, 1.62624, 1.62463, 1.4825, 1.44637, 1.34079, 1.29976, 1.32235, 1.33791, 1.32754, 1.33753, 1.31854, 1.31683, 1.31539, 1.31327, 1.31288, 1.31261, 1.3099, 1.30875, 1.30613, 1.30963, 1.30633, 1.30343
1.65414, 1.65143, 1.64913, 1.64501, 1.64362, 1.63877, 1.63424, 1.63538, 1.63308, 1.63381, 1.62933, 1.62534, 1.6226, 1.62013, 1.62143, 1.62362, 1.61627, 1.61755, 1.61484, 1.61628, 1.61382, 1.59835, 1.59231, 1.64646, 1.694, 1.73107, 1.81326, 1.86808, 1.90327, 1.92372, 1.92154, 1.81323, 1.60953, 1.59294, 1.58959, 1.59043, 1.57695, 1.57567, 1.59214, 1.57512, 1.56889, 1.56268, 1.55917, 1.55871, 1.55615, 1.55499, 1.55253, 1.5515, 1.57087, 1.5471, 1.5439, 1.54368, 1.53979, 1.53725, 1.53461, 1.53117, 1.52883, 1.52545, 1.5235, 1.52103, 1.51921, 1.51793, 1.51735, 1.51588, 1.51283, 1.51103, 1.50951, 1.50857, 1.50677, 1.50568, 1.50452, 1.50316, 1.5026, 1.50641, 1.49823, 1.49653, 1.4969, 1.51585, 1.53391, 1.53654, 1.51673, 1.49924, 1.48984, 1.49033, 1.48106, 1.48013, 1.4921, 1.48647, 1.48575, 1.45492, 1.4529, 1.51433, 1.52083, 1.54316, 1.55612, 1.55048, 1.54704, 1.53724, 1.53777, 1.53375, 1.53452, 1.52669, 1.5124, 1.4538, 1.43074, 1.44083, 1.44962, 1.45641, 1.44409, 1.45149, 1.43776, 1.4344, 1.42845, 1.44057, 1.44078, 1.45672, 1.50211, 1.46958, 1.44826, 1.44269, 1.42414, 1.41768, 1.41531, 1.40827, 1.41252, 1.40548, 1.41635, 1.40364, 1.40172, 1.39978, 1.39887, 1.39601, 1.39515, 1.39282, 1.39302, 1.39149, 1.39023, 1.38836, 1.39343, 1.38537, 1.38457, 1.3831, 1.38203, 1.38073, 1.37786, 1.37582, 1.37388, 1.3722, 1.37035, 1.36815, 1.36699, 1.36785, 1.36581, 1.36446, 1.36275, 1.36223, 1.36249, 1.36271, 1.36141, 1.36054, 1.35888, 1.35742, 1.35767, 1.35664, 1.35505, 1.35372, 1.34971, 1.34864, 1.34743, 1.34517, 1.34726, 1.34697, 1.35616, 1.36118, 1.33489, 1.34401, 1.41715, 1.44355, 1.49337, 1.5125, 1.59617, 1.60141, 1.61433, 1.56411, 1.44693, 1.41004, 1.34003, 1.3044, 1.32231, 1.32594, 1.32427, 1.32346, 1.31896, 1.31884, 1.32016, 1.31662, 1.31603, 1.31326, 1.31399, 1.31099, 1.30816, 1.309, 1.30684, 1.30521
1.65598, 1.65499, 1.65178, 1.65056, 1.64781, 1.6465, 1.64238, 1.63919, 1.63718, 1.66285, 1.63364, 1.63102, 1.62693, 1.62687, 1.64055, 1.62143, 1.61862, 1.62388, 1.61629, 1.62165, 1.61625, 1.61729, 1.589, 1.59616, 1.6721, 1.69684, 1.75141, 1.80296, 1.84731, 1.91168, 1.89781, 1.71648, 1.62535, 1.54881, 1.58439, 1.59172, 1.57967, 1.5765, 1.58091, 1.57538, 1.57831, 1.56449, 1.57552, 1.55844, 1.5676, 1.55706, 1.56942, 1.57612, 1.55791, 1.54818, 1.54372, 1.55134, 1.538, 1.53679, 1.53473, 1.53139, 1.52975, 1.52368, 1.52286, 1.52042, 1.51819, 1.51628, 1.51632, 1.51384, 1.51153, 1.51037, 1.50974, 1.50844, 1.50847, 1.51319, 1.50643, 1.50514, 1.50321, 1.50364, 1.50173, 1.51479, 1.49892, 1.49191, 1.52318, 1.53078, 1.5409, 1.52043, 1.49718, 1.49594, 1.49985, 1.49305, 1.4987, 1.47874, 1.46797, 1.45427, 1.47516, 1.47832, 1.50956, 1.53849, 1.5466, 1.54703, 1.54777, 1.5231, 1.52349, 1.52917, 1.53382, 1.50661, 1.49163, 1.45721, 1.42614, 1.4348, 1.43671, 1.45554, 1.45314, 1.46065, 1.47197, 1.46578, 1.49556, 1.48507, 1.48549, 1.47771, 1.47172, 1.44666, 1.43432, 1.43414, 1.42775, 1.42598, 1.42236, 1.41406, 1.413, 1.40985, 1.40919, 1.40683, 1.40492, 1.40309, 1.3992, 1.39676, 1.39504, 1.39508, 1.39217, 1.38889, 1.38895, 1.38755, 1.39091, 1.3863, 1.38435, 1.38292, 1.38157, 1.3793, 1.37677, 1.37698, 1.37499, 1.37251, 1.37886, 1.37056, 1.3697, 1.37107, 1.368, 1.36707, 1.36583, 1.36465, 1.36392, 1.36385, 1.36366, 1.36163, 1.35928, 1.35738, 1.35681, 1.35723, 1.35279, 1.35199, 1.34985, 1.34839, 1.34775, 1.34701, 1.35458, 1.34787, 1.36041, 1.34634, 1.33592, 1.32598, 1.41327, 1.39453, 1.46626, 1.49812, 1.57773, 1.59202, 1.6038, 1.60169, 1.54079, 1.45408, 1.32988, 1.31292, 1.33295, 1.3385, 1.33358, 1.32259, 1.32523, 1.32076, 1.33008, 1.3175, 1.3179, 1.31809, 1.31288, 1.31057, 1.31276, 1.30935, 1.30484, 1.3052
1.65282, 1.65113, 1.64993, 1.65022, 1.64713, 1.64234, 1.64043, 1.63801, 1.63335, 1.63198, 1.62952, 1.62766, 1.62527, 1.6203, 1.6181, 1.61624, 1.61532, 1.60964, 1.6095, 1.61143, 1.61708, 1.6097, 1.58558, 1.62615, 1.71834, 1.74357, 1.8431, 1.86562, 1.93997, 1.9773, 1.94551, 1.78741, 1.62621, 1.5647, 1.58601, 1.5881, 1.58311, 1.5916, 1.57528, 1.57174, 1.56849, 1.56399, 1.56064, 1.55937, 1.55603, 1.55418, 1.55032, 1.54741, 1.54471, 1.54058, 1.54012, 1.53848, 1.53479, 1.5328, 1.5323, 1.52702, 1.52443, 1.52119, 1.51614, 1.51569, 1.51833, 1.51123, 1.50922, 1.50988, 1.50636, 1.50484, 1.50532, 1.50518, 1.5026, 1.50263, 1.50075, 1.50017, 1.49892, 1.49819, 1.49822, 1.49663, 1.49307, 1.49474, 1.49734, 1.53798, 1.52764, 1.53486, 1.5279, 1.49058, 1.4967, 1.48208, 1.47925, 1.48147, 1.49056, 1.46189, 1.47539, 1.48409, 1.48457, 1.51415, 1.55102, 1.53684, 1.51726, 1.51265, 1.53732, 1.53489, 1.56679, 1.53786, 1.48497, 1.46517, 1.47963, 1.46322, 1.48596, 1.47975, 1.49128, 1.49752, 1.49327, 1.49216, 1.47942, 1.45137, 1.45772, 1.451, 1.43694, 1.43365, 1.44686, 1.42451, 1.42081, 1.41645, 1.41397, 1.41255, 1.40989, 1.4089, 1.40694, 1.40505, 1.40249, 1.40228, 1.39979, 1.3977, 1.39587, 1.39392, 1.39137, 1.39059, 1.38686, 1.38561, 1.38436, 1.38318, 1.38268, 1.37914, 1.37776, 1.37758, 1.37625, 1.37344, 1.37243, 1.37173, 1.37456, 1.36714, 1.36709, 1.36671, 1.36525, 1.36433, 1.36193, 1.36072, 1.36317, 1.36063, 1.35765, 1.35678, 1.35532, 1.35415, 1.35069, 1.34984, 1.34859, 1.34785, 1.34629, 1.34455, 1.34486, 1.34112, 1.34075, 1.34274, 1.34705, 1.34776, 1.32092, 1.32931, 1.38492, 1.42194, 1.46747, 1.52805, 1.59016, 1.59538, 1.62364, 1.6169, 1.48879, 1.45341, 1.36187, 1.32374, 1.32687, 1.32981, 1.32983, 1.31781, 1.31712, 1.31611, 1.31575, 1.31552, 1.31373, 1.31269, 1.31115, 1.30906, 1.3085, 1.30437, 1.30559, 1.30193
1.64834, 1.64575, 1.64543, 1.64139, 1.64106, 1.64064, 1.63873, 1.63793, 1.63709, 1.63636, 1.63341, 1.63041, 1.62748, 1.62513, 1.62207, 1.63139, 1.61811, 1.62767, 1.60985, 1.61478, 1.61096, 1.62068, 1.60959, 1.64431, 1.64996, 1.73505, 1.7865, 1.82412, 1.87584, 1.92723, 1.95492, 1.71516, 1.58268, 1.55447, 1.5931, 1.57963, 1.58009, 1.58266, 1.57892, 1.58547, 1.57354, 1.57028, 1.56934, 1.56564, 1.56418, 1.56098, 1.5748, 1.57102, 1.54941, 1.548, 1.54222, 1.55475, 1.53922, 1.53688, 1.53452, 1.53101, 1.53051, 1.52725, 1.52967, 1.52072, 1.51959, 1.51818, 1.51526, 1.51319, 1.51043, 1.50925, 1.5085, 1.50752, 1.50507, 1.50422, 1.50283, 1.50155, 1.50628, 1.49862, 1.49708, 1.49735, 1.5305, 1.5043, 1.49362, 1.51337, 1.50887, 1.51872, 1.5164, 1.5337, 1.51306, 1.48827, 1.47665, 1.48908, 1.48, 1.47081, 1.47166, 1.46611, 1.5171, 1.53139, 1.55076, 1.54101, 1.52167, 1.53717, 1.49528, 1.52333, 1.53342, 1.56356, 1.48098, 1.47538, 1.46152, 1.46427, 1.46807, 1.44957, 1.45491, 1.45811, 1.44438, 1.43041, 1.44791, 1.43662, 1.43322, 1.43244, 1.42972, 1.42573, 1.42362, 1.42172, 1.41814, 1.41614, 1.4151, 1.41187, 1.41095, 1.40948, 1.40856, 1.40673, 1.40526, 1.40273, 1.40112, 1.39943, 1.39834, 1.39579, 1.39484, 1.39191, 1.38972, 1.38805, 1.38589, 1.38539, 1.38454, 1.38416, 1.38448, 1.37908, 1.37766, 1.37822, 1.37733, 1.37693, 1.37421, 1.37259, 1.37179, 1.37116, 1.36978, 1.36751, 1.36692, 1.3636, 1.36461, 1.36004, 1.35875, 1.35724, 1.35734, 1.361, 1.3516, 1.35118, 1.35029, 1.34826, 1.34585, 1.34649, 1.34436, 1.34292, 1.3401, 1.34128, 1.34491, 1.34582, 1.31862, 1.36258, 1.41102, 1.45445, 1.46737, 1.53473, 1.55627, 1.61409, 1.62985, 1.57752, 1.57822, 1.41699, 1.30981, 1.29796, 1.32612, 1.34017, 1.32388, 1.31902, 1.31856, 1.31522, 1.31349, 1.31345, 1.31244, 1.31187, 1.31068, 1.30958, 1.30828, 1.30899, 1.30432, 1.30261
1.64503, 1.64255, 1.63929, 1.64375, 1.63573, 1.63685, 1.63915, 1.63928, 1.63787, 1.64362, 1.63707, 1.6316, 1.62776, 1.6346, 1.62221, 1.62004, 1.61511, 1.61976, 1.6117, 1.60906, 1.60924, 1.60252, 1.6001, 1.61774, 1.62165, 1.73086, 1.75382, 1.79628, 1.91367, 1.99348, 1.96541, 1.87663, 1.64788, 1.54725, 1.58934, 1.60054, 1.60287, 1.57851, 1.58593, 1.57916, 1.58338, 1.58821, 1.58221, 1.5694, 1.56865, 1.56596, 1.55998, 1.57491, 1.58886, 1.5571, 1.54715, 1.54442, 1.54198, 1.53862, 1.53649, 1.53473, 1.53204, 1.52991, 1.52702, 1.52449, 1.52162, 1.51987, 1.517, 1.51361, 1.51311, 1.5091, 1.50954, 1.50654, 1.50586, 1.50498, 1.50245, 1.50188, 1.49759, 1.49452, 1.49176, 1.50239, 1.4965, 1.50479, 1.50669, 1.5043, 1.49944, 1.50648, 1.52275, 1.54398, 1.52757, 1.51743, 1.50343, 1.4958, 1.48619, 1.46597, 1.47675, 1.49212, 1.49757, 1.50427, 1.53442, 1.52469, 1.50887, 1.49602, 1.50589, 1.53874, 1.53448, 1.50752, 1.49631, 1.48346, 1.45795, 1.44958, 1.45366, 1.45081, 1.44871, 1.44212, 1.44121, 1.4474, 1.43691, 1.43055, 1.42827, 1.43286, 1.42562, 1.42518, 1.42261, 1.41777, 1.42868, 1.41524, 1.42636, 1.41074, 1.41134, 1.40869, 1.40583, 1.40484, 1.40156, 1.40201, 1.39993, 1.39725, 1.39615, 1.39408, 1.39229, 1.39155, 1.39149, 1.39015, 1.38933, 1.38915, 1.38612, 1.38368, 1.38159, 1.39881, 1.38269, 1.37857, 1.37681, 1.37728, 1.37588, 1.37495, 1.37161, 1.3713, 1.37228, 1.37668, 1.36779, 1.36702, 1.36537, 1.36437, 1.36189, 1.36006, 1.3822, 1.36696, 1.35487, 1.3888, 1.35277, 1.35958, 1.3472, 1.35432, 1.3448, 1.34519, 1.36064, 1.35626, 1.37035, 1.35106, 1.36864, 1.34589, 1.38635, 1.42037, 1.46155, 1.53348, 1.5824, 1.62816, 1.62572, 1.62267, 1.52834, 1.45015, 1.34743, 1.30298, 1.33149, 1.34433, 1.34658, 1.32588, 1.31844, 1.31573, 1.31867, 1.31557, 1.31626, 1.31224, 1.31105, 1.31897, 1.30943, 1.30876, 1.30991, 1.30683
1.64668, 1.6455, 1.64394, 1.63995, 1.64033, 1.63957, 1.64037, 1.64133, 1.63921, 1.63784, 1.63324, 1.62971, 1.62801, 1.62535, 1.62115, 1.61936, 1.61659, 1.61341, 1.61144, 1.6067, 1.60758, 1.60741, 1.57065, 1.59594, 1.64435, 1.6716, 1.77791, 1.82788, 1.89523, 1.965, 1.95655, 1.7797, 1.59341, 1.55723, 1.58848, 1.59488, 1.58885, 1.60336, 1.59944, 1.59352, 1.58066, 1.59318, 1.58619, 1.57089, 1.57966, 1.56082, 1.5569, 1.55211, 1.55026, 1.54833, 1.5444, 1.54259, 1.53907, 1.53697, 1.53377, 1.53099, 1.52927, 1.52624, 1.52375, 1.52123, 1.52052, 1.51823, 1.51459, 1.51216, 1.51138, 1.51022, 1.50698, 1.50521, 1.50313, 1.50256, 1.50182, 1.49944, 1.50012, 1.49735, 1.49405, 1.49326, 1.49927, 1.49204, 1.49013, 1.4882, 1.48809, 1.48733, 1.4883, 1.48798, 1.48973, 1.50468, 1.50253, 1.50692, 1.49726, 1.48663, 1.47115, 1.4763, 1.50386, 1.5442, 1.55563, 1.54877, 1.53962, 1.49028, 1.48862, 1.49517, 1.54706, 1.51307, 1.49944, 1.46283, 1.45072, 1.45244, 1.45681, 1.45103, 1.44357, 1.44352, 1.44528, 1.4331, 1.43168, 1.4293, 1.42685, 1.42516, 1.42157, 1.41966, 1.41741, 1.41576, 1.41254, 1.41015, 1.40944, 1.41017, 1.41081, 1.41004, 1.4046, 1.40207, 1.3997, 1.39826, 1.39774, 1.39786, 1.39647, 1.40274, 1.39469, 1.39328, 1.3929, 1.39285, 1.39552, 1.38689, 1.38422, 1.38183, 1.37885, 1.37855, 1.37831, 1.37196, 1.37609, 1.37522, 1.37106, 1.36961, 1.36721, 1.36914, 1.36922, 1.36945, 1.37436, 1.36624, 1.36428, 1.3642, 1.35916, 1.36028, 1.35686, 1.35402, 1.35221, 1.35074, 1.3487, 1.3473, 1.34773, 1.34463, 1.34486, 1.3433, 1.35377, 1.34574, 1.34814, 1.35009, 1.36452, 1.32981, 1.35409, 1.4483, 1.4878, 1.5223, 1.59816, 1.63742, 1.61324, 1.64351, 1.52779, 1.40291, 1.34668, 1.29859, 1.3281, 1.33713, 1.32259, 1.32268, 1.31849, 1.31514, 1.31542, 1.31358, 1.31237, 1.31192, 1.31184, 1.30881, 1.30928, 1.30905, 1.309, 1.30889
1.65069, 1.64446, 1.64225, 1.64123, 1.64183, 1.63889, 1.63876, 1.63876, 1.63405, 1.63324, 1.62938, 1.62802, 1.62462, 1.62067, 1.61944, 1.61577, 1.61409, 1.61138, 1.61016, 1.6102, 1.60981, 1.6237, 1.60915, 1.60732, 1.65694, 1.69384, 1.74761, 1.83012, 1.90739, 1.96554, 1.81379, 1.76485, 1.57314, 1.56483, 1.57355, 1.56572, 1.58229, 1.58508, 1.58005, 1.5928, 1.59829, 1.58464, 1.57798, 1.57736, 1.57163, 1.56962, 1.55356, 1.5504, 1.54914, 1.54335, 1.5404, 1.54007, 1.53709, 1.5345, 1.53212, 1.5299, 1.52719, 1.52503, 1.52303, 1.52064, 1.51994, 1.51821, 1.5175, 1.51437, 1.51062, 1.50919, 1.50393, 1.5036, 1.50248, 1.50098, 1.49872, 1.49772, 1.49681, 1.49458, 1.49242, 1.49083, 1.48811, 1.48744, 1.48628, 1.4848, 1.48248, 1.48201, 1.48041, 1.47991, 1.4791, 1.48746, 1.481, 1.48021, 1.4831, 1.47677, 1.48224, 1.48181, 1.51735, 1.55867, 1.546, 1.53343, 1.51272, 1.55832, 1.48, 1.5044, 1.51289, 1.51356, 1.49816, 1.46839, 1.45839, 1.45217, 1.46118, 1.46012, 1.45037, 1.44117, 1.43808, 1.43627, 1.43334, 1.43193, 1.42976, 1.42906, 1.42379, 1.42318, 1.42023, 1.4176, 1.41422, 1.41225, 1.41279, 1.41149, 1.40928, 1.40634, 1.40432, 1.40311, 1.4012, 1.40124, 1.40127, 1.39953, 1.39931, 1.39714, 1.39525, 1.39484, 1.39238, 1.3905, 1.38806, 1.38944, 1.38404, 1.38286, 1.37999, 1.37905, 1.37754, 1.37632, 1.37483, 1.37228, 1.37206, 1.37034, 1.36938, 1.36768, 1.36865, 1.37449, 1.38796, 1.36394, 1.3622, 1.36076, 1.35878, 1.35647, 1.35632, 1.35461, 1.35379, 1.35229, 1.35102, 1.34883, 1.34671, 1.34555, 1.34391, 1.34446, 1.3421, 1.34968, 1.35383, 1.34905, 1.34752, 1.33791, 1.3727, 1.44337, 1.46845, 1.49778, 1.53063, 1.63785, 1.6573, 1.64157, 1.63777, 1.47484, 1.39015, 1.31121, 1.33334, 1.32731, 1.32629, 1.3213, 1.31768, 1.3165, 1.31243, 1.31307, 1.31252, 1.3132, 1.3117, 1.31191, 1.31174, 1.30867, 1.3115, 1.3087
1.64607, 1.64317, 1.64033, 1.63789, 1.63484, 1.637, 1.63478, 1.63292, 1.62941, 1.62628, 1.62374, 1.62368, 1.62208, 1.6203, 1.62483, 1.61453, 1.61374, 1.61077, 1.60729, 1.60815, 1.60732, 1.6124, 1.61481, 1.61343, 1.61701, 1.6893, 1.78762, 1.84633, 1.92146, 2.17858, 2.17273, 1.90174, 1.56174, 1.54827, 1.54818, 1.55113, 1.56547, 1.57189, 1.57875, 1.55119, 1.5631, 1.57359, 1.58157, 1.58136, 1.5788, 1.56384, 1.55987, 1.55389, 1.54427, 1.5402, 1.53418, 1.5334, 1.52843, 1.53355, 1.53073, 1.52932, 1.52764, 1.5257, 1.52388, 1.52324, 1.52125, 1.51571, 1.51429, 1.51255, 1.51165, 1.50727, 1.50394, 1.50151, 1.49981, 1.50183, 1.49816, 1.49614, 1.49501, 1.49459, 1.49263, 1.48989, 1.48842, 1.48594, 1.48321, 1.48966, 1.47956, 1.47784, 1.47699, 1.47612, 1.47646, 1.47569, 1.48519, 1.48886, 1.48095, 1.48206, 1.47738, 1.49788, 1.5222, 1.54878, 1.53587, 1.51868, 1.56385, 1.47773, 1.49149, 1.49377, 1.51691, 1.54483, 1.51215, 1.48825, 1.45075, 1.45958, 1.45121, 1.44904, 1.44399, 1.44452, 1.4477, 1.43487, 1.43209, 1.42828, 1.42997, 1.42309, 1.42242, 1.42258, 1.41987, 1.41622, 1.41276, 1.41091, 1.4098, 1.40857, 1.40936, 1.409, 1.40855, 1.40654, 1.40533, 1.4023, 1.40144, 1.39954, 1.39817, 1.3963, 1.39545, 1.39289, 1.39159, 1.38808, 1.38574, 1.38543, 1.38779, 1.38226, 1.38134, 1.38072, 1.37877, 1.37827, 1.37551, 1.37479, 1.37425, 1.37122, 1.36958, 1.3678, 1.36756, 1.36629, 1.36491, 1.36278, 1.36108, 1.35951, 1.3576, 1.35686, 1.35692, 1.3574, 1.35494, 1.35345, 1.34975, 1.3496, 1.34742, 1.34696, 1.34655, 1.34468, 1.34455, 1.34386, 1.34302, 1.35339, 1.34972, 1.31686, 1.35078, 1.36939, 1.45457, 1.49344, 1.54069, 1.61388, 1.62972, 1.62426, 1.53294, 1.43493, 1.36568, 1.29947, 1.32949, 1.34395, 1.32611, 1.32194, 1.32573, 1.31814, 1.31474, 1.31296, 1.31691, 1.3157, 1.31178, 1.31009, 1.31238, 1.31225, 1.319, 1.30977
1.64385, 1.64182, 1.63757, 1.63466, 1.6321, 1.6306, 1.63026, 1.62808, 1.63058, 1.62386, 1.62284, 1.62193, 1.6201, 1.61784, 1.61521, 1.62383, 1.6153, 1.62662, 1.6072, 1.62126, 1.60614, 1.60557, 1.6042, 1.5812, 1.62891, 1.65975, 1.71809, 1.77533, 1.91758, 1.97274, 1.96185, 1.89284, 1.57186, 1.54568, 1.53808, 1.60919, 1.65907, 1.7026, 1.69195, 1.66934, 1.61361, 1.5921, 1.5974, 1.58872, 1.59407, 1.57138, 1.56987, 1.55789, 1.55758, 1.54162, 1.53803, 1.53733, 1.53581, 1.53409, 1.5311, 1.52781, 1.52573, 1.52425, 1.52275, 1.52094, 1.52098, 1.5161, 1.5164, 1.51414, 1.52113, 1.50828, 1.50616, 1.50367, 1.50057, 1.49966, 1.49733, 1.49655, 1.49396, 1.49335, 1.49017, 1.48968, 1.49223, 1.48461, 1.48203, 1.48027, 1.47774, 1.47617, 1.47458, 1.47219, 1.47144, 1.47415, 1.47535, 1.47629, 1.48924, 1.4738, 1.48079, 1.48998, 1.51544, 1.52144, 1.53126, 1.51074, 1.50302, 1.5106, 1.47664, 1.50896, 1.344, 1.49478, 1.50424, 1.49532, 1.45301, 1.45041, 1.46478, 1.46078, 1.44208, 1.43538, 1.43263, 1.42761, 1.42699, 1.4261, 1.4226, 1.41998, 1.41463, 1.41696, 1.41449, 1.41295, 1.41132, 1.40911, 1.40868, 1.40811, 1.40847, 1.40855, 1.40701, 1.40357, 1.40471, 1.40344, 1.40042, 1.39872, 1.39489, 1.39228, 1.38818, 1.39081, 1.38777, 1.38742, 1.38524, 1.38398, 1.38184, 1.38064, 1.37958, 1.3844, 1.37545, 1.37388, 1.37263, 1.375, 1.37171, 1.37054, 1.36874, 1.365, 1.36365, 1.36172, 1.36048, 1.35718, 1.35633, 1.35552, 1.3524, 1.35076, 1.34992, 1.35114, 1.35396, 1.34963, 1.34722, 1.34737, 1.34454, 1.34351, 1.34255, 1.34127, 1.33971, 1.3386, 1.34767, 1.35097, 1.34286, 1.33813, 1.32985, 1.39968, 1.4209, 1.50317, 1.54444, 1.57455, 1.67693, 1.67772, 1.62738, 1.46472, 1.35815, 1.29815, 1.33747, 1.33332, 1.32541, 1.32339, 1.31697, 1.323, 1.31607, 1.31272, 1.30947, 1.30734, 1.31706, 1.31048, 1.3038, 1.30364, 1.30135, 1.30085
1.64212, 1.63939, 1.63756, 1.6367, 1.63429, 1.63194, 1.63076, 1.62861, 1.62729, 1.62464, 1.62332, 1.6197, 1.61696, 1.61982, 1.61183, 1.60939, 1.61973, 1.60643, 1.60566, 1.6168, 1.61362, 1.6042, 1.60919, 1.57882, 1.58908, 1.6616, 1.72107, 1.76312, 1.842, 2.00711, 2.01079, 1.8756, 1.63924, 1.56233, 1.54472, 1.58347, 1.65061, 1.7229, 1.76906, 1.78311, 1.67666, 1.65406, 1.59751, 1.5863, 1.59128, 1.57539, 1.56536, 1.56177, 1.55828, 1.54504, 1.53856, 1.54681, 1.53345, 1.53166, 1.52959, 1.52638, 1.52466, 1.52293, 1.52076, 1.51828, 1.51808, 1.51665, 1.51414, 1.51249, 1.50985, 1.50872, 1.50618, 1.50362, 1.50176, 1.49954, 1.49731, 1.49502, 1.49234, 1.49206, 1.48946, 1.48811, 1.48708, 1.48578, 1.48491, 1.48168, 1.47869, 1.477, 1.47587, 1.47313, 1.47187, 1.48496, 1.48148, 1.47726, 1.47957, 1.47929, 1.47839, 1.50252, 1.50051, 1.54521, 1.52358, 1.52019, 1.53876, 1.47371, 1.47293, 1.47604, 1.50621, 1.49747, 1.49868, 1.48993, 1.46518, 1.4424, 1.45708, 1.45505, 1.44835, 1.43284, 1.43762, 1.43422, 1.42311, 1.42232, 1.41965, 1.41605, 1.41476, 1.41322, 1.41231, 1.41069, 1.4104, 1.4082, 1.40863, 1.40947, 1.40879, 1.40855, 1.40732, 1.40697, 1.40816, 1.40217, 1.39765, 1.39483, 1.39238, 1.39096, 1.39071, 1.38819, 1.38614, 1.38496, 1.38248, 1.38121, 1.38048, 1.37921, 1.37528, 1.37486, 1.37482, 1.37087, 1.36933, 1.36984, 1.36888, 1.36631, 1.36583, 1.36448, 1.36359, 1.36294, 1.36039, 1.35945, 1.35426, 1.35434, 1.35352, 1.35394, 1.35534, 1.35429, 1.35077, 1.35134, 1.34843, 1.34718, 1.34859, 1.34598, 1.34473, 1.34541, 1.34457, 1.34205, 1.35042, 1.34549, 1.36172, 1.32214, 1.36597, 1.44732, 1.43002, 1.50031, 1.56233, 1.63462, 1.65399, 1.58752, 1.55221, 1.46744, 1.35326, 1.32034, 1.336, 1.32723, 1.33653, 1.32966, 1.32521, 1.31951, 1.3116, 1.31028, 1.31742, 1.30796, 1.30661, 1.30856, 1.30658, 1.30397, 1.30292, 1.30135
1.63764, 1.64725, 1.63505, 1.63058, 1.62898, 1.62697, 1.62741, 1.62563, 1.62456, 1.64069, 1.6272, 1.61211, 1.61078, 1.6109, 1.6074, 1.60367, 1.60585, 1.60112, 1.59964, 1.59896, 1.5975, 1.59643, 1.59434, 1.58, 1.6465, 1.66563, 1.74329, 1.82898, 1.90984, 2.02113, 2.02048, 1.78573, 1.64285, 1.56243, 1.56815, 1.56973, 1.55328, 1.57191, 1.54268, 1.58956, 1.5755, 1.58275, 1.58504, 1.5878, 1.58173, 1.57281, 1.55788, 1.55735, 1.54713, 1.54659, 1.53453, 1.53031, 1.53006, 1.52727, 1.52382, 1.52332, 1.52097, 1.51925, 1.52826, 1.51599, 1.51316, 1.51265, 1.50954, 1.50658, 1.50872, 1.50573, 1.50193, 1.50007, 1.49699, 1.49579, 1.49512, 1.49371, 1.48873, 1.48594, 1.48553, 1.48216, 1.48166, 1.47947, 1.47849, 1.47678, 1.48205, 1.47225, 1.47139, 1.46624, 1.47461, 1.46957, 1.47895, 1.4749, 1.48858, 1.47292, 1.46871, 1.49656, 1.51874, 1.55481, 1.55048, 1.54702, 1.49352, 1.49217, 1.49812, 1.50152, 1.48229, 1.49611, 1.47531, 1.45956, 1.46308, 1.44013, 1.44014, 1.4401, 1.4385, 1.4408, 1.43727, 1.42216, 1.42084, 1.41766, 1.41865, 1.41577, 1.41322, 1.41235, 1.41197, 1.41182, 1.40928, 1.41311, 1.40866, 1.40575, 1.40505, 1.40443, 1.40086, 1.39878, 1.39661, 1.39808, 1.39468, 1.39134, 1.38926, 1.38907, 1.38461, 1.3855, 1.38288, 1.38269, 1.3816, 1.37873, 1.37938, 1.37749, 1.37542, 1.37442, 1.37485, 1.37434, 1.37136, 1.36944, 1.36707, 1.36565, 1.36534, 1.364, 1.36325, 1.36419, 1.37469, 1.35846, 1.35616, 1.35599, 1.35699, 1.35632, 1.35355, 1.35309, 1.35097, 1.35039, 1.34655, 1.34348, 1.36481, 1.3434, 1.33979, 1.33932, 1.36563, 1.34448, 1.33754, 1.36143, 1.34167, 1.33135, 1.31764, 1.37267, 1.44543, 1.49328, 1.54155, 1.61738, 1.6645, 1.64876, 1.58083, 1.44134, 1.38772, 1.31046, 1.31608, 1.32668, 1.32307, 1.32766, 1.31655, 1.32066, 1.32344, 1.31612, 1.31745, 1.31787, 1.30643, 1.30819, 1.30588, 1.30309, 1.30493, 1.30216
1.63156, 1.63023, 1.6282, 1.6271, 1.62487, 1.6231, 1.62072, 1.61829, 1.61704, 1.61535, 1.61274, 1.61091, 1.61007, 1.60933, 1.61289, 1.60261, 1.60113, 1.59942, 1.59716, 1.59564, 1.59594, 1.59419, 1.59282, 1.56519, 1.58674, 1.70023, 1.74593, 1.76212, 1.90021, 2.08005, 2.26907, 1.77434, 1.59267, 1.54491, 1.5384, 1.56613, 1.56475, 1.56537, 1.56865, 1.57841, 1.57904, 1.57767, 1.56642, 1.56171, 1.57484, 1.5536, 1.55513, 1.53936, 1.53822, 1.53005, 1.52681, 1.52548, 1.52365, 1.51942, 1.51923, 1.51927, 1.51732, 1.51379, 1.51259, 1.51114, 1.50853, 1.50578, 1.50562, 1.50544, 1.50552, 1.50207, 1.49907, 1.49752, 1.49568, 1.49395, 1.49045, 1.48861, 1.48508, 1.48353, 1.47847, 1.47811, 1.47736, 1.47396, 1.47419, 1.47298, 1.46947, 1.46895, 1.4674, 1.4643, 1.46276, 1.46211, 1.47022, 1.4673, 1.46853, 1.46929, 1.48348, 1.49183, 1.51951, 1.51955, 1.52584, 1.52287, 1.49549, 1.50887, 1.48952, 1.4935, 1.48132, 1.49599, 1.49625, 1.49214, 1.46214, 1.45425, 1.44081, 1.44592, 1.45343, 1.43156, 1.42952, 1.42278, 1.42109, 1.41756, 1.41599, 1.41581, 1.41061, 1.41055, 1.41071, 1.40956, 1.41155, 1.40534, 1.4025, 1.40182, 1.40141, 1.39965, 1.40004, 1.39406, 1.39279, 1.38961, 1.38884, 1.38839, 1.38535, 1.38412, 1.3815, 1.38004, 1.37992, 1.37791, 1.37612, 1.37482, 1.37512, 1.37789, 1.37698, 1.37646, 1.37473, 1.3763, 1.3772, 1.36825, 1.36584, 1.36433, 1.36423, 1.36102, 1.35859, 1.35549, 1.35343, 1.35173, 1.35274, 1.35321, 1.35206, 1.35102, 1.35249, 1.34962, 1.35068, 1.34962, 1.34453, 1.34432, 1.34314, 1.3407, 1.33936, 1.33936, 1.33563, 1.3346, 1.33573, 1.33731, 1.33967, 1.32613, 1.33514, 1.37558, 1.41804, 1.45489, 1.57177, 1.58504, 1.66594, 1.6703, 1.62428, 1.52932, 1.35142, 1.27412, 1.30896, 1.33401, 1.31323, 1.32073, 1.30953, 1.30619, 1.30373, 1.31251, 1.30286, 1.30404, 1.30144, 1.30045, 1.29917, 1.29517, 1.29785, 1.29703
1.62966, 1.62716, 1.62541, 1.63694, 1.62418, 1.62234, 1.62061, 1.61901, 1.61832, 1.61588, 1.61349, 1.6128, 1.60919, 1.60783, 1.61242, 1.60325, 1.60067, 1.59769, 1.59623, 1.59599, 1.59444, 1.60211, 1.59083, 1.58418, 1.58215, 1.66326, 1.66253, 1.78661, 1.83794, 1.90798, 2.11407, 1.7026, 1.71344, 1.53405, 1.5493, 1.55817, 1.57162, 1.56908, 1.56868, 1.56737, 1.56352, 1.5596, 1.563, 1.55158, 1.55043, 1.55811, 1.54079, 1.53708, 1.5351, 1.53297, 1.52798, 1.52613, 1.52507, 1.5232, 1.52241, 1.51897, 1.51496, 1.51299, 1.51148, 1.50907, 1.50721, 1.50647, 1.50337, 1.50221, 1.50071, 1.49917, 1.49749, 1.49664, 1.49424, 1.49273, 1.49035, 1.48569, 1.48388, 1.4797, 1.47555, 1.48177, 1.47412, 1.47097, 1.47001, 1.46812, 1.468, 1.46689, 1.46722, 1.46485, 1.46372, 1.46301, 1.46395, 1.47662, 1.46778, 1.47425, 1.46169, 1.48528, 1.51244, 1.53084, 1.51493, 1.50323, 1.50208, 1.46782, 1.46814, 1.48999, 1.47857, 1.48594, 1.48289, 1.48509, 1.45885, 1.43662, 1.44717, 1.45338, 1.4378, 1.43029, 1.42727, 1.42465, 1.422, 1.42123, 1.41796, 1.41453, 1.41309, 1.41125, 1.40873, 1.40752, 1.40449, 1.40291, 1.40167, 1.40033, 1.39857, 1.39531, 1.39447, 1.39216, 1.38971, 1.38793, 1.38716, 1.38306, 1.38149, 1.37928, 1.37828, 1.37691, 1.37646, 1.37408, 1.37203, 1.37255, 1.37424, 1.37858, 1.37439, 1.37417, 1.37296, 1.37272, 1.37118, 1.36938, 1.36781, 1.36417, 1.36008, 1.35653, 1.35483, 1.35209, 1.35122, 1.34899, 1.34728, 1.34734, 1.34733, 1.3473, 1.34631, 1.34634, 1.34427, 1.34418, 1.34346, 1.34282, 1.34367, 1.33966, 1.33729, 1.33557, 1.33588, 1.33348, 1.33269, 1.33317, 1.33464, 1.34235, 1.31994, 1.364, 1.42664, 1.49417, 1.56151, 1.57336, 1.6765, 1.69963, 1.63499, 1.47098, 1.36469, 1.29414, 1.32004, 1.32686, 1.31645, 1.31513, 1.30743, 1.30506, 1.3045, 1.30252, 1.30255, 1.30276, 1.30148, 1.3001, 1.2981, 1.29893, 1.29501, 1.29698
1.62948, 1.628, 1.62632, 1.6238, 1.62397, 1.62289, 1.6213, 1.61756, 1.61993, 1.6178, 1.6165, 1.61471, 1.61283, 1.60933, 1.60636, 1.60891, 1.60921, 1.60599, 1.59851, 1.59722, 1.59536, 1.59424, 1.59629, 1.58793, 1.58247, 1.62878, 1.6794, 1.7824, 1.79426, 1.79732, 1.76345, 1.79759, 1.62803, 1.54196, 1.53427, 1.56488, 1.56834, 1.57208, 1.55852, 1.55735, 1.56495, 1.55469, 1.55107, 1.57256, 1.55501, 1.54717, 1.54217, 1.54032, 1.53702, 1.53471, 1.53331, 1.53557, 1.52796, 1.5249, 1.52353, 1.52288, 1.51622, 1.51371, 1.51074, 1.51073, 1.50827, 1.50517, 1.50398, 1.50191, 1.50093, 1.49823, 1.49591, 1.49463, 1.49281, 1.49138, 1.48997, 1.48876, 1.48524, 1.48138, 1.4785, 1.47688, 1.47459, 1.47325, 1.47986, 1.47088, 1.46938, 1.46728, 1.46757, 1.46386, 1.46256, 1.46313, 1.46394, 1.46433, 1.46813, 1.46199, 1.45801, 1.48628, 1.48906, 1.52442, 1.51394, 1.49946, 1.51804, 1.46925, 1.47439, 1.48917, 1.49247, 1.48135, 1.49969, 1.50648, 1.46849, 1.44446, 1.44918, 1.45408, 1.44901, 1.43751, 1.42933, 1.4234, 1.42209, 1.41885, 1.41585, 1.41434, 1.41183, 1.41011, 1.40847, 1.40751, 1.40912, 1.40367, 1.40148, 1.40466, 1.39958, 1.3975, 1.39573, 1.39164, 1.39015, 1.38886, 1.38672, 1.38631, 1.38405, 1.38235, 1.37892, 1.3784, 1.37683, 1.37637, 1.37555, 1.37257, 1.37389, 1.37456, 1.37422, 1.37305, 1.3727, 1.37066, 1.37155, 1.36505, 1.36276, 1.3611, 1.35915, 1.35497, 1.35103, 1.35136, 1.34964, 1.34974, 1.34817, 1.34746, 1.34784, 1.34659, 1.34449, 1.34373, 1.34171, 1.34109, 1.34365, 1.33904, 1.33882, 1.3349, 1.33404, 1.3329, 1.33248, 1.33029, 1.33062, 1.33795, 1.33264, 1.31909, 1.31702, 1.38854, 1.40209, 1.45714, 1.52581, 1.56067, 1.59961, 1.67491, 1.66541, 1.51089, 1.42341, 1.29837, 1.30866, 1.32033, 1.32857, 1.31799, 1.30585, 1.30533, 1.30558, 1.30541, 1.30792, 1.30421, 1.30193, 1.30917, 1.29827, 1.30122, 1.29844, 1.29606
1.6276, 1.62419, 1.61968, 1.62105, 1.62012, 1.62064, 1.61954, 1.61693, 1.61711, 1.61319, 1.61276, 1.60974, 1.60978, 1.6071, 1.60372, 1.60555, 1.60559, 1.59668, 1.59446, 1.59372, 1.59247, 1.59245, 1.59334, 1.59466, 1.59075, 1.64704, 1.72748, 1.75861, 1.79419, 1.80337, 1.77432, 1.67183, 1.64874, 1.54401, 1.53472, 1.55612, 1.57064, 1.54832, 1.55665, 1.56449, 1.55446, 1.5534, 1.55019, 1.54693, 1.54554, 1.54522, 1.55427, 1.55073, 1.53744, 1.53482, 1.53026, 1.52682, 1.52483, 1.5227, 1.5205, 1.51881, 1.51651, 1.51404, 1.5097, 1.50531, 1.5024, 1.50212, 1.50244, 1.50152, 1.49737, 1.49747, 1.49535, 1.49264, 1.4903, 1.49113, 1.48795, 1.48714, 1.48518, 1.48295, 1.47847, 1.47662, 1.4752, 1.47293, 1.47266, 1.47092, 1.46647, 1.46511, 1.4643, 1.46309, 1.46147, 1.45982, 1.46056, 1.46548, 1.46673, 1.47864, 1.4636, 1.5204, 1.49317, 1.51692, 1.52879, 1.51081, 1.48903, 1.49282, 1.46194, 1.46781, 1.47439, 1.47295, 1.48557, 1.47204, 1.49951, 1.4512, 1.44685, 1.46167, 1.43751, 1.43667, 1.42455, 1.4192, 1.41382, 1.41441, 1.41232, 1.40946, 1.40979, 1.40678, 1.4058, 1.40461, 1.40361, 1.40197, 1.40207, 1.39955, 1.39749, 1.39519, 1.39377, 1.3925, 1.3913, 1.38903, 1.38576, 1.38512, 1.38332, 1.38135, 1.38204, 1.37986, 1.37609, 1.37518, 1.37455, 1.37321, 1.37162, 1.37062, 1.37161, 1.37022, 1.36557, 1.36409, 1.36372, 1.36197, 1.3586, 1.35536, 1.35338, 1.35031, 1.36015, 1.34762, 1.34832, 1.34452, 1.34423, 1.34523, 1.34653, 1.34352, 1.34351, 1.34244, 1.33996, 1.33928, 1.3474, 1.33798, 1.33645, 1.33531, 1.33328, 1.34306, 1.3305, 1.32913, 1.32725, 1.32873, 1.32995, 1.3362, 1.29612, 1.36395, 1.41608, 1.49552, 1.53781, 1.56761, 1.67188, 1.85338, 1.66049, 1.48264, 1.35455, 1.2782, 1.30832, 1.30937, 1.30683, 1.30602, 1.31223, 1.32198, 1.30618, 1.31328, 1.32064, 1.30608, 1.30564, 1.30127, 1.29623, 1.29888, 1.2972, 1.29721
1.62856, 1.62574, 1.62297, 1.62271, 1.62299, 1.6206, 1.62744, 1.61847, 1.61698, 1.61653, 1.6147, 1.61068, 1.61142, 1.60663, 1.60717, 1.60096, 1.60069, 1.61021, 1.59399, 1.59372, 1.59362, 1.59994, 1.59334, 1.59902, 1.56064, 1.66049, 1.65784, 1.78555, 1.85465, 1.7168, 1.74786, 1.76921, 1.82507, 1.57544, 1.56708, 1.57484, 1.56897, 1.56578, 1.57312, 1.55983, 1.55788, 1.55507, 1.55283, 1.55842, 1.55033, 1.56173, 1.54059, 1.53758, 1.53418, 1.53338, 1.52998, 1.52998, 1.52913, 1.52692, 1.52509, 1.52034, 1.51747, 1.51638, 1.51363, 1.51053, 1.50958, 1.50833, 1.50728, 1.50349, 1.50513, 1.49911, 1.49669, 1.49396, 1.49253, 1.49139, 1.48896, 1.48649, 1.49228, 1.48549, 1.48279, 1.47792, 1.47583, 1.47535, 1.47442, 1.47328, 1.47015, 1.47061, 1.468, 1.4661, 1.46612, 1.46543, 1.47151, 1.4933, 1.47406, 1.46886, 1.4666, 1.49065, 1.48735, 1.5099, 1.52914, 1.49583, 1.50916, 1.51316, 1.46506, 1.46441, 1.47331, 1.50955, 1.48294, 1.47674, 1.45635, 1.44381, 1.43654, 1.43757, 1.4479, 1.43093, 1.42394, 1.41794, 1.41587, 1.42102, 1.41315, 1.42096, 1.41046, 1.41247, 1.40629, 1.40456, 1.40355, 1.40206, 1.40137, 1.39909, 1.39755, 1.39597, 1.39332, 1.39952, 1.39099, 1.3989, 1.38773, 1.38649, 1.38882, 1.38678, 1.38079, 1.37814, 1.37861, 1.3784, 1.37602, 1.37322, 1.37189, 1.37023, 1.36826, 1.36699, 1.366, 1.36352, 1.36214, 1.35844, 1.35941, 1.35425, 1.35302, 1.3489, 1.34968, 1.35088, 1.34652, 1.34544, 1.34722, 1.34725, 1.34673, 1.34641, 1.34471, 1.34369, 1.34059, 1.33797, 1.3372, 1.33661, 1.33325, 1.33048, 1.33161, 1.32908, 1.32963, 1.3327, 1.33736, 1.33001, 1.33353, 1.32972, 1.31529, 1.3431, 1.42413, 1.48144, 1.51173, 1.58109, 1.67595, 1.69287, 1.582, 1.46335, 1.35862, 1.31612, 1.30651, 1.31172, 1.32007, 1.30768, 1.30527, 1.31276, 1.30449, 1.30469, 1.30496, 1.30239, 1.30284, 1.30624, 1.30145, 1.29814, 1.29753, 1.29475
1.62776, 1.62444, 1.62133, 1.62162, 1.61878, 1.61699, 1.61518, 1.61375, 1.61211, 1.61024, 1.61, 1.60695, 1.60538, 1.60226, 1.60374, 1.59624, 1.5981, 1.59638, 1.59926, 1.58858, 1.58709, 1.58378, 1.58537, 1.58572, 1.56903, 1.61673, 1.67762, 1.77042, 1.89467, 2.06581, 1.72017, 1.72425, 1.65648, 1.54995, 1.55235, 1.57087, 1.56562, 1.56413, 1.5587, 1.55592, 1.57063, 1.55421, 1.54774, 1.54449, 1.54149, 1.5379, 1.5367, 1.53341, 1.52939, 1.52778, 1.52358, 1.53336, 1.52083, 1.52056, 1.51934, 1.51642, 1.51639, 1.51528, 1.51451, 1.51261, 1.51128, 1.50691, 1.50448, 1.50082, 1.50062, 1.4975, 1.49866, 1.49726, 1.49229, 1.4882, 1.48746, 1.48485, 1.48307, 1.47948, 1.47812, 1.47559, 1.47493, 1.47234, 1.47076, 1.47031, 1.46878, 1.46898, 1.46524, 1.46434, 1.46311, 1.46857, 1.46497, 1.47569, 1.47937, 1.47975, 1.47791, 1.47294, 1.48814, 1.4889, 1.50669, 1.48588, 1.48795, 1.48283, 1.46028, 1.46861, 1.48742, 1.47393, 1.46702, 1.46503, 1.46457, 1.44164, 1.44159, 1.42807, 1.42672, 1.42999, 1.426, 1.42655, 1.40998, 1.40936, 1.4093, 1.40849, 1.40859, 1.40701, 1.40552, 1.40584, 1.40426, 1.40088, 1.40035, 1.39608, 1.39488, 1.39315, 1.39156, 1.38826, 1.38679, 1.38583, 1.383, 1.38338, 1.38327, 1.38135, 1.3798, 1.3801, 1.37623, 1.37368, 1.37215, 1.36977, 1.36509, 1.365, 1.3624, 1.36062, 1.36006, 1.36127, 1.35416, 1.35054, 1.35077, 1.34907, 1.34689, 1.34468, 1.34344, 1.34487, 1.34543, 1.34332, 1.34427, 1.34322, 1.3432, 1.34335, 1.34271, 1.3418, 1.35789, 1.34411, 1.33738, 1.33904, 1.33444, 1.33259, 1.33347, 1.33047, 1.33691, 1.32747, 1.34284, 1.34035, 1.35257, 1.34312, 1.31971, 1.35898, 1.42637, 1.44684, 1.51087, 1.56829, 1.64135, 1.70983, 1.51567, 1.50617, 1.30849, 1.26597, 1.30076, 1.32077, 1.30801, 1.30491, 1.3027, 1.31585, 1.30168, 1.31959, 1.30193, 1.30048, 1.29868, 1.29924, 1.29374, 1.29262, 1.2951, 1.2919
1.62258, 1.62009, 1.61672, 1.61581, 1.61262, 1.61095, 1.60994, 1.60817, 1.61353, 1.60388, 1.6006, 1.59883, 1.59813, 1.59556, 1.59385, 1.59121, 1.58863, 1.58599, 1.58309, 1.58128, 1.57924, 1.57795, 1.57818, 1.57425, 1.5523, 1.60438, 1.68611, 1.74792, 1.76571, 1.82881, 2.16842, 1.85299, 1.60442, 1.61343, 1.55096, 1.56247, 1.57071, 1.55296, 1.55058, 1.54843, 1.54761, 1.54136, 1.54003, 1.53877, 1.54728, 1.52934, 1.5265, 1.525, 1.51906, 1.51739, 1.51368, 1.51329, 1.51418, 1.51269, 1.5119, 1.51201, 1.51154, 1.50927, 1.50777, 1.50604, 1.50992, 1.50698, 1.49852, 1.49331, 1.4913, 1.49018, 1.48913, 1.4877, 1.48443, 1.48054, 1.47992, 1.47759, 1.47565, 1.47353, 1.4719, 1.47014, 1.46831, 1.4667, 1.46284, 1.46437, 1.46234, 1.4613, 1.46003, 1.45859, 1.45887, 1.45765, 1.45703, 1.45744, 1.45916, 1.47442, 1.47152, 1.49288, 1.50273, 1.50615, 1.48019, 1.49878, 1.48062, 1.45836, 1.45272, 1.46539, 1.4688, 1.46768, 1.51396, 1.46584, 1.45173, 1.43976, 1.43844, 1.43035, 1.42055, 1.41691, 1.40977, 1.41311, 1.41211, 1.40366, 1.40172, 1.39969, 1.39862, 1.39914, 1.39945, 1.40097, 1.41678, 1.3986, 1.39516, 1.3938, 1.38889, 1.38583, 1.38531, 1.38266, 1.38142, 1.37993, 1.37847, 1.37817, 1.37732, 1.37492, 1.37382, 1.37119, 1.36955, 1.36722, 1.36685, 1.36464, 1.36308, 1.36077, 1.35863, 1.35427, 1.35419, 1.3515, 1.34812, 1.34511, 1.34562, 1.34332, 1.34305, 1.34326, 1.34054, 1.33924, 1.33932, 1.33973, 1.3397, 1.33875, 1.34046, 1.33902, 1.33788, 1.33633, 1.33575, 1.33396, 1.33247, 1.33044, 1.33042, 1.32542, 1.32363, 1.32383, 1.32104, 1.32257, 1.33102, 1.32588, 1.32243, 1.327, 1.33557, 1.31313, 1.34687, 1.43329, 1.48604, 1.53914, 1.66489, 1.69049, 1.68707, 1.46811, 1.37472, 1.28261, 1.28862, 1.30013, 1.29796, 1.30904, 1.2956, 1.29498, 1.29759, 1.29567, 1.29448, 1.29354, 1.29619, 1.28958, 1.29069, 1.28501, 1.28258, 1.28536
1.62013, 1.61933, 1.61846, 1.61595, 1.61357, 1.6112, 1.61077, 1.60685, 1.60689, 1.60287, 1.59939, 1.59561, 1.59403, 1.59343, 1.5916, 1.58994, 1.58536, 1.58247, 1.57756, 1.57581, 1.58119, 1.58531, 1.59297, 1.57936, 1.5477, 1.60333, 1.61018, 1.74832, 1.80653, 1.94453, 1.97362, 1.88503, 1.69229, 1.56352, 1.53793, 1.55867, 1.56541, 1.54913, 1.54689, 1.5438, 1.53999, 1.5402, 1.53341, 1.53042, 1.52795, 1.52388, 1.52173, 1.51655, 1.51262, 1.51175, 1.50945, 1.50844, 1.50613, 1.50576, 1.50475, 1.50604, 1.50379, 1.50315, 1.50129, 1.49907, 1.49769, 1.49766, 1.49409, 1.49255, 1.48957, 1.48642, 1.48455, 1.48261, 1.48927, 1.48085, 1.47819, 1.47699, 1.47583, 1.47032, 1.46564, 1.46446, 1.4747, 1.46168, 1.45937, 1.46125, 1.46853, 1.45525, 1.45819, 1.45117, 1.4498, 1.45889, 1.45189, 1.45806, 1.45889, 1.45624, 1.45785, 1.46983, 1.48552, 1.47305, 1.4857, 1.48006, 1.46605, 1.48744, 1.46855, 1.47115, 1.4555, 1.49746, 1.47427, 1.48496, 1.46859, 1.44057, 1.42104, 1.43304, 1.4234, 1.4178, 1.41027, 1.40548, 1.41251, 1.4029, 1.40062, 1.39813, 1.39511, 1.3955, 1.3939, 1.39461, 1.39282, 1.39677, 1.39026, 1.38905, 1.38368, 1.37961, 1.37749, 1.37799, 1.37338, 1.37142, 1.37005, 1.3688, 1.36781, 1.36751, 1.36441, 1.36413, 1.3625, 1.36407, 1.36135, 1.36349, 1.36036, 1.35987, 1.35232, 1.35173, 1.35085, 1.35002, 1.34697, 1.34398, 1.34349, 1.34268, 1.34175, 1.33928, 1.33794, 1.33119, 1.33305, 1.33256, 1.33684, 1.33506, 1.33618, 1.33537, 1.33462, 1.33129, 1.33078, 1.33073, 1.33727, 1.32775, 1.32339, 1.32112, 1.32101, 1.32039, 1.3189, 1.3169, 1.31671, 1.31685, 1.32637, 1.31641, 1.32175, 1.29219, 1.35376, 1.44723, 1.48131, 1.56795, 1.61806, 1.74063, 1.63924, 1.49257, 1.36526, 1.27078, 1.28271, 1.30196, 1.2979, 1.29328, 1.29173, 1.29058, 1.29109, 1.29079, 1.29126, 1.29089, 1.28638, 1.29047, 1.28317, 1.28213, 1.27963, 1.28003
1.62034, 1.61724, 1.6156, 1.61449, 1.61295, 1.61059, 1.60641, 1.60439, 1.60955, 1.6017, 1.59664, 1.59708, 1.59549, 1.59337, 1.59071, 1.58847, 1.58959, 1.5869, 1.58315, 1.58485, 1.57846, 1.5767, 1.58258, 1.58324, 1.55254, 1.58431, 1.65477, 1.73092, 1.87851, 1.92518, 1.98866, 1.94616, 1.72747, 1.54524, 1.55731, 1.56263, 1.57558, 1.5541, 1.5488, 1.54064, 1.54, 1.5389, 1.53492, 1.53054, 1.52659, 1.52153, 1.52114, 1.52313, 1.52023, 1.51411, 1.51251, 1.51025, 1.50901, 1.50652, 1.50524, 1.50409, 1.50361, 1.50261, 1.49996, 1.49917, 1.49743, 1.50227, 1.49486, 1.49052, 1.48875, 1.4866, 1.4846, 1.48156, 1.47926, 1.47604, 1.4747, 1.4733, 1.47044, 1.46864, 1.46748, 1.46588, 1.46522, 1.46821, 1.46052, 1.45877, 1.4556, 1.45363, 1.45245, 1.45076, 1.45023, 1.44896, 1.4504, 1.45061, 1.46867, 1.45613, 1.45927, 1.46203, 1.44576, 1.48245, 1.49065, 1.4829, 1.47535, 1.45901, 1.45301, 1.46905, 1.46789, 1.46508, 1.46898, 1.45328, 1.45507, 1.42845, 1.44067, 1.43924, 1.42222, 1.41207, 1.41657, 1.40357, 1.39939, 1.39723, 1.39644, 1.39705, 1.39506, 1.39436, 1.39548, 1.39411, 1.3913, 1.38988, 1.4272, 1.38631, 1.38525, 1.38402, 1.38203, 1.37878, 1.37831, 1.38161, 1.37476, 1.37156, 1.36876, 1.36823, 1.36583, 1.36573, 1.36476, 1.36418, 1.36999, 1.36186, 1.36514, 1.36085, 1.35774, 1.35692, 1.35188, 1.34958, 1.3486, 1.34621, 1.34239, 1.33948, 1.33898, 1.33832, 1.33462, 1.33564, 1.33607, 1.33395, 1.335, 1.33419, 1.34885, 1.33937, 1.33542, 1.33293, 1.33213, 1.33378, 1.32914, 1.32686, 1.32926, 1.32315, 1.34919, 1.32027, 1.31989, 1.31797, 1.31588, 1.3187, 1.31735, 1.32579, 1.31, 1.29494, 1.3777, 1.44968, 1.47914, 1.55484, 1.67687, 1.68268, 1.58846, 1.49216, 1.43398, 1.26592, 1.28225, 1.30347, 1.29905, 1.30492, 1.29461, 1.29501, 1.2954, 1.29272, 1.28944, 1.29071, 1.28919, 1.28469, 1.28509, 1.2803, 1.28183, 1.28125
1.62269, 1.60939, 1.61077, 1.61009, 1.60788, 1.60743, 1.60554, 1.60433, 1.60113, 1.60101, 1.59634, 1.59997, 1.6093, 1.59028, 1.59059, 1.58694, 1.58499, 1.58301, 1.59077, 1.58171, 1.5971, 1.58099, 1.5853, 1.58134, 1.56435, 1.5641, 1.67218, 1.64765, 1.73699, 1.97194, 2.02397, 1.98705, 1.71682, 1.54826, 1.5484, 1.55204, 1.55206, 1.54858, 1.55807, 1.5387, 1.53404, 1.5352, 1.52965, 1.52856, 1.52646, 1.52768, 1.5295, 1.51963, 1.51808, 1.51492, 1.51444, 1.51345, 1.50945, 1.50615, 1.50327, 1.50335, 1.49975, 1.49647, 1.49544, 1.49471, 1.49271, 1.49214, 1.4902, 1.48901, 1.48515, 1.48256, 1.48044, 1.4782, 1.47677, 1.47815, 1.47431, 1.47181, 1.47038, 1.46814, 1.46585, 1.465, 1.46353, 1.45949, 1.46394, 1.45916, 1.46201, 1.45376, 1.45029, 1.44879, 1.46077, 1.44772, 1.44873, 1.45773, 1.46125, 1.45744, 1.45447, 1.45729, 1.47099, 1.4755, 1.47133, 1.46802, 1.4685, 1.48574, 1.4458, 1.45815, 1.45746, 1.46578, 1.46717, 1.46061, 1.47458, 1.44473, 1.42889, 1.42916, 1.42014, 1.41381, 1.4156, 1.41666, 1.39933, 1.39829, 1.39842, 1.3989, 1.39678, 1.39441, 1.39428, 1.39164, 1.38924, 1.39261, 1.38662, 1.38507, 1.38512, 1.38259, 1.38168, 1.38824, 1.37793, 1.37157, 1.37159, 1.37036, 1.3686, 1.36576, 1.36259, 1.3616, 1.35944, 1.35686, 1.35588, 1.35502, 1.3541, 1.35418, 1.35402, 1.35351, 1.35244, 1.35105, 1.34795, 1.34856, 1.3474, 1.34409, 1.33958, 1.34013, 1.34054, 1.33551, 1.33483, 1.33765, 1.33576, 1.33512, 1.33127, 1.33234, 1.33286, 1.33083, 1.34079, 1.32753, 1.32903, 1.32962, 1.3264, 1.3304, 1.35387, 1.33281, 1.32265, 1.32691, 1.3206, 1.32214, 1.32486, 1.32979, 1.31783, 1.29235, 1.37069, 1.41682, 1.48881, 1.56233, 1.61769, 1.71345, 1.71794, 1.50657, 1.36174, 1.28675, 1.30161, 1.31359, 1.31649, 1.3072, 1.30376, 1.29451, 1.2914, 1.29444, 1.29615, 1.28781, 1.30676, 1.30872, 1.28588, 1.28899, 1.28423, 1.28436
1.61877, 1.61658, 1.61372, 1.61338, 1.61037, 1.60763, 1.60575, 1.60391, 1.60238, 1.59898, 1.59584, 1.5955, 1.58951, 1.58713, 1.58464, 1.585, 1.58349, 1.58335, 1.58388, 1.58163, 1.57989, 1.59339, 1.58542, 1.59245, 1.58527, 1.59357, 1.62528, 1.77435, 1.76753, 1.98856, 2.02004, 2.0214, 1.70456, 1.55172, 1.52076, 1.56495, 1.54895, 1.55294, 1.55107, 1.5384, 1.53715, 1.53482, 1.5333, 1.53132, 1.53065, 1.52732, 1.52654, 1.53178, 1.52117, 1.51613, 1.51394, 1.5108, 1.50962, 1.50664, 1.50426, 1.50069, 1.49998, 1.4993, 1.49816, 1.49702, 1.49562, 1.49475, 1.49236, 1.49235, 1.49055, 1.48628, 1.48437, 1.48153, 1.48087, 1.47871, 1.47469, 1.47279, 1.47036, 1.46704, 1.46711, 1.46402, 1.46075, 1.46003, 1.45797, 1.45531, 1.45438, 1.45346, 1.45188, 1.45147, 1.44824, 1.44829, 1.4471, 1.44871, 1.4517, 1.45238, 1.45147, 1.46181, 1.47122, 1.46384, 1.48168, 1.47469, 1.49794, 1.46079, 1.45818, 1.45851, 1.46518, 1.46313, 1.47628, 1.45083, 1.45958, 1.43439, 1.43516, 1.4284, 1.42651, 1.41918, 1.41098, 1.40314, 1.40359, 1.3972, 1.39483, 1.40216, 1.3948, 1.39287, 1.38993, 1.39519, 1.38962, 1.38798, 1.38628, 1.38521, 1.38361, 1.38155, 1.37817, 1.37639, 1.3742, 1.37363, 1.37105, 1.36755, 1.36534, 1.36367, 1.36127, 1.36402, 1.3596, 1.35898, 1.35749, 1.35686, 1.35446, 1.35414, 1.35408, 1.35137, 1.35108, 1.35027, 1.34898, 1.34648, 1.34614, 1.34603, 1.3442, 1.34372, 1.34301, 1.34, 1.33993, 1.33975, 1.33488, 1.33436, 1.33359, 1.33426, 1.32977, 1.3295, 1.32824, 1.32945, 1.32727, 1.32546, 1.32323, 1.3213, 1.32176, 1.33075, 1.32393, 1.32329, 1.33095, 1.31998, 1.33033, 1.32803, 1.32958, 1.28386, 1.35759, 1.41583, 1.48076, 1.55806, 1.71637, 1.76038, 1.77807, 1.60214, 1.40771, 1.27209, 1.30133, 1.30541, 1.30906, 1.31709, 1.29479, 1.29154, 1.29171, 1.28988, 1.2909, 1.30357, 1.28823, 1.28818, 1.28613, 1.29125, 1.29457, 1.28458
1.6161, 1.61276, 1.61232, 1.60742, 1.60408, 1.60188, 1.60193, 1.59996, 1.59696, 1.59532, 1.59238, 1.58827, 1.58662, 1.58529, 1.59213, 1.58136, 1.58431, 1.58528, 1.57825, 1.57739, 1.60229, 1.58543, 1.58593, 1.59819, 1.5753, 1.59185, 1.60656, 1.72417, 1.7366, 1.85861, 1.95205, 1.97432, 1.6852, 1.51403, 1.51646, 1.55152, 1.55021, 1.54093, 1.53878, 1.54788, 1.54457, 1.53123, 1.52915, 1.53778, 1.54024, 1.52192, 1.52241, 1.52131, 1.5232, 1.51366, 1.51091, 1.51048, 1.50451, 1.50454, 1.50157, 1.49879, 1.4984, 1.4974, 1.49533, 1.49349, 1.4922, 1.49053, 1.49218, 1.48693, 1.48625, 1.48216, 1.4792, 1.48161, 1.47377, 1.47156, 1.47116, 1.48888, 1.46773, 1.46491, 1.46214, 1.46037, 1.46074, 1.45761, 1.45792, 1.45508, 1.45485, 1.45183, 1.45144, 1.45582, 1.44535, 1.44518, 1.4602, 1.45802, 1.45862, 1.45141, 1.46471, 1.4609, 1.46088, 1.46041, 1.45719, 1.45334, 1.473, 1.4736, 1.45907, 1.45279, 1.46224, 1.45909, 1.45128, 1.46452, 1.45523, 1.4428, 1.4578, 1.43027, 1.43085, 1.41338, 1.41631, 1.40613, 1.39378, 1.39267, 1.38983, 1.40285, 1.38948, 1.39556, 1.39011, 1.38884, 1.38992, 1.3887, 1.38575, 1.38399, 1.38262, 1.38148, 1.37969, 1.37587, 1.37235, 1.37033, 1.36995, 1.36749, 1.36755, 1.3645, 1.36468, 1.36356, 1.36249, 1.36254, 1.35942, 1.3584, 1.35567, 1.35795, 1.35678, 1.35339, 1.35061, 1.35125, 1.34904, 1.34764, 1.34959, 1.3453, 1.34409, 1.34393, 1.34144, 1.33956, 1.33924, 1.3355, 1.33288, 1.33166, 1.3302, 1.33777, 1.33047, 1.32925, 1.32807, 1.32474, 1.32594, 1.34916, 1.32439, 1.32288, 1.32755, 1.34081, 1.33446, 1.32641, 1.32054, 1.32082, 1.32145, 1.33472, 1.32064, 1.30648, 1.32729, 1.36379, 1.4236, 1.49907, 1.51164, 1.63118, 1.52907, 1.41678, 1.34194, 1.2837, 1.2937, 1.30545, 1.3036, 1.30521, 1.30972, 1.29271, 1.28833, 1.28927, 1.28948, 1.2951, 1.28842, 1.28717, 1.28702, 1.29155, 1.28405, 1.28285
1.63474, 1.59948, 1.61326, 1.59413, 1.59337, 1.59085, 1.58814, 1.58537, 1.58581, 1.58449, 1.58924, 1.57944, 1.57877, 1.58601, 1.57593, 1.57328, 1.60204, 1.57898, 1.56567, 1.56467, 1.57295, 1.57485, 1.5731, 1.56865, 1.56424, 1.53061, 1.64044, 1.66006, 1.69905, 1.82615, 1.8889, 1.93776, 1.74316, 1.52667, 1.52761, 1.53544, 1.54396, 1.531, 1.53454, 1.52103, 1.53024, 1.52426, 1.51701, 1.50259, 1.53689, 1.51347, 1.50872, 1.50868, 1.50717, 1.50604, 1.51422, 1.51345, 1.49983, 1.50504, 1.49598, 1.49202, 1.49065, 1.48839, 1.48504, 1.48277, 1.47968, 1.47812, 1.47507, 1.47588, 1.47243, 1.47525, 1.46786, 1.4666, 1.46492, 1.46107, 1.45939, 1.4577, 1.45713, 1.45394, 1.455, 1.45444, 1.46113, 1.4516, 1.44978, 1.44891, 1.45535, 1.4536, 1.44104, 1.44107, 1.44051, 1.43884, 1.43624, 1.45183, 1.45258, 1.44359, 1.46204, 1.45144, 1.4498, 1.45172, 1.4544, 1.44768, 1.45384, 1.44997, 1.462, 1.47095, 1.44091, 1.46486, 1.48264, 1.45391, 1.44087, 1.42969, 1.42758, 1.41939, 1.42248, 1.40493, 1.39822, 1.39221, 1.38794, 1.38655, 1.39629, 1.38584, 1.39292, 1.38236, 1.3822, 1.38114, 1.38252, 1.38306, 1.3813, 1.37973, 1.39127, 1.37228, 1.37283, 1.36922, 1.3647, 1.36399, 1.36518, 1.36407, 1.3592, 1.3597, 1.35833, 1.3579, 1.35759, 1.35665, 1.35415, 1.35077, 1.35661, 1.35919, 1.34711, 1.34278, 1.34014, 1.3371, 1.33709, 1.33546, 1.33378, 1.33434, 1.33483, 1.33519, 1.33106, 1.33269, 1.32767, 1.32468, 1.32499, 1.32255, 1.33095, 1.32221, 1.32261, 1.32054, 1.3204, 1.31986, 1.31809, 1.32089, 1.34711, 1.32358, 1.32102, 1.30905, 1.31652, 1.32241, 1.32689, 1.3173, 1.31916, 1.31126, 1.31936, 1.27765, 1.29128, 1.40257, 1.47609, 1.54006, 1.63843, 1.78864, 1.74993, 1.4415, 1.37144, 1.27472, 1.28061, 1.29232, 1.29263, 1.29944, 1.28638, 1.28139, 1.28508, 1.28516, 1.27966, 1.27866, 1.29323, 1.27821, 1.29643, 1.27825, 1.2853, 1.27359
1.58872, 1.58797, 1.58507, 1.58163, 1.58189, 1.57969, 1.57832, 1.57579, 1.56953, 1.56926, 1.56507, 1.56427, 1.56007, 1.558, 1.55777, 1.55591, 1.55185, 1.55031, 1.56513, 1.54845, 1.54866, 1.55087, 1.56543, 1.55168, 1.55237, 1.51682, 1.59583, 1.6305, 1.66537, 1.83733, 1.92633, 1.90799, 1.78946, 1.52589, 1.48969, 1.51279, 1.51495, 1.51264, 1.50952, 1.50546, 1.51326, 1.49989, 1.49906, 1.49666, 1.49609, 1.49567, 1.49585, 1.49692, 1.49491, 1.49509, 1.49982, 1.49172, 1.48918, 1.48526, 1.48225, 1.48111, 1.47836, 1.47741, 1.47385, 1.46991, 1.46792, 1.46466, 1.46322, 1.46018, 1.45874, 1.45574, 1.45453, 1.45346, 1.4501, 1.44735, 1.44466, 1.44581, 1.44552, 1.44694, 1.44295, 1.43772, 1.43968, 1.44049, 1.43504, 1.43104, 1.43033, 1.42935, 1.4256, 1.4266, 1.42112, 1.42015, 1.43302, 1.42091, 1.43607, 1.43314, 1.43174, 1.44779, 1.42829, 1.43764, 1.44183, 1.44535, 1.45809, 1.44947, 1.44615, 1.41937, 1.43353, 1.42574, 1.43634, 1.44593, 1.43382, 1.41525, 1.4273, 1.40142, 1.38898, 1.38644, 1.37939, 1.37499, 1.37254, 1.36849, 1.36755, 1.36637, 1.36528, 1.36459, 1.36275, 1.36472, 1.36746, 1.37189, 1.37306, 1.37104, 1.36165, 1.35648, 1.3606, 1.35645, 1.34886, 1.35014, 1.3453, 1.34392, 1.34251, 1.34259, 1.33911, 1.33958, 1.3384, 1.33709, 1.33297, 1.33249, 1.33258, 1.32948, 1.32629, 1.32562, 1.32336, 1.32025, 1.31784, 1.32308, 1.31406, 1.31141, 1.32002, 1.32373, 1.31924, 1.32181, 1.31792, 1.32349, 1.30483, 1.30159, 1.30003, 1.30055, 1.30034, 1.30126, 1.30206, 1.30356, 1.30245, 1.30212, 1.30014, 1.29543, 1.29428, 1.29282, 1.29294, 1.29639, 1.28637, 1.28575, 1.28676, 1.30545, 1.31372, 1.29208, 1.28485, 1.36706, 1.43121, 1.49751, 1.53646, 1.62312, 1.49173, 1.43107, 1.32064, 1.26134, 1.25361, 1.26567, 1.28923, 1.28012, 1.27952, 1.27497, 1.2731, 1.27113, 1.26568, 1.25757, 1.27278, 1.27557, 1.26428, 1.28222, 1.25718, 1.25504
1.58843, 1.58548, 1.58312, 1.58504, 1.58726, 1.59158, 1.59305, 1.58249, 1.57964, 1.57618, 1.57139, 1.5718, 1.59426, 1.56809, 1.59257, 1.576, 1.56501, 1.56492, 1.55928, 1.55824, 1.55657, 1.5682, 1.56283, 1.56569, 1.5685, 1.53399, 1.56743, 1.6163, 1.71454, 1.85742, 1.98647, 0.00343722, 1.80093, 1.51031, 1.49607, 1.53144, 1.53903, 1.5372, 1.53168, 1.53587, 1.51258, 1.51395, 1.5008, 1.49976, 1.51019, 1.50306, 1.50619, 1.50697, 1.49862, 1.49658, 1.49541, 1.49228, 1.49227, 1.49034, 1.48905, 1.49001, 1.48961, 1.493, 1.4819, 1.47521, 1.47351, 1.46987, 1.46676, 1.46826, 1.46365, 1.46803, 1.46864, 1.46788, 1.46629, 1.46164, 1.46001, 1.45667, 1.45495, 1.45175, 1.44691, 1.44172, 1.44207, 1.44154, 1.43768, 1.43429, 1.4374, 1.43751, 1.43302, 1.43236, 1.42607, 1.43058, 1.43112, 1.44023, 1.4367, 1.43125, 1.43495, 1.44442, 1.43371, 1.43768, 1.44249, 1.43736, 1.44141, 1.43796, 1.43944, 1.43579, 1.4183, 1.42626, 1.46157, 1.43536, 1.42726, 1.41311, 1.41316, 1.39922, 1.39556, 1.40365, 1.39121, 1.38899, 1.39336, 1.3857, 1.38115, 1.37537, 1.37109, 1.38089, 1.37176, 1.36628, 1.37192, 1.36997, 1.37003, 1.36331, 1.35777, 1.35125, 1.35105, 1.3541, 1.35234, 1.35238, 1.35102, 1.34522, 1.34452, 1.34263, 1.34352, 1.34013, 1.3501, 1.34207, 1.3405, 1.33886, 1.33719, 1.337, 1.33396, 1.3266, 1.33085, 1.3224, 1.32412, 1.32648, 1.32366, 1.31393, 1.31321, 1.31568, 1.3161, 1.31917, 1.31534, 1.30979, 1.31263, 1.30967, 1.31249, 1.30996, 1.30386, 1.29947, 1.30127, 1.3262, 1.30636, 1.30875, 1.30624, 1.29862, 1.29439, 1.29528, 1.29205, 1.29026, 1.29034, 1.28911, 1.30861, 1.30811, 1.29678, 1.26712, 1.28283, 1.37137, 1.44099, 1.47239, 1.4311, 1.53619, 1.56573, 1.59786, 1.33555, 1.2553, 1.27766, 1.27461, 1.2829, 1.27533, 1.27288, 1.28022, 1.26992, 1.26514, 1.25976, 1.2578, 1.26284, 1.2825, 1.26417, 1.26192, 1.25666, 1.25421
1.60437, 1.60802, 1.60132, 1.60051, 1.60036, 1.60177, 1.59924, 1.59635, 1.59262, 1.58856, 1.58705, 1.58547, 1.57972, 1.57943, 1.57844, 1.57467, 1.59623, 1.57085, 1.5703, 1.56906, 1.56887, 1.56731, 1.56836, 1.56733, 1.5665, 1.5307, 1.54695, 1.60674, 1.63364, 1.83766, 1.97891, 1.75101, 1.72024, 1.53479, 1.52732, 1.54464, 1.5372, 1.53505, 1.54775, 1.5387, 1.52076, 1.52012, 1.51566, 1.51459, 1.51472, 1.51407, 1.51242, 1.51108, 1.50798, 1.51564, 1.50401, 1.50239, 1.50484, 1.49681, 1.49478, 1.49368, 1.49241, 1.49198, 1.48711, 1.48516, 1.48542, 1.49628, 1.48002, 1.4785, 1.4776, 1.47506, 1.47505, 1.47201, 1.46968, 1.46758, 1.4796, 1.46642, 1.46199, 1.45817, 1.45519, 1.46452, 1.44975, 1.44769, 1.45431, 1.4453, 1.44451, 1.44327, 1.44083, 1.43989, 1.44778, 1.43367, 1.43157, 1.44892, 1.43632, 1.44202, 1.45063, 1.44729, 1.46069, 1.44499, 1.45852, 1.45607, 1.45536, 1.46151, 1.45646, 1.44599, 1.43616, 1.44988, 1.46429, 1.43134, 1.43401, 1.4226, 1.42649, 1.41629, 1.41808, 1.40593, 1.4105, 1.39881, 1.39596, 1.39327, 1.38888, 1.39019, 1.38514, 1.38156, 1.38642, 1.38039, 1.37816, 1.37629, 1.37846, 1.37858, 1.3712, 1.36991, 1.36947, 1.3685, 1.36758, 1.36523, 1.36147, 1.35784, 1.35725, 1.35579, 1.35558, 1.35175, 1.35237, 1.35183, 1.35136, 1.35029, 1.34898, 1.34749, 1.34618, 1.34373, 1.34018, 1.3393, 1.33996, 1.33914, 1.33379, 1.33368, 1.33259, 1.32887, 1.32976, 1.32522, 1.32212, 1.33008, 1.32268, 1.32283, 1.3205, 1.31929, 1.31767, 1.31572, 1.31339, 1.31536, 1.31327, 1.31315, 1.30958, 1.31087, 1.30638, 1.30585, 1.30984, 1.31599, 1.30096, 1.3015, 1.30641, 1.30723, 1.30852, 1.30002, 1.29378, 1.34373, 1.39122, 1.50616, 1.48982, 1.49522, 1.47532, 1.47464, 1.42039, 1.29521, 1.27712, 1.29297, 1.29716, 1.2831, 1.28199, 1.2891, 1.28053, 1.29489, 1.28257, 1.27126, 1.2743, 1.274, 1.27116, 1.26937, 1.27092, 1.26841
1.60315, 1.60347, 1.59969, 1.60024, 1.597, 1.59606, 1.5931, 1.59324, 1.58941, 1.58855, 1.58573, 1.58211, 1.58043, 1.57754, 1.57471, 1.57228, 1.57519, 1.56923, 1.56937, 1.56791, 1.57096, 1.57624, 1.57172, 1.5779, 1.5691, 1.54948, 1.58247, 1.59152, 1.73167, 1.89396, 1.93065, 1.78592, 1.7554, 1.51603, 1.52969, 1.53489, 1.5373, 1.54174, 1.52359, 1.52044, 1.53507, 1.52164, 1.53054, 1.51706, 1.51851, 1.51506, 1.51315, 1.51085, 1.50728, 1.50407, 1.53029, 1.50224, 1.49818, 1.48791, 1.48853, 1.49013, 1.48873, 1.48936, 1.49337, 1.48567, 1.48568, 1.48883, 1.48524, 1.47884, 1.4788, 1.47398, 1.47217, 1.47117, 1.46572, 1.46254, 1.45818, 1.45798, 1.45672, 1.45471, 1.45794, 1.451, 1.44772, 1.44866, 1.44447, 1.46418, 1.44204, 1.45104, 1.4387, 1.44257, 1.43723, 1.43615, 1.43719, 1.43675, 1.45015, 1.44122, 1.45782, 1.44715, 1.46472, 1.4502, 1.4565, 1.47202, 1.44052, 1.44001, 1.44156, 1.46078, 1.44033, 1.43408, 1.44517, 1.4579, 1.44852, 1.42775, 1.43913, 1.42436, 1.43088, 1.40626, 1.40175, 1.40372, 1.39385, 1.41681, 1.40214, 1.38651, 1.38877, 1.39978, 1.38417, 1.38152, 1.37996, 1.38019, 1.37585, 1.37512, 1.3744, 1.37507, 1.37074, 1.36808, 1.36736, 1.3683, 1.36301, 1.36027, 1.35848, 1.35842, 1.35613, 1.35548, 1.35663, 1.35416, 1.35032, 1.35527, 1.3456, 1.34552, 1.34485, 1.34255, 1.33834, 1.33964, 1.33777, 1.33864, 1.33649, 1.33462, 1.33991, 1.33264, 1.32989, 1.32778, 1.32763, 1.3232, 1.32656, 1.32279, 1.32089, 1.32127, 1.31977, 1.31583, 1.31447, 1.31347, 1.31503, 1.31528, 1.3142, 1.3134, 1.3194, 1.3337, 1.32342, 1.32711, 1.30615, 1.31418, 1.30786, 1.31304, 1.3154, 1.32664, 1.29878, 1.31538, 1.36763, 1.44734, 1.61657, 1.5616, 1.49053, 1.47991, 1.40835, 1.30341, 1.28562, 1.28762, 1.29923, 1.29242, 1.29994, 1.28515, 1.28649, 1.28276, 1.29157, 1.29185, 1.28908, 1.28136, 1.29601, 1.28519, 1.28811, 1.26909
1.60109, 1.60052, 1.5976, 1.59765, 1.59585, 1.59437, 1.59256, 1.58956, 1.58698, 1.58338, 1.57945, 1.57214, 1.59328, 1.57637, 1.57436, 1.56852, 1.58942, 1.56583, 1.5656, 1.56333, 1.5632, 1.56846, 1.56803, 1.56835, 1.55587, 1.55475, 1.55109, 1.65387, 1.6511, 1.78258, 0.00341617, 2.14106, 1.63716, 1.51403, 1.53533, 1.53797, 1.53497, 1.53022, 1.52665, 1.51318, 1.50581, 1.51556, 1.51695, 1.5129, 1.51984, 1.51206, 1.50842, 1.5066, 1.50348, 1.49908, 1.49796, 1.48852, 1.476, 1.47472, 1.47881, 1.48315, 1.4847, 1.48652, 1.48478, 1.48428, 1.50818, 1.48238, 1.51644, 1.47669, 1.47417, 1.47226, 1.46946, 1.4681, 1.46213, 1.46022, 1.4571, 1.45501, 1.45306, 1.45199, 1.44973, 1.44845, 1.44915, 1.44343, 1.44103, 1.43969, 1.43855, 1.44034, 1.4376, 1.43899, 1.43443, 1.43596, 1.43623, 1.43683, 1.44871, 1.4433, 1.44858, 1.45475, 1.44629, 1.44924, 1.4444, 1.47923, 1.43658, 1.43321, 1.42815, 1.44668, 1.43683, 1.43, 1.43469, 1.43419, 1.44125, 1.43673, 1.42485, 1.41703, 1.40709, 1.40885, 1.40601, 1.39203, 1.38947, 1.38599, 1.38345, 1.39591, 1.38145, 1.3807, 1.37807, 1.38095, 1.37618, 1.3748, 1.37103, 1.37007, 1.3694, 1.36637, 1.36722, 1.36535, 1.3649, 1.36295, 1.36053, 1.35939, 1.35783, 1.35498, 1.35748, 1.35693, 1.35228, 1.35384, 1.34978, 1.34935, 1.34777, 1.34309, 1.34193, 1.34059, 1.3388, 1.33791, 1.33577, 1.33314, 1.33247, 1.33059, 1.33078, 1.33062, 1.32681, 1.32324, 1.323, 1.32146, 1.31798, 1.3228, 1.3203, 1.31942, 1.31648, 1.31532, 1.31525, 1.31343, 1.31281, 1.31264, 1.31526, 1.3123, 1.34106, 1.30804, 1.3086, 1.30803, 1.30482, 1.30412, 1.30566, 1.30524, 1.30657, 1.30377, 1.28073, 1.35378, 1.4722, 1.50491, 1.60741, 1.57223, 1.63798, 1.52513, 1.51584, 1.52622, 1.52107, 1.4759, 1.37503, 1.29641, 1.30137, 1.28286, 1.29066, 1.29427, 1.27838, 1.281, 1.27596, 1.29035, 1.27511, 1.27487, 1.26779, 1.27178
1.59873, 1.59675, 1.59516, 1.59386, 1.59441, 1.59624, 1.59421, 1.59143, 1.58889, 1.58585, 1.61099, 1.57513, 1.57193, 1.5699, 1.56972, 1.56934, 1.56975, 1.56844, 1.58296, 1.57188, 1.56861, 1.5594, 1.57123, 1.56605, 1.55826, 1.54837, 1.5995, 1.6509, 1.72485, 1.80064, 1.96897, 2.1412, 1.85571, 1.53541, 1.53972, 1.53536, 1.53425, 1.53737, 1.52418, 1.52731, 1.52281, 1.5173, 1.51882, 1.52042, 1.52759, 1.50805, 1.5071, 1.5041, 1.50145, 1.50636, 1.49611, 1.49201, 1.48679, 1.48567, 1.48572, 1.48559, 1.48463, 1.48391, 1.48295, 1.48158, 1.47971, 1.47849, 1.47732, 1.47507, 1.47185, 1.47054, 1.46949, 1.46597, 1.46261, 1.4586, 1.45452, 1.45215, 1.45183, 1.45048, 1.45208, 1.45093, 1.44913, 1.44581, 1.44178, 1.44027, 1.43962, 1.44426, 1.43819, 1.43755, 1.43566, 1.43466, 1.448, 1.43731, 1.46254, 1.44711, 1.45146, 1.44328, 1.4498, 1.44129, 1.45406, 1.45504, 1.45392, 1.43647, 1.44745, 1.44963, 1.44034, 1.43886, 1.44495, 1.44416, 1.42915, 1.42775, 1.42973, 1.41726, 1.41871, 1.41007, 1.39698, 1.40066, 1.39104, 1.38785, 1.38498, 1.38367, 1.38035, 1.37784, 1.37468, 1.37435, 1.37081, 1.37209, 1.36871, 1.36953, 1.36732, 1.36585, 1.36594, 1.36587, 1.36481, 1.3634, 1.36285, 1.36091, 1.35707, 1.35757, 1.35448, 1.35401, 1.35204, 1.35163, 1.34832, 1.34564, 1.34614, 1.34194, 1.34211, 1.34104, 1.33798, 1.33535, 1.33744, 1.3365, 1.33693, 1.33592, 1.35124, 1.33664, 1.33097, 1.32811, 1.32646, 1.32465, 1.32247, 1.31994, 1.31921, 1.3198, 1.31705, 1.31653, 1.31621, 1.31631, 1.31584, 1.31381, 1.31204, 1.3107, 1.31693, 1.3063, 1.30602, 1.3046, 1.30394, 1.30245, 1.3, 1.31335, 1.3147, 1.30629, 1.27546, 1.28114, 1.41971, 1.48927, 1.53606, 1.70574, 1.70683, 1.50005, 1.49582, 1.50299, 1.48634, 1.45644, 1.45472, 1.38863, 1.27956, 1.2763, 1.27741, 1.2727, 1.28714, 1.27377, 1.27637, 1.27371, 1.27161, 1.29608, 1.26786, 1.26221
1.59511, 1.58904, 1.5805, 1.57946, 1.58684, 1.60296, 1.59092, 1.58829, 1.58529, 1.57998, 1.59237, 1.57331, 1.57152, 1.56971, 1.56993, 1.56815, 1.56847, 1.56512, 1.5629, 1.5789, 1.57571, 1.5708, 1.57212, 1.56104, 1.55941, 1.54692, 1.57267, 1.65155, 1.68442, 1.76138, 1.82, 0.00352851, 1.70444, 1.52983, 1.51634, 1.52397, 1.52962, 1.533, 1.52015, 1.51682, 1.51586, 1.51342, 1.51224, 1.51043, 1.5255, 1.5192, 1.52324, 1.4994, 1.49925, 1.51181, 1.49348, 1.49232, 1.48984, 1.48835, 1.48566, 1.48467, 1.48382, 1.47969, 1.47778, 1.47675, 1.47612, 1.47339, 1.47327, 1.47194, 1.46903, 1.46842, 1.46586, 1.46213, 1.45853, 1.46184, 1.45229, 1.45109, 1.44858, 1.44905, 1.44739, 1.44648, 1.44677, 1.44677, 1.44063, 1.44018, 1.44459, 1.43424, 1.43984, 1.43437, 1.43563, 1.4345, 1.43501, 1.43423, 1.45243, 1.43777, 1.43885, 1.45766, 1.45328, 1.44162, 1.47285, 1.43737, 1.4608, 1.44114, 1.43385, 1.44932, 1.433, 1.42536, 1.43346, 1.43479, 1.44706, 1.43004, 1.409, 1.41841, 1.40691, 1.4058, 1.39689, 1.39671, 1.39492, 1.38581, 1.38608, 1.38287, 1.37823, 1.37745, 1.37237, 1.37155, 1.37069, 1.36844, 1.36534, 1.36419, 1.36355, 1.36857, 1.36146, 1.36319, 1.35794, 1.35992, 1.35733, 1.35507, 1.35285, 1.35069, 1.35076, 1.35062, 1.34988, 1.34989, 1.34828, 1.34588, 1.34326, 1.34098, 1.34053, 1.33792, 1.33641, 1.33542, 1.33645, 1.33881, 1.33796, 1.33519, 1.33306, 1.33201, 1.32994, 1.32762, 1.32483, 1.32226, 1.31947, 1.32256, 1.31483, 1.31751, 1.31527, 1.31242, 1.31271, 1.31003, 1.31059, 1.31197, 1.31375, 1.30609, 1.30508, 1.29959, 1.31569, 1.29626, 1.2991, 1.30028, 1.29843, 1.298, 1.30537, 1.29301, 1.27929, 1.31669, 1.35485, 1.46663, 1.53082, 1.5956, 1.93836, 1.54482, 1.49628, 1.47468, 1.46892, 1.44792, 1.44333, 1.34076, 1.31903, 1.27755, 1.27337, 1.27102, 1.27444, 1.26903, 1.2777, 1.27062, 1.27038, 1.26824, 1.26351, 1.26383
