1.61376, 1.61076, 1.62094, 1.61899, 1.60357, 1.60293, 1.60045, 1.60055, 1.5985, 1.59088, 1.58712, 1.59075, 1.58848, 1.59229, 1.59588, 1.59283, 1.59299, 1.57031, 1.57939, 1.59568, 1.6008, 1.60855, 1.60686, 1.61921, 1.65481, 1.6553, 1.6794, 1.70368, 1.67357, 1.66264, 1.59527, 1.54296, 1.53151, 1.55379, 1.55018, 1.54911, 1.5389, 1.53982, 1.53801, 1.55056, 1.56218, 1.56247, 1.54805, 1.53612, 1.5267, 1.52355, 1.52422, 1.51379, 1.51078, 1.52075, 1.50714, 1.50642, 1.51182, 1.50352, 1.50167, 1.50023, 1.49868, 1.49857, 1.4978, 1.4937, 1.49217, 1.49145, 1.49462, 1.48484, 1.48211, 1.48105, 1.47842, 1.47783, 1.4746, 1.47545, 1.51701, 1.49628, 1.46559, 1.46294, 1.46395, 1.45795, 1.45739, 1.45412, 1.46884, 1.45413, 1.45226, 1.45222, 1.46562, 1.45724, 1.46139, 1.45092, 1.45448, 1.41915, 1.47192, 1.53683, 1.5367, 1.7004, 1.75889, 1.77999, 1.81677, 1.65748, 1.60013, 1.43756, 1.40105, 1.41166, 1.42448, 1.42352, 1.4387, 1.41475, 1.41403, 1.42756, 1.41232, 1.41587, 1.40664, 1.41223, 1.40217, 1.40122, 1.39935, 1.39624, 1.39405, 1.39377, 1.39185, 1.39097, 1.38918, 1.39157, 1.38266, 1.38014, 1.37943, 1.37513, 1.37523, 1.37453, 1.37114, 1.37412, 1.37034, 1.36565, 1.36432, 1.36323, 1.36196, 1.35999, 1.35964, 1.3574, 1.35527, 1.35773, 1.37523, 1.35708, 1.35152, 1.35109, 1.35398, 1.36738, 1.34006, 1.34272, 1.34377, 1.34096, 1.33539, 1.33354, 1.33157, 1.336, 1.3292, 1.33021, 1.33307, 1.34238, 1.32556, 1.32997, 1.32066, 1.3203, 1.31978, 1.31775, 1.31599, 1.31586, 1.31487, 1.31368, 1.3298, 1.32195, 1.32391, 1.33813, 1.33675, 1.3268, 1.3503, 1.33449, 1.33901, 1.38228, 1.36808, 1.35497, 1.33366, 1.3459, 1.36367, 1.378, 1.33483, 1.33046, 1.30913, 1.31965, 1.31907, 1.30288, 1.29919, 1.29241, 1.28553, 1.28198, 1.28131, 1.28142, 1.27877, 1.29179, 1.28194, 1.27733, 1.28817, 1.29886, 1.29672, 1.27767, 1.29286, 1.30507, 
1.67323, 1.66783, 1.63634, 1.6248, 1.60799, 1.60701, 1.60582, 1.60391, 1.59883, 1.59889, 1.59676, 1.59539, 1.59074, 1.59595, 1.60637, 1.59951, 1.5813, 1.59077, 1.58463, 1.62168, 1.65905, 1.6341, 1.62989, 1.67221, 1.64727, 1.67204, 1.68498, 1.67584, 1.70719, 1.62652, 1.54026, 1.53076, 1.56462, 1.55009, 1.55402, 1.54559, 1.54165, 1.5398, 1.53804, 1.53537, 1.53911, 1.5401, 1.54764, 1.55172, 1.54389, 1.52051, 1.52355, 1.52605, 1.52424, 1.51884, 1.50798, 1.51719, 1.50912, 1.50631, 1.50442, 1.50475, 1.5008, 1.49749, 1.49751, 1.49633, 1.49379, 1.49405, 1.48905, 1.48646, 1.48651, 1.48285, 1.4811, 1.48114, 1.47953, 1.47608, 1.47509, 1.47238, 1.47114, 1.46877, 1.48543, 1.46014, 1.46233, 1.46171, 1.47543, 1.46597, 1.4536, 1.45265, 1.45063, 1.45022, 1.46169, 1.45343, 1.4519, 1.4408, 1.45958, 1.52786, 1.56519, 1.61198, 1.67518, 1.7128, 1.72816, 1.65096, 1.59575, 1.41959, 1.41629, 1.40681, 1.42699, 1.42768, 1.41959, 1.42433, 1.41077, 1.41272, 1.41209, 1.41055, 1.4067, 1.40242, 1.40097, 1.3993, 1.39685, 1.39274, 1.38939, 1.38472, 1.38665, 1.38787, 1.38642, 1.3844, 1.38473, 1.38417, 1.37997, 1.37911, 1.37678, 1.37721, 1.37581, 1.37403, 1.37186, 1.37099, 1.37081, 1.37006, 1.36607, 1.3655, 1.36134, 1.35877, 1.35842, 1.35669, 1.35594, 1.35384, 1.35422, 1.35217, 1.35279, 1.35345, 1.35238, 1.34676, 1.34519, 1.34501, 1.3441, 1.33954, 1.33996, 1.33833, 1.33847, 1.34141, 1.34048, 1.3392, 1.34088, 1.33544, 1.33404, 1.34015, 1.33359, 1.3261, 1.32964, 1.32769, 1.33336, 1.32668, 1.33542, 1.33135, 1.33733, 1.32588, 1.32801, 1.33353, 1.35407, 1.35036, 1.36135, 1.375, 1.38064, 1.34413, 1.35179, 1.35804, 1.36261, 1.40309, 1.35925, 1.32312, 1.30951, 1.32634, 1.30262, 1.30149, 1.29234, 1.2919, 1.29017, 1.28434, 1.28062, 1.27937, 1.28268, 1.2754, 1.2769, 1.28067, 1.27824, 1.28002, 1.28026, 1.27906, 1.28099, 1.29132, 
1.65752, 1.67227, 1.65339, 1.6412, 1.61817, 1.61418, 1.61123, 1.61775, 1.60538, 1.60453, 1.60337, 1.60349, 1.61256, 1.6166, 1.60969, 1.61707, 1.60713, 1.60259, 1.61773, 1.63411, 1.63001, 1.63235, 1.67859, 1.69622, 1.67948, 1.70603, 1.71724, 1.71423, 1.73239, 1.66269, 1.59084, 1.54125, 1.56303, 1.56973, 1.5595, 1.565, 1.55483, 1.54864, 1.54879, 1.54379, 1.5407, 1.54087, 1.54535, 1.53653, 1.54729, 1.56042, 1.53792, 1.52542, 1.52352, 1.53353, 1.51684, 1.52485, 1.51873, 1.52241, 1.51222, 1.51075, 1.51291, 1.50682, 1.50069, 1.50043, 1.49894, 1.49697, 1.49651, 1.49235, 1.49442, 1.49059, 1.48899, 1.48788, 1.48762, 1.48594, 1.48451, 1.48205, 1.48049, 1.47662, 1.47374, 1.47037, 1.4686, 1.46489, 1.46572, 1.46468, 1.46406, 1.4637, 1.46222, 1.465, 1.47125, 1.46978, 1.45699, 1.43429, 1.47041, 1.51058, 1.57646, 1.64434, 1.67514, 1.72748, 1.73422, 1.73206, 1.62271, 1.50404, 1.47814, 1.41686, 1.442, 1.45328, 1.43251, 1.43028, 1.42659, 1.42107, 1.41865, 1.41596, 1.41422, 1.4138, 1.40828, 1.41184, 1.40824, 1.40725, 1.40521, 1.40178, 1.39821, 1.39742, 1.39653, 1.39263, 1.39184, 1.391, 1.39104, 1.38969, 1.38961, 1.38512, 1.38391, 1.38241, 1.3812, 1.37881, 1.37885, 1.37746, 1.37524, 1.37475, 1.37246, 1.37157, 1.37005, 1.36968, 1.36531, 1.36412, 1.36213, 1.36302, 1.35538, 1.35293, 1.35179, 1.35152, 1.34896, 1.34877, 1.34713, 1.34621, 1.34823, 1.34743, 1.34649, 1.34779, 1.34816, 1.34674, 1.34481, 1.34456, 1.348, 1.34455, 1.34346, 1.35371, 1.33641, 1.33578, 1.33421, 1.33407, 1.33463, 1.33827, 1.34864, 1.33762, 1.33639, 1.33498, 1.37917, 1.34165, 1.35143, 1.34589, 1.34646, 1.3658, 1.3538, 1.39776, 1.37146, 1.3824, 1.37658, 1.34042, 1.30252, 1.30603, 1.31168, 1.30263, 1.30606, 1.29948, 1.29238, 1.29228, 1.2928, 1.28981, 1.2865, 1.28543, 1.28819, 1.28868, 1.28608, 1.28577, 1.30626, 1.28522, 1.28159, 1.28423, 
1.64633, 1.65132, 1.64198, 1.67489, 1.67117, 1.6436, 1.62084, 1.63542, 1.61503, 1.61135, 1.61852, 1.60863, 1.60728, 1.61927, 1.61013, 1.61086, 1.61396, 1.59262, 1.6107, 1.61969, 1.64773, 1.66357, 1.66183, 1.66145, 1.68654, 1.69506, 1.7002, 1.69586, 1.7139, 1.67245, 1.59982, 1.56797, 1.56443, 1.57487, 1.57896, 1.56677, 1.56826, 1.55855, 1.55298, 1.55444, 1.54584, 1.54645, 1.5467, 1.54861, 1.53832, 1.53813, 1.54788, 1.53947, 1.53574, 1.54512, 1.52545, 1.5248, 1.52344, 1.52426, 1.52033, 1.51869, 1.51386, 1.5125, 1.51212, 1.50785, 1.50757, 1.50639, 1.5044, 1.50106, 1.49948, 1.49729, 1.49585, 1.49545, 1.49345, 1.49125, 1.48942, 1.49487, 1.48722, 1.48481, 1.48543, 1.48376, 1.48096, 1.4787, 1.49893, 1.47747, 1.47193, 1.47102, 1.47981, 1.4712, 1.49487, 1.48029, 1.44899, 1.43711, 1.49108, 1.54024, 1.58393, 1.61704, 1.69288, 1.73303, 1.734, 1.72159, 1.64807, 1.56087, 1.45211, 1.43651, 1.45247, 1.44792, 1.45246, 1.45467, 1.43717, 1.44026, 1.43, 1.43964, 1.42948, 1.42484, 1.43762, 1.41766, 1.41639, 1.41265, 1.41546, 1.41336, 1.41209, 1.41071, 1.40846, 1.407, 1.40491, 1.40199, 1.39966, 1.39685, 1.39548, 1.39501, 1.39236, 1.39275, 1.39146, 1.38924, 1.39598, 1.38669, 1.38635, 1.39591, 1.38376, 1.38416, 1.37983, 1.37841, 1.38092, 1.37264, 1.37206, 1.36899, 1.3623, 1.3617, 1.36805, 1.35541, 1.357, 1.35019, 1.35036, 1.35039, 1.34969, 1.34822, 1.35162, 1.35058, 1.35052, 1.35085, 1.35038, 1.35148, 1.34814, 1.3562, 1.34474, 1.34358, 1.34531, 1.34304, 1.34088, 1.34078, 1.35059, 1.34371, 1.36386, 1.35731, 1.34161, 1.33703, 1.35848, 1.37107, 1.37166, 1.36554, 1.3962, 1.37422, 1.37665, 1.38212, 1.43274, 1.39829, 1.38389, 1.35108, 1.31644, 1.31056, 1.32093, 1.32995, 1.32227, 1.30993, 1.3105, 1.32289, 1.32916, 1.30503, 1.30097, 1.30184, 1.29923, 1.30015, 1.30009, 1.29802, 1.29752, 1.29818, 1.29827, 1.29728, 
1.63622, 1.63429, 1.63047, 1.63055, 1.63438, 1.64397, 1.63773, 1.64518, 1.6335, 1.62058, 1.62061, 1.61628, 1.62631, 1.61449, 1.61633, 1.6205, 1.62083, 1.58787, 1.58994, 1.60017, 1.63081, 1.65041, 1.66993, 1.66307, 1.71476, 1.75876, 1.74446, 1.75305, 1.72528, 1.69702, 1.61324, 1.56543, 1.56673, 1.58498, 1.58259, 1.5927, 1.57408, 1.56313, 1.5613, 1.55585, 1.5522, 1.55006, 1.55558, 1.54846, 1.55072, 1.55973, 1.56581, 1.555, 1.55196, 1.5547, 1.53911, 1.54337, 1.53454, 1.53132, 1.53051, 1.52968, 1.52872, 1.53962, 1.5195, 1.51655, 1.51626, 1.51213, 1.51237, 1.5098, 1.50579, 1.50203, 1.50042, 1.50594, 1.49765, 1.49538, 1.4932, 1.49279, 1.51665, 1.49044, 1.49039, 1.48648, 1.48573, 1.48555, 1.48203, 1.48757, 1.47909, 1.48176, 1.47553, 1.48786, 1.48429, 1.47831, 1.46606, 1.44704, 1.46501, 1.4751, 1.59215, 1.64327, 1.69483, 1.72093, 1.72082, 1.71639, 1.65431, 1.61436, 1.49844, 1.41664, 1.43667, 1.44737, 1.44851, 1.44442, 1.45403, 1.45852, 1.43433, 1.43077, 1.42716, 1.42619, 1.42512, 1.42079, 1.45866, 1.41831, 1.41916, 1.41919, 1.41549, 1.41608, 1.41175, 1.41216, 1.41095, 1.40974, 1.40884, 1.40697, 1.40446, 1.40088, 1.3989, 1.39695, 1.39551, 1.39563, 1.39376, 1.39448, 1.39368, 1.3932, 1.39305, 1.39242, 1.39073, 1.38958, 1.38864, 1.38548, 1.38152, 1.38167, 1.37438, 1.37364, 1.36618, 1.36636, 1.36427, 1.36355, 1.36395, 1.35809, 1.35997, 1.35941, 1.35666, 1.35458, 1.35315, 1.3516, 1.35164, 1.35018, 1.34841, 1.35079, 1.34902, 1.34859, 1.34775, 1.35082, 1.34103, 1.34051, 1.34444, 1.34748, 1.35793, 1.34865, 1.34473, 1.34541, 1.34944, 1.37976, 1.3731, 1.38206, 1.38405, 1.39274, 1.39145, 1.39064, 1.42902, 1.39551, 1.35785, 1.36088, 1.31411, 1.31081, 1.33718, 1.32542, 1.32268, 1.32444, 1.32389, 1.31391, 1.31075, 1.32304, 1.31679, 1.30311, 1.30958, 1.30069, 1.29706, 1.29988, 1.30077, 1.30185, 1.30181, 1.29918, 
1.64532, 1.64678, 1.64473, 1.64636, 1.66923, 1.66506, 1.67458, 1.64815, 1.64675, 1.63465, 1.62374, 1.63442, 1.61957, 1.61493, 1.61634, 1.61641, 1.61264, 1.60721, 1.60321, 1.63131, 1.63861, 1.65809, 1.70376, 1.69806, 1.70795, 1.712, 1.72327, 1.75902, 1.73874, 1.72397, 1.64379, 1.57912, 1.55751, 1.57948, 1.59625, 1.57458, 1.57547, 1.56473, 1.56445, 1.55686, 1.55472, 1.55175, 1.5482, 1.54762, 1.55062, 1.54034, 1.55654, 1.5469, 1.54518, 1.55975, 1.53713, 1.54761, 1.53868, 1.53782, 1.54309, 1.52623, 1.52508, 1.52461, 1.5229, 1.52094, 1.51783, 1.51539, 1.51204, 1.51023, 1.50687, 1.50381, 1.50171, 1.50052, 1.49872, 1.49902, 1.49757, 1.49424, 1.49409, 1.48995, 1.48954, 1.48816, 1.48826, 1.48636, 1.48212, 1.48107, 1.49592, 1.4782, 1.48202, 1.47458, 1.47351, 1.48929, 1.47712, 1.44223, 1.45793, 1.5273, 1.56164, 1.61525, 1.64416, 1.66939, 1.66651, 1.64519, 1.6549, 1.59664, 1.48531, 1.43032, 1.42081, 1.4538, 1.45811, 1.43759, 1.44464, 1.44832, 1.42854, 1.43419, 1.42453, 1.42484, 1.42283, 1.4224, 1.42085, 1.41746, 1.41676, 1.416, 1.4153, 1.4129, 1.4091, 1.41112, 1.41013, 1.40739, 1.40861, 1.40684, 1.40511, 1.40236, 1.39749, 1.39592, 1.39555, 1.3935, 1.39098, 1.39612, 1.39138, 1.39163, 1.38908, 1.39002, 1.38894, 1.38752, 1.38878, 1.38586, 1.38603, 1.3829, 1.38268, 1.38301, 1.38206, 1.37921, 1.37716, 1.37342, 1.37151, 1.36861, 1.36692, 1.36445, 1.36382, 1.36481, 1.36485, 1.36451, 1.36402, 1.36292, 1.36373, 1.36162, 1.36001, 1.36452, 1.3532, 1.34859, 1.34491, 1.34379, 1.344, 1.33998, 1.35812, 1.34127, 1.3484, 1.33072, 1.35107, 1.38464, 1.37894, 1.38543, 1.39001, 1.38851, 1.41516, 1.41053, 1.46725, 1.41095, 1.4031, 1.37504, 1.33809, 1.30363, 1.33064, 1.33481, 1.33288, 1.31972, 1.31878, 1.31564, 1.31258, 1.31168, 1.31006, 1.30804, 1.30708, 1.30458, 1.302, 1.30992, 1.30224, 1.29867, 1.29692, 1.29502, 
1.65068, 1.64963, 1.64932, 1.64397, 1.6445, 1.65843, 1.65305, 1.65757, 1.66791, 1.64597, 1.63496, 1.63023, 1.62228, 1.61766, 1.62299, 1.62506, 1.61675, 1.58503, 1.6174, 1.62655, 1.65358, 1.67684, 1.69178, 1.70557, 1.73078, 1.69254, 1.73806, 1.7068, 1.71734, 1.66226, 1.6472, 1.57518, 1.5546, 1.57839, 1.58274, 1.58232, 1.57387, 1.57164, 1.56952, 1.59311, 1.56573, 1.56161, 1.55862, 1.55597, 1.55209, 1.54865, 1.55521, 1.54442, 1.54521, 1.55962, 1.56572, 1.5554, 1.55821, 1.53681, 1.53415, 1.53243, 1.53056, 1.52876, 1.525, 1.52522, 1.52242, 1.52054, 1.52067, 1.51761, 1.51723, 1.51233, 1.5133, 1.5103, 1.50928, 1.50677, 1.50443, 1.50233, 1.50219, 1.49916, 1.49629, 1.51533, 1.49149, 1.48828, 1.48801, 1.48538, 1.48162, 1.4822, 1.48088, 1.48021, 1.48141, 1.48083, 1.47883, 1.47216, 1.49562, 1.53464, 1.51761, 1.61314, 1.64712, 1.67663, 1.68942, 1.68656, 1.65417, 1.56823, 1.53018, 1.43771, 1.41888, 1.44007, 1.44388, 1.45068, 1.44089, 1.4343, 1.43097, 1.43869, 1.42924, 1.42918, 1.43723, 1.4265, 1.42503, 1.42279, 1.42098, 1.42014, 1.41394, 1.41554, 1.41468, 1.41278, 1.4128, 1.41074, 1.41028, 1.41247, 1.40648, 1.40464, 1.40231, 1.40153, 1.399, 1.39745, 1.39665, 1.39512, 1.3949, 1.39183, 1.39216, 1.39166, 1.39176, 1.38945, 1.39009, 1.39148, 1.3875, 1.38855, 1.38653, 1.38493, 1.38383, 1.3785, 1.37393, 1.37417, 1.37367, 1.3735, 1.36942, 1.37023, 1.36853, 1.36799, 1.36774, 1.36625, 1.36601, 1.36245, 1.36292, 1.36133, 1.3603, 1.36089, 1.35907, 1.35972, 1.35705, 1.35734, 1.35641, 1.36047, 1.36181, 1.36748, 1.33942, 1.33946, 1.35935, 1.39824, 1.38091, 1.42365, 1.41776, 1.42964, 1.43467, 1.43424, 1.45236, 1.45087, 1.42942, 1.40764, 1.40718, 1.32382, 1.33769, 1.34085, 1.33942, 1.32719, 1.3253, 1.31762, 1.31272, 1.31185, 1.30773, 1.31002, 1.30615, 1.30555, 1.30508, 1.30545, 1.30284, 1.30446, 1.29984, 1.30695, 
1.65404, 1.65051, 1.64941, 1.65062, 1.64332, 1.64137, 1.64124, 1.64213, 1.65824, 1.66277, 1.67987, 1.65824, 1.64147, 1.64065, 1.63417, 1.65152, 1.64666, 1.62108, 1.61752, 1.6357, 1.71454, 1.70041, 1.7461, 1.73998, 1.76625, 1.82145, 1.7766, 1.78728, 1.75791, 1.75429, 1.65799, 1.58148, 1.57381, 1.59316, 1.59244, 1.59867, 1.59302, 1.58137, 1.57898, 1.57836, 1.58875, 1.57226, 1.56808, 1.56669, 1.57233, 1.56591, 1.56082, 1.55918, 1.5551, 1.56385, 1.56472, 1.56858, 1.55922, 1.56198, 1.55374, 1.54034, 1.53682, 1.53207, 1.53596, 1.52982, 1.52669, 1.52473, 1.52322, 1.52187, 1.51956, 1.51769, 1.51457, 1.51516, 1.51115, 1.51016, 1.5078, 1.50453, 1.50521, 1.50068, 1.49901, 1.49943, 1.49552, 1.49049, 1.4931, 1.49253, 1.49027, 1.48999, 1.49451, 1.4865, 1.48706, 1.48826, 1.48601, 1.46759, 1.4467, 1.48878, 1.55321, 1.61257, 1.60703, 1.64735, 1.6726, 1.68635, 1.66278, 1.61784, 1.56833, 1.50132, 1.42056, 1.43831, 1.45742, 1.45589, 1.46524, 1.45396, 1.44745, 1.4466, 1.44119, 1.44535, 1.4368, 1.43499, 1.43295, 1.43088, 1.42911, 1.4265, 1.42514, 1.42213, 1.42262, 1.42012, 1.42044, 1.41866, 1.41894, 1.41862, 1.41689, 1.4143, 1.41248, 1.41116, 1.40961, 1.40765, 1.40629, 1.40346, 1.40489, 1.40561, 1.40113, 1.39958, 1.40224, 1.40225, 1.39665, 1.39497, 1.39218, 1.39171, 1.38913, 1.38871, 1.38664, 1.38547, 1.38169, 1.38153, 1.3778, 1.37744, 1.37561, 1.37581, 1.37321, 1.37062, 1.37603, 1.36778, 1.36819, 1.36616, 1.36391, 1.36543, 1.36397, 1.36379, 1.36304, 1.36221, 1.35953, 1.35711, 1.3587, 1.36016, 1.35849, 1.36797, 1.35744, 1.33989, 1.36122, 1.37034, 1.38104, 1.41992, 1.40836, 1.42063, 1.4266, 1.4333, 1.43711, 1.43776, 1.43646, 1.39043, 1.3811, 1.36041, 1.33354, 1.33502, 1.34023, 1.34623, 1.33386, 1.33983, 1.32417, 1.32321, 1.31902, 1.31891, 1.31615, 1.31313, 1.31363, 1.31309, 1.31047, 1.30892, 1.30691, 1.31219, 
1.6619, 1.66145, 1.65732, 1.65556, 1.65651, 1.65198, 1.64873, 1.66133, 1.65119, 1.65119, 1.65904, 1.67611, 1.65104, 1.63782, 1.65521, 1.64051, 1.64754, 1.63456, 1.61732, 1.62851, 1.65758, 1.65896, 1.66328, 1.78444, 1.7432, 1.82593, 1.85045, 1.77604, 1.75321, 1.72832, 1.67464, 1.61986, 1.57351, 1.59041, 1.60087, 1.59855, 1.60082, 1.58327, 1.57744, 1.57327, 1.57118, 1.58206, 1.57518, 1.56545, 1.56616, 1.56331, 1.5619, 1.56797, 1.5753, 1.55873, 1.56826, 1.55193, 1.57482, 1.58651, 1.56211, 1.55461, 1.55859, 1.53884, 1.53703, 1.53314, 1.53191, 1.53154, 1.52864, 1.52692, 1.52464, 1.52371, 1.52191, 1.52036, 1.5196, 1.51659, 1.51442, 1.5136, 1.51067, 1.50619, 1.50584, 1.5038, 1.52444, 1.5009, 1.5092, 1.49829, 1.49747, 1.49415, 1.49014, 1.50128, 1.50586, 1.50057, 1.49505, 1.46813, 1.4683, 1.52783, 1.57134, 1.61046, 1.6554, 1.65212, 1.66054, 1.66916, 1.6656, 1.62096, 1.58096, 1.52973, 1.43394, 1.46111, 1.46698, 1.46991, 1.4655, 1.46597, 1.46095, 1.45094, 1.45467, 1.46701, 1.45263, 1.43995, 1.44494, 1.43699, 1.4339, 1.4321, 1.43013, 1.42783, 1.42534, 1.42358, 1.42184, 1.42241, 1.42258, 1.42185, 1.4203, 1.41893, 1.41801, 1.41475, 1.41261, 1.41288, 1.41296, 1.41166, 1.4123, 1.40919, 1.40761, 1.40606, 1.40564, 1.40251, 1.40069, 1.39814, 1.39379, 1.3924, 1.39142, 1.38923, 1.38756, 1.39236, 1.38451, 1.38221, 1.38084, 1.37762, 1.37394, 1.37294, 1.3689, 1.3687, 1.37028, 1.3652, 1.36614, 1.36386, 1.36103, 1.36061, 1.3608, 1.3594, 1.37512, 1.35822, 1.35734, 1.37552, 1.35857, 1.35916, 1.36398, 1.37422, 1.36505, 1.34727, 1.35129, 1.41037, 1.42026, 1.39871, 1.44152, 1.43774, 1.44923, 1.45475, 1.45832, 1.44071, 1.41348, 1.41221, 1.38663, 1.33758, 1.32428, 1.33474, 1.3458, 1.33993, 1.32716, 1.32597, 1.32281, 1.32337, 1.32882, 1.32979, 1.31899, 1.31819, 1.31617, 1.32191, 1.3164, 1.31437, 1.316, 1.32225, 
1.66674, 1.66507, 1.66323, 1.65991, 1.65806, 1.6545, 1.65243, 1.65071, 1.64792, 1.65442, 1.65901, 1.66957, 1.67889, 1.66484, 1.65138, 1.65202, 1.63723, 1.63124, 1.62298, 1.62247, 1.63426, 1.67477, 1.71091, 1.76313, 1.76955, 1.79764, 1.82651, 1.80703, 1.8202, 1.79624, 1.70452, 1.61729, 1.57136, 1.59647, 1.59705, 1.59797, 1.58928, 1.58572, 1.59852, 1.58593, 1.57942, 1.57448, 1.57413, 1.5781, 1.57264, 1.5699, 1.56602, 1.56399, 1.56202, 1.56239, 1.56036, 1.58024, 1.58103, 1.5811, 1.57458, 1.57227, 1.56344, 1.54892, 1.5488, 1.54135, 1.54688, 1.54678, 1.53398, 1.54387, 1.55939, 1.52984, 1.52685, 1.5256, 1.52392, 1.52431, 1.52121, 1.51937, 1.51813, 1.51396, 1.5208, 1.51138, 1.50877, 1.50667, 1.50559, 1.5057, 1.50186, 1.49899, 1.51685, 1.50321, 1.49261, 1.50673, 1.49983, 1.47789, 1.46794, 1.53338, 1.55548, 1.56265, 1.61574, 1.62627, 1.65369, 1.65455, 1.67269, 1.63324, 1.563, 1.52743, 1.44777, 1.45775, 1.46855, 1.47316, 1.46401, 1.46418, 1.4641, 1.46326, 1.45804, 1.45734, 1.45523, 1.45425, 1.45097, 1.44875, 1.44628, 1.44349, 1.43937, 1.43407, 1.43427, 1.43355, 1.43363, 1.43293, 1.42956, 1.42971, 1.42785, 1.42683, 1.42374, 1.42123, 1.41981, 1.41935, 1.41759, 1.41704, 1.41545, 1.41037, 1.41158, 1.40914, 1.40723, 1.40563, 1.40236, 1.40214, 1.40156, 1.39992, 1.39943, 1.39585, 1.39306, 1.39139, 1.38798, 1.38668, 1.38436, 1.38242, 1.38124, 1.37832, 1.37791, 1.37755, 1.37538, 1.37501, 1.37512, 1.37022, 1.36937, 1.36641, 1.36713, 1.36707, 1.36783, 1.36738, 1.36624, 1.36761, 1.37001, 1.38119, 1.37454, 1.38516, 1.36912, 1.36181, 1.35225, 1.39998, 1.42641, 1.45276, 1.46916, 1.509, 1.45552, 1.45723, 1.46636, 1.47553, 1.52953, 1.44842, 1.40915, 1.35143, 1.31462, 1.34543, 1.34018, 1.34689, 1.34289, 1.34046, 1.32421, 1.33765, 1.32663, 1.32627, 1.32303, 1.32213, 1.3189, 1.32261, 1.32041, 1.31785, 1.31889, 1.31936, 
1.66807, 1.66175, 1.6605, 1.66614, 1.65205, 1.64955, 1.66214, 1.64495, 1.64541, 1.65397, 1.64783, 1.64261, 1.65848, 1.67793, 1.66493, 1.65441, 1.62802, 1.63883, 1.61579, 1.63173, 1.66415, 1.69958, 1.72788, 1.74548, 1.75489, 1.80522, 1.81451, 1.80527, 1.81184, 1.76868, 1.75791, 1.66092, 1.57989, 1.58698, 1.60972, 1.60906, 1.59228, 1.58708, 1.58512, 1.58444, 1.58176, 1.57974, 1.5786, 1.57574, 1.5714, 1.57162, 1.57099, 1.56505, 1.56452, 1.563, 1.56177, 1.56011, 1.56524, 1.56148, 1.5598, 1.55738, 1.57785, 1.55949, 1.5657, 1.54502, 1.54454, 1.53751, 1.53661, 1.5357, 1.53338, 1.53204, 1.53045, 1.52949, 1.52692, 1.52448, 1.52141, 1.5183, 1.51469, 1.51119, 1.50936, 1.50786, 1.51586, 1.50218, 1.50255, 1.50101, 1.49896, 1.49746, 1.49667, 1.49665, 1.49691, 1.49882, 1.49681, 1.49228, 1.48018, 1.49569, 1.56184, 1.56918, 1.63342, 1.65801, 1.67092, 1.68229, 1.66475, 1.64026, 1.58159, 1.52159, 1.44297, 1.42785, 1.46436, 1.47516, 1.47631, 1.45527, 1.47234, 1.4624, 1.45405, 1.44875, 1.44558, 1.44515, 1.44382, 1.44025, 1.43858, 1.43926, 1.43489, 1.43673, 1.43452, 1.43121, 1.43049, 1.43036, 1.43011, 1.43051, 1.42735, 1.42454, 1.42446, 1.42461, 1.42184, 1.42183, 1.44596, 1.41913, 1.4173, 1.41524, 1.41379, 1.41292, 1.41225, 1.41094, 1.41021, 1.40715, 1.40562, 1.40593, 1.40435, 1.40163, 1.39975, 1.39689, 1.39902, 1.39283, 1.39055, 1.39105, 1.39106, 1.3892, 1.38585, 1.38329, 1.38147, 1.37928, 1.37635, 1.38472, 1.37534, 1.38163, 1.37483, 1.38154, 1.37434, 1.37056, 1.37047, 1.37056, 1.37082, 1.37489, 1.39143, 1.37978, 1.38129, 1.34837, 1.35767, 1.3697, 1.4507, 1.4586, 1.48273, 1.47226, 1.47218, 1.47308, 1.48331, 1.47587, 1.46143, 1.42394, 1.41196, 1.3823, 1.31956, 1.3377, 1.34663, 1.3372, 1.33356, 1.32936, 1.32942, 1.33263, 1.33245, 1.33056, 1.33053, 1.32903, 1.32932, 1.32751, 1.32589, 1.32611, 1.3235, 1.32335, 
1.66733, 1.66544, 1.66169, 1.6602, 1.65786, 1.65511, 1.65463, 1.64732, 1.64451, 1.65125, 1.64106, 1.65936, 1.64101, 1.65201, 1.66173, 1.65606, 1.64111, 1.62428, 1.61435, 1.62783, 1.63079, 1.686, 1.69411, 1.75444, 1.82854, 1.82118, 1.82165, 1.82309, 1.84095, 1.77227, 1.67566, 1.67381, 1.57943, 1.60135, 1.59617, 1.58892, 1.5859, 1.58183, 1.57888, 1.5855, 1.57506, 1.57441, 1.57346, 1.58213, 1.56874, 1.56552, 1.56413, 1.56099, 1.56008, 1.55861, 1.55637, 1.55446, 1.55208, 1.54903, 1.54473, 1.54645, 1.54838, 1.54523, 1.55163, 1.5513, 1.5472, 1.52882, 1.52742, 1.52802, 1.52942, 1.52969, 1.53, 1.52808, 1.53034, 1.51985, 1.51688, 1.51276, 1.50992, 1.50657, 1.51048, 1.49618, 1.49353, 1.48864, 1.48964, 1.49236, 1.488, 1.48795, 1.49613, 1.48885, 1.48902, 1.50203, 1.50306, 1.50684, 1.46971, 1.48247, 1.53248, 1.59972, 1.62421, 1.65419, 1.66434, 1.60266, 1.61338, 1.63068, 1.5924, 1.52283, 1.47852, 1.44662, 1.46849, 1.48506, 1.45915, 1.46055, 1.45524, 1.45525, 1.44955, 1.45071, 1.44776, 1.4373, 1.43647, 1.4338, 1.43355, 1.43269, 1.43244, 1.43183, 1.43176, 1.42947, 1.42817, 1.42397, 1.42341, 1.42936, 1.41878, 1.41599, 1.4159, 1.41808, 1.4189, 1.41731, 1.41732, 1.4147, 1.41959, 1.4126, 1.41047, 1.40852, 1.40775, 1.40607, 1.40323, 1.40596, 1.40339, 1.40315, 1.40001, 1.40016, 1.3988, 1.3969, 1.39583, 1.39317, 1.39166, 1.39035, 1.38636, 1.38528, 1.38102, 1.37925, 1.37928, 1.37669, 1.37554, 1.38104, 1.37617, 1.37478, 1.36911, 1.37318, 1.38872, 1.37825, 1.36868, 1.37382, 1.36497, 1.37723, 1.37099, 1.3767, 1.37418, 1.35827, 1.35222, 1.40973, 1.42963, 1.47206, 1.50318, 1.46536, 1.47865, 1.51039, 1.50696, 1.50971, 1.46639, 1.46924, 1.48425, 1.41782, 1.31525, 1.32644, 1.3548, 1.34064, 1.34247, 1.33556, 1.33438, 1.33361, 1.33256, 1.34762, 1.32966, 1.32981, 1.32549, 1.32389, 1.32122, 1.32241, 1.32017, 1.3186, 
1.681, 1.67831, 1.66918, 1.66804, 1.66869, 1.66817, 1.66622, 1.66573, 1.67248, 1.66293, 1.66878, 1.65814, 1.66069, 1.67186, 1.65635, 1.65546, 1.64943, 1.64764, 1.64198, 1.61655, 1.63367, 1.67174, 1.71292, 1.75432, 1.75647, 1.8289, 1.84035, 1.83798, 1.82723, 1.76815, 1.74299, 1.66243, 1.58969, 1.61672, 1.60354, 1.61363, 1.6061, 1.59541, 1.60328, 1.60082, 1.59245, 1.59564, 1.58343, 1.58291, 1.57873, 1.57853, 1.5767, 1.57643, 1.57645, 1.57467, 1.56998, 1.56486, 1.56465, 1.56207, 1.55846, 1.55774, 1.55759, 1.55792, 1.56927, 1.56235, 1.5697, 1.55755, 1.54899, 1.54695, 1.54701, 1.54034, 1.52953, 1.53023, 1.52909, 1.53055, 1.53124, 1.52838, 1.52407, 1.52102, 1.5232, 1.52597, 1.51752, 1.51539, 1.51586, 1.51544, 1.51102, 1.50997, 1.50853, 1.51673, 1.51662, 1.51139, 1.52212, 1.51506, 1.48236, 1.49921, 1.56239, 1.58932, 1.60547, 1.63404, 1.65339, 1.64753, 1.64465, 1.63305, 1.61984, 1.5766, 1.51078, 1.45858, 1.44367, 1.47433, 1.46429, 1.48115, 1.48616, 1.47331, 1.48255, 1.46302, 1.46145, 1.46218, 1.45456, 1.45456, 1.45212, 1.4537, 1.4513, 1.4499, 1.44775, 1.44428, 1.44129, 1.43667, 1.43472, 1.43132, 1.43055, 1.43134, 1.43279, 1.43375, 1.43571, 1.43583, 1.43402, 1.42894, 1.42567, 1.45661, 1.42176, 1.42135, 1.4174, 1.41972, 1.41887, 1.41768, 1.41407, 1.41383, 1.41281, 1.40732, 1.40702, 1.40503, 1.40155, 1.40556, 1.40101, 1.39974, 1.40018, 1.39805, 1.39579, 1.39444, 1.39135, 1.39953, 1.38859, 1.38702, 1.38618, 1.38365, 1.38144, 1.37808, 1.38559, 1.37907, 1.37789, 1.37734, 1.38453, 1.37967, 1.3825, 1.38337, 1.3748, 1.37542, 1.36314, 1.41037, 1.41581, 1.47249, 1.52288, 1.53052, 1.50921, 1.52082, 1.51821, 1.51788, 1.48182, 1.49133, 1.45858, 1.39487, 1.33286, 1.34464, 1.35903, 1.35822, 1.3545, 1.35777, 1.34008, 1.34956, 1.33969, 1.33982, 1.33995, 1.34001, 1.33935, 1.3358, 1.35085, 1.33736, 1.34064, 1.32659, 
1.67511, 1.67634, 1.66614, 1.66136, 1.66485, 1.65793, 1.68274, 1.67206, 1.67995, 1.66059, 1.66795, 1.65883, 1.65363, 1.65053, 1.63988, 1.64622, 1.64868, 1.63421, 1.65858, 1.60808, 1.62637, 1.66852, 1.68936, 1.71464, 1.76348, 1.82852, 1.85803, 1.8729, 1.87856, 1.87566, 1.80119, 1.67204, 1.6155, 1.61134, 1.62383, 1.61132, 1.6082, 1.60605, 1.60182, 1.59497, 1.60338, 1.6037, 1.57325, 1.57607, 1.57443, 1.58325, 1.58865, 1.59542, 1.57403, 1.57099, 1.56225, 1.561, 1.55914, 1.56567, 1.56552, 1.54928, 1.55751, 1.54861, 1.54648, 1.54804, 1.54861, 1.56744, 1.55487, 1.54546, 1.54215, 1.55362, 1.53756, 1.53771, 1.54177, 1.53223, 1.53058, 1.52779, 1.52633, 1.52249, 1.51652, 1.51226, 1.51125, 1.51662, 1.5206, 1.51456, 1.51306, 1.50973, 1.50979, 1.51107, 1.50218, 1.51636, 1.50641, 1.50829, 1.49268, 1.48085, 1.51346, 1.57523, 1.67564, 1.62596, 1.63715, 1.65684, 1.65707, 1.64402, 1.64206, 1.54485, 1.51316, 1.45021, 1.44365, 1.46803, 1.46522, 1.46268, 1.4757, 1.49075, 1.47116, 1.46763, 1.45851, 1.45884, 1.47023, 1.4632, 1.4571, 1.45085, 1.44314, 1.43673, 1.43526, 1.43431, 1.42952, 1.42475, 1.42618, 1.42673, 1.41818, 1.42163, 1.42345, 1.4344, 1.43327, 1.43692, 1.42658, 1.42365, 1.4129, 1.40914, 1.40357, 1.40111, 1.39787, 1.39549, 1.39446, 1.39378, 1.39407, 1.39072, 1.38902, 1.3856, 1.38578, 1.38702, 1.38319, 1.38005, 1.37645, 1.37498, 1.38908, 1.37804, 1.37964, 1.38241, 1.38458, 1.38743, 1.38883, 1.38837, 1.38949, 1.38817, 1.37852, 1.3677, 1.37546, 1.36092, 1.36101, 1.3601, 1.36739, 1.35841, 1.3698, 1.38087, 1.3785, 1.38288, 1.34897, 1.36192, 1.4095, 1.5059, 1.46164, 1.47205, 1.48639, 1.56253, 1.5177, 1.53373, 1.46405, 1.46715, 1.41683, 1.35079, 1.32156, 1.29784, 1.3622, 1.35535, 1.34784, 1.3509, 1.34346, 1.33909, 1.34294, 1.33291, 1.32699, 1.32252, 1.31654, 1.31414, 1.32242, 1.31525, 1.31242, 1.31474, 
1.66783, 1.66365, 1.66238, 1.66469, 1.65899, 1.65886, 1.65896, 1.65784, 1.65755, 1.65564, 1.64779, 1.64425, 1.66609, 1.63758, 1.63581, 1.64095, 1.64153, 1.64462, 1.64657, 1.61693, 1.63011, 1.6636, 1.72031, 1.73662, 1.77047, 1.79369, 1.83499, 1.85472, 1.87893, 1.78215, 1.70753, 1.65863, 1.60217, 1.61301, 1.603, 1.60345, 1.59819, 1.59396, 1.58959, 1.58593, 1.58194, 1.57647, 1.58955, 1.57065, 1.56773, 1.56473, 1.56392, 1.58936, 1.55877, 1.55931, 1.56073, 1.56109, 1.56073, 1.5571, 1.55469, 1.55211, 1.54947, 1.55004, 1.54799, 1.54783, 1.54664, 1.55773, 1.55002, 1.55339, 1.54529, 1.54688, 1.53681, 1.52522, 1.53363, 1.51973, 1.51829, 1.51933, 1.51919, 1.51755, 1.51482, 1.51423, 1.51221, 1.51006, 1.51085, 1.50945, 1.5071, 1.50738, 1.50261, 1.50684, 1.49909, 1.50238, 1.51728, 1.50413, 1.50522, 1.47777, 1.5239, 1.55867, 1.57544, 1.61276, 1.63209, 1.63621, 1.62813, 1.61992, 1.60208, 1.5467, 1.5472, 1.48556, 1.44375, 1.45773, 1.47146, 1.46611, 1.45967, 1.47199, 1.48515, 1.47588, 1.46178, 1.45203, 1.45844, 1.44263, 1.44095, 1.438, 1.44295, 1.4295, 1.42857, 1.42858, 1.42829, 1.42978, 1.43018, 1.4304, 1.42949, 1.42863, 1.42607, 1.42513, 1.42317, 1.42171, 1.42245, 1.42306, 1.41901, 1.41405, 1.41409, 1.41492, 1.41037, 1.41044, 1.4105, 1.41135, 1.40646, 1.40253, 1.40153, 1.40012, 1.4001, 1.39592, 1.39393, 1.39128, 1.38901, 1.38899, 1.38769, 1.38465, 1.38158, 1.37971, 1.38088, 1.38087, 1.37878, 1.378, 1.37763, 1.37731, 1.37706, 1.38234, 1.37543, 1.38565, 1.37286, 1.37092, 1.37108, 1.36922, 1.36985, 1.37177, 1.37565, 1.37245, 1.35063, 1.36064, 1.43681, 1.44076, 1.45393, 1.47509, 1.48622, 1.51093, 1.51208, 1.5123, 1.48854, 1.48704, 1.4513, 1.40246, 1.32297, 1.34647, 1.35035, 1.34818, 1.35352, 1.33753, 1.33634, 1.33239, 1.33047, 1.32886, 1.32524, 1.32497, 1.34488, 1.32434, 1.32571, 1.32495, 1.32641, 1.3247, 
1.67039, 1.66823, 1.66864, 1.66458, 1.66197, 1.66027, 1.66476, 1.6528, 1.67577, 1.64718, 1.64508, 1.64363, 1.66013, 1.6407, 1.63814, 1.6345, 1.633, 1.64054, 1.64715, 1.62845, 1.61261, 1.65332, 1.65866, 1.68905, 1.74765, 1.79832, 1.82679, 1.8622, 1.89141, 1.82042, 1.72064, 1.65225, 1.57847, 1.57981, 1.60746, 1.60552, 1.5982, 1.59438, 1.60267, 1.58286, 1.58844, 1.58606, 1.58341, 1.57854, 1.57435, 1.57882, 1.5718, 1.58364, 1.58536, 1.56243, 1.55954, 1.55605, 1.55226, 1.55068, 1.5546, 1.56439, 1.54419, 1.54153, 1.54753, 1.53824, 1.53782, 1.53744, 1.551, 1.53458, 1.5406, 1.54798, 1.54219, 1.54709, 1.5324, 1.53023, 1.53293, 1.52057, 1.52327, 1.5293, 1.51495, 1.54157, 1.51321, 1.50863, 1.50678, 1.50013, 1.49757, 1.49938, 1.49969, 1.50161, 1.50567, 1.50242, 1.50906, 1.50305, 1.50547, 1.46743, 1.50369, 1.5732, 1.57441, 1.60038, 1.63465, 1.63775, 1.64736, 1.61625, 1.57759, 1.56402, 1.51292, 1.47231, 1.43097, 1.4637, 1.46429, 1.46686, 1.47823, 1.45929, 1.4712, 1.4586, 1.46764, 1.45147, 1.44421, 1.44423, 1.43469, 1.44385, 1.43861, 1.43542, 1.43441, 1.43562, 1.43306, 1.43183, 1.43135, 1.42879, 1.43041, 1.42493, 1.42336, 1.42261, 1.43617, 1.42095, 1.41773, 1.41953, 1.43671, 1.41302, 1.41184, 1.41132, 1.41006, 1.40866, 1.40829, 1.40717, 1.40401, 1.40062, 1.39824, 1.39467, 1.39357, 1.39161, 1.38984, 1.3901, 1.3862, 1.38326, 1.38209, 1.38116, 1.37956, 1.38834, 1.39174, 1.37757, 1.37863, 1.37743, 1.37508, 1.37924, 1.39229, 1.37127, 1.36876, 1.36637, 1.38157, 1.37727, 1.37345, 1.36106, 1.37443, 1.36831, 1.37181, 1.36705, 1.32623, 1.33651, 1.39305, 1.42262, 1.4303, 1.46608, 1.47676, 1.49225, 1.52674, 1.53072, 1.55494, 1.51213, 1.47813, 1.45057, 1.36185, 1.35905, 1.35402, 1.36372, 1.35641, 1.34365, 1.3441, 1.33162, 1.3502, 1.34063, 1.33242, 1.32595, 1.33334, 1.34721, 1.3235, 1.32087, 1.32222, 1.31799, 
1.65792, 1.66124, 1.6526, 1.65057, 1.64764, 1.65337, 1.67215, 1.64099, 1.63787, 1.64117, 1.63986, 1.63561, 1.62127, 1.6181, 1.62034, 1.61494, 1.62074, 1.61833, 1.61069, 1.59333, 1.56904, 1.59405, 1.6134, 1.63563, 1.73074, 1.77508, 1.81236, 1.8505, 1.84944, 1.83423, 1.75455, 1.70407, 1.6135, 1.56687, 1.5891, 1.58918, 1.5849, 1.58166, 1.57324, 1.57145, 1.56914, 1.57463, 1.56334, 1.56089, 1.5681, 1.55819, 1.55487, 1.55192, 1.5508, 1.54894, 1.54737, 1.54697, 1.54562, 1.54367, 1.54066, 1.55751, 1.53483, 1.53112, 1.52982, 1.52692, 1.52484, 1.52215, 1.52073, 1.51124, 1.51274, 1.51221, 1.54374, 1.53083, 1.5208, 1.52284, 1.53612, 1.51683, 1.52749, 1.51148, 1.50464, 1.49763, 1.49724, 1.49508, 1.49381, 1.49141, 1.48955, 1.48774, 1.49262, 1.49018, 1.47993, 1.48464, 1.4865, 1.49297, 1.4933, 1.46801, 1.46045, 1.52363, 1.56759, 1.65531, 1.63085, 1.63746, 1.63373, 1.61118, 1.584, 1.56482, 1.54081, 1.54867, 1.4492, 1.43427, 1.45095, 1.46054, 1.45603, 1.44141, 1.44096, 1.45204, 1.46415, 1.45718, 1.44546, 1.42401, 1.42668, 1.42431, 1.43114, 1.41932, 1.41879, 1.41747, 1.41664, 1.41561, 1.41346, 1.41038, 1.4074, 1.40511, 1.40333, 1.40145, 1.39961, 1.39806, 1.39655, 1.39678, 1.39387, 1.39231, 1.39227, 1.38775, 1.3856, 1.3831, 1.38213, 1.38087, 1.38075, 1.38154, 1.38004, 1.3795, 1.38051, 1.37931, 1.37766, 1.37824, 1.37253, 1.3718, 1.36908, 1.36668, 1.36622, 1.36408, 1.36345, 1.36406, 1.36023, 1.36, 1.35776, 1.35619, 1.35349, 1.35121, 1.35045, 1.35023, 1.34882, 1.34731, 1.3464, 1.34455, 1.34335, 1.34401, 1.34385, 1.34991, 1.31975, 1.34219, 1.39219, 1.42409, 1.49163, 1.47414, 1.48913, 1.48823, 1.50581, 1.53297, 1.52405, 1.51307, 1.49168, 1.41695, 1.34166, 1.30752, 1.32937, 1.33643, 1.33041, 1.31672, 1.31519, 1.31241, 1.31551, 1.30847, 1.31251, 1.33759, 1.30414, 1.30634, 1.30377, 1.3054, 1.32733, 1.30443, 
1.64814, 1.64426, 1.6438, 1.63799, 1.63677, 1.63503, 1.64668, 1.64108, 1.62769, 1.62364, 1.62517, 1.63472, 1.62161, 1.62394, 1.62408, 1.62321, 1.62809, 1.63048, 1.62171, 1.6176, 1.59562, 1.62775, 1.64733, 1.69542, 1.75782, 1.81985, 1.82089, 1.86905, 1.87177, 1.87218, 1.72406, 1.69052, 1.61736, 1.56166, 1.60335, 1.59478, 1.5803, 1.58194, 1.58165, 1.56833, 1.56794, 1.56862, 1.56481, 1.55851, 1.5575, 1.55204, 1.56939, 1.5451, 1.54515, 1.53982, 1.53805, 1.53978, 1.5444, 1.54256, 1.5403, 1.53761, 1.53413, 1.53042, 1.52885, 1.52612, 1.52364, 1.52074, 1.51969, 1.5173, 1.52238, 1.51936, 1.5226, 1.52129, 1.52734, 1.54344, 1.53122, 1.50448, 1.5021, 1.50051, 1.50211, 1.49851, 1.49691, 1.49672, 1.4898, 1.49002, 1.50206, 1.48773, 1.48585, 1.48346, 1.49271, 1.48484, 1.48868, 1.49036, 1.48513, 1.47169, 1.46084, 1.49172, 1.52419, 1.56783, 1.59343, 1.60667, 1.59717, 1.60277, 1.58946, 1.57515, 1.51284, 1.4886, 1.46386, 1.43373, 1.46897, 1.44996, 1.46062, 1.4402, 1.44006, 1.44764, 1.44451, 1.45105, 1.4577, 1.441, 1.45156, 1.43844, 1.42471, 1.42068, 1.41885, 1.41632, 1.41333, 1.41264, 1.41357, 1.41322, 1.41261, 1.41567, 1.41314, 1.41069, 1.4073, 1.40569, 1.39969, 1.39887, 1.42298, 1.40285, 1.39767, 1.39751, 1.39593, 1.3955, 1.39509, 1.39354, 1.39176, 1.38966, 1.38749, 1.40215, 1.38692, 1.3856, 1.38497, 1.38336, 1.38226, 1.37865, 1.37825, 1.37828, 1.37316, 1.37676, 1.36771, 1.36756, 1.36543, 1.3649, 1.36363, 1.36367, 1.36077, 1.36612, 1.37756, 1.35804, 1.35505, 1.35325, 1.3534, 1.35043, 1.35617, 1.35259, 1.35719, 1.35712, 1.36812, 1.35129, 1.39233, 1.42465, 1.45195, 1.45946, 1.4753, 1.51393, 1.52009, 1.53812, 1.52879, 1.51454, 1.48128, 1.39165, 1.34313, 1.30908, 1.33236, 1.32214, 1.32156, 1.318, 1.31557, 1.31226, 1.31326, 1.31033, 1.31009, 1.31074, 1.31171, 1.30967, 1.30853, 1.30726, 1.30543, 1.30374, 
1.66104, 1.65789, 1.65858, 1.65466, 1.65117, 1.65118, 1.64781, 1.64352, 1.64142, 1.64529, 1.63808, 1.63388, 1.63801, 1.63047, 1.62666, 1.62526, 1.63098, 1.62768, 1.62728, 1.61784, 1.5962, 1.60825, 1.63178, 1.67367, 1.71887, 1.7862, 1.8283, 1.84916, 1.88491, 1.86062, 1.80071, 1.73082, 1.61853, 1.5681, 1.58595, 1.59369, 1.58527, 1.58234, 1.5759, 1.57196, 1.5702, 1.56582, 1.56313, 1.56105, 1.55936, 1.5572, 1.55629, 1.55468, 1.55221, 1.55036, 1.55088, 1.54708, 1.54453, 1.54449, 1.5402, 1.53804, 1.53713, 1.53426, 1.5344, 1.53006, 1.52697, 1.52719, 1.52282, 1.52642, 1.51906, 1.52064, 1.51437, 1.51722, 1.51307, 1.52068, 1.51429, 1.53022, 1.51555, 1.50114, 1.49876, 1.49931, 1.49319, 1.49408, 1.49807, 1.48866, 1.50997, 1.48534, 1.48366, 1.48554, 1.48165, 1.49045, 1.49224, 1.49537, 1.48552, 1.45239, 1.46753, 1.49287, 1.5099, 1.55226, 1.59329, 1.64531, 1.60644, 1.5898, 1.57302, 1.58492, 1.55955, 1.52462, 1.4484, 1.41375, 1.45499, 1.44865, 1.45787, 1.44049, 1.43691, 1.43488, 1.44468, 1.43549, 1.44106, 1.44397, 1.45506, 1.44694, 1.43784, 1.42434, 1.41983, 1.41834, 1.41678, 1.41527, 1.41338, 1.41254, 1.4107, 1.40994, 1.40787, 1.40697, 1.40505, 1.40402, 1.40145, 1.40051, 1.39979, 1.39599, 1.39458, 1.39405, 1.39203, 1.39134, 1.39107, 1.38879, 1.38843, 1.38533, 1.38549, 1.38276, 1.38077, 1.37831, 1.37747, 1.37482, 1.37298, 1.3715, 1.37058, 1.36921, 1.3669, 1.36462, 1.36423, 1.36375, 1.36177, 1.36035, 1.35867, 1.35948, 1.35922, 1.35706, 1.35675, 1.35691, 1.35336, 1.35366, 1.36519, 1.35099, 1.3571, 1.35166, 1.36694, 1.35469, 1.34285, 1.32673, 1.35385, 1.41516, 1.43816, 1.47481, 1.51818, 1.53027, 1.563, 1.56052, 1.55915, 1.54007, 1.42755, 1.40302, 1.36839, 1.30418, 1.34171, 1.33263, 1.34033, 1.32318, 1.32373, 1.32582, 1.32587, 1.33035, 1.31613, 1.31489, 1.31231, 1.32241, 1.31091, 1.30935, 1.3082, 1.30539, 
1.65724, 1.65333, 1.65272, 1.64799, 1.64598, 1.64422, 1.64092, 1.64018, 1.63717, 1.63393, 1.63268, 1.63107, 1.62939, 1.62675, 1.6262, 1.62281, 1.62109, 1.62671, 1.62, 1.63292, 1.60189, 1.59067, 1.65199, 1.66916, 1.70851, 1.73647, 1.76764, 1.82895, 1.92119, 1.94646, 1.80199, 1.70352, 1.5835, 1.56772, 1.58635, 1.58697, 1.58116, 1.57437, 1.5726, 1.56901, 1.56641, 1.56443, 1.56206, 1.55961, 1.55782, 1.55838, 1.5583, 1.55371, 1.55358, 1.55248, 1.55024, 1.54819, 1.54641, 1.54361, 1.54112, 1.5373, 1.53697, 1.5352, 1.53516, 1.53113, 1.5293, 1.5279, 1.52602, 1.52307, 1.51912, 1.51803, 1.51435, 1.51394, 1.51365, 1.51101, 1.52044, 1.52265, 1.51988, 1.50978, 1.49856, 1.49875, 1.49765, 1.5048, 1.49392, 1.49204, 1.49147, 1.48936, 1.48691, 1.48685, 1.48546, 1.48524, 1.49237, 1.4859, 1.48944, 1.45723, 1.4581, 1.49336, 1.52023, 1.56963, 1.58334, 1.57123, 1.63106, 1.61618, 1.57307, 1.57498, 1.52206, 1.53344, 1.48272, 1.43908, 1.46189, 1.47227, 1.45204, 1.44777, 1.44027, 1.43668, 1.43545, 1.43429, 1.43361, 1.43194, 1.43905, 1.4547, 1.45515, 1.44261, 1.42275, 1.41905, 1.42282, 1.41394, 1.41312, 1.41185, 1.40918, 1.40842, 1.40657, 1.40567, 1.40545, 1.40555, 1.40216, 1.40085, 1.40014, 1.40021, 1.40953, 1.39637, 1.3946, 1.39445, 1.39124, 1.38989, 1.38798, 1.38638, 1.38444, 1.38319, 1.38178, 1.3793, 1.37725, 1.37487, 1.37168, 1.37113, 1.36909, 1.36793, 1.36641, 1.36504, 1.36477, 1.36386, 1.36151, 1.36107, 1.3599, 1.35908, 1.35869, 1.35655, 1.3569, 1.35492, 1.35352, 1.3522, 1.3496, 1.3468, 1.34517, 1.34522, 1.34664, 1.35517, 1.35028, 1.32363, 1.34774, 1.39988, 1.41915, 1.444, 1.49247, 1.38151, 1.38656, 1.56472, 1.56584, 1.54882, 1.48882, 1.37875, 1.34451, 1.31256, 1.34304, 1.33734, 1.33239, 1.33764, 1.32909, 1.32645, 1.32349, 1.32532, 1.32623, 1.31917, 1.3158, 1.31442, 1.31448, 1.31295, 1.31226, 1.30915, 
1.65497, 1.65274, 1.64755, 1.64848, 1.6459, 1.64418, 1.64151, 1.6372, 1.63436, 1.63262, 1.62893, 1.62709, 1.62547, 1.62424, 1.62113, 1.61999, 1.61994, 1.62192, 1.62034, 1.63025, 1.60371, 1.58735, 1.60909, 1.65876, 1.72991, 1.74778, 1.76989, 1.82065, 1.92727, 1.99369, 1.85535, 1.744, 1.5961, 1.5646, 1.58659, 1.58938, 1.59562, 1.57531, 1.57268, 1.58226, 1.56853, 1.56595, 1.56337, 1.55975, 1.5586, 1.55829, 1.55494, 1.55187, 1.55077, 1.54517, 1.54329, 1.5431, 1.54016, 1.5391, 1.53755, 1.54006, 1.53409, 1.53282, 1.53218, 1.53377, 1.52653, 1.52478, 1.52332, 1.52077, 1.51935, 1.51733, 1.5249, 1.51583, 1.51343, 1.51346, 1.51021, 1.50708, 1.50356, 1.5515, 1.51321, 1.52059, 1.49969, 1.49702, 1.49663, 1.49417, 1.50352, 1.50039, 1.48725, 1.48566, 1.48795, 1.48668, 1.48665, 1.48463, 1.47814, 1.45512, 1.46575, 1.48886, 1.49571, 1.50338, 1.58592, 1.58875, 1.59761, 1.55701, 1.55838, 1.56045, 1.53293, 1.48921, 1.43948, 1.44854, 1.44202, 1.45117, 1.47434, 1.45452, 1.44702, 1.44115, 1.43828, 1.43628, 1.43425, 1.43341, 1.43097, 1.42919, 1.44425, 1.44673, 1.45691, 1.43035, 1.42309, 1.41338, 1.41987, 1.41238, 1.40813, 1.40867, 1.40782, 1.40664, 1.40522, 1.40568, 1.40685, 1.40301, 1.40209, 1.40053, 1.39906, 1.3987, 1.39679, 1.3943, 1.40039, 1.38977, 1.38823, 1.38695, 1.3857, 1.38407, 1.38429, 1.38225, 1.38033, 1.37796, 1.37776, 1.37542, 1.37269, 1.37049, 1.36633, 1.3655, 1.36206, 1.36065, 1.35894, 1.3577, 1.35446, 1.35126, 1.352, 1.35422, 1.355, 1.35502, 1.35077, 1.3499, 1.34896, 1.34987, 1.34593, 1.34659, 1.36005, 1.35812, 1.34792, 1.32728, 1.3512, 1.39938, 1.41289, 1.44958, 1.48495, 1.54755, 1.54025, 1.60244, 1.60642, 1.61975, 1.52015, 1.44484, 1.34025, 1.28794, 1.32736, 1.33026, 1.33979, 1.3256, 1.32345, 1.31404, 1.31539, 1.3164, 1.31517, 1.30987, 1.31124, 1.31103, 1.31249, 1.31323, 1.30698, 1.30853, 
1.6525, 1.64989, 1.64655, 1.64681, 1.64397, 1.64237, 1.63469, 1.63371, 1.63147, 1.6386, 1.62724, 1.62467, 1.62209, 1.62114, 1.62165, 1.62071, 1.62031, 1.62074, 1.63957, 1.62017, 1.63463, 1.59143, 1.61716, 1.67723, 1.74101, 1.77524, 1.77842, 1.79744, 1.93722, 1.97605, 1.90098, 1.6425, 1.62806, 1.56311, 1.57943, 1.58586, 1.58817, 1.58161, 1.57893, 1.5712, 1.56669, 1.56598, 1.56822, 1.56163, 1.55931, 1.55943, 1.55659, 1.5524, 1.55184, 1.55051, 1.54442, 1.54125, 1.53881, 1.53867, 1.53808, 1.53629, 1.53219, 1.53083, 1.528, 1.52881, 1.5252, 1.51975, 1.51739, 1.51583, 1.51326, 1.51237, 1.51145, 1.50567, 1.50442, 1.50294, 1.5025, 1.50293, 1.50166, 1.51108, 1.51269, 1.52075, 1.5109, 1.52296, 1.50605, 1.49247, 1.48914, 1.49031, 1.48577, 1.50012, 1.48178, 1.48301, 1.49109, 1.48233, 1.48559, 1.46142, 1.47448, 1.49297, 1.5654, 1.60311, 1.61482, 1.55231, 1.56574, 1.55116, 1.54076, 1.54824, 1.51957, 1.5554, 1.49049, 1.43655, 1.4172, 1.45081, 1.46421, 1.45902, 1.45159, 1.43751, 1.43421, 1.43158, 1.43024, 1.42797, 1.43329, 1.42493, 1.43293, 1.43496, 1.4506, 1.43572, 1.4372, 1.43204, 1.41039, 1.40869, 1.40681, 1.42354, 1.40577, 1.40497, 1.40564, 1.40423, 1.4032, 1.40188, 1.39883, 1.39841, 1.39851, 1.39629, 1.39361, 1.39192, 1.39084, 1.39042, 1.38811, 1.38701, 1.38581, 1.38623, 1.38553, 1.3846, 1.38453, 1.38226, 1.38018, 1.37801, 1.37431, 1.3713, 1.36939, 1.36591, 1.3647, 1.36443, 1.35905, 1.35827, 1.35877, 1.35689, 1.35667, 1.35691, 1.35437, 1.35405, 1.35427, 1.35413, 1.36137, 1.35305, 1.35158, 1.36382, 1.36219, 1.37028, 1.37126, 1.33946, 1.3305, 1.42475, 1.44335, 1.4656, 1.51669, 1.54442, 1.57632, 1.59268, 1.5904, 1.56452, 1.47945, 1.40422, 1.36333, 1.32067, 1.34037, 1.33675, 1.33578, 1.32215, 1.31879, 1.31956, 1.32048, 1.31685, 1.31446, 1.32891, 1.32376, 1.31379, 1.31275, 1.31091, 1.30998, 1.30898, 
1.65219, 1.64907, 1.64751, 1.64525, 1.64108, 1.63791, 1.63484, 1.63311, 1.63024, 1.62999, 1.62874, 1.6255, 1.62483, 1.62291, 1.62305, 1.6238, 1.62771, 1.61932, 1.6188, 1.62384, 1.62336, 1.59657, 1.59171, 1.63757, 1.68463, 1.72776, 1.80721, 1.85164, 1.89822, 1.9275, 1.88981, 1.82041, 1.57945, 1.55464, 1.5731, 1.58667, 1.57803, 1.57916, 1.58587, 1.56941, 1.56642, 1.56785, 1.56084, 1.55899, 1.55703, 1.5552, 1.55368, 1.55257, 1.55018, 1.54782, 1.54555, 1.54371, 1.54298, 1.54175, 1.5397, 1.53637, 1.5351, 1.53286, 1.53085, 1.52974, 1.52647, 1.52483, 1.52284, 1.51958, 1.51732, 1.5158, 1.51236, 1.50936, 1.509, 1.50405, 1.5035, 1.50022, 1.49936, 1.50007, 1.50824, 1.50999, 1.5306, 1.51957, 1.51003, 1.51094, 1.49064, 1.48951, 1.48703, 1.49788, 1.48525, 1.4892, 1.48974, 1.48649, 1.47629, 1.46226, 1.48522, 1.5079, 1.50986, 1.53784, 1.5424, 1.54527, 1.54459, 1.53851, 1.53396, 1.5106, 1.53726, 1.52807, 1.48272, 1.43433, 1.43878, 1.4565, 1.46161, 1.45233, 1.44673, 1.44371, 1.45098, 1.4415, 1.43639, 1.4373, 1.43668, 1.44034, 1.43092, 1.41972, 1.43042, 1.42981, 1.41884, 1.41668, 1.41631, 1.40944, 1.4057, 1.40434, 1.40311, 1.40343, 1.40319, 1.40013, 1.39948, 1.39879, 1.39608, 1.39445, 1.39278, 1.39239, 1.38951, 1.38774, 1.38681, 1.38508, 1.38565, 1.38479, 1.38325, 1.38318, 1.38111, 1.37893, 1.37762, 1.37451, 1.37366, 1.37304, 1.37197, 1.37278, 1.36818, 1.36779, 1.36787, 1.36692, 1.36632, 1.36519, 1.36415, 1.3635, 1.36214, 1.36234, 1.36168, 1.35724, 1.35463, 1.35415, 1.35343, 1.35252, 1.35081, 1.36078, 1.35389, 1.36396, 1.36558, 1.35664, 1.32198, 1.367, 1.426, 1.44355, 1.46062, 1.55493, 1.55834, 1.58936, 1.57484, 1.56885, 1.49955, 1.40977, 1.33748, 1.33225, 1.33635, 1.33758, 1.3394, 1.3242, 1.3256, 1.31888, 1.31609, 1.31579, 1.31586, 1.31284, 1.31228, 1.3119, 1.30955, 1.30724, 1.30537, 1.30621, 
1.65375, 1.66866, 1.64961, 1.64782, 1.64508, 1.64043, 1.63668, 1.63538, 1.63609, 1.64111, 1.63156, 1.62831, 1.62525, 1.62139, 1.62075, 1.61859, 1.62305, 1.61391, 1.62741, 1.61923, 1.61403, 1.61859, 1.58912, 1.59549, 1.6892, 1.74128, 1.79887, 1.86245, 1.90121, 1.93463, 1.92734, 1.82593, 1.63106, 1.55025, 1.58837, 1.57955, 1.58752, 1.57415, 1.5836, 1.56898, 1.56465, 1.56274, 1.55986, 1.5577, 1.55595, 1.55467, 1.55962, 1.5504, 1.55752, 1.54702, 1.5452, 1.54203, 1.53859, 1.53668, 1.53389, 1.53162, 1.531, 1.52594, 1.52156, 1.52037, 1.51924, 1.51686, 1.51591, 1.51555, 1.51351, 1.51085, 1.50961, 1.50841, 1.50736, 1.50631, 1.5055, 1.50572, 1.50363, 1.50878, 1.49944, 1.50817, 1.49994, 1.50557, 1.51999, 1.51949, 1.50438, 1.4845, 1.4892, 1.48981, 1.49309, 1.49065, 1.48196, 1.47929, 1.4851, 1.46122, 1.45468, 1.48692, 1.51385, 1.54289, 1.54893, 1.54509, 1.54389, 1.52287, 1.53468, 1.5369, 1.53437, 1.54135, 1.51108, 1.47324, 1.41756, 1.45066, 1.45854, 1.4644, 1.44378, 1.43154, 1.43928, 1.44544, 1.45144, 1.45205, 1.45831, 1.46084, 1.48411, 1.45443, 1.44454, 1.4334, 1.41972, 1.42187, 1.41311, 1.40939, 1.40733, 1.40644, 1.40549, 1.40445, 1.40167, 1.40098, 1.39934, 1.39743, 1.39476, 1.39246, 1.391, 1.39058, 1.38991, 1.38758, 1.38508, 1.38454, 1.38347, 1.38224, 1.38085, 1.37984, 1.37723, 1.37438, 1.374, 1.37267, 1.37111, 1.3689, 1.36831, 1.36618, 1.36646, 1.36484, 1.36347, 1.36358, 1.36302, 1.36333, 1.36072, 1.36116, 1.36041, 1.35708, 1.35675, 1.35586, 1.35494, 1.35275, 1.35042, 1.3512, 1.34784, 1.35212, 1.34681, 1.34829, 1.35293, 1.36441, 1.34061, 1.32042, 1.41914, 1.43505, 1.47133, 1.52586, 1.56277, 1.59229, 1.59503, 1.57506, 1.47398, 1.44457, 1.35986, 1.30847, 1.33352, 1.32769, 1.32327, 1.33036, 1.32173, 1.3191, 1.31757, 1.31693, 1.31603, 1.31358, 1.31225, 1.31208, 1.30907, 1.30856, 1.30617, 1.30595, 
1.65131, 1.64888, 1.64687, 1.65056, 1.64259, 1.64086, 1.64007, 1.63791, 1.63553, 1.63276, 1.6309, 1.62842, 1.62526, 1.62311, 1.62684, 1.61667, 1.61901, 1.61146, 1.61109, 1.61746, 1.61111, 1.6109, 1.60962, 1.61554, 1.63378, 1.71065, 1.75832, 1.80883, 1.86526, 1.86159, 1.79564, 1.68961, 1.60313, 1.56818, 1.5988, 1.58529, 1.57641, 1.58391, 1.57659, 1.57229, 1.56958, 1.5676, 1.56324, 1.56049, 1.55853, 1.55508, 1.55288, 1.55485, 1.54232, 1.54693, 1.54274, 1.53874, 1.53509, 1.5336, 1.53165, 1.52919, 1.52598, 1.5276, 1.52069, 1.5167, 1.52346, 1.51039, 1.51324, 1.50842, 1.50906, 1.50784, 1.50572, 1.50343, 1.5029, 1.50206, 1.50088, 1.50061, 1.49902, 1.49918, 1.49793, 1.49571, 1.4931, 1.49233, 1.49789, 1.51014, 1.53612, 1.5456, 1.5274, 1.5239, 1.51304, 1.47288, 1.48913, 1.47812, 1.48385, 1.45976, 1.4607, 1.49409, 1.50923, 1.52678, 1.54302, 1.54296, 1.53157, 1.52752, 1.51933, 1.50605, 1.52402, 1.52807, 1.48018, 1.45686, 1.45887, 1.46216, 1.46656, 1.46846, 1.47505, 1.46628, 1.45303, 1.46849, 1.46777, 1.45114, 1.44517, 1.44392, 1.43327, 1.42801, 1.43439, 1.43026, 1.41846, 1.41666, 1.41388, 1.41259, 1.40965, 1.40837, 1.40656, 1.40428, 1.40215, 1.4013, 1.39903, 1.39815, 1.39694, 1.39516, 1.39059, 1.38778, 1.38569, 1.38441, 1.38195, 1.38276, 1.38275, 1.3817, 1.38075, 1.37891, 1.37751, 1.37583, 1.37456, 1.375, 1.37364, 1.37051, 1.37014, 1.36892, 1.36806, 1.3645, 1.36368, 1.36349, 1.36075, 1.35969, 1.35832, 1.35645, 1.35575, 1.35344, 1.35283, 1.35052, 1.34865, 1.35025, 1.34658, 1.34419, 1.34254, 1.3405, 1.34185, 1.34068, 1.34888, 1.35532, 1.34708, 1.35036, 1.38903, 1.42503, 1.49402, 1.55427, 1.58969, 1.65345, 1.62054, 1.60909, 1.49509, 1.38904, 1.29723, 1.31277, 1.32524, 1.32434, 1.32956, 1.32348, 1.31651, 1.31531, 1.31379, 1.31392, 1.31238, 1.31231, 1.30847, 1.30637, 1.30404, 1.30509, 1.30378, 1.30313, 
1.64552, 1.64377, 1.64284, 1.64079, 1.64111, 1.63929, 1.64056, 1.64208, 1.63919, 1.63945, 1.63477, 1.63105, 1.62745, 1.62615, 1.62198, 1.62451, 1.61756, 1.62029, 1.60968, 1.61551, 1.61229, 1.60835, 1.57095, 1.59246, 1.65078, 1.70412, 1.75856, 1.82371, 1.90342, 1.96487, 1.96709, 1.77424, 1.6682, 1.55886, 1.59193, 1.59017, 1.59457, 1.59976, 1.58351, 1.5862, 1.58192, 1.58, 1.58699, 1.56947, 1.58211, 1.58328, 1.56582, 1.55276, 1.55069, 1.54798, 1.5453, 1.55129, 1.53881, 1.53632, 1.53388, 1.53126, 1.52914, 1.52655, 1.52298, 1.52255, 1.52015, 1.51753, 1.51452, 1.51185, 1.51208, 1.50973, 1.50776, 1.50526, 1.50347, 1.50232, 1.50112, 1.49943, 1.49981, 1.49647, 1.4932, 1.49287, 1.49529, 1.49267, 1.49093, 1.48883, 1.4885, 1.48746, 1.49306, 1.49369, 1.49623, 1.50735, 1.51408, 1.51285, 1.49651, 1.48521, 1.47216, 1.48099, 1.5203, 1.54336, 1.54775, 1.5346, 1.53027, 1.48848, 1.49012, 1.50725, 1.55105, 1.51652, 1.50707, 1.47941, 1.45324, 1.46127, 1.45149, 1.44864, 1.44755, 1.43861, 1.43713, 1.43488, 1.4312, 1.42796, 1.4273, 1.42532, 1.42172, 1.42057, 1.41652, 1.41521, 1.41186, 1.40952, 1.4106, 1.41211, 1.40999, 1.40844, 1.40597, 1.40195, 1.39996, 1.39865, 1.39769, 1.39795, 1.39597, 1.39536, 1.39483, 1.39464, 1.39367, 1.39331, 1.39088, 1.38977, 1.38472, 1.38215, 1.38132, 1.37755, 1.37851, 1.37742, 1.37738, 1.37552, 1.37096, 1.37127, 1.3717, 1.37121, 1.37034, 1.36912, 1.36713, 1.36538, 1.36404, 1.36237, 1.36034, 1.35761, 1.35496, 1.35444, 1.35345, 1.35027, 1.34946, 1.36082, 1.34755, 1.34788, 1.34457, 1.34488, 1.34288, 1.35089, 1.3559, 1.37457, 1.34423, 1.31447, 1.34755, 1.41653, 1.50166, 1.50268, 1.59443, 1.65125, 1.58582, 1.63967, 1.49191, 1.41718, 1.37137, 1.30352, 1.32678, 1.33391, 1.32538, 1.32332, 1.31916, 1.31381, 1.31238, 1.3151, 1.31094, 1.31126, 1.31227, 1.32026, 1.30909, 1.30929, 1.30895, 1.30882, 
1.64518, 1.64641, 1.64105, 1.63743, 1.63457, 1.63524, 1.63981, 1.63252, 1.63001, 1.62635, 1.62318, 1.62285, 1.62272, 1.61863, 1.61711, 1.62206, 1.61258, 1.61006, 1.60613, 1.60664, 1.60556, 1.60424, 1.60726, 1.58912, 1.64477, 1.64716, 1.75914, 1.81186, 1.90974, 1.92842, 1.98075, 1.84054, 1.63897, 1.55603, 1.53837, 1.54224, 1.56497, 1.59465, 1.58079, 1.56017, 1.55182, 1.58558, 1.58217, 1.58787, 1.57186, 1.57347, 1.56781, 1.5545, 1.55113, 1.53887, 1.5348, 1.53361, 1.53312, 1.54512, 1.53119, 1.53252, 1.52663, 1.52617, 1.52339, 1.52172, 1.52082, 1.51679, 1.51468, 1.51253, 1.51222, 1.50671, 1.50402, 1.50208, 1.50019, 1.50011, 1.49833, 1.49504, 1.49428, 1.49351, 1.49167, 1.49035, 1.48805, 1.48562, 1.4829, 1.48158, 1.4795, 1.47781, 1.47657, 1.47565, 1.47479, 1.482, 1.47669, 1.48143, 1.48643, 1.47855, 1.48493, 1.50339, 1.51455, 1.54857, 1.52991, 1.41419, 1.50549, 1.47626, 1.476, 1.5024, 1.50966, 1.50724, 1.50023, 1.49549, 1.46436, 1.45867, 1.45679, 1.44734, 1.45766, 1.43729, 1.43551, 1.45386, 1.4312, 1.42906, 1.42559, 1.42155, 1.4216, 1.42244, 1.41808, 1.41635, 1.4124, 1.41049, 1.409, 1.40708, 1.40804, 1.40874, 1.40941, 1.40657, 1.4043, 1.40177, 1.39964, 1.39883, 1.39686, 1.40106, 1.39345, 1.39316, 1.39143, 1.3869, 1.3846, 1.38505, 1.38453, 1.38111, 1.38086, 1.38137, 1.37888, 1.37898, 1.3752, 1.37258, 1.36912, 1.37137, 1.37024, 1.37016, 1.36682, 1.36607, 1.36433, 1.3619, 1.36084, 1.35822, 1.35722, 1.35406, 1.35358, 1.35469, 1.35339, 1.35128, 1.35269, 1.34533, 1.35676, 1.34687, 1.34386, 1.34457, 1.3437, 1.34116, 1.3432, 1.34527, 1.35201, 1.32938, 1.37107, 1.37958, 1.41896, 1.49859, 1.53361, 1.55761, 1.62877, 1.61612, 1.51349, 1.48443, 1.32394, 1.3273, 1.33089, 1.32956, 1.33757, 1.33082, 1.31953, 1.31629, 1.31531, 1.31205, 1.31256, 1.3117, 1.3109, 1.31007, 1.31027, 1.30936, 1.30929, 1.3087, 
1.64033, 1.64052, 1.63624, 1.6341, 1.63433, 1.63215, 1.62936, 1.62659, 1.62505, 1.62512, 1.62564, 1.61799, 1.61566, 1.61189, 1.61059, 1.60633, 1.60437, 1.60413, 1.60633, 1.6128, 1.61681, 1.6174, 1.61359, 1.57979, 1.59679, 1.65858, 1.77135, 1.83086, 1.93095, 1.97705, 1.97418, 1.8992, 1.65436, 1.54513, 1.5599, 1.53157, 1.58986, 1.62597, 1.66862, 1.64096, 1.61127, 1.61023, 1.58518, 1.5786, 1.59047, 1.56671, 1.56238, 1.55471, 1.55336, 1.54505, 1.53991, 1.53183, 1.53108, 1.52928, 1.52675, 1.52427, 1.52304, 1.51993, 1.51935, 1.51788, 1.5165, 1.51366, 1.51304, 1.51115, 1.51063, 1.50808, 1.50534, 1.50127, 1.50029, 1.49758, 1.49577, 1.4928, 1.48994, 1.48969, 1.48809, 1.48663, 1.48482, 1.48418, 1.48182, 1.48086, 1.4781, 1.47612, 1.4763, 1.47331, 1.4726, 1.47226, 1.4859, 1.47563, 1.47766, 1.47873, 1.46291, 1.4779, 1.5024, 1.54908, 1.50942, 1.52452, 1.48041, 1.47517, 1.46173, 1.49475, 1.4842, 1.50418, 1.48593, 1.47655, 1.46144, 1.44079, 1.44575, 1.4421, 1.4406, 1.44122, 1.43644, 1.42443, 1.41993, 1.41863, 1.41716, 1.41621, 1.41436, 1.44325, 1.43433, 1.40388, 1.40887, 1.40928, 1.40902, 1.40855, 1.4079, 1.40641, 1.40344, 1.40241, 1.40156, 1.40013, 1.39777, 1.39412, 1.39344, 1.39245, 1.38978, 1.38631, 1.3846, 1.38276, 1.38192, 1.38122, 1.3788, 1.37777, 1.37567, 1.37496, 1.37453, 1.37166, 1.37065, 1.36884, 1.36808, 1.36823, 1.36471, 1.36376, 1.36341, 1.36161, 1.36083, 1.35886, 1.35795, 1.35731, 1.35666, 1.35677, 1.35584, 1.35455, 1.3542, 1.3501, 1.34943, 1.34902, 1.34565, 1.36201, 1.34444, 1.36318, 1.34381, 1.34381, 1.35063, 1.3455, 1.34393, 1.33772, 1.32302, 1.37414, 1.43598, 1.46431, 1.5729, 1.59295, 1.63335, 1.7502, 1.57635, 1.45251, 1.37692, 1.31339, 1.31706, 1.32772, 1.33917, 1.32494, 1.32348, 1.31283, 1.3161, 1.30949, 1.32297, 1.30714, 1.30844, 1.30682, 1.30741, 1.3033, 1.30466, 1.30234, 
1.63017, 1.62825, 1.62632, 1.62455, 1.62406, 1.62176, 1.62039, 1.61854, 1.61851, 1.61747, 1.61514, 1.61211, 1.60924, 1.60782, 1.60648, 1.60286, 1.60023, 1.5984, 1.59602, 1.59547, 1.5955, 1.5961, 1.59924, 1.58579, 1.62421, 1.67021, 1.71233, 1.78689, 1.84541, 1.87165, 1.94076, 1.7112, 1.68294, 1.54708, 1.54005, 1.57081, 1.56404, 1.5621, 1.56573, 1.56833, 1.57121, 1.5599, 1.55926, 1.55122, 1.55111, 1.54579, 1.54543, 1.53781, 1.53422, 1.53136, 1.5272, 1.53495, 1.52642, 1.52174, 1.52167, 1.5183, 1.5156, 1.5129, 1.51143, 1.50932, 1.50931, 1.50562, 1.5043, 1.50313, 1.50081, 1.49923, 1.49703, 1.49645, 1.49416, 1.4934, 1.49015, 1.48594, 1.48288, 1.47996, 1.47692, 1.47476, 1.4728, 1.47132, 1.47008, 1.46859, 1.47091, 1.46756, 1.46824, 1.46521, 1.46284, 1.46272, 1.46525, 1.46724, 1.46743, 1.46467, 1.46118, 1.48475, 1.50841, 1.51288, 1.51381, 1.50748, 1.49691, 1.46836, 1.4775, 1.49619, 1.49013, 1.51377, 1.51, 1.48292, 1.46661, 1.44465, 1.46046, 1.44741, 1.4371, 1.43356, 1.42737, 1.42549, 1.42302, 1.42749, 1.41778, 1.41583, 1.4131, 1.41123, 1.41035, 1.40672, 1.40542, 1.40294, 1.40157, 1.40102, 1.39855, 1.39678, 1.39504, 1.39231, 1.39097, 1.38924, 1.38632, 1.38367, 1.3814, 1.37975, 1.37787, 1.37714, 1.37632, 1.37342, 1.37295, 1.37283, 1.37494, 1.37525, 1.37466, 1.37445, 1.37389, 1.3724, 1.37196, 1.37064, 1.36717, 1.36436, 1.36024, 1.35665, 1.35386, 1.3513, 1.34968, 1.34849, 1.34726, 1.34701, 1.34877, 1.34815, 1.34785, 1.34556, 1.3458, 1.34324, 1.34278, 1.34278, 1.33886, 1.34683, 1.33673, 1.33466, 1.33258, 1.33353, 1.34013, 1.33538, 1.33738, 1.33726, 1.32565, 1.40588, 1.45417, 1.48502, 1.58186, 1.59669, 1.68237, 1.69669, 1.61127, 1.43036, 1.35412, 1.29528, 1.31598, 1.31971, 1.31576, 1.31024, 1.30591, 1.30595, 1.30508, 1.30365, 1.302, 1.30238, 1.30171, 1.29971, 1.29833, 1.29634, 1.2947, 1.29446, 
1.627, 1.62231, 1.62201, 1.61913, 1.62216, 1.62024, 1.61816, 1.6167, 1.61529, 1.61324, 1.61303, 1.60972, 1.60757, 1.6058, 1.60365, 1.60231, 1.59919, 1.59694, 1.59369, 1.59379, 1.59298, 1.5992, 1.60151, 1.59064, 1.58294, 1.63484, 1.72811, 1.73399, 1.88776, 1.91353, 1.73246, 1.69163, 1.65318, 1.59298, 1.5351, 1.56008, 1.5654, 1.55931, 1.57565, 1.55581, 1.55445, 1.56557, 1.55395, 1.54783, 1.55503, 1.54373, 1.54543, 1.55105, 1.53573, 1.53357, 1.53005, 1.52807, 1.52713, 1.52233, 1.52053, 1.51906, 1.51658, 1.51336, 1.50931, 1.50465, 1.50335, 1.50245, 1.50282, 1.50029, 1.49931, 1.49574, 1.49502, 1.49202, 1.48975, 1.48931, 1.48743, 1.48549, 1.48347, 1.48234, 1.47961, 1.47559, 1.47428, 1.47158, 1.47057, 1.46819, 1.46721, 1.46609, 1.46425, 1.46257, 1.46087, 1.46028, 1.46093, 1.46303, 1.46594, 1.47829, 1.46432, 1.48846, 1.49932, 1.49799, 1.50398, 1.49529, 1.48868, 1.47305, 1.464, 1.46925, 1.47993, 1.47884, 1.49278, 1.49432, 1.46188, 1.44264, 1.43823, 1.44827, 1.4411, 1.43485, 1.42287, 1.42748, 1.41521, 1.4131, 1.41139, 1.40765, 1.41201, 1.41924, 1.40637, 1.40519, 1.4026, 1.40186, 1.40178, 1.40076, 1.39805, 1.40027, 1.39364, 1.39406, 1.39041, 1.38837, 1.38814, 1.38487, 1.3832, 1.38163, 1.38016, 1.37881, 1.37721, 1.37634, 1.37532, 1.37422, 1.37265, 1.37086, 1.37012, 1.3691, 1.36553, 1.36402, 1.3627, 1.36054, 1.35766, 1.35476, 1.35355, 1.35128, 1.34912, 1.34559, 1.34685, 1.34642, 1.34472, 1.34479, 1.3445, 1.34306, 1.34377, 1.34086, 1.33986, 1.33964, 1.33764, 1.33685, 1.33414, 1.33442, 1.34105, 1.3409, 1.32975, 1.32663, 1.32796, 1.32991, 1.33732, 1.32623, 1.29634, 1.36107, 1.41329, 1.43324, 1.51125, 1.59936, 1.64546, 1.84313, 1.67515, 1.43579, 1.41633, 1.29902, 1.31252, 1.31842, 1.30835, 1.30679, 1.3079, 1.30616, 1.30638, 1.30495, 1.30422, 1.30407, 1.31955, 1.30959, 1.29993, 1.3001, 1.3008, 1.29585, 
1.62495, 1.62248, 1.61978, 1.61763, 1.61362, 1.61265, 1.61167, 1.61286, 1.60936, 1.60821, 1.606, 1.60162, 1.60151, 1.59947, 1.59744, 1.59351, 1.59184, 1.59463, 1.58708, 1.58364, 1.58279, 1.58153, 1.58157, 1.57871, 1.56202, 1.6179, 1.67876, 1.72011, 1.79025, 1.86907, 2.07547, 1.7226, 1.70565, 1.57429, 1.56829, 1.56403, 1.56337, 1.57263, 1.55414, 1.55149, 1.55984, 1.54896, 1.5455, 1.54019, 1.53741, 1.55213, 1.53141, 1.53341, 1.52526, 1.52257, 1.51746, 1.51802, 1.51749, 1.51723, 1.51555, 1.51495, 1.51306, 1.51306, 1.51131, 1.50899, 1.50449, 1.50314, 1.4982, 1.49679, 1.49372, 1.49222, 1.49128, 1.49015, 1.48838, 1.48474, 1.48348, 1.48165, 1.47662, 1.47667, 1.47486, 1.47661, 1.47202, 1.46819, 1.46604, 1.46587, 1.46639, 1.46504, 1.46456, 1.46154, 1.46091, 1.46056, 1.46141, 1.46171, 1.46722, 1.46304, 1.4656, 1.47994, 1.49603, 1.52199, 1.49185, 1.48437, 1.46477, 1.48854, 1.46406, 1.45043, 1.46281, 1.48035, 1.48213, 1.48495, 1.4518, 1.44502, 1.42756, 1.42655, 1.42202, 1.43208, 1.4111, 1.40959, 1.40784, 1.40854, 1.40693, 1.40558, 1.40352, 1.42118, 1.40236, 1.40136, 1.39991, 1.39881, 1.39613, 1.39364, 1.3914, 1.3911, 1.38945, 1.38652, 1.38542, 1.38336, 1.38357, 1.38187, 1.38081, 1.38007, 1.37696, 1.37433, 1.37153, 1.3706, 1.36893, 1.36867, 1.3647, 1.36821, 1.35951, 1.35706, 1.35548, 1.35362, 1.36001, 1.3489, 1.34793, 1.34556, 1.34365, 1.34291, 1.34222, 1.34164, 1.34127, 1.34265, 1.34803, 1.34219, 1.34748, 1.34084, 1.34701, 1.35395, 1.33936, 1.3362, 1.33394, 1.33448, 1.33183, 1.33286, 1.32681, 1.3304, 1.33004, 1.32734, 1.32688, 1.33441, 1.3278, 1.32762, 1.32363, 1.32564, 1.37321, 1.45289, 1.52662, 1.55089, 1.59079, 1.86921, 1.7522, 1.42297, 1.38852, 1.26308, 1.30004, 1.30277, 1.30356, 1.30876, 1.30972, 1.32087, 1.29959, 1.31245, 1.29887, 1.31216, 1.29484, 1.29448, 1.29471, 1.29276, 1.29043, 1.28562, 
1.6209, 1.62783, 1.6166, 1.6158, 1.61475, 1.61291, 1.60739, 1.60548, 1.6033, 1.60949, 1.61239, 1.59719, 1.60982, 1.60073, 1.5931, 1.60706, 1.58641, 1.58733, 1.58378, 1.58151, 1.57817, 1.57802, 1.59037, 1.57836, 1.56148, 1.60032, 1.68953, 1.713, 1.91156, 1.93829, 1.93339, 1.99948, 1.73401, 1.51692, 1.54159, 1.55516, 1.57796, 1.54808, 1.54394, 1.54185, 1.53892, 1.53771, 1.53512, 1.53085, 1.52834, 1.52356, 1.52172, 1.51962, 1.51701, 1.51379, 1.5213, 1.50862, 1.50672, 1.50624, 1.50623, 1.50473, 1.50436, 1.5034, 1.50067, 1.49865, 1.49743, 1.4954, 1.49617, 1.49605, 1.50239, 1.48804, 1.48437, 1.48343, 1.47928, 1.4785, 1.47547, 1.47469, 1.47098, 1.47813, 1.4682, 1.46745, 1.46511, 1.46369, 1.46069, 1.45948, 1.45733, 1.45483, 1.45346, 1.45172, 1.45123, 1.45423, 1.45661, 1.45204, 1.45682, 1.46451, 1.46038, 1.45273, 1.45291, 1.47497, 1.46758, 1.4689, 1.47755, 1.4846, 1.47515, 1.47258, 1.4607, 1.47879, 1.4742, 1.46776, 1.45916, 1.43127, 1.43319, 1.42399, 1.42152, 1.42057, 1.40541, 1.4028, 1.39963, 1.39792, 1.39701, 1.39589, 1.39653, 1.3961, 1.39499, 1.39274, 1.3932, 1.39002, 1.38862, 1.38782, 1.38504, 1.38328, 1.38151, 1.3777, 1.38168, 1.37442, 1.37368, 1.37094, 1.36893, 1.36744, 1.36748, 1.36761, 1.3657, 1.36427, 1.36368, 1.3615, 1.36072, 1.35997, 1.35774, 1.3549, 1.35398, 1.34704, 1.34805, 1.34453, 1.34255, 1.33872, 1.3404, 1.3386, 1.3363, 1.33464, 1.33446, 1.33004, 1.34666, 1.33348, 1.3346, 1.33483, 1.33648, 1.36909, 1.33143, 1.33196, 1.33067, 1.3271, 1.32429, 1.32248, 1.32956, 1.31861, 1.31979, 1.31613, 1.31579, 1.31601, 1.32975, 1.3216, 1.29658, 1.30002, 1.35718, 1.41916, 1.54862, 1.57152, 1.67999, 1.72182, 1.69786, 1.45351, 1.37095, 1.26531, 1.29596, 1.31713, 1.31613, 1.29355, 1.29454, 1.29601, 1.29486, 1.29221, 1.29861, 1.28832, 1.28562, 1.28227, 1.28487, 1.27953, 1.28215, 1.28133, 
1.62044, 1.61859, 1.61382, 1.61405, 1.61026, 1.60803, 1.61145, 1.60286, 1.6002, 1.59978, 1.59394, 1.59237, 1.59055, 1.58641, 1.58559, 1.60239, 1.58514, 1.58379, 1.58519, 1.59507, 1.59064, 1.59622, 1.58793, 1.58925, 1.58315, 1.55367, 1.64527, 1.77234, 1.86141, 2.02064, 2.01575, 2.00719, 1.78546, 1.54336, 1.52063, 1.54979, 1.56134, 1.55071, 1.5579, 1.53861, 1.53824, 1.53569, 1.53374, 1.53149, 1.5451, 1.52793, 1.52627, 1.52232, 1.52689, 1.51713, 1.51359, 1.51076, 1.50909, 1.50691, 1.50446, 1.5093, 1.49934, 1.4998, 1.50002, 1.49919, 1.49421, 1.49504, 1.49175, 1.4929, 1.48928, 1.48709, 1.48454, 1.4809, 1.47981, 1.47596, 1.47451, 1.47198, 1.46984, 1.46747, 1.46708, 1.46392, 1.46054, 1.45926, 1.45745, 1.45508, 1.4552, 1.45271, 1.45069, 1.44871, 1.448, 1.44811, 1.44799, 1.45489, 1.46454, 1.45392, 1.47048, 1.46082, 1.45414, 1.48324, 1.46939, 1.462, 1.46609, 1.4725, 1.45238, 1.44551, 1.45516, 1.45044, 1.46867, 1.46261, 1.45454, 1.43765, 1.43281, 1.44419, 1.42727, 1.42061, 1.41507, 1.40458, 1.39813, 1.39598, 1.39422, 1.39467, 1.39414, 1.39222, 1.39099, 1.39241, 1.38876, 1.38812, 1.38557, 1.38463, 1.38371, 1.38199, 1.37852, 1.37588, 1.37378, 1.37298, 1.37074, 1.37064, 1.36464, 1.36248, 1.36295, 1.36147, 1.35924, 1.35812, 1.35825, 1.35669, 1.35521, 1.35526, 1.35342, 1.3546, 1.3531, 1.35079, 1.3487, 1.34781, 1.34633, 1.34503, 1.34454, 1.34303, 1.34198, 1.34126, 1.34001, 1.33843, 1.33569, 1.3351, 1.33384, 1.33341, 1.33288, 1.33032, 1.32823, 1.32899, 1.32686, 1.3255, 1.32552, 1.32216, 1.3246, 1.32379, 1.32143, 1.32256, 1.33061, 1.3267, 1.32594, 1.33573, 1.33055, 1.29157, 1.37767, 1.41714, 1.47871, 1.47911, 1.68455, 1.74072, 1.77542, 1.57073, 1.38182, 1.26322, 1.29437, 1.30563, 1.30308, 1.30581, 1.29678, 1.2949, 1.2911, 1.29087, 1.29092, 1.2897, 1.28862, 1.30707, 1.28734, 1.28824, 1.28384, 1.2815, 
1.59253, 1.59215, 1.58863, 1.58636, 1.58622, 1.58662, 1.58073, 1.58004, 1.57721, 1.58459, 1.5797, 1.6073, 1.56834, 1.56332, 1.57302, 1.56102, 1.55773, 1.55657, 1.55488, 1.55527, 1.55873, 1.55439, 1.56792, 1.56191, 1.54871, 1.56011, 1.6161, 1.697, 1.75255, 1.89798, 1.93817, 1.93056, 1.69556, 1.52734, 1.51365, 1.52115, 1.53352, 1.52673, 1.521, 1.51631, 1.51986, 1.5132, 1.52955, 1.50779, 1.52292, 1.51017, 1.5052, 1.50065, 1.50032, 1.4987, 1.496, 1.49602, 1.49323, 1.49869, 1.48815, 1.48478, 1.48156, 1.48066, 1.47816, 1.47529, 1.48095, 1.46896, 1.46757, 1.46586, 1.4649, 1.46105, 1.46037, 1.48546, 1.45477, 1.45373, 1.45342, 1.45267, 1.45128, 1.45105, 1.44962, 1.44786, 1.45023, 1.44538, 1.44268, 1.44005, 1.43825, 1.43323, 1.43384, 1.43094, 1.43139, 1.43684, 1.43956, 1.4371, 1.44501, 1.45409, 1.44191, 1.43851, 1.44034, 1.44652, 1.45416, 1.44848, 1.46832, 1.46487, 1.43796, 1.44014, 1.45218, 1.46549, 1.44615, 1.45686, 1.4274, 1.41639, 1.4076, 1.41519, 1.41969, 1.40615, 1.39316, 1.39266, 1.39394, 1.39692, 1.39987, 1.39224, 1.37462, 1.37408, 1.37621, 1.3745, 1.37883, 1.37801, 1.37766, 1.37761, 1.37081, 1.38037, 1.36572, 1.36161, 1.36122, 1.35509, 1.35521, 1.35536, 1.35484, 1.35404, 1.35291, 1.35323, 1.34984, 1.34779, 1.34533, 1.34402, 1.34939, 1.33905, 1.33742, 1.3345, 1.32805, 1.32928, 1.32896, 1.32965, 1.32526, 1.33277, 1.32574, 1.32661, 1.32618, 1.32683, 1.32477, 1.32091, 1.33232, 1.31402, 1.31335, 1.31272, 1.31004, 1.31201, 1.31098, 1.33412, 1.34011, 1.31071, 1.31093, 1.3301, 1.30578, 1.30828, 1.3098, 1.31313, 1.3067, 1.31244, 1.33019, 1.30393, 1.30699, 1.28206, 1.32676, 1.36667, 1.43782, 1.54338, 1.60298, 1.62343, 1.44412, 1.45096, 1.36396, 1.25616, 1.26075, 1.28813, 1.28175, 1.28721, 1.28434, 1.28029, 1.28648, 1.27664, 1.28577, 1.2726, 1.27246, 1.27253, 1.27909, 1.27487, 1.27075, 1.26451, 
1.60204, 1.60273, 1.59878, 1.60027, 1.60011, 1.5992, 1.5984, 1.59618, 1.59517, 1.58663, 1.58152, 1.58693, 1.57807, 1.57693, 1.57665, 1.57178, 1.58586, 1.57254, 1.5687, 1.56759, 1.56584, 1.56716, 1.56723, 1.56855, 1.58254, 1.56549, 1.57604, 1.63018, 1.8678, 1.92322, 2.00372, 1.87157, 1.78001, 1.51124, 1.52006, 1.53671, 1.5437, 1.5335, 1.53041, 1.53446, 1.52673, 1.52603, 1.51351, 1.51655, 1.51087, 1.5121, 1.50962, 1.50968, 1.50687, 1.50373, 1.50366, 1.5023, 1.50224, 1.50316, 1.4954, 1.49399, 1.49208, 1.49044, 1.48905, 1.4865, 1.48327, 1.47898, 1.47757, 1.47661, 1.47585, 1.47504, 1.47469, 1.47298, 1.47, 1.4678, 1.4669, 1.46376, 1.46032, 1.45668, 1.45211, 1.45022, 1.44957, 1.44501, 1.4448, 1.44291, 1.44337, 1.44234, 1.44085, 1.4389, 1.43734, 1.44314, 1.43053, 1.43701, 1.4359, 1.44196, 1.45706, 1.44915, 1.44672, 1.44136, 1.45476, 1.45109, 1.45016, 1.46762, 1.44479, 1.44045, 1.44515, 1.44041, 1.44056, 1.43345, 1.43784, 1.4342, 1.41584, 1.41997, 1.40718, 1.42028, 1.4021, 1.39763, 1.39621, 1.40668, 1.39014, 1.3861, 1.38204, 1.37755, 1.37848, 1.37464, 1.37516, 1.37604, 1.37374, 1.37395, 1.36742, 1.36743, 1.36588, 1.36659, 1.36524, 1.36264, 1.35754, 1.35636, 1.35443, 1.35489, 1.35236, 1.35066, 1.36189, 1.3503, 1.35066, 1.34945, 1.34776, 1.34609, 1.34438, 1.33958, 1.33751, 1.33283, 1.33502, 1.33682, 1.33376, 1.32802, 1.32681, 1.32437, 1.32342, 1.32336, 1.31912, 1.31821, 1.32037, 1.3211, 1.31946, 1.31688, 1.31369, 1.31065, 1.31874, 1.3122, 1.31244, 1.31328, 1.30967, 1.3101, 1.30935, 1.30276, 1.30034, 1.30137, 1.30217, 1.32101, 1.31606, 1.30654, 1.31334, 1.29674, 1.27531, 1.36567, 1.44036, 1.50917, 1.52377, 1.54067, 1.44876, 1.47041, 1.30727, 1.26782, 1.28535, 1.27964, 1.29074, 1.28114, 1.28004, 1.27784, 1.29498, 1.29205, 1.28526, 1.26766, 1.26956, 1.26999, 1.27184, 1.26862, 1.27157, 1.26146, 
1.60077, 1.59865, 1.60507, 1.59671, 1.59447, 1.59416, 1.59195, 1.5902, 1.58723, 1.58205, 1.57856, 1.59346, 1.59528, 1.57636, 1.57604, 1.56898, 1.57108, 1.56562, 1.56566, 1.56425, 1.56306, 1.56839, 1.56747, 1.56895, 1.55559, 1.55445, 1.58555, 1.65287, 1.65143, 1.79556, 2.05751, 2.12488, 1.71688, 1.51715, 1.53491, 1.53465, 1.52978, 1.52475, 1.52078, 1.51323, 1.50642, 1.51085, 1.52082, 1.51407, 1.51222, 1.51088, 1.50822, 1.50627, 1.50215, 1.49856, 1.50008, 1.488, 1.47636, 1.47438, 1.47921, 1.48281, 1.48496, 1.48635, 1.48486, 1.48345, 1.48277, 1.48073, 1.47837, 1.47576, 1.47299, 1.47121, 1.46839, 1.46525, 1.46199, 1.46012, 1.45733, 1.45272, 1.45455, 1.45869, 1.44827, 1.44786, 1.44729, 1.44435, 1.44117, 1.43961, 1.46484, 1.43992, 1.43782, 1.43691, 1.43555, 1.43534, 1.44399, 1.43488, 1.44411, 1.4476, 1.44755, 1.45432, 1.46073, 1.45032, 1.44426, 1.46332, 1.43634, 1.43723, 1.42703, 1.45047, 1.43026, 1.43284, 1.43428, 1.44179, 1.44611, 1.44841, 1.42419, 1.41714, 1.40617, 1.4096, 1.40536, 1.39202, 1.38918, 1.38591, 1.38462, 1.3845, 1.38021, 1.37971, 1.38185, 1.37866, 1.37554, 1.37322, 1.37176, 1.40006, 1.37006, 1.3677, 1.36609, 1.36542, 1.36372, 1.36244, 1.36033, 1.35915, 1.35753, 1.35534, 1.35618, 1.35535, 1.35202, 1.34995, 1.3497, 1.34886, 1.34659, 1.34381, 1.34093, 1.33878, 1.33808, 1.33773, 1.33591, 1.33423, 1.3322, 1.33088, 1.32947, 1.33372, 1.32531, 1.32264, 1.32271, 1.32263, 1.32044, 1.32169, 1.31996, 1.3189, 1.31673, 1.31449, 1.31522, 1.31576, 1.31253, 1.31292, 1.31338, 1.31198, 1.31317, 1.30827, 1.30746, 1.30776, 1.30536, 1.31827, 1.32088, 1.30317, 1.31758, 1.30313, 1.29193, 1.34333, 1.40981, 1.51954, 1.59613, 1.60988, 1.63608, 1.52532, 1.51134, 1.51076, 1.50043, 1.49848, 1.46332, 1.28942, 1.2867, 1.28437, 1.30658, 1.29182, 1.30228, 1.28824, 1.27585, 1.27603, 1.27522, 1.27232, 1.26806, 1.26836, 
1.58873, 1.58635, 1.58419, 1.58083, 1.58289, 1.58694, 1.58548, 1.585, 1.58202, 1.57649, 1.59279, 1.56806, 1.56762, 1.56791, 1.56707, 1.57572, 1.56671, 1.5647, 1.56213, 1.58617, 1.56865, 1.57267, 1.56751, 1.56098, 1.551, 1.55008, 1.57159, 1.67524, 1.7195, 1.71637, 1.8168, 2.17926, 1.74982, 1.5308, 1.49877, 1.53381, 1.54117, 1.52638, 1.51385, 1.52244, 1.51217, 1.5131, 1.51571, 1.50805, 1.51076, 1.50245, 1.50741, 1.50581, 1.50277, 1.49606, 1.49401, 1.49062, 1.48911, 1.48619, 1.48451, 1.48197, 1.48099, 1.47978, 1.47749, 1.47449, 1.4734, 1.47097, 1.47039, 1.47833, 1.46544, 1.46441, 1.46282, 1.46015, 1.45603, 1.45311, 1.45511, 1.4508, 1.44835, 1.44909, 1.44702, 1.44442, 1.45327, 1.44299, 1.43982, 1.4384, 1.44333, 1.43375, 1.43334, 1.4327, 1.43249, 1.43171, 1.43174, 1.43202, 1.43498, 1.43502, 1.45449, 1.44012, 1.46499, 1.44164, 1.44336, 1.44011, 1.44341, 1.43533, 1.43442, 1.43239, 1.42467, 1.4502, 1.42469, 1.43045, 1.4411, 1.42249, 1.40707, 1.40678, 1.41422, 1.40924, 1.39591, 1.3895, 1.3839, 1.38355, 1.38229, 1.39075, 1.37775, 1.37265, 1.37129, 1.37702, 1.38915, 1.36631, 1.37797, 1.36483, 1.36105, 1.36056, 1.36076, 1.35836, 1.35713, 1.35757, 1.3547, 1.35088, 1.35047, 1.35031, 1.34888, 1.34817, 1.34536, 1.34547, 1.34333, 1.34222, 1.34113, 1.33903, 1.33628, 1.33375, 1.33212, 1.33545, 1.33335, 1.3335, 1.34002, 1.33473, 1.33056, 1.32774, 1.32842, 1.32311, 1.32292, 1.33018, 1.31978, 1.31589, 1.31103, 1.31225, 1.30857, 1.30861, 1.31024, 1.30748, 1.30734, 1.30688, 1.31215, 1.30395, 1.30196, 1.30158, 1.29576, 1.29386, 1.29191, 1.29593, 1.31029, 1.30114, 1.3021, 1.29082, 1.29094, 1.32595, 1.40293, 1.49676, 1.66998, 1.61647, 1.96553, 1.58718, 1.48848, 1.45744, 1.42368, 1.41104, 1.41037, 1.32948, 1.30508, 1.27152, 1.27331, 1.26825, 1.26775, 1.27064, 1.26894, 1.26954, 1.26954, 1.26821, 1.26728, 1.26037, 
1.5855, 1.58537, 1.58333, 1.5836, 1.5818, 1.58059, 1.57989, 1.57645, 1.57489, 1.57288, 1.56869, 1.57602, 1.56146, 1.56059, 1.56777, 1.57506, 1.56163, 1.55243, 1.55728, 1.57155, 1.5489, 1.54794, 1.54415, 1.54387, 1.54964, 1.53007, 1.54208, 1.58192, 1.69986, 1.6256, 1.74355, 1.72049, 1.77276, 1.5823, 1.50067, 1.51063, 1.51618, 1.51795, 1.51171, 1.506, 1.50282, 1.50204, 1.49918, 1.5, 1.49899, 1.49942, 1.49875, 1.49795, 1.49436, 1.49246, 1.49106, 1.49013, 1.48726, 1.48456, 1.4825, 1.47856, 1.47606, 1.47351, 1.47134, 1.46803, 1.46545, 1.46246, 1.46119, 1.45848, 1.46042, 1.44929, 1.45161, 1.45101, 1.45061, 1.44985, 1.44931, 1.4467, 1.4438, 1.44287, 1.45865, 1.44106, 1.44055, 1.43913, 1.45752, 1.43625, 1.44029, 1.43055, 1.42736, 1.4268, 1.42606, 1.42507, 1.42333, 1.43665, 1.4396, 1.43694, 1.43576, 1.45139, 1.448, 1.43924, 1.44061, 1.43802, 1.43386, 1.43015, 1.4361, 1.44384, 1.41709, 1.42981, 1.41569, 1.43307, 1.41287, 1.4178, 1.41319, 1.40876, 1.3901, 1.41286, 1.38352, 1.38352, 1.37224, 1.37209, 1.3662, 1.36329, 1.36214, 1.36077, 1.36, 1.35874, 1.3605, 1.36162, 1.35734, 1.35837, 1.35699, 1.35763, 1.35319, 1.35296, 1.35338, 1.35307, 1.35384, 1.35359, 1.3479, 1.34495, 1.34319, 1.34107, 1.33888, 1.33682, 1.3343, 1.33399, 1.32641, 1.3233, 1.32429, 1.32118, 1.32068, 1.32101, 1.32052, 1.32307, 1.31964, 1.32047, 1.3201, 1.31795, 1.32259, 1.31687, 1.31477, 1.31599, 1.31493, 1.31104, 1.30937, 1.30916, 1.3067, 1.30636, 1.30533, 1.30411, 1.30283, 1.30057, 1.29954, 1.29766, 1.29777, 1.29316, 1.29284, 1.28878, 1.28839, 1.28818, 1.28606, 1.28425, 1.28599, 1.28832, 1.27764, 1.278, 1.31423, 1.36467, 1.50284, 1.51651, 1.52482, 1.48753, 1.49746, 1.32891, 1.28838, 1.272, 1.26795, 1.26833, 1.26099, 1.26459, 1.26691, 1.26729, 1.26622, 1.27177, 1.29272, 1.25786, 1.25588, 1.25305, 1.2664, 1.25145, 
1.58292, 1.58247, 1.5848, 1.57915, 1.58211, 1.57291, 1.57411, 1.56914, 1.56864, 1.56454, 1.5592, 1.56198, 1.55331, 1.55085, 1.55193, 1.55126, 1.56139, 1.55208, 1.55111, 1.54092, 1.55779, 1.5463, 1.5455, 1.53728, 1.54489, 1.5364, 1.53734, 1.58486, 1.67285, 1.70625, 1.68744, 1.7199, 1.75162, 1.52415, 1.50161, 1.50178, 1.50728, 1.501, 1.5073, 1.51924, 1.50388, 1.50229, 1.50581, 1.52092, 1.50052, 1.49797, 1.49401, 1.49102, 1.48892, 1.48614, 1.48197, 1.47625, 1.47514, 1.47783, 1.47038, 1.47569, 1.48166, 1.4911, 1.46563, 1.46456, 1.46266, 1.46898, 1.46417, 1.45553, 1.45049, 1.44716, 1.44674, 1.44535, 1.44297, 1.44329, 1.4398, 1.43846, 1.43855, 1.43532, 1.43395, 1.4338, 1.43338, 1.43054, 1.43067, 1.42698, 1.42228, 1.42111, 1.42052, 1.42083, 1.41883, 1.4237, 1.4346, 1.43129, 1.4212, 1.42375, 1.42419, 1.44565, 1.43553, 1.43796, 1.44131, 1.43463, 1.43484, 1.4307, 1.43867, 1.42962, 1.41614, 1.42981, 1.41895, 1.41185, 1.41207, 1.41314, 1.40253, 1.38957, 1.41104, 1.38792, 1.37885, 1.3827, 1.37163, 1.36784, 1.37491, 1.36496, 1.37143, 1.3603, 1.36282, 1.356, 1.37851, 1.35487, 1.35372, 1.3504, 1.35902, 1.35039, 1.35222, 1.35075, 1.35313, 1.34691, 1.34538, 1.34625, 1.34333, 1.34491, 1.33826, 1.33669, 1.33532, 1.33634, 1.33225, 1.32969, 1.32691, 1.33631, 1.34013, 1.32324, 1.32673, 1.33554, 1.31889, 1.31683, 1.31518, 1.31608, 1.31208, 1.33037, 1.31219, 1.31186, 1.31145, 1.30932, 1.30652, 1.30551, 1.30541, 1.30286, 1.30335, 1.30202, 1.3029, 1.30084, 1.30503, 1.29897, 1.30913, 1.31258, 1.3126, 1.30289, 1.29357, 1.30533, 1.29148, 1.29201, 1.29233, 1.29562, 1.3023, 1.2895, 1.2927, 1.2507, 1.31956, 1.44336, 1.51331, 1.80046, 1.79985, 1.7905, 1.49903, 1.31235, 1.28689, 1.26428, 1.26904, 1.26862, 1.2634, 1.26896, 1.26944, 1.2572, 1.25633, 1.26474, 1.28851, 1.25742, 1.24881, 1.24981, 1.24395, 1.24448, 
