1.6442, 1.6621, 1.65863, 1.66382, 1.63823, 1.63404, 1.63074, 1.64447, 1.61779, 1.61588, 1.61355, 1.61127, 1.61701, 1.60832, 1.60662, 1.61405, 1.6105, 1.61089, 1.61044, 1.59332, 1.6026, 1.66238, 1.64429, 1.64951, 1.65378, 1.65415, 1.68943, 1.68664, 1.69465, 1.74094, 1.72825, 1.72091, 1.70353, 1.66961, 1.65572, 1.59566, 1.55422, 1.56667, 1.57771, 1.58428, 1.57168, 1.57283, 1.56221, 1.55968, 1.56125, 1.55383, 1.55033, 1.5485, 1.54994, 1.54606, 1.55345, 1.54484, 1.54779, 1.56157, 1.55397, 1.55812, 1.53527, 1.53108, 1.52767, 1.52666, 1.52808, 1.52702, 1.53654, 1.52611, 1.5231, 1.52066, 1.51707, 1.5149, 1.51377, 1.51261, 1.51096, 1.51022, 1.5085, 1.50646, 1.50243, 1.50239, 1.50016, 1.5021, 1.49748, 1.49626, 1.49259, 1.49284, 1.49311, 1.49149, 1.49062, 1.48864, 1.48892, 1.48788, 1.48723, 1.487, 1.48537, 1.48485, 1.48139, 1.47803, 1.4814, 1.47501, 1.47118, 1.47278, 1.47224, 1.46961, 1.48503, 1.47934, 1.44188, 1.4435, 1.48453, 1.52279, 1.58699, 1.6126, 1.66342, 1.71207, 1.72191, 1.7367, 1.70388, 1.67319, 1.54391, 1.51752, 1.44284, 1.41583, 1.44245, 1.45032, 1.45846, 1.44297, 1.44714, 1.43778, 1.4399, 1.4329, 1.44449, 1.4471, 1.42681, 1.42606, 1.42396, 1.42271, 1.4205, 1.4339, 1.42323, 1.41276, 1.41365, 1.42203, 1.41042, 1.40858, 1.40703, 1.40434, 1.40573, 1.40367, 1.40485, 1.40143, 1.4001, 1.39748, 1.39565, 1.39508, 1.39453, 1.39433, 1.39138, 1.39121, 1.39377, 1.39019, 1.38948, 1.39122, 1.38788, 1.38568, 1.38509, 1.38428, 1.38078, 1.38147, 1.37596, 1.37492, 1.36935, 1.37216, 1.3781, 1.36479, 1.36437, 1.36056, 1.35927, 1.35882, 1.35479, 1.3577, 1.35039, 1.35164, 1.35161, 1.35068, 1.35144, 1.35112, 1.35056, 1.34995, 1.35057, 1.35074, 1.34557, 1.34489, 1.35075, 1.34759, 1.35176, 1.34282, 1.34338, 1.34396, 1.34285, 1.35589, 1.34101, 1.3441, 1.34455, 1.34358, 1.35846, 1.35546, 1.35407, 1.35539, 1.34764, 1.36146, 1.36108, 1.36778, 1.3679, 1.40012, 1.38643, 1.39433, 1.38916, 1.41135, 1.42959, 1.39088, 1.38552, 1.36773, 1.32623, 1.30569, 1.32044, 1.31904, 1.32401, 1.32945, 1.31404, 1.33611, 1.30692, 1.30671, 1.32047, 1.30366, 1.30195, 1.30247, 1.30663, 1.29972, 1.29989, 1.30129, 1.30049, 1.31237, 1.30177, 1.29976, 1.30288, 1.30063, 1.30942
1.63971, 1.64154, 1.63717, 1.6442, 1.64463, 1.65367, 1.63642, 1.62243, 1.62619, 1.62308, 1.62357, 1.61923, 1.62152, 1.62051, 1.62315, 1.61692, 1.61696, 1.61291, 1.61073, 1.58871, 1.60003, 1.60265, 1.60431, 1.66568, 1.65393, 1.66113, 1.66176, 1.70099, 1.77582, 1.73082, 1.73671, 1.7308, 1.71404, 1.72395, 1.69292, 1.61342, 1.56425, 1.57936, 1.58896, 1.57815, 1.58512, 1.58846, 1.56753, 1.56563, 1.5627, 1.55826, 1.55773, 1.55267, 1.54911, 1.54787, 1.54778, 1.54782, 1.55409, 1.55448, 1.55028, 1.56046, 1.56105, 1.53996, 1.5614, 1.53851, 1.53687, 1.5369, 1.53367, 1.53496, 1.53063, 1.54833, 1.52387, 1.52203, 1.51998, 1.51805, 1.51611, 1.51385, 1.51216, 1.51503, 1.50939, 1.51935, 1.50239, 1.50342, 1.49959, 1.49955, 1.49794, 1.49545, 1.49638, 1.49458, 1.49349, 1.49264, 1.49228, 1.48832, 1.48838, 1.48614, 1.48431, 1.48341, 1.48291, 1.48286, 1.47865, 1.48588, 1.47661, 1.48497, 1.47417, 1.47817, 1.47894, 1.47521, 1.44749, 1.44483, 1.48229, 1.53684, 1.55806, 1.62082, 1.65438, 1.69642, 1.73065, 1.72008, 1.71271, 1.69868, 1.60975, 1.52023, 1.47253, 1.43354, 1.42497, 1.44845, 1.46216, 1.45955, 1.45222, 1.44378, 1.43841, 1.43522, 1.43153, 1.4289, 1.42647, 1.43077, 1.42358, 1.42439, 1.42046, 1.42055, 1.41828, 1.41789, 1.41997, 1.41632, 1.41663, 1.41501, 1.41553, 1.4117, 1.41204, 1.4111, 1.40929, 1.40847, 1.40725, 1.40335, 1.40599, 1.39927, 1.39809, 1.39723, 1.39631, 1.39631, 1.39646, 1.39379, 1.39887, 1.39519, 1.39438, 1.39462, 1.39232, 1.39197, 1.38914, 1.38775, 1.38527, 1.38409, 1.3822, 1.38026, 1.37667, 1.37378, 1.36909, 1.36741, 1.36528, 1.3658, 1.36452, 1.36376, 1.36042, 1.35856, 1.35981, 1.35832, 1.35619, 1.35465, 1.35343, 1.35289, 1.35294, 1.35084, 1.35196, 1.34783, 1.34916, 1.34999, 1.3482, 1.34791, 1.34952, 1.34618, 1.35006, 1.34716, 1.34226, 1.36038, 1.34721, 1.34738, 1.35082, 1.35761, 1.34061, 1.34781, 1.35381, 1.37033, 1.38822, 1.37614, 1.40374, 1.39504, 1.38995, 1.39492, 1.39259, 1.40471, 1.4132, 1.40263, 1.36077, 1.33871, 1.32746, 1.30828, 1.32094, 1.33277, 1.32402, 1.32421, 1.33728, 1.31859, 1.31921, 1.31266, 1.30981, 1.30722, 1.30741, 1.31763, 1.30286, 1.30882, 1.31273, 1.3224, 1.29813, 1.3012, 1.30992, 1.30827, 1.30142, 1.30209, 1.30543
1.64031, 1.6394, 1.64403, 1.65784, 1.63905, 1.64765, 1.65405, 1.65045, 1.64356, 1.63008, 1.62619, 1.62684, 1.62583, 1.62733, 1.61386, 1.62347, 1.61826, 1.61405, 1.61638, 1.60983, 1.59786, 1.61964, 1.64454, 1.6423, 1.65296, 1.72124, 1.69595, 1.73035, 1.75857, 1.74698, 1.74462, 1.72781, 1.72408, 1.68947, 1.66069, 1.63509, 1.58225, 1.57613, 1.58966, 1.57948, 1.58772, 1.57948, 1.57504, 1.56216, 1.55966, 1.55681, 1.55478, 1.55215, 1.55104, 1.56134, 1.54538, 1.54354, 1.54083, 1.54393, 1.54096, 1.54086, 1.54769, 1.56491, 1.55792, 1.54148, 1.53807, 1.54008, 1.54055, 1.53137, 1.52844, 1.52716, 1.52546, 1.52908, 1.52264, 1.52301, 1.52204, 1.52049, 1.51718, 1.51624, 1.50979, 1.50783, 1.50563, 1.50549, 1.5012, 1.5009, 1.49921, 1.49797, 1.49747, 1.49448, 1.49165, 1.4915, 1.5128, 1.48907, 1.48769, 1.48756, 1.48544, 1.48434, 1.48288, 1.48132, 1.49205, 1.47822, 1.47589, 1.47522, 1.47423, 1.47351, 1.47588, 1.48819, 1.45915, 1.45605, 1.47134, 1.55024, 1.54443, 1.59524, 1.63369, 1.69783, 1.70058, 1.69943, 1.69227, 1.67945, 1.57477, 1.5241, 1.49152, 1.40876, 1.42354, 1.44414, 1.46053, 1.44493, 1.43886, 1.43808, 1.43565, 1.44744, 1.43087, 1.45121, 1.42479, 1.45081, 1.42711, 1.42252, 1.42082, 1.41885, 1.42037, 1.42004, 1.41871, 1.41802, 1.41347, 1.41365, 1.41278, 1.4127, 1.41186, 1.41076, 1.40897, 1.4082, 1.40678, 1.40879, 1.40349, 1.39968, 1.39824, 1.39595, 1.39473, 1.39328, 1.39216, 1.39309, 1.39338, 1.39217, 1.39187, 1.39392, 1.39393, 1.39333, 1.39229, 1.39095, 1.39118, 1.38951, 1.38685, 1.38227, 1.38173, 1.37802, 1.37729, 1.37602, 1.3785, 1.37481, 1.37117, 1.36885, 1.36401, 1.36448, 1.36373, 1.3616, 1.36187, 1.36135, 1.36008, 1.36143, 1.3589, 1.36096, 1.36064, 1.35969, 1.35614, 1.35492, 1.35189, 1.35162, 1.35211, 1.34816, 1.34429, 1.34345, 1.34096, 1.34354, 1.34461, 1.36173, 1.35028, 1.36074, 1.33695, 1.36128, 1.3515, 1.35727, 1.37531, 1.37278, 1.38105, 1.38515, 1.38643, 1.40685, 1.4236, 1.40625, 1.4232, 1.40194, 1.38645, 1.36016, 1.3374, 1.31064, 1.31762, 1.32604, 1.33244, 1.32977, 1.33342, 1.31985, 1.31816, 1.31558, 1.31287, 1.3128, 1.30569, 1.30339, 1.30504, 1.3003, 1.3059, 1.30183, 1.30784, 1.30078, 1.29819, 1.29889, 1.29512, 1.29339, 1.30083
1.65191, 1.64825, 1.64766, 1.65678, 1.65524, 1.64917, 1.63677, 1.64771, 1.64712, 1.63743, 1.63051, 1.63642, 1.63168, 1.6215, 1.62609, 1.62464, 1.6301, 1.62752, 1.61322, 1.59892, 1.60199, 1.66756, 1.67191, 1.7151, 1.70326, 1.68986, 1.70225, 1.71968, 1.7493, 1.74594, 1.77188, 1.76971, 1.73159, 1.7113, 1.68953, 1.66468, 1.60981, 1.55954, 1.56481, 1.6021, 1.58575, 1.5779, 1.5753, 1.5685, 1.56491, 1.56263, 1.56031, 1.55788, 1.55577, 1.55166, 1.55355, 1.54719, 1.55416, 1.55482, 1.54358, 1.5404, 1.53518, 1.55531, 1.55528, 1.55285, 1.53813, 1.55552, 1.54277, 1.53585, 1.53075, 1.53138, 1.52898, 1.52742, 1.52604, 1.52311, 1.52445, 1.52093, 1.51974, 1.51723, 1.52706, 1.51274, 1.51234, 1.50824, 1.50756, 1.50592, 1.50479, 1.50391, 1.50268, 1.50794, 1.49876, 1.49747, 1.4954, 1.49477, 1.49316, 1.49215, 1.49055, 1.48856, 1.48554, 1.48566, 1.48752, 1.48563, 1.47678, 1.48134, 1.47525, 1.47693, 1.48205, 1.47595, 1.46782, 1.44732, 1.48207, 1.51404, 1.55501, 1.59672, 1.63331, 1.6757, 1.69202, 1.69162, 1.67906, 1.65341, 1.56546, 1.52146, 1.49313, 1.4274, 1.41984, 1.44022, 1.4458, 1.45504, 1.43975, 1.44746, 1.43428, 1.43132, 1.43029, 1.43268, 1.42787, 1.42896, 1.42446, 1.42303, 1.42444, 1.41807, 1.42198, 1.42992, 1.41651, 1.417, 1.41651, 1.4123, 1.41232, 1.40963, 1.4097, 1.4078, 1.40757, 1.40634, 1.45492, 1.40411, 1.40161, 1.39944, 1.39868, 1.39801, 1.3972, 1.39358, 1.39235, 1.39238, 1.39346, 1.3945, 1.39128, 1.39181, 1.39134, 1.38993, 1.38994, 1.38946, 1.38936, 1.38828, 1.38665, 1.38474, 1.38434, 1.38379, 1.38164, 1.37947, 1.37886, 1.37665, 1.37312, 1.37302, 1.36938, 1.36795, 1.36682, 1.36456, 1.3681, 1.36636, 1.3675, 1.36529, 1.3675, 1.36508, 1.36661, 1.36289, 1.36739, 1.35926, 1.36436, 1.36083, 1.35524, 1.35272, 1.35164, 1.34806, 1.34498, 1.3469, 1.34803, 1.34657, 1.3542, 1.34763, 1.34147, 1.33651, 1.35962, 1.38202, 1.38057, 1.38109, 1.42188, 1.39478, 1.39849, 1.47891, 1.43132, 1.42099, 1.41954, 1.40736, 1.40499, 1.37158, 1.31894, 1.31824, 1.3302, 1.34239, 1.33612, 1.33135, 1.3204, 1.32089, 1.33375, 1.31608, 1.31741, 1.31323, 1.31031, 1.30994, 1.3164, 1.30874, 1.30487, 1.30641, 1.30462, 1.3032, 1.29965, 1.30724, 1.2986, 1.29848, 1.29844
1.65117, 1.64936, 1.65132, 1.64429, 1.64793, 1.64712, 1.64421, 1.65476, 1.64874, 1.66389, 1.65527, 1.65498, 1.62684, 1.62088, 1.61822, 1.62242, 1.61464, 1.62354, 1.61592, 1.59901, 1.59867, 1.62618, 1.67206, 1.69426, 1.68368, 1.69733, 1.70313, 1.71954, 1.73524, 1.73989, 1.73665, 1.73256, 1.71302, 1.679, 1.65796, 1.6271, 1.57179, 1.55486, 1.58168, 1.58343, 1.57939, 1.57481, 1.57389, 1.57024, 1.56812, 1.56808, 1.56543, 1.57172, 1.56859, 1.55979, 1.57441, 1.56801, 1.54996, 1.54757, 1.54754, 1.54736, 1.54494, 1.54598, 1.5644, 1.55375, 1.55001, 1.53685, 1.5352, 1.5346, 1.54052, 1.53217, 1.53078, 1.52918, 1.52675, 1.5248, 1.52472, 1.52393, 1.52215, 1.52163, 1.5179, 1.51656, 1.51471, 1.51208, 1.51259, 1.51088, 1.51041, 1.50801, 1.52309, 1.50392, 1.50402, 1.50208, 1.49965, 1.49679, 1.49381, 1.49349, 1.49273, 1.49096, 1.48723, 1.48683, 1.48433, 1.48195, 1.47869, 1.47946, 1.4796, 1.4802, 1.49642, 1.48532, 1.46547, 1.45538, 1.45611, 1.49205, 1.55669, 1.59811, 1.63483, 1.65625, 1.67682, 1.69001, 1.67907, 1.66586, 1.61165, 1.31967, 1.44865, 1.44511, 1.41944, 1.44043, 1.44553, 1.44581, 1.44635, 1.44394, 1.4323, 1.43165, 1.42783, 1.42922, 1.42962, 1.42868, 1.42985, 1.42721, 1.42626, 1.42223, 1.42088, 1.41944, 1.41739, 1.41413, 1.41582, 1.4143, 1.41474, 1.41362, 1.41275, 1.41513, 1.41044, 1.40965, 1.40752, 1.40606, 1.40547, 1.40268, 1.40219, 1.40284, 1.40086, 1.39844, 1.39527, 1.39485, 1.39348, 1.39185, 1.39357, 1.39125, 1.39237, 1.39137, 1.39061, 1.38949, 1.38877, 1.38978, 1.38907, 1.38808, 1.38785, 1.38518, 1.38231, 1.38109, 1.37653, 1.37739, 1.372, 1.37817, 1.37111, 1.37033, 1.36956, 1.3695, 1.36947, 1.36998, 1.36744, 1.36595, 1.36437, 1.36488, 1.36261, 1.36228, 1.36217, 1.36168, 1.36149, 1.36337, 1.35933, 1.35893, 1.35862, 1.35578, 1.36035, 1.35356, 1.35189, 1.3536, 1.36768, 1.3463, 1.33791, 1.33978, 1.35177, 1.39979, 1.4279, 1.45103, 1.44489, 1.42822, 1.3995, 1.42623, 1.42974, 1.46461, 1.48371, 1.4344, 1.41497, 1.40055, 1.39552, 1.33331, 1.31909, 1.34417, 1.34468, 1.3371, 1.33218, 1.33369, 1.3175, 1.3196, 1.31302, 1.31549, 1.31037, 1.32243, 1.31102, 1.30805, 1.30596, 1.30573, 1.3043, 1.30516, 1.30521, 1.30683, 1.3, 1.29903, 1.29916
1.64679, 1.65129, 1.64515, 1.6441, 1.6412, 1.66123, 1.64669, 1.64995, 1.6414, 1.66368, 1.65462, 1.64491, 1.63149, 1.64475, 1.63457, 1.63422, 1.6276, 1.62803, 1.6254, 1.61609, 1.59311, 1.61063, 1.63002, 1.67531, 1.68042, 1.71396, 1.7569, 1.75423, 1.75818, 1.7714, 1.76998, 1.79255, 1.75549, 1.80704, 1.73086, 1.69081, 1.62829, 1.56439, 1.58286, 1.59233, 1.58743, 1.59203, 1.58355, 1.58, 1.57612, 1.57677, 1.57481, 1.58503, 1.573, 1.56732, 1.56465, 1.56205, 1.55957, 1.55936, 1.55494, 1.56212, 1.56838, 1.55525, 1.55499, 1.56788, 1.55533, 1.57341, 1.55387, 1.54253, 1.54009, 1.54039, 1.53397, 1.53074, 1.52787, 1.52677, 1.52685, 1.52429, 1.52398, 1.52468, 1.52188, 1.52029, 1.51914, 1.51987, 1.51276, 1.51376, 1.51709, 1.51281, 1.50955, 1.51543, 1.50686, 1.50804, 1.50336, 1.49986, 1.49931, 1.4954, 1.49341, 1.50742, 1.49287, 1.49081, 1.49201, 1.49071, 1.49006, 1.48833, 1.48544, 1.49583, 1.49976, 1.49633, 1.4872, 1.44426, 1.5092, 1.50222, 1.51937, 1.60392, 1.70996, 1.68576, 1.69962, 1.69893, 1.69348, 1.68725, 1.65578, 1.60274, 1.53129, 1.49173, 1.42359, 1.46607, 1.45477, 1.45784, 1.45511, 1.44276, 1.45083, 1.44024, 1.4389, 1.43724, 1.43653, 1.43417, 1.4329, 1.43238, 1.43085, 1.42832, 1.42748, 1.42693, 1.42458, 1.42155, 1.42239, 1.42053, 1.42078, 1.41857, 1.41799, 1.4188, 1.41745, 1.41751, 1.41443, 1.41466, 1.41243, 1.41164, 1.4094, 1.40827, 1.40356, 1.44726, 1.40226, 1.40315, 1.40493, 1.3998, 1.39869, 1.39699, 1.3974, 1.39481, 1.39307, 1.3917, 1.39427, 1.39153, 1.39022, 1.38838, 1.38788, 1.38606, 1.38717, 1.38529, 1.3822, 1.38084, 1.3767, 1.37799, 1.37573, 1.37584, 1.37592, 1.3728, 1.36943, 1.3695, 1.37001, 1.36901, 1.36827, 1.36836, 1.36901, 1.36895, 1.36712, 1.37145, 1.3631, 1.36266, 1.36166, 1.36056, 1.36063, 1.36105, 1.36038, 1.35834, 1.35728, 1.37133, 1.36124, 1.36571, 1.35014, 1.3456, 1.36478, 1.37185, 1.37909, 1.39778, 1.40256, 1.42694, 1.44019, 1.44011, 1.44631, 1.46561, 1.43787, 1.4407, 1.41737, 1.39791, 1.37674, 1.32396, 1.32038, 1.33998, 1.36156, 1.34053, 1.33106, 1.32443, 1.32603, 1.3287, 1.31644, 1.31475, 1.31229, 1.31291, 1.31159, 1.31842, 1.31149, 1.30867, 1.30529, 1.30569, 1.30402, 1.3049, 1.30249, 1.31691, 1.30033
1.65405, 1.65164, 1.65144, 1.64764, 1.64719, 1.64895, 1.64376, 1.64177, 1.65094, 1.6525, 1.64305, 1.66185, 1.64542, 1.64057, 1.64483, 1.63641, 1.63683, 1.6368, 1.62816, 1.62346, 1.61859, 1.63031, 1.64614, 1.69869, 1.71642, 1.71447, 1.66615, 1.65911, 1.68254, 1.77436, 1.78347, 1.75312, 1.74693, 1.74731, 1.6865, 1.69237, 1.61969, 1.57354, 1.59276, 1.61004, 1.59218, 1.59045, 1.58521, 1.58344, 1.57857, 1.57712, 1.5745, 1.57233, 1.57188, 1.56932, 1.57106, 1.56804, 1.56651, 1.56541, 1.56225, 1.56331, 1.55844, 1.55798, 1.55725, 1.55797, 1.5828, 1.58508, 1.56171, 1.56002, 1.54555, 1.55315, 1.5387, 1.53466, 1.5313, 1.5304, 1.53141, 1.52693, 1.52423, 1.52261, 1.52109, 1.51795, 1.51833, 1.51566, 1.51511, 1.51383, 1.51393, 1.51125, 1.51103, 1.5089, 1.50583, 1.50411, 1.50642, 1.50295, 1.50137, 1.49851, 1.49691, 1.4965, 1.50309, 1.49422, 1.49345, 1.49214, 1.49571, 1.48947, 1.48864, 1.50644, 1.49029, 1.49697, 1.49598, 1.45698, 1.44077, 1.47274, 1.50504, 1.62309, 1.61622, 1.64793, 1.67601, 1.69204, 1.68715, 1.68186, 1.66996, 1.62065, 1.53817, 1.48988, 1.43454, 1.46002, 1.46409, 1.46125, 1.46119, 1.45581, 1.45466, 1.45111, 1.4581, 1.44669, 1.44538, 1.44179, 1.44101, 1.45146, 1.43562, 1.43437, 1.43128, 1.43003, 1.42828, 1.42624, 1.42468, 1.42054, 1.42256, 1.42204, 1.42144, 1.42052, 1.41928, 1.41953, 1.4178, 1.41744, 1.4159, 1.41523, 1.41355, 1.41181, 1.41068, 1.41, 1.40913, 1.40648, 1.40581, 1.40533, 1.40493, 1.40332, 1.40232, 1.40076, 1.40129, 1.40013, 1.39975, 1.39577, 1.39273, 1.39254, 1.39102, 1.38919, 1.38864, 1.3852, 1.38398, 1.38269, 1.37942, 1.37847, 1.37715, 1.37743, 1.37584, 1.37423, 1.37241, 1.37106, 1.37028, 1.36912, 1.36914, 1.3664, 1.36506, 1.36458, 1.36499, 1.36401, 1.36378, 1.36374, 1.36156, 1.3621, 1.3634, 1.36032, 1.35878, 1.35755, 1.36422, 1.36117, 1.36235, 1.37224, 1.37386, 1.34161, 1.37984, 1.40515, 1.41644, 1.40099, 1.44888, 1.42999, 1.42945, 1.4281, 1.4171, 1.42634, 1.46182, 1.44069, 1.43006, 1.37781, 1.40976, 1.34294, 1.31321, 1.34385, 1.33857, 1.34165, 1.33169, 1.34238, 1.32699, 1.34034, 1.32353, 1.32012, 1.31765, 1.31747, 1.31685, 1.31726, 1.31883, 1.31608, 1.31308, 1.31293, 1.312, 1.31219, 1.30967, 1.31025, 1.31346
1.66242, 1.65845, 1.65829, 1.65534, 1.65449, 1.65141, 1.64865, 1.64744, 1.65046, 1.65514, 1.66937, 1.66307, 1.65618, 1.65436, 1.6553, 1.65145, 1.64756, 1.6465, 1.63696, 1.63677, 1.60773, 1.63879, 1.63249, 1.65474, 1.66554, 1.68601, 1.71103, 1.74028, 1.74095, 1.66699, 1.7752, 1.75513, 1.74569, 1.75742, 1.71077, 1.65125, 1.60746, 1.57094, 1.60897, 1.61273, 1.5989, 1.59521, 1.59151, 1.58305, 1.57982, 1.57771, 1.57565, 1.571, 1.58201, 1.56896, 1.56852, 1.56635, 1.57063, 1.5632, 1.56054, 1.56175, 1.56731, 1.55913, 1.56848, 1.55715, 1.57226, 1.5689, 1.5787, 1.57468, 1.56439, 1.54436, 1.54429, 1.53908, 1.53676, 1.53873, 1.53866, 1.53134, 1.53776, 1.52811, 1.52414, 1.52298, 1.522, 1.52201, 1.52096, 1.51952, 1.51966, 1.51534, 1.51475, 1.52691, 1.51153, 1.50911, 1.50767, 1.50586, 1.51077, 1.53798, 1.52745, 1.52049, 1.49864, 1.49825, 1.49587, 1.4949, 1.49219, 1.4896, 1.49019, 1.48998, 1.49071, 1.48962, 1.49474, 1.45035, 1.45781, 1.49334, 1.54391, 1.59233, 1.63054, 1.6564, 1.65627, 1.67106, 1.67015, 1.64811, 1.64809, 1.59926, 1.57213, 1.50859, 1.47903, 1.46141, 1.45799, 1.47634, 1.46553, 1.46259, 1.4588, 1.4591, 1.47096, 1.45942, 1.45006, 1.44538, 1.44491, 1.44045, 1.43781, 1.43804, 1.46104, 1.45262, 1.4323, 1.42954, 1.42838, 1.42712, 1.4249, 1.4242, 1.42278, 1.42246, 1.42054, 1.42001, 1.42103, 1.41989, 1.41887, 1.41741, 1.41573, 1.41456, 1.41337, 1.4121, 1.41213, 1.41043, 1.41131, 1.40887, 1.40818, 1.40718, 1.40527, 1.40518, 1.40189, 1.40219, 1.4046, 1.39514, 1.39256, 1.39049, 1.38919, 1.38927, 1.38688, 1.38588, 1.38428, 1.38133, 1.38115, 1.37889, 1.37661, 1.37598, 1.37429, 1.37198, 1.37062, 1.36844, 1.36737, 1.36612, 1.36498, 1.36511, 1.36474, 1.3639, 1.36053, 1.35993, 1.36088, 1.36023, 1.35881, 1.35947, 1.35729, 1.35679, 1.37112, 1.35827, 1.36058, 1.36389, 1.37349, 1.36574, 1.35673, 1.3435, 1.37334, 1.38242, 1.38903, 1.39165, 1.48866, 1.4369, 1.44028, 1.4416, 1.44566, 1.45501, 1.45847, 1.48896, 1.41762, 1.40915, 1.38182, 1.3476, 1.31145, 1.32399, 1.34788, 1.34664, 1.33708, 1.32572, 1.33686, 1.31959, 1.32266, 1.3209, 1.32257, 1.31972, 1.31676, 1.3171, 1.32313, 1.31578, 1.31281, 1.31346, 1.31245, 1.3374, 1.32389, 1.3229, 1.32807
1.66292, 1.66095, 1.65865, 1.67885, 1.65426, 1.65866, 1.65217, 1.65525, 1.64754, 1.64916, 1.65438, 1.65169, 1.6665, 1.65844, 1.6541, 1.63863, 1.63959, 1.64776, 1.65132, 1.64114, 1.61414, 1.62162, 1.63002, 1.66192, 1.72367, 1.72004, 1.7316, 1.81371, 1.77641, 1.82445, 1.8062, 1.79947, 1.80006, 1.80292, 1.75545, 1.65444, 1.60617, 1.57113, 1.59364, 1.59877, 1.59597, 1.59882, 1.59165, 1.58803, 1.57889, 1.57625, 1.57548, 1.57447, 1.57845, 1.57163, 1.57129, 1.56975, 1.56828, 1.56716, 1.57047, 1.56337, 1.57892, 1.55904, 1.56879, 1.59594, 1.58594, 1.58474, 1.57935, 1.58261, 1.59352, 1.56838, 1.55639, 1.54368, 1.54908, 1.53998, 1.54529, 1.53367, 1.53325, 1.53339, 1.53095, 1.53033, 1.52819, 1.5262, 1.52421, 1.5236, 1.52266, 1.52054, 1.51784, 1.51442, 1.51275, 1.51126, 1.51007, 1.5147, 1.50614, 1.50683, 1.50537, 1.51886, 1.51771, 1.4969, 1.49556, 1.50311, 1.49322, 1.49921, 1.4929, 1.49902, 1.5008, 1.50282, 1.49904, 1.46152, 1.46536, 1.49018, 1.5437, 1.57867, 1.61284, 1.67195, 1.67605, 1.68416, 1.68951, 1.69191, 1.66655, 1.61318, 1.56565, 1.51317, 1.46199, 1.44788, 1.45535, 1.46797, 1.48226, 1.46894, 1.46216, 1.46075, 1.4583, 1.45705, 1.4541, 1.45155, 1.4476, 1.4472, 1.44397, 1.44349, 1.44135, 1.44013, 1.43834, 1.43736, 1.43392, 1.43277, 1.43201, 1.42814, 1.42681, 1.42602, 1.42562, 1.42389, 1.42463, 1.42566, 1.42281, 1.42027, 1.41902, 1.41664, 1.41601, 1.41443, 1.41217, 1.41226, 1.41232, 1.41033, 1.41098, 1.40882, 1.40622, 1.40596, 1.40553, 1.40258, 1.40178, 1.40018, 1.3993, 1.39773, 1.40057, 1.39496, 1.39225, 1.39146, 1.39211, 1.38779, 1.38773, 1.38264, 1.38301, 1.381, 1.38045, 1.37803, 1.37571, 1.37339, 1.37188, 1.37131, 1.37166, 1.36847, 1.3675, 1.36659, 1.36528, 1.36567, 1.36413, 1.36538, 1.36264, 1.36449, 1.3642, 1.36495, 1.36366, 1.36448, 1.37872, 1.37438, 1.37367, 1.37442, 1.37617, 1.35327, 1.37797, 1.42265, 1.43054, 1.47807, 1.438, 1.44305, 1.46888, 1.47204, 1.45774, 1.46036, 1.45452, 1.42831, 1.43776, 1.41088, 1.38127, 1.35682, 1.34287, 1.31978, 1.36118, 1.33801, 1.34375, 1.34708, 1.33708, 1.32884, 1.32801, 1.32731, 1.32495, 1.33782, 1.32103, 1.33352, 1.31765, 1.31764, 1.32108, 1.32995, 1.32623, 1.32015, 1.31714, 1.31935, 1.32
1.66564, 1.66394, 1.66927, 1.65986, 1.65814, 1.65599, 1.65067, 1.65, 1.66478, 1.65397, 1.6576, 1.65831, 1.67181, 1.66998, 1.67164, 1.65839, 1.63886, 1.64092, 1.64061, 1.63571, 1.62779, 1.62274, 1.64537, 1.63724, 1.65721, 1.67256, 1.75571, 1.73053, 1.75114, 1.83088, 1.82454, 1.83096, 1.82514, 1.7926, 1.73049, 1.69178, 1.62497, 1.59457, 1.58316, 1.60044, 1.61087, 1.5977, 1.60266, 1.59986, 1.585, 1.58438, 1.58965, 1.58022, 1.57816, 1.57715, 1.57488, 1.58759, 1.57328, 1.57963, 1.56787, 1.5678, 1.56971, 1.5646, 1.56364, 1.57128, 1.56125, 1.56146, 1.55845, 1.57172, 1.57403, 1.56744, 1.57191, 1.56443, 1.55912, 1.55197, 1.54181, 1.54033, 1.54053, 1.53801, 1.54024, 1.53551, 1.53337, 1.53729, 1.53683, 1.52988, 1.52887, 1.5273, 1.52407, 1.5338, 1.52767, 1.52075, 1.51496, 1.51307, 1.50971, 1.51228, 1.51005, 1.50959, 1.50755, 1.50599, 1.51227, 1.51725, 1.51195, 1.51677, 1.5028, 1.50625, 1.50781, 1.50068, 1.50619, 1.50619, 1.4697, 1.49841, 1.56831, 1.56836, 1.61979, 1.64337, 1.66635, 1.66439, 1.65961, 1.65622, 1.66481, 1.62443, 1.5729, 1.51628, 1.48843, 1.44766, 1.48114, 1.47651, 1.46441, 1.47477, 1.46929, 1.46517, 1.47513, 1.46771, 1.45874, 1.45708, 1.45436, 1.45457, 1.45372, 1.45119, 1.44922, 1.44711, 1.44571, 1.44371, 1.45124, 1.43932, 1.43829, 1.43627, 1.4368, 1.43508, 1.43316, 1.43229, 1.43104, 1.42962, 1.42893, 1.42624, 1.42341, 1.42313, 1.42166, 1.42178, 1.41974, 1.41807, 1.41548, 1.42465, 1.40903, 1.40983, 1.40972, 1.41012, 1.40555, 1.40703, 1.32906, 1.33019, 1.40829, 1.4023, 1.39955, 1.39829, 1.39805, 1.39628, 1.39203, 1.39085, 1.3896, 1.38832, 1.38674, 1.38484, 1.38111, 1.38467, 1.38011, 1.38135, 1.37711, 1.38175, 1.37514, 1.37382, 1.38215, 1.37241, 1.37191, 1.37035, 1.37047, 1.36959, 1.37044, 1.37061, 1.36984, 1.37116, 1.37076, 1.37457, 1.37275, 1.37161, 1.39335, 1.38855, 1.38944, 1.37161, 1.409, 1.36912, 1.42411, 1.46924, 1.46801, 1.46422, 1.46251, 1.46261, 1.45748, 1.49939, 1.46441, 1.45852, 1.44784, 1.43336, 1.4089, 1.38441, 1.35832, 1.31665, 1.34725, 1.34391, 1.35204, 1.34006, 1.3398, 1.32983, 1.32861, 1.32985, 1.32931, 1.32921, 1.32657, 1.32356, 1.32115, 1.32028, 1.32231, 1.32223, 1.3371, 1.32132, 1.31925, 1.31794, 1.31686
1.66812, 1.66206, 1.66451, 1.65716, 1.65466, 1.65503, 1.65216, 1.65125, 1.66173, 1.64705, 1.64522, 1.64528, 1.65059, 1.65646, 1.67296, 1.67596, 1.66858, 1.66117, 1.63576, 1.64155, 1.62054, 1.60694, 1.637, 1.70036, 1.70064, 1.73905, 1.73982, 1.80616, 1.82112, 1.79553, 1.79717, 1.78928, 1.77134, 1.75762, 1.717, 1.67163, 1.63239, 1.59218, 1.59838, 1.59947, 1.59706, 1.5929, 1.59623, 1.58846, 1.58695, 1.58563, 1.58371, 1.58269, 1.58009, 1.57836, 1.57498, 1.57419, 1.57156, 1.57099, 1.56881, 1.56747, 1.5652, 1.56443, 1.56396, 1.56307, 1.5616, 1.56025, 1.55632, 1.56244, 1.55435, 1.57262, 1.57131, 1.55682, 1.55453, 1.54273, 1.54047, 1.54226, 1.53742, 1.53623, 1.53649, 1.5343, 1.53334, 1.53144, 1.53043, 1.52999, 1.52905, 1.5268, 1.52466, 1.52135, 1.51929, 1.51503, 1.514, 1.52424, 1.51218, 1.51021, 1.50876, 1.50714, 1.50461, 1.50312, 1.50113, 1.49917, 1.49863, 1.4986, 1.49834, 1.49874, 1.50011, 1.50198, 1.50818, 1.48025, 1.48265, 1.50093, 1.54738, 1.55965, 1.63142, 1.66194, 1.64733, 1.67872, 1.68294, 1.67642, 1.68246, 1.62287, 1.57476, 1.50238, 1.46035, 1.43362, 1.45484, 1.46429, 1.47139, 1.46495, 1.4681, 1.45945, 1.45759, 1.4548, 1.45253, 1.44879, 1.44793, 1.44755, 1.44645, 1.4445, 1.44306, 1.44183, 1.43963, 1.43934, 1.46444, 1.43763, 1.43739, 1.43579, 1.43479, 1.43269, 1.4337, 1.43377, 1.43098, 1.43013, 1.42829, 1.42789, 1.42603, 1.42167, 1.42321, 1.42353, 1.42209, 1.41971, 1.4188, 1.41838, 1.41675, 1.41293, 1.41453, 1.41113, 1.41325, 1.41004, 1.40919, 1.40662, 1.40687, 1.42067, 1.40275, 1.40127, 1.39862, 1.39753, 1.3956, 1.39404, 1.39213, 1.39201, 1.38956, 1.38834, 1.38604, 1.38651, 1.38398, 1.38433, 1.38214, 1.38371, 1.38846, 1.38066, 1.37817, 1.38011, 1.37444, 1.37458, 1.37946, 1.37242, 1.3713, 1.37168, 1.37155, 1.37063, 1.37231, 1.37106, 1.37254, 1.39153, 1.38497, 1.37963, 1.37558, 1.35011, 1.35503, 1.42464, 1.42405, 1.45415, 1.48194, 1.46655, 1.4579, 1.45906, 1.47323, 1.48049, 1.48507, 1.48809, 1.48156, 1.43605, 1.42383, 1.35616, 1.33478, 1.34083, 1.3388, 1.34358, 1.3347, 1.3374, 1.33705, 1.33013, 1.33166, 1.32988, 1.33054, 1.33299, 1.33154, 1.33865, 1.33022, 1.32767, 1.33656, 1.32976, 1.32534, 1.32435, 1.32131, 1.32228, 1.32354
1.66551, 1.66484, 1.66111, 1.65816, 1.6573, 1.65473, 1.66226, 1.65506, 1.65731, 1.65782, 1.65752, 1.64832, 1.63938, 1.64897, 1.6613, 1.67399, 1.6696, 1.6521, 1.63074, 1.63493, 1.62066, 1.61136, 1.63711, 1.63834, 1.68638, 1.69336, 1.73877, 1.75411, 1.77802, 1.78614, 1.87255, 1.81796, 1.8076, 1.78607, 1.73756, 1.68897, 1.65394, 1.60012, 1.57114, 1.60283, 1.60676, 1.61262, 1.60283, 1.58692, 1.59067, 1.58538, 1.57905, 1.59555, 1.57584, 1.57476, 1.58156, 1.57177, 1.56926, 1.58927, 1.56661, 1.56563, 1.56426, 1.56245, 1.56508, 1.56174, 1.57258, 1.55565, 1.55637, 1.56599, 1.55678, 1.55925, 1.56113, 1.56787, 1.55445, 1.55789, 1.55052, 1.55156, 1.53575, 1.53434, 1.53113, 1.5311, 1.53081, 1.54397, 1.52948, 1.53321, 1.53053, 1.52204, 1.52018, 1.5165, 1.51626, 1.51302, 1.5116, 1.50762, 1.50626, 1.50367, 1.50058, 1.5238, 1.49818, 1.5024, 1.49585, 1.49443, 1.50227, 1.49906, 1.50115, 1.50029, 1.50348, 1.50191, 1.50422, 1.47527, 1.47741, 1.48848, 1.52886, 1.56153, 1.59565, 1.65816, 1.6721, 1.68933, 1.69314, 1.6906, 1.67631, 1.61349, 1.5827, 1.52637, 1.48145, 1.44528, 1.47199, 1.47957, 1.46592, 1.47125, 1.46545, 1.46566, 1.46404, 1.45333, 1.44931, 1.46193, 1.454, 1.44085, 1.44818, 1.44061, 1.43665, 1.43701, 1.4331, 1.43343, 1.43254, 1.43126, 1.43196, 1.43128, 1.42984, 1.42713, 1.4277, 1.42396, 1.42136, 1.41969, 1.4197, 1.41971, 1.42, 1.42018, 1.41919, 1.41882, 1.41966, 1.41679, 1.42492, 1.41607, 1.41417, 1.414, 1.4231, 1.41102, 1.41082, 1.40933, 1.41366, 1.40791, 1.40711, 1.40613, 1.40601, 1.40576, 1.40282, 1.42089, 1.42674, 1.39886, 1.39833, 1.39866, 1.40187, 1.39241, 1.39113, 1.38962, 1.39641, 1.38364, 1.38131, 1.38296, 1.37985, 1.38096, 1.37962, 1.37748, 1.3746, 1.37505, 1.37417, 1.38369, 1.39078, 1.37217, 1.37399, 1.37476, 1.36925, 1.37047, 1.36733, 1.37498, 1.39209, 1.37982, 1.37233, 1.3448, 1.37578, 1.42985, 1.41591, 1.43096, 1.45047, 1.45615, 1.47158, 1.48623, 1.5032, 1.48112, 1.48428, 1.4868, 1.47099, 1.46157, 1.43366, 1.38877, 1.34698, 1.31972, 1.34269, 1.35335, 1.34354, 1.34326, 1.33687, 1.34046, 1.35067, 1.33635, 1.34173, 1.33694, 1.33226, 1.33269, 1.32938, 1.32621, 1.35444, 1.33013, 1.32967, 1.32296, 1.35868, 1.31946, 1.3176
1.66657, 1.66395, 1.66316, 1.66007, 1.65954, 1.6586, 1.65604, 1.65247, 1.65145, 1.67025, 1.64542, 1.66043, 1.64799, 1.64112, 1.63902, 1.6578, 1.66238, 1.67513, 1.66401, 1.637, 1.6197, 1.62454, 1.63408, 1.62745, 1.64379, 1.67864, 1.74988, 1.75619, 1.7609, 1.80071, 1.81472, 1.81676, 1.81125, 1.79253, 1.77969, 1.6771, 1.61022, 1.59418, 1.58794, 1.61383, 1.59675, 1.59281, 1.58592, 1.59035, 1.59683, 1.58087, 1.57925, 1.57855, 1.57686, 1.5761, 1.57507, 1.57253, 1.57014, 1.56755, 1.56543, 1.566, 1.56324, 1.56754, 1.56114, 1.55888, 1.556, 1.55284, 1.55137, 1.54901, 1.54683, 1.5548, 1.55321, 1.54988, 1.56249, 1.56428, 1.5507, 1.5327, 1.53212, 1.52941, 1.52943, 1.53031, 1.53098, 1.53072, 1.53292, 1.52912, 1.54063, 1.52373, 1.51915, 1.51909, 1.51339, 1.51115, 1.50728, 1.50429, 1.50049, 1.49665, 1.49411, 1.48962, 1.48808, 1.48633, 1.4872, 1.48865, 1.48959, 1.48958, 1.49502, 1.49659, 1.49271, 1.49774, 1.49909, 1.48828, 1.4883, 1.51645, 1.58535, 1.59634, 1.62332, 1.66416, 1.66273, 1.6698, 1.61161, 1.61333, 1.66569, 1.6096, 1.56855, 1.55468, 1.47967, 1.45463, 1.45476, 1.45345, 1.46476, 1.46782, 1.46209, 1.4674, 1.44988, 1.46934, 1.4532, 1.44235, 1.44859, 1.43881, 1.43839, 1.43713, 1.43632, 1.43575, 1.43422, 1.43379, 1.43258, 1.43035, 1.42982, 1.42831, 1.42686, 1.42535, 1.42332, 1.42263, 1.42074, 1.42105, 1.41724, 1.41664, 1.41618, 1.41723, 1.41914, 1.41958, 1.41721, 1.41773, 1.41944, 1.41345, 1.41188, 1.41008, 1.40869, 1.40785, 1.40646, 1.40601, 1.40495, 1.40295, 1.40218, 1.40341, 1.40181, 1.40018, 1.39902, 1.3958, 1.39396, 1.39211, 1.39197, 1.39172, 1.38977, 1.38739, 1.38544, 1.38268, 1.38105, 1.38034, 1.37749, 1.37767, 1.3752, 1.37428, 1.37514, 1.37507, 1.37418, 1.3709, 1.37044, 1.3721, 1.3707, 1.37073, 1.37093, 1.37527, 1.36678, 1.36473, 1.36533, 1.36484, 1.37484, 1.37077, 1.3623, 1.34596, 1.35937, 1.38011, 1.45163, 1.48423, 1.46837, 1.47048, 1.47628, 1.48108, 1.50575, 1.50208, 1.50313, 1.50521, 1.50853, 1.45136, 1.44211, 1.38496, 1.34106, 1.31232, 1.34041, 1.34711, 1.35854, 1.33955, 1.33703, 1.33772, 1.33562, 1.34467, 1.33298, 1.3316, 1.32967, 1.32881, 1.32662, 1.32314, 1.32506, 1.32065, 1.31917, 1.32017, 1.3201, 1.31872, 1.31776
1.6808, 1.67767, 1.67641, 1.67331, 1.6713, 1.67173, 1.66979, 1.66823, 1.66859, 1.6613, 1.66349, 1.66247, 1.66095, 1.66415, 1.66064, 1.6593, 1.67165, 1.6585, 1.66905, 1.66615, 1.65937, 1.62794, 1.62484, 1.62166, 1.63031, 1.68943, 1.72048, 1.75547, 1.79914, 1.84913, 1.84899, 1.85113, 1.84083, 1.83764, 1.77082, 1.73362, 1.65506, 1.59222, 1.60643, 1.62365, 1.60776, 1.59923, 1.5977, 1.59658, 1.59947, 1.59689, 1.59393, 1.59268, 1.58912, 1.58597, 1.58498, 1.58266, 1.58192, 1.58019, 1.57862, 1.57816, 1.57872, 1.57708, 1.5734, 1.57972, 1.56695, 1.57316, 1.55909, 1.55785, 1.55783, 1.55493, 1.55573, 1.55684, 1.56137, 1.57025, 1.55575, 1.56364, 1.5517, 1.54972, 1.54698, 1.54518, 1.55366, 1.53773, 1.54195, 1.53238, 1.53222, 1.53279, 1.53217, 1.52978, 1.53376, 1.5236, 1.52266, 1.52291, 1.51625, 1.51612, 1.51537, 1.51412, 1.51246, 1.51138, 1.50921, 1.50712, 1.50632, 1.50577, 1.52481, 1.51307, 1.51144, 1.53088, 1.53107, 1.50558, 1.48625, 1.51028, 1.53866, 1.55881, 1.59688, 1.61672, 1.62751, 1.65751, 1.65805, 1.63185, 1.61374, 1.61652, 1.60016, 1.52737, 1.51279, 1.46137, 1.45516, 1.47575, 1.4848, 1.47495, 1.482, 1.48576, 1.47921, 1.47512, 1.46403, 1.46136, 1.47038, 1.46408, 1.47059, 1.45785, 1.45297, 1.45101, 1.45435, 1.44915, 1.46064, 1.44415, 1.44128, 1.44046, 1.43648, 1.44346, 1.42987, 1.42695, 1.4267, 1.42759, 1.42596, 1.42941, 1.4302, 1.43172, 1.43323, 1.43311, 1.43151, 1.42747, 1.42426, 1.42282, 1.42029, 1.41705, 1.41669, 1.41563, 1.41758, 1.41857, 1.41827, 1.41722, 1.41459, 1.41245, 1.41183, 1.40835, 1.40434, 1.4021, 1.4001, 1.39749, 1.4001, 1.39661, 1.39607, 1.39855, 1.3992, 1.39898, 1.3971, 1.39465, 1.39271, 1.38753, 1.38531, 1.38531, 1.38774, 1.38594, 1.38344, 1.37824, 1.37583, 1.37886, 1.37547, 1.39058, 1.37575, 1.37742, 1.37701, 1.37666, 1.37305, 1.37585, 1.37719, 1.37078, 1.37948, 1.34822, 1.3511, 1.37208, 1.39291, 1.42756, 1.45662, 1.46546, 1.50497, 1.53455, 1.50374, 1.50778, 1.50903, 1.5098, 1.50019, 1.45101, 1.45417, 1.42268, 1.35702, 1.34035, 1.35442, 1.35833, 1.35369, 1.36444, 1.35468, 1.33957, 1.33695, 1.33566, 1.33905, 1.33996, 1.34362, 1.34317, 1.34048, 1.34035, 1.33644, 1.33369, 1.33428, 1.36429, 1.32984, 1.32903, 1.32904
1.67035, 1.65917, 1.65782, 1.65117, 1.65335, 1.64943, 1.66067, 1.64705, 1.64566, 1.66122, 1.65197, 1.65708, 1.65876, 1.65601, 1.65166, 1.65844, 1.64556, 1.66172, 1.64148, 1.65826, 1.6438, 1.6108, 1.61054, 1.66767, 1.68528, 1.71583, 1.71783, 1.77479, 1.80774, 1.81299, 1.82821, 1.84267, 1.8387, 1.81786, 1.78037, 1.71275, 1.6508, 1.57582, 1.57233, 1.60362, 1.60978, 1.61216, 1.60072, 1.59287, 1.58918, 1.59946, 1.5904, 1.59603, 1.58474, 1.56539, 1.56814, 1.5647, 1.55828, 1.58641, 1.56985, 1.57092, 1.57032, 1.56761, 1.56609, 1.55455, 1.5489, 1.55097, 1.54886, 1.55159, 1.5536, 1.55381, 1.55214, 1.55236, 1.55211, 1.56566, 1.56823, 1.565, 1.56149, 1.56495, 1.54075, 1.53934, 1.53271, 1.53835, 1.52832, 1.52853, 1.5293, 1.53445, 1.52867, 1.52853, 1.53426, 1.52461, 1.54073, 1.51588, 1.51876, 1.50742, 1.50577, 1.50756, 1.5326, 1.51642, 1.51965, 1.52722, 1.49988, 1.51357, 1.51375, 1.50578, 1.50902, 1.5056, 1.50912, 1.51022, 1.46876, 1.48099, 1.50135, 1.52065, 1.5702, 1.6128, 1.65235, 1.63722, 1.64417, 1.65072, 1.63864, 1.60767, 1.60307, 1.55084, 1.50592, 1.46781, 1.47137, 1.45365, 1.47271, 1.47448, 1.4783, 1.47603, 1.48497, 1.48599, 1.46416, 1.47139, 1.46099, 1.45512, 1.45808, 1.4539, 1.45411, 1.45527, 1.45363, 1.45249, 1.44781, 1.44823, 1.44776, 1.44395, 1.45096, 1.43363, 1.42884, 1.42215, 1.42975, 1.41935, 1.42463, 1.42502, 1.42818, 1.43267, 1.43319, 1.44684, 1.42455, 1.41968, 1.41373, 1.4113, 1.4204, 1.40687, 1.40722, 1.41103, 1.409, 1.40896, 1.41198, 1.40913, 1.40731, 1.40651, 1.40469, 1.40221, 1.40139, 1.40051, 1.39999, 1.3969, 1.39516, 1.38939, 1.38778, 1.38817, 1.38888, 1.38805, 1.38673, 1.38514, 1.38447, 1.38253, 1.38497, 1.3814, 1.38162, 1.37888, 1.37682, 1.37467, 1.37152, 1.38268, 1.36787, 1.38016, 1.36843, 1.36916, 1.37894, 1.37102, 1.37868, 1.3738, 1.38925, 1.38161, 1.37109, 1.3462, 1.35759, 1.36542, 1.41912, 1.45756, 1.48212, 1.48659, 1.51374, 1.51704, 1.51196, 1.49379, 1.4641, 1.52257, 1.4949, 1.49428, 1.43388, 1.41964, 1.39346, 1.32957, 1.36076, 1.34791, 1.34706, 1.33794, 1.34413, 1.35658, 1.35406, 1.34377, 1.35372, 1.35015, 1.34668, 1.33266, 1.33443, 1.32847, 1.3245, 1.34022, 1.31886, 1.34451, 1.32055, 1.36571, 1.32808
1.67446, 1.67074, 1.67081, 1.66576, 1.66682, 1.66405, 1.66482, 1.66394, 1.67966, 1.66498, 1.66582, 1.6725, 1.67957, 1.65571, 1.65176, 1.65792, 1.64323, 1.64804, 1.63536, 1.64765, 1.6353, 1.63865, 1.62685, 1.66019, 1.66521, 1.68845, 1.71742, 1.75099, 1.81696, 1.83099, 1.87527, 1.88298, 1.88505, 1.86948, 1.84088, 1.77185, 1.68032, 1.63316, 1.59551, 1.61594, 1.62392, 1.61464, 1.61091, 1.61319, 1.61319, 1.60458, 1.61055, 1.6178, 1.586, 1.592, 1.57585, 1.57303, 1.57567, 1.57699, 1.57784, 1.57662, 1.60773, 1.57554, 1.57026, 1.56626, 1.56419, 1.57853, 1.55837, 1.57985, 1.57194, 1.5553, 1.57039, 1.55336, 1.55011, 1.56494, 1.5525, 1.55897, 1.55394, 1.56839, 1.5649, 1.55873, 1.54418, 1.5424, 1.54256, 1.54694, 1.55954, 1.53416, 1.5321, 1.5311, 1.55063, 1.52666, 1.52453, 1.52143, 1.51992, 1.5318, 1.5166, 1.5181, 1.5176, 1.5183, 1.5161, 1.51629, 1.51285, 1.50709, 1.51667, 1.51385, 1.51518, 1.51704, 1.51687, 1.50257, 1.49087, 1.48218, 1.5068, 1.5439, 1.60439, 1.62755, 1.63387, 1.64452, 1.65645, 1.65851, 1.65646, 1.64268, 1.61839, 1.56027, 1.50043, 1.46489, 1.44704, 1.46537, 1.47066, 1.47567, 1.47647, 1.47258, 1.49167, 1.49524, 1.48725, 1.46763, 1.46995, 1.4636, 1.46188, 1.47066, 1.47173, 1.46821, 1.45189, 1.46068, 1.44332, 1.44023, 1.44164, 1.4359, 1.43107, 1.42948, 1.42954, 1.42485, 1.44354, 1.4231, 1.44027, 1.43322, 1.43531, 1.43575, 1.43598, 1.43598, 1.42927, 1.42436, 1.42079, 1.42023, 1.41043, 1.40747, 1.40532, 1.40271, 1.40245, 1.3995, 1.3995, 1.39842, 1.39822, 1.39494, 1.39325, 1.39214, 1.39019, 1.38922, 1.38849, 1.38831, 1.38636, 1.38165, 1.39505, 1.38074, 1.38565, 1.38427, 1.38624, 1.38757, 1.38844, 1.38802, 1.3913, 1.39296, 1.39214, 1.39147, 1.39013, 1.3892, 1.3764, 1.36917, 1.38258, 1.36532, 1.36744, 1.36463, 1.36453, 1.36659, 1.36436, 1.36604, 1.38486, 1.38421, 1.38409, 1.36329, 1.35388, 1.36885, 1.37894, 1.4291, 1.44797, 1.45407, 1.47491, 1.47734, 1.52047, 1.5094, 1.51324, 1.48644, 1.46211, 1.44089, 1.4376, 1.38428, 1.37243, 1.3072, 1.33242, 1.36074, 1.36228, 1.36134, 1.35083, 1.34914, 1.35845, 1.33974, 1.33972, 1.33448, 1.32906, 1.33052, 1.31913, 1.3207, 1.32131, 1.32023, 1.34026, 1.31635, 1.31862, 1.31822, 1.31722
1.67445, 1.66685, 1.66608, 1.66428, 1.66255, 1.66143, 1.6607, 1.65927, 1.65707, 1.68085, 1.65173, 1.65161, 1.64843, 1.64731, 1.64452, 1.65452, 1.65168, 1.64635, 1.65853, 1.6445, 1.63816, 1.62273, 1.62731, 1.63428, 1.6642, 1.70294, 1.72545, 1.76519, 1.81409, 1.82365, 1.85196, 1.86117, 1.8824, 1.85455, 1.82477, 1.74503, 1.62999, 1.61042, 1.58634, 1.61015, 1.61017, 1.60373, 1.59884, 1.59604, 1.60674, 1.5903, 1.58879, 1.58567, 1.60285, 1.59857, 1.59548, 1.57576, 1.57458, 1.57395, 1.57178, 1.57313, 1.56974, 1.57171, 1.56776, 1.56743, 1.56599, 1.56457, 1.56179, 1.5591, 1.56318, 1.55478, 1.55446, 1.5532, 1.55737, 1.55043, 1.54803, 1.54774, 1.55634, 1.56368, 1.56375, 1.55589, 1.55419, 1.54408, 1.54064, 1.55403, 1.52952, 1.52477, 1.53723, 1.52808, 1.52237, 1.52099, 1.52037, 1.51945, 1.51895, 1.51663, 1.52308, 1.51419, 1.52059, 1.51429, 1.51704, 1.52312, 1.51181, 1.50283, 1.5027, 1.5104, 1.50904, 1.50412, 1.51015, 1.50054, 1.49518, 1.48535, 1.52729, 1.54579, 1.59578, 1.61156, 1.63767, 1.64045, 1.64413, 1.63744, 1.63375, 1.6208, 1.61582, 1.59407, 1.54687, 1.50526, 1.4336, 1.45082, 1.47113, 1.47285, 1.47186, 1.46762, 1.48161, 1.49293, 1.48253, 1.48864, 1.46824, 1.46203, 1.45755, 1.45554, 1.44751, 1.46388, 1.44435, 1.44262, 1.44469, 1.4401, 1.4372, 1.43502, 1.43681, 1.43618, 1.43577, 1.44096, 1.4308, 1.43041, 1.43234, 1.43, 1.42822, 1.42803, 1.42731, 1.42583, 1.4306, 1.41983, 1.41911, 1.41802, 1.42139, 1.42625, 1.41842, 1.4171, 1.4165, 1.41688, 1.41405, 1.41301, 1.41108, 1.44434, 1.41006, 1.40905, 1.40597, 1.40423, 1.40213, 1.39946, 1.39671, 1.39513, 1.39556, 1.3945, 1.39219, 1.39168, 1.38841, 1.3882, 1.38805, 1.38688, 1.38555, 1.38606, 1.3852, 1.3846, 1.3984, 1.38195, 1.38778, 1.38132, 1.37874, 1.37836, 1.38817, 1.37816, 1.37592, 1.38569, 1.393, 1.37484, 1.38172, 1.37768, 1.3797, 1.37939, 1.35767, 1.37804, 1.38513, 1.42228, 1.43639, 1.46083, 1.46538, 1.48342, 1.52015, 1.52104, 1.53373, 1.50897, 1.48581, 1.48183, 1.46322, 1.41327, 1.38878, 1.34389, 1.35015, 1.35813, 1.36166, 1.34823, 1.356, 1.3446, 1.34357, 1.3397, 1.33778, 1.34749, 1.33622, 1.32951, 1.3608, 1.33065, 1.34007, 1.33781, 1.33025, 1.33163, 1.32918, 1.32693, 1.32777
1.65729, 1.67122, 1.65524, 1.65473, 1.65389, 1.65212, 1.66028, 1.65044, 1.64887, 1.64682, 1.64536, 1.64155, 1.64755, 1.64604, 1.63243, 1.63111, 1.63055, 1.64167, 1.63542, 1.65291, 1.63774, 1.63231, 1.59626, 1.60978, 1.63773, 1.66951, 1.69989, 1.75192, 1.80264, 1.80774, 1.82536, 1.84647, 1.86587, 1.85454, 1.81808, 1.75857, 1.6818, 1.58729, 1.58602, 1.59893, 1.59765, 1.59841, 1.59558, 1.59192, 1.59935, 1.58938, 1.57618, 1.5883, 1.57245, 1.56974, 1.56842, 1.56621, 1.56392, 1.56114, 1.55769, 1.55548, 1.55344, 1.5532, 1.55007, 1.54971, 1.54953, 1.55114, 1.56739, 1.54602, 1.54418, 1.54186, 1.54822, 1.54025, 1.54387, 1.54566, 1.54397, 1.54381, 1.54121, 1.55357, 1.54439, 1.54713, 1.54233, 1.54056, 1.5281, 1.52771, 1.53062, 1.52728, 1.51855, 1.51403, 1.51527, 1.51246, 1.51142, 1.5092, 1.50868, 1.50533, 1.50325, 1.50041, 1.50032, 1.50694, 1.51417, 1.49399, 1.49163, 1.49042, 1.48792, 1.49006, 1.4979, 1.49763, 1.50207, 1.49704, 1.46278, 1.47833, 1.55509, 1.55163, 1.55484, 1.57894, 1.5965, 1.61246, 1.62667, 1.625, 1.60597, 1.60484, 1.60681, 1.55535, 1.56171, 1.4841, 1.45914, 1.43758, 1.44431, 1.46861, 1.46512, 1.46288, 1.45045, 1.47208, 1.48705, 1.48284, 1.471, 1.458, 1.46471, 1.43727, 1.43651, 1.44527, 1.43444, 1.4379, 1.42948, 1.42826, 1.42732, 1.43251, 1.42621, 1.42596, 1.42972, 1.43017, 1.43096, 1.42936, 1.42936, 1.42682, 1.42211, 1.41897, 1.41745, 1.41465, 1.41313, 1.41451, 1.41372, 1.41209, 1.4089, 1.40597, 1.40398, 1.40221, 1.4055, 1.40755, 1.40626, 1.40129, 1.39723, 1.39351, 1.39291, 1.38956, 1.38829, 1.38794, 1.38572, 1.38446, 1.38691, 1.38491, 1.38365, 1.38155, 1.37778, 1.37653, 1.37406, 1.37398, 1.3752, 1.37542, 1.37321, 1.37293, 1.37133, 1.37037, 1.37028, 1.37134, 1.37384, 1.37055, 1.36762, 1.36436, 1.36462, 1.36154, 1.36043, 1.36046, 1.36904, 1.37117, 1.37564, 1.37067, 1.36999, 1.3583, 1.34452, 1.34664, 1.40089, 1.41584, 1.44343, 1.44661, 1.47838, 1.48512, 1.50016, 1.52123, 1.52956, 1.57833, 1.50564, 1.50408, 1.48561, 1.42296, 1.36354, 1.31728, 1.33377, 1.34135, 1.34184, 1.33722, 1.34323, 1.32986, 1.32714, 1.32926, 1.33279, 1.32482, 1.32278, 1.31982, 1.31908, 1.3203, 1.31952, 1.36433, 1.32042, 1.31976, 1.31902, 1.32069, 1.31972
1.683, 1.66874, 1.66631, 1.66312, 1.66249, 1.65774, 1.65686, 1.66653, 1.66787, 1.64699, 1.66394, 1.64422, 1.65451, 1.64811, 1.63928, 1.63739, 1.63393, 1.63396, 1.63751, 1.62957, 1.63238, 1.62786, 1.61726, 1.61589, 1.64557, 1.66472, 1.66873, 1.72819, 1.75864, 1.82762, 1.88642, 1.87933, 1.90404, 1.91365, 1.76154, 1.73526, 1.65409, 1.6135, 1.57622, 1.60716, 1.59644, 1.61256, 1.59731, 1.59309, 1.58675, 1.59204, 1.58316, 1.58202, 1.59967, 1.59313, 1.57579, 1.58278, 1.58364, 1.58568, 1.57258, 1.5953, 1.56438, 1.56291, 1.55833, 1.5565, 1.56138, 1.55578, 1.55102, 1.54959, 1.54851, 1.55382, 1.55433, 1.54253, 1.54115, 1.54058, 1.53713, 1.53692, 1.5335, 1.54456, 1.53134, 1.5311, 1.54752, 1.54811, 1.54061, 1.5313, 1.53414, 1.53375, 1.53417, 1.52803, 1.52684, 1.51891, 1.53334, 1.51622, 1.52204, 1.53441, 1.50685, 1.5271, 1.50179, 1.49961, 1.4996, 1.49605, 1.49688, 1.49621, 1.49385, 1.49406, 1.50452, 1.50603, 1.503, 1.51322, 1.50792, 1.46814, 1.5129, 1.5096, 1.63075, 1.63352, 1.60403, 1.63746, 1.64224, 1.65085, 1.61694, 1.60105, 1.57308, 1.55445, 1.53156, 1.51813, 1.47716, 1.43675, 1.46426, 1.47278, 1.47467, 1.47411, 1.457, 1.46165, 1.47139, 1.47498, 1.47841, 1.46528, 1.44152, 1.45003, 1.44404, 1.44951, 1.44207, 1.45085, 1.45054, 1.43606, 1.43537, 1.44622, 1.43364, 1.44002, 1.43211, 1.46845, 1.42679, 1.42435, 1.42481, 1.4253, 1.43284, 1.4236, 1.42056, 1.41976, 1.42463, 1.41679, 1.41501, 1.42362, 1.42603, 1.41354, 1.4139, 1.40983, 1.40784, 1.40861, 1.4064, 1.40616, 1.40418, 1.40116, 1.39895, 1.39666, 1.39416, 1.39225, 1.39783, 1.3895, 1.38929, 1.3867, 1.39265, 1.38561, 1.38439, 1.38213, 1.39093, 1.37901, 1.37857, 1.38196, 1.37742, 1.37831, 1.37654, 1.37406, 1.3747, 1.37487, 1.37169, 1.3701, 1.37203, 1.36774, 1.36879, 1.36719, 1.36967, 1.36431, 1.37534, 1.37092, 1.37844, 1.38737, 1.36549, 1.36518, 1.32271, 1.33286, 1.36088, 1.39998, 1.41968, 1.4335, 1.4779, 1.4853, 1.50723, 1.51793, 1.52909, 1.54697, 1.52298, 1.52191, 1.45859, 1.46091, 1.36169, 1.32668, 1.34502, 1.36476, 1.3575, 1.35184, 1.35784, 1.35043, 1.34527, 1.3478, 1.34737, 1.36034, 1.3267, 1.33636, 1.34006, 1.33667, 1.32274, 1.32221, 1.32214, 1.32383, 1.32157, 1.32046, 1.32025
1.65758, 1.65548, 1.6536, 1.6515, 1.65073, 1.64959, 1.64402, 1.64421, 1.6413, 1.63972, 1.63451, 1.63702, 1.63017, 1.627, 1.62399, 1.6204, 1.61949, 1.616, 1.61275, 1.61174, 1.61476, 1.59959, 1.58606, 1.58582, 1.61049, 1.63684, 1.65322, 1.72047, 1.76144, 1.78993, 1.83054, 1.87564, 1.88748, 1.8697, 1.82017, 1.77628, 1.69227, 1.59476, 1.55017, 1.56134, 1.58184, 1.59038, 1.5803, 1.57612, 1.58546, 1.57874, 1.59622, 1.56921, 1.56752, 1.56551, 1.56325, 1.56255, 1.56012, 1.56014, 1.55807, 1.5575, 1.55603, 1.55475, 1.55626, 1.55262, 1.55055, 1.54886, 1.54694, 1.54533, 1.54346, 1.5437, 1.53711, 1.555, 1.53398, 1.53069, 1.52775, 1.52386, 1.54142, 1.52098, 1.51369, 1.51476, 1.53103, 1.53272, 1.53121, 1.53293, 1.51715, 1.51957, 1.50933, 1.51286, 1.50893, 1.50581, 1.50119, 1.50097, 1.49632, 1.49532, 1.4951, 1.49356, 1.49108, 1.49026, 1.48789, 1.50946, 1.48706, 1.48352, 1.48999, 1.48299, 1.48858, 1.48897, 1.50425, 1.496, 1.45367, 1.45325, 1.46849, 1.55875, 1.55404, 1.56853, 1.62706, 1.63169, 1.63502, 1.63147, 1.62357, 1.62745, 1.58143, 1.53927, 1.55593, 1.49854, 1.47563, 1.43476, 1.44954, 1.46733, 1.46389, 1.4695, 1.44991, 1.45238, 1.44757, 1.45977, 1.46077, 1.45991, 1.46442, 1.44604, 1.4399, 1.42759, 1.42915, 1.42793, 1.42698, 1.42664, 1.42668, 1.42236, 1.41901, 1.41792, 1.41551, 1.41366, 1.41386, 1.41385, 1.41003, 1.40849, 1.40655, 1.40899, 1.40221, 1.40218, 1.40181, 1.39838, 1.39898, 1.39774, 1.39506, 1.39466, 1.39113, 1.39207, 1.38967, 1.39175, 1.38603, 1.38406, 1.38432, 1.38091, 1.37986, 1.37889, 1.37946, 1.38023, 1.38893, 1.37827, 1.37745, 1.37578, 1.37169, 1.37147, 1.36904, 1.3685, 1.36602, 1.36569, 1.36559, 1.36406, 1.36223, 1.36048, 1.35978, 1.3582, 1.3575, 1.35709, 1.35577, 1.3522, 1.35269, 1.35141, 1.34926, 1.34863, 1.34655, 1.35422, 1.34715, 1.34616, 1.34639, 1.34948, 1.35053, 1.34012, 1.32443, 1.32747, 1.3471, 1.3676, 1.41587, 1.44092, 1.4634, 1.46205, 1.46106, 1.52666, 1.50936, 1.53814, 1.50331, 1.4841, 1.41757, 1.40974, 1.37601, 1.30973, 1.32588, 1.32699, 1.3384, 1.33521, 1.32662, 1.31969, 1.3168, 1.32287, 1.31397, 1.31241, 1.31193, 1.30929, 1.30748, 1.30567, 1.30675, 1.30794, 1.3054, 1.30696, 1.3046, 1.30216, 1.30366
1.65251, 1.64874, 1.64765, 1.64462, 1.64207, 1.64056, 1.63798, 1.63687, 1.63349, 1.63007, 1.63049, 1.63133, 1.62693, 1.62625, 1.62314, 1.62126, 1.61864, 1.61685, 1.61548, 1.62124, 1.61794, 1.62713, 1.5896, 1.59892, 1.6404, 1.67881, 1.71467, 1.7227, 1.75465, 1.80918, 1.82927, 1.92807, 1.88611, 1.89928, 1.88228, 1.78694, 1.64232, 1.60085, 1.56086, 1.58113, 1.5867, 1.58552, 1.58308, 1.58723, 1.57965, 1.57296, 1.57179, 1.56948, 1.5675, 1.56456, 1.56139, 1.56136, 1.55835, 1.56736, 1.55429, 1.55373, 1.5522, 1.5505, 1.54896, 1.54824, 1.5476, 1.54753, 1.54524, 1.54347, 1.54089, 1.53906, 1.53643, 1.53283, 1.53005, 1.52858, 1.52586, 1.52313, 1.52138, 1.51925, 1.51906, 1.51747, 1.51749, 1.51883, 1.53068, 1.53164, 1.53215, 1.51664, 1.51105, 1.5075, 1.506, 1.50538, 1.50307, 1.50324, 1.50282, 1.50198, 1.50087, 1.49877, 1.49827, 1.51352, 1.50188, 1.4919, 1.48994, 1.48933, 1.48785, 1.4866, 1.48689, 1.49516, 1.49206, 1.49688, 1.48228, 1.45502, 1.50696, 1.50102, 1.53735, 1.55613, 1.58916, 1.59311, 1.62183, 1.60733, 1.6094, 1.59721, 1.58965, 1.55936, 1.54721, 1.51712, 1.47691, 1.44021, 1.43816, 1.45975, 1.45902, 1.46119, 1.44825, 1.44567, 1.44373, 1.45081, 1.45638, 1.4618, 1.45858, 1.46113, 1.45192, 1.43617, 1.43029, 1.43054, 1.42708, 1.42277, 1.4305, 1.42215, 1.41873, 1.41588, 1.4145, 1.41198, 1.411, 1.40969, 1.40855, 1.4073, 1.40537, 1.40071, 1.40178, 1.40049, 1.39897, 1.39839, 1.39678, 1.3953, 1.39548, 1.39331, 1.39266, 1.39112, 1.38951, 1.38987, 1.38848, 1.38713, 1.3861, 1.38474, 1.38444, 1.38412, 1.38402, 1.3821, 1.38272, 1.37829, 1.37788, 1.37705, 1.37529, 1.37435, 1.37211, 1.37094, 1.36754, 1.36369, 1.3632, 1.36083, 1.36006, 1.35877, 1.35721, 1.35695, 1.35494, 1.38815, 1.35688, 1.35288, 1.35335, 1.35066, 1.34994, 1.34868, 1.34836, 1.34706, 1.34637, 1.34523, 1.35488, 1.3482, 1.34709, 1.34299, 1.32596, 1.35143, 1.38107, 1.41927, 1.45499, 1.47606, 1.46726, 1.49834, 1.52567, 1.52968, 1.52812, 1.52058, 1.51548, 1.49675, 1.46371, 1.43436, 1.37281, 1.30502, 1.2957, 1.31286, 1.34832, 1.32393, 1.3191, 1.31643, 1.32105, 1.31595, 1.3121, 1.31276, 1.31103, 1.30816, 1.30687, 1.30399, 1.30383, 1.30292, 1.30193, 1.31057, 1.30429, 1.30163, 1.30178
1.64676, 1.64388, 1.64093, 1.6378, 1.63713, 1.63748, 1.63738, 1.63413, 1.62933, 1.62845, 1.62518, 1.6262, 1.62357, 1.62232, 1.62069, 1.6246, 1.62357, 1.62415, 1.63872, 1.63103, 1.62496, 1.63199, 1.60331, 1.60687, 1.6204, 1.6474, 1.68552, 1.71228, 1.7383, 1.80271, 1.83418, 1.86637, 1.87174, 1.86684, 1.83243, 1.75126, 1.68291, 1.61832, 1.56444, 1.5782, 1.59122, 1.58722, 1.57897, 1.58065, 1.58524, 1.56806, 1.56845, 1.57662, 1.56201, 1.5602, 1.55592, 1.56487, 1.55761, 1.55072, 1.54789, 1.54678, 1.54642, 1.54318, 1.53847, 1.53945, 1.54149, 1.54429, 1.54304, 1.54141, 1.54449, 1.53612, 1.53362, 1.53115, 1.52932, 1.52706, 1.52568, 1.52328, 1.52109, 1.51939, 1.518, 1.52046, 1.52635, 1.52772, 1.51146, 1.52626, 1.52717, 1.53804, 1.52466, 1.50711, 1.50416, 1.50214, 1.50108, 1.51051, 1.49934, 1.49771, 1.51635, 1.49954, 1.50392, 1.49134, 1.49979, 1.48886, 1.48713, 1.48518, 1.48377, 1.48227, 1.4876, 1.50241, 1.49863, 1.48898, 1.47793, 1.45852, 1.46114, 1.51736, 1.51771, 1.52365, 1.58236, 1.59261, 1.60664, 1.59792, 1.59751, 1.59234, 1.58844, 1.57544, 1.5169, 1.49008, 1.46798, 1.42005, 1.45056, 1.45532, 1.4518, 1.45736, 1.44282, 1.4383, 1.43882, 1.43964, 1.44434, 1.44571, 1.46365, 1.44844, 1.44999, 1.44425, 1.4371, 1.42426, 1.42303, 1.42048, 1.41901, 1.41518, 1.415, 1.41327, 1.41245, 1.41246, 1.41233, 1.41414, 1.41462, 1.4145, 1.42021, 1.41016, 1.40834, 1.40278, 1.40015, 1.39944, 1.40167, 1.42658, 1.39946, 1.39879, 1.39778, 1.39721, 1.39672, 1.39652, 1.39496, 1.3938, 1.39159, 1.39137, 1.38216, 1.38815, 1.38934, 1.38605, 1.38536, 1.38577, 1.38607, 1.38256, 1.37996, 1.37997, 1.38235, 1.37279, 1.36982, 1.36967, 1.37041, 1.36817, 1.36779, 1.3662, 1.36709, 1.36458, 1.36259, 1.36222, 1.3619, 1.38681, 1.35996, 1.35999, 1.35845, 1.36161, 1.36094, 1.35239, 1.35261, 1.35435, 1.36348, 1.37186, 1.36571, 1.35701, 1.33018, 1.33471, 1.38648, 1.40295, 1.43326, 1.46406, 1.45503, 1.47611, 1.51325, 1.52282, 1.56854, 1.54512, 1.53948, 1.49299, 1.48134, 1.40552, 1.35639, 1.30185, 1.31588, 1.34298, 1.3229, 1.33706, 1.31908, 1.31918, 1.31523, 1.31213, 1.31415, 1.31253, 1.3112, 1.31, 1.32349, 1.31255, 1.31038, 1.30634, 1.31218, 1.30558, 1.30395, 1.30582, 1.30431
1.6695, 1.65427, 1.65466, 1.65174, 1.65604, 1.65015, 1.6478, 1.6453, 1.64167, 1.63806, 1.63575, 1.64396, 1.63337, 1.63244, 1.64438, 1.62663, 1.62578, 1.62316, 1.62087, 1.6275, 1.62059, 1.62461, 1.58925, 1.5864, 1.58861, 1.6388, 1.68549, 1.71662, 1.76597, 1.79793, 1.82413, 1.85933, 1.88289, 1.89748, 1.89608, 1.77082, 1.69334, 1.6574, 1.56559, 1.58509, 1.58948, 1.59195, 1.58355, 1.59235, 1.57646, 1.58667, 1.57079, 1.56929, 1.57875, 1.56463, 1.56238, 1.55942, 1.55842, 1.55541, 1.554, 1.5538, 1.54988, 1.54799, 1.54876, 1.54805, 1.54836, 1.54839, 1.5447, 1.54293, 1.54002, 1.53894, 1.53499, 1.53452, 1.53372, 1.53025, 1.52943, 1.52649, 1.52517, 1.52411, 1.5212, 1.52017, 1.51794, 1.51672, 1.51974, 1.5246, 1.52719, 1.53329, 1.53555, 1.51562, 1.53137, 1.51214, 1.50382, 1.50085, 1.49809, 1.49522, 1.49375, 1.49336, 1.49309, 1.50192, 1.4906, 1.4876, 1.48526, 1.4834, 1.4825, 1.48233, 1.48211, 1.49038, 1.48609, 1.48727, 1.48168, 1.45134, 1.46887, 1.49589, 1.5328, 1.5374, 1.52693, 1.56993, 1.59229, 1.59814, 1.59524, 1.58386, 1.58554, 1.57915, 1.54766, 1.50608, 1.47729, 1.44831, 1.435, 1.45404, 1.44704, 1.44349, 1.44437, 1.44774, 1.43598, 1.44206, 1.43261, 1.43431, 1.45008, 1.45176, 1.46413, 1.44461, 1.44028, 1.43361, 1.42427, 1.42172, 1.41977, 1.41966, 1.42698, 1.41372, 1.42914, 1.41418, 1.41496, 1.41334, 1.41187, 1.40859, 1.40806, 1.40665, 1.4053, 1.403, 1.40178, 1.40119, 1.4001, 1.39819, 1.39729, 1.39585, 1.39485, 1.3945, 1.3922, 1.39248, 1.39349, 1.39219, 1.38869, 1.38769, 1.38485, 1.38437, 1.38299, 1.38207, 1.38086, 1.37933, 1.3776, 1.37378, 1.37376, 1.37262, 1.37079, 1.36995, 1.36728, 1.36456, 1.36432, 1.36252, 1.36326, 1.36153, 1.36222, 1.35969, 1.35853, 1.35838, 1.35726, 1.35548, 1.35664, 1.36489, 1.36888, 1.35471, 1.35315, 1.35315, 1.35326, 1.36092, 1.36348, 1.35686, 1.35668, 1.3613, 1.34365, 1.32084, 1.35727, 1.43825, 1.40614, 1.44107, 1.46656, 1.50658, 1.54361, 1.54996, 1.5382, 1.53548, 1.52346, 1.50406, 1.45366, 1.4255, 1.35679, 1.3135, 1.31583, 1.33774, 1.32968, 1.33163, 1.33608, 1.31963, 1.31635, 1.31407, 1.3151, 1.31352, 1.31238, 1.31348, 1.31268, 1.31191, 1.3098, 1.30987, 1.30869, 1.30739, 1.30925, 1.30635, 1.3064
1.65463, 1.65371, 1.65334, 1.65749, 1.64838, 1.65136, 1.64628, 1.64412, 1.64171, 1.6386, 1.63611, 1.63494, 1.64121, 1.63169, 1.63748, 1.62613, 1.62433, 1.62721, 1.62065, 1.61966, 1.62053, 1.62044, 1.61959, 1.59084, 1.58723, 1.60954, 1.66868, 1.70985, 1.72015, 1.78506, 1.83688, 1.84912, 1.85716, 1.89991, 1.84602, 1.77149, 1.70196, 1.65977, 1.57543, 1.55724, 1.59238, 1.58533, 1.58008, 1.57699, 1.58242, 1.5897, 1.5743, 1.56681, 1.56347, 1.56162, 1.55933, 1.55499, 1.55299, 1.55223, 1.5504, 1.55706, 1.55069, 1.54929, 1.5474, 1.54647, 1.54427, 1.54391, 1.54115, 1.54032, 1.53914, 1.54024, 1.53739, 1.53633, 1.53345, 1.53023, 1.52824, 1.52684, 1.52426, 1.52462, 1.52061, 1.52007, 1.51727, 1.51585, 1.51312, 1.52362, 1.51443, 1.51531, 1.52831, 1.5268, 1.5232, 1.51358, 1.4999, 1.49773, 1.49763, 1.49599, 1.4927, 1.50069, 1.4923, 1.49012, 1.50247, 1.48851, 1.48363, 1.48196, 1.48084, 1.48046, 1.48031, 1.49392, 1.49749, 1.48681, 1.47179, 1.44635, 1.45427, 1.45902, 1.5064, 1.54376, 1.54498, 1.56793, 1.6002, 1.59607, 1.6614, 1.63141, 1.59, 1.54125, 1.54369, 1.5162, 1.486, 1.43514, 1.43981, 1.45111, 1.4532, 1.44875, 1.44724, 1.44033, 1.44404, 1.44101, 1.44118, 1.44257, 1.44127, 1.43445, 1.44622, 1.44944, 1.44533, 1.44669, 1.42009, 1.42485, 1.42261, 1.41987, 1.41323, 1.41251, 1.41404, 1.41786, 1.41108, 1.4132, 1.4122, 1.40948, 1.40897, 1.40534, 1.40466, 1.4041, 1.40544, 1.40408, 1.40098, 1.39948, 1.39802, 1.39629, 1.39608, 1.3961, 1.3925, 1.39141, 1.39055, 1.38889, 1.38782, 1.38514, 1.38517, 1.38197, 1.38135, 1.38055, 1.3786, 1.37765, 1.37732, 1.37657, 1.37557, 1.37246, 1.37159, 1.36939, 1.36985, 1.36768, 1.36691, 1.36747, 1.36577, 1.36442, 1.36198, 1.3638, 1.37125, 1.36227, 1.36036, 1.35898, 1.35847, 1.36412, 1.35732, 1.3558, 1.35371, 1.35515, 1.35995, 1.35334, 1.3474, 1.35086, 1.35312, 1.35214, 1.34051, 1.31691, 1.35869, 1.38041, 1.41425, 1.45476, 1.47424, 1.49178, 1.52388, 1.55206, 1.5539, 1.55266, 1.56688, 1.51982, 1.47568, 1.44508, 1.34329, 1.33052, 1.33377, 1.33481, 1.33738, 1.35734, 1.34383, 1.33412, 1.3376, 1.32731, 1.323, 1.32344, 1.32226, 1.32204, 1.33508, 1.31614, 1.31568, 1.31409, 1.31502, 1.3135, 1.31252, 1.3086, 1.31011
1.65437, 1.65178, 1.65072, 1.6477, 1.64632, 1.64425, 1.64279, 1.64127, 1.63831, 1.63496, 1.63507, 1.63232, 1.63129, 1.63001, 1.62992, 1.6266, 1.62455, 1.62318, 1.6218, 1.62196, 1.62721, 1.62194, 1.63293, 1.60207, 1.59201, 1.6225, 1.65765, 1.67228, 1.70904, 1.73678, 1.76817, 1.8285, 1.92029, 1.92793, 1.94943, 1.80214, 1.70457, 1.58398, 1.58198, 1.56816, 1.58763, 1.59367, 1.58177, 1.58871, 1.57525, 1.57082, 1.56963, 1.56676, 1.56505, 1.5726, 1.56134, 1.5599, 1.55831, 1.56416, 1.55892, 1.55426, 1.55389, 1.55356, 1.55197, 1.55354, 1.54862, 1.54678, 1.54406, 1.54269, 1.53897, 1.53759, 1.53728, 1.53642, 1.53547, 1.53265, 1.53003, 1.52946, 1.52929, 1.52655, 1.52334, 1.52096, 1.51915, 1.51759, 1.51435, 1.51452, 1.51325, 1.51207, 1.51936, 1.52934, 1.52246, 1.52066, 1.50989, 1.51608, 1.49914, 1.49875, 1.49749, 1.50299, 1.49473, 1.49253, 1.49223, 1.49074, 1.48963, 1.48808, 1.48759, 1.4864, 1.49397, 1.49953, 1.48623, 1.49138, 1.48967, 1.45799, 1.45829, 1.4825, 1.51744, 1.52121, 1.56874, 1.58382, 1.57198, 1.57869, 1.62423, 1.58774, 1.57467, 1.56233, 1.52644, 1.53587, 1.52605, 1.48244, 1.4402, 1.46185, 1.4647, 1.46082, 1.45198, 1.44173, 1.4399, 1.43753, 1.43651, 1.43475, 1.43332, 1.43272, 1.44023, 1.44459, 1.45775, 1.45774, 1.44281, 1.4239, 1.42366, 1.41948, 1.41732, 1.41444, 1.41389, 1.41268, 1.41266, 1.40997, 1.40893, 1.40756, 1.40624, 1.42384, 1.40636, 1.40657, 1.40226, 1.40223, 1.40128, 1.40056, 1.40021, 1.3985, 1.39723, 1.39537, 1.39498, 1.39295, 1.39178, 1.39015, 1.38815, 1.38707, 1.38547, 1.38375, 1.38286, 1.37989, 1.37945, 1.37757, 1.37568, 1.37374, 1.3718, 1.3711, 1.36954, 1.36806, 1.36737, 1.36639, 1.36635, 1.36434, 1.36471, 1.3628, 1.36208, 1.36013, 1.36051, 1.3602, 1.35833, 1.35707, 1.35761, 1.35581, 1.35456, 1.35297, 1.35254, 1.35051, 1.34719, 1.34609, 1.34578, 1.34692, 1.35445, 1.35702, 1.3515, 1.32393, 1.3474, 1.37381, 1.40113, 1.44492, 1.45361, 1.49246, 1.54261, 1.38258, 1.38696, 1.56569, 1.55103, 1.5262, 1.50931, 1.37902, 1.34564, 1.31828, 1.31319, 1.34338, 1.33727, 1.33292, 1.33254, 1.32909, 1.32834, 1.32683, 1.32466, 1.32304, 1.31953, 1.32416, 1.32986, 1.31972, 1.31572, 1.31558, 1.31368, 1.31308, 1.31268, 1.30963, 1.31118
1.6541, 1.65203, 1.64887, 1.6476, 1.64765, 1.64052, 1.64064, 1.64051, 1.63794, 1.6334, 1.63215, 1.63057, 1.63101, 1.62797, 1.62647, 1.62702, 1.62763, 1.62141, 1.62072, 1.63427, 1.62737, 1.63005, 1.62175, 1.61657, 1.59672, 1.62153, 1.65621, 1.68365, 1.72512, 1.76117, 1.7909, 1.85458, 1.89283, 1.91706, 1.89766, 1.83943, 1.73041, 1.66736, 1.56986, 1.57119, 1.59019, 1.59912, 1.59237, 1.5937, 1.57545, 1.57211, 1.57207, 1.56855, 1.56649, 1.56596, 1.56294, 1.55939, 1.56326, 1.55825, 1.56079, 1.55168, 1.54867, 1.54688, 1.54643, 1.54402, 1.54396, 1.54284, 1.54404, 1.54261, 1.53976, 1.53781, 1.54017, 1.5378, 1.53736, 1.53585, 1.53392, 1.53009, 1.52767, 1.52736, 1.52464, 1.52171, 1.52131, 1.51786, 1.51601, 1.51444, 1.51937, 1.5125, 1.51034, 1.50991, 1.50613, 1.51796, 1.52069, 1.5277, 1.50883, 1.49963, 1.50613, 1.50477, 1.50695, 1.50312, 1.49302, 1.49399, 1.4884, 1.4856, 1.48459, 1.48371, 1.50079, 1.49762, 1.50255, 1.48608, 1.47599, 1.45482, 1.4963, 1.48841, 1.52055, 1.54115, 1.56259, 1.59336, 1.59517, 1.58316, 1.5846, 1.57249, 1.56233, 1.56974, 1.54645, 1.50742, 1.47144, 1.42598, 1.43985, 1.4566, 1.47126, 1.45557, 1.45044, 1.44934, 1.44883, 1.44143, 1.43961, 1.4378, 1.43552, 1.43332, 1.43387, 1.43479, 1.43499, 1.44601, 1.43366, 1.43795, 1.42776, 1.4206, 1.42012, 1.4196, 1.41663, 1.41421, 1.41342, 1.41237, 1.41231, 1.41029, 1.40855, 1.40771, 1.40706, 1.40917, 1.40614, 1.40638, 1.4353, 1.40206, 1.40032, 1.39972, 1.39743, 1.39543, 1.39534, 1.39303, 1.39344, 1.39148, 1.3889, 1.38721, 1.38613, 1.38492, 1.38294, 1.38368, 1.38297, 1.38348, 1.37737, 1.37551, 1.37495, 1.37464, 1.37229, 1.3782, 1.36939, 1.36811, 1.36548, 1.36521, 1.36236, 1.36201, 1.36063, 1.36102, 1.36053, 1.35739, 1.35604, 1.35661, 1.35643, 1.35573, 1.35231, 1.35148, 1.35376, 1.35027, 1.34966, 1.34955, 1.34918, 1.35102, 1.35191, 1.3683, 1.35003, 1.3303, 1.37822, 1.37148, 1.40587, 1.41138, 1.44808, 1.47349, 1.50274, 1.53529, 1.56138, 1.55972, 1.53963, 1.51909, 1.49935, 1.43041, 1.37931, 1.31916, 1.31993, 1.34122, 1.34234, 1.33731, 1.34414, 1.32602, 1.33714, 1.34145, 1.32408, 1.31794, 1.31617, 1.31801, 1.31329, 1.31872, 1.3117, 1.31605, 1.31395, 1.31214, 1.31215, 1.31191, 1.30878
1.65373, 1.65128, 1.65078, 1.64715, 1.64475, 1.64188, 1.6409, 1.64818, 1.63608, 1.63679, 1.63193, 1.62968, 1.62894, 1.62743, 1.62761, 1.62431, 1.6245, 1.62428, 1.63386, 1.62838, 1.62042, 1.63055, 1.62466, 1.62289, 1.60307, 1.63267, 1.65782, 1.69965, 1.77206, 1.78742, 1.80639, 1.97054, 1.9697, 2.00127, 1.99355, 1.92503, 1.76221, 1.582, 1.56512, 1.56581, 1.59258, 1.58294, 1.57841, 1.57709, 1.57631, 1.57233, 1.57137, 1.56843, 1.56631, 1.56377, 1.56211, 1.56117, 1.55901, 1.55712, 1.55464, 1.55346, 1.55061, 1.54851, 1.54751, 1.54613, 1.54419, 1.54382, 1.54206, 1.5418, 1.54046, 1.53666, 1.53588, 1.53432, 1.53287, 1.53164, 1.52938, 1.52846, 1.52513, 1.52361, 1.52025, 1.51797, 1.516, 1.51555, 1.51609, 1.51231, 1.51398, 1.51698, 1.50871, 1.50607, 1.50596, 1.50569, 1.51264, 1.53014, 1.51073, 1.51745, 1.50013, 1.49945, 1.4984, 1.49694, 1.496, 1.49264, 1.49099, 1.48804, 1.48517, 1.48368, 1.48359, 1.48389, 1.4836, 1.48182, 1.478, 1.45631, 1.46478, 1.4776, 1.52401, 1.52563, 1.53382, 1.54759, 1.56431, 1.55715, 1.55219, 1.56139, 1.55772, 1.54844, 1.50729, 1.50267, 1.49174, 1.49582, 1.4478, 1.45406, 1.45904, 1.45136, 1.44827, 1.44314, 1.445, 1.44261, 1.44497, 1.43633, 1.44326, 1.43336, 1.43275, 1.43121, 1.42743, 1.42664, 1.44904, 1.42732, 1.43746, 1.42946, 1.41682, 1.41638, 1.42648, 1.41215, 1.41666, 1.41037, 1.40894, 1.40898, 1.4088, 1.40913, 1.40789, 1.40673, 1.4062, 1.40499, 1.40455, 1.40359, 1.40155, 1.39904, 1.3984, 1.39828, 1.39561, 1.39455, 1.39339, 1.39228, 1.39124, 1.39015, 1.38935, 1.38753, 1.38598, 1.38406, 1.38075, 1.38095, 1.37914, 1.3777, 1.37644, 1.3747, 1.37227, 1.36856, 1.36431, 1.36393, 1.36089, 1.35893, 1.35859, 1.35799, 1.35496, 1.35393, 1.35402, 1.35386, 1.35467, 1.35352, 1.36935, 1.35369, 1.3537, 1.35452, 1.35438, 1.35386, 1.35699, 1.365, 1.35281, 1.35345, 1.35812, 1.35471, 1.35177, 1.33604, 1.36137, 1.35497, 1.38504, 1.42731, 1.45887, 1.48266, 1.53329, 1.55623, 1.56176, 1.60502, 1.61178, 1.52058, 1.48885, 1.41345, 1.38141, 1.31271, 1.33443, 1.32833, 1.33629, 1.33306, 1.31867, 1.32208, 1.32942, 1.31908, 1.3165, 1.31728, 1.31722, 1.31587, 1.3156, 1.31593, 1.31479, 1.31369, 1.3129, 1.31245, 1.31175, 1.31036, 1.30905
1.65036, 1.64753, 1.64645, 1.64549, 1.64554, 1.64952, 1.6375, 1.63443, 1.63387, 1.63223, 1.62998, 1.62711, 1.62686, 1.62451, 1.62266, 1.62269, 1.62098, 1.62138, 1.61954, 1.62703, 1.63054, 1.63139, 1.62091, 1.61735, 1.58723, 1.61601, 1.65424, 1.67909, 1.79687, 1.77523, 1.76789, 1.79265, 1.95938, 1.96581, 1.97337, 1.92114, 1.77241, 1.62774, 1.55814, 1.56793, 1.5888, 1.59045, 1.57943, 1.57913, 1.57302, 1.57213, 1.56928, 1.56745, 1.56776, 1.56216, 1.56135, 1.55967, 1.55797, 1.5575, 1.55543, 1.55542, 1.55551, 1.55193, 1.54842, 1.5429, 1.54271, 1.54023, 1.53972, 1.54069, 1.53792, 1.53311, 1.53251, 1.53104, 1.52946, 1.52983, 1.52804, 1.52406, 1.52006, 1.51911, 1.51611, 1.51452, 1.51395, 1.51287, 1.51144, 1.50608, 1.50564, 1.50391, 1.50402, 1.50212, 1.51325, 1.50882, 1.513, 1.50987, 1.52621, 1.53018, 1.51314, 1.50488, 1.49557, 1.50459, 1.49622, 1.48883, 1.48655, 1.48517, 1.49571, 1.48188, 1.4831, 1.4844, 1.48543, 1.49168, 1.48822, 1.45551, 1.47574, 1.48382, 1.51976, 1.55225, 1.613, 1.58485, 1.55382, 1.56762, 1.56814, 1.53485, 1.54461, 1.54814, 1.55125, 1.52778, 1.49831, 1.49021, 1.44732, 1.46226, 1.45881, 1.46393, 1.45288, 1.45379, 1.45023, 1.44656, 1.43387, 1.43174, 1.43115, 1.42964, 1.4284, 1.4266, 1.42508, 1.42428, 1.44737, 1.44765, 1.45435, 1.4349, 1.4499, 1.43755, 1.43955, 1.40965, 1.41608, 1.40939, 1.40728, 1.40618, 1.40654, 1.40604, 1.40501, 1.4055, 1.40375, 1.40191, 1.4002, 1.39878, 1.39895, 1.39785, 1.39609, 1.39541, 1.39334, 1.39243, 1.39108, 1.38973, 1.38982, 1.38816, 1.38692, 1.38545, 1.38701, 1.38908, 1.38586, 1.38474, 1.38357, 1.38227, 1.37788, 1.37525, 1.37445, 1.37148, 1.37106, 1.3668, 1.36596, 1.36498, 1.36341, 1.36047, 1.35925, 1.35786, 1.35848, 1.357, 1.35657, 1.3571, 1.35637, 1.3613, 1.3558, 1.35428, 1.35773, 1.35821, 1.35342, 1.35846, 1.35802, 1.36861, 1.35389, 1.36241, 1.358, 1.34668, 1.33424, 1.35629, 1.4326, 1.44599, 1.46679, 1.50755, 1.53608, 1.5583, 1.60711, 1.59654, 1.63416, 1.52359, 1.5082, 1.42346, 1.38275, 1.29922, 1.32742, 1.33215, 1.32982, 1.32907, 1.33014, 1.32018, 1.31888, 1.3173, 1.33453, 1.32244, 1.31847, 1.33435, 1.3236, 1.31815, 1.31749, 1.31281, 1.31138, 1.31108, 1.32247, 1.30704, 1.30763
1.65311, 1.65041, 1.64707, 1.64718, 1.64359, 1.6417, 1.64425, 1.63575, 1.63406, 1.63138, 1.63676, 1.62958, 1.62463, 1.62169, 1.61915, 1.6207, 1.62257, 1.62165, 1.62228, 1.61939, 1.61989, 1.61707, 1.61826, 1.61865, 1.60937, 1.6096, 1.63709, 1.67703, 1.71705, 1.76109, 1.78512, 1.84239, 1.93069, 2.07984, 2.13473, 1.87263, 1.82478, 1.62645, 1.55452, 1.56523, 1.58487, 1.58449, 1.58185, 1.58205, 1.57393, 1.57092, 1.56986, 1.56811, 1.57057, 1.56358, 1.56134, 1.5593, 1.55637, 1.55513, 1.55576, 1.5526, 1.54905, 1.54785, 1.54609, 1.5449, 1.54411, 1.54286, 1.54204, 1.53952, 1.53826, 1.53721, 1.53447, 1.53348, 1.5309, 1.52961, 1.52724, 1.52527, 1.52333, 1.52241, 1.51934, 1.5181, 1.51435, 1.51324, 1.5107, 1.50874, 1.50613, 1.50427, 1.50225, 1.50208, 1.50109, 1.50125, 1.49936, 1.50548, 1.52257, 1.51611, 1.52033, 1.51785, 1.50987, 1.49406, 1.49518, 1.4938, 1.49666, 1.4989, 1.49192, 1.48884, 1.48858, 1.48351, 1.48494, 1.48243, 1.48052, 1.46496, 1.47339, 1.4778, 1.51262, 1.53093, 1.57883, 1.5837, 1.59699, 1.5715, 1.54474, 1.54067, 1.54718, 1.5404, 1.52895, 1.49846, 1.47957, 1.44819, 1.43283, 1.44056, 1.45798, 1.44822, 1.4485, 1.44944, 1.44106, 1.43827, 1.43446, 1.43388, 1.43235, 1.42996, 1.43085, 1.44205, 1.42905, 1.4478, 1.43625, 1.44833, 1.43747, 1.44085, 1.44432, 1.43152, 1.40763, 1.41849, 1.40674, 1.40727, 1.41291, 1.40486, 1.40418, 1.40267, 1.40192, 1.40179, 1.40016, 1.39796, 1.39859, 1.39581, 1.39478, 1.39372, 1.39434, 1.39077, 1.38963, 1.389, 1.3906, 1.3876, 1.38762, 1.38763, 1.38667, 1.41925, 1.38442, 1.38201, 1.38181, 1.38082, 1.3795, 1.3792, 1.37891, 1.37783, 1.37598, 1.37387, 1.37134, 1.37142, 1.3713, 1.36809, 1.36766, 1.36748, 1.3652, 1.36393, 1.36281, 1.363, 1.36141, 1.35954, 1.35741, 1.35674, 1.35426, 1.35321, 1.3523, 1.35081, 1.35159, 1.34971, 1.34915, 1.35028, 1.35012, 1.35298, 1.35162, 1.36354, 1.34802, 1.38779, 1.37783, 1.42337, 1.4637, 1.49228, 1.50045, 1.5703, 1.61377, 1.58885, 1.58221, 1.5535, 1.48564, 1.40711, 1.36422, 1.30428, 1.31951, 1.36148, 1.33345, 1.33005, 1.32565, 1.32233, 1.32084, 1.31756, 1.31874, 1.31853, 1.31596, 1.31357, 1.31456, 1.31553, 1.31231, 1.31099, 1.30953, 1.30756, 1.31256, 1.30529, 1.30505
1.6497, 1.64869, 1.64353, 1.63961, 1.63764, 1.63679, 1.63171, 1.62972, 1.62739, 1.6308, 1.63029, 1.6279, 1.62662, 1.62512, 1.6239, 1.6228, 1.62243, 1.62092, 1.62028, 1.61826, 1.61598, 1.61606, 1.62332, 1.61314, 1.60435, 1.5849, 1.61683, 1.64875, 1.71861, 1.73879, 1.7824, 1.83823, 1.89602, 1.93828, 1.94469, 1.86075, 1.69497, 1.64385, 1.55754, 1.54667, 1.57855, 1.58785, 1.57478, 1.57185, 1.58497, 1.57798, 1.56495, 1.56513, 1.5613, 1.558, 1.55592, 1.55537, 1.55454, 1.55467, 1.55214, 1.55032, 1.54931, 1.54751, 1.5464, 1.54482, 1.54156, 1.53807, 1.54182, 1.53737, 1.53687, 1.53566, 1.53314, 1.53284, 1.53202, 1.53016, 1.52655, 1.52663, 1.5254, 1.522, 1.51983, 1.51794, 1.51751, 1.51873, 1.51262, 1.50907, 1.50734, 1.50547, 1.50422, 1.5039, 1.50157, 1.50061, 1.49812, 1.50036, 1.49678, 1.50449, 1.50611, 1.52516, 1.51043, 1.5065, 1.50908, 1.49701, 1.49015, 1.49288, 1.49965, 1.48121, 1.49107, 1.48564, 1.48017, 1.4764, 1.46849, 1.46427, 1.47964, 1.4879, 1.52104, 1.54212, 1.5709, 1.56956, 1.5725, 1.55298, 1.54489, 1.60918, 1.5432, 1.53529, 1.5243, 1.51079, 1.506, 1.47766, 1.44445, 1.43476, 1.44292, 1.45125, 1.45417, 1.45076, 1.4406, 1.44004, 1.45587, 1.44741, 1.4407, 1.44021, 1.43661, 1.45059, 1.43617, 1.42895, 1.44741, 1.44882, 1.45882, 1.43418, 1.42104, 1.42054, 1.41558, 1.4129, 1.41058, 1.40887, 1.40716, 1.41617, 1.4057, 1.40435, 1.40378, 1.40173, 1.40196, 1.39906, 1.3975, 1.39616, 1.39506, 1.39379, 1.39114, 1.3896, 1.38854, 1.38802, 1.38754, 1.3874, 1.3869, 1.38633, 1.38503, 1.38367, 1.38218, 1.3798, 1.37965, 1.37935, 1.37773, 1.3759, 1.37427, 1.37251, 1.37166, 1.36859, 1.36902, 1.36717, 1.36627, 1.36717, 1.36686, 1.36739, 1.36383, 1.36341, 1.36226, 1.3641, 1.36165, 1.36048, 1.35783, 1.35855, 1.35728, 1.35448, 1.35378, 1.35336, 1.35093, 1.34945, 1.34758, 1.35538, 1.36049, 1.35835, 1.35449, 1.35698, 1.33046, 1.36125, 1.41311, 1.41266, 1.44423, 1.46905, 1.52978, 1.54809, 1.58368, 1.60069, 1.60687, 1.59389, 1.48233, 1.4788, 1.36866, 1.31633, 1.29102, 1.32944, 1.33001, 1.33769, 1.33778, 1.32084, 1.31991, 1.31797, 1.33337, 1.31594, 1.32217, 1.3198, 1.31847, 1.31069, 1.31611, 1.30824, 1.30723, 1.30649, 1.30544, 1.30657, 1.30461
1.65295, 1.6515, 1.64868, 1.64649, 1.64229, 1.63977, 1.63765, 1.63615, 1.63548, 1.63474, 1.63177, 1.63042, 1.62789, 1.62272, 1.62295, 1.62075, 1.62169, 1.61804, 1.63676, 1.61614, 1.61415, 1.62335, 1.6413, 1.61656, 1.61937, 1.58482, 1.648, 1.65603, 1.71811, 1.73845, 1.75796, 1.86772, 1.87707, 1.91601, 1.92346, 1.92379, 1.80459, 1.61297, 1.57472, 1.60313, 1.5844, 1.57939, 1.57789, 1.5766, 1.57921, 1.58715, 1.56678, 1.56478, 1.56282, 1.55974, 1.55865, 1.55871, 1.55579, 1.56094, 1.55176, 1.55286, 1.576, 1.54874, 1.54761, 1.54492, 1.54992, 1.54094, 1.5377, 1.53605, 1.53439, 1.54027, 1.52878, 1.52924, 1.5247, 1.52154, 1.5196, 1.51899, 1.51837, 1.51819, 1.51584, 1.51462, 1.51297, 1.51051, 1.50939, 1.50851, 1.5078, 1.50711, 1.50585, 1.5051, 1.50453, 1.50368, 1.50142, 1.49923, 1.50155, 1.51167, 1.50893, 1.52289, 1.53473, 1.52565, 1.53814, 1.51638, 1.50117, 1.48984, 1.48949, 1.48592, 1.4819, 1.48578, 1.4994, 1.48558, 1.47556, 1.46458, 1.45423, 1.49061, 1.51928, 1.5371, 1.5617, 1.55216, 1.55075, 1.53556, 1.53325, 1.53491, 1.53865, 1.5352, 1.53641, 1.52762, 1.50964, 1.47582, 1.44652, 1.4298, 1.4371, 1.45422, 1.45118, 1.45068, 1.4552, 1.45121, 1.44027, 1.42685, 1.42685, 1.4675, 1.45484, 1.45149, 1.46003, 1.49716, 1.48516, 1.46858, 1.43312, 1.42315, 1.42421, 1.41744, 1.41364, 1.4192, 1.40807, 1.40877, 1.40694, 1.40724, 1.40628, 1.40213, 1.40092, 1.40013, 1.39909, 1.39744, 1.39619, 1.39379, 1.39324, 1.39203, 1.39195, 1.39016, 1.39797, 1.38779, 1.38632, 1.38568, 1.38512, 1.38438, 1.3822, 1.37969, 1.3785, 1.37724, 1.37489, 1.37457, 1.37509, 1.37159, 1.37125, 1.36921, 1.36835, 1.36805, 1.36739, 1.36604, 1.36493, 1.36366, 1.36369, 1.36233, 1.36169, 1.36221, 1.36164, 1.35951, 1.36007, 1.35812, 1.35776, 1.35816, 1.35678, 1.35497, 1.35197, 1.34964, 1.34825, 1.34792, 1.34736, 1.34623, 1.34709, 1.35638, 1.3607, 1.35662, 1.34368, 1.32314, 1.35871, 1.38541, 1.44318, 1.47863, 1.49982, 1.54577, 1.60218, 1.6031, 1.60684, 1.56053, 1.50899, 1.45061, 1.41305, 1.32599, 1.30274, 1.34355, 1.32937, 1.33066, 1.31977, 1.32857, 1.32017, 1.31907, 1.31674, 1.3174, 1.31722, 1.31393, 1.31587, 1.31318, 1.31229, 1.3103, 1.309, 1.30835, 1.30669, 1.30626, 1.30612
1.65276, 1.65187, 1.64903, 1.64851, 1.64771, 1.6441, 1.65508, 1.64151, 1.63842, 1.63408, 1.6319, 1.6309, 1.62865, 1.62707, 1.63353, 1.62125, 1.6192, 1.61998, 1.62514, 1.61138, 1.60971, 1.6108, 1.62327, 1.62666, 1.61923, 1.59586, 1.61896, 1.66833, 1.76792, 1.75718, 1.77525, 1.83792, 1.91209, 2.07343, 2.11476, 1.95918, 1.87155, 1.66422, 1.55458, 1.54023, 1.60243, 1.57316, 1.58271, 1.58543, 1.58409, 1.57187, 1.57089, 1.5728, 1.57497, 1.5893, 1.56006, 1.56693, 1.55575, 1.55458, 1.55129, 1.57396, 1.54812, 1.54458, 1.54727, 1.54162, 1.53973, 1.53599, 1.53329, 1.53127, 1.53162, 1.5281, 1.52781, 1.52344, 1.5165, 1.5163, 1.516, 1.51893, 1.51148, 1.50987, 1.51331, 1.52388, 1.50691, 1.50784, 1.50621, 1.5069, 1.50579, 1.50567, 1.50496, 1.52233, 1.50234, 1.50097, 1.50171, 1.49918, 1.50628, 1.50133, 1.49849, 1.51604, 1.53449, 1.53056, 1.52461, 1.53099, 1.53112, 1.49134, 1.48966, 1.49032, 1.48238, 1.49196, 1.47819, 1.47981, 1.48591, 1.44796, 1.46583, 1.48084, 1.48141, 1.512, 1.52598, 1.54929, 1.54049, 1.52761, 1.51248, 1.51541, 1.53463, 1.52995, 1.52778, 1.50037, 1.49997, 1.46921, 1.45075, 1.46284, 1.45811, 1.47038, 1.46642, 1.47322, 1.48844, 1.49632, 1.49218, 1.48662, 1.50267, 1.49546, 1.4713, 1.48598, 1.47289, 1.4533, 1.44843, 1.43481, 1.42781, 1.42782, 1.42948, 1.42123, 1.41811, 1.42064, 1.43094, 1.41204, 1.42526, 1.40985, 1.4061, 1.40464, 1.40385, 1.40195, 1.40053, 1.39938, 1.3957, 1.39539, 1.39346, 1.39126, 1.39008, 1.3886, 1.38853, 1.38798, 1.38579, 1.38753, 1.38332, 1.39575, 1.38152, 1.38093, 1.39602, 1.37799, 1.37587, 1.37444, 1.37216, 1.37091, 1.36805, 1.36698, 1.36731, 1.36818, 1.37011, 1.36699, 1.41637, 1.36425, 1.36512, 1.36327, 1.36344, 1.36027, 1.38031, 1.35763, 1.35867, 1.35668, 1.35427, 1.35242, 1.35176, 1.35004, 1.3483, 1.3463, 1.34517, 1.34456, 1.34362, 1.34156, 1.36703, 1.36095, 1.35489, 1.35508, 1.32318, 1.31898, 1.39963, 1.37172, 1.42728, 1.44735, 1.50596, 1.52697, 1.56883, 1.61017, 1.62026, 1.61149, 1.51973, 1.47033, 1.38071, 1.33416, 1.32886, 1.33026, 1.34794, 1.32972, 1.32461, 1.3298, 1.32037, 1.33341, 1.34008, 1.31792, 1.31732, 1.31333, 1.31551, 1.31373, 1.31496, 1.31376, 1.31101, 1.31229, 1.30818, 1.30847, 1.30875
1.64574, 1.6439, 1.64248, 1.64102, 1.63953, 1.64066, 1.63888, 1.63774, 1.63722, 1.63761, 1.63545, 1.64078, 1.63147, 1.62984, 1.63792, 1.62491, 1.63211, 1.61857, 1.61765, 1.61516, 1.61146, 1.6306, 1.61657, 1.61101, 1.60751, 1.59644, 1.59624, 1.64902, 1.6778, 1.7663, 1.74452, 1.78444, 1.88059, 1.86584, 1.97562, 1.97283, 1.81724, 1.63353, 1.55758, 1.58599, 1.59376, 1.5938, 1.58028, 1.58521, 1.58367, 1.57869, 1.58925, 1.5777, 1.57143, 1.57843, 1.56798, 1.56451, 1.5633, 1.56893, 1.55766, 1.56116, 1.55083, 1.54835, 1.56024, 1.54435, 1.54136, 1.53978, 1.5389, 1.53721, 1.53436, 1.5313, 1.53006, 1.52721, 1.5245, 1.52337, 1.52356, 1.52639, 1.51726, 1.51623, 1.51654, 1.51251, 1.51104, 1.51014, 1.50883, 1.50767, 1.50685, 1.50476, 1.50314, 1.50222, 1.50199, 1.50022, 1.4988, 1.50296, 1.49679, 1.49603, 1.50249, 1.49296, 1.49285, 1.49254, 1.52391, 1.51385, 1.51609, 1.52194, 1.52946, 1.53997, 1.50749, 1.46827, 1.4745, 1.48907, 1.4786, 1.46174, 1.46082, 1.45517, 1.48319, 1.51466, 1.53486, 1.53793, 1.53513, 1.52406, 1.52186, 1.52552, 1.49056, 1.50506, 1.51998, 1.54622, 1.53204, 1.49416, 1.46224, 1.46081, 1.46242, 1.46102, 1.45684, 1.454, 1.45128, 1.44464, 1.43967, 1.45179, 1.44087, 1.43489, 1.43441, 1.43435, 1.43144, 1.44729, 1.42838, 1.42334, 1.42311, 1.42005, 1.41976, 1.41698, 1.4149, 1.41311, 1.41206, 1.41123, 1.41059, 1.40992, 1.40847, 1.40575, 1.40389, 1.40227, 1.40056, 1.3995, 1.39736, 1.39826, 1.39535, 1.39456, 1.39194, 1.3917, 1.38886, 1.389, 1.38647, 1.38664, 1.38583, 1.38461, 1.38278, 1.37979, 1.37922, 1.37939, 1.37929, 1.37912, 1.37757, 1.376, 1.37516, 1.37396, 1.37377, 1.3708, 1.3701, 1.36728, 1.36818, 1.36652, 1.37106, 1.36282, 1.36252, 1.3611, 1.36074, 1.358, 1.35665, 1.35507, 1.35449, 1.35348, 1.3517, 1.35122, 1.34816, 1.34925, 1.34848, 1.34828, 1.34333, 1.34253, 1.34168, 1.34391, 1.34776, 1.35039, 1.33686, 1.34356, 1.38222, 1.41711, 1.43775, 1.45733, 1.50557, 1.56588, 1.63413, 1.61856, 1.63383, 1.59653, 1.55318, 1.44224, 1.39575, 1.34067, 1.29323, 1.32453, 1.3299, 1.32735, 1.32257, 1.31956, 1.31719, 1.31908, 1.3157, 1.31538, 1.3158, 1.31407, 1.311, 1.31196, 1.3096, 1.30947, 1.30857, 1.3056, 1.31269, 1.30417, 1.30448
1.64454, 1.64239, 1.6425, 1.63927, 1.63869, 1.63931, 1.63898, 1.64126, 1.63826, 1.63709, 1.63518, 1.63396, 1.63295, 1.63821, 1.63559, 1.62464, 1.62335, 1.61971, 1.62257, 1.61461, 1.6101, 1.60897, 1.61549, 1.60819, 1.60644, 1.58126, 1.57754, 1.62423, 1.6312, 1.66753, 1.74156, 1.82806, 1.94343, 1.96617, 1.96252, 1.96523, 1.81347, 1.69954, 1.56653, 1.56211, 1.60023, 1.59309, 1.6052, 1.59997, 1.58504, 1.58491, 1.58369, 1.58857, 1.58961, 1.5819, 1.5795, 1.57163, 1.5655, 1.56086, 1.57217, 1.56861, 1.55246, 1.55104, 1.54886, 1.54562, 1.54457, 1.54098, 1.53703, 1.53474, 1.53208, 1.53041, 1.52866, 1.52582, 1.52505, 1.52168, 1.52034, 1.51859, 1.51619, 1.51299, 1.51131, 1.50972, 1.50948, 1.50927, 1.50756, 1.50633, 1.50611, 1.50408, 1.50268, 1.50174, 1.50087, 1.49938, 1.49488, 1.49367, 1.49407, 1.49427, 1.494, 1.49486, 1.49338, 1.498, 1.48929, 1.48861, 1.48449, 1.51269, 1.50607, 1.49639, 1.51642, 1.5047, 1.5109, 1.51032, 1.50083, 1.49153, 1.47477, 1.47441, 1.48303, 1.52773, 1.54471, 1.55457, 1.53362, 1.5311, 1.52741, 1.49032, 1.49302, 1.51356, 1.56155, 1.52023, 1.54864, 1.49876, 1.49321, 1.45764, 1.45774, 1.45185, 1.44927, 1.44384, 1.44685, 1.43997, 1.43728, 1.43521, 1.43195, 1.43, 1.4295, 1.42592, 1.42555, 1.42391, 1.42111, 1.41963, 1.41765, 1.41772, 1.41319, 1.41167, 1.41062, 1.41177, 1.41149, 1.41202, 1.40939, 1.40913, 1.40396, 1.40224, 1.40268, 1.40049, 1.39898, 1.39987, 1.39857, 1.39761, 1.39699, 1.39468, 1.39492, 1.3942, 1.39265, 1.39187, 1.38978, 1.38883, 1.38493, 1.38335, 1.38192, 1.38012, 1.37856, 1.37798, 1.3781, 1.3774, 1.37714, 1.38465, 1.37445, 1.37251, 1.37258, 1.37359, 1.37254, 1.3717, 1.37039, 1.36616, 1.36506, 1.37068, 1.36219, 1.3623, 1.36049, 1.35812, 1.35879, 1.36494, 1.35528, 1.35372, 1.37978, 1.35171, 1.35072, 1.34821, 1.36474, 1.35065, 1.34655, 1.34376, 1.3482, 1.36935, 1.36125, 1.35146, 1.34782, 1.34055, 1.32283, 1.39888, 1.45938, 1.48192, 1.52095, 1.585, 1.61838, 1.65237, 1.65712, 1.64434, 1.52068, 1.48805, 1.39162, 1.32749, 1.30252, 1.33598, 1.35159, 1.33816, 1.33971, 1.33651, 1.32724, 1.32654, 1.31893, 1.31675, 1.3173, 1.31362, 1.31165, 1.31305, 1.31177, 1.32149, 1.34657, 1.30983, 1.3098, 1.30992, 1.30865
1.64504, 1.64451, 1.64128, 1.64174, 1.64039, 1.64266, 1.63853, 1.6378, 1.63612, 1.63145, 1.6304, 1.62937, 1.62769, 1.62473, 1.62149, 1.62019, 1.61653, 1.61577, 1.61328, 1.6111, 1.61095, 1.61313, 1.6093, 1.61367, 1.62484, 1.61942, 1.60238, 1.64092, 1.64986, 1.67235, 1.74454, 1.80696, 1.85654, 1.93002, 1.95541, 1.84836, 1.77249, 1.57282, 1.57279, 1.58447, 1.57042, 1.56951, 1.58004, 1.57818, 1.58547, 1.58255, 1.58725, 1.58953, 1.59318, 1.57848, 1.57844, 1.56911, 1.57142, 1.5609, 1.56276, 1.56184, 1.55422, 1.54586, 1.54287, 1.5397, 1.53846, 1.53699, 1.53556, 1.53321, 1.53112, 1.52927, 1.52828, 1.5253, 1.52441, 1.5228, 1.52035, 1.51932, 1.5181, 1.51701, 1.51423, 1.51224, 1.51071, 1.50903, 1.50627, 1.50531, 1.50217, 1.50079, 1.50036, 1.4987, 1.49761, 1.49647, 1.49502, 1.49297, 1.49194, 1.48942, 1.48873, 1.48841, 1.48637, 1.48497, 1.48357, 1.48187, 1.481, 1.48835, 1.47947, 1.48506, 1.47806, 1.47655, 1.48992, 1.48077, 1.48273, 1.48911, 1.48432, 1.49879, 1.51324, 1.51406, 1.58918, 1.5536, 1.53576, 1.51839, 1.51328, 1.54153, 1.49229, 1.48524, 1.50247, 1.51023, 1.51137, 1.49146, 1.46066, 1.4522, 1.45125, 1.45593, 1.46766, 1.44973, 1.4443, 1.44174, 1.44005, 1.43682, 1.43502, 1.43396, 1.43256, 1.43132, 1.42783, 1.42499, 1.42417, 1.42134, 1.41941, 1.41584, 1.4161, 1.41386, 1.41381, 1.41058, 1.41188, 1.41318, 1.40839, 1.40617, 1.40509, 1.40381, 1.40246, 1.40183, 1.40069, 1.39933, 1.39922, 1.39795, 1.3957, 1.39796, 1.39504, 1.39223, 1.39206, 1.39042, 1.38945, 1.38684, 1.38528, 1.38405, 1.38183, 1.37959, 1.37895, 1.37783, 1.37769, 1.37639, 1.37508, 1.37238, 1.37156, 1.37101, 1.36973, 1.36785, 1.36723, 1.36641, 1.36444, 1.36412, 1.36369, 1.36361, 1.36015, 1.35865, 1.35695, 1.35819, 1.35712, 1.35682, 1.35404, 1.35535, 1.35123, 1.34954, 1.35061, 1.34828, 1.34905, 1.3476, 1.3611, 1.34456, 1.34652, 1.34559, 1.34821, 1.35862, 1.35171, 1.31401, 1.37741, 1.38674, 1.43079, 1.4509, 1.51659, 1.53052, 1.58784, 1.63771, 1.64107, 1.64716, 1.62408, 1.49042, 1.38935, 1.34281, 1.32062, 1.33998, 1.34008, 1.32319, 1.31987, 1.31899, 1.31882, 1.31685, 1.31436, 1.3133, 1.31188, 1.31375, 1.31194, 1.31151, 1.3123, 1.31013, 1.31145, 1.31191, 1.31091, 1.31032, 1.30838
1.64202, 1.63777, 1.63765, 1.63675, 1.63365, 1.63351, 1.63199, 1.63185, 1.62888, 1.62688, 1.62428, 1.62447, 1.62378, 1.6231, 1.62077, 1.61738, 1.62644, 1.61378, 1.61191, 1.61163, 1.62683, 1.6084, 1.62, 1.60624, 1.60546, 1.60639, 1.58909, 1.5956, 1.62749, 1.70629, 1.73699, 1.7936, 1.86113, 1.96217, 1.98981, 1.97638, 1.85528, 1.7415, 1.56117, 1.52765, 1.52778, 1.5921, 1.62182, 1.63332, 1.66529, 1.64073, 1.61806, 1.64109, 1.60002, 1.60964, 1.59282, 1.59934, 1.57661, 1.57604, 1.5618, 1.55918, 1.55443, 1.55497, 1.54182, 1.53727, 1.53657, 1.55536, 1.54313, 1.53683, 1.538, 1.52747, 1.52724, 1.52494, 1.52312, 1.52348, 1.52069, 1.51955, 1.51832, 1.51707, 1.51575, 1.51274, 1.50975, 1.50903, 1.50561, 1.50322, 1.50138, 1.50012, 1.49853, 1.4979, 1.49566, 1.51945, 1.49378, 1.4938, 1.50557, 1.49009, 1.48773, 1.48382, 1.48267, 1.48032, 1.47896, 1.47809, 1.47605, 1.47464, 1.47469, 1.47345, 1.4781, 1.48128, 1.47626, 1.49153, 1.49178, 1.48161, 1.47331, 1.49569, 1.50238, 1.50896, 1.52611, 1.53061, 1.49221, 1.51386, 1.51118, 1.49108, 1.47605, 1.34123, 1.49816, 1.51958, 1.52146, 1.48144, 1.47912, 1.44183, 1.44964, 1.46711, 1.45773, 1.44914, 1.44413, 1.43832, 1.44728, 1.44016, 1.43095, 1.42951, 1.42702, 1.42369, 1.4231, 1.41972, 1.418, 1.41633, 1.43054, 1.41306, 1.41168, 1.41107, 1.41011, 1.40948, 1.40925, 1.40805, 1.40756, 1.40793, 1.40543, 1.40411, 1.40513, 1.40239, 1.39983, 1.40623, 1.397, 1.39519, 1.39335, 1.39346, 1.39351, 1.39109, 1.38793, 1.38708, 1.38613, 1.38403, 1.38336, 1.38134, 1.38171, 1.38107, 1.37927, 1.37967, 1.37644, 1.37502, 1.37287, 1.37098, 1.3705, 1.37066, 1.36462, 1.36514, 1.36145, 1.36185, 1.36013, 1.36111, 1.3596, 1.35973, 1.35812, 1.35795, 1.3521, 1.35202, 1.35053, 1.35307, 1.35216, 1.35048, 1.34637, 1.34567, 1.34601, 1.34284, 1.34506, 1.34738, 1.34292, 1.34147, 1.34087, 1.34019, 1.34317, 1.34762, 1.35382, 1.32259, 1.34133, 1.36793, 1.38508, 1.42832, 1.451, 1.50375, 1.52933, 1.58924, 1.73986, 1.62518, 1.60446, 1.47214, 1.41013, 1.34553, 1.30796, 1.32176, 1.33147, 1.33561, 1.33073, 1.32011, 1.31902, 1.31591, 1.32027, 1.31345, 1.31104, 1.32748, 1.31277, 1.30868, 1.32867, 1.30647, 1.3073, 1.30573, 1.30554, 1.30657, 1.30842
1.64093, 1.6385, 1.63814, 1.63594, 1.63541, 1.63281, 1.63155, 1.63018, 1.6277, 1.62489, 1.62369, 1.62708, 1.61966, 1.61789, 1.61565, 1.61345, 1.61229, 1.60798, 1.60691, 1.60562, 1.60609, 1.61287, 1.60612, 1.61784, 1.60449, 1.61357, 1.59643, 1.57354, 1.63075, 1.67569, 1.72272, 1.73801, 1.78483, 1.9774, 1.98833, 1.99161, 1.80714, 1.61313, 1.55403, 1.56063, 1.54234, 1.57944, 1.62073, 1.66168, 1.73429, 1.70634, 1.71708, 1.62052, 1.60361, 1.5964, 1.58666, 1.59604, 1.58679, 1.57297, 1.56826, 1.55758, 1.56429, 1.55738, 1.54778, 1.53819, 1.55773, 1.53461, 1.53186, 1.53313, 1.5284, 1.52649, 1.52388, 1.52274, 1.52029, 1.51929, 1.51824, 1.5171, 1.5173, 1.51495, 1.51337, 1.51125, 1.50952, 1.50764, 1.50591, 1.504, 1.50269, 1.4993, 1.49851, 1.49668, 1.52116, 1.49495, 1.49191, 1.49004, 1.4882, 1.4866, 1.48687, 1.48511, 1.48336, 1.48266, 1.48082, 1.47961, 1.477, 1.48236, 1.47355, 1.47301, 1.47171, 1.47479, 1.4799, 1.47801, 1.47889, 1.47867, 1.47945, 1.4843, 1.51376, 1.52622, 1.52725, 1.52176, 1.51957, 1.5261, 1.4751, 1.47412, 1.47575, 1.51206, 1.52696, 1.51235, 1.50248, 1.51068, 1.46162, 1.462, 1.45378, 1.46093, 1.45698, 1.4422, 1.43626, 1.43328, 1.42949, 1.42652, 1.42379, 1.42224, 1.41944, 1.41776, 1.42759, 1.41509, 1.41413, 1.41289, 1.41215, 1.41007, 1.4087, 1.4085, 1.40973, 1.40938, 1.40907, 1.40901, 1.40852, 1.4067, 1.4074, 1.40488, 1.40466, 1.40158, 1.39948, 1.39654, 1.39365, 1.39275, 1.38865, 1.38831, 1.38623, 1.3873, 1.38446, 1.38328, 1.38252, 1.38511, 1.37977, 1.37907, 1.37932, 1.37626, 1.37462, 1.37332, 1.37204, 1.37089, 1.36967, 1.36978, 1.36761, 1.36705, 1.36674, 1.36544, 1.36374, 1.36397, 1.36319, 1.36088, 1.35897, 1.3574, 1.35708, 1.3562, 1.35606, 1.35591, 1.35526, 1.35374, 1.3545, 1.34969, 1.34857, 1.3502, 1.3499, 1.34641, 1.34691, 1.34644, 1.3462, 1.34548, 1.34388, 1.344, 1.35115, 1.3455, 1.3511, 1.31153, 1.34056, 1.36535, 1.42644, 1.42794, 1.50493, 1.54405, 1.55432, 1.62298, 1.64072, 1.61125, 1.57636, 1.49615, 1.40033, 1.37434, 1.30631, 1.33756, 1.32949, 1.33629, 1.33791, 1.33329, 1.31695, 1.3219, 1.31953, 1.30913, 1.32098, 1.30708, 1.30991, 1.30883, 1.30595, 1.30517, 1.30508, 1.30401, 1.30236, 1.30289, 1.30156
1.63346, 1.63022, 1.62888, 1.62789, 1.62662, 1.62271, 1.62352, 1.62005, 1.61873, 1.61945, 1.61632, 1.61412, 1.61234, 1.61152, 1.61031, 1.60921, 1.60456, 1.60379, 1.6014, 1.60042, 1.59879, 1.59686, 1.59692, 1.59558, 1.5942, 1.61051, 1.57852, 1.57827, 1.64776, 1.65418, 1.72111, 1.74467, 1.82716, 1.92493, 2.17002, 2.28449, 1.79254, 1.57043, 1.55118, 1.53859, 1.55738, 1.56535, 1.56548, 1.57141, 1.57258, 1.57316, 1.58496, 1.58602, 1.57974, 1.57973, 1.56732, 1.56864, 1.55808, 1.55489, 1.55515, 1.5537, 1.55444, 1.53356, 1.53712, 1.52886, 1.52709, 1.52582, 1.52267, 1.521, 1.51949, 1.51962, 1.51891, 1.51515, 1.51242, 1.51214, 1.51107, 1.50809, 1.50674, 1.50691, 1.50643, 1.50617, 1.50529, 1.50241, 1.50093, 1.49991, 1.49801, 1.49669, 1.49494, 1.49152, 1.49514, 1.48521, 1.48312, 1.48252, 1.47889, 1.47942, 1.4775, 1.47404, 1.47429, 1.47305, 1.47205, 1.47056, 1.47, 1.46821, 1.46607, 1.46529, 1.46485, 1.46447, 1.4669, 1.46996, 1.47269, 1.48538, 1.48612, 1.47838, 1.49513, 1.49884, 1.50552, 1.50663, 1.52539, 1.58523, 1.51606, 1.47167, 1.48976, 1.48294, 1.48428, 1.47732, 1.49981, 1.47139, 1.4743, 1.43657, 1.45103, 1.44012, 1.44775, 1.43861, 1.44363, 1.43205, 1.42925, 1.42304, 1.42254, 1.41923, 1.41742, 1.41814, 1.41541, 1.41222, 1.41095, 1.411, 1.41034, 1.40867, 1.40874, 1.4061, 1.40538, 1.40419, 1.40329, 1.40123, 1.39981, 1.39879, 1.399, 1.39693, 1.39497, 1.39245, 1.38927, 1.38825, 1.38552, 1.38461, 1.38202, 1.38051, 1.38297, 1.38017, 1.37784, 1.37449, 1.3737, 1.37506, 1.37446, 1.37854, 1.378, 1.37695, 1.37741, 1.37568, 1.37622, 1.37493, 1.36879, 1.36704, 1.36502, 1.36451, 1.36495, 1.35923, 1.35739, 1.35373, 1.35592, 1.3573, 1.35551, 1.35346, 1.35272, 1.35168, 1.35231, 1.35191, 1.35137, 1.34973, 1.34994, 1.35156, 1.34618, 1.34561, 1.34557, 1.34265, 1.34149, 1.33898, 1.33922, 1.3378, 1.33795, 1.3532, 1.34464, 1.35329, 1.35995, 1.34438, 1.30879, 1.33634, 1.38928, 1.4087, 1.46792, 1.507, 1.57231, 1.6245, 1.64103, 1.66236, 1.56617, 1.48565, 1.41935, 1.27544, 1.27702, 1.32684, 1.31731, 1.32061, 1.32358, 1.31284, 1.31365, 1.30772, 1.30718, 1.30595, 1.30628, 1.30372, 1.30237, 1.30173, 1.30069, 1.29699, 1.29775, 1.29846, 1.30032, 1.29638, 1.29908
1.62867, 1.62624, 1.62419, 1.6237, 1.62127, 1.62193, 1.62101, 1.62129, 1.61929, 1.61797, 1.61771, 1.61498, 1.61335, 1.61156, 1.60947, 1.60797, 1.60558, 1.603, 1.60228, 1.60042, 1.59871, 1.5975, 1.59551, 1.59593, 1.60599, 1.59354, 1.58353, 1.5822, 1.59977, 1.66203, 1.70052, 1.75674, 1.78871, 1.84583, 2.06978, 1.90297, 1.77502, 1.62418, 1.56928, 1.53479, 1.55698, 1.56227, 1.56927, 1.56213, 1.56472, 1.56064, 1.56121, 1.5596, 1.56378, 1.56871, 1.55381, 1.55106, 1.54695, 1.54464, 1.54881, 1.53764, 1.53684, 1.53505, 1.53111, 1.5293, 1.52898, 1.52617, 1.524, 1.5227, 1.5203, 1.51892, 1.5149, 1.51325, 1.512, 1.51084, 1.50916, 1.50704, 1.50548, 1.50297, 1.50207, 1.50141, 1.49974, 1.49913, 1.49786, 1.49616, 1.49385, 1.49307, 1.49123, 1.48946, 1.48555, 1.48329, 1.48161, 1.47782, 1.47477, 1.47465, 1.47184, 1.4711, 1.46998, 1.47269, 1.46824, 1.46822, 1.46665, 1.46669, 1.46579, 1.46461, 1.46428, 1.46371, 1.46436, 1.46589, 1.48234, 1.48904, 1.46017, 1.49201, 1.49975, 1.5128, 1.5119, 1.51628, 1.5076, 1.53105, 1.53741, 1.47345, 1.49269, 1.4817, 1.49142, 1.49853, 1.47881, 1.48022, 1.47886, 1.45567, 1.43421, 1.44428, 1.45354, 1.44352, 1.43369, 1.43102, 1.42784, 1.42464, 1.42391, 1.42076, 1.41816, 1.41437, 1.41552, 1.41209, 1.41014, 1.41566, 1.40842, 1.40673, 1.40484, 1.40322, 1.40255, 1.4012, 1.3993, 1.396, 1.39505, 1.39483, 1.39232, 1.38968, 1.38813, 1.38791, 1.38487, 1.38302, 1.38159, 1.38195, 1.37907, 1.37819, 1.37796, 1.37487, 1.37401, 1.37378, 1.3726, 1.37502, 1.37452, 1.37405, 1.37393, 1.37428, 1.37228, 1.38184, 1.37222, 1.37054, 1.3682, 1.36637, 1.36334, 1.36157, 1.358, 1.35701, 1.3539, 1.35435, 1.35128, 1.35004, 1.34856, 1.34851, 1.34855, 1.34828, 1.34738, 1.34713, 1.34618, 1.34341, 1.34187, 1.3436, 1.34267, 1.34198, 1.34419, 1.34079, 1.33939, 1.33734, 1.34528, 1.33603, 1.33651, 1.33124, 1.33245, 1.3323, 1.34743, 1.34382, 1.31893, 1.35174, 1.3745, 1.37571, 1.48598, 1.51203, 1.57272, 1.59963, 1.67323, 1.71723, 1.63769, 1.44674, 1.39981, 1.3608, 1.28304, 1.31608, 1.32219, 1.32068, 1.31229, 1.31355, 1.30734, 1.30673, 1.30621, 1.30628, 1.30434, 1.30496, 1.30522, 1.30356, 1.30235, 1.30094, 1.29838, 1.29707, 1.29904, 1.29791, 1.29347
1.62413, 1.62428, 1.6247, 1.62279, 1.62091, 1.61937, 1.61722, 1.61881, 1.61626, 1.61603, 1.614, 1.61341, 1.61192, 1.60951, 1.60723, 1.6071, 1.60442, 1.60235, 1.59975, 1.59954, 1.59675, 1.59471, 1.59261, 1.59249, 1.59349, 1.59343, 1.58939, 1.56748, 1.58446, 1.64021, 1.74813, 1.74799, 1.79319, 1.82237, 1.78912, 1.74098, 1.65734, 1.64986, 1.53073, 1.5247, 1.54405, 1.55723, 1.56938, 1.57547, 1.55806, 1.55735, 1.5557, 1.55354, 1.55247, 1.5507, 1.54761, 1.57636, 1.54594, 1.56459, 1.5401, 1.5386, 1.53705, 1.53529, 1.5478, 1.53083, 1.52842, 1.52602, 1.52461, 1.52125, 1.51996, 1.51954, 1.51654, 1.51333, 1.51, 1.50554, 1.50264, 1.50233, 1.50241, 1.50248, 1.50155, 1.49896, 1.49796, 1.49567, 1.49354, 1.49352, 1.49262, 1.49064, 1.49015, 1.48924, 1.48604, 1.48716, 1.48223, 1.48156, 1.4783, 1.47612, 1.47446, 1.47298, 1.47227, 1.47109, 1.46969, 1.46762, 1.46511, 1.46379, 1.4626, 1.4619, 1.46097, 1.46132, 1.4625, 1.46204, 1.46286, 1.46525, 1.47369, 1.4731, 1.49847, 1.49818, 1.55172, 1.55539, 1.55034, 1.48625, 1.53334, 1.46873, 1.47425, 1.47776, 1.48911, 1.47517, 1.48092, 1.48845, 1.47207, 1.46284, 1.43982, 1.43915, 1.43782, 1.43712, 1.43086, 1.4271, 1.42415, 1.42964, 1.41826, 1.42252, 1.41409, 1.41206, 1.40973, 1.41865, 1.40991, 1.40802, 1.40576, 1.40545, 1.40253, 1.40151, 1.40142, 1.40148, 1.39879, 1.39863, 1.39875, 1.39327, 1.39203, 1.39446, 1.38854, 1.38835, 1.38868, 1.38565, 1.38556, 1.38539, 1.38412, 1.38178, 1.37829, 1.37779, 1.37563, 1.37486, 1.37454, 1.37558, 1.37279, 1.37188, 1.37209, 1.37122, 1.37294, 1.36785, 1.36683, 1.36506, 1.36615, 1.36175, 1.35596, 1.35581, 1.36104, 1.35221, 1.35046, 1.34992, 1.3478, 1.348, 1.3476, 1.34712, 1.34743, 1.35361, 1.34704, 1.35387, 1.345, 1.34424, 1.34587, 1.34263, 1.34098, 1.34064, 1.35195, 1.33703, 1.33496, 1.34512, 1.33456, 1.35184, 1.32842, 1.32595, 1.32469, 1.33022, 1.33044, 1.33987, 1.31666, 1.32117, 1.37894, 1.41358, 1.45105, 1.47969, 1.55427, 1.58908, 1.60414, 1.68851, 1.69226, 1.56356, 1.41584, 1.2931, 1.29455, 1.31352, 1.31988, 1.32076, 1.30683, 1.30592, 1.3098, 1.31193, 1.30616, 1.30573, 1.30755, 1.3231, 1.32971, 1.31421, 1.30344, 1.30102, 1.29939, 1.29648, 1.29863, 1.29911, 1.29639
1.62996, 1.62425, 1.6226, 1.62089, 1.62083, 1.61942, 1.61921, 1.62083, 1.61684, 1.61438, 1.61752, 1.61417, 1.61284, 1.60978, 1.60641, 1.61296, 1.60485, 1.60441, 1.60612, 1.60013, 1.59652, 1.61685, 1.59327, 1.6062, 1.59229, 1.60314, 1.59563, 1.58448, 1.58818, 1.62182, 1.66951, 1.75461, 1.83038, 1.72766, 1.73162, 1.69852, 1.81326, 1.84171, 1.56623, 1.5379, 1.54734, 1.57104, 1.56599, 1.57402, 1.56823, 1.56051, 1.56957, 1.56955, 1.56286, 1.55524, 1.55387, 1.55477, 1.54498, 1.54042, 1.54665, 1.53742, 1.53388, 1.53146, 1.52891, 1.52934, 1.52877, 1.52735, 1.52555, 1.52462, 1.5213, 1.51841, 1.51818, 1.51729, 1.51523, 1.51252, 1.51764, 1.50741, 1.50715, 1.51311, 1.50458, 1.50343, 1.50005, 1.49925, 1.49595, 1.49492, 1.49341, 1.49166, 1.49046, 1.48838, 1.48821, 1.48707, 1.48608, 1.48143, 1.48332, 1.48519, 1.47683, 1.47586, 1.47379, 1.47315, 1.47202, 1.47112, 1.46845, 1.46818, 1.4674, 1.46501, 1.46491, 1.46569, 1.46654, 1.46911, 1.47074, 1.47075, 1.47769, 1.49692, 1.50902, 1.50541, 1.50046, 1.49775, 1.49597, 1.49147, 1.49521, 1.45807, 1.4649, 1.46061, 1.50749, 1.51055, 1.47962, 1.49132, 1.47877, 1.45272, 1.46509, 1.44678, 1.43723, 1.43213, 1.43182, 1.42637, 1.41985, 1.41917, 1.41732, 1.41436, 1.41296, 1.41259, 1.42274, 1.42443, 1.41641, 1.40665, 1.40673, 1.40445, 1.40481, 1.40466, 1.40201, 1.39917, 1.39807, 1.39684, 1.39682, 1.39302, 1.39102, 1.39112, 1.38893, 1.38782, 1.38715, 1.38712, 1.38345, 1.38352, 1.43628, 1.38194, 1.38069, 1.38113, 1.3777, 1.37532, 1.37536, 1.37305, 1.37124, 1.36849, 1.36851, 1.36668, 1.36799, 1.36457, 1.36313, 1.36015, 1.35912, 1.35736, 1.35488, 1.35305, 1.35091, 1.34866, 1.3488, 1.35002, 1.3451, 1.3461, 1.34502, 1.34727, 1.34633, 1.34686, 1.34688, 1.34826, 1.35811, 1.35038, 1.34134, 1.33976, 1.33929, 1.33788, 1.33619, 1.33577, 1.33407, 1.33376, 1.3332, 1.33032, 1.33132, 1.33029, 1.33143, 1.33055, 1.33158, 1.33065, 1.34042, 1.30244, 1.34812, 1.39662, 1.43649, 1.49917, 1.53529, 1.58941, 1.66374, 1.69336, 1.68081, 1.48342, 1.42718, 1.28787, 1.28206, 1.30531, 1.31595, 1.32433, 1.31355, 1.32744, 1.30529, 1.30657, 1.30569, 1.30585, 1.30584, 1.31182, 1.30503, 1.30408, 1.30504, 1.30196, 1.29945, 1.2998, 1.3007, 1.30276, 1.29735
1.62187, 1.61972, 1.61716, 1.61535, 1.61455, 1.61262, 1.61269, 1.6092, 1.60932, 1.60946, 1.60512, 1.6047, 1.59967, 1.60033, 1.59855, 1.59583, 1.59433, 1.59984, 1.5899, 1.58886, 1.58793, 1.58584, 1.58299, 1.58001, 1.58722, 1.5794, 1.58978, 1.58315, 1.56632, 1.63087, 1.68912, 1.7729, 1.77576, 1.83361, 1.86199, 2.13924, 2.14265, 1.65508, 1.60987, 1.55106, 1.55795, 1.56461, 1.5624, 1.56188, 1.56251, 1.55215, 1.55695, 1.54755, 1.54517, 1.54231, 1.54064, 1.54402, 1.5352, 1.53127, 1.53068, 1.52611, 1.53012, 1.51919, 1.51926, 1.52319, 1.51957, 1.51684, 1.51662, 1.5147, 1.51367, 1.51298, 1.51116, 1.51093, 1.50984, 1.50829, 1.50624, 1.50437, 1.50115, 1.49943, 1.49533, 1.49339, 1.49175, 1.49157, 1.48965, 1.48939, 1.48686, 1.48449, 1.48282, 1.4809, 1.47869, 1.47681, 1.47503, 1.47396, 1.47254, 1.47123, 1.47006, 1.47433, 1.46398, 1.46426, 1.46417, 1.46437, 1.46302, 1.46076, 1.46197, 1.46008, 1.45996, 1.45905, 1.4587, 1.46043, 1.46164, 1.46229, 1.46472, 1.47358, 1.48284, 1.47519, 1.4925, 1.48113, 1.47815, 1.47908, 1.48268, 1.46897, 1.46092, 1.48007, 1.46216, 1.4696, 1.46919, 1.46984, 1.46425, 1.4499, 1.42593, 1.42445, 1.43106, 1.42279, 1.42006, 1.41867, 1.41434, 1.40887, 1.4077, 1.40637, 1.40665, 1.40685, 1.40327, 1.40138, 1.40057, 1.40435, 1.40268, 1.39977, 1.40233, 1.4021, 1.3972, 1.39589, 1.39316, 1.39182, 1.3896, 1.38842, 1.38861, 1.38332, 1.3844, 1.38237, 1.38272, 1.38118, 1.37902, 1.37786, 1.37539, 1.37444, 1.37347, 1.37436, 1.36837, 1.36809, 1.36607, 1.36531, 1.36396, 1.36143, 1.36006, 1.35845, 1.35466, 1.35256, 1.35159, 1.34938, 1.34858, 1.34646, 1.34464, 1.34304, 1.34353, 1.34401, 1.34541, 1.33949, 1.34009, 1.34031, 1.34002, 1.33803, 1.34077, 1.34019, 1.33937, 1.34357, 1.34063, 1.33769, 1.33548, 1.33381, 1.33336, 1.33427, 1.33308, 1.33305, 1.32628, 1.33054, 1.32675, 1.32613, 1.32512, 1.3239, 1.33304, 1.32295, 1.33076, 1.32456, 1.33015, 1.32137, 1.31226, 1.36915, 1.39558, 1.49336, 1.54653, 1.57959, 1.71008, 1.69515, 1.69203, 1.43968, 1.42607, 1.29869, 1.29912, 1.28594, 1.31433, 1.31835, 1.29642, 1.29752, 1.302, 1.29641, 1.31765, 1.29893, 1.29785, 1.29891, 1.29678, 1.29677, 1.29437, 1.29008, 1.28805, 1.2866, 1.28819, 1.28655, 1.28436
1.62243, 1.61989, 1.61845, 1.61642, 1.61556, 1.61415, 1.6094, 1.61247, 1.60579, 1.60275, 1.60297, 1.60032, 1.59711, 1.59607, 1.59221, 1.59357, 1.59183, 1.58994, 1.5917, 1.58506, 1.58958, 1.57978, 1.5768, 1.58229, 1.58164, 1.58349, 1.57832, 1.57493, 1.55152, 1.61401, 1.65731, 1.68337, 1.77556, 1.84057, 1.92967, 1.95256, 1.85507, 1.71985, 1.6353, 1.52867, 1.57178, 1.56567, 1.5544, 1.55389, 1.5459, 1.54406, 1.56613, 1.54489, 1.5376, 1.53535, 1.53805, 1.52849, 1.52648, 1.52409, 1.53113, 1.5198, 1.51742, 1.52349, 1.51858, 1.52593, 1.51076, 1.50724, 1.50546, 1.50401, 1.50439, 1.50424, 1.50236, 1.50233, 1.50106, 1.49895, 1.49915, 1.50223, 1.49756, 1.49538, 1.49352, 1.49207, 1.48961, 1.48706, 1.48566, 1.48266, 1.48213, 1.48192, 1.48023, 1.47816, 1.47597, 1.47296, 1.4695, 1.46765, 1.46563, 1.46535, 1.46296, 1.46233, 1.46079, 1.46052, 1.45956, 1.45746, 1.45456, 1.46547, 1.45162, 1.4513, 1.45086, 1.45039, 1.45078, 1.45373, 1.45435, 1.46408, 1.4568, 1.46184, 1.45458, 1.46192, 1.48802, 1.48205, 1.49468, 1.48308, 1.4928, 1.45724, 1.45512, 1.47587, 1.46946, 1.47011, 1.48002, 1.48909, 1.46129, 1.45118, 1.43261, 1.42499, 1.43461, 1.42192, 1.43343, 1.41953, 1.41084, 1.40683, 1.40765, 1.40004, 1.40154, 1.39828, 1.40537, 1.3974, 1.39355, 1.39469, 1.3924, 1.39252, 1.39105, 1.39151, 1.39037, 1.38931, 1.3885, 1.38534, 1.38293, 1.38187, 1.37898, 1.37547, 1.37456, 1.37219, 1.37125, 1.36778, 1.36814, 1.36749, 1.36668, 1.36618, 1.36521, 1.36505, 1.36506, 1.36707, 1.36271, 1.36138, 1.36089, 1.3604, 1.35603, 1.35401, 1.35235, 1.35161, 1.35041, 1.34737, 1.34548, 1.34349, 1.34271, 1.34, 1.33926, 1.33925, 1.33924, 1.33504, 1.33258, 1.33396, 1.33301, 1.33408, 1.33512, 1.36052, 1.33633, 1.33462, 1.33329, 1.33234, 1.33091, 1.32836, 1.34294, 1.3262, 1.3245, 1.32383, 1.3297, 1.33263, 1.32665, 1.31943, 1.31603, 1.31581, 1.31361, 1.31283, 1.32042, 1.31332, 1.31983, 1.28223, 1.31888, 1.38221, 1.39911, 1.47003, 1.52093, 1.58964, 1.62757, 1.81514, 1.82067, 1.46399, 1.4297, 1.29983, 1.26583, 1.29876, 1.29874, 1.29778, 1.29306, 1.29023, 1.29034, 1.29076, 1.29138, 1.2903, 1.28971, 1.29665, 1.28723, 1.28761, 1.28291, 1.28591, 1.28186, 1.27978, 1.27894, 1.27737, 1.27738
1.6268, 1.61427, 1.61138, 1.61072, 1.60964, 1.60985, 1.60446, 1.60584, 1.60369, 1.60268, 1.59924, 1.59789, 1.6006, 1.59361, 1.59244, 1.59117, 1.58827, 1.60339, 1.58626, 1.5841, 1.58337, 1.58902, 1.57979, 1.58906, 1.5832, 1.58294, 1.5828, 1.58628, 1.57567, 1.62369, 1.61481, 1.6692, 1.72069, 1.78796, 1.98929, 2.02432, 2.02415, 1.72685, 1.63323, 1.52864, 1.57173, 1.55611, 1.56438, 1.55476, 1.54376, 1.54827, 1.54373, 1.5351, 1.55023, 1.53023, 1.5315, 1.52826, 1.52749, 1.52644, 1.52408, 1.52754, 1.51992, 1.54512, 1.51415, 1.51458, 1.51341, 1.51133, 1.50804, 1.50617, 1.50387, 1.50218, 1.50107, 1.49771, 1.49707, 1.4966, 1.49693, 1.49529, 1.49181, 1.49047, 1.4883, 1.48526, 1.48449, 1.48314, 1.48079, 1.47839, 1.47581, 1.47498, 1.47561, 1.47385, 1.47208, 1.47076, 1.46837, 1.46754, 1.46597, 1.46248, 1.46312, 1.46016, 1.45915, 1.45863, 1.45794, 1.4556, 1.45259, 1.45048, 1.45074, 1.4568, 1.45351, 1.45521, 1.46112, 1.45457, 1.44983, 1.45233, 1.44892, 1.46061, 1.45403, 1.46537, 1.46051, 1.48688, 1.47854, 1.47515, 1.47143, 1.47663, 1.45841, 1.45488, 1.46386, 1.46674, 1.46054, 1.45359, 1.44895, 1.44265, 1.43427, 1.43062, 1.44381, 1.44088, 1.43147, 1.42803, 1.42031, 1.40536, 1.40076, 1.39972, 1.39881, 1.39905, 1.39642, 1.39575, 1.39527, 1.39616, 1.39392, 1.39059, 1.3897, 1.38687, 1.38448, 1.38336, 1.38392, 1.3834, 1.38181, 1.38014, 1.37959, 1.37664, 1.37438, 1.37289, 1.37236, 1.37313, 1.37227, 1.37043, 1.36526, 1.36378, 1.36231, 1.36116, 1.36008, 1.35985, 1.35918, 1.35743, 1.35646, 1.35443, 1.35582, 1.35597, 1.35519, 1.353, 1.35271, 1.34843, 1.34814, 1.35384, 1.3436, 1.3428, 1.34275, 1.33999, 1.34117, 1.33854, 1.33599, 1.33778, 1.33608, 1.33507, 1.33515, 1.33414, 1.33327, 1.33303, 1.3341, 1.33252, 1.33199, 1.33256, 1.32914, 1.35209, 1.32708, 1.3282, 1.34761, 1.323, 1.33648, 1.32116, 1.33423, 1.32461, 1.33183, 1.33364, 1.33473, 1.32411, 1.32686, 1.30904, 1.30197, 1.35779, 1.40534, 1.44431, 1.50926, 1.56411, 1.68624, 1.69645, 1.69701, 1.61717, 1.42248, 1.34741, 1.27548, 1.29612, 1.31543, 1.30351, 1.30048, 1.29831, 1.29601, 1.2956, 1.29816, 1.30062, 1.29418, 1.28863, 1.29059, 1.28656, 1.28825, 1.28552, 1.28595, 1.28459, 1.28436, 1.28308, 1.28409
