1.61062, 1.62104, 1.60799, 1.60359, 1.60291, 1.60049, 1.60052, 1.59328, 1.59085, 1.5871, 1.59078, 1.58843, 1.59233, 1.59587, 1.59283, 1.59296, 1.57028, 1.57935, 1.59559, 1.60092, 1.60856, 1.60686, 1.61915, 1.65478, 1.65535, 1.67933, 1.7037, 1.6735, 1.66272, 1.59565, 1.54313, 1.5313, 1.55361, 1.55021, 1.5491, 1.53892, 1.53959, 1.53802, 1.55053, 1.5625, 1.56245, 1.54812, 1.53606, 1.52673, 1.52364, 1.52407, 1.51381, 1.51084, 1.52078, 1.50718, 1.50645, 1.51175, 1.50356, 1.50174, 1.50029, 1.49872, 1.49857, 1.49783, 1.49374, 1.49216, 1.49152, 1.49451, 1.48497, 1.48219, 1.4811, 1.47848, 1.47787, 1.4747, 1.47542, 1.51701, 1.49636, 1.46563, 1.46291, 1.4639, 1.4581, 1.45755, 1.45418, 1.4688, 1.45416, 1.45235, 1.45223, 1.46574, 1.45723, 1.4614, 1.45088, 1.45453, 1.41929, 1.47194, 1.53684, 1.53664, 1.70049, 1.75881, 1.77997, 1.81693, 1.65761, 1.60011, 1.43769, 1.40115, 1.41174, 1.42454, 1.42361, 1.43872, 1.4148, 1.41417, 1.42758, 1.41234, 1.41598, 1.40674, 1.41239, 1.40219, 1.40129, 1.39932, 1.39631, 1.3941, 1.39387, 1.39184, 1.39088, 1.38932, 1.39228, 1.3827, 1.38021, 1.37952, 1.37513, 1.37526, 1.37454, 1.37115, 1.37418, 1.37037, 1.36578, 1.36425, 1.36322, 1.36198, 1.36005, 1.35971, 1.35752, 1.35526, 1.35811, 1.37524, 1.35214, 1.35161, 1.3513, 1.3544, 1.36738, 1.34013, 1.34309, 1.34385, 1.34093, 1.33554, 1.33376, 1.33166, 1.33599, 1.32925, 1.33019, 1.33301, 1.34259, 1.32563, 1.32985, 1.32069, 1.32031, 1.31992, 1.3178, 1.31602, 1.31595, 1.31495, 1.31371, 1.32982, 1.32207, 1.32413, 1.33807, 1.3369, 1.32688, 1.35019, 1.3346, 1.33907, 1.38253, 1.36793, 1.35515, 1.33389, 1.3461, 1.36381, 1.37813, 1.33502, 1.33044, 1.30924, 1.31968, 1.31917, 1.30288, 1.2992, 1.29244, 1.28558, 1.282, 1.28147, 1.28136, 1.27882, 1.29188, 1.28196, 1.2774, 1.28821, 1.29923, 1.29676, 1.27773, 1.29304, 1.30509, 1.30445, 
1.6441, 1.62349, 1.60873, 1.60803, 1.60652, 1.60638, 1.60536, 1.60001, 1.59793, 1.59562, 1.59403, 1.59733, 1.59637, 1.59502, 1.59646, 1.59143, 1.57552, 1.61029, 1.61378, 1.59409, 1.62626, 1.63399, 1.65909, 1.65985, 1.67466, 1.69199, 1.68744, 1.68964, 1.63783, 1.58194, 1.55662, 1.55095, 1.55134, 1.55456, 1.55433, 1.55131, 1.53895, 1.53941, 1.53705, 1.53387, 1.54805, 1.55185, 1.54654, 1.54407, 1.52109, 1.52748, 1.5267, 1.51713, 1.51229, 1.5112, 1.51063, 1.51163, 1.51378, 1.50321, 1.50015, 1.49903, 1.49933, 1.49654, 1.49305, 1.49326, 1.49366, 1.49043, 1.48893, 1.48515, 1.48362, 1.48034, 1.4795, 1.47852, 1.47531, 1.47384, 1.47261, 1.47172, 1.46993, 1.46624, 1.46536, 1.45864, 1.46049, 1.46042, 1.45512, 1.45226, 1.45065, 1.45381, 1.44929, 1.44754, 1.44749, 1.45851, 1.44104, 1.43028, 1.49844, 1.56828, 1.61956, 1.70367, 1.71756, 1.73104, 1.64534, 1.56995, 1.53066, 1.42697, 1.41593, 1.44326, 1.42262, 1.41924, 1.41684, 1.41109, 1.41396, 1.41285, 1.40978, 1.4063, 1.40324, 1.40056, 1.39993, 1.39769, 1.39442, 1.39192, 1.38832, 1.38705, 1.38687, 1.38547, 1.38424, 1.3849, 1.38215, 1.38208, 1.37979, 1.37635, 1.37561, 1.37325, 1.37319, 1.37234, 1.37172, 1.37041, 1.36806, 1.36455, 1.36298, 1.36183, 1.36174, 1.35687, 1.35881, 1.35463, 1.35254, 1.35179, 1.35225, 1.35105, 1.35464, 1.35043, 1.34841, 1.34681, 1.34646, 1.34326, 1.34272, 1.34042, 1.33632, 1.33618, 1.33731, 1.33817, 1.33753, 1.33504, 1.33289, 1.3296, 1.32953, 1.3268, 1.33003, 1.32476, 1.32463, 1.32269, 1.33433, 1.32819, 1.33293, 1.34058, 1.32788, 1.33131, 1.34265, 1.33696, 1.35504, 1.37766, 1.37059, 1.37778, 1.37923, 1.37605, 1.35797, 1.34769, 1.35342, 1.3504, 1.31791, 1.33047, 1.33409, 1.30556, 1.31252, 1.29318, 1.29188, 1.28805, 1.28461, 1.28143, 1.2789, 1.28228, 1.27779, 1.2784, 1.27835, 1.27755, 1.27719, 1.27525, 1.27531, 1.27712, 1.30155, 1.33019, 
1.67193, 1.6444, 1.64265, 1.61664, 1.61534, 1.61711, 1.60651, 1.60659, 1.60733, 1.60365, 1.60267, 1.60285, 1.60324, 1.60269, 1.61412, 1.59666, 1.58735, 1.60677, 1.63728, 1.62585, 1.63265, 1.69389, 1.68275, 1.68462, 1.7141, 1.70987, 1.76925, 1.6539, 1.6317, 1.5986, 1.56073, 1.56531, 1.56972, 1.55805, 1.55773, 1.54889, 1.55896, 1.54692, 1.54139, 1.53887, 1.53941, 1.54833, 1.53795, 1.55249, 1.53374, 1.5267, 1.52445, 1.52985, 1.52759, 1.52688, 1.52315, 1.51373, 1.51957, 1.50969, 1.50941, 1.50916, 1.50518, 1.50148, 1.49997, 1.49882, 1.49559, 1.49563, 1.49162, 1.49219, 1.49497, 1.48939, 1.51776, 1.48582, 1.48538, 1.48151, 1.48146, 1.48045, 1.47506, 1.47315, 1.47, 1.46622, 1.46486, 1.46227, 1.46273, 1.46106, 1.46154, 1.461, 1.45992, 1.47863, 1.46018, 1.4508, 1.42339, 1.45398, 1.4921, 1.54125, 1.61695, 1.66891, 1.6892, 1.70023, 1.68338, 1.62717, 1.53087, 1.4302, 1.40876, 1.43746, 1.43605, 1.4418, 1.43337, 1.42012, 1.41989, 1.41585, 1.41347, 1.41231, 1.41172, 1.40804, 1.40697, 1.40648, 1.40119, 1.39929, 1.39906, 1.39541, 1.39513, 1.39511, 1.3989, 1.39485, 1.39486, 1.3892, 1.38915, 1.38513, 1.38406, 1.3819, 1.38079, 1.37867, 1.37734, 1.37659, 1.3751, 1.37332, 1.37156, 1.37223, 1.3705, 1.3677, 1.36742, 1.36379, 1.35977, 1.36016, 1.35767, 1.35506, 1.35329, 1.35381, 1.35116, 1.3541, 1.34981, 1.34906, 1.34679, 1.34684, 1.34674, 1.3482, 1.34719, 1.34714, 1.36092, 1.34571, 1.35458, 1.34311, 1.33976, 1.33563, 1.33463, 1.33598, 1.33471, 1.33368, 1.34352, 1.33736, 1.34395, 1.35766, 1.34049, 1.33545, 1.33117, 1.34513, 1.34666, 1.35044, 1.35675, 1.3462, 1.38218, 1.37574, 1.37214, 1.38001, 1.40499, 1.34993, 1.33556, 1.31542, 1.31778, 1.30951, 1.30894, 1.30596, 1.31339, 1.29563, 1.30501, 1.29355, 1.28744, 1.28768, 1.28532, 1.3022, 1.28664, 1.28444, 1.28118, 1.28833, 1.28323, 1.28465, 1.29141, 1.30453, 
1.66532, 1.67133, 1.66893, 1.62861, 1.6331, 1.63321, 1.62881, 1.61622, 1.62119, 1.61654, 1.61687, 1.62264, 1.6098, 1.62034, 1.62001, 1.61709, 1.59609, 1.62323, 1.62768, 1.63273, 1.66161, 1.6565, 1.66923, 1.67038, 1.69985, 1.69506, 1.68214, 1.65163, 1.61325, 1.60402, 1.54656, 1.5569, 1.56407, 1.56401, 1.58376, 1.55588, 1.5685, 1.55049, 1.5461, 1.54338, 1.54173, 1.554, 1.54153, 1.56605, 1.55887, 1.55781, 1.55088, 1.54862, 1.52684, 1.52304, 1.52972, 1.51975, 1.52213, 1.51815, 1.54556, 1.51137, 1.51075, 1.509, 1.50798, 1.50556, 1.50419, 1.50251, 1.50061, 1.49913, 1.49598, 1.49348, 1.4911, 1.48891, 1.48806, 1.48761, 1.48485, 1.48203, 1.48248, 1.48339, 1.50216, 1.49421, 1.47644, 1.47543, 1.47515, 1.47411, 1.47218, 1.47204, 1.46775, 1.46866, 1.47711, 1.46441, 1.44063, 1.48024, 1.51578, 1.53808, 1.61967, 1.69657, 1.7371, 1.743, 1.71477, 1.63651, 1.54914, 1.4544, 1.44076, 1.44563, 1.44744, 1.44504, 1.44048, 1.4515, 1.43456, 1.44352, 1.42595, 1.42749, 1.42913, 1.41946, 1.43358, 1.41413, 1.41342, 1.41039, 1.41013, 1.40882, 1.40617, 1.40455, 1.40383, 1.40325, 1.40009, 1.39595, 1.39528, 1.39218, 1.38846, 1.38883, 1.38912, 1.38865, 1.38778, 1.38596, 1.38435, 1.38341, 1.38487, 1.38091, 1.37978, 1.37805, 1.37676, 1.37844, 1.3696, 1.36815, 1.3667, 1.36325, 1.36159, 1.35862, 1.35505, 1.35296, 1.35763, 1.35159, 1.34928, 1.35107, 1.349, 1.35267, 1.3534, 1.35346, 1.35292, 1.3526, 1.35343, 1.34951, 1.34805, 1.34729, 1.3464, 1.34456, 1.34323, 1.34213, 1.34153, 1.34159, 1.34337, 1.34838, 1.34366, 1.33941, 1.33811, 1.36074, 1.3699, 1.3654, 1.3631, 1.40923, 1.38552, 1.37619, 1.37813, 1.38431, 1.37875, 1.37249, 1.33693, 1.31239, 1.32982, 1.33031, 1.33337, 1.31115, 1.31382, 1.3041, 1.3038, 1.29914, 1.30773, 1.29645, 1.29631, 1.29684, 1.29911, 1.29912, 1.30574, 1.29539, 1.29499, 1.28947, 1.29535, 1.31873, 
1.64646, 1.64719, 1.64408, 1.63494, 1.63098, 1.63408, 1.6202, 1.62133, 1.61682, 1.61542, 1.61218, 1.61029, 1.61069, 1.62346, 1.62303, 1.60898, 1.60761, 1.60971, 1.63782, 1.64317, 1.66154, 1.69405, 1.67163, 1.67186, 1.78263, 1.71814, 1.7377, 1.69075, 1.67108, 1.62849, 1.57166, 1.5613, 1.58869, 1.57861, 1.57597, 1.57335, 1.56379, 1.55583, 1.55258, 1.55069, 1.54776, 1.54691, 1.54498, 1.54119, 1.56073, 1.5585, 1.54968, 1.56073, 1.53341, 1.53418, 1.53136, 1.53159, 1.53, 1.52663, 1.52432, 1.5192, 1.51744, 1.51603, 1.51483, 1.51624, 1.51022, 1.50964, 1.50624, 1.50532, 1.50162, 1.50025, 1.49937, 1.49665, 1.49405, 1.49181, 1.4918, 1.49206, 1.49236, 1.49155, 1.48989, 1.48828, 1.48427, 1.4852, 1.47961, 1.49652, 1.47268, 1.47579, 1.48366, 1.4743, 1.46725, 1.46143, 1.45263, 1.46223, 1.51636, 1.56577, 1.6177, 1.66621, 1.70626, 1.6977, 1.68303, 1.62406, 1.57908, 1.48667, 1.44461, 1.44327, 1.44787, 1.47938, 1.45434, 1.45095, 1.43374, 1.43044, 1.42866, 1.42688, 1.42721, 1.42464, 1.42265, 1.41884, 1.41774, 1.42097, 1.41219, 1.41415, 1.41184, 1.40995, 1.42016, 1.40326, 1.40586, 1.40511, 1.40317, 1.39991, 1.39759, 1.39721, 1.39423, 1.39261, 1.39401, 1.39127, 1.39117, 1.39049, 1.39006, 1.38989, 1.38844, 1.38648, 1.38374, 1.38041, 1.378, 1.37322, 1.37024, 1.36875, 1.36474, 1.36349, 1.36082, 1.35812, 1.35839, 1.35388, 1.35555, 1.35246, 1.35187, 1.3505, 1.3501, 1.34929, 1.34949, 1.34998, 1.34461, 1.34414, 1.34389, 1.34305, 1.3417, 1.34352, 1.34712, 1.3432, 1.34298, 1.34404, 1.34514, 1.35043, 1.35054, 1.36901, 1.37137, 1.37793, 1.3716, 1.36838, 1.37527, 1.40712, 1.4091, 1.38627, 1.39159, 1.41028, 1.41499, 1.36256, 1.35457, 1.31864, 1.32751, 1.31823, 1.32371, 1.32718, 1.31573, 1.3125, 1.30929, 1.31118, 1.31592, 1.30478, 1.30308, 1.3064, 1.2981, 1.30629, 1.29858, 1.30863, 1.29887, 1.30274, 1.30143, 1.30223, 
1.63676, 1.64992, 1.64808, 1.65149, 1.65133, 1.64887, 1.63744, 1.62741, 1.62881, 1.62744, 1.63113, 1.61577, 1.62671, 1.61579, 1.62344, 1.61609, 1.59415, 1.60974, 1.63285, 1.67262, 1.66285, 1.67663, 1.68403, 1.72091, 1.74416, 1.74954, 1.76337, 1.71403, 1.67307, 1.64702, 1.57034, 1.58933, 1.57636, 1.58213, 1.5757, 1.56723, 1.56782, 1.57239, 1.55453, 1.5549, 1.55047, 1.55924, 1.54709, 1.5405, 1.54146, 1.5579, 1.55753, 1.54848, 1.54607, 1.53787, 1.53978, 1.53777, 1.53382, 1.53751, 1.52743, 1.53757, 1.52291, 1.52091, 1.52001, 1.51902, 1.51639, 1.51367, 1.51175, 1.50921, 1.50404, 1.50203, 1.50122, 1.49881, 1.49599, 1.4948, 1.49414, 1.48901, 1.48829, 1.48823, 1.48642, 1.50769, 1.48708, 1.48426, 1.49373, 1.48266, 1.47656, 1.4759, 1.47786, 1.47403, 1.47339, 1.47177, 1.45871, 1.4816, 1.52561, 1.5478, 1.57602, 1.68315, 1.70872, 1.70978, 1.62116, 1.69351, 1.5518, 1.49187, 1.43853, 1.4227, 1.45324, 1.44734, 1.44715, 1.43627, 1.43526, 1.43376, 1.44391, 1.43208, 1.42664, 1.42345, 1.42238, 1.42036, 1.41936, 1.41895, 1.41913, 1.41736, 1.41523, 1.4142, 1.41227, 1.41201, 1.4117, 1.40894, 1.40851, 1.40527, 1.40258, 1.40201, 1.39663, 1.39419, 1.39155, 1.39232, 1.39227, 1.3924, 1.39188, 1.39229, 1.39202, 1.39426, 1.39198, 1.3897, 1.38796, 1.38514, 1.38875, 1.37979, 1.37787, 1.37817, 1.37097, 1.37048, 1.36856, 1.36437, 1.36212, 1.36219, 1.36083, 1.35904, 1.36044, 1.35576, 1.35649, 1.35726, 1.35473, 1.35545, 1.3526, 1.35213, 1.34825, 1.34563, 1.34598, 1.34288, 1.33997, 1.34314, 1.34309, 1.34527, 1.36451, 1.34393, 1.34202, 1.35052, 1.35508, 1.37098, 1.38494, 1.37785, 1.41628, 1.39537, 1.41322, 1.40335, 1.38879, 1.37586, 1.36445, 1.33711, 1.3071, 1.32498, 1.33133, 1.32313, 1.32743, 1.31227, 1.31592, 1.31555, 1.31277, 1.3075, 1.30286, 1.30274, 1.30175, 1.30252, 1.29822, 1.29815, 1.29826, 1.29438, 1.29551, 1.29715, 
1.65124, 1.64822, 1.64799, 1.65178, 1.65159, 1.64056, 1.66069, 1.65063, 1.63775, 1.63012, 1.62486, 1.63188, 1.62221, 1.62669, 1.62353, 1.61276, 1.60623, 1.60734, 1.62718, 1.66589, 1.67464, 1.69885, 1.70773, 1.74046, 1.76656, 1.76743, 1.74636, 1.72831, 1.70957, 1.63564, 1.56885, 1.56137, 1.57672, 1.59848, 1.57655, 1.58279, 1.56788, 1.56625, 1.56099, 1.55944, 1.56057, 1.55138, 1.55501, 1.56463, 1.55558, 1.54797, 1.54042, 1.55087, 1.54358, 1.54393, 1.54067, 1.53509, 1.54502, 1.53346, 1.53045, 1.52885, 1.52793, 1.53084, 1.52504, 1.52292, 1.52064, 1.5237, 1.5164, 1.51242, 1.51116, 1.50744, 1.50735, 1.50441, 1.50386, 1.50187, 1.501, 1.49829, 1.49561, 1.49511, 1.4918, 1.49841, 1.50899, 1.49993, 1.48451, 1.48036, 1.48051, 1.47579, 1.47688, 1.4893, 1.47861, 1.47449, 1.45294, 1.48331, 1.51502, 1.60295, 1.64134, 1.66941, 1.68246, 1.68843, 1.68123, 1.59751, 1.37901, 1.50792, 1.43458, 1.41611, 1.44738, 1.44526, 1.44745, 1.44754, 1.44753, 1.43389, 1.42932, 1.42862, 1.44812, 1.42385, 1.42133, 1.42038, 1.41805, 1.41729, 1.41644, 1.41382, 1.41238, 1.41281, 1.41203, 1.41099, 1.40831, 1.40661, 1.40657, 1.40633, 1.40303, 1.39814, 1.40001, 1.39907, 1.39437, 1.39145, 1.39238, 1.39234, 1.39213, 1.38985, 1.39956, 1.38919, 1.38845, 1.38778, 1.38891, 1.38664, 1.38531, 1.38313, 1.38109, 1.38078, 1.38021, 1.38044, 1.37387, 1.36817, 1.36897, 1.36745, 1.36493, 1.36771, 1.36699, 1.36583, 1.36583, 1.36531, 1.36551, 1.3645, 1.36249, 1.36054, 1.35777, 1.35561, 1.36244, 1.35104, 1.34729, 1.34509, 1.34655, 1.34699, 1.35322, 1.35971, 1.33501, 1.35986, 1.39991, 1.38179, 1.38506, 1.39322, 1.39398, 1.40117, 1.43062, 1.42043, 1.41069, 1.40927, 1.34732, 1.3192, 1.30933, 1.33513, 1.33693, 1.3277, 1.31951, 1.32016, 1.31486, 1.31874, 1.31253, 1.30967, 1.3082, 1.30926, 1.3057, 1.30526, 1.30593, 1.31226, 1.30009, 1.30112, 1.30488, 1.29525, 
1.64863, 1.64848, 1.64422, 1.64738, 1.64073, 1.64456, 1.64858, 1.64416, 1.65506, 1.63911, 1.63782, 1.62789, 1.62112, 1.62321, 1.62773, 1.62248, 1.6199, 1.60123, 1.60377, 1.63735, 1.68292, 1.67323, 1.69903, 1.72665, 1.71635, 1.73058, 1.73913, 1.72432, 1.67507, 1.65541, 1.61152, 1.59746, 1.59113, 1.58479, 1.58926, 1.57629, 1.57662, 1.57347, 1.57123, 1.56781, 1.56601, 1.56227, 1.56483, 1.55593, 1.55442, 1.55071, 1.5548, 1.54827, 1.55495, 1.55693, 1.5553, 1.55742, 1.54028, 1.5354, 1.53137, 1.52988, 1.52749, 1.52629, 1.52267, 1.52314, 1.52283, 1.52063, 1.52025, 1.51731, 1.51348, 1.51378, 1.51194, 1.50936, 1.50644, 1.50477, 1.50173, 1.50057, 1.49884, 1.49843, 1.50052, 1.49055, 1.49165, 1.49566, 1.48788, 1.48308, 1.48252, 1.48271, 1.48139, 1.48236, 1.48843, 1.47876, 1.464, 1.47155, 1.51849, 1.5483, 1.60843, 1.63999, 1.67056, 1.69221, 1.67919, 1.65076, 1.54833, 1.53232, 1.45046, 1.41798, 1.41911, 1.44616, 1.44725, 1.44162, 1.43501, 1.43261, 1.43005, 1.43289, 1.43079, 1.42977, 1.4295, 1.42611, 1.42382, 1.42332, 1.41974, 1.41688, 1.41716, 1.4167, 1.41619, 1.41657, 1.41275, 1.41213, 1.41436, 1.40706, 1.4054, 1.40356, 1.40358, 1.40173, 1.40047, 1.39719, 1.39603, 1.39327, 1.39298, 1.39493, 1.3933, 1.38985, 1.39071, 1.38911, 1.38745, 1.38711, 1.38566, 1.38439, 1.38308, 1.38499, 1.37829, 1.37776, 1.37493, 1.37476, 1.37089, 1.37029, 1.36781, 1.36623, 1.3676, 1.36593, 1.36476, 1.36228, 1.3645, 1.36673, 1.3616, 1.35976, 1.35947, 1.35884, 1.35964, 1.35881, 1.35727, 1.35411, 1.36152, 1.36796, 1.3593, 1.36094, 1.3373, 1.36797, 1.36756, 1.3849, 1.40726, 1.41104, 1.42776, 1.4344, 1.44326, 1.44506, 1.44288, 1.42948, 1.46573, 1.36863, 1.30913, 1.32929, 1.34469, 1.34395, 1.335, 1.33012, 1.31332, 1.31553, 1.31052, 1.30884, 1.30892, 1.30524, 1.30417, 1.30491, 1.31231, 1.30667, 1.30273, 1.32339, 1.30151, 1.29958, 
1.65078, 1.64814, 1.64561, 1.64412, 1.64244, 1.64077, 1.64531, 1.65545, 1.66853, 1.68581, 1.65507, 1.65472, 1.64138, 1.64073, 1.64259, 1.63232, 1.62409, 1.61327, 1.63387, 1.70579, 1.69595, 1.70685, 1.72905, 1.74759, 1.78577, 1.78282, 1.76599, 1.739, 1.73801, 1.71795, 1.62317, 1.57443, 1.58043, 1.59273, 1.60637, 1.60382, 1.57922, 1.58599, 1.57517, 1.58263, 1.57136, 1.56725, 1.57232, 1.56572, 1.56261, 1.56849, 1.55756, 1.56074, 1.56207, 1.56814, 1.56547, 1.57253, 1.55807, 1.54465, 1.54108, 1.53785, 1.53549, 1.53909, 1.52835, 1.52606, 1.52447, 1.52348, 1.52072, 1.51819, 1.51739, 1.51415, 1.51434, 1.51204, 1.51129, 1.50593, 1.50551, 1.50283, 1.50162, 1.49945, 1.50587, 1.49592, 1.49545, 1.49348, 1.49144, 1.50082, 1.48902, 1.49095, 1.48649, 1.4907, 1.49161, 1.48786, 1.46833, 1.44146, 1.49398, 1.58555, 1.63274, 1.64847, 1.7021, 1.68338, 1.68236, 1.67541, 1.64476, 1.59236, 1.45912, 1.42353, 1.45032, 1.47426, 1.45858, 1.46003, 1.46725, 1.45441, 1.44392, 1.44122, 1.43961, 1.43708, 1.44773, 1.43319, 1.43137, 1.42924, 1.42975, 1.42441, 1.42251, 1.42213, 1.42123, 1.42302, 1.42015, 1.41935, 1.41786, 1.41691, 1.41484, 1.42041, 1.4099, 1.41122, 1.40873, 1.40918, 1.40566, 1.40408, 1.41272, 1.40255, 1.40058, 1.40351, 1.39836, 1.39674, 1.39567, 1.39332, 1.39176, 1.38949, 1.38741, 1.38733, 1.38474, 1.38291, 1.37919, 1.3777, 1.37673, 1.37642, 1.37465, 1.37354, 1.37189, 1.37074, 1.3669, 1.36644, 1.36618, 1.36432, 1.37112, 1.36716, 1.36408, 1.36256, 1.36285, 1.3607, 1.35924, 1.36224, 1.35904, 1.36025, 1.35669, 1.37154, 1.3388, 1.35969, 1.36717, 1.39152, 1.40514, 1.41523, 1.42672, 1.43416, 1.43306, 1.43975, 1.43955, 1.4216, 1.4162, 1.36461, 1.35429, 1.32004, 1.33836, 1.33381, 1.34407, 1.32659, 1.32411, 1.32286, 1.32058, 1.3192, 1.31825, 1.31319, 1.31448, 1.31285, 1.31309, 1.30975, 1.3092, 1.31035, 1.31043, 1.3162, 
1.66066, 1.65798, 1.66062, 1.65493, 1.66129, 1.66062, 1.65807, 1.65043, 1.6469, 1.65928, 1.68235, 1.64954, 1.64855, 1.63813, 1.6466, 1.63554, 1.6308, 1.6047, 1.63813, 1.6508, 1.68482, 1.65923, 1.72759, 1.73228, 1.76217, 1.78996, 1.76586, 1.75096, 1.74136, 1.67478, 1.61972, 1.5713, 1.59256, 1.60659, 1.60333, 1.5855, 1.57962, 1.5766, 1.57409, 1.56968, 1.57434, 1.57027, 1.56634, 1.56639, 1.56272, 1.5614, 1.56196, 1.56073, 1.5594, 1.56198, 1.5423, 1.5851, 1.57777, 1.55786, 1.55486, 1.56236, 1.53976, 1.5361, 1.53196, 1.53115, 1.53178, 1.52793, 1.52641, 1.5238, 1.52265, 1.52143, 1.51991, 1.51941, 1.5168, 1.51456, 1.5115, 1.5099, 1.50732, 1.50566, 1.50302, 1.50571, 1.5078, 1.49867, 1.49826, 1.49565, 1.49307, 1.4951, 1.50277, 1.50467, 1.49273, 1.48986, 1.4741, 1.46856, 1.52637, 1.5561, 1.60371, 1.62937, 1.65602, 1.66016, 1.66807, 1.64731, 1.62487, 1.57396, 1.51655, 1.43342, 1.45186, 1.47328, 1.46737, 1.46547, 1.47562, 1.45636, 1.45236, 1.45076, 1.44635, 1.44608, 1.4452, 1.44342, 1.43403, 1.43338, 1.43884, 1.42965, 1.42668, 1.42778, 1.42558, 1.42293, 1.42172, 1.42121, 1.42086, 1.42055, 1.41964, 1.42257, 1.41524, 1.41306, 1.42002, 1.4135, 1.41294, 1.41011, 1.40976, 1.40914, 1.40688, 1.40435, 1.40237, 1.40074, 1.39906, 1.39541, 1.39108, 1.38945, 1.38689, 1.3856, 1.38463, 1.38756, 1.38089, 1.37894, 1.37658, 1.37368, 1.37247, 1.3688, 1.369, 1.36786, 1.3647, 1.36389, 1.36332, 1.36067, 1.36001, 1.35993, 1.35828, 1.3593, 1.36761, 1.35912, 1.3594, 1.36755, 1.36238, 1.36761, 1.36487, 1.36585, 1.34395, 1.3652, 1.4, 1.42048, 1.44993, 1.47027, 1.43463, 1.44685, 1.45477, 1.45075, 1.4574, 1.41646, 1.40358, 1.38598, 1.38205, 1.30883, 1.33383, 1.33567, 1.3478, 1.32585, 1.32296, 1.32092, 1.33387, 1.3192, 1.32095, 1.31745, 1.31451, 1.31658, 1.31782, 1.31215, 1.31415, 1.32371, 1.3216, 1.31921, 
1.66274, 1.66021, 1.65714, 1.65449, 1.65303, 1.65244, 1.65024, 1.64758, 1.64645, 1.66928, 1.66523, 1.67044, 1.67163, 1.64672, 1.63846, 1.64802, 1.6242, 1.62007, 1.61728, 1.64638, 1.68523, 1.70046, 1.76992, 1.76351, 1.82895, 1.81212, 1.8068, 1.82786, 1.77665, 1.73442, 1.63513, 1.5742, 1.602, 1.5997, 1.59489, 1.59725, 1.59467, 1.58662, 1.58798, 1.57446, 1.57321, 1.57261, 1.5707, 1.57007, 1.56771, 1.56737, 1.56522, 1.56174, 1.55896, 1.55815, 1.59515, 1.59489, 1.59238, 1.58246, 1.56633, 1.55166, 1.54361, 1.54136, 1.5378, 1.53757, 1.53517, 1.53338, 1.53171, 1.53086, 1.5298, 1.52574, 1.52488, 1.52378, 1.51965, 1.51842, 1.51784, 1.51555, 1.51264, 1.51257, 1.50956, 1.50916, 1.51228, 1.5041, 1.52033, 1.49972, 1.51615, 1.49812, 1.49547, 1.4969, 1.49908, 1.49548, 1.47231, 1.49283, 1.48985, 1.54595, 1.58141, 1.61773, 1.61278, 1.67588, 1.67654, 1.64074, 1.61312, 1.55852, 1.51175, 1.44847, 1.46012, 1.47399, 1.46731, 1.48544, 1.46426, 1.46741, 1.46063, 1.45893, 1.45562, 1.45395, 1.45208, 1.44882, 1.44664, 1.44319, 1.44087, 1.43932, 1.43415, 1.43124, 1.43168, 1.42889, 1.42952, 1.43027, 1.42584, 1.42621, 1.42487, 1.42181, 1.41884, 1.41779, 1.41583, 1.41412, 1.41317, 1.41474, 1.41227, 1.41118, 1.4084, 1.40813, 1.40537, 1.40267, 1.39978, 1.39888, 1.39802, 1.39686, 1.39446, 1.39251, 1.39056, 1.38831, 1.38661, 1.38327, 1.38079, 1.37831, 1.37739, 1.37532, 1.3755, 1.37558, 1.37474, 1.37268, 1.37348, 1.36916, 1.36844, 1.36908, 1.36709, 1.36608, 1.36741, 1.36742, 1.36576, 1.3711, 1.372, 1.37516, 1.37325, 1.37088, 1.35716, 1.39787, 1.42438, 1.41023, 1.46419, 1.45502, 1.45012, 1.45426, 1.46062, 1.46587, 1.45697, 1.46176, 1.43242, 1.42658, 1.35226, 1.33056, 1.32242, 1.32943, 1.33194, 1.3394, 1.3273, 1.32598, 1.32432, 1.32372, 1.33019, 1.31972, 1.31995, 1.32795, 1.31968, 1.32008, 1.31882, 1.328, 1.31747, 1.32039, 
1.6646, 1.66061, 1.65757, 1.654, 1.65257, 1.65766, 1.64909, 1.67211, 1.64513, 1.64497, 1.65577, 1.66969, 1.66209, 1.66519, 1.64214, 1.64277, 1.64397, 1.60959, 1.6443, 1.66469, 1.69669, 1.7727, 1.75464, 1.78296, 1.78188, 1.78583, 1.79026, 1.76896, 1.74829, 1.67628, 1.624, 1.58383, 1.58939, 1.60314, 1.59642, 1.60159, 1.60246, 1.58711, 1.58496, 1.58515, 1.57877, 1.57679, 1.57469, 1.57276, 1.57169, 1.5691, 1.56838, 1.56409, 1.56307, 1.56285, 1.56053, 1.55957, 1.55813, 1.56596, 1.56602, 1.5661, 1.56563, 1.5438, 1.54185, 1.5394, 1.538, 1.53687, 1.53547, 1.53315, 1.53357, 1.52391, 1.53106, 1.52698, 1.52574, 1.52185, 1.51837, 1.51427, 1.513, 1.51247, 1.51154, 1.51008, 1.50791, 1.50544, 1.50283, 1.50118, 1.4993, 1.50213, 1.49894, 1.50842, 1.49995, 1.50065, 1.49452, 1.49264, 1.49574, 1.56747, 1.58547, 1.63226, 1.66827, 1.67743, 1.68173, 1.68248, 1.6312, 1.5722, 1.53207, 1.47244, 1.4403, 1.46176, 1.48271, 1.47073, 1.46161, 1.45825, 1.45964, 1.4586, 1.46041, 1.44576, 1.44722, 1.44788, 1.44552, 1.44102, 1.44153, 1.44001, 1.43805, 1.43645, 1.43655, 1.43442, 1.43433, 1.43352, 1.43263, 1.4308, 1.42935, 1.42693, 1.42648, 1.42324, 1.42237, 1.42264, 1.42113, 1.41898, 1.41608, 1.41595, 1.43166, 1.41246, 1.41018, 1.40838, 1.40786, 1.40582, 1.40512, 1.40196, 1.39898, 1.39845, 1.39955, 1.42472, 1.39216, 1.38924, 1.38771, 1.38538, 1.38352, 1.38268, 1.38133, 1.37849, 1.37938, 1.38021, 1.37803, 1.37589, 1.3805, 1.37284, 1.3717, 1.37187, 1.37195, 1.37122, 1.37425, 1.37313, 1.37163, 1.39119, 1.39138, 1.39179, 1.36116, 1.37188, 1.41061, 1.42815, 1.43578, 1.46482, 1.45958, 1.48247, 1.47098, 1.47733, 1.47726, 1.47674, 1.44682, 1.44358, 1.34768, 1.32966, 1.32599, 1.34132, 1.34192, 1.34654, 1.33002, 1.32749, 1.32981, 1.33046, 1.32983, 1.33081, 1.33024, 1.32835, 1.32624, 1.32602, 1.32589, 1.32525, 1.32232, 1.31998, 
1.66587, 1.66354, 1.65988, 1.65723, 1.66326, 1.65114, 1.64857, 1.64971, 1.64423, 1.64147, 1.65596, 1.6478, 1.65084, 1.67169, 1.65125, 1.64977, 1.6303, 1.62672, 1.62764, 1.65762, 1.71358, 1.71422, 1.72803, 1.75809, 1.78556, 1.82692, 1.82313, 1.79002, 1.73789, 1.70944, 1.63148, 1.57935, 1.60964, 1.60612, 1.59529, 1.59591, 1.58613, 1.57527, 1.58921, 1.57695, 1.57558, 1.59025, 1.57739, 1.57016, 1.57523, 1.57222, 1.56409, 1.56238, 1.56132, 1.55948, 1.55817, 1.56582, 1.55382, 1.55875, 1.569, 1.55634, 1.55903, 1.56403, 1.5622, 1.55446, 1.55111, 1.54491, 1.53012, 1.53887, 1.52962, 1.53024, 1.52606, 1.52342, 1.52114, 1.51705, 1.51641, 1.5169, 1.51025, 1.50653, 1.50207, 1.50182, 1.51118, 1.49553, 1.49533, 1.50743, 1.49314, 1.49111, 1.5025, 1.48946, 1.49652, 1.49258, 1.47519, 1.47501, 1.50728, 1.54122, 1.57198, 1.63077, 1.67888, 1.68147, 1.68663, 1.62047, 1.61757, 1.58978, 1.50903, 1.48333, 1.44644, 1.46496, 1.4649, 1.46474, 1.46899, 1.4587, 1.45287, 1.46545, 1.44822, 1.44112, 1.45012, 1.43747, 1.44089, 1.43419, 1.4359, 1.43184, 1.43244, 1.43067, 1.44299, 1.42809, 1.42644, 1.42763, 1.45673, 1.42112, 1.42046, 1.41909, 1.41954, 1.43003, 1.4185, 1.41785, 1.41602, 1.41654, 1.41571, 1.41347, 1.41144, 1.40978, 1.40891, 1.40782, 1.41268, 1.40737, 1.40479, 1.40903, 1.40538, 1.40972, 1.39961, 1.39993, 1.39699, 1.39545, 1.39496, 1.3906, 1.38804, 1.38802, 1.38494, 1.38457, 1.39425, 1.37902, 1.37793, 1.37595, 1.37722, 1.37453, 1.37411, 1.37221, 1.38248, 1.37992, 1.36919, 1.37683, 1.36616, 1.37202, 1.37777, 1.37888, 1.3568, 1.36983, 1.38255, 1.38324, 1.44324, 1.44262, 1.45257, 1.51176, 1.4814, 1.48135, 1.48218, 1.47223, 1.44313, 1.43759, 1.38614, 1.33426, 1.35077, 1.35052, 1.35939, 1.34403, 1.34365, 1.34838, 1.34446, 1.33359, 1.35176, 1.33034, 1.33076, 1.3291, 1.32462, 1.34763, 1.32056, 1.32016, 1.32217, 1.31714, 
1.67361, 1.67633, 1.6694, 1.66809, 1.66665, 1.66284, 1.6603, 1.65989, 1.65817, 1.65846, 1.65474, 1.66516, 1.65392, 1.65502, 1.67586, 1.65365, 1.6518, 1.62372, 1.62467, 1.61751, 1.62483, 1.69057, 1.7347, 1.78141, 1.81053, 1.81861, 1.84127, 1.81378, 1.81353, 1.71126, 1.63756, 1.59322, 1.60382, 1.60387, 1.59978, 1.59351, 1.59256, 1.59214, 1.59934, 1.59884, 1.57893, 1.58474, 1.58019, 1.57718, 1.57448, 1.57222, 1.57331, 1.57372, 1.57173, 1.57161, 1.56445, 1.5595, 1.5602, 1.55136, 1.54806, 1.55806, 1.54823, 1.55185, 1.56808, 1.55342, 1.55807, 1.54116, 1.54048, 1.54658, 1.53794, 1.53509, 1.53327, 1.53218, 1.52987, 1.52697, 1.52279, 1.51808, 1.51108, 1.50722, 1.50727, 1.55877, 1.50531, 1.50135, 1.50379, 1.5066, 1.49196, 1.51658, 1.49648, 1.49951, 1.51021, 1.5142, 1.50576, 1.49546, 1.5079, 1.53657, 1.63081, 1.60408, 1.64425, 1.65343, 1.65444, 1.66899, 1.62401, 1.59717, 1.54819, 1.46354, 1.44807, 1.46093, 1.462, 1.46838, 1.48589, 1.47798, 1.45483, 1.45394, 1.45169, 1.46441, 1.44582, 1.44405, 1.44333, 1.44306, 1.44015, 1.43778, 1.4366, 1.4356, 1.43287, 1.43116, 1.42971, 1.42596, 1.42564, 1.42178, 1.42182, 1.42172, 1.42342, 1.42388, 1.42516, 1.42443, 1.42123, 1.4173, 1.41583, 1.4132, 1.41364, 1.411, 1.41002, 1.41052, 1.40992, 1.40754, 1.40388, 1.40327, 1.40288, 1.3962, 1.39386, 1.39268, 1.39159, 1.39224, 1.38958, 1.39203, 1.39037, 1.38985, 1.38603, 1.38142, 1.37917, 1.3798, 1.37971, 1.3816, 1.37462, 1.37384, 1.39194, 1.37146, 1.3709, 1.37066, 1.37009, 1.38756, 1.36698, 1.36846, 1.38154, 1.38215, 1.36825, 1.34182, 1.40279, 1.43524, 1.44106, 1.4414, 1.48862, 1.4907, 1.50548, 1.50753, 1.50259, 1.4948, 1.4926, 1.47155, 1.41392, 1.34448, 1.34485, 1.3681, 1.35364, 1.35412, 1.34677, 1.33962, 1.34604, 1.33416, 1.3325, 1.3337, 1.33283, 1.33039, 1.33011, 1.32611, 1.32361, 1.32483, 1.3225, 1.31942, 
1.67737, 1.66131, 1.65613, 1.65123, 1.65248, 1.67016, 1.64842, 1.6496, 1.65129, 1.67152, 1.65693, 1.65465, 1.64716, 1.64244, 1.64501, 1.64228, 1.64343, 1.64874, 1.60585, 1.63911, 1.69027, 1.71012, 1.72107, 1.84541, 1.82399, 1.85382, 1.84276, 1.85187, 1.79587, 1.7145, 1.65603, 1.57792, 1.60216, 1.61035, 1.60606, 1.59577, 1.59175, 1.59043, 1.59162, 1.58959, 1.57395, 1.56583, 1.56598, 1.55983, 1.57819, 1.56991, 1.57107, 1.57034, 1.56522, 1.56019, 1.55126, 1.54948, 1.55083, 1.5542, 1.55613, 1.55418, 1.55411, 1.56261, 1.5598, 1.56633, 1.56434, 1.564, 1.54483, 1.54047, 1.53308, 1.52739, 1.52817, 1.5291, 1.52778, 1.5262, 1.52609, 1.52345, 1.52064, 1.51655, 1.50943, 1.5088, 1.50837, 1.52071, 1.51009, 1.51585, 1.50419, 1.50916, 1.50655, 1.50859, 1.52341, 1.51055, 1.50028, 1.47152, 1.48674, 1.54857, 1.55776, 1.59325, 1.64251, 1.64754, 1.65843, 1.66903, 1.63838, 1.60305, 1.56854, 1.50032, 1.46443, 1.45181, 1.44853, 1.46548, 1.4701, 1.48548, 1.4726, 1.46228, 1.46071, 1.46555, 1.45176, 1.47011, 1.45463, 1.4539, 1.45312, 1.45857, 1.4493, 1.4485, 1.44348, 1.4381, 1.43493, 1.42711, 1.42821, 1.42292, 1.4233, 1.42774, 1.43082, 1.43253, 1.4305, 1.42563, 1.42004, 1.41671, 1.41311, 1.40987, 1.40952, 1.41062, 1.4113, 1.4116, 1.41246, 1.40872, 1.4057, 1.40413, 1.40182, 1.40226, 1.43201, 1.40021, 1.39712, 1.39191, 1.38902, 1.38978, 1.38973, 1.38762, 1.38708, 1.38559, 1.38499, 1.41645, 1.37968, 1.37731, 1.37814, 1.3728, 1.37181, 1.37082, 1.38814, 1.37212, 1.39591, 1.38303, 1.3814, 1.39421, 1.37879, 1.37689, 1.36962, 1.35032, 1.37548, 1.41627, 1.50171, 1.49924, 1.51562, 1.53628, 1.52027, 1.49191, 1.51684, 1.58639, 1.48895, 1.45184, 1.40297, 1.33803, 1.33787, 1.35388, 1.35132, 1.3605, 1.3381, 1.33847, 1.35705, 1.33882, 1.33836, 1.34535, 1.33445, 1.32797, 1.3301, 1.32394, 1.33705, 1.32005, 1.34347, 1.32017, 
1.67516, 1.68619, 1.67038, 1.66965, 1.68196, 1.67587, 1.66604, 1.66701, 1.67947, 1.67973, 1.67244, 1.67351, 1.66441, 1.65147, 1.66134, 1.64657, 1.64189, 1.63723, 1.64541, 1.61724, 1.69086, 1.70919, 1.75583, 1.80139, 1.86682, 1.88182, 1.88742, 1.88315, 1.83737, 1.72699, 1.68657, 1.59686, 1.60834, 1.61857, 1.61941, 1.61709, 1.61986, 1.60328, 1.61989, 1.62027, 1.59642, 1.60989, 1.58258, 1.59711, 1.60613, 1.57912, 1.57891, 1.57826, 1.58231, 1.57121, 1.5679, 1.56682, 1.56461, 1.56495, 1.56296, 1.55945, 1.55754, 1.55638, 1.55878, 1.55724, 1.56569, 1.58188, 1.57287, 1.55292, 1.55652, 1.55584, 1.5577, 1.5397, 1.53344, 1.55379, 1.53327, 1.52881, 1.52708, 1.52646, 1.52507, 1.5225, 1.54138, 1.53635, 1.53702, 1.51681, 1.51347, 1.51003, 1.5195, 1.5108, 1.51883, 1.51421, 1.50749, 1.49771, 1.48267, 1.535, 1.59334, 1.61882, 1.6378, 1.6617, 1.66326, 1.65626, 1.64556, 1.61608, 1.57893, 1.52636, 1.4676, 1.45674, 1.47402, 1.47504, 1.48362, 1.49131, 1.50363, 1.48609, 1.473, 1.46604, 1.47754, 1.46399, 1.46405, 1.46469, 1.45879, 1.45058, 1.4467, 1.44312, 1.44049, 1.43959, 1.44092, 1.43154, 1.43148, 1.43156, 1.43391, 1.43683, 1.43789, 1.43643, 1.43547, 1.43226, 1.42928, 1.42408, 1.42113, 1.41621, 1.41307, 1.4108, 1.41253, 1.40871, 1.40514, 1.40236, 1.4029, 1.41024, 1.4063, 1.39984, 1.39719, 1.39649, 1.39553, 1.39131, 1.39157, 1.39083, 1.38954, 1.38972, 1.39244, 1.39139, 1.39265, 1.39388, 1.39424, 1.39413, 1.38787, 1.3834, 1.3799, 1.37964, 1.37449, 1.38938, 1.38247, 1.3741, 1.37798, 1.39127, 1.38206, 1.37888, 1.38333, 1.35472, 1.36796, 1.39891, 1.41921, 1.42952, 1.4552, 1.49535, 1.4939, 1.48919, 1.51721, 1.51277, 1.47905, 1.43691, 1.38426, 1.33283, 1.32471, 1.35597, 1.37803, 1.35753, 1.35779, 1.346, 1.35511, 1.34927, 1.34442, 1.32799, 1.32586, 1.32769, 1.32547, 1.33117, 1.33934, 1.32774, 1.34528, 1.32269, 
1.66508, 1.66, 1.65778, 1.65945, 1.65871, 1.68608, 1.65877, 1.66169, 1.65246, 1.64702, 1.64234, 1.64033, 1.63636, 1.63336, 1.65047, 1.63493, 1.63383, 1.641, 1.59865, 1.6205, 1.64685, 1.67642, 1.7376, 1.76928, 1.79414, 1.8284, 1.83999, 1.83159, 1.80597, 1.74478, 1.68845, 1.60806, 1.58711, 1.5987, 1.60054, 1.59995, 1.60268, 1.58897, 1.58622, 1.58727, 1.58324, 1.5731, 1.57437, 1.56683, 1.57555, 1.56113, 1.55825, 1.55453, 1.55395, 1.55728, 1.55788, 1.55819, 1.5555, 1.55033, 1.55464, 1.54398, 1.54692, 1.54756, 1.548, 1.54312, 1.5448, 1.53717, 1.55287, 1.55362, 1.54041, 1.54066, 1.53542, 1.5291, 1.51974, 1.51652, 1.51325, 1.51507, 1.51401, 1.51299, 1.51069, 1.51705, 1.50704, 1.50924, 1.50795, 1.50517, 1.49943, 1.49596, 1.4939, 1.49944, 1.50988, 1.50106, 1.49892, 1.49805, 1.4819, 1.54545, 1.56478, 1.58448, 1.61222, 1.62069, 1.62657, 1.62913, 1.61886, 1.59669, 1.57218, 1.53373, 1.49636, 1.43704, 1.45783, 1.47073, 1.46212, 1.47085, 1.47973, 1.4788, 1.47231, 1.46613, 1.45475, 1.44143, 1.44354, 1.44086, 1.45411, 1.43317, 1.42895, 1.4271, 1.42623, 1.42723, 1.42902, 1.43019, 1.42989, 1.42966, 1.42816, 1.42588, 1.42264, 1.42086, 1.42003, 1.41837, 1.42024, 1.41804, 1.41676, 1.41001, 1.40905, 1.40715, 1.40648, 1.40693, 1.40509, 1.40187, 1.39929, 1.39624, 1.39426, 1.39265, 1.38932, 1.38677, 1.38816, 1.3886, 1.38588, 1.38416, 1.38108, 1.37931, 1.38125, 1.37853, 1.37802, 1.37567, 1.37435, 1.37346, 1.37449, 1.3757, 1.37515, 1.37275, 1.37142, 1.36911, 1.37038, 1.36822, 1.37861, 1.36966, 1.37461, 1.37156, 1.36771, 1.34801, 1.3855, 1.42393, 1.43582, 1.44722, 1.49981, 1.48777, 1.50674, 1.52387, 1.52311, 1.50698, 1.49313, 1.45232, 1.4052, 1.32798, 1.32385, 1.35508, 1.35149, 1.35209, 1.35377, 1.33122, 1.33114, 1.3301, 1.32772, 1.32513, 1.3219, 1.32292, 1.3228, 1.34784, 1.32361, 1.32289, 1.32065, 1.32113, 
1.66886, 1.66773, 1.66531, 1.66756, 1.65977, 1.66559, 1.65236, 1.65621, 1.64661, 1.64636, 1.64356, 1.63878, 1.64103, 1.63408, 1.64077, 1.63377, 1.64352, 1.64198, 1.62347, 1.61288, 1.64773, 1.65901, 1.71236, 1.75102, 1.79929, 1.8265, 1.88652, 1.88651, 1.80368, 1.71852, 1.67256, 1.59658, 1.58456, 1.60896, 1.6054, 1.60559, 1.60528, 1.60312, 1.58263, 1.58911, 1.57951, 1.58937, 1.57671, 1.57579, 1.57883, 1.57465, 1.5855, 1.56319, 1.56098, 1.56089, 1.55772, 1.55278, 1.55072, 1.5578, 1.5455, 1.56548, 1.54132, 1.54772, 1.53889, 1.54242, 1.53654, 1.53918, 1.53384, 1.55392, 1.54179, 1.54165, 1.54137, 1.52842, 1.53071, 1.53074, 1.52205, 1.5196, 1.51555, 1.5129, 1.51369, 1.51274, 1.50331, 1.50818, 1.50621, 1.49835, 1.50713, 1.49401, 1.50351, 1.49306, 1.50261, 1.50421, 1.49611, 1.50525, 1.47536, 1.47517, 1.55103, 1.57494, 1.5988, 1.63772, 1.6378, 1.64424, 1.58841, 1.57834, 1.54126, 1.53987, 1.50573, 1.4314, 1.45619, 1.46545, 1.4795, 1.46901, 1.46127, 1.47, 1.46586, 1.46774, 1.45033, 1.45019, 1.4469, 1.44992, 1.45869, 1.43808, 1.43459, 1.43472, 1.43475, 1.43338, 1.43099, 1.47151, 1.42929, 1.42964, 1.4246, 1.424, 1.42207, 1.42135, 1.42022, 1.41805, 1.41843, 1.41421, 1.413, 1.4123, 1.41218, 1.41034, 1.40846, 1.40754, 1.40549, 1.4033, 1.39986, 1.39838, 1.3959, 1.39389, 1.39125, 1.3903, 1.39278, 1.3866, 1.38538, 1.3829, 1.38241, 1.37912, 1.38579, 1.37807, 1.37814, 1.37848, 1.37737, 1.3753, 1.39177, 1.39122, 1.371, 1.37653, 1.37056, 1.36747, 1.36435, 1.37136, 1.36204, 1.37104, 1.37732, 1.36767, 1.37543, 1.32366, 1.33477, 1.39408, 1.40816, 1.42699, 1.4789, 1.4768, 1.49662, 1.52364, 1.54204, 1.55451, 1.51388, 1.48134, 1.4499, 1.36044, 1.35027, 1.35501, 1.35675, 1.3575, 1.35045, 1.35341, 1.33433, 1.33051, 1.32694, 1.34007, 1.34363, 1.32694, 1.32639, 1.34554, 1.33662, 1.32091, 1.32282, 1.32051, 
1.6579, 1.65339, 1.65189, 1.65002, 1.654, 1.64443, 1.64025, 1.63736, 1.63477, 1.6323, 1.6269, 1.6228, 1.62004, 1.61801, 1.62034, 1.62027, 1.62106, 1.61268, 1.59948, 1.58848, 1.60296, 1.60476, 1.64414, 1.72694, 1.77912, 1.81162, 1.83969, 1.86537, 1.8446, 1.75937, 1.68236, 1.60319, 1.55917, 1.59316, 1.58369, 1.58858, 1.58724, 1.58898, 1.58466, 1.57004, 1.56595, 1.56332, 1.56183, 1.55942, 1.55695, 1.55533, 1.55371, 1.55174, 1.54941, 1.54975, 1.54755, 1.54722, 1.54407, 1.54153, 1.54709, 1.53709, 1.53193, 1.53063, 1.52367, 1.52216, 1.52042, 1.51475, 1.51139, 1.51223, 1.52908, 1.53545, 1.53406, 1.51936, 1.51859, 1.52546, 1.51812, 1.50789, 1.50459, 1.49792, 1.49683, 1.49555, 1.49378, 1.4921, 1.48965, 1.48945, 1.48641, 1.48412, 1.48355, 1.49337, 1.4895, 1.49236, 1.4983, 1.48522, 1.45721, 1.4861, 1.55866, 1.56033, 1.60981, 1.62649, 1.63213, 1.62913, 1.62526, 1.60725, 1.56529, 1.52779, 1.5172, 1.43458, 1.43081, 1.45101, 1.45282, 1.46515, 1.4443, 1.44085, 1.44402, 1.46049, 1.4506, 1.45323, 1.42738, 1.42687, 1.42624, 1.43123, 1.43272, 1.41953, 1.41573, 1.41621, 1.41553, 1.41236, 1.41034, 1.40648, 1.40576, 1.40312, 1.4021, 1.40091, 1.39939, 1.39861, 1.39798, 1.3931, 1.39394, 1.40287, 1.38927, 1.38489, 1.38285, 1.38149, 1.38076, 1.37936, 1.38102, 1.38236, 1.37985, 1.37887, 1.38539, 1.37812, 1.37695, 1.3748, 1.37236, 1.36817, 1.36805, 1.36757, 1.3648, 1.36377, 1.36298, 1.36044, 1.35917, 1.38205, 1.35653, 1.35358, 1.35218, 1.35065, 1.34901, 1.34845, 1.34787, 1.35127, 1.35518, 1.34599, 1.34464, 1.3513, 1.35559, 1.32628, 1.33146, 1.43071, 1.4096, 1.45504, 1.46111, 1.47651, 1.49277, 1.49596, 1.52475, 1.52339, 1.49918, 1.48249, 1.41548, 1.34643, 1.33395, 1.32767, 1.32963, 1.3246, 1.31758, 1.31557, 1.31419, 1.31312, 1.31085, 1.30991, 1.30842, 1.32376, 1.30583, 1.30581, 1.32288, 1.30303, 1.30344, 1.30232, 
1.64516, 1.64262, 1.64017, 1.63754, 1.63642, 1.63306, 1.63099, 1.65227, 1.62854, 1.62533, 1.62209, 1.63479, 1.62289, 1.62305, 1.62204, 1.62738, 1.6289, 1.62647, 1.60213, 1.60322, 1.62841, 1.67876, 1.72026, 1.7556, 1.80571, 1.85147, 1.88362, 1.8969, 1.85827, 1.79585, 1.64612, 1.59264, 1.55746, 1.58539, 1.60903, 1.58757, 1.57886, 1.57979, 1.57113, 1.57975, 1.57817, 1.56258, 1.55914, 1.55531, 1.5537, 1.55098, 1.54815, 1.54257, 1.53957, 1.53698, 1.54209, 1.54351, 1.54305, 1.54101, 1.53722, 1.53715, 1.53377, 1.53145, 1.53043, 1.5268, 1.5251, 1.52327, 1.52144, 1.51926, 1.53343, 1.52117, 1.52142, 1.53141, 1.53866, 1.52218, 1.51001, 1.52005, 1.5166, 1.50409, 1.50374, 1.50257, 1.49969, 1.49879, 1.4969, 1.49672, 1.4924, 1.49159, 1.48828, 1.48684, 1.49266, 1.48779, 1.4883, 1.48476, 1.45895, 1.4732, 1.49713, 1.52245, 1.59135, 1.58957, 1.60718, 1.61605, 1.66824, 1.5982, 1.57497, 1.52995, 1.52472, 1.44738, 1.43761, 1.45136, 1.45982, 1.46104, 1.44276, 1.45017, 1.44342, 1.44745, 1.45141, 1.46582, 1.46203, 1.44102, 1.43587, 1.43625, 1.43954, 1.42667, 1.42217, 1.43953, 1.41709, 1.41607, 1.4158, 1.41353, 1.41372, 1.41085, 1.40922, 1.40857, 1.40541, 1.40355, 1.40224, 1.40199, 1.40154, 1.39832, 1.39695, 1.39748, 1.39566, 1.3946, 1.39381, 1.39214, 1.38989, 1.38918, 1.38835, 1.38649, 1.38622, 1.38306, 1.3802, 1.37909, 1.37775, 1.376, 1.37458, 1.36418, 1.3677, 1.36846, 1.36714, 1.36684, 1.36361, 1.36254, 1.36204, 1.35965, 1.35806, 1.37603, 1.35393, 1.36517, 1.35301, 1.35387, 1.35053, 1.35361, 1.35919, 1.36173, 1.36789, 1.3364, 1.34692, 1.34962, 1.38651, 1.46306, 1.45905, 1.48005, 1.50274, 1.52637, 1.52645, 1.51399, 1.5102, 1.44484, 1.41539, 1.32227, 1.30065, 1.32274, 1.33342, 1.32755, 1.31879, 1.31877, 1.31319, 1.3139, 1.31245, 1.31336, 1.31171, 1.30986, 1.31023, 1.30868, 1.30887, 1.3072, 1.30579, 1.30331, 
1.654, 1.65271, 1.65109, 1.66254, 1.64877, 1.64712, 1.64345, 1.63816, 1.63521, 1.64109, 1.63183, 1.62725, 1.62624, 1.62654, 1.62262, 1.62025, 1.62994, 1.6206, 1.62417, 1.58658, 1.59732, 1.68523, 1.70307, 1.75228, 1.80985, 1.84155, 1.88247, 1.91512, 1.89614, 1.82331, 1.71283, 1.61571, 1.56419, 1.60029, 1.58859, 1.58333, 1.5952, 1.57475, 1.58543, 1.56865, 1.56673, 1.56422, 1.56087, 1.55828, 1.55571, 1.55361, 1.56211, 1.54875, 1.54818, 1.54706, 1.54723, 1.54482, 1.54358, 1.54094, 1.53722, 1.53425, 1.53363, 1.53133, 1.52879, 1.52684, 1.52583, 1.52277, 1.52047, 1.51876, 1.51632, 1.51705, 1.52442, 1.5379, 1.53312, 1.51581, 1.53317, 1.51274, 1.5024, 1.49925, 1.49726, 1.49282, 1.49255, 1.49277, 1.49998, 1.49548, 1.48594, 1.48313, 1.48165, 1.4845, 1.48167, 1.48809, 1.48474, 1.49142, 1.46849, 1.49822, 1.5303, 1.5276, 1.52495, 1.56893, 1.57997, 1.64085, 1.56861, 1.58432, 1.57916, 1.53435, 1.51356, 1.4495, 1.4343, 1.45135, 1.45159, 1.45722, 1.44992, 1.43476, 1.43341, 1.43221, 1.44388, 1.44878, 1.46153, 1.44842, 1.43822, 1.42432, 1.42221, 1.41952, 1.42287, 1.42654, 1.41333, 1.4137, 1.4135, 1.41318, 1.41103, 1.40824, 1.40679, 1.40505, 1.40356, 1.40176, 1.39999, 1.3988, 1.39735, 1.39593, 1.39565, 1.39369, 1.39172, 1.3914, 1.3917, 1.38824, 1.38588, 1.38424, 1.38322, 1.38231, 1.3798, 1.3787, 1.37582, 1.37401, 1.37273, 1.37063, 1.36818, 1.36644, 1.36361, 1.36235, 1.3625, 1.362, 1.36041, 1.36041, 1.35807, 1.35692, 1.35591, 1.35551, 1.37, 1.35392, 1.35155, 1.35335, 1.35207, 1.3614, 1.35461, 1.35636, 1.35553, 1.35844, 1.34386, 1.38884, 1.40693, 1.42291, 1.47006, 1.50634, 1.54102, 1.53611, 1.53562, 1.52843, 1.50723, 1.42679, 1.41269, 1.35722, 1.30702, 1.33659, 1.32879, 1.32438, 1.31795, 1.31584, 1.31335, 1.31321, 1.31179, 1.31148, 1.31205, 1.31025, 1.30969, 1.3086, 1.30585, 1.30909, 1.30765, 1.30504, 
1.65471, 1.65569, 1.65331, 1.65013, 1.64961, 1.64525, 1.64089, 1.63802, 1.6368, 1.63549, 1.65473, 1.65089, 1.62778, 1.6254, 1.62291, 1.63046, 1.63117, 1.63345, 1.6226, 1.59193, 1.59057, 1.61303, 1.67544, 1.69663, 1.75168, 1.81806, 1.8501, 1.87511, 1.93084, 1.81712, 1.71056, 1.5744, 1.56103, 1.58961, 1.58378, 1.58852, 1.57264, 1.56949, 1.56564, 1.56381, 1.56189, 1.55923, 1.55608, 1.55438, 1.55226, 1.5516, 1.55188, 1.55019, 1.54819, 1.54627, 1.54429, 1.54364, 1.5416, 1.53959, 1.53737, 1.53647, 1.53432, 1.53237, 1.53049, 1.52498, 1.54415, 1.52361, 1.52315, 1.51938, 1.51605, 1.51377, 1.51312, 1.50793, 1.52265, 1.5268, 1.51879, 1.53052, 1.50189, 1.49674, 1.49202, 1.50046, 1.49292, 1.49154, 1.48906, 1.48679, 1.48623, 1.48404, 1.48164, 1.48188, 1.47997, 1.489, 1.48597, 1.47698, 1.44945, 1.47202, 1.50647, 1.53078, 1.5587, 1.58536, 1.59045, 1.58107, 1.57728, 1.56627, 1.56219, 1.50882, 1.49476, 1.46866, 1.41654, 1.46352, 1.46849, 1.46034, 1.44842, 1.43757, 1.44432, 1.43314, 1.44085, 1.44289, 1.44441, 1.44493, 1.44037, 1.44794, 1.43028, 1.4341, 1.43102, 1.41467, 1.41256, 1.41236, 1.41061, 1.4103, 1.40878, 1.40723, 1.40501, 1.40426, 1.40366, 1.40191, 1.39959, 1.39905, 1.3969, 1.398, 1.39638, 1.39508, 1.39326, 1.39188, 1.38793, 1.38677, 1.38412, 1.38412, 1.38454, 1.38214, 1.37664, 1.37519, 1.37511, 1.37299, 1.3712, 1.36759, 1.36734, 1.36748, 1.36832, 1.37071, 1.36302, 1.36192, 1.36168, 1.35984, 1.35903, 1.35927, 1.35878, 1.35852, 1.35755, 1.35723, 1.35161, 1.34959, 1.34876, 1.3485, 1.34453, 1.35484, 1.34972, 1.33584, 1.33105, 1.36027, 1.42008, 1.43051, 1.45068, 1.50792, 1.53792, 1.56482, 1.56505, 1.55939, 1.53381, 1.45394, 1.45236, 1.31787, 1.32646, 1.34032, 1.34753, 1.33297, 1.35135, 1.32839, 1.32385, 1.33361, 1.32236, 1.32103, 1.32326, 1.31543, 1.31476, 1.31291, 1.30952, 1.31016, 1.30757, 1.30288, 
1.65278, 1.65236, 1.64895, 1.64747, 1.64256, 1.64139, 1.63773, 1.63514, 1.63188, 1.63055, 1.65132, 1.62862, 1.62505, 1.63807, 1.63733, 1.63799, 1.63689, 1.62439, 1.62157, 1.60331, 1.60032, 1.62661, 1.70323, 1.72006, 1.76798, 1.81842, 1.85567, 1.89898, 1.9003, 1.86489, 1.75747, 1.56944, 1.56493, 1.58891, 1.58938, 1.58544, 1.58275, 1.58277, 1.57567, 1.57153, 1.57198, 1.57396, 1.56546, 1.58307, 1.57261, 1.56077, 1.55477, 1.553, 1.55101, 1.54792, 1.54659, 1.54598, 1.54375, 1.54267, 1.54029, 1.5396, 1.53739, 1.53633, 1.53419, 1.53159, 1.52952, 1.5262, 1.52336, 1.52137, 1.51794, 1.51598, 1.52086, 1.51355, 1.52667, 1.52421, 1.51527, 1.5176, 1.53298, 1.52102, 1.51345, 1.5202, 1.52942, 1.51367, 1.50431, 1.50933, 1.4928, 1.49165, 1.50135, 1.49556, 1.49035, 1.48962, 1.49813, 1.48805, 1.46043, 1.48034, 1.50919, 1.5362, 1.57484, 1.64486, 1.60908, 1.58884, 1.58079, 1.5745, 1.57094, 1.53358, 1.49656, 1.46031, 1.49928, 1.44011, 1.47382, 1.4654, 1.4593, 1.44431, 1.44241, 1.43789, 1.43743, 1.44051, 1.43296, 1.43475, 1.44412, 1.45439, 1.44789, 1.41833, 1.42988, 1.41973, 1.42642, 1.41608, 1.41404, 1.41281, 1.40962, 1.40975, 1.40853, 1.40683, 1.40685, 1.40545, 1.40988, 1.40875, 1.40201, 1.39827, 1.39768, 1.39621, 1.39355, 1.39143, 1.39107, 1.3884, 1.38613, 1.38486, 1.38273, 1.37928, 1.37905, 1.38026, 1.37656, 1.37443, 1.37381, 1.37145, 1.3701, 1.36749, 1.36548, 1.36481, 1.36404, 1.36137, 1.36032, 1.37083, 1.36565, 1.35942, 1.3571, 1.35226, 1.35328, 1.35409, 1.37118, 1.35056, 1.3495, 1.34849, 1.35164, 1.34919, 1.35077, 1.35036, 1.32523, 1.36438, 1.42668, 1.41738, 1.48243, 1.48225, 1.58639, 1.56968, 1.58794, 1.58156, 1.55864, 1.45443, 1.39002, 1.35407, 1.30436, 1.34067, 1.34425, 1.33934, 1.34444, 1.33837, 1.32929, 1.32391, 1.32308, 1.31927, 1.32586, 1.3178, 1.31603, 1.31643, 1.31311, 1.31313, 1.31224, 1.31039, 
1.65314, 1.65033, 1.64839, 1.64466, 1.64175, 1.63998, 1.63634, 1.63554, 1.63143, 1.62863, 1.62885, 1.6274, 1.63303, 1.62395, 1.62313, 1.62476, 1.61938, 1.62914, 1.6306, 1.6002, 1.59608, 1.65479, 1.70932, 1.73367, 1.81352, 1.80588, 1.96881, 1.96866, 1.99343, 1.80755, 1.76191, 1.5814, 1.56526, 1.57125, 1.59021, 1.58613, 1.57698, 1.57531, 1.57217, 1.56795, 1.56586, 1.56273, 1.56114, 1.55958, 1.55697, 1.55518, 1.55245, 1.54964, 1.54784, 1.54514, 1.54364, 1.54313, 1.5409, 1.54038, 1.53699, 1.53534, 1.53411, 1.53137, 1.53028, 1.52793, 1.52526, 1.52283, 1.51885, 1.51632, 1.51463, 1.51465, 1.51146, 1.5132, 1.50857, 1.50673, 1.50521, 1.50551, 1.51683, 1.53376, 1.50939, 1.51965, 1.49937, 1.49762, 1.49659, 1.49254, 1.49045, 1.48764, 1.48506, 1.48211, 1.48918, 1.49515, 1.49274, 1.49014, 1.45726, 1.47555, 1.52366, 1.52607, 1.53264, 1.55583, 1.55984, 1.55145, 1.55511, 1.55812, 1.56226, 1.50696, 1.49434, 1.47433, 1.42281, 1.45331, 1.45856, 1.4518, 1.46027, 1.44418, 1.44228, 1.436, 1.43726, 1.43449, 1.4326, 1.43202, 1.42724, 1.42991, 1.43696, 1.4364, 1.42491, 1.41734, 1.41586, 1.41244, 1.41448, 1.41965, 1.41155, 1.40836, 1.40777, 1.40713, 1.40541, 1.40512, 1.40482, 1.40406, 1.40152, 1.39855, 1.39813, 1.3994, 1.39448, 1.39415, 1.39222, 1.39132, 1.38978, 1.38818, 1.38554, 1.38425, 1.37992, 1.3798, 1.37945, 1.37545, 1.37503, 1.37169, 1.36802, 1.36458, 1.36237, 1.36062, 1.35783, 1.35678, 1.35484, 1.35366, 1.353, 1.35383, 1.3533, 1.36044, 1.35287, 1.35358, 1.3545, 1.35327, 1.35312, 1.36549, 1.35149, 1.35363, 1.3618, 1.35544, 1.33367, 1.373, 1.36202, 1.42703, 1.45917, 1.46862, 1.53509, 1.55542, 1.58245, 1.58875, 1.58579, 1.4878, 1.39692, 1.34913, 1.33322, 1.33, 1.33357, 1.33395, 1.33108, 1.33966, 1.31609, 1.31499, 1.32927, 1.31609, 1.31547, 1.31539, 1.31534, 1.31296, 1.31291, 1.312, 1.3104, 1.30571, 
1.6554, 1.64919, 1.64478, 1.64198, 1.63967, 1.63774, 1.63316, 1.63056, 1.63017, 1.62653, 1.62535, 1.62169, 1.62096, 1.62452, 1.62044, 1.61856, 1.61703, 1.61699, 1.61814, 1.6195, 1.6133, 1.59344, 1.65747, 1.68121, 1.73024, 1.79275, 1.86539, 1.8668, 1.94266, 1.88206, 1.67866, 1.59327, 1.57068, 1.57979, 1.58335, 1.58184, 1.58202, 1.5726, 1.56873, 1.56781, 1.5647, 1.56863, 1.55964, 1.55737, 1.5563, 1.55429, 1.55826, 1.54802, 1.54553, 1.544, 1.54083, 1.54043, 1.53815, 1.53723, 1.53607, 1.5357, 1.53241, 1.52751, 1.52588, 1.52292, 1.52295, 1.5173, 1.51555, 1.51285, 1.5133, 1.5113, 1.50692, 1.50267, 1.50197, 1.49965, 1.49761, 1.4979, 1.51588, 1.50816, 1.5146, 1.51601, 1.50993, 1.50585, 1.4939, 1.49344, 1.49276, 1.48722, 1.48217, 1.48231, 1.49858, 1.48284, 1.48909, 1.47332, 1.45182, 1.45652, 1.52922, 1.52032, 1.59707, 1.59039, 1.57435, 1.5688, 1.55042, 1.54911, 1.55009, 1.54922, 1.53682, 1.49066, 1.45115, 1.43424, 1.45488, 1.45068, 1.44578, 1.44812, 1.4365, 1.44053, 1.43149, 1.43032, 1.4275, 1.42596, 1.42569, 1.42339, 1.42433, 1.41893, 1.42545, 1.41982, 1.40426, 1.40768, 1.4188, 1.40704, 1.40584, 1.40571, 1.40536, 1.40476, 1.40311, 1.40383, 1.40066, 1.39907, 1.39631, 1.39568, 1.3943, 1.39397, 1.394, 1.39184, 1.39022, 1.38882, 1.38743, 1.38566, 1.3854, 1.3844, 1.38293, 1.38238, 1.38084, 1.37983, 1.37794, 1.37596, 1.37519, 1.37339, 1.3699, 1.36658, 1.36464, 1.36334, 1.36247, 1.36024, 1.35822, 1.35657, 1.35477, 1.35311, 1.35338, 1.35344, 1.35399, 1.35121, 1.35009, 1.34977, 1.34873, 1.35064, 1.3523, 1.3535, 1.35101, 1.34217, 1.38024, 1.43635, 1.44306, 1.51691, 1.5272, 1.56754, 1.57931, 1.57996, 1.56866, 1.53101, 1.39713, 1.34981, 1.2967, 1.33698, 1.33037, 1.32271, 1.32104, 1.31912, 1.3187, 1.31856, 1.3161, 1.31759, 1.31576, 1.33645, 1.3117, 1.31266, 1.30926, 1.30894, 1.30717, 1.32345, 
1.64948, 1.64647, 1.64731, 1.6391, 1.63808, 1.63476, 1.63112, 1.62953, 1.62873, 1.62808, 1.6269, 1.6311, 1.62428, 1.62361, 1.62031, 1.61986, 1.62869, 1.61619, 1.63009, 1.61769, 1.6012, 1.59439, 1.64431, 1.68066, 1.7797, 1.77412, 1.84887, 1.88623, 1.91513, 1.8683, 1.78824, 1.5865, 1.53859, 1.55892, 1.5891, 1.57933, 1.5828, 1.58682, 1.56766, 1.57222, 1.56332, 1.57213, 1.55876, 1.556, 1.55222, 1.55746, 1.55095, 1.54938, 1.54735, 1.54565, 1.54397, 1.54176, 1.54123, 1.53941, 1.53645, 1.53402, 1.53314, 1.53155, 1.52808, 1.52728, 1.52528, 1.52286, 1.52055, 1.51806, 1.5153, 1.51384, 1.50851, 1.50566, 1.50438, 1.50379, 1.50116, 1.50021, 1.49685, 1.50835, 1.49325, 1.52963, 1.52741, 1.52678, 1.50017, 1.49847, 1.4924, 1.49608, 1.49327, 1.48002, 1.48796, 1.47883, 1.49222, 1.48992, 1.47536, 1.45745, 1.50369, 1.56177, 1.54643, 1.56199, 1.5458, 1.53707, 1.53738, 1.53293, 1.53227, 1.51801, 1.51318, 1.47571, 1.43034, 1.43674, 1.45354, 1.46127, 1.44573, 1.44061, 1.44332, 1.43675, 1.43813, 1.45095, 1.44814, 1.44129, 1.43646, 1.43476, 1.44613, 1.45538, 1.43182, 1.42859, 1.42384, 1.41923, 1.42004, 1.42048, 1.40584, 1.40403, 1.40401, 1.40196, 1.40035, 1.40019, 1.39814, 1.39657, 1.39501, 1.39274, 1.39151, 1.38945, 1.38792, 1.38587, 1.38498, 1.38639, 1.38352, 1.38288, 1.3818, 1.3806, 1.37772, 1.37804, 1.37772, 1.37417, 1.37251, 1.37158, 1.36937, 1.36806, 1.36738, 1.36588, 1.36592, 1.36531, 1.36548, 1.36462, 1.3627, 1.36205, 1.36062, 1.35983, 1.35883, 1.35602, 1.3541, 1.35396, 1.35152, 1.34989, 1.35021, 1.35822, 1.36107, 1.35195, 1.35988, 1.32646, 1.37301, 1.44215, 1.4464, 1.47093, 1.54314, 1.54794, 1.62364, 1.5855, 1.57094, 1.51616, 1.41029, 1.34893, 1.29464, 1.33578, 1.33246, 1.34765, 1.32371, 1.32734, 1.31748, 1.31652, 1.31807, 1.31402, 1.31311, 1.32282, 1.31029, 1.30729, 1.30806, 1.30606, 1.30525, 1.30346, 
1.65286, 1.64943, 1.65015, 1.64413, 1.63855, 1.63644, 1.63419, 1.63853, 1.64039, 1.63052, 1.62692, 1.62266, 1.62111, 1.62073, 1.62315, 1.61842, 1.62759, 1.62959, 1.61453, 1.62919, 1.61703, 1.58861, 1.64553, 1.68847, 1.76759, 1.81068, 1.8601, 1.90413, 1.92138, 1.93545, 1.82752, 1.63437, 1.56808, 1.5984, 1.57644, 1.58711, 1.45723, 1.57587, 1.57539, 1.56576, 1.56229, 1.55897, 1.55822, 1.55594, 1.55396, 1.5601, 1.55064, 1.55032, 1.54728, 1.54575, 1.54168, 1.53895, 1.53656, 1.53388, 1.53185, 1.52978, 1.52607, 1.52174, 1.52022, 1.51945, 1.51717, 1.51645, 1.51582, 1.51169, 1.51017, 1.50932, 1.50787, 1.50669, 1.506, 1.50541, 1.50532, 1.50421, 1.5019, 1.49915, 1.50863, 1.50945, 1.51264, 1.5161, 1.52018, 1.50942, 1.48573, 1.49824, 1.49101, 1.48304, 1.4915, 1.49604, 1.47922, 1.48167, 1.45469, 1.45446, 1.50571, 1.52301, 1.55638, 1.54745, 1.554, 1.5345, 1.5243, 1.53726, 1.53696, 1.53324, 1.53125, 1.51132, 1.44076, 1.42318, 1.44786, 1.45104, 1.4617, 1.44414, 1.44437, 1.44162, 1.43032, 1.44815, 1.46122, 1.4511, 1.45399, 1.48265, 1.46189, 1.44414, 1.43268, 1.4264, 1.4187, 1.41238, 1.40921, 1.4073, 1.40596, 1.40603, 1.40576, 1.40117, 1.40094, 1.3998, 1.39773, 1.39482, 1.39245, 1.39193, 1.39168, 1.38948, 1.38842, 1.38592, 1.38421, 1.38399, 1.38284, 1.38144, 1.37919, 1.37742, 1.37441, 1.37413, 1.37344, 1.37099, 1.36815, 1.36806, 1.36627, 1.36635, 1.36428, 1.36422, 1.36377, 1.3625, 1.36233, 1.36098, 1.36103, 1.35978, 1.35754, 1.35728, 1.35699, 1.35421, 1.35293, 1.35033, 1.35322, 1.34761, 1.3467, 1.3553, 1.357, 1.35759, 1.34702, 1.32405, 1.31273, 1.39622, 1.43505, 1.45938, 1.53001, 1.56279, 1.59515, 1.5984, 1.57524, 1.48157, 1.40618, 1.33695, 1.31504, 1.33055, 1.33547, 1.33866, 1.33027, 1.32431, 1.319, 1.31941, 1.31605, 1.31625, 1.31508, 1.31214, 1.31177, 1.30904, 1.30808, 1.30613, 1.30573, 1.30673, 
1.65162, 1.64886, 1.64509, 1.64412, 1.6422, 1.63963, 1.63826, 1.635, 1.63295, 1.63054, 1.6303, 1.62484, 1.62111, 1.61823, 1.61673, 1.61426, 1.61247, 1.60985, 1.61093, 1.61092, 1.61419, 1.59762, 1.62082, 1.65755, 1.76612, 1.81531, 1.85567, 1.94882, 1.92436, 1.85954, 1.74307, 1.58237, 1.5538, 1.62018, 1.59582, 1.57543, 1.57921, 1.5744, 1.5732, 1.57086, 1.57889, 1.56095, 1.55943, 1.55649, 1.55475, 1.55072, 1.55504, 1.5431, 1.53914, 1.53894, 1.54023, 1.53625, 1.53224, 1.53107, 1.5275, 1.52595, 1.53127, 1.51596, 1.5133, 1.51408, 1.51035, 1.50963, 1.50865, 1.50406, 1.50602, 1.50553, 1.50427, 1.5027, 1.50163, 1.50103, 1.50074, 1.49858, 1.49914, 1.49727, 1.49133, 1.49486, 1.50118, 1.51337, 1.52653, 1.53391, 1.54225, 1.53748, 1.50344, 1.50901, 1.47987, 1.47891, 1.48221, 1.48328, 1.47516, 1.46395, 1.5026, 1.49675, 1.50821, 1.54227, 1.54065, 1.52067, 1.51632, 1.5213, 1.52349, 1.54736, 1.52675, 1.4984, 1.47922, 1.47581, 1.48894, 1.4764, 1.48324, 1.48543, 1.49138, 1.48449, 1.48115, 1.46171, 1.44398, 1.45556, 1.43553, 1.43762, 1.43236, 1.43165, 1.42558, 1.42493, 1.41554, 1.41471, 1.41126, 1.4101, 1.40877, 1.40691, 1.40502, 1.40287, 1.4012, 1.39821, 1.39682, 1.39531, 1.39316, 1.38972, 1.38792, 1.3861, 1.385, 1.38504, 1.38244, 1.38223, 1.37971, 1.37776, 1.37733, 1.37653, 1.37242, 1.37221, 1.37154, 1.3709, 1.36859, 1.36708, 1.36613, 1.36648, 1.36359, 1.36352, 1.36037, 1.36076, 1.35837, 1.35973, 1.35729, 1.35431, 1.35389, 1.35121, 1.35029, 1.34938, 1.34748, 1.3464, 1.34488, 1.3439, 1.34306, 1.34132, 1.34071, 1.34546, 1.35809, 1.3271, 1.31543, 1.39362, 1.44459, 1.46768, 1.51355, 1.59286, 1.60219, 1.61455, 1.60944, 1.55776, 1.43049, 1.34113, 1.30741, 1.33664, 1.33973, 1.33069, 1.31784, 1.31563, 1.31376, 1.31331, 1.31415, 1.31409, 1.31158, 1.31018, 1.30673, 1.30535, 1.30255, 1.30489, 1.3027, 1.30145, 
1.64211, 1.64115, 1.64055, 1.63651, 1.63762, 1.63732, 1.637, 1.63656, 1.63607, 1.63504, 1.63107, 1.62755, 1.62321, 1.62138, 1.61787, 1.61663, 1.61366, 1.61089, 1.60975, 1.61943, 1.61312, 1.59488, 1.59842, 1.64132, 1.71796, 1.76507, 1.8361, 1.95925, 1.97994, 1.96436, 1.75101, 1.59614, 1.55192, 1.57957, 1.59679, 1.599, 1.59209, 1.57954, 1.57911, 1.58171, 1.58534, 1.57309, 1.58417, 1.57265, 1.56211, 1.55758, 1.55596, 1.55214, 1.54865, 1.54585, 1.54226, 1.53818, 1.53641, 1.53468, 1.53201, 1.52926, 1.52777, 1.52485, 1.53072, 1.52018, 1.51614, 1.51372, 1.51004, 1.5088, 1.50698, 1.50602, 1.50532, 1.50329, 1.50262, 1.50139, 1.49949, 1.49819, 1.49426, 1.4927, 1.49993, 1.49435, 1.50221, 1.49285, 1.49229, 1.49699, 1.49443, 1.52883, 1.51287, 1.51056, 1.5317, 1.50789, 1.51322, 1.50192, 1.47974, 1.47207, 1.47528, 1.51652, 1.51695, 1.52218, 1.5217, 1.50267, 1.503, 1.4812, 1.51656, 1.53083, 1.51697, 1.49884, 1.47462, 1.4388, 1.43793, 1.45696, 1.46869, 1.44517, 1.45306, 1.44287, 1.44728, 1.4318, 1.42943, 1.43795, 1.42605, 1.4242, 1.4215, 1.4208, 1.41801, 1.42604, 1.41554, 1.41132, 1.41119, 1.41064, 1.40936, 1.40775, 1.40398, 1.40557, 1.40214, 1.4006, 1.40027, 1.39839, 1.39587, 1.39374, 1.39336, 1.39267, 1.39203, 1.39029, 1.38858, 1.38754, 1.38519, 1.38093, 1.38017, 1.37819, 1.37745, 1.3774, 1.37754, 1.37539, 1.37423, 1.37451, 1.37346, 1.37352, 1.37118, 1.3694, 1.36694, 1.3654, 1.36397, 1.36145, 1.36027, 1.35848, 1.35728, 1.35391, 1.35322, 1.35504, 1.34825, 1.36856, 1.34599, 1.34425, 1.34488, 1.34679, 1.3467, 1.36413, 1.35771, 1.34442, 1.32032, 1.37182, 1.44805, 1.48901, 1.50706, 1.58136, 1.60051, 1.63601, 1.64075, 1.50373, 1.45618, 1.37771, 1.30092, 1.33627, 1.34366, 1.34298, 1.32702, 1.34472, 1.32716, 1.32479, 1.33446, 1.31488, 1.31249, 1.31231, 1.31272, 1.31216, 1.31076, 1.30909, 1.30866, 1.30917, 
1.64228, 1.6415, 1.6395, 1.63898, 1.63782, 1.63661, 1.63381, 1.6418, 1.63382, 1.62867, 1.63501, 1.62392, 1.62071, 1.62336, 1.61436, 1.61231, 1.61018, 1.6095, 1.6169, 1.6085, 1.6129, 1.58552, 1.61064, 1.67903, 1.68982, 1.73774, 1.80315, 1.87846, 2.04049, 2.13303, 1.77149, 1.60234, 1.55206, 1.58921, 1.56436, 1.56775, 1.56946, 1.5793, 1.57782, 1.59931, 1.59629, 1.58023, 1.57537, 1.57433, 1.56139, 1.56763, 1.5543, 1.54571, 1.5442, 1.54288, 1.5368, 1.53679, 1.5337, 1.53183, 1.52932, 1.52742, 1.52521, 1.52265, 1.52126, 1.52073, 1.51805, 1.51654, 1.51458, 1.51316, 1.50958, 1.50703, 1.50426, 1.50237, 1.5011, 1.4999, 1.4972, 1.49536, 1.49369, 1.49194, 1.48976, 1.48753, 1.48617, 1.48547, 1.48486, 1.48142, 1.48088, 1.47812, 1.47778, 1.47716, 1.47549, 1.48767, 1.47979, 1.49145, 1.48265, 1.47145, 1.50043, 1.51888, 1.53581, 1.53991, 1.5332, 1.52782, 1.51356, 1.49688, 1.52991, 1.53124, 1.52358, 1.49994, 1.47585, 1.44694, 1.45065, 1.46301, 1.45797, 1.44414, 1.44216, 1.43853, 1.43642, 1.43354, 1.4317, 1.42991, 1.42746, 1.42513, 1.42248, 1.42219, 1.41709, 1.41639, 1.41326, 1.41265, 1.41191, 1.40779, 1.40764, 1.40569, 1.40637, 1.40296, 1.40154, 1.40149, 1.39947, 1.39744, 1.39585, 1.39572, 1.39495, 1.3916, 1.39128, 1.38897, 1.3864, 1.38563, 1.38314, 1.38053, 1.38184, 1.3784, 1.37751, 1.37536, 1.37508, 1.3718, 1.37142, 1.36889, 1.36782, 1.36574, 1.36714, 1.36489, 1.36409, 1.36432, 1.38843, 1.35659, 1.35684, 1.35737, 1.37526, 1.35525, 1.35205, 1.34992, 1.34821, 1.35496, 1.34605, 1.34697, 1.34511, 1.34504, 1.34488, 1.34467, 1.35493, 1.37117, 1.32382, 1.36447, 1.40354, 1.47232, 1.53464, 1.58088, 1.59732, 1.63816, 1.6544, 1.59992, 1.46848, 1.36038, 1.29832, 1.32121, 1.33775, 1.32786, 1.31938, 1.31758, 1.31697, 1.31564, 1.31267, 1.32852, 1.31243, 1.31017, 1.31077, 1.31011, 1.31258, 1.3088, 1.30845, 1.30684, 
1.64102, 1.6394, 1.63547, 1.63343, 1.63294, 1.62987, 1.62852, 1.62664, 1.62516, 1.62315, 1.62104, 1.61804, 1.61615, 1.61321, 1.60995, 1.60653, 1.60712, 1.60365, 1.60439, 1.61323, 1.60453, 1.60974, 1.58808, 1.64111, 1.68042, 1.7017, 1.79599, 1.83398, 2.03078, 2.02531, 1.82313, 1.60394, 1.54399, 1.54835, 1.61221, 1.65535, 1.74454, 1.82397, 1.80275, 1.662, 1.57823, 1.62441, 1.58988, 1.58276, 1.58129, 1.57142, 1.57127, 1.56084, 1.54583, 1.54061, 1.53994, 1.53386, 1.55083, 1.53188, 1.53122, 1.52803, 1.52433, 1.52246, 1.52157, 1.52001, 1.51623, 1.51487, 1.51297, 1.51058, 1.50804, 1.50543, 1.50312, 1.50577, 1.49921, 1.49696, 1.49379, 1.49493, 1.49112, 1.49107, 1.48942, 1.48829, 1.49563, 1.48471, 1.48164, 1.47776, 1.47666, 1.47509, 1.47335, 1.47268, 1.49671, 1.47337, 1.47774, 1.47981, 1.47185, 1.47157, 1.5115, 1.52379, 1.52969, 1.51987, 1.538, 1.49564, 1.47965, 1.47083, 1.52885, 1.48868, 1.49229, 1.50887, 1.48894, 1.44699, 1.45396, 1.44815, 1.45154, 1.44404, 1.43859, 1.42983, 1.42795, 1.42463, 1.43047, 1.4196, 1.41691, 1.41542, 1.41392, 1.41241, 1.41144, 1.40992, 1.40889, 1.40753, 1.40696, 1.40802, 1.4061, 1.40692, 1.40524, 1.40492, 1.40154, 1.39805, 1.39548, 1.39341, 1.39181, 1.38849, 1.38797, 1.38766, 1.38425, 1.38184, 1.3838, 1.37982, 1.37942, 1.37788, 1.37753, 1.37594, 1.37355, 1.37089, 1.37084, 1.3703, 1.36931, 1.36726, 1.36472, 1.36299, 1.36154, 1.36121, 1.35858, 1.35685, 1.35347, 1.35131, 1.3501, 1.35071, 1.35308, 1.35175, 1.35091, 1.34777, 1.34683, 1.34503, 1.34305, 1.34222, 1.34279, 1.3403, 1.34612, 1.34075, 1.34643, 1.35013, 1.32031, 1.32668, 1.41918, 1.48536, 1.48592, 1.59396, 1.62371, 1.65248, 1.65196, 1.62324, 1.43897, 1.4047, 1.30006, 1.33048, 1.32778, 1.33802, 1.32362, 1.32241, 1.3245, 1.31654, 1.3158, 1.31827, 1.30986, 1.3085, 1.30471, 1.33099, 1.30323, 1.30037, 1.29973, 1.3001, 
1.63459, 1.62957, 1.62879, 1.62488, 1.62333, 1.62153, 1.6192, 1.61824, 1.61733, 1.61424, 1.6114, 1.60989, 1.60871, 1.60537, 1.60277, 1.60083, 1.59987, 1.59895, 1.59589, 1.59562, 1.59561, 1.60602, 1.58, 1.59889, 1.64848, 1.6962, 1.79587, 1.89282, 2.00294, 1.87176, 1.77925, 1.57352, 1.55682, 1.55408, 1.56826, 1.56783, 1.58957, 1.57336, 1.57526, 1.59602, 1.58573, 1.58285, 1.58422, 1.57184, 1.56137, 1.5681, 1.54489, 1.54426, 1.53336, 1.52965, 1.52819, 1.53412, 1.52355, 1.52146, 1.52018, 1.51903, 1.51536, 1.51407, 1.51295, 1.50949, 1.50668, 1.50539, 1.50585, 1.50581, 1.50502, 1.50205, 1.49904, 1.49742, 1.49595, 1.49354, 1.48881, 1.48538, 1.48326, 1.48282, 1.47614, 1.47479, 1.47447, 1.47251, 1.47138, 1.47042, 1.47049, 1.46877, 1.46688, 1.46631, 1.46919, 1.46958, 1.47867, 1.47888, 1.46709, 1.47163, 1.48847, 1.51309, 1.51395, 1.51741, 1.53316, 1.48923, 1.50901, 1.49089, 1.48599, 1.48303, 1.51565, 1.51596, 1.48328, 1.4585, 1.43803, 1.44014, 1.43809, 1.43387, 1.43777, 1.42613, 1.4215, 1.41999, 1.41753, 1.42254, 1.41569, 1.41167, 1.40897, 1.40634, 1.40776, 1.41645, 1.40535, 1.40529, 1.40631, 1.40208, 1.40188, 1.39824, 1.3981, 1.39563, 1.39187, 1.38944, 1.38577, 1.39008, 1.38185, 1.38016, 1.38266, 1.38149, 1.37965, 1.37518, 1.37715, 1.37824, 1.37798, 1.37648, 1.37596, 1.37591, 1.37486, 1.37217, 1.37103, 1.36533, 1.365, 1.36449, 1.36123, 1.355, 1.35702, 1.35756, 1.38852, 1.35689, 1.35321, 1.35182, 1.3514, 1.3518, 1.35035, 1.35083, 1.34784, 1.34524, 1.34303, 1.35072, 1.3422, 1.33785, 1.33784, 1.33709, 1.33617, 1.34726, 1.34755, 1.34166, 1.3059, 1.32655, 1.35441, 1.46855, 1.49915, 1.53668, 1.57398, 1.62638, 1.62232, 1.58616, 1.41077, 1.35731, 1.30579, 1.32381, 1.34017, 1.32519, 1.31438, 1.31261, 1.32177, 1.33021, 1.31625, 1.33448, 1.31161, 1.30702, 1.3056, 1.30157, 1.33664, 1.29995, 1.30231, 1.29556, 
1.62685, 1.6244, 1.62346, 1.62302, 1.61962, 1.61982, 1.61931, 1.61766, 1.61724, 1.62711, 1.61332, 1.6104, 1.60928, 1.60621, 1.60253, 1.60084, 1.60652, 1.59662, 1.59478, 1.59358, 1.59355, 1.5951, 1.58228, 1.60283, 1.62347, 1.69026, 1.71856, 1.8174, 1.8362, 2.19196, 1.84864, 1.66543, 1.54791, 1.5414, 1.56189, 1.5608, 1.56455, 1.55791, 1.5577, 1.55895, 1.56797, 1.56125, 1.55907, 1.56431, 1.54527, 1.54141, 1.54046, 1.53607, 1.53851, 1.52967, 1.5265, 1.52519, 1.52401, 1.52119, 1.51783, 1.51575, 1.5121, 1.51144, 1.50936, 1.50618, 1.50437, 1.50258, 1.50122, 1.49936, 1.49812, 1.49602, 1.49497, 1.49365, 1.4909, 1.48905, 1.48572, 1.48156, 1.4788, 1.47899, 1.47331, 1.473, 1.47151, 1.47079, 1.46864, 1.46723, 1.46644, 1.46469, 1.46403, 1.46288, 1.46258, 1.4629, 1.46452, 1.46391, 1.46176, 1.4592, 1.49191, 1.54845, 1.50824, 1.50789, 1.50586, 1.51368, 1.4756, 1.4746, 1.49674, 1.49155, 1.49721, 1.47978, 1.49253, 1.45533, 1.44485, 1.44053, 1.44256, 1.43601, 1.43033, 1.43153, 1.424, 1.42094, 1.42244, 1.41529, 1.41209, 1.41131, 1.40848, 1.40753, 1.40615, 1.40372, 1.40263, 1.402, 1.39938, 1.39593, 1.39483, 1.3913, 1.39018, 1.38861, 1.38768, 1.38459, 1.38204, 1.38023, 1.37917, 1.37775, 1.37741, 1.37698, 1.37508, 1.37508, 1.37394, 1.37383, 1.37465, 1.37396, 1.37333, 1.37157, 1.37064, 1.36954, 1.36775, 1.36553, 1.36077, 1.35865, 1.35663, 1.3539, 1.35305, 1.34835, 1.34704, 1.34863, 1.34709, 1.34626, 1.34726, 1.34513, 1.3434, 1.3432, 1.34045, 1.3406, 1.34034, 1.3381, 1.33635, 1.33407, 1.3333, 1.33279, 1.3318, 1.33692, 1.33659, 1.33264, 1.33653, 1.31687, 1.41556, 1.41635, 1.4627, 1.51839, 1.56833, 1.65978, 1.68322, 1.54593, 1.46541, 1.36441, 1.29263, 1.29319, 1.31559, 1.31479, 1.31329, 1.30336, 1.30404, 1.3035, 1.30226, 1.30583, 1.30252, 1.2992, 1.30029, 1.30515, 1.29567, 1.29453, 1.29323, 1.29571, 
1.62592, 1.62228, 1.61963, 1.62141, 1.62018, 1.61911, 1.62643, 1.61712, 1.61578, 1.62644, 1.61346, 1.61031, 1.60423, 1.60642, 1.60766, 1.60077, 1.59708, 1.59672, 1.59393, 1.59337, 1.59384, 1.59947, 1.59721, 1.55867, 1.6342, 1.69366, 1.76903, 1.83386, 1.9276, 1.75592, 1.73739, 1.73395, 1.58606, 1.56123, 1.57917, 1.57249, 1.56928, 1.56824, 1.5589, 1.55696, 1.55492, 1.55637, 1.55156, 1.55611, 1.55447, 1.55856, 1.56519, 1.53742, 1.53382, 1.53045, 1.53038, 1.52958, 1.52604, 1.52351, 1.52142, 1.51783, 1.51518, 1.50952, 1.50975, 1.50567, 1.50486, 1.50438, 1.502, 1.49999, 1.49686, 1.49518, 1.49334, 1.49102, 1.48953, 1.48994, 1.48566, 1.48286, 1.48306, 1.47972, 1.47528, 1.47451, 1.47247, 1.47223, 1.47026, 1.46851, 1.46775, 1.47032, 1.4644, 1.46501, 1.46516, 1.4743, 1.46416, 1.4656, 1.47717, 1.46868, 1.47829, 1.48948, 1.50094, 1.53454, 1.50259, 1.48812, 1.50539, 1.47201, 1.47432, 1.48145, 1.47557, 1.48392, 1.48819, 1.45859, 1.44429, 1.44946, 1.44368, 1.42822, 1.42482, 1.42204, 1.41879, 1.41536, 1.41258, 1.41002, 1.40933, 1.40813, 1.40976, 1.40486, 1.40306, 1.40268, 1.40166, 1.39956, 1.39916, 1.39881, 1.39869, 1.39326, 1.39375, 1.39206, 1.41071, 1.38861, 1.38533, 1.38328, 1.38162, 1.42524, 1.37947, 1.38213, 1.38142, 1.37224, 1.37256, 1.37066, 1.36967, 1.37032, 1.36736, 1.36294, 1.36012, 1.36028, 1.3584, 1.35564, 1.3552, 1.35266, 1.35023, 1.34852, 1.34942, 1.34766, 1.34536, 1.34629, 1.34459, 1.34542, 1.34517, 1.34284, 1.3396, 1.35151, 1.33836, 1.33691, 1.33352, 1.34019, 1.33347, 1.33154, 1.32962, 1.33127, 1.32931, 1.32913, 1.33428, 1.3328, 1.33319, 1.29266, 1.34082, 1.44035, 1.46114, 1.54342, 1.60816, 1.67558, 1.72138, 1.70732, 1.48483, 1.35495, 1.28748, 1.32149, 1.32239, 1.31623, 1.32257, 1.33612, 1.30891, 1.30343, 1.30357, 1.30515, 1.30478, 1.30909, 1.30247, 1.32698, 1.31345, 1.2971, 1.29645, 1.29467, 
1.62297, 1.62001, 1.61722, 1.61453, 1.61283, 1.61022, 1.60936, 1.60961, 1.60906, 1.60538, 1.6011, 1.60115, 1.59873, 1.59571, 1.59234, 1.59201, 1.58854, 1.58741, 1.58313, 1.58045, 1.58528, 1.58113, 1.57975, 1.55918, 1.61634, 1.67536, 1.73991, 1.76011, 1.84063, 2.08392, 1.7295, 1.68309, 1.53585, 1.55494, 1.5629, 1.56575, 1.56851, 1.56104, 1.55233, 1.54923, 1.54804, 1.54677, 1.53895, 1.53698, 1.53371, 1.53068, 1.52736, 1.5247, 1.52129, 1.51815, 1.51755, 1.51673, 1.51631, 1.51478, 1.51426, 1.51335, 1.51245, 1.50957, 1.50808, 1.50679, 1.50199, 1.49906, 1.49531, 1.49316, 1.49158, 1.48962, 1.48991, 1.48753, 1.48473, 1.48223, 1.48182, 1.47755, 1.47602, 1.47451, 1.47342, 1.47063, 1.46805, 1.46531, 1.46539, 1.46609, 1.46407, 1.46232, 1.46227, 1.46053, 1.45962, 1.46206, 1.4632, 1.46086, 1.46335, 1.4647, 1.47589, 1.50177, 1.52729, 1.48395, 1.48326, 1.47462, 1.45526, 1.45323, 1.44689, 1.46154, 1.48197, 1.48212, 1.47083, 1.44515, 1.44449, 1.42555, 1.42481, 1.4206, 1.41777, 1.41113, 1.41043, 1.40735, 1.40605, 1.40626, 1.40591, 1.4018, 1.4032, 1.4018, 1.40192, 1.40014, 1.39936, 1.39887, 1.39402, 1.39202, 1.38996, 1.38825, 1.38489, 1.38469, 1.38357, 1.38262, 1.38192, 1.37925, 1.37787, 1.3766, 1.37367, 1.3706, 1.37111, 1.36755, 1.39504, 1.36371, 1.36275, 1.35949, 1.35671, 1.35699, 1.35436, 1.35342, 1.34648, 1.34608, 1.34641, 1.34284, 1.34213, 1.34308, 1.34189, 1.34059, 1.3414, 1.34389, 1.33804, 1.34244, 1.34059, 1.33945, 1.34026, 1.33741, 1.33462, 1.33386, 1.33591, 1.33373, 1.32914, 1.32748, 1.32627, 1.32983, 1.32456, 1.32583, 1.3267, 1.32678, 1.32433, 1.31086, 1.32196, 1.37402, 1.46181, 1.49605, 1.56061, 1.64603, 1.72304, 1.73796, 1.47204, 1.34071, 1.28672, 1.29801, 1.30291, 1.30001, 1.3052, 1.29816, 1.29878, 1.30327, 1.29919, 1.30378, 1.29629, 1.29635, 1.29473, 1.28981, 1.29871, 1.29104, 1.28865, 1.2854, 
1.61751, 1.61984, 1.61694, 1.61585, 1.61051, 1.60797, 1.60527, 1.60582, 1.60233, 1.60191, 1.59605, 1.59409, 1.59421, 1.59213, 1.58974, 1.58687, 1.61389, 1.58326, 1.58101, 1.57542, 1.58779, 1.58904, 1.58002, 1.59949, 1.62082, 1.6726, 1.73226, 1.75914, 1.8313, 1.9378, 1.92807, 1.68268, 1.54154, 1.56503, 1.5654, 1.57269, 1.54931, 1.56063, 1.54347, 1.54093, 1.53764, 1.53662, 1.53191, 1.52795, 1.52457, 1.52298, 1.51972, 1.52205, 1.51357, 1.51309, 1.51071, 1.50893, 1.50533, 1.50421, 1.5037, 1.50416, 1.50325, 1.50186, 1.50048, 1.4978, 1.4961, 1.49419, 1.49256, 1.4903, 1.48822, 1.48489, 1.48419, 1.48157, 1.4778, 1.47698, 1.47615, 1.47199, 1.46962, 1.46646, 1.46657, 1.46602, 1.46422, 1.46137, 1.4594, 1.45788, 1.45694, 1.4518, 1.45327, 1.45023, 1.45002, 1.44927, 1.45938, 1.45533, 1.45448, 1.46617, 1.45468, 1.45732, 1.46871, 1.50039, 1.49276, 1.49539, 1.47445, 1.45799, 1.46158, 1.47109, 1.50051, 1.47487, 1.49969, 1.45443, 1.42356, 1.4292, 1.4238, 1.42361, 1.41361, 1.40524, 1.40217, 1.39983, 1.40121, 1.39589, 1.39587, 1.39646, 1.39522, 1.39438, 1.39189, 1.39217, 1.41354, 1.38912, 1.38815, 1.38662, 1.38443, 1.38174, 1.37802, 1.37538, 1.3738, 1.37163, 1.36965, 1.36794, 1.36831, 1.36708, 1.36701, 1.36477, 1.36389, 1.36273, 1.36204, 1.36085, 1.35871, 1.35604, 1.35619, 1.35203, 1.34768, 1.3465, 1.34568, 1.34447, 1.34002, 1.33694, 1.33762, 1.33667, 1.33578, 1.33265, 1.33257, 1.33432, 1.33656, 1.33641, 1.33638, 1.33972, 1.33373, 1.33408, 1.33023, 1.33177, 1.33005, 1.32403, 1.32853, 1.32051, 1.33782, 1.31673, 1.32775, 1.31274, 1.32353, 1.32445, 1.32235, 1.2742, 1.30511, 1.34001, 1.4226, 1.48957, 1.56926, 1.67765, 1.88584, 1.69463, 1.47541, 1.39206, 1.26544, 1.28244, 1.29984, 1.31232, 1.29469, 1.29188, 1.29286, 1.29378, 1.29195, 1.29885, 1.28753, 1.28868, 1.28281, 1.29216, 1.27878, 1.2797, 1.27747, 1.27747, 
1.61627, 1.61448, 1.61251, 1.61056, 1.60781, 1.60575, 1.60409, 1.60084, 1.59859, 1.59426, 1.59151, 1.59074, 1.58695, 1.58577, 1.58559, 1.58472, 1.58374, 1.59109, 1.58624, 1.58043, 1.59148, 1.57974, 1.57658, 1.5788, 1.58646, 1.62972, 1.71088, 1.7482, 1.80056, 2.18779, 2.36264, 1.78385, 1.53903, 1.56325, 1.5488, 1.55011, 1.5437, 1.54804, 1.5378, 1.5364, 1.534, 1.53708, 1.548, 1.52798, 1.52698, 1.52984, 1.5244, 1.5563, 1.53388, 1.51333, 1.50966, 1.5069, 1.50435, 1.50318, 1.50108, 1.50628, 1.49673, 1.49845, 1.49536, 1.49561, 1.49311, 1.49033, 1.49222, 1.48707, 1.48575, 1.48333, 1.48084, 1.47959, 1.47822, 1.47679, 1.47235, 1.47037, 1.46924, 1.46657, 1.4646, 1.46204, 1.45954, 1.45779, 1.45591, 1.45423, 1.45204, 1.45029, 1.44903, 1.44896, 1.44797, 1.4475, 1.45267, 1.45069, 1.45139, 1.46125, 1.46908, 1.45129, 1.47073, 1.47457, 1.46499, 1.46883, 1.46474, 1.47536, 1.4884, 1.45436, 1.46171, 1.46768, 1.46679, 1.46588, 1.44147, 1.44536, 1.44124, 1.42762, 1.42987, 1.41001, 1.40733, 1.40096, 1.39746, 1.39938, 1.40586, 1.39658, 1.39474, 1.40145, 1.39232, 1.39897, 1.39638, 1.38733, 1.38637, 1.38357, 1.38307, 1.37902, 1.41163, 1.37832, 1.37133, 1.37074, 1.36722, 1.36742, 1.36307, 1.36098, 1.36131, 1.35839, 1.35778, 1.3576, 1.3568, 1.35448, 1.35288, 1.35335, 1.35184, 1.34993, 1.35007, 1.34846, 1.34671, 1.34742, 1.3439, 1.34344, 1.34002, 1.3402, 1.33995, 1.33797, 1.33554, 1.3339, 1.33341, 1.3309, 1.3306, 1.32985, 1.3304, 1.32899, 1.32663, 1.32578, 1.32458, 1.32486, 1.32228, 1.33202, 1.32102, 1.32743, 1.31938, 1.32013, 1.31954, 1.32558, 1.32346, 1.30174, 1.29967, 1.36084, 1.40795, 1.45799, 1.51603, 1.63366, 1.78963, 1.6927, 1.55869, 1.4944, 1.29206, 1.28597, 1.31613, 1.31254, 1.30647, 1.30925, 1.29421, 1.29243, 1.29094, 1.29063, 1.28662, 1.2892, 1.28814, 1.28751, 1.2865, 1.28419, 1.31983, 1.28563, 
1.60405, 1.60104, 1.60082, 1.59833, 1.59936, 1.59581, 1.59184, 1.59013, 1.5885, 1.59306, 1.60612, 1.58001, 1.57865, 1.57592, 1.57515, 1.57719, 1.58091, 1.58067, 1.5691, 1.58174, 1.58209, 1.58432, 1.57736, 1.55135, 1.56267, 1.60074, 1.68904, 1.75905, 1.85844, 1.86957, 1.76565, 1.67203, 1.54474, 1.5057, 1.52962, 1.53824, 1.5511, 1.53108, 1.5287, 1.52461, 1.52204, 1.52058, 1.5159, 1.51732, 1.51357, 1.52184, 1.51121, 1.51061, 1.50757, 1.50675, 1.50551, 1.50278, 1.5011, 1.50549, 1.49419, 1.49219, 1.49206, 1.48817, 1.48826, 1.48346, 1.48124, 1.48013, 1.47799, 1.47618, 1.47527, 1.47118, 1.47013, 1.46885, 1.47229, 1.46257, 1.46131, 1.46021, 1.45875, 1.45704, 1.45693, 1.45703, 1.45435, 1.45226, 1.45145, 1.45765, 1.44745, 1.46134, 1.46643, 1.44753, 1.44183, 1.44075, 1.44025, 1.45398, 1.45463, 1.4486, 1.4646, 1.45517, 1.45091, 1.46225, 1.45869, 1.45108, 1.44934, 1.44526, 1.44673, 1.44708, 1.46132, 1.44741, 1.47913, 1.45907, 1.42508, 1.41731, 1.4271, 1.41653, 1.4167, 1.40862, 1.39925, 1.38922, 1.39609, 1.38729, 1.38961, 1.38597, 1.38501, 1.39145, 1.38784, 1.3826, 1.38531, 1.3916, 1.38323, 1.37665, 1.37536, 1.37214, 1.36904, 1.36881, 1.36863, 1.36542, 1.37065, 1.3625, 1.36182, 1.36228, 1.35996, 1.35997, 1.36379, 1.35529, 1.35515, 1.35149, 1.35142, 1.34985, 1.3473, 1.34542, 1.37214, 1.34187, 1.33802, 1.33652, 1.33821, 1.33623, 1.33898, 1.33483, 1.33243, 1.33204, 1.32699, 1.32671, 1.32556, 1.32353, 1.32576, 1.32353, 1.32366, 1.3245, 1.32223, 1.32209, 1.32984, 1.31966, 1.31849, 1.32698, 1.32995, 1.33218, 1.31419, 1.31648, 1.31255, 1.32191, 1.32126, 1.31515, 1.30227, 1.33109, 1.41761, 1.44035, 1.50626, 1.66942, 1.71476, 1.71381, 1.57691, 1.40637, 1.2577, 1.28698, 1.29927, 1.29936, 1.29838, 1.28776, 1.28763, 1.29236, 1.28241, 1.28477, 1.28346, 1.28206, 1.28139, 1.28223, 1.31142, 1.27618, 1.27542, 1.27209, 
1.5855, 1.58423, 1.5838, 1.585, 1.58814, 1.58305, 1.57811, 1.57574, 1.5714, 1.57091, 1.5659, 1.57157, 1.56291, 1.56412, 1.57193, 1.57228, 1.55872, 1.56727, 1.55857, 1.55768, 1.55382, 1.56815, 1.56469, 1.55836, 1.54153, 1.56189, 1.62956, 1.69672, 1.8188, 2.05787, 2.07934, 1.7317, 1.51888, 1.49225, 1.52305, 1.52752, 1.52723, 1.52044, 1.52174, 1.5149, 1.50075, 1.49844, 1.50562, 1.49799, 1.50092, 1.50197, 1.49981, 1.50266, 1.49363, 1.49244, 1.49027, 1.48899, 1.48797, 1.48836, 1.48813, 1.48771, 1.4835, 1.4788, 1.4734, 1.47153, 1.46844, 1.46801, 1.46129, 1.45923, 1.46222, 1.46395, 1.46376, 1.46273, 1.45961, 1.45688, 1.45209, 1.45106, 1.44836, 1.44616, 1.44038, 1.44019, 1.44028, 1.43663, 1.43299, 1.43343, 1.43473, 1.4321, 1.42911, 1.42975, 1.42044, 1.42039, 1.42125, 1.42683, 1.43103, 1.44388, 1.43824, 1.43655, 1.45511, 1.4374, 1.44386, 1.44746, 1.43126, 1.42953, 1.42898, 1.42628, 1.42337, 1.42384, 1.43905, 1.41918, 1.42101, 1.4006, 1.40942, 1.39336, 1.39575, 1.38995, 1.40263, 1.39124, 1.37941, 1.3751, 1.37206, 1.37081, 1.36489, 1.36499, 1.36296, 1.37926, 1.36898, 1.36915, 1.36458, 1.35659, 1.35777, 1.34773, 1.34775, 1.3512, 1.35201, 1.34722, 1.34161, 1.34181, 1.34094, 1.33786, 1.33698, 1.33688, 1.33868, 1.33846, 1.33441, 1.33363, 1.33208, 1.32937, 1.32353, 1.32219, 1.32067, 1.32126, 1.32338, 1.32145, 1.30928, 1.30959, 1.31315, 1.31775, 1.31732, 1.3151, 1.30661, 1.30691, 1.30943, 1.30618, 1.30646, 1.29991, 1.29762, 1.29865, 1.30178, 1.30538, 1.30539, 1.30074, 1.29589, 1.29396, 1.2909, 1.28668, 1.28733, 1.28475, 1.28495, 1.28942, 1.29503, 1.2947, 1.27334, 1.27477, 1.41767, 1.4509, 1.47226, 1.4753, 1.54777, 1.56987, 1.62259, 1.31783, 1.27464, 1.25179, 1.26835, 1.27239, 1.27663, 1.27496, 1.27372, 1.26783, 1.2726, 1.25635, 1.25459, 1.25861, 1.25971, 1.26024, 1.27025, 1.25226, 1.25005, 1.24248, 
1.60257, 1.6017, 1.60591, 1.59989, 1.5976, 1.59486, 1.59278, 1.64814, 1.5892, 1.58532, 1.58476, 1.59295, 1.57899, 1.57771, 1.57832, 1.58573, 1.57608, 1.56793, 1.57492, 1.56764, 1.56832, 1.56654, 1.5685, 1.56755, 1.54753, 1.60508, 1.63279, 1.73766, 1.8262, 1.99585, 1.76716, 1.76089, 1.50728, 1.54415, 1.53892, 1.55485, 1.54656, 1.52676, 1.52769, 1.52972, 1.5191, 1.53116, 1.51745, 1.51771, 1.51721, 1.53348, 1.52946, 1.50775, 1.50623, 1.50307, 1.49942, 1.49279, 1.5001, 1.4902, 1.49198, 1.4917, 1.48837, 1.48844, 1.4849, 1.48247, 1.48304, 1.47964, 1.47852, 1.47859, 1.47591, 1.47141, 1.47904, 1.46782, 1.4637, 1.4602, 1.4585, 1.4574, 1.49602, 1.45402, 1.45135, 1.45733, 1.44553, 1.44466, 1.46521, 1.45861, 1.44191, 1.44673, 1.44319, 1.43656, 1.43514, 1.43674, 1.43516, 1.43611, 1.44054, 1.45763, 1.44094, 1.44399, 1.45921, 1.45453, 1.44718, 1.4472, 1.46525, 1.46114, 1.45933, 1.44069, 1.44558, 1.43908, 1.46113, 1.44856, 1.43178, 1.4159, 1.42581, 1.42338, 1.41478, 1.40549, 1.39735, 1.40288, 1.39884, 1.39078, 1.39641, 1.389, 1.39997, 1.39255, 1.39869, 1.41138, 1.37845, 1.3853, 1.37501, 1.37557, 1.36971, 1.37152, 1.36842, 1.37915, 1.3679, 1.36128, 1.3616, 1.35787, 1.35766, 1.35862, 1.35552, 1.35457, 1.35303, 1.35174, 1.3474, 1.34698, 1.34419, 1.34417, 1.34346, 1.34382, 1.34029, 1.33962, 1.33839, 1.33563, 1.33449, 1.33403, 1.33587, 1.32789, 1.32816, 1.32788, 1.32533, 1.32578, 1.32455, 1.32246, 1.31926, 1.31985, 1.31948, 1.31657, 1.31557, 1.3154, 1.31613, 1.33761, 1.31371, 1.32405, 1.31301, 1.33451, 1.30914, 1.31129, 1.31905, 1.33101, 1.3117, 1.31607, 1.31071, 1.28767, 1.34739, 1.33961, 1.47324, 1.58851, 1.55729, 1.48684, 1.46765, 1.46753, 1.29282, 1.27888, 1.30549, 1.29269, 1.30157, 1.29284, 1.29583, 1.30294, 1.29333, 1.28142, 1.28921, 1.28075, 1.27692, 1.27784, 1.27482, 1.27408, 1.27232, 1.27117, 
1.59824, 1.59676, 1.59616, 1.59604, 1.59537, 1.59495, 1.59275, 1.58964, 1.58247, 1.5793, 1.57563, 1.57604, 1.56904, 1.57812, 1.56884, 1.56844, 1.56796, 1.57181, 1.56459, 1.56173, 1.55937, 1.57394, 1.55805, 1.55845, 1.55955, 1.574, 1.61032, 1.7104, 1.81421, 1.96465, 2.14475, 1.80661, 1.56895, 1.52434, 1.54218, 1.53181, 1.53996, 1.52122, 1.51758, 1.51613, 1.52727, 1.53478, 1.52574, 1.52202, 1.53512, 1.50635, 1.53457, 1.50421, 1.49843, 1.4951, 1.49168, 1.48599, 1.48498, 1.48479, 1.48715, 1.48608, 1.48328, 1.48384, 1.48262, 1.47995, 1.4786, 1.47539, 1.47581, 1.47253, 1.47017, 1.469, 1.46609, 1.46188, 1.45923, 1.45528, 1.45228, 1.4525, 1.45173, 1.45087, 1.45023, 1.44875, 1.44685, 1.4436, 1.44, 1.43958, 1.43919, 1.43755, 1.43808, 1.43697, 1.43495, 1.43441, 1.44216, 1.44072, 1.44069, 1.44161, 1.45401, 1.43963, 1.43979, 1.44837, 1.45568, 1.43625, 1.4491, 1.44479, 1.43404, 1.43712, 1.45165, 1.44106, 1.43418, 1.44114, 1.44371, 1.41847, 1.42315, 1.43001, 1.40166, 1.39509, 1.39491, 1.38903, 1.38635, 1.38427, 1.38385, 1.38324, 1.37774, 1.37783, 1.37471, 1.37134, 1.37306, 1.37162, 1.3692, 1.36765, 1.36708, 1.37385, 1.3638, 1.36704, 1.38484, 1.3623, 1.36093, 1.36115, 1.3568, 1.35458, 1.35369, 1.35415, 1.35328, 1.34793, 1.34773, 1.34512, 1.3412, 1.34163, 1.34157, 1.3386, 1.34037, 1.33649, 1.33643, 1.33463, 1.33627, 1.33742, 1.33068, 1.33378, 1.34476, 1.32614, 1.32272, 1.32277, 1.32061, 1.32271, 1.3293, 1.31681, 1.32241, 1.31631, 1.3165, 1.31971, 1.31368, 1.31201, 1.3096, 1.30824, 1.31713, 1.30368, 1.30414, 1.30213, 1.30026, 1.30198, 1.30952, 1.31031, 1.2994, 1.30894, 1.29497, 1.41313, 1.46027, 1.51002, 1.56488, 1.70316, 1.50575, 1.50387, 1.49494, 1.49617, 1.47189, 1.46048, 1.36354, 1.30788, 1.27649, 1.28721, 1.28152, 1.27472, 1.27433, 1.27502, 1.27203, 1.27223, 1.26816, 1.27405, 1.26415, 1.29592, 
1.58467, 1.58253, 1.5803, 1.57877, 1.57909, 1.57894, 1.57935, 1.57553, 1.57235, 1.57018, 1.56499, 1.57501, 1.56377, 1.56471, 1.5629, 1.56288, 1.5689, 1.56221, 1.56365, 1.55413, 1.55136, 1.5708, 1.55879, 1.55482, 1.54069, 1.55453, 1.62099, 1.69712, 1.82032, 1.82695, 2.42646, 1.77241, 1.54134, 1.51784, 1.52355, 1.53376, 1.5255, 1.52694, 1.51676, 1.50944, 1.51116, 1.50659, 1.50605, 1.50261, 1.51663, 1.50189, 1.51705, 1.5121, 1.4955, 1.49404, 1.49205, 1.48477, 1.48405, 1.48074, 1.47899, 1.47823, 1.475, 1.47493, 1.47388, 1.46943, 1.46901, 1.46335, 1.46303, 1.46139, 1.46018, 1.46062, 1.45535, 1.452, 1.45153, 1.44965, 1.44744, 1.45429, 1.44433, 1.44651, 1.4419, 1.44546, 1.44065, 1.43782, 1.43635, 1.43583, 1.43246, 1.4406, 1.44082, 1.42945, 1.42974, 1.43018, 1.43106, 1.44092, 1.44497, 1.4399, 1.45476, 1.45483, 1.45116, 1.43525, 1.43343, 1.44174, 1.43365, 1.44212, 1.44029, 1.42239, 1.42261, 1.41331, 1.41328, 1.44635, 1.41272, 1.40628, 1.41322, 1.40934, 1.41294, 1.38986, 1.38512, 1.38455, 1.37796, 1.37464, 1.37254, 1.37317, 1.38596, 1.36809, 1.36744, 1.36591, 1.36732, 1.36392, 1.36492, 1.36255, 1.36457, 1.35937, 1.36017, 1.35677, 1.35731, 1.35419, 1.35084, 1.35028, 1.34909, 1.34857, 1.34697, 1.34701, 1.34423, 1.34073, 1.33919, 1.33869, 1.3368, 1.3372, 1.33444, 1.33305, 1.33061, 1.32914, 1.32981, 1.33027, 1.32898, 1.32559, 1.32303, 1.32259, 1.31888, 1.31543, 1.31375, 1.31773, 1.3101, 1.30887, 1.30625, 1.3051, 1.30931, 1.30649, 1.30401, 1.3036, 1.30158, 1.30187, 1.30531, 1.29477, 1.30508, 1.28925, 1.28985, 1.28907, 1.28522, 1.29301, 1.28584, 1.29556, 1.29162, 1.25691, 1.3134, 1.38104, 1.4709, 1.60964, 1.67896, 1.81088, 1.58525, 1.54199, 1.4443, 1.41228, 1.3891, 1.37119, 1.33122, 1.29585, 1.26844, 1.26737, 1.26455, 1.26722, 1.26334, 1.26471, 1.26271, 1.26245, 1.26757, 1.26262, 1.25801, 1.25813, 
1.58857, 1.58381, 1.58301, 1.58109, 1.5822, 1.57978, 1.5772, 1.57415, 1.57525, 1.56867, 1.56556, 1.56393, 1.56125, 1.56374, 1.56094, 1.56519, 1.5689, 1.55143, 1.5711, 1.55146, 1.54865, 1.55126, 1.54503, 1.5467, 1.53285, 1.52803, 1.58231, 1.71991, 1.64759, 1.67268, 1.69641, 1.7412, 1.58665, 1.51745, 1.52003, 1.51617, 1.52014, 1.51791, 1.50695, 1.50171, 1.50258, 1.50027, 1.50007, 1.51093, 1.50055, 1.49893, 1.50864, 1.49299, 1.49284, 1.49017, 1.48877, 1.48766, 1.48383, 1.48216, 1.47901, 1.4771, 1.4745, 1.47125, 1.46924, 1.46497, 1.4788, 1.4617, 1.45801, 1.45674, 1.45419, 1.45326, 1.45383, 1.4563, 1.45197, 1.45103, 1.44956, 1.44581, 1.44533, 1.44386, 1.4433, 1.44059, 1.44423, 1.44003, 1.43778, 1.4354, 1.43201, 1.43015, 1.44549, 1.42631, 1.42582, 1.42422, 1.43461, 1.44119, 1.43081, 1.43326, 1.44054, 1.43146, 1.43203, 1.44706, 1.42903, 1.43936, 1.43628, 1.44577, 1.42708, 1.41793, 1.41777, 1.423, 1.42691, 1.41934, 1.4046, 1.41242, 1.41739, 1.39129, 1.40388, 1.384, 1.39362, 1.3782, 1.371, 1.36841, 1.36477, 1.36242, 1.36149, 1.36155, 1.36151, 1.35931, 1.37407, 1.35875, 1.35669, 1.35685, 1.35512, 1.35225, 1.35222, 1.35332, 1.3543, 1.35246, 1.35124, 1.35868, 1.34863, 1.3438, 1.3401, 1.33934, 1.3366, 1.33454, 1.32847, 1.32553, 1.3238, 1.32307, 1.32296, 1.32169, 1.31822, 1.31853, 1.32666, 1.32047, 1.32169, 1.31997, 1.31926, 1.31865, 1.3142, 1.31547, 1.31386, 1.31265, 1.31216, 1.31201, 1.31073, 1.30858, 1.30676, 1.30593, 1.30341, 1.30252, 1.30938, 1.29967, 1.29825, 1.29693, 1.29385, 1.29249, 1.29081, 1.29218, 1.28584, 1.28589, 1.28325, 1.30206, 1.28887, 1.2926, 1.26155, 1.33607, 1.42083, 1.51673, 1.57938, 1.5009, 1.50706, 1.50207, 1.31727, 1.27779, 1.27433, 1.28133, 1.26775, 1.2832, 1.26481, 1.26471, 1.27901, 1.26538, 1.26467, 1.27156, 1.26677, 1.25724, 1.25277, 1.25319, 1.24812, 1.25024, 
1.58225, 1.58475, 1.57915, 1.58198, 1.57282, 1.57399, 1.56906, 1.56852, 1.56418, 1.55911, 1.56198, 1.55322, 1.55052, 1.55187, 1.55119, 1.56137, 1.55204, 1.55116, 1.54085, 1.55775, 1.55448, 1.54539, 1.53723, 1.54485, 1.53652, 1.5229, 1.58483, 1.6726, 1.71339, 1.68757, 1.71981, 1.75141, 1.52389, 1.50167, 1.50164, 1.50716, 1.50081, 1.50719, 1.51925, 1.50395, 1.51141, 1.50579, 1.50523, 1.50047, 1.49767, 1.49394, 1.49079, 1.48882, 1.48623, 1.48191, 1.47596, 1.47498, 1.47778, 1.47028, 1.47564, 1.48157, 1.49106, 1.46561, 1.4645, 1.46271, 1.46895, 1.46408, 1.45531, 1.45039, 1.44708, 1.4462, 1.44532, 1.4427, 1.44325, 1.43965, 1.43833, 1.43828, 1.4352, 1.43382, 1.4336, 1.43313, 1.43051, 1.43054, 1.42699, 1.42213, 1.42109, 1.42047, 1.4205, 1.41877, 1.42365, 1.43446, 1.43122, 1.4212, 1.42379, 1.42415, 1.43431, 1.43546, 1.43801, 1.4412, 1.43449, 1.43462, 1.43061, 1.4388, 1.42953, 1.41612, 1.42971, 1.41884, 1.41183, 1.41206, 1.4131, 1.40254, 1.38931, 1.41093, 1.38787, 1.37872, 1.3827, 1.37151, 1.36769, 1.37484, 1.36473, 1.37128, 1.3602, 1.36283, 1.35589, 1.37835, 1.35475, 1.35368, 1.35034, 1.35898, 1.35028, 1.35238, 1.35053, 1.35309, 1.3468, 1.34525, 1.34561, 1.34319, 1.34475, 1.33792, 1.33661, 1.3352, 1.33649, 1.33217, 1.32955, 1.3269, 1.33641, 1.34, 1.32314, 1.32658, 1.31797, 1.31882, 1.31672, 1.3151, 1.31603, 1.31199, 1.3304, 1.31211, 1.31192, 1.31126, 1.30924, 1.30657, 1.30559, 1.30536, 1.30274, 1.3031, 1.30194, 1.30281, 1.30075, 1.30522, 1.29881, 1.30901, 1.31233, 1.31264, 1.30294, 1.29349, 1.30527, 1.29154, 1.29192, 1.29231, 1.29545, 1.3023, 1.28981, 1.29262, 1.25068, 1.31956, 1.44338, 1.51316, 1.8005, 1.79985, 1.7906, 1.49895, 1.31224, 1.28655, 1.26414, 1.26904, 1.26818, 1.26357, 1.26904, 1.26974, 1.25708, 1.2563, 1.26466, 1.28843, 1.25735, 1.24847, 1.24982, 1.24383, 1.24428, 1.24705, 
