1.63369, 1.61756, 1.61849, 1.60247, 1.59939, 1.58863, 1.60047, 1.60562, 1.57004, 1.59976, 1.60698, 1.61003, 1.6869, 1.70281, 1.54206, 1.56744, 1.54728, 1.54358, 1.53505, 1.54101, 1.52373, 1.51047, 1.50928, 1.5044, 1.50033, 1.49816, 1.49615, 1.49077, 1.48236, 1.47972, 1.47436, 1.46901, 1.46497, 1.45981, 1.45471, 1.45183, 1.45163, 1.45533, 1.44702, 1.44756, 1.53596, 1.78127, 1.65527, 1.4134, 1.42222, 1.42586, 1.41329, 1.41165, 1.40233, 1.40127, 1.39465, 1.39307, 1.40883, 1.38107, 1.3787, 1.37327, 1.369, 1.36705, 1.36208, 1.35783, 1.3537, 1.35195, 1.35198, 1.35857, 1.34595, 1.33966, 1.32995, 1.32941, 1.32413, 1.32016, 1.31858, 1.31518, 1.31385, 1.32018, 1.32328, 1.33516, 1.33492, 1.33439, 1.34408, 1.34438, 1.33236, 1.31631, 1.3017, 1.2856, 1.27925, 1.2782, 1.27502, 1.27525, 1.2819, 
1.63625, 1.62408, 1.60912, 1.60432, 1.59929, 1.59935, 1.58873, 1.59961, 1.60388, 1.63418, 1.61571, 1.66141, 1.67615, 1.65709, 1.5395, 1.55111, 1.54123, 1.53703, 1.56513, 1.54509, 1.52168, 1.51645, 1.51189, 1.50892, 1.50242, 1.50331, 1.49631, 1.49017, 1.48495, 1.47967, 1.47588, 1.47071, 1.47071, 1.45879, 1.46836, 1.45424, 1.45008, 1.4654, 1.46176, 1.50793, 1.60653, 1.72813, 1.65884, 1.38227, 1.43354, 1.42157, 1.42293, 1.41634, 1.40914, 1.39623, 1.39992, 1.38869, 1.3873, 1.38414, 1.37711, 1.37169, 1.36869, 1.36473, 1.36087, 1.35913, 1.35427, 1.35618, 1.34994, 1.34762, 1.34644, 1.34023, 1.34306, 1.33407, 1.33083, 1.33327, 1.32278, 1.32062, 1.31822, 1.32405, 1.32892, 1.32797, 1.34343, 1.34439, 1.3438, 1.35031, 1.37501, 1.3146, 1.30266, 1.30865, 1.29267, 1.27497, 1.29223, 1.27553, 1.27387, 
1.63758, 1.61239, 1.60829, 1.60599, 1.60082, 1.59926, 1.59419, 1.59367, 1.59368, 1.60768, 1.62203, 1.67175, 1.68851, 1.63539, 1.55152, 1.54936, 1.56424, 1.53871, 1.54825, 1.55684, 1.53734, 1.51575, 1.51358, 1.51118, 1.50309, 1.49929, 1.49506, 1.49516, 1.48717, 1.48233, 1.47565, 1.47292, 1.47105, 1.46506, 1.45925, 1.45553, 1.45135, 1.45456, 1.45554, 1.46624, 1.59415, 1.73717, 1.60831, 1.43723, 1.42303, 1.41789, 1.41129, 1.40662, 1.40415, 1.39764, 1.39189, 1.38705, 1.38523, 1.38398, 1.37939, 1.37227, 1.37226, 1.36947, 1.37097, 1.35662, 1.35872, 1.35242, 1.3499, 1.34877, 1.34354, 1.3414, 1.33681, 1.33398, 1.34365, 1.3292, 1.32741, 1.32552, 1.32118, 1.32734, 1.33049, 1.32673, 1.36379, 1.3418, 1.35382, 1.37081, 1.38131, 1.32017, 1.29512, 1.28752, 1.28273, 1.2752, 1.27503, 1.27857, 1.27232, 
1.67768, 1.66233, 1.62357, 1.6087, 1.60938, 1.59626, 1.59392, 1.59398, 1.57916, 1.62436, 1.63689, 1.64932, 1.731, 1.63645, 1.55455, 1.55562, 1.55351, 1.53846, 1.54721, 1.54851, 1.53177, 1.52121, 1.51104, 1.50645, 1.50528, 1.50522, 1.49558, 1.49146, 1.48908, 1.49343, 1.48155, 1.47715, 1.47331, 1.49739, 1.47869, 1.45573, 1.45411, 1.45089, 1.44334, 1.47297, 1.54825, 1.63374, 1.60209, 1.41369, 1.43634, 1.42501, 1.41154, 1.41053, 1.40026, 1.39856, 1.39167, 1.38504, 1.38794, 1.3839, 1.38248, 1.38067, 1.37327, 1.37131, 1.36848, 1.36433, 1.3603, 1.35553, 1.35419, 1.35144, 1.3469, 1.34264, 1.34047, 1.3397, 1.3388, 1.33667, 1.34002, 1.33084, 1.32712, 1.32773, 1.33087, 1.35474, 1.35861, 1.38853, 1.35471, 1.37552, 1.38302, 1.32069, 1.29835, 1.28759, 1.28107, 1.27511, 1.27641, 1.27664, 1.27759, 
1.65072, 1.64826, 1.62546, 1.61454, 1.60449, 1.60102, 1.61278, 1.59676, 1.5812, 1.62648, 1.65912, 1.75204, 1.70261, 1.69644, 1.55858, 1.57251, 1.5498, 1.54626, 1.54125, 1.55213, 1.52769, 1.53258, 1.52277, 1.51422, 1.51002, 1.5063, 1.49866, 1.49478, 1.49063, 1.4889, 1.48486, 1.48111, 1.47476, 1.469, 1.46821, 1.46124, 1.45709, 1.46462, 1.4592, 1.44817, 1.52666, 1.72265, 1.70083, 1.42444, 1.42904, 1.42752, 1.4153, 1.4111, 1.40797, 1.40391, 1.39687, 1.39184, 1.39158, 1.39026, 1.38755, 1.38171, 1.37755, 1.37564, 1.37247, 1.36696, 1.36549, 1.35812, 1.35704, 1.34976, 1.36083, 1.34701, 1.34671, 1.34413, 1.34289, 1.33827, 1.33551, 1.33127, 1.33133, 1.33296, 1.33472, 1.34274, 1.36288, 1.3577, 1.37504, 1.37908, 1.34866, 1.30589, 1.3128, 1.29702, 1.28483, 1.28516, 1.28007, 1.28025, 1.28303, 
1.66867, 1.65444, 1.62006, 1.61127, 1.6157, 1.60361, 1.60838, 1.60476, 1.58597, 1.62286, 1.64679, 1.68582, 1.71414, 1.65938, 1.56532, 1.5736, 1.56271, 1.54462, 1.55184, 1.54169, 1.54759, 1.52412, 1.52677, 1.52481, 1.5126, 1.50955, 1.49943, 1.49989, 1.49078, 1.48929, 1.48918, 1.4836, 1.47885, 1.47074, 1.46762, 1.4623, 1.46165, 1.46206, 1.46604, 1.49772, 1.55913, 1.72094, 1.71717, 1.42989, 1.43133, 1.44051, 1.42231, 1.41468, 1.41464, 1.40553, 1.40547, 1.3981, 1.3942, 1.39188, 1.39115, 1.38518, 1.37962, 1.3784, 1.37706, 1.37331, 1.36901, 1.36072, 1.36145, 1.3516, 1.349, 1.34813, 1.3457, 1.34448, 1.34802, 1.34365, 1.34022, 1.33751, 1.3328, 1.33801, 1.33652, 1.34146, 1.34867, 1.35821, 1.36307, 1.37742, 1.38519, 1.31266, 1.30656, 1.29937, 1.29639, 1.28893, 1.29974, 1.28476, 1.28088, 
1.65054, 1.65511, 1.66196, 1.61436, 1.61901, 1.62002, 1.61251, 1.61062, 1.62025, 1.63747, 1.67939, 1.68435, 1.69322, 1.67347, 1.58238, 1.56203, 1.56449, 1.55018, 1.54406, 1.54429, 1.54131, 1.54149, 1.52497, 1.51618, 1.52764, 1.5053, 1.504, 1.49899, 1.49431, 1.49225, 1.4884, 1.48575, 1.47854, 1.47846, 1.47183, 1.47096, 1.46699, 1.46524, 1.465, 1.46805, 1.60029, 1.74899, 1.71509, 1.55811, 1.44224, 1.44382, 1.43403, 1.42377, 1.41734, 1.41162, 1.40515, 1.39968, 1.39519, 1.39233, 1.39053, 1.38669, 1.38457, 1.38266, 1.38089, 1.37727, 1.37399, 1.36459, 1.36186, 1.35621, 1.35058, 1.35345, 1.34875, 1.351, 1.35048, 1.3499, 1.3484, 1.34311, 1.33714, 1.33752, 1.33705, 1.33453, 1.34385, 1.3759, 1.38541, 1.40896, 1.34356, 1.32988, 1.31651, 1.30232, 1.29089, 1.28836, 1.2903, 1.29001, 1.28772, 
1.64176, 1.67801, 1.6372, 1.63659, 1.6227, 1.61261, 1.62334, 1.61036, 1.59732, 1.63367, 1.6612, 1.67064, 1.69907, 1.61405, 1.5783, 1.57423, 1.56968, 1.54897, 1.54352, 1.55096, 1.56517, 1.55778, 1.52992, 1.52112, 1.51834, 1.51092, 1.50651, 1.50416, 1.50066, 1.49366, 1.49133, 1.4861, 1.48252, 1.50338, 1.47849, 1.47736, 1.47076, 1.47715, 1.44509, 1.49844, 1.54775, 1.74818, 1.62482, 1.44927, 1.4289, 1.44401, 1.43415, 1.4302, 1.42759, 1.41463, 1.41134, 1.40914, 1.40399, 1.40173, 1.40032, 1.39112, 1.3904, 1.38562, 1.38284, 1.37888, 1.3759, 1.3694, 1.3675, 1.36169, 1.35338, 1.34751, 1.3479, 1.35109, 1.35337, 1.35311, 1.34769, 1.34507, 1.34168, 1.34136, 1.34294, 1.34084, 1.3563, 1.36397, 1.37813, 1.38271, 1.36819, 1.32612, 1.32314, 1.31076, 1.31423, 1.31008, 1.298, 1.29787, 1.29196, 
1.63554, 1.64465, 1.67153, 1.62148, 1.61766, 1.61923, 1.60973, 1.61087, 1.58917, 1.63434, 1.66518, 1.69497, 1.70013, 1.71147, 1.58506, 1.57124, 1.56209, 1.55238, 1.54684, 1.55418, 1.54027, 1.54839, 1.52703, 1.52447, 1.52112, 1.51324, 1.50933, 1.50671, 1.50103, 1.49663, 1.49347, 1.48884, 1.51746, 1.48677, 1.47995, 1.47812, 1.47195, 1.4697, 1.45094, 1.53093, 1.59137, 1.73408, 1.64868, 1.49236, 1.44776, 1.44797, 1.44467, 1.42753, 1.42383, 1.43083, 1.41145, 1.4104, 1.40742, 1.40482, 1.39629, 1.39383, 1.38986, 1.38836, 1.38598, 1.39126, 1.37807, 1.37442, 1.36692, 1.35984, 1.35533, 1.35048, 1.34789, 1.35009, 1.35105, 1.34735, 1.34362, 1.34037, 1.34646, 1.3402, 1.35723, 1.36221, 1.35749, 1.37758, 1.38325, 1.38554, 1.3807, 1.32058, 1.32047, 1.31328, 1.30765, 1.315, 1.2994, 1.29779, 1.2978, 
1.63845, 1.64339, 1.64549, 1.64198, 1.62089, 1.61697, 1.61073, 1.61012, 1.60334, 1.64034, 1.67527, 1.68958, 1.73426, 1.69993, 1.57009, 1.57166, 1.56349, 1.56677, 1.54734, 1.54535, 1.55643, 1.56123, 1.53117, 1.5404, 1.5268, 1.51995, 1.5133, 1.50914, 1.5038, 1.49875, 1.49495, 1.49141, 1.49097, 1.48918, 1.48594, 1.48206, 1.47584, 1.48021, 1.44473, 1.51406, 1.55509, 1.70945, 1.65091, 1.52338, 1.45432, 1.44722, 1.44161, 1.43019, 1.42322, 1.42241, 1.41569, 1.41133, 1.40779, 1.40344, 1.40248, 1.39606, 1.39344, 1.39139, 1.39206, 1.38676, 1.38346, 1.37756, 1.36904, 1.36328, 1.35916, 1.354, 1.35305, 1.35033, 1.34763, 1.34347, 1.34256, 1.34343, 1.34067, 1.34145, 1.34498, 1.33961, 1.37091, 1.38475, 1.38666, 1.40724, 1.35876, 1.33252, 1.33437, 1.31431, 1.30627, 1.29917, 1.29619, 1.29576, 1.29909, 
1.63985, 1.63586, 1.63306, 1.63585, 1.63127, 1.63356, 1.62699, 1.62511, 1.60988, 1.62426, 1.65887, 1.64492, 1.73178, 1.71989, 1.60759, 1.58277, 1.56742, 1.56222, 1.55242, 1.54479, 1.55835, 1.56057, 1.54474, 1.53439, 1.52639, 1.52118, 1.51606, 1.51217, 1.50725, 1.49968, 1.4952, 1.49317, 1.49171, 1.48701, 1.48427, 1.47825, 1.47466, 1.48506, 1.47807, 1.48833, 1.63303, 1.70362, 1.70665, 1.62021, 1.42706, 1.45251, 1.44177, 1.42962, 1.42371, 1.41811, 1.41817, 1.41469, 1.41365, 1.41102, 1.40683, 1.3999, 1.39723, 1.39538, 1.39445, 1.39116, 1.38679, 1.3824, 1.37749, 1.37261, 1.362, 1.35972, 1.3551, 1.35627, 1.35008, 1.34685, 1.34534, 1.34414, 1.35013, 1.34194, 1.3563, 1.33642, 1.36995, 1.38794, 1.39221, 1.38614, 1.43308, 1.31887, 1.32146, 1.31993, 1.31128, 1.31541, 1.3008, 1.29672, 1.30175, 
1.64224, 1.64048, 1.62748, 1.65294, 1.6301, 1.62038, 1.61136, 1.61847, 1.60129, 1.69008, 1.66492, 1.70044, 1.77395, 1.73955, 1.55136, 1.57584, 1.58698, 1.56147, 1.55118, 1.54719, 1.5438, 1.55503, 1.54489, 1.53588, 1.52877, 1.52562, 1.51903, 1.51905, 1.50932, 1.50231, 1.49824, 1.49404, 1.48932, 1.48873, 1.48612, 1.48187, 1.47386, 1.48592, 1.47297, 1.49625, 1.57743, 1.71594, 1.61967, 1.44995, 1.42673, 1.44771, 1.44024, 1.44861, 1.42614, 1.41924, 1.41752, 1.41662, 1.41132, 1.40959, 1.40569, 1.4015, 1.39777, 1.39286, 1.39179, 1.39236, 1.39131, 1.38802, 1.38335, 1.37455, 1.36752, 1.36362, 1.35891, 1.35433, 1.3519, 1.35326, 1.34986, 1.34656, 1.3443, 1.34007, 1.34571, 1.34064, 1.36754, 1.38322, 1.40876, 1.39637, 1.38547, 1.29758, 1.32958, 1.31697, 1.31283, 1.3119, 1.30235, 1.32204, 1.29839, 
1.64417, 1.63832, 1.63752, 1.65037, 1.62803, 1.62799, 1.61626, 1.62622, 1.59572, 1.62787, 1.65477, 1.73428, 1.74363, 1.70838, 1.62331, 1.58164, 1.58087, 1.55604, 1.55115, 1.54526, 1.53867, 1.55278, 1.55766, 1.5365, 1.54149, 1.5232, 1.52116, 1.51967, 1.50787, 1.50351, 1.49885, 1.49475, 1.49016, 1.48668, 1.48463, 1.48039, 1.47499, 1.47373, 1.48531, 1.45327, 1.63307, 1.70015, 1.69877, 1.57455, 1.40888, 1.45363, 1.43775, 1.43274, 1.42501, 1.42031, 1.41786, 1.41688, 1.41173, 1.40991, 1.4057, 1.40192, 1.39232, 1.39138, 1.39162, 1.3919, 1.39215, 1.38917, 1.38186, 1.37526, 1.37367, 1.37054, 1.36092, 1.36022, 1.35813, 1.35885, 1.35342, 1.35322, 1.3443, 1.34141, 1.34458, 1.34117, 1.36364, 1.3793, 1.38651, 1.40619, 1.36885, 1.33921, 1.34454, 1.32398, 1.31287, 1.31296, 1.30143, 1.30882, 1.29868, 
1.64732, 1.64424, 1.64569, 1.66639, 1.64696, 1.63416, 1.6174, 1.61445, 1.60188, 1.63366, 1.70311, 1.70761, 1.75572, 1.73813, 1.57329, 1.57661, 1.57556, 1.5639, 1.55332, 1.54785, 1.54405, 1.55538, 1.55557, 1.54394, 1.53777, 1.52418, 1.52007, 1.51555, 1.50926, 1.50155, 1.49975, 1.49674, 1.49259, 1.48788, 1.48644, 1.48039, 1.47725, 1.47762, 1.47272, 1.45507, 1.61549, 1.66857, 1.67435, 1.48499, 1.42972, 1.45423, 1.44426, 1.4265, 1.42421, 1.42065, 1.4165, 1.4147, 1.41109, 1.41664, 1.40423, 1.4021, 1.39515, 1.39251, 1.39131, 1.39002, 1.38854, 1.39471, 1.38176, 1.38153, 1.37794, 1.37133, 1.36782, 1.36354, 1.36367, 1.36264, 1.36096, 1.35184, 1.34289, 1.34269, 1.35956, 1.33054, 1.38375, 1.38429, 1.42304, 1.47673, 1.40257, 1.30237, 1.32627, 1.3191, 1.31188, 1.30881, 1.30269, 1.29964, 1.29636, 
1.65203, 1.64818, 1.65534, 1.6451, 1.64634, 1.62825, 1.62794, 1.62405, 1.59499, 1.62464, 1.69754, 1.73742, 1.77878, 1.72376, 1.58584, 1.58569, 1.58366, 1.57799, 1.55975, 1.5561, 1.55081, 1.53841, 1.54861, 1.54411, 1.53833, 1.52838, 1.52591, 1.51985, 1.5147, 1.51024, 1.50597, 1.5018, 1.49843, 1.49328, 1.48845, 1.48159, 1.47984, 1.4801, 1.48679, 1.48511, 1.57189, 1.68978, 1.66389, 1.35524, 1.40522, 1.44501, 1.44186, 1.4371, 1.42532, 1.41958, 1.41479, 1.41298, 1.41313, 1.41076, 1.40628, 1.40322, 1.39975, 1.39381, 1.3922, 1.38907, 1.39087, 1.38473, 1.38363, 1.38186, 1.37658, 1.36916, 1.365, 1.36555, 1.36441, 1.36422, 1.36177, 1.359, 1.35685, 1.34763, 1.34855, 1.34216, 1.36196, 1.38858, 1.39941, 1.41815, 1.4053, 1.3116, 1.34725, 1.31711, 1.31638, 1.31295, 1.3093, 1.31038, 1.30207, 
1.6544, 1.6515, 1.64506, 1.65263, 1.6491, 1.63745, 1.61926, 1.61662, 1.60566, 1.61018, 1.68082, 1.73742, 1.74599, 1.71627, 1.58149, 1.58601, 1.57327, 1.5689, 1.56174, 1.55257, 1.55005, 1.54762, 1.55335, 1.54084, 1.53122, 1.52753, 1.52365, 1.52056, 1.51635, 1.51074, 1.50889, 1.50349, 1.49913, 1.49341, 1.4884, 1.48545, 1.48104, 1.47757, 1.4755, 1.49654, 1.61945, 1.66666, 1.67828, 1.6002, 1.42096, 1.4507, 1.44624, 1.42856, 1.42646, 1.42659, 1.41739, 1.41352, 1.41207, 1.41076, 1.40851, 1.40285, 1.39839, 1.39686, 1.39198, 1.39112, 1.38832, 1.38796, 1.38302, 1.3816, 1.3753, 1.37119, 1.36936, 1.36695, 1.36502, 1.36279, 1.36051, 1.35678, 1.35559, 1.35066, 1.35769, 1.34519, 1.37141, 1.39536, 1.39175, 1.4417, 1.42013, 1.33717, 1.33761, 1.32797, 1.31753, 1.32798, 1.32693, 1.30513, 1.30277, 
1.65258, 1.64778, 1.64717, 1.65123, 1.64959, 1.63403, 1.62585, 1.61998, 1.62452, 1.59972, 1.67379, 1.70358, 1.71799, 1.70775, 1.61888, 1.59582, 1.57594, 1.57279, 1.56618, 1.56485, 1.55771, 1.55159, 1.56444, 1.55292, 1.53439, 1.52819, 1.52352, 1.52175, 1.51891, 1.51244, 1.50924, 1.50508, 1.49915, 1.49621, 1.49074, 1.48785, 1.48217, 1.48897, 1.47912, 1.5194, 1.60421, 1.67659, 1.68256, 1.5885, 1.41346, 1.44351, 1.43445, 1.43029, 1.42914, 1.42556, 1.42262, 1.41677, 1.41614, 1.41277, 1.40994, 1.40495, 1.40215, 1.39873, 1.39447, 1.39152, 1.38893, 1.38661, 1.38543, 1.38477, 1.37645, 1.37431, 1.36911, 1.36785, 1.36691, 1.36448, 1.36004, 1.35738, 1.35869, 1.35555, 1.35522, 1.34547, 1.37114, 1.40496, 1.43419, 1.45071, 1.44565, 1.33134, 1.33444, 1.33082, 1.31088, 1.30904, 1.30582, 1.30311, 1.30471, 
1.65525, 1.64735, 1.64208, 1.63827, 1.65137, 1.66118, 1.63207, 1.63293, 1.61355, 1.60806, 1.71894, 1.75593, 1.79159, 1.75504, 1.56625, 1.5901, 1.5858, 1.57567, 1.57287, 1.56492, 1.57532, 1.55378, 1.56924, 1.56592, 1.53893, 1.54422, 1.52696, 1.52189, 1.52114, 1.51682, 1.51194, 1.5091, 1.50326, 1.49729, 1.49101, 1.4894, 1.4867, 1.49377, 1.49247, 1.46488, 1.57644, 1.69839, 1.69233, 1.53071, 1.4237, 1.44808, 1.45212, 1.43525, 1.43299, 1.42987, 1.42597, 1.42098, 1.41784, 1.41576, 1.41554, 1.41181, 1.4053, 1.40093, 1.39963, 1.39744, 1.39218, 1.39127, 1.38809, 1.38464, 1.37895, 1.37505, 1.37163, 1.36782, 1.37134, 1.36767, 1.36214, 1.36192, 1.358, 1.35792, 1.35912, 1.35354, 1.36376, 1.39898, 1.44068, 1.44552, 1.47952, 1.31371, 1.3367, 1.36492, 1.31683, 1.30977, 1.30798, 1.30354, 1.30558, 
1.65374, 1.65045, 1.64308, 1.64008, 1.64743, 1.67151, 1.65492, 1.63184, 1.63648, 1.64767, 1.70409, 1.75998, 1.78163, 1.76502, 1.62025, 1.61032, 1.6, 1.58951, 1.58278, 1.56577, 1.56163, 1.56473, 1.55479, 1.558, 1.55389, 1.53798, 1.53653, 1.52425, 1.52273, 1.51565, 1.513, 1.51254, 1.50261, 1.49845, 1.49272, 1.49281, 1.4882, 1.48429, 1.48679, 1.47152, 1.59179, 1.66804, 1.67233, 1.63152, 1.42774, 1.46784, 1.44783, 1.44295, 1.43721, 1.43077, 1.42877, 1.42378, 1.41978, 1.41988, 1.41693, 1.41386, 1.40988, 1.4121, 1.40171, 1.40668, 1.39615, 1.39372, 1.39071, 1.38657, 1.38248, 1.37712, 1.37495, 1.37285, 1.36977, 1.36649, 1.3689, 1.36341, 1.36076, 1.35701, 1.361, 1.37076, 1.37505, 1.41532, 1.43279, 1.43921, 1.44835, 1.34654, 1.34494, 1.34053, 1.33323, 1.31677, 1.31362, 1.31233, 1.30571, 
1.66437, 1.6558, 1.64795, 1.64533, 1.65455, 1.64696, 1.65113, 1.63691, 1.63313, 1.65745, 1.65964, 1.73799, 1.7587, 1.73896, 1.56813, 1.59179, 1.5971, 1.57599, 1.57138, 1.56831, 1.56288, 1.57169, 1.55603, 1.56174, 1.56964, 1.53614, 1.53135, 1.52411, 1.51878, 1.51412, 1.51239, 1.50886, 1.5053, 1.5009, 1.5036, 1.49188, 1.4892, 1.48646, 1.48796, 1.45475, 1.58553, 1.69278, 1.69494, 1.63986, 1.45162, 1.47124, 1.46137, 1.44892, 1.43946, 1.43708, 1.42778, 1.42628, 1.42108, 1.41929, 1.418, 1.41457, 1.41097, 1.40894, 1.40714, 1.40411, 1.40061, 1.39652, 1.39098, 1.3857, 1.38109, 1.37444, 1.37332, 1.36987, 1.36699, 1.36264, 1.36206, 1.35924, 1.35815, 1.35633, 1.35711, 1.34966, 1.40712, 1.42461, 1.44324, 1.45227, 1.432, 1.37925, 1.33655, 1.33675, 1.31962, 1.31641, 1.3232, 1.31261, 1.30958, 
1.66462, 1.65849, 1.65354, 1.64781, 1.65129, 1.65524, 1.6518, 1.63978, 1.64102, 1.64215, 1.74357, 1.73699, 1.75629, 1.74943, 1.65869, 1.5995, 1.60886, 1.57624, 1.57318, 1.57169, 1.58201, 1.56223, 1.56067, 1.56746, 1.55912, 1.53982, 1.53311, 1.52873, 1.5217, 1.51835, 1.5147, 1.51164, 1.50602, 1.51375, 1.49749, 1.49555, 1.49254, 1.48805, 1.48892, 1.45428, 1.56591, 1.67592, 1.69019, 1.58604, 1.45227, 1.46761, 1.45888, 1.4589, 1.44563, 1.43554, 1.43063, 1.42484, 1.42344, 1.41836, 1.41847, 1.41658, 1.41273, 1.40984, 1.4061, 1.40311, 1.4017, 1.39952, 1.38778, 1.38286, 1.37805, 1.37515, 1.37006, 1.36764, 1.36601, 1.36196, 1.36013, 1.3593, 1.36377, 1.35456, 1.36815, 1.34633, 1.39482, 1.43371, 1.44253, 1.45391, 1.44714, 1.40525, 1.35108, 1.33383, 1.33063, 1.31781, 1.31426, 1.31222, 1.30997, 
1.66779, 1.65976, 1.65481, 1.64983, 1.65004, 1.66142, 1.64982, 1.64836, 1.62285, 1.60573, 1.65896, 1.73036, 1.77107, 1.75142, 1.62478, 1.59754, 1.59341, 1.5857, 1.58504, 1.58224, 1.56333, 1.55974, 1.56529, 1.5579, 1.57154, 1.54222, 1.53981, 1.53435, 1.52597, 1.5235, 1.52653, 1.5144, 1.50934, 1.50704, 1.50116, 1.49769, 1.49502, 1.49689, 1.49043, 1.45106, 1.61121, 1.65577, 1.67214, 1.59162, 1.43446, 1.47896, 1.47451, 1.46118, 1.45028, 1.4391, 1.43632, 1.43311, 1.42604, 1.42388, 1.42095, 1.4191, 1.41423, 1.41226, 1.4088, 1.41196, 1.4027, 1.40039, 1.39252, 1.38962, 1.38318, 1.37992, 1.373, 1.37084, 1.36731, 1.36153, 1.36063, 1.3607, 1.35773, 1.35842, 1.35965, 1.34796, 1.36677, 1.45872, 1.50637, 1.44346, 1.43921, 1.39293, 1.34239, 1.33038, 1.32363, 1.33058, 1.31718, 1.3201, 1.31459, 
1.66902, 1.66101, 1.65787, 1.65243, 1.65268, 1.65909, 1.67274, 1.63509, 1.63654, 1.62738, 1.71896, 1.7898, 1.79711, 1.77178, 1.68265, 1.59219, 1.59344, 1.57843, 1.57137, 1.57072, 1.5657, 1.56115, 1.57204, 1.57487, 1.59945, 1.54343, 1.53712, 1.53682, 1.52719, 1.52673, 1.51927, 1.51625, 1.51092, 1.50641, 1.50553, 1.4954, 1.51319, 1.507, 1.49169, 1.46049, 1.56133, 1.63608, 1.68751, 1.6419, 1.43667, 1.4748, 1.46783, 1.45838, 1.45077, 1.45466, 1.43834, 1.43431, 1.42945, 1.42646, 1.42349, 1.4203, 1.41465, 1.41334, 1.40944, 1.40915, 1.40528, 1.4001, 1.39708, 1.39173, 1.39144, 1.38118, 1.37603, 1.37156, 1.36963, 1.36419, 1.36352, 1.37866, 1.36759, 1.36251, 1.37153, 1.37899, 1.437, 1.4512, 1.47957, 1.45447, 1.43313, 1.37478, 1.34716, 1.33796, 1.32492, 1.32205, 1.31855, 1.314, 1.31413, 
1.6695, 1.66577, 1.66059, 1.65182, 1.65173, 1.66821, 1.6714, 1.63938, 1.63717, 1.61897, 1.70539, 1.76792, 1.81389, 1.80559, 1.61323, 1.59893, 1.5966, 1.59896, 1.57625, 1.5721, 1.56776, 1.56749, 1.55807, 1.59383, 1.57893, 1.54393, 1.53767, 1.53649, 1.53177, 1.53029, 1.52391, 1.51784, 1.51521, 1.51177, 1.50884, 1.50074, 1.49832, 1.4966, 1.50411, 1.4927, 1.5888, 1.63085, 1.67496, 1.5468, 1.49737, 1.46606, 1.46556, 1.46874, 1.454, 1.44893, 1.44476, 1.43944, 1.43144, 1.42865, 1.4276, 1.425, 1.41727, 1.41425, 1.41336, 1.40928, 1.40541, 1.39959, 1.39667, 1.39329, 1.38916, 1.38508, 1.37747, 1.37493, 1.37275, 1.36911, 1.36783, 1.36432, 1.36744, 1.36502, 1.37236, 1.36834, 1.39983, 1.45367, 1.46028, 1.46413, 1.44387, 1.35901, 1.33064, 1.32927, 1.32618, 1.32343, 1.33884, 1.31734, 1.31724, 
1.67138, 1.66462, 1.65966, 1.65343, 1.64901, 1.66285, 1.66016, 1.64079, 1.63542, 1.65103, 1.67431, 1.73584, 1.81751, 1.79658, 1.68985, 1.59876, 1.59619, 1.58536, 1.58019, 1.58939, 1.58435, 1.56664, 1.56266, 1.56952, 1.56859, 1.56243, 1.54401, 1.53748, 1.53434, 1.53033, 1.52718, 1.52361, 1.5195, 1.50914, 1.51015, 1.51271, 1.50019, 1.51714, 1.49917, 1.47817, 1.59659, 1.68659, 1.66331, 1.63711, 1.48848, 1.4922, 1.47154, 1.46499, 1.46106, 1.45232, 1.44831, 1.44145, 1.43913, 1.43612, 1.43123, 1.42795, 1.42286, 1.41959, 1.41502, 1.40966, 1.40913, 1.32353, 1.40183, 1.39592, 1.3897, 1.38695, 1.38264, 1.3868, 1.37379, 1.37307, 1.36893, 1.37036, 1.36966, 1.37901, 1.37288, 1.37126, 1.39165, 1.46771, 1.45935, 1.45416, 1.4145, 1.38498, 1.33399, 1.3323, 1.33727, 1.32739, 1.3257, 1.32042, 1.32701, 
1.66786, 1.66287, 1.65661, 1.64968, 1.65824, 1.64654, 1.66173, 1.65208, 1.64067, 1.63747, 1.72735, 1.78036, 1.7798, 1.76741, 1.57898, 1.59678, 1.59696, 1.58549, 1.59579, 1.57539, 1.57312, 1.56815, 1.56594, 1.55857, 1.56716, 1.55964, 1.5416, 1.5364, 1.53368, 1.53298, 1.52528, 1.5227, 1.52047, 1.51127, 1.5071, 1.5037, 1.51862, 1.50034, 1.50968, 1.47459, 1.59874, 1.65936, 1.67896, 1.57178, 1.43582, 1.47142, 1.47582, 1.45985, 1.45178, 1.4499, 1.44498, 1.43959, 1.4383, 1.4358, 1.43241, 1.42804, 1.42524, 1.41946, 1.41455, 1.4161, 1.40904, 1.40646, 1.40405, 1.39619, 1.39156, 1.38829, 1.38444, 1.3816, 1.37846, 1.37542, 1.37915, 1.37177, 1.37027, 1.37432, 1.37953, 1.37534, 1.40631, 1.46025, 1.46039, 1.46942, 1.45651, 1.41117, 1.34687, 1.34115, 1.3336, 1.32968, 1.32409, 1.32307, 1.32442, 
1.66733, 1.6612, 1.65857, 1.66143, 1.6451, 1.65509, 1.67139, 1.65328, 1.62781, 1.60351, 1.69874, 1.80399, 1.80548, 1.79745, 1.63681, 1.60591, 1.59608, 1.58663, 1.58214, 1.57583, 1.56975, 1.56527, 1.5641, 1.55948, 1.5564, 1.57594, 1.54358, 1.5357, 1.53643, 1.53094, 1.52646, 1.52068, 1.51339, 1.50775, 1.50277, 1.49951, 1.49644, 1.4963, 1.50626, 1.49361, 1.58926, 1.6646, 1.6809, 1.63867, 1.42691, 1.46727, 1.461, 1.45363, 1.44992, 1.44409, 1.43953, 1.43687, 1.43599, 1.45057, 1.42945, 1.42561, 1.42326, 1.42033, 1.41633, 1.41274, 1.41033, 1.4062, 1.40566, 1.40073, 1.39356, 1.39131, 1.38801, 1.38486, 1.37966, 1.37508, 1.38078, 1.37255, 1.3691, 1.37744, 1.3859, 1.37875, 1.36629, 1.45848, 1.46972, 1.47145, 1.47597, 1.40512, 1.35375, 1.33382, 1.33926, 1.33173, 1.32911, 1.32878, 1.32439, 
1.66705, 1.67653, 1.6593, 1.65005, 1.65401, 1.66628, 1.65102, 1.6594, 1.63387, 1.63412, 1.68791, 1.79062, 1.83891, 1.77865, 1.69974, 1.60491, 1.58675, 1.58355, 1.5789, 1.57977, 1.56758, 1.5694, 1.56119, 1.56368, 1.55361, 1.55864, 1.56121, 1.53338, 1.55145, 1.54765, 1.53783, 1.516, 1.51128, 1.50524, 1.51938, 1.50776, 1.5127, 1.49613, 1.49911, 1.48217, 1.60902, 1.68297, 1.69032, 1.57268, 1.50848, 1.48562, 1.4682, 1.46734, 1.45086, 1.43946, 1.43469, 1.43641, 1.43204, 1.42822, 1.42366, 1.42346, 1.42358, 1.42596, 1.41465, 1.41839, 1.40841, 1.40663, 1.40294, 1.40996, 1.39706, 1.39234, 1.38772, 1.38291, 1.38102, 1.37812, 1.37295, 1.37434, 1.37508, 1.3722, 1.37846, 1.3603, 1.36815, 1.47428, 1.44408, 1.48486, 1.48942, 1.41504, 1.3313, 1.33849, 1.33284, 1.33259, 1.33358, 1.32738, 1.32473, 
1.67225, 1.66625, 1.66204, 1.65147, 1.6453, 1.64053, 1.6405, 1.66339, 1.639, 1.60215, 1.69571, 1.79416, 1.80985, 1.8029, 1.70045, 1.60604, 1.58909, 1.58347, 1.5758, 1.57371, 1.56482, 1.56232, 1.56194, 1.55592, 1.55462, 1.5475, 1.55563, 1.54483, 1.52878, 1.5297, 1.54469, 1.51542, 1.51618, 1.49971, 1.49706, 1.5058, 1.49717, 1.50483, 1.49548, 1.47161, 1.52005, 1.65609, 1.61807, 1.61412, 1.48484, 1.45526, 1.46421, 1.44846, 1.44039, 1.43723, 1.43336, 1.43025, 1.43172, 1.42833, 1.42257, 1.42057, 1.41796, 1.41815, 1.41413, 1.41146, 1.40878, 1.40585, 1.40345, 1.40232, 1.40649, 1.395, 1.39237, 1.38246, 1.37924, 1.37597, 1.38235, 1.37183, 1.3782, 1.36508, 1.36849, 1.37185, 1.38541, 1.41508, 1.47244, 1.49997, 1.47888, 1.42619, 1.35066, 1.34959, 1.35779, 1.33341, 1.33082, 1.32375, 1.31916, 
1.67185, 1.66347, 1.66024, 1.65581, 1.65054, 1.64373, 1.64026, 1.65531, 1.63697, 1.62371, 1.67612, 1.78312, 1.81625, 1.81087, 1.67605, 1.61345, 1.5852, 1.58943, 1.58275, 1.57472, 1.56798, 1.56404, 1.56123, 1.55203, 1.54858, 1.54183, 1.57175, 1.53135, 1.52943, 1.52961, 1.54196, 1.51937, 1.51069, 1.49792, 1.49289, 1.48701, 1.48814, 1.49608, 1.49298, 1.48774, 1.59539, 1.66539, 1.6138, 1.6085, 1.49343, 1.46477, 1.46053, 1.46695, 1.44066, 1.43684, 1.43456, 1.43165, 1.42845, 1.42509, 1.42223, 1.41579, 1.41446, 1.41702, 1.41281, 1.40982, 1.40579, 1.40222, 1.4015, 1.3979, 1.39195, 1.38899, 1.38555, 1.37949, 1.37586, 1.37302, 1.37073, 1.37096, 1.36801, 1.36397, 1.36558, 1.37207, 1.43431, 1.4846, 1.4768, 1.50267, 1.50578, 1.38692, 1.31107, 1.34039, 1.33355, 1.33002, 1.32829, 1.3215, 1.31764, 
1.68083, 1.6778, 1.6702, 1.66483, 1.66082, 1.65724, 1.6599, 1.65518, 1.65203, 1.61716, 1.62507, 1.81807, 1.80978, 1.81488, 1.72378, 1.60245, 1.5997, 1.59307, 1.5849, 1.57957, 1.5766, 1.57354, 1.57189, 1.56334, 1.56089, 1.55517, 1.56136, 1.55084, 1.54067, 1.535, 1.53288, 1.52574, 1.51433, 1.50937, 1.50692, 1.49859, 1.49311, 1.50943, 1.51041, 1.50969, 1.57806, 1.64296, 1.65183, 1.61494, 1.4715, 1.45812, 1.46509, 1.47063, 1.45291, 1.4443, 1.4433, 1.43861, 1.43507, 1.42952, 1.42449, 1.4206, 1.42109, 1.42276, 1.42085, 1.41385, 1.40959, 1.40937, 1.40379, 1.40182, 1.39395, 1.39176, 1.39074, 1.3876, 1.37838, 1.3794, 1.37598, 1.39164, 1.38156, 1.36989, 1.37463, 1.36739, 1.39605, 1.43654, 1.49187, 1.51641, 1.4854, 1.40247, 1.36076, 1.36509, 1.34614, 1.3469, 1.33216, 1.32947, 1.3224, 
1.68358, 1.67768, 1.67176, 1.67005, 1.66503, 1.66226, 1.66296, 1.65678, 1.65498, 1.61449, 1.67124, 1.72879, 1.83718, 1.84871, 1.71796, 1.60706, 1.60928, 1.59924, 1.59813, 1.58332, 1.57954, 1.57827, 1.57523, 1.5677, 1.55812, 1.55696, 1.56823, 1.56416, 1.54243, 1.53875, 1.53067, 1.53011, 1.52416, 1.51773, 1.51483, 1.51174, 1.50842, 1.50951, 1.52298, 1.5114, 1.58421, 1.62041, 1.64856, 1.61925, 1.49995, 1.45157, 1.48578, 1.46914, 1.46922, 1.46273, 1.45561, 1.4475, 1.44162, 1.43406, 1.42951, 1.42826, 1.43304, 1.43372, 1.42782, 1.4187, 1.41801, 1.41748, 1.41369, 1.4142, 1.40027, 1.40269, 1.39842, 1.39693, 1.38679, 1.38569, 1.3824, 1.40402, 1.37668, 1.37532, 1.38246, 1.36578, 1.42424, 1.45682, 1.49558, 1.50834, 1.51905, 1.45664, 1.33786, 1.35776, 1.34654, 1.33693, 1.34023, 1.33713, 1.32862, 
1.67909, 1.67455, 1.65635, 1.65513, 1.65975, 1.6576, 1.65443, 1.65849, 1.64657, 1.61054, 1.70233, 1.77532, 1.84632, 1.80797, 1.65756, 1.59996, 1.59621, 1.60267, 1.58254, 1.57125, 1.56743, 1.57023, 1.56436, 1.55423, 1.56123, 1.55438, 1.5642, 1.55712, 1.54338, 1.52778, 1.52684, 1.54445, 1.52225, 1.5137, 1.50995, 1.51205, 1.50775, 1.50281, 1.50835, 1.4707, 1.56811, 1.66122, 1.67179, 1.60929, 1.49645, 1.46057, 1.47141, 1.49512, 1.46669, 1.4562, 1.45301, 1.46004, 1.45395, 1.44399, 1.42733, 1.42538, 1.43205, 1.42969, 1.43717, 1.41378, 1.41464, 1.41274, 1.40812, 1.40395, 1.40312, 1.39907, 1.39268, 1.39846, 1.38527, 1.38657, 1.38198, 1.37316, 1.38779, 1.37481, 1.37521, 1.37787, 1.40823, 1.47394, 1.49236, 1.48476, 1.54916, 1.45175, 1.34671, 1.34752, 1.33995, 1.34033, 1.33517, 1.32961, 1.32367, 
1.67494, 1.67559, 1.65602, 1.6462, 1.64487, 1.65521, 1.65357, 1.63393, 1.64328, 1.60161, 1.68851, 1.78306, 1.83318, 1.83108, 1.71025, 1.60562, 1.617, 1.59266, 1.59884, 1.56541, 1.56427, 1.56895, 1.56252, 1.54592, 1.54499, 1.54685, 1.54367, 1.56917, 1.53881, 1.5293, 1.52911, 1.52759, 1.52944, 1.50494, 1.50109, 1.50716, 1.50229, 1.49595, 1.49773, 1.48299, 1.49412, 1.62382, 1.63981, 1.63193, 1.51203, 1.46527, 1.47202, 1.47172, 1.47139, 1.45037, 1.45346, 1.4509, 1.43834, 1.43413, 1.41902, 1.41269, 1.42993, 1.4281, 1.41103, 1.40214, 1.39509, 1.39995, 1.39803, 1.39326, 1.39139, 1.37726, 1.37408, 1.37452, 1.37723, 1.37652, 1.37247, 1.36211, 1.36002, 1.36076, 1.37033, 1.37508, 1.40937, 1.47433, 1.4882, 1.49701, 1.4906, 1.43949, 1.35646, 1.36787, 1.33744, 1.34082, 1.34422, 1.31783, 1.30659, 
1.68147, 1.67196, 1.66726, 1.70267, 1.67184, 1.66114, 1.65651, 1.63996, 1.64356, 1.63379, 1.68253, 1.71673, 1.89685, 1.89596, 1.64205, 1.62005, 1.61764, 1.60424, 1.59058, 1.5831, 1.57595, 1.59226, 1.57247, 1.56037, 1.55157, 1.54879, 1.54867, 1.55531, 1.54731, 1.54101, 1.53598, 1.53075, 1.53438, 1.52379, 1.51333, 1.51657, 1.52007, 1.51703, 1.52737, 1.49635, 1.61826, 1.64261, 1.65932, 1.65546, 1.53465, 1.46215, 1.46437, 1.48758, 1.47175, 1.47822, 1.46463, 1.44825, 1.43722, 1.42914, 1.42628, 1.42483, 1.43286, 1.44082, 1.41587, 1.40419, 1.39858, 1.39501, 1.39039, 1.38823, 1.38691, 1.38019, 1.37771, 1.38245, 1.38458, 1.38967, 1.38218, 1.36774, 1.36058, 1.36413, 1.36469, 1.38344, 1.352, 1.45411, 1.47152, 1.51073, 1.48257, 1.40945, 1.35055, 1.35724, 1.34821, 1.34139, 1.33645, 1.31986, 1.31622, 
1.68415, 1.67875, 1.66967, 1.66588, 1.66184, 1.6632, 1.65943, 1.6561, 1.63764, 1.6221, 1.71619, 1.82442, 1.87265, 1.85515, 1.73054, 1.62014, 1.61057, 1.61003, 1.59867, 1.60172, 1.57882, 1.58565, 1.57307, 1.56886, 1.57113, 1.56681, 1.5576, 1.57032, 1.56308, 1.54397, 1.53928, 1.55039, 1.52742, 1.52515, 1.53095, 1.52851, 1.51022, 1.51406, 1.52409, 1.51051, 1.58152, 1.66451, 1.66708, 1.63841, 1.52573, 1.47423, 1.47271, 1.49231, 1.48546, 1.4647, 1.4717, 1.45531, 1.44534, 1.43882, 1.43472, 1.43622, 1.43583, 1.43604, 1.42379, 1.42082, 1.41763, 1.41997, 1.42373, 1.40725, 1.40467, 1.39699, 1.39709, 1.40172, 1.39275, 1.39413, 1.39008, 1.38276, 1.379, 1.39284, 1.38245, 1.3794, 1.36764, 1.46126, 1.51583, 1.50795, 1.49215, 1.43705, 1.3482, 1.35694, 1.348, 1.35723, 1.33668, 1.33172, 1.33252, 
1.67478, 1.66869, 1.66699, 1.65878, 1.65546, 1.64873, 1.6426, 1.65204, 1.64428, 1.63773, 1.72046, 1.78804, 1.85169, 1.88218, 1.66224, 1.60138, 1.60293, 1.59863, 1.59715, 1.58619, 1.57289, 1.56741, 1.56507, 1.56263, 1.55706, 1.55229, 1.54949, 1.55626, 1.55259, 1.53835, 1.54191, 1.52101, 1.51911, 1.51855, 1.51285, 1.52329, 1.50412, 1.5059, 1.50931, 1.49822, 1.5404, 1.62449, 1.64117, 1.62873, 1.54182, 1.45535, 1.4677, 1.48626, 1.49306, 1.46225, 1.44276, 1.4429, 1.43371, 1.43091, 1.42992, 1.43292, 1.42637, 1.42202, 1.4263, 1.4165, 1.4236, 1.41061, 1.41547, 1.40402, 1.39645, 1.39225, 1.38595, 1.39131, 1.38255, 1.38115, 1.3777, 1.37743, 1.37517, 1.39299, 1.38292, 1.37289, 1.36738, 1.48213, 1.52002, 1.51209, 1.50758, 1.45898, 1.35466, 1.34778, 1.35151, 1.3413, 1.3297, 1.34309, 1.32755, 
1.671, 1.66329, 1.65888, 1.65562, 1.65158, 1.64548, 1.6379, 1.63811, 1.6347, 1.62804, 1.67359, 1.77758, 1.83343, 1.83586, 1.72345, 1.59559, 1.59907, 1.59985, 1.58255, 1.56964, 1.56608, 1.55236, 1.5524, 1.55572, 1.55741, 1.5443, 1.54484, 1.54885, 1.55448, 1.52694, 1.52469, 1.51643, 1.51315, 1.51188, 1.51486, 1.50318, 1.5072, 1.50668, 1.50257, 1.47542, 1.56725, 1.60268, 1.6238, 1.61722, 1.56892, 1.45186, 1.46157, 1.46904, 1.46907, 1.46224, 1.44714, 1.44636, 1.42595, 1.43655, 1.43027, 1.42738, 1.42069, 1.41711, 1.41627, 1.40684, 1.4032, 1.40544, 1.39661, 1.39154, 1.38608, 1.38707, 1.37981, 1.37793, 1.37806, 1.37197, 1.37389, 1.37444, 1.38793, 1.36552, 1.36921, 1.37112, 1.38638, 1.4429, 1.48879, 1.52373, 1.5316, 1.44562, 1.35112, 1.34935, 1.34164, 1.3303, 1.32261, 1.33067, 1.33121, 
1.66561, 1.65973, 1.6574, 1.65171, 1.6463, 1.64415, 1.63381, 1.636, 1.63533, 1.60353, 1.63636, 1.78565, 1.8383, 1.86814, 1.77171, 1.57129, 1.59153, 1.57866, 1.57252, 1.58237, 1.57971, 1.55532, 1.5489, 1.54737, 1.54423, 1.54248, 1.55525, 1.54474, 1.53554, 1.525, 1.51771, 1.51578, 1.51062, 1.51333, 1.51806, 1.49288, 1.48877, 1.48715, 1.48883, 1.47053, 1.5642, 1.59569, 1.62054, 1.61636, 1.52835, 1.44459, 1.46181, 1.45863, 1.47459, 1.44187, 1.43654, 1.42668, 1.42454, 1.42475, 1.4252, 1.42534, 1.41806, 1.41271, 1.40689, 1.40846, 1.40717, 1.40898, 1.39773, 1.38763, 1.38205, 1.37825, 1.37283, 1.37086, 1.37021, 1.36745, 1.36826, 1.36672, 1.35826, 1.35539, 1.36483, 1.37588, 1.37517, 1.39301, 1.47711, 1.537, 1.54723, 1.48394, 1.34771, 1.35444, 1.32989, 1.32549, 1.31917, 1.32628, 1.31759, 
1.67637, 1.66904, 1.66612, 1.65803, 1.65162, 1.64901, 1.63876, 1.64381, 1.64344, 1.61695, 1.65877, 1.75763, 1.82493, 1.89038, 1.6716, 1.59215, 1.61184, 1.60451, 1.58572, 1.58593, 1.57202, 1.57836, 1.55999, 1.55798, 1.55095, 1.54407, 1.53889, 1.54032, 1.53948, 1.54878, 1.52756, 1.53324, 1.51762, 1.5133, 1.51514, 1.49972, 1.49689, 1.50372, 1.49504, 1.46053, 1.51266, 1.59927, 1.63402, 1.61333, 1.54724, 1.44472, 1.46879, 1.45877, 1.45872, 1.44512, 1.43534, 1.43569, 1.43353, 1.43123, 1.42807, 1.42339, 1.42004, 1.45792, 1.42252, 1.41061, 1.41984, 1.40826, 1.40002, 1.39487, 1.38973, 1.38575, 1.38132, 1.40603, 1.3761, 1.37738, 1.37904, 1.37833, 1.36569, 1.36783, 1.36683, 1.37875, 1.38574, 1.43054, 1.47032, 1.5409, 1.5447, 1.47836, 1.35, 1.36567, 1.3499, 1.34719, 1.3312, 1.34141, 1.32108, 
1.66219, 1.65939, 1.65295, 1.66243, 1.6454, 1.63734, 1.6272, 1.62096, 1.62415, 1.62009, 1.63849, 1.71417, 1.81456, 1.84985, 1.66319, 1.58642, 1.60669, 1.57644, 1.57413, 1.56592, 1.5618, 1.56649, 1.55773, 1.54182, 1.53956, 1.53443, 1.53017, 1.52353, 1.52082, 1.54034, 1.52831, 1.52232, 1.50862, 1.49988, 1.49152, 1.49041, 1.49464, 1.48846, 1.49192, 1.47779, 1.53741, 1.58105, 1.63505, 1.60651, 1.54679, 1.43367, 1.46025, 1.45521, 1.4679, 1.45375, 1.43239, 1.43641, 1.42684, 1.42611, 1.42355, 1.41251, 1.41042, 1.40905, 1.40734, 1.40378, 1.39919, 1.39674, 1.39342, 1.39052, 1.3816, 1.37663, 1.37537, 1.37212, 1.36998, 1.3669, 1.36561, 1.359, 1.36448, 1.36136, 1.3618, 1.3718, 1.32427, 1.41443, 1.49047, 1.51502, 1.5551, 1.49332, 1.34254, 1.34382, 1.33713, 1.33022, 1.32076, 1.31701, 1.31426, 
1.66095, 1.65676, 1.65063, 1.65487, 1.64042, 1.64894, 1.62691, 1.62462, 1.6115, 1.58878, 1.64318, 1.76203, 1.83021, 1.8187, 1.74141, 1.55006, 1.58111, 1.5756, 1.56891, 1.56292, 1.55831, 1.58128, 1.55454, 1.5489, 1.55843, 1.53723, 1.53055, 1.53707, 1.51308, 1.52979, 1.51674, 1.51475, 1.50591, 1.49489, 1.49311, 1.48882, 1.48911, 1.48055, 1.48882, 1.45326, 1.53973, 1.62666, 1.63261, 1.6245, 1.54846, 1.45251, 1.46477, 1.45547, 1.45716, 1.45758, 1.42856, 1.427, 1.43434, 1.41804, 1.41409, 1.40686, 1.40219, 1.40146, 1.39616, 1.39263, 1.38606, 1.38504, 1.37896, 1.37794, 1.37602, 1.37467, 1.3685, 1.36398, 1.36143, 1.35771, 1.35383, 1.35239, 1.3484, 1.3464, 1.35729, 1.3503, 1.33949, 1.4125, 1.46302, 1.50285, 1.51339, 1.41665, 1.31904, 1.32406, 1.33453, 1.31383, 1.30984, 1.3052, 1.30311, 
1.65815, 1.6519, 1.6549, 1.64516, 1.63791, 1.63622, 1.62507, 1.62046, 1.61494, 1.59222, 1.62059, 1.75168, 1.84424, 1.85339, 1.77247, 1.5546, 1.58534, 1.58244, 1.5685, 1.56164, 1.55604, 1.55414, 1.55017, 1.54493, 1.53914, 1.53193, 1.5278, 1.51913, 1.51603, 1.52996, 1.53638, 1.50634, 1.50263, 1.50062, 1.4952, 1.5002, 1.48637, 1.48544, 1.48698, 1.47518, 1.53591, 1.56902, 1.65202, 1.59382, 1.55583, 1.42969, 1.45127, 1.44917, 1.44772, 1.46397, 1.42571, 1.43063, 1.42007, 1.41503, 1.41118, 1.40578, 1.40066, 1.39756, 1.3931, 1.38877, 1.38639, 1.38082, 1.38106, 1.3793, 1.37438, 1.37148, 1.36692, 1.36428, 1.35982, 1.35773, 1.35458, 1.35346, 1.34645, 1.34215, 1.34103, 1.3448, 1.34039, 1.48492, 1.51928, 1.53371, 1.53059, 1.48132, 1.30705, 1.32572, 1.31275, 1.3102, 1.31309, 1.30879, 1.3021, 
1.66292, 1.6515, 1.64208, 1.63536, 1.63448, 1.62744, 1.62382, 1.61954, 1.62591, 1.62291, 1.70406, 1.7297, 1.87139, 1.87984, 1.68538, 1.5783, 1.58906, 1.57193, 1.56867, 1.56146, 1.55543, 1.55091, 1.54739, 1.54659, 1.5418, 1.5336, 1.52816, 1.52209, 1.51908, 1.51455, 1.53734, 1.5075, 1.50513, 1.50206, 1.49909, 1.49896, 1.49512, 1.48527, 1.49008, 1.45408, 1.48519, 1.70331, 1.61087, 1.61029, 1.58666, 1.43827, 1.46712, 1.45621, 1.45709, 1.47827, 1.44786, 1.42788, 1.42122, 1.41831, 1.41282, 1.40871, 1.40481, 1.40201, 1.39803, 1.39547, 1.39275, 1.39018, 1.3848, 1.38497, 1.38206, 1.37798, 1.37262, 1.3623, 1.36036, 1.36005, 1.37108, 1.35963, 1.35041, 1.34771, 1.35375, 1.34806, 1.31902, 1.44774, 1.4654, 1.51355, 1.51581, 1.3875, 1.33341, 1.32816, 1.31239, 1.31104, 1.3061, 1.30375, 1.30279, 
1.64965, 1.64452, 1.63837, 1.63219, 1.62719, 1.62397, 1.62301, 1.62327, 1.63326, 1.6227, 1.60636, 1.73905, 1.86905, 1.87195, 1.63142, 1.58928, 1.58805, 1.57521, 1.57071, 1.58073, 1.55288, 1.54497, 1.53852, 1.54147, 1.5407, 1.53226, 1.52645, 1.52152, 1.52616, 1.5164, 1.52467, 1.51657, 1.50242, 1.50258, 1.50268, 1.49689, 1.49266, 1.48836, 1.486, 1.47087, 1.52964, 1.57189, 1.60652, 1.60383, 1.53103, 1.46541, 1.45675, 1.44161, 1.4388, 1.45428, 1.44093, 1.45594, 1.44136, 1.41664, 1.41305, 1.41482, 1.40808, 1.40382, 1.40249, 1.39945, 1.39522, 1.39321, 1.3901, 1.3871, 1.38376, 1.37917, 1.37653, 1.36793, 1.36739, 1.36439, 1.36357, 1.35818, 1.35493, 1.35071, 1.35273, 1.36729, 1.34101, 1.43745, 1.4886, 1.51555, 1.51659, 1.4325, 1.34512, 1.33361, 1.31825, 1.31232, 1.32045, 1.31015, 1.30467, 
1.65232, 1.64688, 1.64323, 1.64352, 1.63082, 1.63864, 1.61992, 1.62067, 1.62286, 1.6183, 1.59596, 1.7265, 1.84199, 1.87131, 1.64259, 1.57846, 1.58487, 1.57379, 1.56581, 1.56054, 1.55723, 1.54817, 1.54243, 1.54314, 1.53916, 1.53641, 1.52716, 1.52373, 1.51938, 1.51604, 1.51082, 1.52791, 1.49952, 1.51101, 1.50333, 1.49563, 1.48352, 1.48418, 1.48891, 1.45749, 1.50652, 1.60707, 1.60234, 1.58696, 1.53784, 1.47534, 1.44672, 1.43395, 1.43269, 1.45171, 1.44405, 1.43106, 1.42026, 1.43004, 1.41313, 1.41363, 1.40865, 1.4044, 1.39985, 1.39615, 1.39468, 1.39377, 1.39062, 1.38715, 1.37926, 1.3777, 1.37257, 1.36638, 1.36262, 1.36091, 1.35781, 1.35503, 1.35693, 1.35196, 1.34659, 1.36501, 1.36105, 1.45104, 1.47022, 1.54355, 1.54334, 1.49399, 1.33298, 1.3274, 1.31564, 1.31286, 1.31065, 1.30829, 1.32641, 
1.6598, 1.6532, 1.6525, 1.64772, 1.64825, 1.63392, 1.63503, 1.62541, 1.62006, 1.62084, 1.5854, 1.68993, 1.86266, 1.91573, 1.61508, 1.58781, 1.58867, 1.57336, 1.56769, 1.56876, 1.55627, 1.55341, 1.54715, 1.54367, 1.53893, 1.53397, 1.52957, 1.52527, 1.52174, 1.51601, 1.53005, 1.51472, 1.50796, 1.50919, 1.49211, 1.49902, 1.48854, 1.48055, 1.48851, 1.48482, 1.5298, 1.53048, 1.60295, 1.58039, 1.56574, 1.47473, 1.43463, 1.44793, 1.43327, 1.44124, 1.46065, 1.43124, 1.41965, 1.42259, 1.41261, 1.41026, 1.40538, 1.40077, 1.39793, 1.39521, 1.39255, 1.38913, 1.38547, 1.38156, 1.37869, 1.37373, 1.3694, 1.36453, 1.36108, 1.3604, 1.35708, 1.35636, 1.35255, 1.35005, 1.35285, 1.3554, 1.34227, 1.42225, 1.49329, 1.54816, 1.53206, 1.44033, 1.31974, 1.32903, 1.31616, 1.31193, 1.31132, 1.31005, 1.30715, 
1.66237, 1.65682, 1.65144, 1.64824, 1.64138, 1.63548, 1.63037, 1.63366, 1.62283, 1.62034, 1.60882, 1.69661, 1.79181, 1.86167, 1.73575, 1.56839, 1.58812, 1.57726, 1.56912, 1.56233, 1.55778, 1.55394, 1.55676, 1.54527, 1.54033, 1.53549, 1.53165, 1.5266, 1.51983, 1.51561, 1.52164, 1.52739, 1.5093, 1.49752, 1.49361, 1.50242, 1.48527, 1.48215, 1.49307, 1.47533, 1.4918, 1.55601, 1.59987, 1.58739, 1.56111, 1.43308, 1.44755, 1.44495, 1.45054, 1.43271, 1.44909, 1.43932, 1.41986, 1.41589, 1.41196, 1.41211, 1.40547, 1.40154, 1.39692, 1.39409, 1.39516, 1.38873, 1.38584, 1.38214, 1.37843, 1.37245, 1.36785, 1.36543, 1.36099, 1.35991, 1.35852, 1.3557, 1.3526, 1.35047, 1.35019, 1.36576, 1.34497, 1.43649, 1.50425, 1.5591, 1.56206, 1.39952, 1.33812, 1.33763, 1.31994, 1.31629, 1.31321, 1.31132, 1.3083, 
1.65819, 1.66006, 1.65083, 1.64434, 1.64139, 1.6397, 1.62719, 1.63027, 1.61946, 1.61993, 1.61627, 1.72494, 1.81313, 1.90972, 1.77526, 1.55694, 1.58361, 1.59, 1.56477, 1.55798, 1.5516, 1.55089, 1.54692, 1.54409, 1.53966, 1.53643, 1.52702, 1.52187, 1.51985, 1.51556, 1.51679, 1.51956, 1.51317, 1.49352, 1.49004, 1.48887, 1.48295, 1.48, 1.49853, 1.44979, 1.51674, 1.55001, 1.59299, 1.58872, 1.53269, 1.47678, 1.44755, 1.46191, 1.43359, 1.43298, 1.44401, 1.44069, 1.43907, 1.41276, 1.40826, 1.40708, 1.4046, 1.40264, 1.39645, 1.3943, 1.3932, 1.38714, 1.38481, 1.37968, 1.37762, 1.37821, 1.37017, 1.36726, 1.36547, 1.36169, 1.35787, 1.35677, 1.35548, 1.3522, 1.36115, 1.3494, 1.33368, 1.41576, 1.50661, 1.54611, 1.54168, 1.42653, 1.32062, 1.33103, 1.3361, 1.34093, 1.32007, 1.32047, 1.31196, 
1.65725, 1.65205, 1.64747, 1.6449, 1.64017, 1.63388, 1.62681, 1.63707, 1.62284, 1.61791, 1.57805, 1.69214, 1.78943, 1.88315, 1.71986, 1.5776, 1.58906, 1.56937, 1.56703, 1.56854, 1.55407, 1.55786, 1.54678, 1.54254, 1.53691, 1.53733, 1.52972, 1.5262, 1.52289, 1.51564, 1.51305, 1.50719, 1.52672, 1.50009, 1.49303, 1.49005, 1.48629, 1.48218, 1.49934, 1.44413, 1.47059, 1.56442, 1.56185, 1.57873, 1.5894, 1.47833, 1.46164, 1.45008, 1.43639, 1.43194, 1.43776, 1.45665, 1.42086, 1.41227, 1.41062, 1.40733, 1.40385, 1.40689, 1.39986, 1.39663, 1.39492, 1.38956, 1.38496, 1.38241, 1.3775, 1.37144, 1.36848, 1.36579, 1.36369, 1.35954, 1.3602, 1.36029, 1.35354, 1.35734, 1.34472, 1.34679, 1.33789, 1.40696, 1.49011, 1.54215, 1.53258, 1.5116, 1.34431, 1.33544, 1.32644, 1.32327, 1.32178, 1.31421, 1.31177, 
1.65989, 1.65274, 1.6492, 1.64204, 1.63765, 1.6309, 1.62546, 1.62474, 1.63764, 1.62706, 1.59144, 1.71003, 1.8243, 1.89209, 1.65714, 1.57838, 1.58514, 1.57597, 1.58104, 1.56417, 1.55975, 1.55348, 1.55198, 1.5477, 1.54228, 1.53714, 1.53415, 1.53024, 1.52301, 1.51968, 1.51278, 1.51634, 1.52233, 1.50049, 1.50692, 1.49657, 1.48923, 1.48723, 1.49273, 1.48834, 1.46846, 1.52422, 1.59498, 1.58651, 1.58911, 1.4754, 1.45523, 1.46164, 1.44029, 1.43347, 1.42986, 1.43709, 1.42093, 1.41629, 1.41312, 1.40899, 1.40412, 1.40536, 1.4019, 1.39981, 1.39485, 1.39023, 1.38682, 1.38074, 1.37747, 1.37309, 1.36882, 1.36548, 1.36273, 1.35999, 1.36026, 1.35663, 1.35256, 1.349, 1.34586, 1.3505, 1.34188, 1.41335, 1.4899, 1.51192, 1.5562, 1.47685, 1.34479, 1.33806, 1.33724, 1.32607, 1.32712, 1.31641, 1.3127, 
1.66006, 1.65819, 1.64769, 1.6433, 1.63431, 1.63045, 1.63261, 1.6238, 1.62245, 1.6209, 1.6202, 1.71415, 1.76933, 1.88862, 1.84855, 1.58263, 1.5943, 1.58057, 1.57239, 1.57511, 1.55545, 1.55092, 1.54629, 1.55495, 1.54169, 1.53873, 1.54021, 1.52758, 1.52618, 1.51959, 1.51286, 1.51422, 1.52135, 1.51113, 1.50224, 1.49348, 1.49027, 1.49209, 1.48293, 1.49179, 1.49226, 1.55737, 1.57969, 1.57634, 1.53045, 1.47804, 1.46874, 1.45461, 1.44021, 1.43769, 1.43739, 1.43828, 1.4401, 1.41939, 1.41365, 1.40999, 1.40627, 1.40556, 1.40326, 1.39858, 1.3929, 1.38975, 1.38549, 1.38182, 1.37858, 1.37491, 1.37172, 1.36777, 1.36317, 1.35899, 1.35759, 1.35332, 1.35284, 1.34909, 1.36283, 1.35433, 1.34615, 1.40146, 1.48168, 1.56064, 1.5689, 1.44381, 1.32793, 1.34151, 1.33394, 1.33303, 1.31645, 1.31335, 1.31038, 
1.6588, 1.65294, 1.64483, 1.6427, 1.63411, 1.62972, 1.62298, 1.62034, 1.63441, 1.63773, 1.59325, 1.7212, 1.74932, 1.94824, 1.74099, 1.57108, 1.58705, 1.5734, 1.56757, 1.56163, 1.55832, 1.55171, 1.54229, 1.5414, 1.53772, 1.53381, 1.53225, 1.525, 1.52026, 1.51684, 1.51677, 1.52043, 1.53024, 1.52404, 1.49607, 1.49507, 1.48833, 1.48622, 1.48334, 1.48188, 1.49964, 1.48901, 1.5849, 1.54758, 1.53328, 1.43704, 1.44771, 1.46367, 1.45126, 1.43591, 1.431, 1.43012, 1.43271, 1.41244, 1.4099, 1.40709, 1.4057, 1.40519, 1.40168, 1.39797, 1.39595, 1.39048, 1.38501, 1.38208, 1.37965, 1.37729, 1.37414, 1.36541, 1.36063, 1.35542, 1.35024, 1.3533, 1.34892, 1.35785, 1.34781, 1.34944, 1.35398, 1.43558, 1.47354, 1.58752, 1.60148, 1.53019, 1.34, 1.3284, 1.31959, 1.31411, 1.31442, 1.31089, 1.31176, 
1.65928, 1.65324, 1.64556, 1.6399, 1.63573, 1.62926, 1.62829, 1.62277, 1.62326, 1.61848, 1.59548, 1.72416, 1.81297, 1.95381, 1.80709, 1.57127, 1.58439, 1.57354, 1.5694, 1.56228, 1.55661, 1.55365, 1.54728, 1.5431, 1.5395, 1.53427, 1.52953, 1.52508, 1.51782, 1.51505, 1.50849, 1.50589, 1.50556, 1.51331, 1.51017, 1.49538, 1.48852, 1.48225, 1.4992, 1.45555, 1.47526, 1.52627, 1.56656, 1.55463, 1.52381, 1.51887, 1.45168, 1.45048, 1.44352, 1.43453, 1.43103, 1.42596, 1.427, 1.42365, 1.41276, 1.41004, 1.40768, 1.4047, 1.40383, 1.3981, 1.39525, 1.39335, 1.38884, 1.38473, 1.379, 1.37939, 1.37258, 1.36473, 1.35697, 1.35467, 1.35321, 1.35218, 1.35166, 1.35217, 1.35128, 1.35202, 1.33939, 1.39883, 1.46131, 1.56011, 1.58168, 1.50202, 1.34372, 1.33302, 1.31709, 1.31462, 1.31307, 1.31308, 1.31106, 
1.65745, 1.6547, 1.64505, 1.64513, 1.63458, 1.62798, 1.62448, 1.62206, 1.62458, 1.62395, 1.59709, 1.70275, 1.76997, 1.92457, 1.81363, 1.56153, 1.59655, 1.57907, 1.57257, 1.56181, 1.55799, 1.56682, 1.54712, 1.54075, 1.5376, 1.53119, 1.52718, 1.52334, 1.51771, 1.51606, 1.51009, 1.50567, 1.50431, 1.51912, 1.50389, 1.49388, 1.49464, 1.48368, 1.4832, 1.48241, 1.47839, 1.56433, 1.56988, 1.54946, 1.54624, 1.49221, 1.4591, 1.45415, 1.43406, 1.43066, 1.42626, 1.42452, 1.46398, 1.44383, 1.41257, 1.40636, 1.40542, 1.40438, 1.402, 1.39899, 1.39631, 1.39283, 1.39327, 1.38481, 1.38024, 1.37739, 1.37262, 1.36709, 1.36138, 1.35702, 1.35336, 1.35205, 1.35202, 1.35216, 1.35154, 1.35155, 1.36081, 1.41628, 1.50937, 1.59652, 1.61318, 1.58176, 1.31619, 1.33363, 1.32341, 1.32947, 1.32994, 1.3173, 1.31025, 
1.65295, 1.64974, 1.64219, 1.64114, 1.63254, 1.62481, 1.62097, 1.6202, 1.61763, 1.61777, 1.59404, 1.74268, 1.77898, 1.93465, 1.64257, 1.58238, 1.59821, 1.58671, 1.56984, 1.56121, 1.55809, 1.55051, 1.54639, 1.53982, 1.53748, 1.53114, 1.52985, 1.52321, 1.51306, 1.51257, 1.50348, 1.49921, 1.50565, 1.51141, 1.51176, 1.4925, 1.49201, 1.48577, 1.48246, 1.47214, 1.49655, 1.52984, 1.56807, 1.55583, 1.54534, 1.50005, 1.45046, 1.44806, 1.44728, 1.43047, 1.42655, 1.42306, 1.42157, 1.42285, 1.40722, 1.4056, 1.40492, 1.40344, 1.40103, 1.39811, 1.39224, 1.38948, 1.38719, 1.38437, 1.38086, 1.37927, 1.37427, 1.36833, 1.36469, 1.35968, 1.35636, 1.35289, 1.35208, 1.36318, 1.34866, 1.36773, 1.35727, 1.41729, 1.50008, 1.57007, 1.57303, 1.50571, 1.32079, 1.34427, 1.31934, 1.3166, 1.31531, 1.31258, 1.309, 
1.65602, 1.65186, 1.64442, 1.64075, 1.63386, 1.63056, 1.62468, 1.61968, 1.61811, 1.61601, 1.61416, 1.68389, 1.82867, 1.98983, 1.9012, 1.57558, 1.58916, 1.57017, 1.5669, 1.5614, 1.55413, 1.54866, 1.545, 1.54321, 1.53862, 1.53211, 1.52861, 1.52335, 1.51818, 1.5108, 1.5056, 1.50121, 1.49994, 1.5037, 1.51365, 1.50705, 1.48951, 1.48384, 1.48241, 1.47566, 1.49226, 1.56152, 1.56563, 1.55899, 1.53437, 1.47754, 1.43633, 1.44708, 1.43395, 1.4307, 1.42752, 1.42514, 1.42652, 1.41362, 1.41174, 1.40415, 1.40112, 1.39957, 1.39633, 1.39242, 1.38872, 1.38758, 1.38665, 1.38387, 1.38158, 1.37789, 1.37532, 1.37143, 1.3668, 1.36365, 1.36128, 1.35442, 1.3534, 1.35174, 1.34814, 1.35155, 1.35715, 1.3643, 1.49943, 1.60977, 1.60589, 1.44084, 1.28435, 1.33907, 1.31596, 1.31626, 1.314, 1.31077, 1.30671, 
1.65612, 1.64804, 1.64529, 1.64405, 1.63185, 1.63584, 1.62309, 1.62167, 1.61957, 1.61645, 1.62128, 1.69585, 1.77939, 1.95173, 1.91154, 1.5655, 1.58513, 1.58547, 1.56478, 1.56351, 1.55621, 1.55097, 1.54671, 1.54363, 1.53755, 1.53407, 1.52974, 1.52129, 1.51806, 1.51285, 1.50453, 1.51758, 1.49919, 1.50804, 1.51687, 1.50281, 1.49649, 1.48628, 1.49003, 1.47277, 1.49553, 1.52233, 1.54799, 1.5398, 1.5354, 1.48003, 1.45112, 1.4515, 1.43825, 1.44183, 1.43361, 1.44058, 1.42587, 1.42765, 1.4159, 1.4036, 1.40161, 1.40097, 1.39555, 1.38953, 1.38644, 1.38524, 1.3842, 1.38158, 1.37802, 1.37467, 1.37034, 1.36771, 1.36591, 1.36358, 1.3629, 1.36068, 1.35336, 1.35215, 1.3515, 1.36768, 1.36206, 1.36283, 1.46229, 1.54708, 1.55477, 1.41554, 1.33725, 1.33005, 1.32091, 1.31547, 1.31222, 1.30997, 1.3172, 
1.65458, 1.6486, 1.63816, 1.63173, 1.63098, 1.62743, 1.62357, 1.6215, 1.61733, 1.62355, 1.60312, 1.67656, 1.76451, 1.93917, 1.76581, 1.56024, 1.58814, 1.56982, 1.56369, 1.55532, 1.55349, 1.54894, 1.545, 1.54011, 1.53654, 1.53436, 1.53084, 1.52508, 1.51871, 1.52039, 1.50618, 1.50303, 1.49898, 1.49685, 1.52437, 1.51213, 1.49256, 1.48889, 1.48992, 1.46934, 1.5139, 1.56759, 1.57093, 1.55496, 1.52376, 1.46214, 1.44485, 1.44795, 1.44308, 1.45512, 1.43859, 1.42595, 1.44845, 1.42767, 1.41137, 1.40641, 1.40326, 1.40158, 1.39606, 1.39219, 1.38811, 1.38624, 1.38536, 1.38117, 1.37606, 1.37397, 1.37024, 1.36777, 1.36457, 1.36213, 1.36293, 1.35752, 1.35391, 1.35164, 1.34818, 1.35765, 1.36885, 1.40638, 1.48518, 1.53764, 1.60181, 1.46859, 1.29675, 1.33683, 1.33995, 1.31714, 1.31944, 1.30863, 1.30643, 
1.65456, 1.6489, 1.6389, 1.63228, 1.63033, 1.62813, 1.62351, 1.62015, 1.61656, 1.6142, 1.58584, 1.70263, 1.80779, 1.89039, 1.69288, 1.55878, 1.58571, 1.57, 1.56172, 1.55817, 1.56138, 1.55063, 1.54335, 1.54182, 1.53305, 1.52959, 1.52098, 1.51906, 1.51343, 1.51052, 1.50627, 1.50314, 1.4984, 1.49418, 1.51866, 1.51929, 1.49836, 1.49307, 1.48591, 1.47262, 1.48509, 1.5543, 1.55781, 1.52476, 1.52271, 1.49472, 1.43204, 1.45361, 1.43967, 1.44833, 1.43907, 1.45702, 1.4515, 1.41702, 1.41077, 1.41618, 1.40256, 1.39913, 1.39694, 1.39158, 1.38971, 1.38586, 1.38385, 1.37915, 1.37652, 1.37269, 1.36762, 1.36421, 1.36118, 1.36056, 1.36037, 1.35768, 1.35502, 1.34816, 1.34499, 1.35143, 1.35069, 1.40601, 1.47541, 1.57003, 1.62229, 1.51018, 1.33591, 1.32341, 1.32023, 1.31582, 1.31346, 1.30823, 1.30817, 
1.65751, 1.655, 1.64479, 1.63916, 1.6356, 1.63765, 1.6276, 1.61959, 1.61781, 1.62453, 1.59548, 1.64776, 1.8067, 1.92515, 1.74448, 1.56926, 1.58538, 1.57951, 1.57571, 1.55901, 1.5615, 1.55072, 1.54413, 1.53783, 1.53461, 1.52744, 1.52061, 1.51608, 1.51388, 1.5092, 1.50681, 1.50641, 1.5027, 1.50599, 1.50604, 1.51313, 1.48677, 1.49923, 1.48588, 1.46254, 1.45408, 1.54131, 1.54848, 1.51428, 1.53751, 1.51718, 1.44115, 1.45215, 1.451, 1.44517, 1.47063, 1.47061, 1.44658, 1.42652, 1.40966, 1.40554, 1.40177, 1.40065, 1.39234, 1.38916, 1.38811, 1.38364, 1.38221, 1.37777, 1.37427, 1.37109, 1.36734, 1.36413, 1.36313, 1.36047, 1.3584, 1.35692, 1.35321, 1.35002, 1.34614, 1.35727, 1.35461, 1.32437, 1.49219, 1.56642, 1.58614, 1.5024, 1.31574, 1.32895, 1.32966, 1.31692, 1.32731, 1.31087, 1.3073, 
1.65997, 1.65483, 1.65139, 1.64202, 1.63999, 1.63049, 1.62743, 1.63723, 1.6281, 1.61456, 1.62271, 1.6756, 1.79446, 1.86156, 1.71135, 1.54447, 1.58966, 1.58297, 1.56858, 1.56073, 1.55499, 1.54881, 1.55126, 1.53974, 1.5303, 1.52501, 1.52045, 1.51605, 1.51184, 1.50814, 1.50612, 1.50442, 1.53084, 1.50642, 1.50312, 1.52365, 1.51766, 1.4933, 1.50016, 1.45742, 1.48126, 1.54093, 1.55422, 1.52443, 1.53298, 1.5052, 1.43714, 1.46184, 1.48604, 1.47943, 1.4955, 1.47181, 1.43666, 1.42886, 1.43041, 1.40916, 1.40382, 1.39975, 1.39569, 1.38967, 1.40996, 1.38512, 1.38291, 1.3776, 1.37484, 1.37171, 1.36934, 1.36785, 1.36499, 1.36108, 1.35892, 1.35732, 1.35441, 1.35779, 1.34587, 1.35391, 1.3542, 1.33761, 1.3799, 1.60962, 1.59603, 1.44981, 1.34059, 1.3273, 1.32669, 1.31953, 1.32255, 1.31526, 1.30954, 
1.65486, 1.65113, 1.64529, 1.64127, 1.63464, 1.62853, 1.62528, 1.61636, 1.61881, 1.61256, 1.62058, 1.59231, 1.79092, 1.92975, 1.82864, 1.54048, 1.58906, 1.57446, 1.56551, 1.57174, 1.55387, 1.54676, 1.54087, 1.53716, 1.53072, 1.52652, 1.51475, 1.50983, 1.50694, 1.50451, 1.50121, 1.49916, 1.49774, 1.49466, 1.49432, 1.51778, 1.52956, 1.48907, 1.47491, 1.47558, 1.49442, 1.53294, 1.5407, 1.51633, 1.53358, 1.50551, 1.46139, 1.48173, 1.4888, 1.48892, 1.44149, 1.43164, 1.44463, 1.41751, 1.41566, 1.40829, 1.40492, 1.39886, 1.39585, 1.38848, 1.38628, 1.38365, 1.37773, 1.37631, 1.37128, 1.37079, 1.36629, 1.36379, 1.36043, 1.35904, 1.35562, 1.35364, 1.34782, 1.34584, 1.34121, 1.34177, 1.35799, 1.32056, 1.48604, 1.54105, 1.61254, 1.52024, 1.34743, 1.32557, 1.31695, 1.31298, 1.31305, 1.3093, 1.30481, 
1.65425, 1.64692, 1.64144, 1.64029, 1.6366, 1.63406, 1.62637, 1.62368, 1.61917, 1.62121, 1.60668, 1.64568, 1.72556, 1.95525, 1.70313, 1.57606, 1.57903, 1.58033, 1.57341, 1.56807, 1.56119, 1.55554, 1.54738, 1.53909, 1.53216, 1.5283, 1.5206, 1.5176, 1.51244, 1.50876, 1.50461, 1.50209, 1.49929, 1.49711, 1.49159, 1.5141, 1.53297, 1.54459, 1.47542, 1.4858, 1.4699, 1.53608, 1.54357, 1.49333, 1.55941, 1.50036, 1.46127, 1.44899, 1.44368, 1.42991, 1.44068, 1.43081, 1.42403, 1.41696, 1.41193, 1.40893, 1.40623, 1.40078, 1.39777, 1.39391, 1.38867, 1.38402, 1.38314, 1.37741, 1.37726, 1.37264, 1.3711, 1.36734, 1.37092, 1.35926, 1.35674, 1.35453, 1.34772, 1.35094, 1.3436, 1.33971, 1.35098, 1.35439, 1.4574, 1.55449, 1.62468, 1.57701, 1.30758, 1.3233, 1.31789, 1.31263, 1.31062, 1.30835, 1.30739, 
1.65405, 1.64358, 1.63638, 1.63825, 1.63915, 1.63365, 1.63263, 1.623, 1.61408, 1.61151, 1.60333, 1.62198, 1.77607, 1.99392, 1.65412, 1.57775, 1.60169, 1.59321, 1.5805, 1.57259, 1.56786, 1.57116, 1.55418, 1.54176, 1.53656, 1.52958, 1.52532, 1.52025, 1.52396, 1.51067, 1.50604, 1.50222, 1.49936, 1.49054, 1.49278, 1.49307, 1.54777, 1.55286, 1.49768, 1.47245, 1.49083, 1.50587, 1.52719, 1.50323, 1.52764, 1.50406, 1.44786, 1.46228, 1.44176, 1.44177, 1.43618, 1.42578, 1.42704, 1.41665, 1.41172, 1.4069, 1.40476, 1.39965, 1.39524, 1.39117, 1.38864, 1.38695, 1.3816, 1.37879, 1.37642, 1.37885, 1.37228, 1.37016, 1.36505, 1.36191, 1.35693, 1.3542, 1.35056, 1.35375, 1.34384, 1.34425, 1.35763, 1.34479, 1.48992, 1.54474, 1.62291, 1.53195, 1.31955, 1.32901, 1.3266, 1.31543, 1.31225, 1.31075, 1.30896, 
1.6494, 1.64447, 1.63933, 1.63906, 1.6378, 1.63332, 1.6273, 1.62368, 1.61439, 1.60697, 1.60456, 1.66048, 1.81358, 1.95171, 1.96646, 1.57044, 1.58451, 1.59242, 1.58921, 1.56965, 1.56464, 1.55301, 1.54783, 1.54328, 1.53319, 1.52948, 1.52245, 1.51867, 1.51067, 1.50776, 1.50439, 1.50016, 1.49959, 1.49198, 1.49401, 1.48909, 1.4885, 1.49675, 1.50397, 1.50174, 1.47812, 1.54195, 1.5372, 1.4893, 1.51551, 1.50276, 1.45546, 1.46815, 1.44112, 1.43425, 1.42766, 1.41943, 1.41601, 1.40984, 1.41033, 1.40931, 1.40294, 1.399, 1.39564, 1.39434, 1.39529, 1.39123, 1.38235, 1.37819, 1.38437, 1.3723, 1.36872, 1.36757, 1.36476, 1.36025, 1.35505, 1.35364, 1.35618, 1.34683, 1.35185, 1.36161, 1.3554, 1.32834, 1.52765, 1.58418, 1.64022, 1.57211, 1.30473, 1.33645, 1.32269, 1.33298, 1.30988, 1.31027, 1.3089, 
1.64625, 1.64319, 1.6415, 1.63997, 1.63644, 1.63206, 1.62196, 1.61925, 1.6139, 1.61047, 1.62957, 1.65239, 1.7548, 1.95192, 1.62299, 1.56963, 1.58429, 1.57819, 1.599, 1.57531, 1.55548, 1.55059, 1.54154, 1.53721, 1.53226, 1.52837, 1.52082, 1.51781, 1.51044, 1.50405, 1.50094, 1.49899, 1.49634, 1.49196, 1.49264, 1.48329, 1.48143, 1.48097, 1.47561, 1.46984, 1.49065, 1.58255, 1.53417, 1.48185, 1.50687, 1.49708, 1.44798, 1.45103, 1.45002, 1.43383, 1.42927, 1.42425, 1.41954, 1.41406, 1.41126, 1.40392, 1.40181, 1.39875, 1.3967, 1.39291, 1.39127, 1.38577, 1.38076, 1.37771, 1.37409, 1.37093, 1.36823, 1.36504, 1.36547, 1.36051, 1.35537, 1.35374, 1.34947, 1.34432, 1.34524, 1.34548, 1.34742, 1.32227, 1.49374, 1.55632, 1.64549, 1.532, 1.34, 1.3271, 1.31927, 1.31441, 1.30899, 1.30854, 1.31031, 
1.64972, 1.64466, 1.63819, 1.63737, 1.63136, 1.62756, 1.62703, 1.61733, 1.60983, 1.60784, 1.60924, 1.66484, 1.76917, 2.0352, 1.68609, 1.56825, 1.5678, 1.55852, 1.58562, 1.57907, 1.56421, 1.55473, 1.55492, 1.53399, 1.53164, 1.52721, 1.52184, 1.51813, 1.51396, 1.50883, 1.50198, 1.4977, 1.49549, 1.49014, 1.48667, 1.48228, 1.47794, 1.47642, 1.47591, 1.48242, 1.50049, 1.52671, 1.53542, 1.48861, 1.52767, 1.50466, 1.45211, 1.45325, 1.43761, 1.43689, 1.43164, 1.4224, 1.41819, 1.41433, 1.41176, 1.40807, 1.40327, 1.40148, 1.39554, 1.39502, 1.38962, 1.38687, 1.38236, 1.37891, 1.37421, 1.37165, 1.36759, 1.36587, 1.36178, 1.35706, 1.35568, 1.35405, 1.34855, 1.34818, 1.34379, 1.34343, 1.35182, 1.34063, 1.43419, 1.5677, 1.64442, 1.61715, 1.32485, 1.32261, 1.31729, 1.31679, 1.31243, 1.31332, 1.31585, 
1.64864, 1.6411, 1.63667, 1.63439, 1.62746, 1.62321, 1.62099, 1.6159, 1.61757, 1.606, 1.60532, 1.63348, 1.78904, 1.83682, 1.73635, 1.55112, 1.58186, 1.642, 1.58282, 1.59247, 1.58511, 1.55901, 1.53919, 1.53401, 1.52941, 1.52526, 1.52123, 1.51614, 1.51271, 1.50734, 1.5017, 1.49686, 1.49339, 1.4908, 1.48336, 1.48004, 1.47592, 1.47314, 1.4809, 1.4802, 1.48102, 1.52513, 1.53009, 1.48259, 1.5279, 1.50106, 1.44535, 1.45055, 1.43742, 1.437, 1.42568, 1.41952, 1.4168, 1.40963, 1.40709, 1.40669, 1.40411, 1.40006, 1.397, 1.39249, 1.38864, 1.38411, 1.37973, 1.37778, 1.37542, 1.36799, 1.36684, 1.36102, 1.36078, 1.35743, 1.35111, 1.35109, 1.3511, 1.34349, 1.35359, 1.33831, 1.35414, 1.35096, 1.43049, 1.53504, 1.62022, 1.41114, 1.31183, 1.32653, 1.32295, 1.31216, 1.31035, 1.30898, 1.30913, 
1.64705, 1.64171, 1.67899, 1.63189, 1.62701, 1.6229, 1.61704, 1.61975, 1.60758, 1.60647, 1.60579, 1.58304, 1.7173, 1.85874, 1.69097, 1.54397, 1.65164, 1.7624, 1.57987, 1.58991, 1.57864, 1.5701, 1.54148, 1.54, 1.53124, 1.52503, 1.52222, 1.51694, 1.51064, 1.50753, 1.50117, 1.49818, 1.49257, 1.48811, 1.49289, 1.47908, 1.47574, 1.47201, 1.4735, 1.48498, 1.48614, 1.52435, 1.48893, 1.47156, 1.51355, 1.49201, 1.44038, 1.46156, 1.45037, 1.42643, 1.42192, 1.41436, 1.41196, 1.40857, 1.40672, 1.4068, 1.4056, 1.40242, 1.39209, 1.38977, 1.38508, 1.38153, 1.37748, 1.37653, 1.37191, 1.37038, 1.36482, 1.3626, 1.35739, 1.35325, 1.34964, 1.35073, 1.3575, 1.34363, 1.34109, 1.33989, 1.34756, 1.32302, 1.44351, 1.48723, 1.65591, 1.62312, 1.32328, 1.32697, 1.32043, 1.33311, 1.30754, 1.30585, 1.30719, 
1.64206, 1.63904, 1.63504, 1.63054, 1.62614, 1.62315, 1.61575, 1.60947, 1.60599, 1.6043, 1.60358, 1.59957, 1.73725, 1.98591, 1.69521, 1.56437, 1.53943, 1.71625, 1.61871, 1.59541, 1.57226, 1.56285, 1.55673, 1.54413, 1.52872, 1.52147, 1.51939, 1.51619, 1.51136, 1.50929, 1.50217, 1.5002, 1.49202, 1.48862, 1.48493, 1.48259, 1.47776, 1.47121, 1.47477, 1.48518, 1.46532, 1.52419, 1.52066, 1.4728, 1.51164, 1.50302, 1.45391, 1.44181, 1.4404, 1.42332, 1.42039, 1.42343, 1.41061, 1.40715, 1.40772, 1.40854, 1.40349, 1.39954, 1.3941, 1.38767, 1.38312, 1.3801, 1.3772, 1.37401, 1.37179, 1.36773, 1.36451, 1.36228, 1.35834, 1.3543, 1.35483, 1.35113, 1.34806, 1.34513, 1.34523, 1.34324, 1.34568, 1.33436, 1.45402, 1.54059, 1.63772, 1.58618, 1.30577, 1.32673, 1.32043, 1.32146, 1.30754, 1.30654, 1.3029, 
1.64058, 1.63526, 1.6271, 1.62367, 1.62935, 1.614, 1.60991, 1.6036, 1.59941, 1.59778, 1.60812, 1.63088, 1.69268, 1.86833, 1.70964, 1.5386, 1.55394, 1.55385, 1.57544, 1.57649, 1.56441, 1.56128, 1.5572, 1.52938, 1.52333, 1.52067, 1.5145, 1.51119, 1.50553, 1.50263, 1.49797, 1.49377, 1.48639, 1.4812, 1.47897, 1.48116, 1.4703, 1.46662, 1.47229, 1.4796, 1.4785, 1.52853, 1.51908, 1.51039, 1.48107, 1.49366, 1.44428, 1.44344, 1.43727, 1.42669, 1.41702, 1.41202, 1.41097, 1.40598, 1.40511, 1.40099, 1.39721, 1.39354, 1.38973, 1.38357, 1.3804, 1.37926, 1.37725, 1.37443, 1.37466, 1.36603, 1.36244, 1.35876, 1.35742, 1.35376, 1.35005, 1.35031, 1.34392, 1.34703, 1.33809, 1.34118, 1.34921, 1.34816, 1.44306, 1.56152, 1.6441, 1.49046, 1.32026, 1.32652, 1.33054, 1.30969, 1.32886, 1.30316, 1.30312, 
1.63245, 1.62988, 1.62671, 1.62088, 1.61633, 1.6133, 1.60993, 1.60372, 1.59872, 1.59507, 1.59353, 1.5653, 1.80586, 1.89941, 1.77366, 1.53865, 1.56414, 1.5764, 1.57758, 1.56611, 1.55525, 1.53849, 1.53023, 1.52174, 1.51833, 1.51655, 1.51064, 1.50664, 1.50536, 1.49946, 1.49572, 1.48967, 1.48478, 1.47887, 1.47484, 1.47296, 1.46754, 1.46233, 1.46718, 1.46768, 1.49982, 1.52003, 1.52266, 1.50763, 1.47989, 1.49494, 1.44333, 1.44042, 1.43083, 1.42011, 1.42303, 1.41059, 1.40832, 1.41016, 1.40161, 1.39944, 1.39258, 1.38857, 1.38552, 1.38047, 1.37842, 1.37447, 1.37569, 1.37555, 1.37326, 1.36443, 1.36037, 1.35703, 1.35288, 1.35239, 1.35063, 1.34768, 1.34344, 1.34027, 1.33798, 1.33363, 1.35438, 1.34369, 1.4314, 1.56484, 1.58613, 1.64379, 1.27424, 1.3274, 1.31483, 1.30252, 1.30649, 1.30064, 1.29726, 
1.63387, 1.62865, 1.62532, 1.6206, 1.61857, 1.61434, 1.60819, 1.61326, 1.59927, 1.59429, 1.59349, 1.58227, 1.67359, 1.84339, 1.7017, 1.54288, 1.56301, 1.56144, 1.56794, 1.55229, 1.55272, 1.53814, 1.53, 1.52435, 1.51968, 1.51348, 1.50951, 1.50608, 1.50251, 1.50175, 1.49655, 1.48952, 1.4818, 1.47582, 1.46943, 1.46816, 1.4667, 1.46236, 1.46252, 1.46804, 1.48229, 1.51415, 1.49294, 1.46738, 1.48821, 1.47795, 1.44694, 1.44743, 1.43027, 1.42616, 1.41709, 1.41989, 1.40862, 1.40137, 1.40071, 1.39547, 1.39199, 1.38793, 1.38151, 1.37657, 1.37591, 1.37217, 1.37367, 1.37387, 1.37106, 1.36673, 1.35794, 1.35091, 1.34935, 1.34668, 1.34979, 1.34638, 1.34167, 1.33803, 1.33513, 1.3332, 1.33665, 1.3394, 1.39, 1.4765, 1.68365, 1.63422, 1.33362, 1.31547, 1.30951, 1.30274, 1.30351, 1.2994, 1.29517, 
1.63086, 1.62736, 1.62477, 1.61964, 1.61966, 1.61807, 1.6123, 1.60557, 1.59876, 1.59551, 1.5958, 1.57523, 1.74049, 1.77696, 1.8669, 1.54723, 1.5616, 1.56914, 1.55794, 1.5515, 1.5515, 1.54456, 1.5337, 1.52664, 1.52271, 1.51544, 1.50949, 1.50376, 1.50065, 1.49778, 1.49633, 1.48891, 1.48748, 1.47533, 1.49939, 1.46882, 1.46557, 1.46239, 1.46293, 1.47149, 1.47645, 1.5062, 1.51279, 1.50252, 1.47667, 1.47513, 1.47179, 1.44307, 1.4331, 1.42523, 1.41663, 1.4097, 1.40506, 1.40286, 1.39862, 1.39364, 1.39131, 1.3865, 1.3843, 1.37786, 1.37481, 1.37346, 1.37257, 1.3711, 1.36814, 1.36401, 1.35728, 1.35212, 1.34842, 1.34466, 1.34455, 1.34141, 1.33991, 1.3351, 1.33242, 1.33005, 1.35688, 1.30329, 1.437, 1.55869, 1.55798, 1.4289, 1.29621, 1.31695, 1.3058, 1.30409, 1.30181, 1.30061, 1.29879, 
1.63127, 1.62466, 1.62203, 1.61675, 1.61608, 1.61351, 1.60748, 1.60386, 1.59792, 1.59342, 1.59317, 1.5897, 1.74512, 1.82836, 1.75117, 1.52663, 1.56586, 1.56213, 1.55312, 1.55775, 1.5442, 1.53804, 1.53299, 1.52496, 1.52222, 1.51628, 1.50657, 1.50221, 1.49923, 1.49281, 1.49284, 1.49117, 1.48305, 1.47598, 1.47167, 1.4684, 1.46397, 1.46084, 1.46131, 1.46307, 1.50928, 1.51998, 1.53651, 1.46456, 1.47491, 1.4765, 1.46507, 1.44437, 1.4348, 1.41748, 1.41054, 1.40979, 1.40808, 1.40035, 1.39947, 1.39647, 1.39106, 1.38789, 1.38536, 1.38013, 1.3748, 1.37263, 1.37104, 1.37124, 1.36528, 1.36206, 1.35072, 1.34732, 1.35301, 1.34673, 1.34417, 1.34345, 1.3403, 1.3368, 1.33219, 1.32584, 1.32467, 1.32068, 1.39875, 1.48458, 1.58194, 1.4162, 1.29189, 1.31884, 1.30728, 1.30421, 1.30548, 1.30208, 1.29735, 
1.63407, 1.62365, 1.62038, 1.61922, 1.61692, 1.6149, 1.61256, 1.60842, 1.60365, 1.59965, 1.59399, 1.60304, 1.7115, 1.77828, 1.73837, 1.54886, 1.56501, 1.57409, 1.55721, 1.56242, 1.54436, 1.55853, 1.53226, 1.53045, 1.52344, 1.51742, 1.51069, 1.50502, 1.50362, 1.49624, 1.49012, 1.48843, 1.48259, 1.47533, 1.47245, 1.47875, 1.47031, 1.46502, 1.46427, 1.46475, 1.47966, 1.50022, 1.50525, 1.46465, 1.47148, 1.48544, 1.45787, 1.44729, 1.43001, 1.41615, 1.41081, 1.40892, 1.40429, 1.40161, 1.39901, 1.39721, 1.39417, 1.39209, 1.38301, 1.37863, 1.37479, 1.37192, 1.37076, 1.3651, 1.35914, 1.35535, 1.35064, 1.34608, 1.34606, 1.3438, 1.34451, 1.33984, 1.3363, 1.33305, 1.33137, 1.32811, 1.33261, 1.32134, 1.35451, 1.46, 1.71131, 1.70604, 1.28749, 1.30992, 1.32308, 1.30202, 1.30048, 1.30309, 1.29908, 
1.63564, 1.62484, 1.61815, 1.6166, 1.6134, 1.61164, 1.60709, 1.61477, 1.6046, 1.59176, 1.59053, 1.59584, 1.73706, 1.72313, 1.76153, 1.55596, 1.5765, 1.55911, 1.56616, 1.55811, 1.56851, 1.53472, 1.53088, 1.52498, 1.51885, 1.51619, 1.51323, 1.50721, 1.50301, 1.4986, 1.49365, 1.48623, 1.48473, 1.50585, 1.47528, 1.47235, 1.46859, 1.46424, 1.47058, 1.46799, 1.47437, 1.50367, 1.49392, 1.47546, 1.48901, 1.48666, 1.45871, 1.43803, 1.4268, 1.41376, 1.41133, 1.40831, 1.40839, 1.40273, 1.39656, 1.39296, 1.39158, 1.38559, 1.38418, 1.37956, 1.37596, 1.38078, 1.36602, 1.36279, 1.35832, 1.3534, 1.34945, 1.34531, 1.34366, 1.3433, 1.34418, 1.34877, 1.33618, 1.33315, 1.33215, 1.33002, 1.3278, 1.33235, 1.35129, 1.52738, 1.62322, 1.38239, 1.27686, 1.30732, 1.31057, 1.30394, 1.3055, 1.30053, 1.3003, 
1.63342, 1.62279, 1.61887, 1.6148, 1.61096, 1.60685, 1.60391, 1.59538, 1.59138, 1.58537, 1.58178, 1.58323, 1.66297, 1.8462, 1.72345, 1.53608, 1.56241, 1.55459, 1.56269, 1.5458, 1.53726, 1.53423, 1.5224, 1.51719, 1.51632, 1.51382, 1.51566, 1.50436, 1.49683, 1.49485, 1.48995, 1.48568, 1.47937, 1.47487, 1.46963, 1.46718, 1.46493, 1.46198, 1.46115, 1.47613, 1.46603, 1.4872, 1.4854, 1.46427, 1.47169, 1.47909, 1.43135, 1.43622, 1.41991, 1.40923, 1.40753, 1.42371, 1.40339, 1.4, 1.39626, 1.39282, 1.38662, 1.38353, 1.37984, 1.37591, 1.37727, 1.37008, 1.36379, 1.35702, 1.35393, 1.34662, 1.34454, 1.34251, 1.34025, 1.34028, 1.34123, 1.3397, 1.33332, 1.33157, 1.3256, 1.32605, 1.33146, 1.3263, 1.37545, 1.52599, 1.65611, 1.4501, 1.2849, 1.30938, 1.30835, 1.29736, 1.30159, 1.31265, 1.29225, 
1.62342, 1.61725, 1.61439, 1.6101, 1.60662, 1.59922, 1.59594, 1.59082, 1.58623, 1.58015, 1.57574, 1.5763, 1.65816, 1.79383, 1.73681, 1.56125, 1.56046, 1.54885, 1.5544, 1.53847, 1.52848, 1.5266, 1.51667, 1.51055, 1.5101, 1.50718, 1.50563, 1.49805, 1.49504, 1.48963, 1.48526, 1.47766, 1.47434, 1.46821, 1.4631, 1.46039, 1.46032, 1.45917, 1.45429, 1.45686, 1.4677, 1.48003, 1.49122, 1.45816, 1.46523, 1.48234, 1.45362, 1.42952, 1.41937, 1.40356, 1.40164, 1.39743, 1.39681, 1.39525, 1.39233, 1.3866, 1.37963, 1.37586, 1.37361, 1.37226, 1.3675, 1.36113, 1.35872, 1.35205, 1.34715, 1.34104, 1.34085, 1.33828, 1.33738, 1.33827, 1.33608, 1.33416, 1.33134, 1.32741, 1.32134, 1.32039, 1.32088, 1.32449, 1.30628, 1.46248, 1.61226, 1.46119, 1.28271, 1.29486, 1.29256, 1.29656, 1.29306, 1.29117, 1.28265, 
1.62264, 1.61989, 1.61458, 1.60921, 1.60299, 1.59919, 1.59419, 1.58912, 1.58438, 1.57768, 1.57392, 1.5791, 1.65133, 1.92302, 1.72629, 1.5331, 1.56769, 1.54478, 1.53526, 1.53105, 1.52376, 1.51648, 1.51635, 1.50411, 1.50363, 1.50189, 1.4999, 1.49667, 1.49375, 1.4864, 1.48168, 1.47777, 1.46997, 1.46257, 1.46178, 1.45886, 1.45523, 1.44934, 1.45679, 1.45376, 1.45503, 1.47017, 1.47276, 1.45893, 1.4617, 1.48429, 1.46119, 1.43659, 1.41834, 1.4043, 1.39964, 1.39514, 1.39247, 1.39153, 1.38824, 1.38402, 1.37451, 1.36851, 1.36579, 1.36394, 1.36166, 1.36013, 1.35881, 1.35049, 1.34697, 1.34374, 1.33771, 1.33221, 1.33588, 1.33662, 1.33245, 1.33064, 1.3285, 1.32095, 1.31736, 1.31332, 1.32354, 1.3275, 1.34429, 1.46871, 1.61761, 1.61269, 1.26142, 1.29732, 1.28875, 1.28873, 1.28638, 1.29128, 1.28177, 
1.62389, 1.61717, 1.61482, 1.61381, 1.60365, 1.5977, 1.59353, 1.59042, 1.59133, 1.58113, 1.57868, 1.58271, 1.6264, 1.9003, 1.9452, 1.53994, 1.55982, 1.54867, 1.53902, 1.53107, 1.52612, 1.52223, 1.51146, 1.50873, 1.50424, 1.50251, 1.49908, 1.49555, 1.48938, 1.4854, 1.47857, 1.47355, 1.46956, 1.46591, 1.46248, 1.46022, 1.45264, 1.44922, 1.45009, 1.45191, 1.46066, 1.47177, 1.47617, 1.45767, 1.4706, 1.49539, 1.45689, 1.42321, 1.42055, 1.39932, 1.39619, 1.39381, 1.40986, 1.3897, 1.39132, 1.38303, 1.37797, 1.38099, 1.36912, 1.36511, 1.36347, 1.36182, 1.35776, 1.35639, 1.34813, 1.34247, 1.33808, 1.33297, 1.33397, 1.34661, 1.33398, 1.33018, 1.32688, 1.32369, 1.34198, 1.31781, 1.31454, 1.31374, 1.30844, 1.44726, 1.68233, 1.53149, 1.26196, 1.31284, 1.29308, 1.29468, 1.2889, 1.28402, 1.2813, 
1.62049, 1.62353, 1.61619, 1.60901, 1.60226, 1.59928, 1.59124, 1.58719, 1.58327, 1.57876, 1.5818, 1.58189, 1.65365, 1.82858, 2.04192, 1.53727, 1.56712, 1.54098, 1.54598, 1.52743, 1.52636, 1.52072, 1.51484, 1.51109, 1.50351, 1.50002, 1.49512, 1.49237, 1.49662, 1.48172, 1.47556, 1.47319, 1.46936, 1.46457, 1.46333, 1.46049, 1.4514, 1.46122, 1.44567, 1.44997, 1.44682, 1.46833, 1.46845, 1.4573, 1.46779, 1.46156, 1.44963, 1.44133, 1.42011, 1.40342, 1.39685, 1.39607, 1.39315, 1.38711, 1.38236, 1.3813, 1.37546, 1.37063, 1.36839, 1.3639, 1.35974, 1.35568, 1.35383, 1.35359, 1.34978, 1.34867, 1.33918, 1.33599, 1.33666, 1.3323, 1.3307, 1.33131, 1.32656, 1.32664, 1.33122, 1.31992, 1.33379, 1.32385, 1.39125, 1.46662, 1.69393, 1.71381, 1.28938, 1.30794, 1.30234, 1.29284, 1.29378, 1.30656, 1.28283, 
1.62347, 1.61404, 1.61199, 1.60598, 1.60132, 1.596, 1.58742, 1.59345, 1.58324, 1.58033, 1.5898, 1.57939, 1.59993, 1.83947, 0.00377415, 1.53362, 1.54981, 1.54345, 1.53577, 1.533, 1.52633, 1.53157, 1.51573, 1.5102, 1.50281, 1.49668, 1.49513, 1.49243, 1.48993, 1.48551, 1.48253, 1.47762, 1.46793, 1.46713, 1.45926, 1.45571, 1.45397, 1.44806, 1.44678, 1.45021, 1.4635, 1.46512, 1.46426, 1.45173, 1.46794, 1.4617, 1.45247, 1.42962, 1.43075, 1.40127, 1.39635, 1.4109, 1.39265, 1.39484, 1.38621, 1.3815, 1.37604, 1.37408, 1.36806, 1.36023, 1.35782, 1.35514, 1.35377, 1.35336, 1.35767, 1.34389, 1.34108, 1.3394, 1.33663, 1.33211, 1.3307, 1.32802, 1.32609, 1.32325, 1.32026, 1.32026, 1.32043, 1.34038, 1.36032, 1.44775, 1.80328, 1.55416, 1.41597, 1.31718, 1.30476, 1.28797, 1.28934, 1.28667, 1.28608, 
1.62143, 1.61411, 1.60975, 1.60389, 1.59863, 1.59206, 1.61392, 1.58267, 1.59083, 1.58777, 1.58854, 1.57665, 1.62154, 1.78203, 1.92457, 1.52245, 1.5582, 1.54846, 1.54168, 1.55066, 1.52583, 1.5258, 1.5138, 1.50802, 1.50045, 1.49815, 1.49804, 1.49268, 1.48819, 1.48517, 1.47607, 1.47219, 1.46827, 1.46804, 1.45884, 1.45676, 1.45001, 1.447, 1.44641, 1.45584, 1.45026, 1.46799, 1.47636, 1.45755, 1.44776, 1.45858, 1.45468, 1.43401, 1.41713, 1.40297, 1.39226, 1.3977, 1.38775, 1.3858, 1.38326, 1.37875, 1.37471, 1.37059, 1.36603, 1.36453, 1.35935, 1.3573, 1.35127, 1.35116, 1.3491, 1.34608, 1.34571, 1.3417, 1.33839, 1.33394, 1.33075, 1.32735, 1.32695, 1.32236, 1.32915, 1.34052, 1.33425, 1.32674, 1.33369, 1.46029, 1.65559, 1.36392, 1.36029, 1.31369, 1.30377, 1.28969, 1.28842, 1.29692, 1.2843, 
1.61398, 1.60629, 1.60352, 1.59873, 1.59395, 1.58554, 1.58256, 1.57814, 1.57825, 1.58335, 1.5871, 1.56537, 1.65523, 1.78722, 1.98216, 1.51273, 1.53743, 1.53141, 1.52619, 1.52006, 1.51593, 1.51297, 1.51266, 1.5046, 1.49744, 1.49306, 1.491, 1.48188, 1.48099, 1.47508, 1.47969, 1.46436, 1.46067, 1.45747, 1.4553, 1.45315, 1.45862, 1.44266, 1.44861, 1.46208, 1.44873, 1.46864, 1.45672, 1.45273, 1.44683, 1.44979, 1.4385, 1.42334, 1.40985, 1.40047, 1.38904, 1.39063, 1.38566, 1.38273, 1.38423, 1.37436, 1.36917, 1.36715, 1.36508, 1.36395, 1.38531, 1.35689, 1.35133, 1.34835, 1.34355, 1.34065, 1.33937, 1.3366, 1.33058, 1.32624, 1.33306, 1.32294, 1.32148, 1.33119, 1.31429, 1.31573, 1.31484, 1.31714, 1.2903, 1.44276, 1.67101, 1.73167, 1.29465, 1.30224, 1.28803, 1.28573, 1.29532, 1.28158, 1.29358, 
1.59846, 1.59012, 1.58552, 1.5856, 1.5784, 1.57997, 1.56516, 1.57303, 1.55654, 1.55448, 1.56562, 1.55227, 1.56914, 1.89946, 1.93121, 1.50691, 1.53048, 1.52004, 1.51541, 1.52015, 1.51005, 1.49991, 1.4966, 1.49341, 1.48993, 1.47923, 1.47407, 1.46879, 1.46388, 1.46008, 1.45716, 1.45224, 1.45034, 1.4482, 1.44527, 1.44862, 1.43312, 1.43023, 1.4339, 1.43696, 1.43781, 1.44338, 1.46777, 1.45742, 1.43751, 1.44382, 1.44011, 1.41261, 1.39448, 1.38124, 1.3747, 1.37273, 1.38127, 1.37558, 1.37811, 1.36482, 1.36133, 1.35183, 1.35315, 1.35211, 1.3476, 1.34661, 1.33556, 1.33418, 1.32685, 1.33248, 1.32464, 1.3249, 1.32442, 1.3129, 1.30866, 1.30994, 1.33341, 1.30742, 1.30338, 1.31743, 1.31892, 1.30414, 1.28026, 1.36551, 1.54148, 1.44373, 1.26408, 1.29217, 1.27977, 1.29212, 1.27531, 1.27083, 1.28171, 
1.59229, 1.58574, 1.58198, 1.58337, 1.57471, 1.5719, 1.55819, 1.55749, 1.55059, 1.55147, 1.55362, 1.54827, 1.60683, 1.71099, 1.93739, 1.49202, 1.51646, 1.51219, 1.49966, 1.49572, 1.5022, 1.49399, 1.49161, 1.48841, 1.48427, 1.48118, 1.47512, 1.46355, 1.45763, 1.46067, 1.46055, 1.4562, 1.44519, 1.43668, 1.43721, 1.43073, 1.4304, 1.41951, 1.41769, 1.43604, 1.43038, 1.43529, 1.45031, 1.44426, 1.43061, 1.42329, 1.41238, 1.39529, 1.38363, 1.37845, 1.36849, 1.36732, 1.3607, 1.36935, 1.36929, 1.34826, 1.34719, 1.34559, 1.33993, 1.33751, 1.33603, 1.33148, 1.32846, 1.32003, 1.32215, 1.31908, 1.30939, 1.31838, 1.30498, 1.29892, 1.29806, 1.29812, 1.30129, 1.29886, 1.29024, 1.28627, 1.28414, 1.28812, 1.26576, 1.46437, 1.56355, 1.79311, 1.27067, 1.27249, 1.27382, 1.27236, 1.27223, 1.25448, 1.25309, 
1.59831, 1.59189, 1.59875, 1.5949, 1.59847, 1.57901, 1.56949, 1.56996, 1.5644, 1.57804, 1.56368, 1.56181, 1.59866, 1.80288, 0.00349034, 1.49206, 1.54452, 1.53003, 1.52711, 1.52633, 1.50677, 1.50339, 1.49794, 1.49387, 1.49224, 1.49013, 1.48526, 1.47512, 1.46863, 1.46821, 1.46759, 1.4646, 1.45625, 1.44833, 1.44232, 1.4374, 1.43726, 1.42773, 1.42617, 1.43341, 1.44139, 1.44479, 1.46129, 1.44048, 1.44117, 1.45197, 1.44347, 1.41051, 1.39693, 1.40226, 1.39293, 1.37116, 1.36777, 1.36973, 1.37182, 1.35584, 1.35674, 1.35333, 1.3478, 1.34418, 1.345, 1.34236, 1.33828, 1.32898, 1.32666, 1.32767, 1.31488, 1.31867, 1.31393, 1.31935, 1.31194, 1.30005, 1.3088, 1.30406, 1.29641, 1.29248, 1.31258, 1.30671, 1.27464, 1.40237, 1.45687, 1.5473, 1.2585, 1.29195, 1.27314, 1.26823, 1.26001, 1.2753, 1.26312, 
1.60379, 1.60264, 1.60118, 1.60141, 1.59843, 1.59482, 1.5899, 1.58667, 1.57523, 1.56962, 1.5776, 1.56652, 1.60934, 1.63245, 1.7587, 1.53137, 1.53982, 1.53276, 1.53481, 1.53766, 1.52225, 1.51065, 1.5085, 1.49988, 1.49472, 1.49267, 1.48346, 1.48356, 1.51335, 1.47534, 1.46905, 1.46634, 1.45898, 1.45644, 1.45903, 1.44512, 1.45129, 1.44008, 1.43261, 1.43922, 1.44892, 1.4459, 1.46184, 1.44752, 1.44465, 1.44089, 1.45364, 1.41404, 1.41262, 1.39863, 1.38869, 1.38444, 1.37979, 1.38312, 1.37191, 1.37089, 1.369, 1.36571, 1.35693, 1.35512, 1.35482, 1.35013, 1.34707, 1.34356, 1.33935, 1.33986, 1.33059, 1.32629, 1.32246, 1.32108, 1.31892, 1.31344, 1.31568, 1.31164, 1.31035, 1.32739, 1.29961, 1.30564, 1.31538, 1.47537, 1.47208, 1.43736, 1.2581, 1.29794, 1.29025, 1.28741, 1.28588, 1.27291, 1.27396, 
1.60672, 1.63787, 1.59733, 1.59376, 1.59018, 1.58258, 1.57929, 1.57417, 1.56951, 1.57821, 1.57139, 1.5646, 1.54826, 1.89364, 1.78282, 1.60442, 1.53616, 1.54428, 1.52039, 1.51719, 1.51474, 1.50954, 1.50873, 1.49341, 1.48729, 1.48985, 1.49553, 1.48237, 1.4779, 1.47156, 1.46499, 1.45807, 1.45585, 1.45415, 1.44642, 1.46164, 1.45169, 1.43567, 1.43585, 1.44871, 1.44746, 1.45414, 1.4405, 1.43979, 1.45126, 1.43503, 1.4464, 1.43777, 1.41567, 1.39825, 1.41549, 1.39568, 1.38248, 1.37932, 1.39608, 1.37179, 1.36708, 1.36381, 1.3574, 1.35603, 1.35697, 1.34815, 1.34481, 1.34072, 1.3369, 1.33567, 1.33108, 1.3276, 1.32316, 1.32162, 1.3239, 1.31335, 1.31253, 1.33131, 1.31322, 1.32733, 1.30806, 1.30662, 1.28809, 1.36529, 1.57568, 1.48006, 1.30286, 1.29915, 1.29609, 1.28457, 1.28975, 1.28926, 1.27528, 
1.60317, 1.60112, 1.59526, 1.59245, 1.58968, 1.57751, 1.57114, 1.59866, 1.56614, 1.566, 1.57511, 1.56672, 1.54758, 1.679, 2.14143, 1.50628, 1.52851, 1.52709, 1.51014, 1.5128, 1.51015, 1.5064, 1.50015, 1.47625, 1.47585, 1.48435, 1.48531, 1.48133, 1.47281, 1.46991, 1.46285, 1.45621, 1.45311, 1.44904, 1.44334, 1.43992, 1.43965, 1.43418, 1.43489, 1.43957, 1.44977, 1.44161, 1.44333, 1.42692, 1.43678, 1.44038, 1.43005, 1.41334, 1.40891, 1.39041, 1.38498, 1.382, 1.37784, 1.37449, 1.37198, 1.36832, 1.36447, 1.36069, 1.35565, 1.35398, 1.35206, 1.34829, 1.34077, 1.33875, 1.33469, 1.33593, 1.32819, 1.32567, 1.32086, 1.32074, 1.31727, 1.31169, 1.31318, 1.33687, 1.31324, 1.30541, 1.30583, 1.30519, 1.30202, 1.46826, 1.56211, 1.59331, 1.51616, 1.48826, 1.30601, 1.27902, 1.28968, 1.29601, 1.27103, 
1.6033, 1.59829, 1.59598, 1.59395, 1.58957, 1.58036, 1.57021, 1.57409, 1.5689, 1.56985, 1.55914, 1.55879, 1.5679, 1.72741, 0.00347253, 1.51591, 1.5364, 1.53376, 1.52648, 1.52058, 1.52198, 1.50337, 1.49922, 1.48347, 1.48526, 1.48315, 1.48243, 1.47871, 1.47494, 1.47063, 1.46421, 1.45903, 1.45127, 1.45061, 1.44589, 1.43865, 1.43583, 1.43636, 1.43368, 1.44337, 1.44124, 1.44774, 1.44176, 1.43416, 1.43498, 1.436, 1.43241, 1.42123, 1.4096, 1.3957, 1.38462, 1.37876, 1.37797, 1.37111, 1.36841, 1.39108, 1.36287, 1.3601, 1.39788, 1.35473, 1.35165, 1.34674, 1.34232, 1.3377, 1.33596, 1.33577, 1.33043, 1.33432, 1.32335, 1.31949, 1.31668, 1.31231, 1.31389, 1.30995, 1.31951, 1.30216, 1.30095, 1.30003, 1.28206, 1.29203, 1.45449, 1.71435, 1.5002, 1.48904, 1.35903, 1.28787, 1.27463, 1.27364, 1.26842, 
1.59961, 1.59299, 1.59562, 1.59286, 1.59017, 1.58163, 1.57168, 1.56924, 1.57472, 1.57245, 1.55593, 1.56567, 1.56403, 1.70188, 1.95588, 1.50319, 1.5282, 1.53492, 1.51789, 1.51636, 1.52018, 1.5003, 1.50324, 1.49314, 1.48614, 1.48322, 1.47913, 1.47541, 1.47428, 1.46892, 1.46274, 1.4533, 1.44932, 1.44701, 1.44586, 1.43775, 1.4362, 1.44753, 1.43394, 1.43787, 1.44948, 1.45462, 1.44384, 1.44482, 1.43994, 1.43716, 1.43308, 1.43385, 1.40229, 1.38876, 1.38607, 1.3782, 1.37286, 1.36852, 1.36489, 1.36243, 1.36027, 1.35875, 1.35442, 1.35031, 1.34788, 1.34569, 1.34032, 1.3371, 1.33747, 1.33657, 1.33361, 1.32795, 1.32333, 1.31849, 1.31416, 1.31412, 1.31236, 1.3095, 1.30806, 1.29905, 1.29582, 1.31243, 1.26867, 1.39544, 1.65906, 1.50012, 1.49496, 1.46765, 1.38659, 1.27242, 1.2722, 1.27442, 1.26898, 
1.59135, 1.58568, 1.58266, 1.58325, 1.58158, 1.5747, 1.56627, 1.56599, 1.56333, 1.56181, 1.57048, 1.55735, 1.54168, 1.8037, 0.00362538, 1.50184, 1.52705, 1.51407, 1.51047, 1.50843, 1.50264, 1.49754, 1.49524, 1.48814, 1.48404, 1.47754, 1.47445, 1.46978, 1.46534, 1.46147, 1.45594, 1.45238, 1.44802, 1.4448, 1.44133, 1.44042, 1.43224, 1.43102, 1.43199, 1.43414, 1.4456, 1.45045, 1.45736, 1.46519, 1.43733, 1.427, 1.42562, 1.40608, 1.40645, 1.39925, 1.3795, 1.37567, 1.37059, 1.36759, 1.368, 1.36087, 1.35695, 1.35486, 1.35066, 1.34567, 1.34424, 1.34125, 1.33714, 1.33146, 1.3307, 1.33401, 1.32973, 1.3215, 1.31735, 1.31299, 1.30704, 1.30563, 1.30779, 1.30219, 1.29899, 1.30129, 1.29085, 1.29494, 1.28912, 1.44851, 1.67183, 1.96077, 1.49511, 1.41644, 1.31228, 1.26571, 1.26667, 1.27325, 1.26416, 
1.58572, 1.58314, 1.58164, 1.57668, 1.57222, 1.56425, 1.56116, 1.55799, 1.55755, 1.56123, 1.56708, 1.56209, 1.53612, 1.6666, 1.68321, 1.49074, 1.51446, 1.52059, 1.51301, 1.50957, 1.51395, 1.49643, 1.49292, 1.48382, 1.47884, 1.4729, 1.47293, 1.46277, 1.45791, 1.46387, 1.451, 1.44477, 1.44453, 1.43999, 1.43797, 1.4353, 1.43056, 1.43785, 1.42882, 1.44811, 1.4358, 1.45758, 1.44029, 1.42586, 1.41966, 1.44054, 1.41173, 1.41968, 1.39117, 1.386, 1.36918, 1.36595, 1.3715, 1.3633, 1.36154, 1.35841, 1.3542, 1.35234, 1.34879, 1.34976, 1.339, 1.33495, 1.33552, 1.32839, 1.32626, 1.32557, 1.32305, 1.31553, 1.31088, 1.324, 1.30354, 1.30212, 1.30008, 1.30197, 1.28938, 1.30241, 1.28434, 1.28111, 1.27763, 1.44179, 1.61912, 1.63423, 1.58733, 1.32089, 1.28229, 1.26076, 1.27793, 1.25692, 1.26381, 
1.58558, 1.58477, 1.58211, 1.57884, 1.57289, 1.56661, 1.56153, 1.5561, 1.55198, 1.55546, 1.55882, 1.54471, 1.5185, 1.59236, 1.62744, 1.4815, 1.51391, 1.50636, 1.50192, 1.50017, 1.49829, 1.4969, 1.49121, 1.49137, 1.48206, 1.47321, 1.46733, 1.46172, 1.4558, 1.45, 1.44965, 1.44698, 1.44403, 1.43853, 1.43817, 1.4349, 1.44054, 1.4264, 1.42413, 1.43063, 1.44784, 1.45161, 1.44439, 1.42367, 1.41668, 1.42762, 1.41193, 1.40179, 1.39071, 1.37878, 1.36795, 1.36263, 1.3603, 1.35814, 1.35689, 1.35419, 1.35155, 1.35094, 1.34516, 1.34085, 1.33716, 1.33128, 1.32738, 1.33404, 1.32106, 1.31964, 1.3219, 1.3182, 1.31561, 1.31016, 1.30588, 1.30193, 1.30294, 1.29652, 1.28781, 1.29238, 1.29178, 1.28655, 1.28034, 1.42621, 1.52593, 1.49671, 1.39362, 1.278, 1.27889, 1.26292, 1.2609, 1.25987, 1.25502, 
1.59049, 1.58572, 1.58341, 1.58005, 1.57824, 1.56672, 1.56409, 1.5622, 1.56278, 1.57136, 1.55948, 1.55243, 1.52083, 1.67947, 1.67909, 1.75809, 1.51475, 1.5134, 1.51707, 1.50849, 1.49882, 1.50236, 1.4906, 1.4879, 1.4836, 1.4768, 1.47164, 1.46724, 1.46176, 1.45558, 1.45566, 1.45123, 1.44822, 1.44428, 1.44068, 1.43551, 1.4304, 1.42594, 1.42623, 1.4277, 1.43722, 1.44393, 1.43084, 1.44289, 1.42926, 1.44791, 1.40861, 1.40903, 1.40724, 1.38143, 1.37056, 1.36338, 1.36353, 1.36105, 1.35707, 1.3541, 1.36097, 1.35149, 1.34741, 1.34326, 1.33843, 1.33407, 1.32135, 1.32108, 1.33333, 1.32559, 1.31937, 1.31554, 1.31541, 1.31037, 1.30917, 1.30412, 1.30303, 1.30519, 1.29874, 1.29162, 1.29076, 1.29494, 1.28159, 1.31636, 1.58766, 1.49392, 1.47476, 1.27855, 1.27822, 1.26719, 1.265, 1.26016, 1.25451, 
1.58869, 1.58538, 1.58151, 1.57759, 1.57212, 1.56924, 1.56381, 1.5757, 1.55539, 1.56558, 1.54778, 1.55601, 1.5459, 1.77901, 1.72145, 1.6785, 1.52045, 1.51017, 1.50547, 1.50304, 1.49849, 1.49597, 1.48887, 1.48316, 1.48325, 1.48563, 1.47294, 1.46906, 1.46214, 1.45752, 1.45513, 1.45132, 1.44419, 1.44285, 1.44038, 1.43466, 1.43572, 1.43668, 1.43254, 1.42614, 1.43635, 1.43242, 1.44317, 1.43204, 1.42409, 1.42015, 1.40934, 1.40414, 1.38674, 1.37591, 1.37016, 1.36564, 1.36453, 1.37476, 1.35818, 1.35583, 1.35557, 1.35414, 1.35103, 1.34652, 1.34057, 1.33186, 1.32731, 1.3249, 1.32437, 1.31985, 1.3175, 1.3176, 1.31386, 1.31206, 1.31816, 1.30689, 1.30644, 1.30332, 1.30928, 1.30892, 1.29235, 1.29283, 1.29185, 1.28767, 1.60082, 1.57844, 1.23742, 1.23573, 1.27818, 1.26703, 1.27122, 1.2615, 1.25601, 
1.58761, 1.58179, 1.58208, 1.57324, 1.56815, 1.56217, 1.55277, 1.55119, 1.54778, 1.55098, 1.5472, 1.5458, 1.55228, 1.68374, 1.68722, 1.52364, 1.50268, 1.51644, 1.52053, 1.50438, 1.4972, 1.49166, 1.48279, 1.47571, 1.47008, 1.47936, 1.46491, 1.45865, 1.46238, 1.44642, 1.44357, 1.43997, 1.43662, 1.43583, 1.43764, 1.42674, 1.41961, 1.41856, 1.42231, 1.41966, 1.42431, 1.43475, 1.44359, 1.44711, 1.41602, 1.41358, 1.41554, 1.38954, 1.38348, 1.37483, 1.36901, 1.36397, 1.36033, 1.35376, 1.35097, 1.35573, 1.3509, 1.34561, 1.34357, 1.3363, 1.3403, 1.33091, 1.33321, 1.3308, 1.32541, 1.31456, 1.31257, 1.30975, 1.31486, 1.30474, 1.30211, 1.30172, 1.29937, 1.29813, 1.30334, 1.3003, 1.29939, 1.28498, 1.3012, 1.24994, 1.50197, 1.79688, 1.49794, 1.27298, 1.26701, 1.26748, 1.25771, 1.25051, 1.24738, 
