1.63376, 1.61751, 1.60307, 1.59974, 1.59625, 1.59159, 1.6051, 1.58537, 1.59357, 1.60686, 1.62028, 1.6766, 1.70271, 1.54284, 1.55191, 1.54793, 1.54342, 1.53457, 1.54103, 1.52701, 1.52391, 1.50907, 1.51996, 1.50248, 1.4984, 1.49686, 1.49337, 1.4834, 1.48047, 1.47469, 1.51789, 1.46606, 1.45864, 1.46069, 1.45327, 1.4515, 1.45707, 1.45319, 1.41899, 1.53609, 1.75737, 1.78963, 1.41269, 1.41358, 1.42356, 1.41365, 1.41157, 1.41274, 1.40162, 1.39525, 1.39289, 1.38972, 1.38171, 1.37915, 1.37224, 1.36942, 1.36695, 1.36212, 1.35814, 1.35532, 1.3561, 1.35034, 1.35147, 1.34042, 1.34291, 1.33158, 1.32924, 1.33014, 1.32614, 1.31892, 1.31707, 1.31459, 1.31362, 1.32256, 1.33627, 1.33364, 1.33446, 1.34115, 1.34445, 1.38268, 1.33293, 1.31933, 1.30137, 1.28434, 1.27846, 1.27505, 1.27523, 1.27468, 1.30311, 
1.65203, 1.61999, 1.61173, 1.61269, 1.60189, 1.60197, 1.60121, 1.58859, 1.62751, 1.6525, 1.66094, 1.70579, 1.70923, 1.61351, 1.56578, 1.56887, 1.5578, 1.5453, 1.54906, 1.54727, 1.53328, 1.51607, 1.51547, 1.51109, 1.5054, 1.50027, 1.49364, 1.49155, 1.48889, 1.48573, 1.48228, 1.47837, 1.48218, 1.46627, 1.45843, 1.45604, 1.45117, 1.45807, 1.4443, 1.55429, 1.71296, 1.74494, 1.49584, 1.43463, 1.43342, 1.42523, 1.41928, 1.42134, 1.40088, 1.39585, 1.39159, 1.38989, 1.38988, 1.38809, 1.38566, 1.37772, 1.37507, 1.37503, 1.36855, 1.36283, 1.35728, 1.35607, 1.35077, 1.34755, 1.34393, 1.34196, 1.34313, 1.34054, 1.3438, 1.33805, 1.33095, 1.33301, 1.33991, 1.33384, 1.33316, 1.37456, 1.3445, 1.36832, 1.3717, 1.3539, 1.32672, 1.31196, 1.29887, 1.28523, 1.28109, 1.27842, 1.27812, 1.28147, 1.2897, 
1.66085, 1.67621, 1.62829, 1.62269, 1.61449, 1.60709, 1.61023, 1.60661, 1.62447, 1.64205, 1.67365, 1.69987, 1.64157, 1.56084, 1.57264, 1.57384, 1.55504, 1.54757, 1.54362, 1.56573, 1.55454, 1.54458, 1.52766, 1.51932, 1.51249, 1.51003, 1.50614, 1.50337, 1.49753, 1.49285, 1.49083, 1.4858, 1.48146, 1.47973, 1.49023, 1.47083, 1.47199, 1.44527, 1.44323, 1.55791, 1.7381, 1.7367, 1.62653, 1.44829, 1.44503, 1.43806, 1.42971, 1.42073, 1.41449, 1.41593, 1.41718, 1.40425, 1.40286, 1.39734, 1.3931, 1.38934, 1.38591, 1.38394, 1.42635, 1.37975, 1.37188, 1.36571, 1.36118, 1.35404, 1.34943, 1.34725, 1.34865, 1.35292, 1.35434, 1.34974, 1.3449, 1.34269, 1.34002, 1.34251, 1.35994, 1.35272, 1.3642, 1.41756, 1.4167, 1.37396, 1.33198, 1.32369, 1.33323, 1.3107, 1.30913, 1.30574, 1.30146, 1.29551, 1.29088, 
1.63544, 1.62819, 1.63317, 1.6244, 1.63454, 1.62326, 1.61431, 1.61437, 1.59818, 1.63703, 1.68948, 1.74619, 1.71336, 1.58846, 1.57654, 1.5753, 1.57164, 1.55563, 1.54745, 1.55132, 1.56088, 1.54824, 1.53722, 1.5307, 1.52427, 1.51763, 1.52365, 1.51133, 1.50247, 1.49872, 1.49319, 1.48976, 1.48843, 1.50284, 1.49285, 1.48544, 1.4749, 1.47233, 1.43545, 1.5431, 1.7188, 1.71839, 1.62302, 1.42293, 1.44729, 1.46329, 1.43405, 1.42469, 1.44688, 1.4198, 1.41637, 1.4146, 1.40981, 1.40576, 1.40362, 1.39779, 1.39492, 1.39395, 1.39163, 1.3915, 1.3881, 1.38081, 1.37502, 1.36602, 1.36226, 1.35824, 1.35968, 1.35392, 1.35132, 1.34878, 1.34916, 1.34548, 1.34103, 1.35158, 1.34326, 1.35316, 1.37402, 1.38836, 1.46076, 1.39356, 1.36879, 1.32365, 1.32059, 1.31461, 1.31025, 1.30312, 1.29792, 1.29898, 1.29692, 
1.6549, 1.64785, 1.66883, 1.64949, 1.63836, 1.63766, 1.6139, 1.61367, 1.59617, 1.68689, 1.74734, 1.74792, 1.72149, 1.66427, 1.60329, 1.57933, 1.56644, 1.56013, 1.55812, 1.54815, 1.54877, 1.55265, 1.54885, 1.53673, 1.53679, 1.52531, 1.52245, 1.51742, 1.51655, 1.50834, 1.50322, 1.49805, 1.49417, 1.49097, 1.5061, 1.47904, 1.4764, 1.47921, 1.44934, 1.53237, 1.67709, 1.68742, 1.63435, 1.4055, 1.44673, 1.45469, 1.437, 1.42762, 1.42294, 1.41747, 1.41561, 1.41276, 1.41185, 1.40931, 1.4064, 1.39988, 1.39507, 1.39538, 1.38777, 1.38814, 1.38841, 1.3853, 1.38458, 1.3786, 1.37738, 1.36618, 1.36446, 1.36712, 1.36457, 1.36374, 1.35785, 1.35241, 1.35368, 1.35968, 1.34786, 1.37598, 1.38793, 1.39761, 1.42275, 1.4328, 1.36331, 1.32636, 1.33588, 1.31798, 1.31968, 1.3185, 1.30605, 1.30274, 1.3021, 
1.64776, 1.64781, 1.6496, 1.63443, 1.64938, 1.64836, 1.63044, 1.63196, 1.64009, 1.72432, 1.73871, 1.79647, 1.75045, 1.70728, 1.57107, 1.60391, 1.59687, 1.57498, 1.57017, 1.56258, 1.55539, 1.56146, 1.56985, 1.55096, 1.54071, 1.53245, 1.53475, 1.52341, 1.51848, 1.51288, 1.50865, 1.50351, 1.49889, 1.49536, 1.49172, 1.48934, 1.48604, 1.48469, 1.45423, 1.56924, 1.6111, 1.67839, 1.67396, 1.5389, 1.45297, 1.45031, 1.45077, 1.43461, 1.43168, 1.42787, 1.42498, 1.42149, 1.41966, 1.41864, 1.42046, 1.41229, 1.40621, 1.40284, 1.40187, 1.39643, 1.39498, 1.39075, 1.38753, 1.38435, 1.37863, 1.37498, 1.37204, 1.36893, 1.36893, 1.36752, 1.36403, 1.3591, 1.35871, 1.35788, 1.35809, 1.34953, 1.39539, 1.42163, 1.44677, 1.44457, 1.35128, 1.35087, 1.33766, 1.33059, 1.31798, 1.31397, 1.30886, 1.30686, 1.30707, 
1.66228, 1.6635, 1.65241, 1.6519, 1.65751, 1.66103, 1.63845, 1.64605, 1.61086, 1.66633, 1.71638, 1.75967, 1.76955, 1.72059, 1.59221, 1.59931, 1.58629, 1.57278, 1.56883, 1.56544, 1.56266, 1.55782, 1.55664, 1.5823, 1.54783, 1.53573, 1.53166, 1.52754, 1.52323, 1.51978, 1.516, 1.51263, 1.50726, 1.50326, 1.49788, 1.49799, 1.49646, 1.49986, 1.47677, 1.57648, 1.65179, 1.67513, 1.62915, 1.5127, 1.47216, 1.46495, 1.46666, 1.45026, 1.45408, 1.43661, 1.43139, 1.42731, 1.42352, 1.4216, 1.42141, 1.41608, 1.41262, 1.41214, 1.40684, 1.4044, 1.40155, 1.39544, 1.38998, 1.38818, 1.38134, 1.37446, 1.37145, 1.36609, 1.36386, 1.36068, 1.35999, 1.36126, 1.35997, 1.36964, 1.38171, 1.3994, 1.42322, 1.43663, 1.47882, 1.45102, 1.39808, 1.34599, 1.33801, 1.32561, 1.32292, 1.3202, 1.31879, 1.31235, 1.31456, 
1.66513, 1.65899, 1.65657, 1.64972, 1.6479, 1.66298, 1.65559, 1.64503, 1.61565, 1.6964, 1.76529, 1.80706, 1.78578, 1.7056, 1.60954, 1.61316, 1.58859, 1.58452, 1.59592, 1.57245, 1.56998, 1.57362, 1.56132, 1.55841, 1.57498, 1.54156, 1.53744, 1.5346, 1.53272, 1.52887, 1.52772, 1.5231, 1.51517, 1.51077, 1.50566, 1.5031, 1.50001, 1.51804, 1.47265, 1.5306, 1.58931, 1.67618, 1.63428, 1.52086, 1.4679, 1.48167, 1.47438, 1.463, 1.45058, 1.44667, 1.46804, 1.43824, 1.43518, 1.43405, 1.42957, 1.42541, 1.41787, 1.41762, 1.41352, 1.41034, 1.40772, 1.40217, 1.39965, 1.39215, 1.39342, 1.38456, 1.3799, 1.39262, 1.37523, 1.37331, 1.3726, 1.37089, 1.38147, 1.38502, 1.39015, 1.43821, 1.47644, 1.45171, 1.47226, 1.44755, 1.41796, 1.34171, 1.3484, 1.33254, 1.32798, 1.32906, 1.32366, 1.32377, 1.32382, 
1.66764, 1.66004, 1.65464, 1.64583, 1.64198, 1.63749, 1.65848, 1.65149, 1.60948, 1.69734, 1.75232, 1.81597, 1.8209, 1.68677, 1.60472, 1.60584, 1.58267, 1.57697, 1.58568, 1.56676, 1.56273, 1.55781, 1.56957, 1.5483, 1.5515, 1.55188, 1.52745, 1.52812, 1.52819, 1.53745, 1.51734, 1.55147, 1.51259, 1.49551, 1.48932, 1.49676, 1.48672, 1.4994, 1.47794, 1.54131, 1.61073, 1.61824, 1.61951, 1.50027, 1.43386, 1.47032, 1.45546, 1.44051, 1.44623, 1.43393, 1.43258, 1.43053, 1.42741, 1.4239, 1.42, 1.41765, 1.41803, 1.41637, 1.41238, 1.40779, 1.40403, 1.40409, 1.40001, 1.40401, 1.39378, 1.39052, 1.38514, 1.37862, 1.3752, 1.37817, 1.37199, 1.36863, 1.36421, 1.3754, 1.3694, 1.35131, 1.42978, 1.45964, 1.48162, 1.5034, 1.45385, 1.3622, 1.34159, 1.33674, 1.34109, 1.3309, 1.32535, 1.32275, 1.31755, 
1.67543, 1.6674, 1.66067, 1.65867, 1.65889, 1.66485, 1.65444, 1.65823, 1.62345, 1.65797, 1.73044, 1.83593, 1.83897, 1.70817, 1.60289, 1.60714, 1.59156, 1.59718, 1.57908, 1.5861, 1.57121, 1.56927, 1.56181, 1.56148, 1.55502, 1.56552, 1.57297, 1.55449, 1.53952, 1.52811, 1.52877, 1.52327, 1.52985, 1.5228, 1.5226, 1.52163, 1.5124, 1.50924, 1.51427, 1.51551, 1.61376, 1.66079, 1.65092, 1.59946, 1.45052, 1.47035, 1.4746, 1.47375, 1.46768, 1.46313, 1.45509, 1.4485, 1.44469, 1.43489, 1.42716, 1.43392, 1.43158, 1.4266, 1.4199, 1.41536, 1.42366, 1.41225, 1.40676, 1.40275, 1.39875, 1.39885, 1.395, 1.39007, 1.39363, 1.39148, 1.37669, 1.37564, 1.3823, 1.37987, 1.38323, 1.38164, 1.45487, 1.52038, 1.48991, 1.50592, 1.44766, 1.37468, 1.34984, 1.34626, 1.33861, 1.33791, 1.33587, 1.33029, 1.32516, 
1.67571, 1.67939, 1.66932, 1.65817, 1.6573, 1.65364, 1.64731, 1.63725, 1.62465, 1.65445, 1.72049, 1.83973, 1.85867, 1.67962, 1.60429, 1.60942, 1.60327, 1.6034, 1.6012, 1.58349, 1.58013, 1.57908, 1.56873, 1.56253, 1.55851, 1.56842, 1.56118, 1.55943, 1.56158, 1.5407, 1.52766, 1.52669, 1.52394, 1.51912, 1.52755, 1.51143, 1.50933, 1.51702, 1.51681, 1.56229, 1.60587, 1.65956, 1.63399, 1.5878, 1.4864, 1.45495, 1.48711, 1.49589, 1.47137, 1.48495, 1.4506, 1.45403, 1.4377, 1.43668, 1.43493, 1.43461, 1.4406, 1.42364, 1.43056, 1.42016, 1.41561, 1.41216, 1.40983, 1.4033, 1.40002, 1.3966, 1.39552, 1.39152, 1.39755, 1.38779, 1.39289, 1.37867, 1.37924, 1.37826, 1.39314, 1.37042, 1.38146, 1.4622, 1.50708, 1.53773, 1.4729, 1.36859, 1.37217, 1.35127, 1.35876, 1.3376, 1.36228, 1.34038, 1.331, 
1.67055, 1.66547, 1.66921, 1.66257, 1.65861, 1.64892, 1.63751, 1.63466, 1.63327, 1.6535, 1.72028, 1.79535, 1.86379, 1.67246, 1.58326, 1.60221, 1.6097, 1.58901, 1.58003, 1.57698, 1.56738, 1.56095, 1.55438, 1.55124, 1.54737, 1.54555, 1.53816, 1.53368, 1.5486, 1.54228, 1.53068, 1.5195, 1.5156, 1.51255, 1.50663, 1.49919, 1.49283, 1.5006, 1.49546, 1.4689, 1.59394, 1.63429, 1.619, 1.57897, 1.46064, 1.47216, 1.46098, 1.45862, 1.45752, 1.43606, 1.44704, 1.43312, 1.43145, 1.42963, 1.42902, 1.42236, 1.41948, 1.41815, 1.40963, 1.4109, 1.40949, 1.40241, 1.39488, 1.39103, 1.38826, 1.38249, 1.37798, 1.3814, 1.37996, 1.37207, 1.38866, 1.37902, 1.36463, 1.36571, 1.38284, 1.34624, 1.40947, 1.42938, 1.57511, 1.54061, 1.46691, 1.32147, 1.36668, 1.35497, 1.34045, 1.32546, 1.32348, 1.31956, 1.31763, 
1.65412, 1.64772, 1.64083, 1.63452, 1.62864, 1.62396, 1.61819, 1.61259, 1.61663, 1.60638, 1.71353, 1.80657, 1.87461, 1.7331, 1.56159, 1.58215, 1.57529, 1.57039, 1.56427, 1.55818, 1.55165, 1.54872, 1.54701, 1.54437, 1.53667, 1.53343, 1.52685, 1.51682, 1.5143, 1.53027, 1.51601, 1.50419, 1.50128, 1.49839, 1.49583, 1.48966, 1.48574, 1.48573, 1.48166, 1.48799, 1.54137, 1.61339, 1.61371, 1.58239, 1.43654, 1.45827, 1.45383, 1.44406, 1.46646, 1.44032, 1.44328, 1.42579, 1.43083, 1.41124, 1.40942, 1.40274, 1.39864, 1.39539, 1.39164, 1.38856, 1.38651, 1.38392, 1.37926, 1.37777, 1.37285, 1.3686, 1.36605, 1.36009, 1.35687, 1.35337, 1.35055, 1.34655, 1.34377, 1.34174, 1.34328, 1.32731, 1.42577, 1.4892, 1.54026, 1.53156, 1.49639, 1.3287, 1.32202, 1.31291, 1.31073, 1.30808, 1.30485, 1.30023, 1.30112, 
1.65488, 1.65155, 1.64797, 1.6464, 1.6351, 1.62891, 1.63052, 1.62155, 1.62072, 1.59513, 1.68946, 1.83762, 1.91538, 1.72016, 1.56392, 1.58853, 1.57966, 1.56995, 1.56793, 1.5573, 1.55375, 1.54779, 1.54444, 1.5429, 1.53459, 1.5323, 1.52612, 1.52224, 1.51637, 1.52912, 1.53864, 1.51609, 1.50971, 1.49262, 1.48977, 1.48592, 1.48076, 1.48514, 1.48525, 1.47102, 1.52961, 1.58202, 1.58161, 1.57559, 1.47495, 1.43423, 1.44555, 1.44721, 1.43361, 1.46131, 1.45079, 1.42757, 1.41751, 1.4129, 1.41261, 1.40622, 1.40457, 1.39887, 1.39651, 1.39276, 1.38996, 1.38591, 1.38201, 1.37979, 1.37447, 1.36918, 1.36486, 1.3619, 1.36083, 1.35849, 1.35475, 1.35424, 1.35025, 1.36846, 1.35447, 1.33609, 1.40979, 1.49226, 1.53367, 1.52771, 1.43997, 1.29276, 1.32951, 1.32108, 1.3128, 1.31015, 1.31135, 1.30877, 1.30417, 
1.65503, 1.6511, 1.64273, 1.63842, 1.63322, 1.62906, 1.62534, 1.62097, 1.62079, 1.6038, 1.66885, 1.76621, 1.91457, 1.93478, 1.57929, 1.58643, 1.57918, 1.56858, 1.56179, 1.55802, 1.56021, 1.55187, 1.54764, 1.5422, 1.53698, 1.53361, 1.52854, 1.52329, 1.51986, 1.51929, 1.51075, 1.53028, 1.50732, 1.49757, 1.49299, 1.48906, 1.48596, 1.49659, 1.48573, 1.45603, 1.56215, 1.57208, 1.61312, 1.57656, 1.48198, 1.46139, 1.46256, 1.43858, 1.43495, 1.43192, 1.45463, 1.44125, 1.42323, 1.41253, 1.4086, 1.40528, 1.40489, 1.40057, 1.3991, 1.39405, 1.39088, 1.38582, 1.38245, 1.37831, 1.37198, 1.36897, 1.36544, 1.36437, 1.36081, 1.35837, 1.35547, 1.35385, 1.34911, 1.34368, 1.3439, 1.35908, 1.37254, 1.44368, 1.38877, 1.5641, 1.51269, 1.34404, 1.33755, 1.33049, 1.32706, 1.31817, 1.32392, 1.3143, 1.31179, 
1.65503, 1.65114, 1.64245, 1.63567, 1.63029, 1.62779, 1.62349, 1.64331, 1.62371, 1.62028, 1.7062, 1.7474, 1.95654, 1.94936, 1.55059, 1.58934, 1.57529, 1.57181, 1.5633, 1.55889, 1.55456, 1.54702, 1.54247, 1.54096, 1.53526, 1.52868, 1.52566, 1.521, 1.51433, 1.51356, 1.50638, 1.50572, 1.52634, 1.51112, 1.49628, 1.49137, 1.48572, 1.48134, 1.48539, 1.45565, 1.52723, 1.56791, 1.55444, 1.54316, 1.51219, 1.44407, 1.45062, 1.44219, 1.43502, 1.43027, 1.42652, 1.4409, 1.41661, 1.41287, 1.41927, 1.4084, 1.40522, 1.40412, 1.39969, 1.39588, 1.39454, 1.38939, 1.3854, 1.38205, 1.37862, 1.37332, 1.36516, 1.35817, 1.3573, 1.35368, 1.35242, 1.35142, 1.35232, 1.35145, 1.35132, 1.35313, 1.3754, 1.46255, 1.54712, 1.58196, 1.49544, 1.3066, 1.32624, 1.32728, 1.31588, 1.31325, 1.31408, 1.31063, 1.3119, 
1.65166, 1.64663, 1.6418, 1.63391, 1.63011, 1.62193, 1.62046, 1.62412, 1.6231, 1.61745, 1.62491, 1.72386, 1.89444, 2.22086, 1.61048, 1.59204, 1.58431, 1.56725, 1.56378, 1.55736, 1.55099, 1.57792, 1.54369, 1.54016, 1.53401, 1.53086, 1.52652, 1.52008, 1.51405, 1.5069, 1.50255, 1.49897, 1.50395, 1.51998, 1.50662, 1.49028, 1.48363, 1.49049, 1.48159, 1.47831, 1.55601, 1.57961, 1.55385, 1.59182, 1.46985, 1.44835, 1.44903, 1.45426, 1.43302, 1.42957, 1.42963, 1.438, 1.45461, 1.41671, 1.413, 1.41249, 1.39976, 1.39662, 1.39386, 1.39066, 1.38789, 1.38666, 1.38257, 1.37922, 1.37753, 1.37402, 1.37111, 1.36891, 1.36427, 1.36317, 1.36187, 1.35456, 1.3522, 1.35015, 1.347, 1.35061, 1.3694, 1.46552, 1.55233, 1.57051, 1.46189, 1.33022, 1.34067, 1.32724, 1.3168, 1.31408, 1.31231, 1.30904, 1.30583, 
1.65525, 1.65382, 1.64387, 1.63637, 1.63414, 1.62977, 1.62042, 1.61708, 1.63383, 1.62353, 1.58798, 1.75456, 1.92719, 1.76217, 1.54869, 1.58633, 1.58014, 1.57306, 1.56055, 1.55518, 1.55107, 1.55348, 1.54132, 1.53715, 1.53136, 1.51985, 1.51623, 1.51396, 1.50984, 1.50743, 1.50531, 1.51376, 1.50029, 1.49696, 1.5096, 1.50242, 1.48543, 1.48021, 1.48318, 1.4547, 1.5308, 1.55049, 1.52552, 1.53468, 1.52036, 1.42467, 1.45753, 1.44885, 1.44128, 1.46841, 1.4548, 1.45103, 1.43115, 1.41199, 1.40695, 1.40573, 1.40066, 1.39734, 1.39129, 1.39115, 1.38457, 1.38299, 1.37847, 1.37401, 1.37216, 1.36834, 1.36647, 1.36433, 1.36239, 1.36009, 1.35602, 1.35525, 1.35021, 1.35234, 1.35131, 1.36781, 1.35362, 1.48104, 1.54394, 1.56935, 1.55123, 1.31317, 1.34115, 1.32031, 1.31992, 1.31882, 1.31818, 1.30849, 1.3057, 
1.64529, 1.64094, 1.63576, 1.6388, 1.63514, 1.6284, 1.63095, 1.61754, 1.61177, 1.60466, 1.60426, 1.75539, 1.85544, 1.9767, 1.5864, 1.5966, 1.58543, 1.59009, 1.57407, 1.56783, 1.55989, 1.5523, 1.5649, 1.53971, 1.53177, 1.52771, 1.52037, 1.51609, 1.51119, 1.50922, 1.5033, 1.49966, 1.49346, 1.50898, 1.49396, 1.51366, 1.53583, 1.52089, 1.48168, 1.47019, 1.51202, 1.53147, 1.49331, 1.51935, 1.50253, 1.46158, 1.46444, 1.45396, 1.45203, 1.43496, 1.44187, 1.42366, 1.423, 1.41355, 1.40996, 1.40572, 1.3991, 1.39677, 1.39446, 1.39095, 1.38683, 1.38199, 1.38091, 1.37713, 1.37798, 1.37324, 1.36935, 1.36758, 1.3611, 1.35871, 1.36011, 1.36718, 1.34669, 1.34282, 1.34146, 1.37085, 1.3503, 1.46537, 1.55273, 1.60745, 1.54137, 1.36112, 1.32648, 1.32939, 1.31533, 1.31377, 1.31059, 1.30798, 1.30792, 
1.64592, 1.63863, 1.63674, 1.6346, 1.63095, 1.62522, 1.62098, 1.62123, 1.60727, 1.60614, 1.59524, 1.67274, 1.89007, 2.03555, 1.56118, 1.55793, 1.55774, 1.56821, 1.59175, 1.57132, 1.56217, 1.54529, 1.53466, 1.53444, 1.5281, 1.5234, 1.51825, 1.5137, 1.50927, 1.50239, 1.50041, 1.49624, 1.49031, 1.48626, 1.48266, 1.47895, 1.47596, 1.48765, 1.48114, 1.48589, 1.53405, 1.53335, 1.49853, 1.49135, 1.52495, 1.44695, 1.45014, 1.44441, 1.43583, 1.43058, 1.42421, 1.42112, 1.41612, 1.41134, 1.40996, 1.40561, 1.40195, 1.39909, 1.39598, 1.39196, 1.38783, 1.38493, 1.38066, 1.37773, 1.37267, 1.37004, 1.36646, 1.36388, 1.36058, 1.35607, 1.35472, 1.35204, 1.3475, 1.34656, 1.34298, 1.3428, 1.35457, 1.42968, 1.56304, 1.61321, 1.62445, 1.3131, 1.33708, 1.32799, 1.31447, 1.31298, 1.3098, 1.30865, 1.30889, 
1.63874, 1.63271, 1.62924, 1.6258, 1.62184, 1.61576, 1.60813, 1.60352, 1.60037, 1.60565, 1.58555, 1.64511, 1.86274, 2.01815, 1.54789, 1.57279, 1.60311, 1.59524, 1.57652, 1.58142, 1.55853, 1.55099, 1.5578, 1.52734, 1.52151, 1.5201, 1.51275, 1.51014, 1.50719, 1.49893, 1.49542, 1.49165, 1.48644, 1.48572, 1.47854, 1.47303, 1.4713, 1.4694, 1.4763, 1.48549, 1.54192, 1.50996, 1.48168, 1.46368, 1.48458, 1.4915, 1.43992, 1.43291, 1.42105, 1.41799, 1.41446, 1.41164, 1.4093, 1.40829, 1.40491, 1.40144, 1.39799, 1.39178, 1.38918, 1.38478, 1.37827, 1.37772, 1.37421, 1.37198, 1.36811, 1.36533, 1.36135, 1.35853, 1.35536, 1.35453, 1.35293, 1.3468, 1.343, 1.35051, 1.34191, 1.34364, 1.35481, 1.37416, 1.44487, 1.55812, 1.70745, 1.32275, 1.33957, 1.33064, 1.31998, 1.30755, 1.30945, 1.30417, 1.29965, 
1.62764, 1.62619, 1.62237, 1.62077, 1.61797, 1.61341, 1.60686, 1.60715, 1.60372, 1.59517, 1.59625, 1.58285, 1.78341, 1.76218, 1.5908, 1.53514, 1.55837, 1.55755, 1.55433, 1.5552, 1.54084, 1.53519, 1.5309, 1.52374, 1.52169, 1.51275, 1.50813, 1.50319, 1.49883, 1.49311, 1.48993, 1.48328, 1.47947, 1.47489, 1.47112, 1.46734, 1.47141, 1.46274, 1.46438, 1.45811, 1.50576, 1.51289, 1.51674, 1.48902, 1.4803, 1.4883, 1.45592, 1.44791, 1.42884, 1.41722, 1.41217, 1.40911, 1.4082, 1.40268, 1.40116, 1.39224, 1.38823, 1.38549, 1.38113, 1.37589, 1.37147, 1.37406, 1.37125, 1.36951, 1.36536, 1.35986, 1.35127, 1.3478, 1.34781, 1.34511, 1.34294, 1.34146, 1.33747, 1.33396, 1.33155, 1.33085, 1.3334, 1.37539, 1.41533, 1.59857, 1.67428, 1.29568, 1.31931, 1.31523, 1.30336, 1.30437, 1.30143, 1.29897, 1.29849, 
1.62874, 1.62281, 1.61496, 1.61162, 1.60736, 1.60583, 1.59927, 1.5995, 1.59377, 1.58352, 1.58838, 1.62458, 1.89998, 2.07693, 1.5852, 1.56793, 1.5723, 1.55443, 1.54902, 1.5543, 1.53329, 1.52752, 1.52057, 1.51802, 1.51551, 1.51362, 1.50911, 1.50215, 1.49959, 1.49284, 1.48566, 1.48277, 1.47726, 1.47244, 1.46812, 1.47049, 1.46403, 1.46179, 1.48291, 1.47213, 1.47568, 1.49102, 1.47592, 1.4587, 1.46347, 1.47802, 1.43358, 1.42128, 1.41194, 1.40781, 1.40672, 1.40499, 1.40309, 1.39937, 1.3927, 1.38887, 1.38542, 1.38152, 1.37792, 1.3769, 1.37135, 1.36713, 1.35952, 1.40583, 1.34979, 1.34644, 1.34346, 1.3408, 1.34149, 1.34728, 1.33856, 1.33687, 1.33393, 1.33839, 1.32824, 1.32569, 1.34396, 1.34358, 1.44477, 1.62984, 1.52734, 1.27618, 1.317, 1.30238, 1.31276, 1.30007, 1.29845, 1.29264, 1.29418, 
1.61851, 1.61464, 1.60972, 1.60322, 1.59724, 1.6065, 1.59016, 1.59245, 1.58209, 1.57836, 1.58905, 1.6242, 1.76285, 1.91094, 1.5226, 1.55587, 1.55136, 1.5531, 1.53363, 1.52997, 1.51957, 1.51487, 1.51248, 1.50683, 1.50217, 1.49726, 1.4933, 1.48937, 1.48385, 1.47701, 1.47512, 1.47119, 1.46698, 1.46246, 1.45798, 1.45259, 1.44892, 1.45042, 1.4525, 1.45456, 1.46267, 1.46431, 1.46806, 1.47047, 1.4661, 1.45972, 1.43152, 1.42064, 1.40665, 1.39936, 1.39489, 1.39281, 1.39069, 1.38491, 1.38173, 1.37799, 1.37441, 1.37074, 1.36668, 1.36732, 1.35984, 1.35958, 1.35703, 1.34862, 1.34421, 1.33773, 1.33477, 1.33338, 1.33395, 1.33431, 1.33182, 1.33072, 1.32625, 1.32316, 1.3175, 1.31752, 1.31993, 1.30664, 1.38808, 1.54503, 1.65403, 1.41291, 1.30946, 1.29675, 1.29307, 1.30201, 1.2848, 1.28879, 1.28275, 
1.60921, 1.62707, 1.6056, 1.61086, 1.58951, 1.58389, 1.58934, 1.58002, 1.589, 1.57298, 1.58215, 1.597, 1.78064, 1.98608, 1.6149, 1.53679, 1.53773, 1.53007, 1.5234, 1.52942, 1.51477, 1.51828, 1.50896, 1.50062, 1.49599, 1.49306, 1.48736, 1.4821, 1.48165, 1.47271, 1.468, 1.46283, 1.45753, 1.45752, 1.4552, 1.46104, 1.45074, 1.44888, 1.45219, 1.44861, 1.46377, 1.45097, 1.46375, 1.45732, 1.46292, 1.45444, 1.43802, 1.4238, 1.40382, 1.39036, 1.38787, 1.38657, 1.38527, 1.38547, 1.37822, 1.3759, 1.36821, 1.36462, 1.36182, 1.3612, 1.35808, 1.35502, 1.35051, 1.34529, 1.34179, 1.33948, 1.33748, 1.33345, 1.32824, 1.32554, 1.33138, 1.32373, 1.32611, 1.32211, 1.32896, 1.32712, 1.32947, 1.3155, 1.47815, 1.44251, 1.71235, 1.42961, 1.30663, 1.29736, 1.29914, 1.29303, 1.28455, 1.28915, 1.29439, 
1.59613, 1.59547, 1.59798, 1.59562, 1.58087, 1.58039, 1.57964, 1.57553, 1.56652, 1.56921, 1.56659, 1.58205, 1.64406, 2.06677, 1.51341, 1.53683, 1.54027, 1.53351, 1.51738, 1.50859, 1.5099, 1.50411, 1.50724, 1.49439, 1.49136, 1.48955, 1.47822, 1.47644, 1.4732, 1.47148, 1.46787, 1.462, 1.45685, 1.4477, 1.44097, 1.44045, 1.43374, 1.42699, 1.44082, 1.43423, 1.44148, 1.46075, 1.45135, 1.46815, 1.43703, 1.4393, 1.42444, 1.40632, 1.3975, 1.39068, 1.39374, 1.37468, 1.37324, 1.37458, 1.36496, 1.36417, 1.36051, 1.35277, 1.35052, 1.34912, 1.34674, 1.34631, 1.3404, 1.33107, 1.33157, 1.32519, 1.31877, 1.31727, 1.31608, 1.31428, 1.30648, 1.31135, 1.30929, 1.30697, 1.30638, 1.30136, 1.31609, 1.27911, 1.28236, 1.54236, 1.46918, 1.4604, 1.27789, 1.28029, 1.27146, 1.27808, 1.26422, 1.2676, 1.27773, 
1.59957, 1.59614, 1.59628, 1.59022, 1.58022, 1.57493, 1.56922, 1.56914, 1.57493, 1.57329, 1.56189, 1.56188, 1.64821, 1.97338, 1.51386, 1.53111, 1.53092, 1.52317, 1.52127, 1.52719, 1.50652, 1.50084, 1.48499, 1.48381, 1.48483, 1.48357, 1.48538, 1.4763, 1.47115, 1.46599, 1.45825, 1.45351, 1.4511, 1.44792, 1.43975, 1.43754, 1.43719, 1.43392, 1.44303, 1.46317, 1.43942, 1.44434, 1.44798, 1.43595, 1.44048, 1.43658, 1.43085, 1.4097, 1.3967, 1.38534, 1.38164, 1.3807, 1.37157, 1.3708, 1.37419, 1.36334, 1.36177, 1.36035, 1.35489, 1.35213, 1.34806, 1.34377, 1.33959, 1.33692, 1.33339, 1.33302, 1.3285, 1.32619, 1.31889, 1.31744, 1.31706, 1.31412, 1.31224, 1.31008, 1.3029, 1.30225, 1.29989, 1.30907, 1.29211, 1.5338, 1.71356, 1.50392, 1.48943, 1.48078, 1.29933, 1.27788, 1.28902, 1.27914, 1.26854, 
1.58521, 1.58506, 1.57954, 1.57565, 1.56562, 1.56296, 1.55795, 1.55491, 1.55579, 1.55474, 1.55463, 1.54132, 1.66435, 1.61371, 1.91805, 1.5093, 1.50378, 1.50323, 1.50161, 1.50233, 1.49664, 1.49554, 1.4835, 1.47985, 1.47494, 1.47047, 1.46498, 1.45804, 1.45418, 1.45139, 1.44597, 1.44284, 1.43952, 1.43767, 1.43566, 1.43007, 1.44438, 1.42628, 1.43718, 1.44098, 1.43956, 1.43915, 1.43736, 1.42055, 1.43569, 1.42651, 1.41975, 1.39565, 1.38405, 1.37263, 1.3647, 1.3595, 1.36062, 1.35764, 1.35802, 1.35288, 1.35102, 1.35485, 1.34421, 1.33753, 1.33606, 1.32942, 1.3268, 1.32464, 1.32445, 1.32194, 1.31954, 1.31556, 1.30603, 1.30248, 1.3014, 1.30087, 1.29906, 1.29586, 1.29209, 1.2898, 1.28122, 1.2864, 1.25275, 1.57251, 1.63709, 1.51659, 1.34186, 1.26718, 1.26323, 1.25851, 1.25542, 1.25817, 1.25354, 
1.58214, 1.58211, 1.57316, 1.56875, 1.56278, 1.55401, 1.55196, 1.55005, 1.54896, 1.54734, 1.54361, 1.5483, 1.7139, 1.68658, 1.7584, 1.50356, 1.50647, 1.51819, 1.50405, 1.49869, 1.4939, 1.48897, 1.47631, 1.47068, 1.46843, 1.46516, 1.46385, 1.46367, 1.44698, 1.44466, 1.4407, 1.43767, 1.43555, 1.43694, 1.428, 1.42181, 1.41855, 1.42048, 1.41954, 1.42375, 1.43458, 1.4418, 1.43059, 1.42358, 1.41645, 1.41172, 1.4171, 1.39044, 1.38172, 1.37052, 1.36524, 1.3589, 1.36168, 1.35255, 1.34806, 1.35124, 1.34644, 1.34433, 1.33752, 1.33486, 1.33239, 1.328, 1.33158, 1.32834, 1.31533, 1.31245, 1.31313, 1.30857, 1.30481, 1.30373, 1.30157, 1.29983, 1.2992, 1.3126, 1.30275, 1.29889, 1.29988, 1.28511, 1.25026, 1.50166, 1.79736, 1.49795, 1.30716, 1.26756, 1.26819, 1.25662, 1.26336, 1.24778, 1.24495, 
