1.61397, 1.61639, 1.60242, 1.59931, 1.58992, 1.60009, 1.59125, 1.59463, 1.60698, 1.63777, 1.68286, 1.66103, 1.53117, 1.5514, 1.53747, 1.55116, 1.53657, 1.51999, 1.50959, 1.5059, 1.50275, 1.4986, 1.4957, 1.48939, 1.48053, 1.47804, 1.47319, 1.46869, 1.45977, 1.45407, 1.45465, 1.44866, 1.45349, 1.45385, 1.53543, 1.77879, 1.70411, 1.41296, 1.42231, 1.41368, 1.4121, 1.4029, 1.40015, 1.39293, 1.38881, 1.3812, 1.3765, 1.37375, 1.36548, 1.36171, 1.35716, 1.35648, 1.35384, 1.35173, 1.3406, 1.33909, 1.33217, 1.32896, 1.32413, 1.31923, 1.31716, 1.31442, 1.31575, 1.32224, 1.33452, 1.33501, 1.35503, 1.34371, 1.38894, 1.31615, 1.3054, 1.28488, 1.27777, 1.27464, 1.2844, 1.2746, 
1.64539, 1.64031, 1.63639, 1.64894, 1.64063, 1.61577, 1.61655, 1.59292, 1.66606, 1.70998, 1.74288, 1.70778, 1.55776, 1.57981, 1.56712, 1.55457, 1.55065, 1.5413, 1.55386, 1.54429, 1.53349, 1.52649, 1.52191, 1.51313, 1.50857, 1.50276, 1.49958, 1.49296, 1.48711, 1.50486, 1.47801, 1.47422, 1.4834, 1.48531, 1.63661, 1.69321, 1.59717, 1.41593, 1.45059, 1.43984, 1.42958, 1.43028, 1.41983, 1.41605, 1.40868, 1.40928, 1.4056, 1.40219, 1.39106, 1.39075, 1.39153, 1.39137, 1.38977, 1.37896, 1.37582, 1.37212, 1.36188, 1.36043, 1.35894, 1.35783, 1.35711, 1.34632, 1.3414, 1.34456, 1.34725, 1.38041, 1.38628, 1.40933, 1.41263, 1.34312, 1.33224, 1.31433, 1.30983, 1.3037, 1.30563, 1.2969, 
1.66601, 1.66261, 1.65453, 1.65003, 1.64743, 1.66139, 1.65692, 1.6452, 1.69608, 1.76594, 1.80384, 1.78641, 1.61376, 1.61051, 1.58769, 1.58363, 1.57864, 1.5717, 1.57308, 1.56125, 1.56355, 1.56196, 1.54183, 1.53687, 1.53273, 1.53204, 1.52631, 1.52059, 1.51146, 1.50713, 1.50572, 1.50006, 1.50976, 1.47123, 1.60284, 1.68935, 1.6755, 1.54181, 1.46761, 1.46118, 1.47215, 1.45218, 1.44913, 1.44397, 1.43987, 1.43518, 1.43399, 1.42704, 1.41965, 1.41705, 1.41277, 1.41037, 1.40559, 1.40133, 1.39279, 1.39192, 1.38898, 1.37888, 1.37637, 1.37713, 1.3718, 1.37132, 1.37791, 1.37733, 1.36399, 1.43767, 1.45395, 1.4784, 1.45625, 1.41866, 1.34065, 1.34661, 1.32831, 1.32805, 1.32694, 1.32268, 
1.66699, 1.6619, 1.65507, 1.65069, 1.65455, 1.63541, 1.63815, 1.6496, 1.63366, 1.71532, 1.8338, 1.83556, 1.70844, 1.59655, 1.59002, 1.58709, 1.5727, 1.5601, 1.55432, 1.55319, 1.5535, 1.54197, 1.54482, 1.54732, 1.55552, 1.53057, 1.53577, 1.52638, 1.50994, 1.5058, 1.52365, 1.49178, 1.50642, 1.49847, 1.53479, 1.61723, 1.62574, 1.53701, 1.45633, 1.46337, 1.4625, 1.47054, 1.45237, 1.43853, 1.42792, 1.42601, 1.42979, 1.42674, 1.42317, 1.41598, 1.41244, 1.4035, 1.40199, 1.39463, 1.38707, 1.38696, 1.38383, 1.37655, 1.37517, 1.37164, 1.37249, 1.37346, 1.3636, 1.36842, 1.37057, 1.42252, 1.44389, 1.50209, 1.50891, 1.50222, 1.34259, 1.33967, 1.32906, 1.32473, 1.32017, 1.32698, 
1.6574, 1.65382, 1.64358, 1.639, 1.63366, 1.62762, 1.62163, 1.621, 1.59967, 1.66914, 1.76787, 1.94253, 1.57495, 1.58579, 1.57925, 1.56903, 1.56272, 1.55751, 1.55257, 1.5483, 1.54207, 1.53672, 1.53498, 1.52762, 1.51932, 1.51397, 1.51564, 1.5204, 1.49767, 1.49952, 1.48985, 1.48625, 1.49579, 1.45666, 1.50097, 1.58284, 1.63059, 1.57511, 1.48248, 1.46195, 1.44831, 1.43459, 1.43276, 1.46973, 1.44076, 1.41698, 1.41206, 1.40661, 1.4051, 1.40007, 1.3982, 1.3947, 1.3948, 1.38701, 1.3785, 1.373, 1.36764, 1.36496, 1.36245, 1.3595, 1.35676, 1.35367, 1.35088, 1.34434, 1.35239, 1.36784, 1.44441, 1.38861, 1.55948, 1.35428, 1.34996, 1.33627, 1.32463, 1.3212, 1.31643, 1.31296, 
1.65477, 1.64973, 1.64635, 1.63908, 1.63353, 1.62535, 1.61883, 1.60965, 1.61067, 1.60698, 1.79279, 1.9398, 1.69761, 1.57664, 1.58639, 1.5688, 1.5607, 1.55394, 1.5481, 1.5403, 1.53341, 1.5252, 1.51628, 1.50959, 1.50678, 1.50453, 1.50052, 1.49945, 1.49562, 1.49419, 1.52706, 1.52716, 1.47822, 1.48053, 1.46867, 1.52693, 1.51741, 1.53462, 1.48212, 1.47902, 1.50443, 1.49511, 1.45914, 1.46047, 1.43195, 1.43246, 1.41124, 1.40667, 1.40113, 1.3957, 1.39174, 1.38592, 1.38206, 1.37751, 1.37487, 1.37162, 1.36685, 1.36509, 1.36029, 1.35762, 1.36097, 1.34779, 1.34571, 1.34118, 1.34659, 1.34015, 1.41931, 1.56531, 1.61583, 1.57415, 1.32649, 1.33682, 1.3161, 1.31307, 1.30703, 1.30361, 
1.63165, 1.62688, 1.62235, 1.62096, 1.61622, 1.61039, 1.60542, 1.60248, 1.5947, 1.59619, 1.71239, 1.7872, 1.7634, 1.53521, 1.55861, 1.56452, 1.55327, 1.54368, 1.54035, 1.53227, 1.52418, 1.51442, 1.50977, 1.50645, 1.49994, 1.4942, 1.48926, 1.48282, 1.47805, 1.4721, 1.46858, 1.46521, 1.46342, 1.47133, 1.48828, 1.51299, 1.51761, 1.48979, 1.47984, 1.50608, 1.45103, 1.43133, 1.42049, 1.41276, 1.40851, 1.40496, 1.40303, 1.39762, 1.38868, 1.3863, 1.37993, 1.37691, 1.37201, 1.37257, 1.37004, 1.36714, 1.36001, 1.35025, 1.34722, 1.34467, 1.34348, 1.34187, 1.3378, 1.33348, 1.33034, 1.33292, 1.32063, 1.52322, 1.54739, 1.66799, 1.32445, 1.31924, 1.30842, 1.31578, 1.30075, 1.29824, 
1.5917, 1.58683, 1.57915, 1.5757, 1.56649, 1.55927, 1.55804, 1.55668, 1.54971, 1.56525, 1.51378, 1.66537, 1.94581, 1.52056, 1.52116, 1.50619, 1.49772, 1.49488, 1.49519, 1.4914, 1.48463, 1.47823, 1.46884, 1.46492, 1.45924, 1.45397, 1.4452, 1.44514, 1.44305, 1.43787, 1.42992, 1.42538, 1.41991, 1.4313, 1.43057, 1.43735, 1.44743, 1.44642, 1.44995, 1.43421, 1.40822, 1.38525, 1.37004, 1.36464, 1.36259, 1.37326, 1.37552, 1.35547, 1.3496, 1.34324, 1.33988, 1.33688, 1.33188, 1.32604, 1.32, 1.31658, 1.31025, 1.31942, 1.30753, 1.30018, 1.29938, 1.30179, 1.3014, 1.29225, 1.28779, 1.28597, 1.29415, 1.3436, 1.51694, 1.42928, 1.25177, 1.27636, 1.27472, 1.27132, 1.26389, 1.25169, 
1.58984, 1.58186, 1.57311, 1.57491, 1.56303, 1.55466, 1.54912, 1.54711, 1.53981, 1.54769, 1.55063, 1.70671, 1.72024, 1.50193, 1.50961, 1.51587, 1.51869, 1.50005, 1.49016, 1.48244, 1.47172, 1.48261, 1.46513, 1.46271, 1.45081, 1.44644, 1.44094, 1.4386, 1.43426, 1.43005, 1.42414, 1.42059, 1.43426, 1.42077, 1.42407, 1.43991, 1.44309, 1.42372, 1.4149, 1.41264, 1.39, 1.38851, 1.37258, 1.36514, 1.35834, 1.36134, 1.35092, 1.35334, 1.34735, 1.34403, 1.33736, 1.33476, 1.32864, 1.33582, 1.32347, 1.31561, 1.32486, 1.30912, 1.30927, 1.3034, 1.3031, 1.29994, 1.31611, 1.31081, 1.30309, 1.30036, 1.28461, 1.24966, 1.76617, 1.79935, 1.49837, 1.27377, 1.26301, 1.25681, 1.26615, 1.24732, 
