1.62374, 1.62033, 1.61928, 1.60376, 1.60341, 1.61081, 1.60093, 1.59876, 1.59191, 1.59692, 1.58674, 1.59117, 1.58722, 1.60237, 1.5906, 1.59302, 1.59244, 1.57071, 1.5797, 1.59637, 1.60024, 1.60799, 1.60706, 1.62084, 1.61762, 1.65865, 1.65402, 1.68203, 1.69442, 1.67509, 1.66442, 1.59483, 1.54371, 1.53294, 1.55403, 1.55089, 1.54954, 1.54413, 1.54299, 1.54394, 1.53872, 1.55056, 1.56522, 1.54911, 1.53593, 1.5278, 1.52059, 1.52399, 1.52329, 1.51338, 1.51072, 1.52065, 1.52484, 1.50798, 1.50606, 1.50389, 1.5017, 1.50066, 1.49973, 1.49921, 1.49844, 1.49633, 1.49421, 1.49132, 1.49001, 1.49498, 1.48504, 1.48217, 1.48123, 1.47973, 1.47716, 1.47475, 1.47869, 1.47228, 1.50927, 1.46764, 1.46451, 1.46252, 1.45852, 1.4601, 1.45758, 1.46759, 1.46821, 1.45272, 1.45224, 1.45274, 1.4661, 1.45752, 1.45855, 1.45242, 1.46143, 1.41804, 1.44053, 1.48925, 1.53655, 1.59681, 1.70728, 1.76873, 1.78197, 1.81797, 1.6577, 1.60021, 1.48228, 1.41951, 1.41126, 1.42566, 1.42352, 1.42512, 1.41593, 1.41418, 1.42623, 1.42682, 1.41304, 1.40713, 1.42071, 1.40357, 1.40202, 1.40062, 1.39976, 1.39612, 1.39438, 1.39322, 1.39221, 1.39191, 1.39125, 1.3863, 1.38377, 1.38118, 1.37982, 1.37951, 1.37556, 1.37409, 1.37476, 1.37073, 1.37413, 1.37094, 1.36787, 1.36503, 1.36319, 1.36267, 1.36032, 1.35879, 1.35976, 1.35783, 1.35836, 1.35736, 1.36008, 1.3513, 1.35328, 1.35163, 1.35564, 1.3671, 1.34028, 1.342, 1.34455, 1.34351, 1.33805, 1.33414, 1.33282, 1.33091, 1.32946, 1.32931, 1.33035, 1.32489, 1.32653, 1.32509, 1.33032, 1.32083, 1.32055, 1.31979, 1.31895, 1.31539, 1.31654, 1.31496, 1.31362, 1.31891, 1.32037, 1.32251, 1.32709, 1.33745, 1.32411, 1.34127, 1.34139, 1.35117, 1.33914, 1.36242, 1.35578, 1.35715, 1.33442, 1.34468, 1.34946, 1.36421, 1.37813, 1.32971, 1.33038, 1.30981, 1.31968, 1.31827, 1.30247, 1.29866, 1.29226, 1.28562, 1.2818, 1.28143, 1.28168, 1.28514, 1.27777, 1.28191, 1.28026, 1.28762, 1.27568, 1.30127, 1.27679, 1.28525, 1.29224, 1.30548, 1.30143
1.61052, 1.61317, 1.61335, 1.60866, 1.60571, 1.60425, 1.60426, 1.59923, 1.59644, 1.59346, 1.59285, 1.59492, 1.60276, 1.5961, 1.59432, 1.5966, 1.57166, 1.57509, 1.60428, 1.61337, 1.63249, 1.62271, 1.64902, 1.65129, 1.6539, 1.6646, 1.67907, 1.67301, 1.64815, 1.627, 1.64864, 1.56951, 1.54373, 1.52981, 1.55307, 1.54995, 1.54749, 1.54429, 1.54027, 1.5413, 1.53745, 1.53714, 1.55135, 1.55905, 1.55142, 1.53312, 1.52344, 1.52345, 1.51786, 1.51602, 1.51703, 1.51269, 1.51067, 1.50923, 1.50909, 1.50674, 1.50511, 1.50304, 1.50279, 1.50631, 1.49866, 1.49615, 1.49309, 1.48996, 1.48828, 1.48611, 1.4872, 1.48419, 1.48263, 1.48075, 1.47803, 1.4774, 1.47531, 1.47485, 1.47313, 1.47199, 1.46917, 1.46594, 1.46471, 1.46092, 1.45941, 1.45719, 1.45866, 1.45696, 1.4549, 1.45459, 1.45636, 1.45452, 1.45031, 1.47201, 1.45707, 1.44124, 1.44191, 1.46845, 1.52048, 1.60413, 1.67399, 1.72043, 1.72945, 1.72501, 1.71377, 1.55421, 1.4723, 1.41363, 1.3973, 1.42319, 1.42833, 1.41954, 1.41469, 1.41586, 1.42653, 1.41021, 1.41001, 1.40561, 1.40439, 1.40339, 1.40164, 1.39898, 1.39604, 1.39486, 1.39198, 1.38811, 1.38844, 1.38729, 1.3889, 1.38528, 1.38547, 1.38375, 1.38223, 1.3791, 1.37858, 1.37592, 1.37323, 1.37367, 1.37464, 1.37403, 1.36889, 1.36826, 1.37195, 1.36305, 1.36257, 1.36002, 1.36043, 1.35985, 1.35697, 1.35488, 1.35455, 1.3537, 1.35145, 1.34974, 1.35159, 1.35077, 1.35214, 1.34697, 1.34677, 1.34401, 1.34204, 1.34107, 1.33653, 1.3382, 1.3401, 1.33388, 1.33379, 1.33354, 1.33292, 1.32903, 1.32905, 1.32732, 1.32573, 1.32471, 1.32425, 1.33, 1.32154, 1.32161, 1.3211, 1.32588, 1.34132, 1.32915, 1.33015, 1.32941, 1.32617, 1.35101, 1.32887, 1.35815, 1.34766, 1.3464, 1.40603, 1.411, 1.36834, 1.36103, 1.35452, 1.38492, 1.34947, 1.33068, 1.32617, 1.31617, 1.303, 1.29749, 1.30013, 1.28971, 1.29509, 1.28342, 1.28811, 1.28202, 1.28044, 1.27564, 1.27457, 1.274, 1.27971, 1.27511, 1.27811, 1.27618, 1.28039, 1.27227, 1.27369, 1.2679, 1.27225
1.66982, 1.63779, 1.61005, 1.61591, 1.60974, 1.60931, 1.60548, 1.60289, 1.59982, 1.59748, 1.59535, 1.59348, 1.59407, 1.60044, 1.59617, 1.60062, 1.57652, 1.57648, 1.58945, 1.6203, 1.64429, 1.63773, 1.63857, 1.63093, 1.64726, 1.64834, 1.67254, 1.72977, 1.66645, 1.63768, 1.60946, 1.55817, 1.55193, 1.55663, 1.55537, 1.55385, 1.54944, 1.54661, 1.55431, 1.53705, 1.53405, 1.54096, 1.54394, 1.54406, 1.54791, 1.54369, 1.53968, 1.52512, 1.51993, 1.52619, 1.51645, 1.51533, 1.51064, 1.51589, 1.5095, 1.506, 1.50694, 1.50531, 1.50535, 1.50165, 1.49846, 1.50541, 1.49621, 1.49568, 1.49146, 1.4912, 1.49136, 1.48656, 1.48492, 1.48249, 1.48289, 1.48205, 1.47837, 1.47538, 1.47436, 1.47275, 1.47235, 1.46763, 1.46317, 1.4661, 1.46516, 1.45852, 1.45851, 1.45621, 1.45519, 1.45374, 1.45313, 1.45161, 1.45165, 1.45425, 1.44389, 1.44839, 1.43852, 1.48532, 1.53268, 1.61529, 1.6163, 1.64703, 1.73189, 1.7196, 1.68356, 1.59296, 1.46318, 1.40582, 1.4092, 1.41111, 1.4271, 1.42171, 1.4201, 1.41366, 1.41109, 1.41209, 1.41145, 1.40852, 1.40919, 1.40139, 1.40112, 1.39958, 1.39767, 1.39508, 1.39183, 1.3855, 1.38533, 1.38897, 1.38686, 1.38557, 1.38491, 1.3846, 1.38516, 1.38334, 1.38136, 1.37893, 1.37843, 1.37576, 1.37442, 1.37352, 1.37187, 1.37209, 1.36938, 1.36929, 1.36524, 1.3636, 1.36202, 1.35925, 1.35927, 1.3569, 1.35529, 1.35404, 1.35686, 1.35314, 1.35274, 1.35171, 1.3671, 1.349, 1.34677, 1.34566, 1.34552, 1.34025, 1.3415, 1.34015, 1.34173, 1.34055, 1.34027, 1.34075, 1.34059, 1.33924, 1.33651, 1.34391, 1.33624, 1.33406, 1.33185, 1.33014, 1.33106, 1.32815, 1.32672, 1.3284, 1.3292, 1.33259, 1.33124, 1.33294, 1.34757, 1.33859, 1.35816, 1.36451, 1.36788, 1.36464, 1.38903, 1.3683, 1.35356, 1.35788, 1.35887, 1.36436, 1.35035, 1.33346, 1.31697, 1.30592, 1.30311, 1.30326, 1.29849, 1.2938, 1.29171, 1.28955, 1.28476, 1.27947, 1.27946, 1.27563, 1.27711, 1.27534, 1.27741, 1.27962, 1.27823, 1.27868, 1.27805, 1.28161, 1.27544, 1.27848, 1.30178
1.659, 1.63796, 1.6353, 1.62473, 1.62029, 1.61019, 1.61276, 1.60931, 1.60643, 1.60384, 1.61298, 1.60029, 1.60117, 1.60369, 1.60185, 1.59551, 1.59132, 1.59613, 1.6068, 1.66271, 1.63613, 1.63396, 1.66594, 1.65397, 1.65686, 1.69757, 1.70688, 1.71283, 1.69888, 1.68648, 1.60067, 1.59353, 1.5623, 1.55225, 1.5597, 1.56176, 1.55739, 1.55392, 1.55142, 1.5582, 1.54179, 1.54014, 1.54638, 1.54525, 1.54467, 1.56065, 1.55786, 1.53748, 1.5379, 1.5304, 1.52678, 1.53997, 1.52067, 1.522, 1.51572, 1.51296, 1.51239, 1.5174, 1.56536, 1.50518, 1.50432, 1.50247, 1.49843, 1.49762, 1.49655, 1.49598, 1.49354, 1.49285, 1.48715, 1.48824, 1.4868, 1.48437, 1.48544, 1.48249, 1.48074, 1.47991, 1.47748, 1.47484, 1.48571, 1.48335, 1.46477, 1.46567, 1.46185, 1.46041, 1.46007, 1.46025, 1.45925, 1.45956, 1.4581, 1.46492, 1.45676, 1.45453, 1.43867, 1.47746, 1.52296, 1.56933, 1.6067, 1.68609, 1.73166, 1.70624, 1.67942, 1.66545, 1.51236, 1.44794, 1.39968, 1.43152, 1.43492, 1.44708, 1.44749, 1.42314, 1.419, 1.42018, 1.41478, 1.41598, 1.40852, 1.40743, 1.40684, 1.40532, 1.40326, 1.40066, 1.39911, 1.39718, 1.39538, 1.39444, 1.3952, 1.39616, 1.39311, 1.39214, 1.39135, 1.3889, 1.38781, 1.38643, 1.38226, 1.38075, 1.37909, 1.37869, 1.3763, 1.3754, 1.37518, 1.37389, 1.39166, 1.37107, 1.3708, 1.36776, 1.36575, 1.36296, 1.37481, 1.35824, 1.35799, 1.35549, 1.35472, 1.35358, 1.35166, 1.35083, 1.3502, 1.35686, 1.35104, 1.34889, 1.34591, 1.34725, 1.34633, 1.34485, 1.34645, 1.3463, 1.34627, 1.34268, 1.34356, 1.3421, 1.3399, 1.34002, 1.3504, 1.33504, 1.33409, 1.33953, 1.33298, 1.33392, 1.34098, 1.35109, 1.33782, 1.3416, 1.33418, 1.33619, 1.36068, 1.3436, 1.38504, 1.35033, 1.34588, 1.34598, 1.37464, 1.36921, 1.36857, 1.35466, 1.35303, 1.33706, 1.31419, 1.29777, 1.30912, 1.30887, 1.30836, 1.31874, 1.31202, 1.29275, 1.29487, 1.29034, 1.28608, 1.28813, 1.2832, 1.28229, 1.28541, 1.286, 1.28425, 1.2828, 1.28202, 1.28464, 1.29182, 1.28224, 1.28467
1.65913, 1.66008, 1.65779, 1.65344, 1.61719, 1.6152, 1.61324, 1.61042, 1.60884, 1.60758, 1.60661, 1.61203, 1.61324, 1.60748, 1.6081, 1.60984, 1.61927, 1.61057, 1.60449, 1.61718, 1.6294, 1.64233, 1.66058, 1.6741, 1.67969, 1.68635, 1.70343, 1.70525, 1.69504, 1.66538, 1.65067, 1.60331, 1.53655, 1.56526, 1.55767, 1.5759, 1.56307, 1.55464, 1.55856, 1.54855, 1.54643, 1.55425, 1.55425, 1.53972, 1.54678, 1.54664, 1.56549, 1.55241, 1.534, 1.53459, 1.52674, 1.52407, 1.52286, 1.51703, 1.516, 1.51673, 1.51444, 1.50989, 1.52329, 1.5049, 1.50225, 1.50219, 1.50025, 1.49793, 1.49769, 1.49671, 1.49514, 1.49482, 1.49385, 1.49039, 1.48831, 1.48793, 1.48901, 1.48709, 1.48482, 1.48245, 1.48137, 1.47926, 1.47534, 1.47078, 1.47119, 1.47028, 1.4708, 1.46772, 1.46703, 1.46795, 1.46629, 1.46543, 1.47501, 1.46636, 1.45939, 1.44684, 1.45483, 1.47644, 1.52249, 1.55908, 1.63685, 1.67553, 1.70974, 1.71681, 1.73887, 1.61265, 1.49988, 1.45766, 1.41361, 1.44234, 1.4436, 1.44072, 1.43629, 1.43249, 1.43046, 1.42702, 1.4248, 1.41984, 1.43392, 1.4173, 1.41341, 1.41078, 1.40784, 1.40575, 1.40543, 1.40373, 1.4017, 1.39854, 1.3992, 1.3954, 1.39265, 1.39439, 1.3919, 1.38916, 1.38871, 1.38815, 1.38746, 1.38343, 1.38458, 1.38441, 1.38398, 1.38209, 1.38519, 1.38197, 1.38758, 1.37708, 1.37728, 1.37439, 1.37354, 1.36988, 1.38493, 1.36416, 1.36214, 1.35934, 1.35997, 1.35723, 1.35261, 1.35298, 1.34944, 1.34811, 1.34846, 1.34798, 1.34807, 1.34828, 1.34736, 1.35365, 1.35204, 1.35193, 1.35119, 1.35142, 1.35106, 1.36864, 1.34701, 1.34447, 1.34343, 1.34071, 1.34326, 1.33822, 1.33754, 1.33559, 1.3405, 1.33979, 1.34133, 1.34349, 1.33312, 1.33874, 1.34546, 1.34614, 1.39152, 1.38109, 1.38512, 1.36754, 1.3888, 1.39595, 1.37728, 1.37414, 1.35229, 1.34085, 1.32008, 1.32348, 1.31285, 1.31668, 1.31038, 1.30953, 1.30626, 1.29897, 1.29913, 1.29314, 1.29532, 1.29174, 1.28971, 1.30598, 1.2914, 1.29223, 1.28876, 1.29803, 1.28672, 1.28481, 1.28428, 1.28403, 1.29401
1.66411, 1.66885, 1.6682, 1.61684, 1.63522, 1.62198, 1.63169, 1.61744, 1.61599, 1.61098, 1.61272, 1.62039, 1.60909, 1.60865, 1.61021, 1.61618, 1.61936, 1.61641, 1.6048, 1.62584, 1.62991, 1.70708, 1.65539, 1.68558, 1.66822, 1.68728, 1.6807, 1.67597, 1.65366, 1.64029, 1.61028, 1.58918, 1.57569, 1.56152, 1.57215, 1.56617, 1.562, 1.56507, 1.55492, 1.56847, 1.54896, 1.54569, 1.5454, 1.54364, 1.55152, 1.54155, 1.55569, 1.56075, 1.5414, 1.5435, 1.54724, 1.53397, 1.52966, 1.52327, 1.52302, 1.52152, 1.51942, 1.51835, 1.51547, 1.51231, 1.51142, 1.51019, 1.5079, 1.5074, 1.51222, 1.50266, 1.50198, 1.50024, 1.49615, 1.49703, 1.49497, 1.49232, 1.49129, 1.49031, 1.48866, 1.495, 1.50229, 1.50294, 1.48274, 1.47966, 1.48144, 1.4805, 1.47735, 1.47606, 1.47238, 1.47242, 1.47071, 1.47186, 1.47588, 1.46912, 1.4659, 1.44351, 1.46523, 1.52099, 1.5332, 1.55263, 1.60438, 1.70354, 1.73542, 1.73457, 1.72173, 1.67448, 1.56532, 1.45693, 1.42715, 1.44829, 1.44686, 1.45412, 1.44303, 1.4388, 1.43556, 1.43349, 1.43013, 1.42948, 1.42407, 1.42289, 1.43807, 1.43322, 1.43754, 1.41318, 1.41718, 1.41191, 1.41063, 1.41072, 1.40888, 1.40635, 1.40621, 1.4031, 1.39997, 1.39917, 1.3984, 1.39217, 1.39226, 1.39166, 1.39047, 1.39098, 1.38802, 1.38591, 1.38483, 1.38445, 1.38329, 1.38243, 1.38181, 1.38017, 1.38149, 1.37786, 1.37681, 1.37157, 1.36823, 1.3653, 1.36811, 1.36034, 1.36256, 1.35521, 1.35265, 1.35279, 1.353, 1.34868, 1.34851, 1.34939, 1.35112, 1.35365, 1.35208, 1.35315, 1.35277, 1.3513, 1.35194, 1.35074, 1.35075, 1.35442, 1.3457, 1.34937, 1.3445, 1.34145, 1.3418, 1.34165, 1.34342, 1.34883, 1.35436, 1.34924, 1.34271, 1.35831, 1.35844, 1.36128, 1.37188, 1.366, 1.36542, 1.41562, 1.44795, 1.38499, 1.3777, 1.43349, 1.38187, 1.37517, 1.3297, 1.31587, 1.32179, 1.32417, 1.31848, 1.31418, 1.30961, 1.31409, 1.32802, 1.3185, 1.302, 1.29869, 1.30225, 1.30358, 1.29909, 1.30021, 1.29992, 1.29863, 1.30073, 1.29889, 1.29509, 1.30578, 1.3057
1.65192, 1.65607, 1.65159, 1.63805, 1.63535, 1.63309, 1.6235, 1.61916, 1.61708, 1.61305, 1.61108, 1.60969, 1.60908, 1.61044, 1.61546, 1.61508, 1.6211, 1.59315, 1.60045, 1.64039, 1.64166, 1.67307, 1.67342, 1.69584, 1.68717, 1.73729, 1.76757, 1.72242, 1.69033, 1.65846, 1.64518, 1.59631, 1.55186, 1.58164, 1.57143, 1.57569, 1.57289, 1.56173, 1.55866, 1.55429, 1.5537, 1.54949, 1.54677, 1.54526, 1.55023, 1.54829, 1.55097, 1.55426, 1.55886, 1.54237, 1.54785, 1.5373, 1.5279, 1.52875, 1.52841, 1.52841, 1.52512, 1.52215, 1.51973, 1.51722, 1.51547, 1.51307, 1.51224, 1.51048, 1.50957, 1.50775, 1.50217, 1.50191, 1.49965, 1.49712, 1.49512, 1.49478, 1.49346, 1.49203, 1.49089, 1.49258, 1.49067, 1.48879, 1.48957, 1.48724, 1.48654, 1.48398, 1.48184, 1.48032, 1.47707, 1.47326, 1.47825, 1.49973, 1.48328, 1.4721, 1.47519, 1.44793, 1.44589, 1.49801, 1.52334, 1.61396, 1.66246, 1.72349, 1.71206, 1.72699, 1.67018, 1.6303, 1.56471, 1.52983, 1.42806, 1.44315, 1.44909, 1.45573, 1.45225, 1.44079, 1.43443, 1.43086, 1.44345, 1.42899, 1.43362, 1.42996, 1.45146, 1.42156, 1.41657, 1.41637, 1.41474, 1.41275, 1.41201, 1.41095, 1.4074, 1.40749, 1.40605, 1.40549, 1.40412, 1.40172, 1.40009, 1.39834, 1.39549, 1.39297, 1.39298, 1.39133, 1.39142, 1.38971, 1.39061, 1.38998, 1.38892, 1.38746, 1.38845, 1.3846, 1.38464, 1.38264, 1.37462, 1.37234, 1.37091, 1.36956, 1.36528, 1.36295, 1.36132, 1.35933, 1.3588, 1.35685, 1.35416, 1.35141, 1.35249, 1.35211, 1.35166, 1.35036, 1.35064, 1.34928, 1.34854, 1.3465, 1.34708, 1.34668, 1.34313, 1.35361, 1.34472, 1.34314, 1.34335, 1.35025, 1.34764, 1.34306, 1.34471, 1.34519, 1.358, 1.34986, 1.3556, 1.36145, 1.37784, 1.35036, 1.37429, 1.3715, 1.39142, 1.40214, 1.41879, 1.39021, 1.41142, 1.43994, 1.37426, 1.35907, 1.33886, 1.30968, 1.32954, 1.32046, 1.32923, 1.31756, 1.31575, 1.3135, 1.30997, 1.30685, 1.32327, 1.30248, 1.30174, 1.29711, 1.31663, 1.30135, 1.29923, 1.29917, 1.29887, 1.3082, 1.30216, 1.30151, 1.29879
1.63199, 1.64495, 1.64584, 1.63792, 1.65298, 1.63736, 1.62072, 1.62556, 1.62238, 1.62, 1.6238, 1.62148, 1.6195, 1.61732, 1.61623, 1.62665, 1.61988, 1.58694, 1.59956, 1.60316, 1.66477, 1.64926, 1.66096, 1.66051, 1.73441, 1.77558, 1.73141, 1.73472, 1.7147, 1.70039, 1.67462, 1.61232, 1.57535, 1.57867, 1.58261, 1.58477, 1.58458, 1.57089, 1.56557, 1.56174, 1.55895, 1.55544, 1.55019, 1.54752, 1.54796, 1.54653, 1.55861, 1.56264, 1.54414, 1.56096, 1.54642, 1.54528, 1.54015, 1.53723, 1.53596, 1.53356, 1.53227, 1.5301, 1.52532, 1.52226, 1.51907, 1.51811, 1.51605, 1.51371, 1.51164, 1.51034, 1.50754, 1.50551, 1.5044, 1.50128, 1.49876, 1.49763, 1.50356, 1.49645, 1.49356, 1.49383, 1.49242, 1.4929, 1.48773, 1.48768, 1.4847, 1.48887, 1.48265, 1.47987, 1.47823, 1.47547, 1.48189, 1.49601, 1.47817, 1.47674, 1.47504, 1.45169, 1.45498, 1.48218, 1.55682, 1.61716, 1.65276, 1.70829, 1.73, 1.71914, 1.70125, 1.66583, 1.60759, 1.51911, 1.4481, 1.42369, 1.4489, 1.44893, 1.45725, 1.45052, 1.43693, 1.43371, 1.43327, 1.42934, 1.43635, 1.42393, 1.42394, 1.42345, 1.42004, 1.41883, 1.4182, 1.41794, 1.41582, 1.41576, 1.41477, 1.41347, 1.41134, 1.41107, 1.41091, 1.40914, 1.40644, 1.40373, 1.4012, 1.39816, 1.39766, 1.39678, 1.39582, 1.39519, 1.39553, 1.39596, 1.39502, 1.39349, 1.39429, 1.39169, 1.38969, 1.38778, 1.38494, 1.38484, 1.38092, 1.38013, 1.37515, 1.37063, 1.3685, 1.36516, 1.36371, 1.36412, 1.36171, 1.35924, 1.35854, 1.35806, 1.35641, 1.35448, 1.35355, 1.35161, 1.35247, 1.34977, 1.34933, 1.34735, 1.35071, 1.34976, 1.34763, 1.3468, 1.34659, 1.34816, 1.34089, 1.34745, 1.34416, 1.34653, 1.34914, 1.35649, 1.33809, 1.35412, 1.35427, 1.36779, 1.38542, 1.37426, 1.41248, 1.39068, 1.39325, 1.39213, 1.40383, 1.43404, 1.38437, 1.3729, 1.33351, 1.33022, 1.31995, 1.34234, 1.33149, 1.32304, 1.33697, 1.31926, 1.3289, 1.31071, 1.31531, 1.30837, 1.30407, 1.31396, 1.30962, 1.31337, 1.3022, 1.29826, 1.30534, 1.30917, 1.30205, 1.30172, 1.30669
1.63592, 1.64158, 1.6409, 1.63168, 1.65906, 1.65824, 1.64418, 1.64075, 1.63699, 1.6264, 1.62304, 1.6395, 1.61943, 1.62014, 1.6235, 1.62131, 1.61511, 1.59426, 1.60265, 1.61748, 1.65817, 1.65895, 1.68266, 1.68928, 1.68297, 1.7643, 1.75238, 1.744, 1.71597, 1.70762, 1.66904, 1.59744, 1.58941, 1.59209, 1.58379, 1.57514, 1.57851, 1.5688, 1.56422, 1.55943, 1.55606, 1.554, 1.54956, 1.54764, 1.55082, 1.54436, 1.54058, 1.54118, 1.54133, 1.55286, 1.56267, 1.553, 1.53703, 1.54093, 1.53816, 1.54112, 1.53239, 1.52797, 1.5277, 1.52472, 1.52298, 1.5209, 1.52328, 1.51956, 1.51725, 1.515, 1.51201, 1.50864, 1.50583, 1.50317, 1.5001, 1.4988, 1.49764, 1.49609, 1.49593, 1.49173, 1.48978, 1.49053, 1.48736, 1.50969, 1.48586, 1.48496, 1.48408, 1.48183, 1.4794, 1.4774, 1.47579, 1.47338, 1.47412, 1.47492, 1.47422, 1.44453, 1.46377, 1.49716, 1.55739, 1.55043, 1.63109, 1.68343, 1.70783, 1.70729, 1.6399, 1.67139, 1.54725, 1.49954, 1.44841, 1.40218, 1.4422, 1.4585, 1.44193, 1.46028, 1.44712, 1.434, 1.43045, 1.42815, 1.42929, 1.42535, 1.42249, 1.42006, 1.42018, 1.41981, 1.419, 1.42034, 1.41746, 1.41478, 1.41341, 1.41279, 1.41256, 1.41121, 1.40863, 1.40886, 1.40628, 1.40433, 1.40284, 1.40035, 1.39741, 1.39467, 1.39137, 1.39213, 1.39216, 1.39265, 1.39171, 1.3927, 1.39483, 1.394, 1.39191, 1.39275, 1.38855, 1.38971, 1.38532, 1.38256, 1.37977, 1.3793, 1.37642, 1.37277, 1.37874, 1.36968, 1.36972, 1.36584, 1.36385, 1.36358, 1.36095, 1.357, 1.35884, 1.35538, 1.35697, 1.35588, 1.36093, 1.35453, 1.35553, 1.35159, 1.35069, 1.35105, 1.34628, 1.3455, 1.34369, 1.3414, 1.34903, 1.35615, 1.35417, 1.34425, 1.3415, 1.33672, 1.35586, 1.35849, 1.3666, 1.36687, 1.37406, 1.38692, 1.39698, 1.39549, 1.40407, 1.39499, 1.39667, 1.36114, 1.33293, 1.33283, 1.30718, 1.32464, 1.32682, 1.32377, 1.32961, 1.32353, 1.31398, 1.31151, 1.3104, 1.30438, 1.30956, 1.3031, 1.30305, 1.29984, 1.29785, 1.29781, 1.29604, 1.29393, 1.29523, 1.29505, 1.29329
1.64635, 1.64551, 1.64565, 1.64936, 1.66542, 1.66494, 1.66641, 1.66187, 1.68868, 1.63389, 1.62329, 1.62166, 1.61667, 1.6196, 1.62808, 1.6242, 1.6031, 1.59638, 1.65396, 1.6275, 1.66496, 1.69101, 1.6987, 1.69606, 1.70518, 1.7127, 1.71206, 1.72436, 1.7585, 1.73871, 1.74087, 1.65403, 1.5787, 1.55851, 1.57959, 1.58842, 1.58777, 1.57686, 1.57047, 1.57543, 1.55892, 1.55618, 1.55461, 1.55205, 1.54809, 1.55218, 1.54288, 1.55056, 1.53802, 1.54523, 1.5451, 1.5621, 1.5286, 1.55535, 1.53999, 1.54738, 1.53061, 1.52932, 1.5279, 1.52466, 1.52376, 1.51997, 1.51889, 1.51739, 1.51672, 1.5133, 1.51143, 1.50896, 1.50254, 1.50269, 1.50377, 1.50177, 1.49923, 1.50176, 1.49577, 1.49469, 1.49148, 1.4908, 1.48927, 1.48998, 1.4868, 1.48652, 1.49913, 1.48155, 1.47754, 1.4843, 1.47365, 1.4781, 1.47851, 1.47596, 1.47094, 1.44196, 1.45721, 1.4844, 1.55498, 1.56274, 1.60968, 1.64443, 1.66839, 1.6821, 1.67768, 1.63389, 1.59403, 1.48636, 1.46181, 1.42263, 1.42997, 1.44785, 1.44672, 1.43743, 1.45538, 1.43378, 1.42944, 1.44069, 1.42558, 1.4229, 1.42487, 1.42109, 1.42132, 1.41856, 1.41651, 1.41614, 1.41329, 1.41349, 1.41081, 1.4123, 1.41271, 1.40955, 1.40581, 1.40449, 1.40432, 1.40067, 1.39693, 1.39752, 1.39541, 1.39582, 1.39431, 1.39223, 1.39101, 1.39127, 1.39206, 1.39098, 1.39138, 1.38972, 1.39051, 1.38855, 1.38843, 1.38684, 1.38629, 1.38562, 1.3832, 1.38266, 1.38343, 1.37934, 1.37725, 1.37518, 1.37255, 1.36866, 1.36753, 1.36533, 1.36631, 1.36405, 1.36647, 1.36489, 1.36484, 1.36286, 1.36492, 1.36234, 1.36056, 1.35869, 1.35533, 1.35665, 1.35006, 1.34934, 1.34379, 1.34438, 1.34597, 1.35045, 1.34538, 1.3407, 1.35712, 1.33222, 1.35235, 1.41543, 1.37949, 1.37991, 1.38882, 1.40057, 1.41824, 1.4138, 1.4232, 1.4139, 1.40421, 1.39603, 1.37279, 1.3184, 1.31326, 1.34152, 1.33389, 1.32297, 1.32488, 1.31991, 1.31555, 1.32082, 1.3134, 1.30876, 1.31003, 1.30826, 1.3052, 1.30393, 1.30206, 1.29939, 1.3052, 1.29821, 1.29886, 1.29717, 1.29642
1.67512, 1.65896, 1.65373, 1.64539, 1.65404, 1.64526, 1.66435, 1.65804, 1.64497, 1.63772, 1.6301, 1.64379, 1.62422, 1.63101, 1.6153, 1.6174, 1.61023, 1.59682, 1.61945, 1.62821, 1.63172, 1.70278, 1.68734, 1.71737, 1.72358, 1.73147, 1.73653, 1.75458, 1.7589, 1.7192, 1.69022, 1.65423, 1.61319, 1.55809, 1.5827, 1.58572, 1.57994, 1.58794, 1.57113, 1.57966, 1.56227, 1.56552, 1.55859, 1.55907, 1.55527, 1.56849, 1.55441, 1.56467, 1.54732, 1.54244, 1.55159, 1.55923, 1.55065, 1.53775, 1.53982, 1.54042, 1.5409, 1.54429, 1.53048, 1.52636, 1.52662, 1.52542, 1.52399, 1.52275, 1.52092, 1.51576, 1.51403, 1.51328, 1.51271, 1.51979, 1.50843, 1.50755, 1.50565, 1.50424, 1.50268, 1.50063, 1.49822, 1.49675, 1.49352, 1.49367, 1.48861, 1.48722, 1.48576, 1.49203, 1.48348, 1.49977, 1.47923, 1.47769, 1.47805, 1.47811, 1.47636, 1.4637, 1.45989, 1.50892, 1.51565, 1.56224, 1.61963, 1.65097, 1.67603, 1.68725, 1.6795, 1.63045, 1.58603, 1.53376, 1.47904, 1.4268, 1.44121, 1.45176, 1.45541, 1.44769, 1.45505, 1.43083, 1.4313, 1.42796, 1.42725, 1.42591, 1.42457, 1.42249, 1.42229, 1.41771, 1.41585, 1.41647, 1.41368, 1.41304, 1.41325, 1.41284, 1.41241, 1.41161, 1.41857, 1.40612, 1.40656, 1.40385, 1.40178, 1.39911, 1.40061, 1.39998, 1.39692, 1.39489, 1.39258, 1.39184, 1.39103, 1.38979, 1.39141, 1.38828, 1.38968, 1.38861, 1.38688, 1.38636, 1.38933, 1.38317, 1.38554, 1.38212, 1.38171, 1.37828, 1.37575, 1.37775, 1.36723, 1.36932, 1.36765, 1.36558, 1.36855, 1.36671, 1.36588, 1.36624, 1.36416, 1.36512, 1.36397, 1.36452, 1.36153, 1.36496, 1.35943, 1.36117, 1.35557, 1.35529, 1.35471, 1.35842, 1.35233, 1.36218, 1.35743, 1.34518, 1.34316, 1.34033, 1.34663, 1.36822, 1.37205, 1.38063, 1.39532, 1.39516, 1.42342, 1.40211, 1.41986, 1.40768, 1.41263, 1.3901, 1.38489, 1.35359, 1.30569, 1.33055, 1.33731, 1.33099, 1.32219, 1.32202, 1.31757, 1.31451, 1.31839, 1.31169, 1.31052, 1.31183, 1.30952, 1.30728, 1.30578, 1.30615, 1.302, 1.30379, 1.30933, 1.29834, 1.29983
1.64848, 1.64622, 1.6457, 1.64426, 1.65377, 1.6537, 1.64879, 1.65832, 1.66137, 1.63479, 1.63375, 1.62652, 1.62345, 1.62007, 1.62169, 1.61794, 1.62332, 1.59822, 1.59949, 1.60721, 1.6621, 1.69115, 1.67292, 1.69086, 1.7044, 1.71431, 1.71829, 1.71558, 1.71047, 1.72626, 1.6548, 1.64045, 1.62048, 1.56644, 1.61328, 1.5968, 1.59191, 1.57754, 1.57519, 1.57189, 1.5721, 1.56909, 1.56613, 1.56393, 1.56234, 1.5581, 1.55599, 1.55219, 1.55056, 1.55459, 1.55191, 1.55507, 1.56229, 1.56034, 1.54917, 1.54181, 1.53558, 1.53291, 1.5319, 1.52956, 1.52801, 1.52589, 1.52332, 1.52288, 1.52259, 1.52079, 1.5198, 1.5174, 1.51403, 1.51238, 1.51203, 1.51023, 1.50627, 1.50557, 1.50317, 1.50234, 1.49952, 1.49897, 1.49708, 1.49449, 1.49222, 1.49107, 1.48945, 1.48699, 1.48146, 1.48349, 1.48251, 1.48236, 1.48296, 1.48379, 1.48108, 1.47099, 1.45682, 1.49951, 1.52786, 1.55852, 1.62283, 1.64166, 1.67719, 1.6829, 1.68279, 1.66817, 1.58895, 1.53441, 1.47658, 1.41481, 1.4225, 1.44426, 1.45585, 1.43681, 1.4346, 1.44056, 1.43713, 1.43053, 1.43031, 1.4311, 1.42835, 1.42824, 1.42648, 1.4243, 1.42378, 1.41908, 1.42541, 1.41461, 1.42012, 1.41684, 1.4167, 1.41387, 1.41335, 1.41114, 1.41026, 1.40697, 1.40562, 1.40509, 1.40244, 1.4015, 1.40022, 1.39659, 1.3955, 1.39778, 1.39446, 1.39364, 1.39296, 1.39045, 1.39037, 1.39058, 1.38985, 1.39187, 1.38685, 1.38599, 1.38764, 1.38815, 1.38386, 1.38267, 1.37627, 1.375, 1.37314, 1.37381, 1.37076, 1.37, 1.37152, 1.36785, 1.36813, 1.36479, 1.36527, 1.36589, 1.3654, 1.36465, 1.362, 1.36109, 1.35767, 1.35865, 1.35974, 1.36004, 1.35768, 1.35738, 1.3626, 1.36449, 1.36329, 1.36162, 1.34043, 1.33344, 1.41272, 1.37502, 1.39246, 1.40347, 1.40615, 1.41588, 1.43369, 1.44258, 1.45131, 1.47685, 1.4567, 1.42564, 1.40893, 1.3332, 1.31252, 1.33406, 1.33506, 1.33574, 1.33361, 1.32105, 1.31552, 1.31187, 1.3115, 1.31584, 1.30764, 1.31203, 1.31578, 1.305, 1.30978, 1.30309, 1.32033, 1.30398, 1.30172, 1.29915, 1.29894
1.64686, 1.64347, 1.65115, 1.65118, 1.66026, 1.64614, 1.64122, 1.64975, 1.66058, 1.65853, 1.64059, 1.63507, 1.63996, 1.64402, 1.63602, 1.64151, 1.63377, 1.6125, 1.60407, 1.66777, 1.66476, 1.72635, 1.74033, 1.73723, 1.7681, 1.8074, 1.78027, 1.78352, 1.76511, 1.77506, 1.74064, 1.64856, 1.61152, 1.56436, 1.58948, 1.59343, 1.59473, 1.58381, 1.58568, 1.58105, 1.57778, 1.5772, 1.57251, 1.57055, 1.56661, 1.57148, 1.57145, 1.56133, 1.55746, 1.56111, 1.56099, 1.56854, 1.56394, 1.55385, 1.565, 1.55705, 1.54381, 1.54251, 1.54231, 1.54241, 1.531, 1.52727, 1.53802, 1.52626, 1.52589, 1.52618, 1.52249, 1.51956, 1.51881, 1.51518, 1.51462, 1.51308, 1.51334, 1.51114, 1.50861, 1.50637, 1.50415, 1.50184, 1.5134, 1.49864, 1.49577, 1.50891, 1.49358, 1.49213, 1.49178, 1.49049, 1.48821, 1.48719, 1.48695, 1.50719, 1.49879, 1.50137, 1.46206, 1.49395, 1.54787, 1.56107, 1.6065, 1.63883, 1.70257, 1.69129, 1.68233, 1.67556, 1.63037, 1.54462, 1.52356, 1.42538, 1.4288, 1.4536, 1.4543, 1.45357, 1.44963, 1.44325, 1.4416, 1.43855, 1.43687, 1.43533, 1.44482, 1.43222, 1.43037, 1.4271, 1.42723, 1.42782, 1.4088, 1.42641, 1.42192, 1.42108, 1.4198, 1.4197, 1.41798, 1.4186, 1.41694, 1.41591, 1.41336, 1.41224, 1.40941, 1.40918, 1.40595, 1.40457, 1.40268, 1.40313, 1.40031, 1.40097, 1.39888, 1.39727, 1.39357, 1.39278, 1.39352, 1.39316, 1.39061, 1.38953, 1.38924, 1.38848, 1.38781, 1.38352, 1.3811, 1.37965, 1.37773, 1.37819, 1.37618, 1.37422, 1.37554, 1.37252, 1.37461, 1.37924, 1.36945, 1.37011, 1.37104, 1.36767, 1.36486, 1.36434, 1.3644, 1.37813, 1.36737, 1.36527, 1.3584, 1.36044, 1.36116, 1.35814, 1.37115, 1.35734, 1.35654, 1.34694, 1.36087, 1.40008, 1.39239, 1.403, 1.44184, 1.42392, 1.44458, 1.45575, 1.44222, 1.44648, 1.43756, 1.43024, 1.37154, 1.33388, 1.30906, 1.34368, 1.33819, 1.34125, 1.33987, 1.322, 1.33643, 1.31802, 1.33219, 1.31955, 1.31298, 1.34118, 1.30995, 1.30652, 1.30601, 1.30525, 1.30557, 1.30416, 1.30824, 1.31524, 1.31095
1.65424, 1.65255, 1.64824, 1.64595, 1.64485, 1.64402, 1.65011, 1.65893, 1.63854, 1.65044, 1.64611, 1.64131, 1.63912, 1.63834, 1.63723, 1.63817, 1.64118, 1.62289, 1.6159, 1.62676, 1.69826, 1.71589, 1.65974, 1.67517, 1.69909, 1.73746, 1.7631, 1.76261, 1.74386, 1.73932, 1.69823, 1.66867, 1.61809, 1.5703, 1.6034, 1.59582, 1.593, 1.59236, 1.58002, 1.59363, 1.5759, 1.57388, 1.57222, 1.57026, 1.56799, 1.56789, 1.56568, 1.56408, 1.56204, 1.55913, 1.55866, 1.55748, 1.55694, 1.56392, 1.56613, 1.5669, 1.56055, 1.55558, 1.54853, 1.53595, 1.54025, 1.53088, 1.52785, 1.52897, 1.52474, 1.52374, 1.52061, 1.51879, 1.5155, 1.51419, 1.51443, 1.51321, 1.51059, 1.51044, 1.50651, 1.50602, 1.50381, 1.50217, 1.52317, 1.50033, 1.49823, 1.49675, 1.49389, 1.49186, 1.49178, 1.49123, 1.48883, 1.49023, 1.48693, 1.48881, 1.4928, 1.48292, 1.48916, 1.44069, 1.51572, 1.5914, 1.63955, 1.66578, 1.68736, 1.69289, 1.69393, 1.67964, 1.64385, 1.52967, 1.49912, 1.45841, 1.43929, 1.46222, 1.46298, 1.46507, 1.46049, 1.45496, 1.45026, 1.44765, 1.45157, 1.44201, 1.43893, 1.43741, 1.43323, 1.43251, 1.42991, 1.4286, 1.43335, 1.42637, 1.43002, 1.42147, 1.42034, 1.41989, 1.42282, 1.42101, 1.42086, 1.41791, 1.41555, 1.41571, 1.4125, 1.41326, 1.41001, 1.4094, 1.40776, 1.40664, 1.40531, 1.40533, 1.40287, 1.40605, 1.40191, 1.40036, 1.39868, 1.39493, 1.39197, 1.39048, 1.38896, 1.38618, 1.38582, 1.38484, 1.38418, 1.38077, 1.37775, 1.37635, 1.37613, 1.37324, 1.37328, 1.37176, 1.37103, 1.36987, 1.36724, 1.36511, 1.36497, 1.36368, 1.36314, 1.36182, 1.36385, 1.36088, 1.36192, 1.35867, 1.35958, 1.35956, 1.356, 1.36125, 1.35925, 1.36472, 1.36919, 1.35013, 1.36459, 1.37265, 1.39912, 1.40319, 1.43446, 1.42771, 1.42943, 1.43455, 1.48, 1.46105, 1.43837, 1.43622, 1.37112, 1.33415, 1.35081, 1.3331, 1.34507, 1.35066, 1.34511, 1.33038, 1.32574, 1.32286, 1.32073, 1.32032, 1.31801, 1.3162, 1.31725, 1.31402, 1.31232, 1.31054, 1.31808, 1.32315, 1.31023, 1.31145, 1.3128
1.65985, 1.65809, 1.65571, 1.65444, 1.65207, 1.6656, 1.64627, 1.64619, 1.65224, 1.66545, 1.6817, 1.65509, 1.65613, 1.64984, 1.64006, 1.64312, 1.64072, 1.63766, 1.61851, 1.63467, 1.63197, 1.66448, 1.70953, 1.75076, 1.77261, 1.63663, 1.76926, 1.7625, 1.7579, 1.73907, 1.70706, 1.6778, 1.62029, 1.57513, 1.60943, 1.6027, 1.59556, 1.5916, 1.58323, 1.58543, 1.57906, 1.57303, 1.57661, 1.57037, 1.57758, 1.5685, 1.56635, 1.57025, 1.56984, 1.5611, 1.57237, 1.55945, 1.56006, 1.56682, 1.55939, 1.56727, 1.5761, 1.55235, 1.54341, 1.54157, 1.53727, 1.53783, 1.54208, 1.53113, 1.52852, 1.52655, 1.52324, 1.52226, 1.52131, 1.5203, 1.51904, 1.51753, 1.51629, 1.51418, 1.51146, 1.50946, 1.50855, 1.51666, 1.50403, 1.50372, 1.50093, 1.49946, 1.4979, 1.49729, 1.49518, 1.49233, 1.50123, 1.49107, 1.48918, 1.49002, 1.49525, 1.48291, 1.47115, 1.4888, 1.54186, 1.55874, 1.68237, 1.638, 1.65546, 1.68197, 1.66467, 1.64237, 1.61316, 1.56234, 1.51884, 1.47562, 1.42671, 1.46733, 1.46586, 1.47058, 1.46564, 1.46843, 1.46114, 1.46435, 1.44951, 1.45225, 1.45088, 1.44013, 1.45164, 1.43639, 1.43376, 1.43097, 1.43002, 1.42641, 1.42599, 1.42437, 1.42658, 1.42066, 1.41975, 1.41956, 1.42291, 1.41939, 1.41781, 1.41591, 1.41462, 1.41248, 1.413, 1.41042, 1.41109, 1.40821, 1.4086, 1.40578, 1.40718, 1.40462, 1.40339, 1.40151, 1.39986, 1.39537, 1.39309, 1.38969, 1.38846, 1.38877, 1.3848, 1.38302, 1.38069, 1.38129, 1.37906, 1.37596, 1.3744, 1.37322, 1.37125, 1.36837, 1.36621, 1.36705, 1.3662, 1.36401, 1.36354, 1.36214, 1.36007, 1.35955, 1.3624, 1.35912, 1.35793, 1.35768, 1.35604, 1.3562, 1.35721, 1.36501, 1.36998, 1.37575, 1.34912, 1.35481, 1.34944, 1.3896, 1.38947, 1.37756, 1.43467, 1.44349, 1.44352, 1.4461, 1.45418, 1.45684, 1.45725, 1.41759, 1.41773, 1.37857, 1.31962, 1.32026, 1.34367, 1.33567, 1.33413, 1.32385, 1.32944, 1.31779, 1.32023, 1.3198, 1.31844, 1.32377, 1.31619, 1.31891, 1.31316, 1.31299, 1.3137, 1.31679, 1.31484, 1.32018, 1.32395
1.66324, 1.66477, 1.65706, 1.65447, 1.65275, 1.65174, 1.66578, 1.65957, 1.65433, 1.64814, 1.66093, 1.6605, 1.65172, 1.65874, 1.65108, 1.64467, 1.65061, 1.63452, 1.60829, 1.61939, 1.63125, 1.68853, 1.73812, 1.7874, 1.75374, 1.76149, 1.79361, 1.78183, 1.80896, 1.78178, 1.69614, 1.68892, 1.60603, 1.57691, 1.60367, 1.59813, 1.59351, 1.58674, 1.57972, 1.57815, 1.57718, 1.57565, 1.57139, 1.58037, 1.56951, 1.57608, 1.5667, 1.56327, 1.56136, 1.56129, 1.56081, 1.57776, 1.55675, 1.57226, 1.57171, 1.59219, 1.59647, 1.59715, 1.56193, 1.55398, 1.54251, 1.53838, 1.53461, 1.53339, 1.54065, 1.53046, 1.53035, 1.5267, 1.52581, 1.52315, 1.52118, 1.52018, 1.51787, 1.51706, 1.51381, 1.51139, 1.51018, 1.50791, 1.50653, 1.50757, 1.50546, 1.5156, 1.50023, 1.49734, 1.49532, 1.51069, 1.49418, 1.49237, 1.50496, 1.51246, 1.50677, 1.49471, 1.45943, 1.48996, 1.52275, 1.56187, 1.61316, 1.65017, 1.6649, 1.6828, 1.68398, 1.68144, 1.64989, 1.62527, 1.4898, 1.47409, 1.43343, 1.47147, 1.47104, 1.46865, 1.46629, 1.46057, 1.46521, 1.45516, 1.45181, 1.44769, 1.44525, 1.44434, 1.44169, 1.43937, 1.44011, 1.43566, 1.43367, 1.43263, 1.42988, 1.428, 1.42657, 1.42587, 1.42438, 1.42368, 1.43044, 1.44827, 1.42063, 1.41917, 1.41817, 1.41531, 1.41583, 1.4125, 1.411, 1.41042, 1.40949, 1.40866, 1.40846, 1.40771, 1.40562, 1.40492, 1.40092, 1.40085, 1.39717, 1.39862, 1.39599, 1.39487, 1.39185, 1.38962, 1.38594, 1.38537, 1.38288, 1.37905, 1.38023, 1.37693, 1.37506, 1.37215, 1.37223, 1.37111, 1.37062, 1.3679, 1.36492, 1.36216, 1.36392, 1.36285, 1.3643, 1.36745, 1.36202, 1.37822, 1.36917, 1.38763, 1.37537, 1.36381, 1.37926, 1.37364, 1.38217, 1.33789, 1.37056, 1.4137, 1.41477, 1.43636, 1.44136, 1.4453, 1.45405, 1.4569, 1.4568, 1.45126, 1.42648, 1.40874, 1.40526, 1.36345, 1.36227, 1.32914, 1.35383, 1.3443, 1.33489, 1.33927, 1.32717, 1.32974, 1.32553, 1.32291, 1.32619, 1.3307, 1.31661, 1.33088, 1.31433, 1.31449, 1.32371, 1.32772, 1.31611, 1.31976, 1.31682
1.66565, 1.66189, 1.67358, 1.65843, 1.65255, 1.65272, 1.65689, 1.64775, 1.64532, 1.64534, 1.66435, 1.67738, 1.66933, 1.67141, 1.64366, 1.64097, 1.64007, 1.63417, 1.62421, 1.62015, 1.62725, 1.66239, 1.72144, 1.78601, 1.77136, 1.77884, 1.88245, 1.82292, 1.80236, 1.79254, 1.78173, 1.69918, 1.63418, 1.57222, 1.58992, 1.60287, 1.60022, 1.59578, 1.58561, 1.59312, 1.58124, 1.57877, 1.58255, 1.57375, 1.57323, 1.57139, 1.57028, 1.56889, 1.56634, 1.56554, 1.56408, 1.56148, 1.55961, 1.57767, 1.58839, 1.58592, 1.59557, 1.5715, 1.56524, 1.55187, 1.55092, 1.54172, 1.53991, 1.53762, 1.53651, 1.53296, 1.53283, 1.53217, 1.52984, 1.52754, 1.52614, 1.52423, 1.52283, 1.52141, 1.51798, 1.51798, 1.51613, 1.51366, 1.51204, 1.51001, 1.50862, 1.50614, 1.50598, 1.5197, 1.49783, 1.50009, 1.52852, 1.49674, 1.50474, 1.50499, 1.49486, 1.50585, 1.46692, 1.49726, 1.51481, 1.57243, 1.58631, 1.6069, 1.61657, 1.65538, 1.68113, 1.63676, 1.60118, 1.55564, 1.53424, 1.48317, 1.44405, 1.47783, 1.48864, 1.46811, 1.47871, 1.47161, 1.46299, 1.46056, 1.45727, 1.45685, 1.45575, 1.45267, 1.45062, 1.4474, 1.44568, 1.44264, 1.44001, 1.4352, 1.43391, 1.43335, 1.43191, 1.43215, 1.43126, 1.42958, 1.42809, 1.42845, 1.42637, 1.42343, 1.42292, 1.41908, 1.41871, 1.41684, 1.41608, 1.41558, 1.41191, 1.41045, 1.41058, 1.40929, 1.40777, 1.40413, 1.40198, 1.40173, 1.40003, 1.40112, 1.39652, 1.39424, 1.39308, 1.39185, 1.38892, 1.38748, 1.38523, 1.38235, 1.38112, 1.37879, 1.37981, 1.37171, 1.377, 1.37452, 1.37402, 1.37552, 1.37134, 1.36906, 1.36819, 1.36776, 1.36733, 1.36807, 1.36827, 1.36849, 1.3712, 1.37507, 1.37112, 1.37396, 1.38689, 1.37658, 1.38492, 1.37997, 1.35062, 1.40207, 1.45184, 1.44472, 1.46582, 1.44877, 1.45803, 1.45699, 1.46376, 1.47198, 1.46419, 1.44801, 1.46162, 1.4035, 1.33378, 1.32808, 1.33958, 1.3443, 1.33154, 1.33322, 1.32846, 1.32577, 1.32494, 1.3244, 1.32572, 1.32406, 1.32118, 1.31863, 1.32215, 1.3199, 1.31907, 1.31849, 1.31724, 1.31795, 1.31936
1.66398, 1.66124, 1.65836, 1.65626, 1.65487, 1.65203, 1.65355, 1.65031, 1.65155, 1.64907, 1.66498, 1.66469, 1.68365, 1.66189, 1.63575, 1.64464, 1.64706, 1.64773, 1.60989, 1.64382, 1.66925, 1.72492, 1.71331, 1.75786, 1.76754, 1.77003, 1.80522, 1.81442, 1.80269, 1.77232, 1.70572, 1.68511, 1.61763, 1.58073, 1.60083, 1.61259, 1.60876, 1.59679, 1.59761, 1.58667, 1.58463, 1.58435, 1.59347, 1.57952, 1.57696, 1.57501, 1.57326, 1.57198, 1.57012, 1.56965, 1.56894, 1.57609, 1.56364, 1.56119, 1.56311, 1.55863, 1.56804, 1.57456, 1.5618, 1.56081, 1.54556, 1.54114, 1.53991, 1.53872, 1.5375, 1.53655, 1.53382, 1.53373, 1.53314, 1.53083, 1.52907, 1.52754, 1.52664, 1.5234, 1.52127, 1.52447, 1.52128, 1.52283, 1.51297, 1.51218, 1.50958, 1.50725, 1.50673, 1.50563, 1.50383, 1.50278, 1.50302, 1.5005, 1.50077, 1.50266, 1.50428, 1.52718, 1.47205, 1.48637, 1.5326, 1.56922, 1.63054, 1.69049, 1.68973, 1.68683, 1.67765, 1.67873, 1.63486, 1.6262, 1.53398, 1.49272, 1.45073, 1.46654, 1.47285, 1.47562, 1.46202, 1.46143, 1.47401, 1.46461, 1.46848, 1.45215, 1.47191, 1.45064, 1.44996, 1.44895, 1.44607, 1.4504, 1.4435, 1.44068, 1.43995, 1.43886, 1.43813, 1.43611, 1.43484, 1.43455, 1.43169, 1.4295, 1.42879, 1.42562, 1.42557, 1.42184, 1.42069, 1.41899, 1.41797, 1.41635, 1.41566, 1.4142, 1.41211, 1.41226, 1.41089, 1.40928, 1.4066, 1.4059, 1.40416, 1.40335, 1.40046, 1.39847, 1.39567, 1.40238, 1.39139, 1.38877, 1.38757, 1.38823, 1.38623, 1.38502, 1.38084, 1.38202, 1.37863, 1.37984, 1.37894, 1.37757, 1.3754, 1.37579, 1.37348, 1.37452, 1.3715, 1.37242, 1.37192, 1.37265, 1.37235, 1.37537, 1.38086, 1.38473, 1.38706, 1.37611, 1.37126, 1.36122, 1.37522, 1.40944, 1.44353, 1.49605, 1.45512, 1.4528, 1.44123, 1.47895, 1.47433, 1.47043, 1.45915, 1.4261, 1.42233, 1.38559, 1.36418, 1.34184, 1.34266, 1.35039, 1.34961, 1.34935, 1.32936, 1.32872, 1.33145, 1.32965, 1.3308, 1.32871, 1.35123, 1.34006, 1.32709, 1.32419, 1.3297, 1.3244, 1.32305, 1.32077, 1.32004
1.67286, 1.65963, 1.65863, 1.65462, 1.65655, 1.6479, 1.65026, 1.644, 1.65864, 1.64252, 1.64035, 1.64913, 1.66151, 1.66631, 1.66423, 1.64768, 1.63112, 1.62983, 1.61032, 1.61173, 1.66467, 1.70651, 1.70095, 1.71711, 1.75265, 1.80254, 1.80876, 1.81642, 1.80105, 1.77791, 1.77096, 1.72939, 1.63224, 1.58058, 1.6003, 1.61067, 1.59391, 1.59059, 1.5863, 1.59203, 1.5856, 1.58348, 1.57903, 1.57902, 1.57529, 1.57297, 1.57074, 1.57048, 1.56845, 1.56495, 1.56416, 1.5632, 1.57121, 1.568, 1.57086, 1.56335, 1.55517, 1.56657, 1.56465, 1.5667, 1.56044, 1.55474, 1.54108, 1.53876, 1.53893, 1.53595, 1.53418, 1.5334, 1.53236, 1.53068, 1.52951, 1.52791, 1.52507, 1.52144, 1.51927, 1.51948, 1.51366, 1.51003, 1.50819, 1.50566, 1.50449, 1.50285, 1.50262, 1.49933, 1.49873, 1.49632, 1.49576, 1.49574, 1.49651, 1.51095, 1.49754, 1.50467, 1.46972, 1.50344, 1.50848, 1.61505, 1.56624, 1.63981, 1.65857, 1.67633, 1.67965, 1.67976, 1.63991, 1.56195, 1.53999, 1.49197, 1.43894, 1.45718, 1.4777, 1.47183, 1.45904, 1.45654, 1.46851, 1.4516, 1.46277, 1.44673, 1.45439, 1.44575, 1.44362, 1.44042, 1.43918, 1.43836, 1.43758, 1.43516, 1.43544, 1.43408, 1.43191, 1.43035, 1.43127, 1.42751, 1.42719, 1.42443, 1.42387, 1.42405, 1.42284, 1.42224, 1.41948, 1.42094, 1.42195, 1.41663, 1.41683, 1.41644, 1.41357, 1.41124, 1.41309, 1.41134, 1.40663, 1.40697, 1.4065, 1.40489, 1.40142, 1.40444, 1.40232, 1.39782, 1.41058, 1.39385, 1.42873, 1.39191, 1.39148, 1.38959, 1.39097, 1.38793, 1.38322, 1.38043, 1.37973, 1.37824, 1.37858, 1.37727, 1.37411, 1.37554, 1.37552, 1.37366, 1.37362, 1.37075, 1.37158, 1.37947, 1.3835, 1.37038, 1.37814, 1.37173, 1.37498, 1.35131, 1.36769, 1.40693, 1.42608, 1.45437, 1.47576, 1.46863, 1.46971, 1.47554, 1.47779, 1.47643, 1.45861, 1.45434, 1.41039, 1.42845, 1.39539, 1.34026, 1.34976, 1.35114, 1.35037, 1.33063, 1.33336, 1.33367, 1.33645, 1.3337, 1.34024, 1.33096, 1.32935, 1.32892, 1.33023, 1.32682, 1.3266, 1.32665, 1.32256, 1.32172, 1.32006
1.66643, 1.66506, 1.66039, 1.65815, 1.65467, 1.65119, 1.64912, 1.64862, 1.64639, 1.64297, 1.64494, 1.64756, 1.65426, 1.65106, 1.66793, 1.65178, 1.64989, 1.63011, 1.62099, 1.62709, 1.65932, 1.67104, 1.71352, 1.71579, 1.75668, 1.7852, 1.82465, 1.82559, 1.8014, 1.79011, 1.72478, 1.70563, 1.63152, 1.57999, 1.61025, 1.60648, 1.59633, 1.59445, 1.58679, 1.59946, 1.583, 1.58603, 1.58172, 1.57551, 1.57262, 1.57967, 1.56893, 1.56526, 1.57806, 1.56419, 1.563, 1.56136, 1.55955, 1.55898, 1.57106, 1.55449, 1.55221, 1.56554, 1.56185, 1.55899, 1.55963, 1.56573, 1.56159, 1.55496, 1.55148, 1.53387, 1.53042, 1.53007, 1.5295, 1.53057, 1.52954, 1.52371, 1.52296, 1.5176, 1.51716, 1.51629, 1.51139, 1.50756, 1.50461, 1.50192, 1.51031, 1.50366, 1.49519, 1.4945, 1.50397, 1.49275, 1.4919, 1.5021, 1.50688, 1.49029, 1.49719, 1.49197, 1.47573, 1.48211, 1.50687, 1.55496, 1.57244, 1.63128, 1.67776, 1.68297, 1.68695, 1.68135, 1.62189, 1.60391, 1.52928, 1.48341, 1.44735, 1.44777, 1.46466, 1.46542, 1.46612, 1.45149, 1.4592, 1.45449, 1.4517, 1.45085, 1.4537, 1.43909, 1.4384, 1.4384, 1.43491, 1.43312, 1.43669, 1.43233, 1.43142, 1.44314, 1.43022, 1.42795, 1.42696, 1.42939, 1.42299, 1.41961, 1.42068, 1.41924, 1.41964, 1.42116, 1.41975, 1.42587, 1.4167, 1.41632, 1.4147, 1.41425, 1.41266, 1.40974, 1.40961, 1.40915, 1.41914, 1.40689, 1.40684, 1.40545, 1.40872, 1.4045, 1.40201, 1.39873, 1.39863, 1.39759, 1.39639, 1.39513, 1.39343, 1.38915, 1.38704, 1.38723, 1.3856, 1.38277, 1.38071, 1.37844, 1.37808, 1.39127, 1.3775, 1.37346, 1.38216, 1.37268, 1.37133, 1.38424, 1.3843, 1.36943, 1.37624, 1.37154, 1.37803, 1.37072, 1.37778, 1.35753, 1.36893, 1.38205, 1.38454, 1.43692, 1.44353, 1.45383, 1.51791, 1.4821, 1.48119, 1.48463, 1.4741, 1.51433, 1.44326, 1.41791, 1.38628, 1.32347, 1.34996, 1.35082, 1.35788, 1.34396, 1.34378, 1.35074, 1.34495, 1.35446, 1.3341, 1.3304, 1.33987, 1.33836, 1.32938, 1.32424, 1.32253, 1.31992, 1.32032, 1.31581, 1.31868
1.66599, 1.66394, 1.6617, 1.66117, 1.65878, 1.65529, 1.6526, 1.65077, 1.66896, 1.64706, 1.65612, 1.64203, 1.64363, 1.64791, 1.65431, 1.66607, 1.65453, 1.63867, 1.61237, 1.61902, 1.62675, 1.634, 1.67251, 1.71566, 1.75962, 1.81735, 1.8007, 1.8175, 1.81861, 1.80555, 1.75511, 1.72064, 1.6136, 1.57558, 1.58014, 1.60192, 1.59937, 1.59057, 1.58841, 1.58234, 1.5959, 1.57828, 1.59024, 1.57636, 1.57474, 1.57374, 1.57138, 1.57523, 1.56678, 1.56469, 1.56389, 1.56219, 1.56087, 1.55753, 1.55521, 1.55203, 1.54949, 1.55081, 1.5432, 1.54859, 1.5562, 1.55664, 1.55457, 1.54303, 1.53104, 1.53651, 1.52955, 1.53124, 1.5321, 1.53035, 1.53757, 1.527, 1.52367, 1.52102, 1.51684, 1.51134, 1.50874, 1.50653, 1.50213, 1.50227, 1.49341, 1.49716, 1.49238, 1.48608, 1.49266, 1.49269, 1.48884, 1.50679, 1.48992, 1.50129, 1.51085, 1.4974, 1.46603, 1.49993, 1.53343, 1.61402, 1.59828, 1.64452, 1.66511, 1.67001, 1.60293, 1.61104, 1.65643, 1.59245, 1.55575, 1.486, 1.45187, 1.43267, 1.46432, 1.47472, 1.45781, 1.47195, 1.45138, 1.44823, 1.4491, 1.4544, 1.4422, 1.43854, 1.43841, 1.43748, 1.43564, 1.43672, 1.43305, 1.43255, 1.43136, 1.42976, 1.42838, 1.42589, 1.42468, 1.4229, 1.42055, 1.41791, 1.41727, 1.41712, 1.41655, 1.41862, 1.42047, 1.41814, 1.41715, 1.41659, 1.41373, 1.41144, 1.41302, 1.40841, 1.40753, 1.40651, 1.40551, 1.40496, 1.40265, 1.40216, 1.40174, 1.39901, 1.39577, 1.39464, 1.39314, 1.39293, 1.39585, 1.38858, 1.39135, 1.38486, 1.38252, 1.37884, 1.37859, 1.37772, 1.37817, 1.37384, 1.37444, 1.37505, 1.37244, 1.37097, 1.37123, 1.3719, 1.37089, 1.39164, 1.36747, 1.36511, 1.36554, 1.36844, 1.36555, 1.36649, 1.37911, 1.35187, 1.35534, 1.39554, 1.43956, 1.46092, 1.47125, 1.47803, 1.48151, 1.50273, 1.49749, 1.49236, 1.50354, 1.46899, 1.45807, 1.39014, 1.36448, 1.31253, 1.31459, 1.35524, 1.34651, 1.34239, 1.33704, 1.33354, 1.33283, 1.33083, 1.33032, 1.32825, 1.32719, 1.32515, 1.32292, 1.32342, 1.32149, 1.31865, 1.31927, 1.31898, 1.31792
1.67861, 1.67783, 1.67496, 1.67266, 1.67196, 1.67132, 1.66696, 1.66575, 1.66314, 1.66255, 1.66142, 1.65863, 1.66512, 1.65657, 1.66084, 1.67567, 1.67299, 1.66312, 1.64099, 1.60811, 1.61905, 1.63582, 1.68542, 1.73114, 1.78342, 1.80654, 1.84305, 1.84753, 1.8414, 1.83389, 1.78904, 1.73079, 1.62813, 1.59911, 1.60234, 1.61697, 1.60172, 1.59631, 1.5964, 1.59725, 1.59718, 1.59472, 1.59928, 1.58649, 1.58556, 1.58277, 1.58029, 1.57921, 1.57723, 1.57762, 1.57815, 1.57973, 1.57186, 1.56847, 1.56906, 1.57448, 1.56238, 1.56712, 1.55265, 1.55535, 1.56327, 1.55131, 1.56242, 1.56109, 1.56069, 1.54844, 1.54593, 1.55162, 1.53847, 1.53443, 1.5331, 1.53305, 1.53267, 1.5306, 1.52898, 1.52344, 1.52119, 1.51754, 1.53484, 1.5147, 1.51382, 1.51333, 1.51175, 1.50901, 1.50589, 1.50459, 1.50488, 1.50394, 1.50599, 1.5153, 1.51939, 1.5226, 1.5031, 1.4799, 1.52962, 1.571, 1.60165, 1.59469, 1.6271, 1.65835, 1.63766, 1.63794, 1.63022, 1.58352, 1.60284, 1.48204, 1.46457, 1.44824, 1.47436, 1.48098, 1.48158, 1.47265, 1.47639, 1.46732, 1.46931, 1.45744, 1.45736, 1.46406, 1.47195, 1.44797, 1.44658, 1.44769, 1.4454, 1.44287, 1.44252, 1.4389, 1.43751, 1.43391, 1.43053, 1.42743, 1.42593, 1.42411, 1.42426, 1.42612, 1.42725, 1.42992, 1.4314, 1.4313, 1.43044, 1.42525, 1.41875, 1.41774, 1.41566, 1.41456, 1.41444, 1.41583, 1.41636, 1.41523, 1.41315, 1.42395, 1.4064, 1.40705, 1.4011, 1.3982, 1.39833, 1.39581, 1.39515, 1.39456, 1.39857, 1.39715, 1.39619, 1.39245, 1.38981, 1.38541, 1.38308, 1.38468, 1.38657, 1.38404, 1.3795, 1.37533, 1.37469, 1.37593, 1.38595, 1.37524, 1.37415, 1.3751, 1.37473, 1.37444, 1.37827, 1.37147, 1.38423, 1.36823, 1.35456, 1.37385, 1.39675, 1.44131, 1.46496, 1.47535, 1.50857, 1.50699, 1.50687, 1.50882, 1.50999, 1.49646, 1.45403, 1.43749, 1.38528, 1.32103, 1.3648, 1.35007, 1.36129, 1.35547, 1.33995, 1.34556, 1.33703, 1.33459, 1.33451, 1.33647, 1.33946, 1.33932, 1.3371, 1.33432, 1.33177, 1.32938, 1.32596, 1.32373, 1.32292
1.67208, 1.66581, 1.65748, 1.65626, 1.65498, 1.65298, 1.65383, 1.67204, 1.6691, 1.65645, 1.66568, 1.65845, 1.65491, 1.65339, 1.64658, 1.65835, 1.64223, 1.64844, 1.64057, 1.61094, 1.66623, 1.67889, 1.71007, 1.70614, 1.73406, 1.79327, 1.85141, 1.84638, 1.84754, 1.83661, 1.7904, 1.71001, 1.65844, 1.58675, 1.58872, 1.61098, 1.60821, 1.59403, 1.59229, 1.5955, 1.60451, 1.58674, 1.58202, 1.57332, 1.56617, 1.57846, 1.5645, 1.56749, 1.57005, 1.57082, 1.57056, 1.56612, 1.56525, 1.558, 1.55418, 1.55451, 1.55479, 1.56056, 1.55698, 1.55269, 1.56182, 1.55787, 1.55997, 1.58038, 1.56385, 1.55618, 1.54353, 1.55333, 1.53414, 1.52808, 1.5284, 1.53009, 1.52808, 1.5305, 1.5281, 1.52427, 1.52239, 1.51946, 1.51569, 1.51285, 1.51602, 1.51533, 1.51312, 1.51301, 1.50948, 1.51686, 1.51281, 1.51009, 1.51114, 1.50968, 1.51288, 1.51434, 1.4815, 1.48958, 1.50404, 1.53746, 1.58565, 1.62978, 1.66093, 1.67254, 1.66515, 1.66532, 1.62657, 1.60696, 1.49626, 1.50624, 1.46103, 1.43848, 1.44503, 1.47215, 1.47494, 1.47239, 1.49437, 1.51232, 1.46539, 1.46546, 1.47185, 1.45505, 1.45454, 1.48205, 1.45477, 1.45458, 1.45045, 1.45161, 1.45088, 1.44826, 1.44315, 1.43781, 1.43353, 1.42942, 1.43355, 1.42518, 1.42633, 1.43165, 1.43302, 1.43366, 1.43184, 1.43182, 1.42804, 1.41973, 1.42373, 1.42733, 1.41443, 1.41712, 1.41474, 1.41489, 1.41439, 1.41523, 1.40934, 1.42059, 1.4059, 1.40499, 1.40275, 1.40914, 1.40829, 1.39968, 1.39762, 1.39355, 1.39379, 1.39324, 1.39296, 1.391, 1.39616, 1.38813, 1.38581, 1.38959, 1.3864, 1.37877, 1.37776, 1.39842, 1.37406, 1.37515, 1.37357, 1.37947, 1.37802, 1.38137, 1.39173, 1.38485, 1.3889, 1.37868, 1.37792, 1.34752, 1.36529, 1.42318, 1.45485, 1.45552, 1.4758, 1.49325, 1.49013, 1.52263, 1.4848, 1.48707, 1.53558, 1.55141, 1.4711, 1.43281, 1.37667, 1.34021, 1.34576, 1.34773, 1.36119, 1.35137, 1.34709, 1.35403, 1.34052, 1.34093, 1.33958, 1.34781, 1.33694, 1.34207, 1.33276, 1.33069, 1.32392, 1.32551, 1.32679, 1.32303, 1.33249
1.67183, 1.66638, 1.65548, 1.67926, 1.65461, 1.65123, 1.65104, 1.6833, 1.66117, 1.6579, 1.66669, 1.65826, 1.6511, 1.64223, 1.63807, 1.63472, 1.62917, 1.64197, 1.62443, 1.60541, 1.62699, 1.66792, 1.68089, 1.73981, 1.7533, 1.77567, 1.81686, 1.89334, 1.86845, 1.86812, 1.83081, 1.74197, 1.6246, 1.61257, 1.5963, 1.61752, 1.61049, 1.60333, 1.60096, 1.59971, 1.59745, 1.60333, 1.59047, 1.57114, 1.56477, 1.56915, 1.55981, 1.58949, 1.58357, 1.57143, 1.56958, 1.56842, 1.56129, 1.5649, 1.57185, 1.54703, 1.54453, 1.5465, 1.54664, 1.54371, 1.5437, 1.55031, 1.55321, 1.54716, 1.55158, 1.56769, 1.54112, 1.53875, 1.53315, 1.53465, 1.53527, 1.53484, 1.53294, 1.53058, 1.52991, 1.52688, 1.52174, 1.51595, 1.53325, 1.50432, 1.50279, 1.5068, 1.51039, 1.51118, 1.50803, 1.52033, 1.49863, 1.49654, 1.49638, 1.50589, 1.51186, 1.49643, 1.49912, 1.47003, 1.49466, 1.5344, 1.58628, 1.60636, 1.61084, 1.63032, 1.63897, 1.63688, 1.64461, 1.60463, 1.57302, 1.50283, 1.47179, 1.43796, 1.44085, 1.4683, 1.47175, 1.46208, 1.48073, 1.48513, 1.482, 1.46342, 1.45501, 1.45481, 1.45519, 1.45696, 1.45562, 1.45293, 1.45051, 1.43809, 1.43483, 1.43463, 1.43291, 1.4279, 1.42067, 1.41715, 1.41647, 1.41452, 1.4162, 1.43018, 1.43045, 1.43242, 1.43168, 1.4297, 1.41864, 1.41111, 1.40615, 1.40062, 1.39829, 1.39602, 1.39364, 1.39501, 1.3947, 1.39359, 1.39437, 1.39317, 1.39009, 1.38622, 1.38802, 1.38759, 1.3858, 1.37856, 1.37414, 1.37284, 1.37222, 1.37206, 1.37377, 1.37305, 1.37437, 1.37859, 1.38079, 1.38488, 1.39182, 1.38266, 1.37807, 1.37047, 1.3662, 1.35986, 1.35848, 1.35613, 1.35718, 1.35871, 1.35783, 1.36852, 1.37408, 1.3702, 1.36932, 1.35308, 1.34675, 1.39988, 1.40135, 1.486, 1.47259, 1.53754, 1.50637, 1.50692, 1.51715, 1.52601, 1.5276, 1.52031, 1.4573, 1.46584, 1.39389, 1.33953, 1.33681, 1.35129, 1.35068, 1.35201, 1.34476, 1.34277, 1.33852, 1.33946, 1.34428, 1.3308, 1.3267, 1.31393, 1.31068, 1.30975, 1.31633, 1.30866, 1.30688, 1.30752, 1.30574
1.67351, 1.67252, 1.67141, 1.67583, 1.66802, 1.68883, 1.66356, 1.66418, 1.66149, 1.66164, 1.66493, 1.65789, 1.67595, 1.65337, 1.65776, 1.6469, 1.64872, 1.63893, 1.64119, 1.61888, 1.62323, 1.66986, 1.70801, 1.75415, 1.78174, 1.82102, 1.88698, 1.88523, 1.87171, 1.8618, 1.82386, 1.74027, 1.67162, 1.59683, 1.58918, 1.6292, 1.61317, 1.61971, 1.61178, 1.60905, 1.60232, 1.6136, 1.6183, 1.58883, 1.59522, 1.591, 1.57979, 1.5796, 1.57876, 1.57859, 1.57809, 1.57624, 1.57349, 1.57094, 1.56894, 1.57057, 1.56611, 1.58271, 1.56145, 1.55981, 1.56452, 1.56558, 1.56945, 1.56784, 1.57023, 1.57527, 1.555, 1.55747, 1.55278, 1.54527, 1.55198, 1.53611, 1.53727, 1.53084, 1.53014, 1.52773, 1.52744, 1.52809, 1.52766, 1.55032, 1.54775, 1.52068, 1.52184, 1.51695, 1.51792, 1.52269, 1.5162, 1.50957, 1.5095, 1.51372, 1.51519, 1.52702, 1.51642, 1.51774, 1.50724, 1.53772, 1.56886, 1.62961, 1.66826, 1.66235, 1.66672, 1.66934, 1.6469, 1.59844, 1.56977, 1.56454, 1.49913, 1.45466, 1.45064, 1.48256, 1.47601, 1.47151, 1.47512, 1.49636, 1.49584, 1.48154, 1.47985, 1.48539, 1.47123, 1.47032, 1.46399, 1.45511, 1.45186, 1.45039, 1.44719, 1.44196, 1.44186, 1.43742, 1.43695, 1.43483, 1.4364, 1.43798, 1.43704, 1.43852, 1.43689, 1.43518, 1.43488, 1.43315, 1.43127, 1.42686, 1.42591, 1.4238, 1.4233, 1.41823, 1.42774, 1.41413, 1.41258, 1.41164, 1.41065, 1.41016, 1.4089, 1.40969, 1.40651, 1.40432, 1.40495, 1.40064, 1.39938, 1.39688, 1.39948, 1.39733, 1.39823, 1.39761, 1.39837, 1.39618, 1.39394, 1.39455, 1.39398, 1.39285, 1.39985, 1.38607, 1.40086, 1.39118, 1.38449, 1.38268, 1.37925, 1.38265, 1.37556, 1.37593, 1.37771, 1.38487, 1.39567, 1.37453, 1.36126, 1.40338, 1.39194, 1.43039, 1.46716, 1.47589, 1.49378, 1.51828, 1.51809, 1.57919, 1.59322, 1.50345, 1.47646, 1.43794, 1.40982, 1.32293, 1.35304, 1.35878, 1.35803, 1.35685, 1.34709, 1.35741, 1.34976, 1.34173, 1.34446, 1.33685, 1.35061, 1.33919, 1.33601, 1.33349, 1.33542, 1.33154, 1.33333, 1.33278, 1.33294
1.66549, 1.66399, 1.66201, 1.6608, 1.66098, 1.6597, 1.65719, 1.65819, 1.65553, 1.65362, 1.64687, 1.6451, 1.64341, 1.63835, 1.64457, 1.63731, 1.63782, 1.63479, 1.64519, 1.61636, 1.60625, 1.6486, 1.70008, 1.73719, 1.73843, 1.78786, 1.81294, 1.87831, 1.8511, 1.89295, 1.81005, 1.73, 1.66881, 1.59773, 1.59267, 1.60676, 1.60361, 1.60314, 1.59591, 1.59198, 1.59056, 1.61084, 1.58182, 1.58979, 1.57321, 1.57026, 1.56815, 1.56772, 1.58852, 1.56815, 1.56097, 1.56124, 1.5617, 1.56207, 1.56117, 1.56059, 1.55569, 1.55297, 1.55273, 1.54955, 1.54936, 1.54895, 1.54765, 1.54564, 1.55078, 1.55871, 1.56385, 1.54515, 1.53353, 1.53075, 1.52713, 1.53343, 1.52721, 1.51918, 1.51958, 1.52334, 1.51822, 1.52266, 1.51553, 1.51327, 1.51208, 1.51277, 1.51152, 1.50956, 1.50782, 1.51628, 1.50096, 1.50078, 1.50029, 1.50043, 1.52011, 1.51671, 1.51805, 1.47282, 1.51058, 1.539, 1.58184, 1.57662, 1.62671, 1.64323, 1.63427, 1.63064, 1.62123, 1.60586, 1.59503, 1.54734, 1.47856, 1.4391, 1.45704, 1.46521, 1.47476, 1.46545, 1.46812, 1.48225, 1.47714, 1.4752, 1.46711, 1.46054, 1.45678, 1.44329, 1.44095, 1.44364, 1.43636, 1.43181, 1.42938, 1.42889, 1.42954, 1.43025, 1.43073, 1.43056, 1.43028, 1.42964, 1.42859, 1.42611, 1.42459, 1.42311, 1.42152, 1.42269, 1.42206, 1.42085, 1.45099, 1.41621, 1.41424, 1.41968, 1.41042, 1.41142, 1.40979, 1.40784, 1.40618, 1.40442, 1.40195, 1.40002, 1.39828, 1.39629, 1.39534, 1.39323, 1.39197, 1.38859, 1.38659, 1.38457, 1.38283, 1.38165, 1.38065, 1.38004, 1.38078, 1.37901, 1.38009, 1.37806, 1.37772, 1.37793, 1.38915, 1.37638, 1.38647, 1.37264, 1.37977, 1.3714, 1.36957, 1.39288, 1.37074, 1.37279, 1.37281, 1.36329, 1.34822, 1.40009, 1.38927, 1.43788, 1.44881, 1.47104, 1.48618, 1.50109, 1.511, 1.51234, 1.49671, 1.48695, 1.46414, 1.45485, 1.37181, 1.36015, 1.34092, 1.35052, 1.36532, 1.34852, 1.35586, 1.34317, 1.33495, 1.33039, 1.32875, 1.32697, 1.32772, 1.34407, 1.3267, 1.32571, 1.32633, 1.32591, 1.32772, 1.32506, 1.32351
1.65804, 1.65748, 1.65382, 1.65352, 1.65055, 1.65105, 1.6507, 1.64633, 1.64422, 1.64826, 1.6443, 1.64629, 1.63642, 1.63739, 1.6344, 1.64822, 1.63554, 1.63504, 1.65351, 1.59348, 1.60083, 1.63309, 1.67754, 1.70998, 1.75753, 1.78844, 1.83231, 1.8487, 1.87694, 1.866, 1.80374, 1.78307, 1.658, 1.56419, 1.57122, 1.59364, 1.59847, 1.58597, 1.58247, 1.57952, 1.57868, 1.57335, 1.58321, 1.5695, 1.57829, 1.56648, 1.58509, 1.55987, 1.55738, 1.55477, 1.55128, 1.55078, 1.54876, 1.54825, 1.54877, 1.54585, 1.54492, 1.5429, 1.54042, 1.55061, 1.54325, 1.54422, 1.5452, 1.5406, 1.54445, 1.53182, 1.55569, 1.55308, 1.53193, 1.52445, 1.52917, 1.52524, 1.51591, 1.5226, 1.51347, 1.51385, 1.51117, 1.52092, 1.50717, 1.51348, 1.50132, 1.50065, 1.50082, 1.50594, 1.49152, 1.49071, 1.48919, 1.48842, 1.48721, 1.48692, 1.48839, 1.50565, 1.48077, 1.46017, 1.4947, 1.53824, 1.57497, 1.57861, 1.58607, 1.61576, 1.62479, 1.62308, 1.61933, 1.59377, 1.5707, 1.53105, 1.48218, 1.46662, 1.45046, 1.46514, 1.45697, 1.4647, 1.45552, 1.46782, 1.46794, 1.46502, 1.4606, 1.45726, 1.44717, 1.43605, 1.44054, 1.44748, 1.42985, 1.42842, 1.42761, 1.42598, 1.42623, 1.42601, 1.42632, 1.42699, 1.42637, 1.42611, 1.42495, 1.42233, 1.42, 1.41709, 1.41452, 1.41489, 1.41254, 1.41031, 1.40898, 1.4056, 1.40348, 1.40193, 1.40541, 1.4091, 1.40991, 1.40669, 1.39738, 1.39167, 1.39006, 1.38904, 1.38674, 1.38431, 1.38355, 1.38291, 1.38463, 1.3792, 1.37799, 1.37296, 1.37411, 1.37272, 1.37215, 1.37199, 1.37143, 1.37088, 1.37113, 1.36902, 1.36834, 1.37085, 1.368, 1.3726, 1.36339, 1.36161, 1.36023, 1.36198, 1.35804, 1.36806, 1.37235, 1.36843, 1.37582, 1.35702, 1.33663, 1.38598, 1.37554, 1.42628, 1.42674, 1.46854, 1.47607, 1.49847, 1.51604, 1.53061, 1.54896, 1.5507, 1.49256, 1.44041, 1.39223, 1.35783, 1.33055, 1.36077, 1.36176, 1.348, 1.34346, 1.32571, 1.32597, 1.3407, 1.32232, 1.32338, 1.3203, 1.32092, 1.31953, 1.31898, 1.33978, 1.31968, 1.31933, 1.31699, 1.31734
1.68204, 1.66761, 1.66808, 1.66184, 1.68238, 1.65895, 1.65347, 1.66787, 1.64705, 1.65804, 1.65751, 1.64519, 1.63811, 1.64004, 1.63223, 1.64065, 1.63325, 1.63026, 1.63619, 1.61762, 1.60125, 1.64243, 1.66553, 1.69132, 1.73798, 1.7592, 1.82684, 1.83421, 1.86609, 1.88601, 1.81795, 1.68374, 1.68583, 1.58541, 1.57556, 1.60719, 1.59605, 1.60586, 1.59602, 1.58673, 1.59862, 1.58076, 1.58125, 1.593, 1.58196, 1.5756, 1.57198, 1.58516, 1.56995, 1.56515, 1.58422, 1.55905, 1.5561, 1.55434, 1.56086, 1.55065, 1.55019, 1.54873, 1.54447, 1.54338, 1.5403, 1.54289, 1.53748, 1.53725, 1.54043, 1.53164, 1.53103, 1.53803, 1.54555, 1.53873, 1.54097, 1.53304, 1.52321, 1.52373, 1.52031, 1.52996, 1.51714, 1.51994, 1.51773, 1.51682, 1.50609, 1.51301, 1.49985, 1.50285, 1.50272, 1.49594, 1.4957, 1.50551, 1.51061, 1.50529, 1.49962, 1.50251, 1.51357, 1.4809, 1.47516, 1.50998, 1.52657, 1.59277, 1.59751, 1.6403, 1.64137, 1.62964, 1.61259, 1.57899, 1.57511, 1.53753, 1.52071, 1.47532, 1.45083, 1.46538, 1.47337, 1.46757, 1.4645, 1.45795, 1.46893, 1.47616, 1.46832, 1.46449, 1.44815, 1.44005, 1.44514, 1.4348, 1.43777, 1.43446, 1.43659, 1.4439, 1.43286, 1.43432, 1.43032, 1.46749, 1.4265, 1.42404, 1.42518, 1.42101, 1.4196, 1.42083, 1.41965, 1.41819, 1.41662, 1.41328, 1.42345, 1.41218, 1.41193, 1.41766, 1.40905, 1.40805, 1.40756, 1.40525, 1.40483, 1.41257, 1.39811, 1.39577, 1.39416, 1.39153, 1.39584, 1.38807, 1.38565, 1.39213, 1.38464, 1.38256, 1.38387, 1.37898, 1.3785, 1.37864, 1.37829, 1.37807, 1.37583, 1.37586, 1.3747, 1.38381, 1.3705, 1.36908, 1.38916, 1.37955, 1.36739, 1.36479, 1.3623, 1.36874, 1.37138, 1.36746, 1.3776, 1.35768, 1.32318, 1.34042, 1.39691, 1.41922, 1.43367, 1.47551, 1.48611, 1.50501, 1.51608, 1.53045, 1.54745, 1.52367, 1.49894, 1.45795, 1.38199, 1.34166, 1.34933, 1.36434, 1.34847, 1.35682, 1.34589, 1.35461, 1.3337, 1.34568, 1.33373, 1.32789, 1.33687, 1.32619, 1.32272, 1.32174, 1.3235, 1.32159, 1.32659, 1.34809, 1.3181
1.65551, 1.65323, 1.65118, 1.65001, 1.64742, 1.64621, 1.6438, 1.65047, 1.63897, 1.64043, 1.63443, 1.62768, 1.62665, 1.6238, 1.61786, 1.6332, 1.62837, 1.61996, 1.61329, 1.60434, 1.58619, 1.61412, 1.65252, 1.71102, 1.72396, 1.76762, 1.81334, 1.87133, 1.88264, 1.87225, 1.84811, 1.75503, 1.67931, 1.57148, 1.55871, 1.5847, 1.58055, 1.57569, 1.57487, 1.58529, 1.57194, 1.57131, 1.56704, 1.56739, 1.56427, 1.56229, 1.56114, 1.55806, 1.55836, 1.55524, 1.55475, 1.55471, 1.55268, 1.55102, 1.55086, 1.54697, 1.54467, 1.54212, 1.53993, 1.54726, 1.54033, 1.53282, 1.52702, 1.5267, 1.52333, 1.53354, 1.53291, 1.52139, 1.53758, 1.53398, 1.53747, 1.52957, 1.51056, 1.52267, 1.50746, 1.50458, 1.50083, 1.49991, 1.49823, 1.49601, 1.49401, 1.49226, 1.49162, 1.48966, 1.48613, 1.48313, 1.49507, 1.48181, 1.48203, 1.48381, 1.48285, 1.49586, 1.49279, 1.45386, 1.48726, 1.51604, 1.60705, 1.58846, 1.6271, 1.62586, 1.6263, 1.62075, 1.62045, 1.64054, 1.55831, 1.50995, 1.50329, 1.46087, 1.43563, 1.46087, 1.46927, 1.46269, 1.46435, 1.45201, 1.44833, 1.4514, 1.45984, 1.45724, 1.45094, 1.43477, 1.43044, 1.42634, 1.44362, 1.42512, 1.42306, 1.42141, 1.41937, 1.41783, 1.41547, 1.41525, 1.41296, 1.41262, 1.40941, 1.4058, 1.40518, 1.40224, 1.40203, 1.40024, 1.39934, 1.39823, 1.39964, 1.39691, 1.39191, 1.39185, 1.39269, 1.38812, 1.38525, 1.38384, 1.38383, 1.38059, 1.37964, 1.37866, 1.37784, 1.37811, 1.37669, 1.37737, 1.37446, 1.37283, 1.37451, 1.37032, 1.36786, 1.36628, 1.36445, 1.36304, 1.3624, 1.36068, 1.3609, 1.35934, 1.35685, 1.35611, 1.35483, 1.35316, 1.36852, 1.3508, 1.34979, 1.34753, 1.34748, 1.34698, 1.35267, 1.36436, 1.34711, 1.33737, 1.3098, 1.34994, 1.35664, 1.3795, 1.4107, 1.44849, 1.4479, 1.50531, 1.50262, 1.50725, 1.54228, 1.54645, 1.47141, 1.45421, 1.39371, 1.3094, 1.30346, 1.33768, 1.32671, 1.32907, 1.34221, 1.31914, 1.31675, 1.3134, 1.31625, 1.31247, 1.31073, 1.31593, 1.31374, 1.30625, 1.30332, 1.30356, 1.3035, 1.30243, 1.30275
1.64903, 1.64994, 1.64581, 1.64497, 1.64442, 1.64243, 1.64017, 1.64546, 1.63451, 1.63552, 1.63779, 1.62655, 1.6247, 1.62301, 1.61935, 1.61342, 1.61428, 1.61662, 1.62498, 1.59285, 1.57871, 1.58146, 1.68653, 1.67996, 1.72087, 1.73832, 1.80619, 1.89738, 1.91773, 1.87212, 1.86209, 1.7697, 1.7227, 1.58747, 1.55555, 1.58234, 1.58339, 1.59151, 1.5766, 1.57413, 1.57184, 1.56968, 1.56798, 1.56442, 1.57539, 1.55934, 1.55895, 1.55524, 1.55617, 1.55357, 1.55257, 1.5525, 1.54944, 1.54787, 1.54749, 1.54525, 1.5417, 1.53854, 1.53505, 1.53184, 1.53149, 1.52776, 1.52409, 1.52396, 1.52148, 1.52061, 1.52404, 1.527, 1.5168, 1.52933, 1.52602, 1.53369, 1.50976, 1.51313, 1.5137, 1.50552, 1.50335, 1.50146, 1.50041, 1.49987, 1.49934, 1.49881, 1.49663, 1.5079, 1.4889, 1.49019, 1.49038, 1.48627, 1.49192, 1.48534, 1.50423, 1.48872, 1.49198, 1.45898, 1.46768, 1.50958, 1.52601, 1.5674, 1.58572, 1.61956, 1.63127, 1.61728, 1.59939, 1.57646, 1.59655, 1.56134, 1.49424, 1.47553, 1.43269, 1.46126, 1.45225, 1.46263, 1.44864, 1.45667, 1.45065, 1.45327, 1.4492, 1.46464, 1.46124, 1.4374, 1.43682, 1.4306, 1.42624, 1.42637, 1.42198, 1.41867, 1.43239, 1.41564, 1.41347, 1.41228, 1.40873, 1.40651, 1.4063, 1.40271, 1.40292, 1.40304, 1.40008, 1.39815, 1.39604, 1.39424, 1.39336, 1.39245, 1.39108, 1.38891, 1.38836, 1.38794, 1.38618, 1.38611, 1.3854, 1.38132, 1.38057, 1.38111, 1.37912, 1.37744, 1.37608, 1.37455, 1.3725, 1.37139, 1.37051, 1.36889, 1.36561, 1.3638, 1.36209, 1.36192, 1.35797, 1.3575, 1.35687, 1.35661, 1.35469, 1.3528, 1.35275, 1.35024, 1.355, 1.34591, 1.34475, 1.34539, 1.34316, 1.34359, 1.34985, 1.34344, 1.35147, 1.35637, 1.3541, 1.34077, 1.37019, 1.43642, 1.48058, 1.48844, 1.51954, 1.52704, 1.54371, 1.54349, 1.53608, 1.51797, 1.49258, 1.44751, 1.39357, 1.29861, 1.30907, 1.33248, 1.34222, 1.324, 1.31621, 1.31567, 1.31285, 1.31261, 1.3091, 1.30788, 1.30603, 1.306, 1.30407, 1.30193, 1.30136, 1.30267, 1.30439, 1.30249, 1.29936
1.6454, 1.64215, 1.64088, 1.63767, 1.6371, 1.63473, 1.63136, 1.64432, 1.62973, 1.62749, 1.635, 1.62389, 1.62359, 1.62202, 1.62269, 1.6218, 1.62097, 1.61976, 1.62724, 1.61027, 1.6021, 1.59544, 1.67854, 1.71681, 1.73695, 1.76819, 1.80782, 1.85918, 1.89034, 1.8993, 1.85252, 1.77035, 1.64361, 1.59158, 1.55951, 1.5851, 1.58689, 1.5844, 1.5793, 1.5785, 1.57438, 1.56887, 1.56654, 1.56369, 1.56813, 1.5586, 1.55614, 1.55386, 1.55077, 1.54897, 1.54693, 1.54009, 1.537, 1.54092, 1.54359, 1.54332, 1.54336, 1.54447, 1.5368, 1.53984, 1.53184, 1.53052, 1.52876, 1.53095, 1.52677, 1.52379, 1.52297, 1.52111, 1.52704, 1.52281, 1.51685, 1.53299, 1.53663, 1.52795, 1.50928, 1.51242, 1.50763, 1.50547, 1.50337, 1.5019, 1.5017, 1.50091, 1.49916, 1.49855, 1.49611, 1.49415, 1.4911, 1.48815, 1.48805, 1.48799, 1.48847, 1.49003, 1.48631, 1.45886, 1.46407, 1.49203, 1.50416, 1.54227, 1.60309, 1.60034, 1.60678, 1.6164, 1.6156, 1.58962, 1.59174, 1.5317, 1.52293, 1.46383, 1.44257, 1.44587, 1.46716, 1.45829, 1.4501, 1.4516, 1.4438, 1.44725, 1.44579, 1.46218, 1.46209, 1.45143, 1.44133, 1.42966, 1.44371, 1.42711, 1.42609, 1.42309, 1.42152, 1.44242, 1.41859, 1.41706, 1.41373, 1.41324, 1.41135, 1.40985, 1.409, 1.40787, 1.40646, 1.40392, 1.40289, 1.40118, 1.40091, 1.39889, 1.398, 1.39792, 1.39709, 1.39604, 1.39459, 1.39432, 1.3918, 1.39709, 1.38973, 1.38787, 1.38681, 1.38654, 1.38393, 1.38146, 1.38109, 1.37722, 1.37751, 1.37497, 1.37895, 1.36785, 1.36937, 1.36728, 1.36653, 1.36441, 1.36316, 1.36226, 1.36127, 1.35931, 1.36074, 1.35671, 1.35416, 1.35517, 1.35204, 1.35259, 1.35146, 1.35073, 1.35126, 1.35958, 1.35482, 1.36558, 1.34217, 1.34972, 1.35092, 1.36485, 1.46298, 1.46833, 1.48445, 1.49235, 1.50948, 1.5271, 1.51811, 1.48954, 1.47658, 1.43749, 1.3657, 1.33646, 1.31727, 1.33787, 1.32492, 1.3309, 1.3238, 1.31821, 1.31528, 1.3412, 1.3142, 1.31244, 1.31143, 1.31106, 1.31196, 1.30938, 1.30673, 1.30806, 1.30703, 1.30536, 1.30298
1.6491, 1.64489, 1.64195, 1.64234, 1.64524, 1.64538, 1.64503, 1.63424, 1.62958, 1.62662, 1.62776, 1.62634, 1.62761, 1.62162, 1.62107, 1.63649, 1.63746, 1.61726, 1.61835, 1.60614, 1.59275, 1.59996, 1.67214, 1.68949, 1.72652, 1.81077, 1.84231, 1.84482, 1.87456, 1.89233, 1.80986, 1.81392, 1.67009, 1.67815, 1.55958, 1.58537, 1.58292, 1.5799, 1.58285, 1.57272, 1.57144, 1.56697, 1.5683, 1.56257, 1.55851, 1.55259, 1.5555, 1.55083, 1.55072, 1.54683, 1.54845, 1.54156, 1.54062, 1.54183, 1.54337, 1.54446, 1.54126, 1.53948, 1.53852, 1.53483, 1.52981, 1.52754, 1.52731, 1.52563, 1.52386, 1.52001, 1.52121, 1.51841, 1.51719, 1.51541, 1.51409, 1.52985, 1.53259, 1.52466, 1.51634, 1.50296, 1.49977, 1.49915, 1.49914, 1.49576, 1.49552, 1.49629, 1.48915, 1.48818, 1.48558, 1.48621, 1.48883, 1.48313, 1.4817, 1.48451, 1.48793, 1.49614, 1.48262, 1.45743, 1.45849, 1.46936, 1.507, 1.53363, 1.62708, 1.59521, 1.59933, 1.59958, 1.58918, 1.56718, 1.55503, 1.5499, 1.5112, 1.48471, 1.42725, 1.44214, 1.44919, 1.44707, 1.45245, 1.43542, 1.43338, 1.43215, 1.4324, 1.44809, 1.45147, 1.45708, 1.43877, 1.43126, 1.42395, 1.42297, 1.42203, 1.43637, 1.43048, 1.41731, 1.41443, 1.41322, 1.41297, 1.41449, 1.41431, 1.41071, 1.40915, 1.41323, 1.40625, 1.39956, 1.39905, 1.40134, 1.39869, 1.40029, 1.40264, 1.3957, 1.39494, 1.39391, 1.39336, 1.39407, 1.392, 1.3912, 1.38932, 1.38663, 1.38489, 1.38326, 1.3886, 1.37788, 1.37621, 1.37632, 1.37673, 1.37161, 1.37077, 1.37029, 1.36512, 1.36251, 1.36446, 1.36251, 1.36195, 1.36076, 1.35895, 1.3702, 1.35969, 1.36062, 1.3571, 1.3704, 1.35697, 1.3539, 1.35705, 1.35048, 1.34614, 1.36045, 1.35834, 1.3611, 1.34129, 1.32669, 1.38307, 1.46927, 1.48335, 1.47209, 1.47403, 1.50639, 1.53315, 1.54655, 1.56363, 1.53089, 1.46475, 1.43918, 1.38953, 1.34785, 1.30563, 1.33037, 1.34301, 1.33371, 1.32124, 1.32353, 1.31368, 1.31361, 1.3122, 1.31196, 1.31258, 1.30906, 1.31178, 1.30951, 1.30887, 1.30822, 1.30504, 1.30425, 1.29818
1.65803, 1.68441, 1.65399, 1.65202, 1.65127, 1.65311, 1.64589, 1.64441, 1.64768, 1.64495, 1.63434, 1.6364, 1.6297, 1.62782, 1.63085, 1.62302, 1.62049, 1.61992, 1.62015, 1.62006, 1.60365, 1.60078, 1.62699, 1.68481, 1.72838, 1.76971, 1.82401, 1.85189, 1.86649, 1.94086, 1.84631, 1.80705, 1.71479, 1.59845, 1.5694, 1.58064, 1.5891, 1.59176, 1.59002, 1.57693, 1.58099, 1.57088, 1.56748, 1.57262, 1.5622, 1.55983, 1.55748, 1.55517, 1.55475, 1.55943, 1.56229, 1.54856, 1.55066, 1.54758, 1.54633, 1.54371, 1.54178, 1.54365, 1.53686, 1.53519, 1.5327, 1.53207, 1.52894, 1.52718, 1.52508, 1.52247, 1.52123, 1.52051, 1.51675, 1.5158, 1.51902, 1.5021, 1.51097, 1.52812, 1.53391, 1.51453, 1.50955, 1.50184, 1.49857, 1.49684, 1.50338, 1.49246, 1.4922, 1.48979, 1.49873, 1.48618, 1.48457, 1.484, 1.48228, 1.48723, 1.50132, 1.49704, 1.48476, 1.47781, 1.45314, 1.47898, 1.49643, 1.54331, 1.59616, 1.60979, 1.6146, 1.60988, 1.58449, 1.58485, 1.55875, 1.54076, 1.52603, 1.47498, 1.43405, 1.44438, 1.45525, 1.45487, 1.4538, 1.44016, 1.4433, 1.43721, 1.43638, 1.43407, 1.43683, 1.46044, 1.44717, 1.45068, 1.43804, 1.42479, 1.4208, 1.41816, 1.42625, 1.43388, 1.41527, 1.41276, 1.41221, 1.41114, 1.40967, 1.40971, 1.40808, 1.40511, 1.40424, 1.40258, 1.40007, 1.39953, 1.39797, 1.3974, 1.39453, 1.39427, 1.39387, 1.38974, 1.39072, 1.39036, 1.38906, 1.38644, 1.38562, 1.38311, 1.38161, 1.37875, 1.37921, 1.37564, 1.37438, 1.37341, 1.37119, 1.36966, 1.3689, 1.36524, 1.36724, 1.36277, 1.36377, 1.36202, 1.35934, 1.36082, 1.36049, 1.3603, 1.35835, 1.35585, 1.36761, 1.35493, 1.35371, 1.36019, 1.35469, 1.35151, 1.36074, 1.35893, 1.36417, 1.35716, 1.35772, 1.34476, 1.36873, 1.40503, 1.43467, 1.44322, 1.49909, 1.50368, 1.55051, 1.54094, 1.55102, 1.54168, 1.52389, 1.39826, 1.4184, 1.32667, 1.29871, 1.33662, 1.3331, 1.33716, 1.3255, 1.31784, 1.31787, 1.31896, 1.31515, 1.3325, 1.32251, 1.31409, 1.3123, 1.31035, 1.31106, 1.30799, 1.30682, 1.30559, 1.30357
1.65593, 1.65361, 1.6516, 1.65121, 1.65021, 1.6475, 1.64414, 1.63898, 1.63902, 1.63551, 1.64454, 1.63057, 1.62857, 1.62682, 1.62369, 1.62405, 1.62032, 1.61897, 1.63179, 1.6282, 1.59303, 1.58885, 1.61761, 1.66764, 1.69727, 1.72401, 1.77613, 1.84062, 1.8732, 1.84514, 1.89723, 1.7755, 1.72374, 1.60751, 1.55654, 1.55915, 1.58373, 1.58459, 1.58933, 1.57318, 1.56844, 1.5646, 1.56517, 1.56833, 1.55773, 1.56239, 1.55445, 1.55245, 1.55225, 1.55368, 1.54944, 1.5481, 1.54664, 1.54541, 1.54378, 1.54219, 1.54012, 1.53964, 1.5474, 1.53642, 1.54095, 1.53127, 1.52762, 1.5265, 1.52268, 1.52112, 1.51967, 1.52043, 1.51588, 1.51436, 1.52056, 1.51063, 1.52363, 1.51681, 1.52568, 1.52389, 1.50702, 1.49834, 1.49579, 1.49302, 1.49243, 1.49334, 1.49006, 1.49815, 1.48923, 1.50532, 1.48255, 1.48107, 1.4811, 1.48194, 1.49253, 1.48493, 1.48377, 1.4707, 1.45003, 1.49583, 1.48815, 1.55267, 1.56518, 1.58302, 1.59445, 1.62074, 1.5899, 1.58956, 1.53433, 1.50949, 1.49625, 1.47591, 1.46077, 1.44056, 1.44727, 1.45816, 1.44997, 1.4377, 1.43638, 1.43377, 1.43378, 1.43445, 1.43419, 1.44338, 1.44726, 1.43737, 1.4401, 1.43185, 1.44851, 1.43632, 1.42282, 1.4136, 1.41343, 1.40865, 1.40922, 1.41649, 1.40753, 1.40742, 1.40596, 1.40483, 1.40429, 1.40286, 1.39918, 1.39841, 1.39737, 1.39521, 1.39376, 1.39524, 1.39491, 1.39276, 1.3905, 1.38785, 1.38824, 1.38669, 1.38335, 1.38154, 1.37865, 1.37809, 1.37865, 1.37828, 1.37727, 1.37417, 1.37147, 1.37116, 1.36838, 1.36788, 1.3675, 1.36626, 1.3648, 1.36344, 1.36294, 1.36087, 1.36044, 1.36013, 1.3584, 1.35717, 1.35811, 1.35741, 1.35672, 1.35351, 1.3532, 1.35771, 1.35523, 1.35733, 1.352, 1.35084, 1.33334, 1.32194, 1.35357, 1.41615, 1.43342, 1.47809, 1.49947, 1.52313, 1.54592, 1.55459, 1.58444, 1.52573, 1.49618, 1.42845, 1.41257, 1.32461, 1.32298, 1.34407, 1.34802, 1.33188, 1.33419, 1.33574, 1.34413, 1.34251, 1.32261, 1.33688, 1.32008, 1.32217, 1.31693, 1.32694, 1.31513, 1.31204, 1.30924, 1.30943, 1.30804
1.65372, 1.65296, 1.64834, 1.64761, 1.64373, 1.64191, 1.64095, 1.63817, 1.63404, 1.63518, 1.63161, 1.63104, 1.62974, 1.62653, 1.62444, 1.62274, 1.62136, 1.62614, 1.61973, 1.63253, 1.603, 1.59253, 1.62168, 1.66894, 1.697, 1.70786, 1.76772, 1.80861, 1.86856, 1.92114, 1.94656, 1.80172, 1.70389, 1.58363, 1.56776, 1.5873, 1.58745, 1.59184, 1.58767, 1.57462, 1.56993, 1.56928, 1.56553, 1.56482, 1.56165, 1.55968, 1.55797, 1.56371, 1.55844, 1.55384, 1.5537, 1.55267, 1.5512, 1.54895, 1.54699, 1.54458, 1.5423, 1.53852, 1.53715, 1.53657, 1.53539, 1.54968, 1.5306, 1.52929, 1.52847, 1.52531, 1.52254, 1.51929, 1.51851, 1.51529, 1.51353, 1.52358, 1.51182, 1.51637, 1.52327, 1.52234, 1.5265, 1.50887, 1.49891, 1.49867, 1.49742, 1.50264, 1.49379, 1.49218, 1.49163, 1.48965, 1.48823, 1.48659, 1.48611, 1.49282, 1.4995, 1.48514, 1.48946, 1.45801, 1.45672, 1.461, 1.49379, 1.52024, 1.56842, 1.58295, 1.57095, 1.63135, 1.61637, 1.58186, 1.57474, 1.52445, 1.53521, 1.48095, 1.42984, 1.44022, 1.46105, 1.462, 1.45145, 1.44728, 1.43997, 1.43693, 1.45007, 1.43422, 1.43358, 1.43245, 1.43899, 1.45783, 1.44314, 1.44254, 1.42286, 1.43728, 1.41889, 1.41575, 1.41328, 1.41276, 1.41195, 1.40933, 1.40868, 1.40621, 1.40587, 1.40571, 1.4057, 1.40202, 1.40177, 1.40045, 1.40016, 1.39988, 1.39745, 1.39617, 1.39448, 1.39616, 1.39118, 1.39105, 1.38798, 1.38643, 1.38453, 1.38335, 1.38185, 1.37924, 1.37754, 1.37598, 1.37324, 1.37147, 1.37036, 1.3687, 1.36706, 1.3657, 1.3653, 1.36539, 1.36356, 1.36214, 1.36149, 1.35998, 1.35966, 1.35992, 1.35692, 1.35655, 1.3554, 1.35385, 1.35257, 1.35057, 1.34984, 1.34616, 1.34529, 1.34617, 1.35481, 1.35136, 1.35152, 1.32324, 1.34764, 1.40037, 1.41505, 1.44387, 1.49226, 1.5441, 1.3888, 1.38707, 1.56501, 1.55026, 1.50933, 1.46986, 1.36027, 1.34538, 1.31263, 1.33467, 1.35469, 1.33248, 1.33766, 1.32902, 1.32729, 1.32349, 1.32286, 1.31898, 1.32679, 1.32, 1.31688, 1.31462, 1.31429, 1.31225, 1.3116, 1.30941, 1.30977
1.6527, 1.65233, 1.65036, 1.64791, 1.64487, 1.6393, 1.63755, 1.63528, 1.64695, 1.63127, 1.63076, 1.63367, 1.64483, 1.63071, 1.62273, 1.62605, 1.62252, 1.63273, 1.63024, 1.64057, 1.63213, 1.58273, 1.61736, 1.6761, 1.71336, 1.75439, 1.78924, 1.81124, 1.87373, 1.90331, 1.88222, 1.79956, 1.71265, 1.62456, 1.56525, 1.58498, 1.59713, 1.59526, 1.5894, 1.58668, 1.58633, 1.58345, 1.58573, 1.58633, 1.56605, 1.56547, 1.56949, 1.556, 1.55389, 1.55149, 1.54859, 1.54769, 1.54716, 1.54685, 1.54626, 1.54335, 1.54165, 1.54198, 1.54015, 1.5386, 1.53839, 1.53613, 1.53437, 1.53068, 1.52753, 1.53102, 1.52366, 1.52731, 1.52095, 1.51641, 1.51661, 1.51436, 1.51175, 1.51091, 1.52416, 1.5193, 1.51307, 1.51996, 1.51005, 1.50542, 1.50991, 1.50418, 1.51264, 1.50616, 1.49326, 1.49177, 1.48804, 1.48713, 1.48583, 1.48627, 1.48795, 1.48983, 1.49164, 1.46843, 1.45282, 1.50813, 1.52844, 1.55268, 1.56568, 1.64461, 1.60082, 1.58391, 1.57788, 1.57544, 1.56156, 1.53247, 1.51088, 1.46785, 1.45798, 1.43548, 1.4646, 1.4578, 1.46677, 1.45602, 1.4511, 1.45355, 1.43997, 1.43727, 1.43508, 1.43359, 1.43177, 1.43859, 1.44185, 1.43569, 1.44423, 1.43747, 1.42074, 1.41919, 1.41719, 1.41505, 1.4143, 1.41243, 1.41088, 1.40952, 1.40828, 1.40631, 1.4074, 1.40558, 1.40408, 1.40396, 1.40193, 1.39923, 1.39776, 1.39768, 1.39464, 1.39226, 1.39162, 1.3899, 1.38885, 1.3858, 1.38388, 1.38229, 1.38144, 1.38116, 1.38105, 1.3778, 1.37443, 1.3742, 1.37373, 1.37055, 1.37, 1.36943, 1.36479, 1.36348, 1.36255, 1.36019, 1.36049, 1.36023, 1.3596, 1.35796, 1.35452, 1.3553, 1.35366, 1.35418, 1.3531, 1.35251, 1.35055, 1.34997, 1.34852, 1.34787, 1.34926, 1.35121, 1.34942, 1.32255, 1.32591, 1.39257, 1.41164, 1.44818, 1.47795, 1.49911, 1.55069, 1.56882, 1.55795, 1.55001, 1.4716, 1.44366, 1.39889, 1.34252, 1.3193, 1.35153, 1.33607, 1.33694, 1.32644, 1.3271, 1.32423, 1.3469, 1.32678, 1.33002, 1.32779, 1.3153, 1.32392, 1.31339, 1.31515, 1.31069, 1.30843, 1.31063, 1.30906
1.6534, 1.65164, 1.64867, 1.64652, 1.64312, 1.64007, 1.63895, 1.63627, 1.63314, 1.63113, 1.62978, 1.62624, 1.62346, 1.62332, 1.62468, 1.622, 1.64505, 1.62093, 1.62349, 1.62394, 1.61633, 1.59613, 1.60952, 1.62323, 1.66867, 1.70987, 1.75895, 1.83104, 1.87774, 2.00232, 1.96059, 1.84468, 1.67476, 1.57825, 1.56898, 1.5912, 1.58879, 1.59249, 1.57627, 1.5751, 1.57419, 1.57147, 1.5675, 1.56657, 1.56294, 1.56185, 1.55848, 1.55539, 1.55232, 1.55177, 1.54923, 1.54825, 1.54908, 1.54318, 1.54213, 1.54033, 1.54029, 1.53935, 1.53787, 1.53407, 1.53251, 1.53176, 1.53191, 1.53113, 1.52344, 1.52117, 1.5276, 1.51822, 1.51579, 1.51401, 1.51351, 1.52321, 1.50943, 1.51124, 1.50687, 1.50646, 1.53001, 1.5227, 1.5267, 1.51729, 1.50582, 1.49745, 1.49713, 1.52045, 1.49522, 1.4926, 1.48905, 1.49934, 1.4851, 1.48383, 1.48388, 1.4856, 1.48171, 1.47567, 1.46254, 1.46175, 1.50054, 1.5154, 1.54853, 1.57332, 1.58258, 1.55857, 1.55778, 1.55789, 1.55213, 1.53045, 1.50539, 1.45558, 1.47241, 1.42254, 1.44512, 1.45573, 1.45914, 1.44774, 1.44131, 1.44855, 1.4378, 1.43674, 1.43411, 1.43264, 1.43046, 1.42985, 1.44248, 1.4509, 1.44588, 1.43709, 1.4235, 1.42914, 1.42285, 1.41308, 1.40967, 1.41094, 1.41018, 1.4102, 1.40988, 1.40859, 1.40783, 1.40683, 1.40471, 1.40184, 1.40096, 1.39962, 1.39901, 1.39862, 1.39946, 1.3934, 1.39184, 1.38909, 1.38892, 1.38784, 1.38639, 1.38522, 1.38405, 1.38121, 1.38112, 1.37934, 1.37691, 1.37521, 1.37159, 1.37021, 1.36721, 1.3647, 1.3621, 1.36013, 1.35928, 1.35669, 1.35449, 1.35325, 1.35275, 1.35445, 1.3535, 1.35407, 1.35417, 1.35045, 1.35039, 1.34764, 1.34804, 1.35017, 1.3473, 1.34749, 1.34888, 1.36084, 1.35172, 1.34742, 1.36849, 1.38576, 1.41054, 1.4409, 1.51731, 1.52562, 1.56099, 1.6159, 1.61225, 1.64087, 1.57556, 1.41429, 1.39154, 1.31703, 1.30615, 1.33052, 1.32847, 1.33453, 1.3195, 1.31904, 1.31698, 1.3173, 1.31418, 1.31861, 1.31544, 1.32047, 1.31181, 1.31289, 1.31403, 1.3157, 1.30972, 1.30701, 1.30702
1.64877, 1.64754, 1.64789, 1.64477, 1.64357, 1.64027, 1.63577, 1.63478, 1.63945, 1.63008, 1.62792, 1.62735, 1.62507, 1.62319, 1.64727, 1.62102, 1.6197, 1.61762, 1.62695, 1.61962, 1.61072, 1.58249, 1.61587, 1.69586, 1.6886, 1.73713, 1.80184, 1.87957, 1.87031, 1.9078, 1.9624, 1.86005, 1.81396, 1.65237, 1.56488, 1.57415, 1.584, 1.58513, 1.59204, 1.57767, 1.5718, 1.56862, 1.56759, 1.5635, 1.56129, 1.56023, 1.55957, 1.55964, 1.55483, 1.55201, 1.55043, 1.54775, 1.55595, 1.54222, 1.54007, 1.5397, 1.53908, 1.53683, 1.53654, 1.53147, 1.53016, 1.52997, 1.52684, 1.52471, 1.52343, 1.52083, 1.51919, 1.51776, 1.51674, 1.51325, 1.50968, 1.50941, 1.50897, 1.50821, 1.50651, 1.50498, 1.5062, 1.50313, 1.52549, 1.51677, 1.51972, 1.50203, 1.49526, 1.49492, 1.49248, 1.49652, 1.48659, 1.48441, 1.4841, 1.48483, 1.49624, 1.48787, 1.49369, 1.47348, 1.46717, 1.48492, 1.55382, 1.54924, 1.55163, 1.5721, 1.57538, 1.56874, 1.5542, 1.55411, 1.54542, 1.54067, 1.52984, 1.48034, 1.46767, 1.4239, 1.45149, 1.45346, 1.46101, 1.44945, 1.44211, 1.43945, 1.43489, 1.43272, 1.43037, 1.42798, 1.42664, 1.42353, 1.42468, 1.43819, 1.46333, 1.4682, 1.44854, 1.41714, 1.44355, 1.41247, 1.41031, 1.40999, 1.40821, 1.40971, 1.40752, 1.40539, 1.40505, 1.405, 1.40519, 1.40512, 1.40338, 1.4008, 1.39898, 1.39883, 1.39737, 1.39731, 1.39488, 1.39378, 1.39245, 1.38996, 1.38836, 1.38637, 1.38445, 1.38279, 1.38115, 1.38016, 1.37869, 1.37734, 1.3759, 1.37115, 1.3686, 1.3672, 1.36412, 1.36363, 1.36324, 1.36218, 1.35739, 1.35377, 1.35413, 1.3538, 1.35248, 1.35301, 1.35664, 1.35364, 1.36411, 1.36074, 1.35269, 1.35322, 1.35152, 1.37065, 1.36514, 1.36184, 1.37086, 1.36009, 1.34864, 1.38181, 1.43442, 1.45751, 1.49862, 1.51754, 1.59629, 1.59485, 1.61658, 1.6088, 1.58928, 1.5101, 1.36528, 1.32208, 1.31978, 1.3327, 1.3291, 1.3345, 1.32639, 1.32682, 1.32002, 1.32031, 1.32747, 1.32877, 1.31924, 1.31985, 1.31515, 1.31219, 1.31172, 1.31099, 1.30967, 1.30958, 1.30511
1.65402, 1.64848, 1.64481, 1.64185, 1.64083, 1.63846, 1.64386, 1.63156, 1.63065, 1.62719, 1.62909, 1.6248, 1.62178, 1.62384, 1.6224, 1.62062, 1.61895, 1.61819, 1.61612, 1.61743, 1.61886, 1.61593, 1.59327, 1.62266, 1.65763, 1.71392, 1.79321, 1.80768, 1.86762, 1.9215, 1.88259, 1.81136, 1.67129, 1.59484, 1.56717, 1.58598, 1.58282, 1.58177, 1.58866, 1.57326, 1.57028, 1.56798, 1.56629, 1.56453, 1.56308, 1.56025, 1.55771, 1.55836, 1.55559, 1.55047, 1.54822, 1.54688, 1.54474, 1.54231, 1.54082, 1.53997, 1.53761, 1.53645, 1.53562, 1.53418, 1.53015, 1.52752, 1.52463, 1.52369, 1.52318, 1.51772, 1.51579, 1.5134, 1.51339, 1.51127, 1.50748, 1.50354, 1.50196, 1.49946, 1.4984, 1.49882, 1.49872, 1.50497, 1.50619, 1.51357, 1.51547, 1.51312, 1.495, 1.49997, 1.49322, 1.4929, 1.4894, 1.48524, 1.482, 1.49251, 1.49543, 1.4882, 1.48518, 1.46898, 1.45467, 1.47196, 1.52958, 1.55103, 1.59273, 1.5923, 1.57568, 1.56944, 1.55051, 1.54863, 1.54883, 1.55667, 1.5166, 1.51637, 1.45176, 1.43075, 1.44535, 1.45256, 1.46156, 1.44485, 1.43851, 1.43775, 1.43995, 1.43276, 1.42923, 1.42753, 1.42599, 1.42585, 1.42349, 1.42969, 1.42638, 1.42404, 1.41906, 1.40898, 1.41407, 1.40937, 1.42241, 1.40704, 1.40612, 1.4062, 1.41289, 1.40655, 1.40416, 1.40246, 1.40064, 1.39911, 1.39685, 1.39654, 1.39375, 1.39451, 1.39221, 1.39175, 1.39125, 1.39144, 1.38873, 1.38776, 1.38674, 1.38641, 1.38434, 1.38417, 1.38287, 1.38198, 1.38063, 1.37996, 1.37656, 1.3748, 1.37396, 1.37385, 1.37842, 1.36793, 1.3648, 1.36341, 1.36179, 1.3599, 1.35996, 1.35658, 1.35547, 1.35377, 1.35341, 1.35341, 1.3623, 1.35482, 1.35126, 1.35004, 1.34957, 1.34902, 1.35109, 1.35355, 1.35222, 1.34628, 1.31804, 1.37914, 1.38255, 1.44188, 1.50141, 1.51724, 1.56104, 1.57563, 1.61719, 1.57368, 1.53373, 1.46085, 1.40006, 1.33383, 1.29957, 1.32637, 1.3383, 1.34104, 1.32322, 1.32267, 1.3194, 1.31869, 1.3159, 1.31684, 1.31638, 1.31624, 1.3126, 1.31222, 1.31414, 1.30793, 1.30727, 1.30526, 1.30554
1.64919, 1.64938, 1.64582, 1.64627, 1.64784, 1.63831, 1.64255, 1.63303, 1.63271, 1.62753, 1.62475, 1.62535, 1.62311, 1.62289, 1.6219, 1.62094, 1.62301, 1.6185, 1.61764, 1.61926, 1.62126, 1.61028, 1.59723, 1.64686, 1.68247, 1.71852, 1.72528, 1.78572, 1.89003, 1.98829, 1.97934, 1.89313, 1.78999, 1.61398, 1.55072, 1.56714, 1.58231, 1.58071, 1.57575, 1.58291, 1.58019, 1.56996, 1.56617, 1.57132, 1.56097, 1.58176, 1.55757, 1.55519, 1.555, 1.55092, 1.54855, 1.54732, 1.54513, 1.54374, 1.5422, 1.54138, 1.54348, 1.53791, 1.5369, 1.53468, 1.53478, 1.5307, 1.52998, 1.52592, 1.52386, 1.52166, 1.52002, 1.51665, 1.51391, 1.51127, 1.5172, 1.50678, 1.50446, 1.50255, 1.50113, 1.50072, 1.51082, 1.50433, 1.51604, 1.51004, 1.51624, 1.52424, 1.51979, 1.49246, 1.49378, 1.49498, 1.49932, 1.49445, 1.48193, 1.48864, 1.48338, 1.48294, 1.48018, 1.45908, 1.46608, 1.48532, 1.50592, 1.51749, 1.53558, 1.58581, 1.57531, 1.5507, 1.54237, 1.54141, 1.52828, 1.51826, 1.48473, 1.48566, 1.49257, 1.44421, 1.45096, 1.45003, 1.44898, 1.45436, 1.44016, 1.45485, 1.43462, 1.4406, 1.43197, 1.43227, 1.43732, 1.44322, 1.43614, 1.42196, 1.42844, 1.42594, 1.43502, 1.43983, 1.42386, 1.40863, 1.40767, 1.41891, 1.40343, 1.426, 1.40992, 1.40263, 1.40162, 1.40015, 1.39832, 1.39665, 1.39595, 1.39395, 1.39174, 1.39029, 1.38882, 1.3879, 1.38771, 1.38796, 1.38674, 1.39384, 1.38539, 1.38366, 1.38152, 1.37899, 1.37942, 1.37765, 1.37633, 1.37503, 1.37346, 1.37159, 1.37163, 1.37004, 1.36798, 1.36772, 1.36672, 1.36544, 1.36522, 1.36481, 1.36282, 1.36286, 1.36152, 1.36104, 1.35803, 1.35568, 1.35383, 1.35243, 1.3522, 1.35094, 1.35152, 1.35001, 1.34519, 1.351, 1.35491, 1.34766, 1.35502, 1.36454, 1.40966, 1.42948, 1.4724, 1.4856, 1.54468, 1.55923, 1.57186, 1.54859, 1.50187, 1.45414, 1.33771, 1.31603, 1.33629, 1.34284, 1.33192, 1.33071, 1.3311, 1.32259, 1.31754, 1.33503, 1.31879, 1.31577, 1.3141, 1.31663, 1.31185, 1.31056, 1.31047, 1.30877, 1.30627, 1.33458, 1.30322
1.64851, 1.64496, 1.64016, 1.63832, 1.6378, 1.63202, 1.62937, 1.62778, 1.63038, 1.62855, 1.62651, 1.62654, 1.62486, 1.62413, 1.62293, 1.62078, 1.6187, 1.61615, 1.61557, 1.61629, 1.62707, 1.61384, 1.60322, 1.66311, 1.67187, 1.70475, 1.76845, 1.83721, 1.84307, 1.91518, 1.92474, 1.79816, 1.73758, 1.65562, 1.5414, 1.57303, 1.57923, 1.5891, 1.5784, 1.58255, 1.57929, 1.57135, 1.56237, 1.57876, 1.55588, 1.55469, 1.55341, 1.55184, 1.55031, 1.54902, 1.54827, 1.54512, 1.5436, 1.54107, 1.53915, 1.53849, 1.53573, 1.5343, 1.53321, 1.53169, 1.53213, 1.53017, 1.52552, 1.52485, 1.52401, 1.52029, 1.51842, 1.51617, 1.51403, 1.51051, 1.50931, 1.51346, 1.5161, 1.50326, 1.50534, 1.50112, 1.49956, 1.49796, 1.49687, 1.48972, 1.51599, 1.52413, 1.52378, 1.52347, 1.49246, 1.49522, 1.49568, 1.4922, 1.48445, 1.47885, 1.48397, 1.48036, 1.48013, 1.48001, 1.46096, 1.48029, 1.52992, 1.55147, 1.61345, 1.5719, 1.56987, 1.5608, 1.53125, 1.53012, 1.53156, 1.5218, 1.51111, 1.46438, 1.44774, 1.44288, 1.43468, 1.44803, 1.45697, 1.46108, 1.44092, 1.43917, 1.44825, 1.43872, 1.43749, 1.44324, 1.44229, 1.44038, 1.44028, 1.4454, 1.45309, 1.44987, 1.42689, 1.43326, 1.41566, 1.4225, 1.4103, 1.40963, 1.41785, 1.41377, 1.40496, 1.40362, 1.40306, 1.40159, 1.39892, 1.39931, 1.395, 1.3951, 1.39198, 1.39046, 1.38904, 1.38846, 1.38842, 1.38675, 1.38698, 1.38488, 1.38317, 1.38263, 1.3791, 1.37877, 1.37702, 1.37661, 1.37433, 1.37412, 1.3717, 1.37067, 1.36902, 1.36712, 1.36561, 1.36512, 1.36559, 1.36399, 1.36494, 1.36417, 1.36435, 1.36391, 1.35747, 1.35715, 1.35728, 1.35676, 1.35584, 1.35315, 1.35074, 1.34865, 1.3464, 1.34642, 1.35479, 1.35208, 1.35102, 1.36513, 1.32623, 1.39641, 1.41729, 1.42716, 1.4896, 1.53211, 1.56868, 1.5885, 1.62457, 1.6105, 1.59622, 1.46109, 1.39571, 1.33141, 1.29147, 1.34204, 1.33711, 1.34327, 1.34001, 1.33869, 1.3197, 1.33716, 1.31605, 1.31389, 1.31298, 1.31092, 1.33369, 1.30831, 1.30738, 1.30769, 1.30909, 1.30467, 1.30381
1.65188, 1.649, 1.64713, 1.64427, 1.63937, 1.63723, 1.63513, 1.63407, 1.63377, 1.63041, 1.6435, 1.62503, 1.62309, 1.62037, 1.62093, 1.61698, 1.61475, 1.61438, 1.62197, 1.63987, 1.61905, 1.62011, 1.59905, 1.655, 1.7112, 1.72038, 1.75637, 1.81693, 1.867, 1.91208, 1.92309, 1.92305, 1.68522, 1.6086, 1.55108, 1.59288, 1.58853, 1.5781, 1.576, 1.57855, 1.58612, 1.56653, 1.56352, 1.58175, 1.56381, 1.55827, 1.5556, 1.5543, 1.56446, 1.55242, 1.54949, 1.54742, 1.54512, 1.54426, 1.53945, 1.53857, 1.53509, 1.53166, 1.5314, 1.5278, 1.52472, 1.52119, 1.52019, 1.51887, 1.51812, 1.51658, 1.51568, 1.51392, 1.51136, 1.50949, 1.50796, 1.50765, 1.50627, 1.505, 1.5044, 1.52351, 1.50286, 1.49919, 1.50015, 1.50651, 1.50953, 1.51408, 1.5332, 1.53784, 1.51541, 1.48965, 1.4894, 1.49049, 1.48699, 1.48156, 1.48562, 1.49088, 1.49216, 1.47225, 1.45258, 1.45646, 1.51917, 1.50313, 1.55939, 1.55353, 1.55027, 1.54655, 1.5339, 1.53928, 1.53476, 1.53393, 1.5273, 1.50972, 1.48241, 1.43073, 1.45082, 1.4447, 1.45166, 1.45462, 1.44433, 1.45025, 1.43505, 1.42632, 1.43775, 1.47429, 1.44125, 1.4579, 1.50029, 1.47286, 1.46199, 1.44919, 1.42419, 1.41678, 1.41548, 1.41633, 1.4077, 1.41061, 1.40758, 1.4067, 1.40297, 1.4013, 1.40034, 1.39923, 1.39741, 1.39522, 1.39332, 1.39273, 1.3919, 1.39044, 1.38912, 1.38759, 1.38554, 1.38605, 1.38472, 1.38438, 1.38146, 1.37905, 1.37784, 1.37646, 1.37332, 1.37297, 1.37057, 1.36962, 1.36852, 1.36759, 1.36707, 1.36491, 1.36677, 1.36314, 1.36212, 1.36191, 1.36112, 1.36143, 1.36059, 1.35885, 1.35849, 1.35708, 1.35682, 1.35663, 1.35431, 1.35181, 1.34885, 1.34742, 1.34954, 1.34612, 1.34609, 1.35768, 1.35698, 1.3654, 1.33407, 1.32947, 1.36559, 1.44482, 1.47859, 1.49688, 1.54746, 1.60154, 1.60943, 1.61972, 1.50723, 1.45176, 1.41363, 1.32898, 1.31192, 1.33367, 1.32687, 1.32054, 1.31928, 1.33631, 1.31921, 1.3186, 1.31688, 1.31606, 1.31348, 1.31414, 1.31199, 1.31159, 1.309, 1.3087, 1.30677, 1.30597, 1.30597
1.65285, 1.65199, 1.6514, 1.6475, 1.64595, 1.64227, 1.64044, 1.63765, 1.6334, 1.63208, 1.63147, 1.62829, 1.62822, 1.62431, 1.6211, 1.63397, 1.61704, 1.61085, 1.60993, 1.63315, 1.62294, 1.61429, 1.5861, 1.62725, 1.68658, 1.67767, 1.74398, 1.77628, 1.81945, 1.89318, 2.08514, 2.04478, 1.60897, 1.57874, 1.57708, 1.58075, 1.58092, 1.58054, 1.5862, 1.57538, 1.59602, 1.57382, 1.57381, 1.57316, 1.56187, 1.56148, 1.55732, 1.55357, 1.55406, 1.55048, 1.54861, 1.54567, 1.54462, 1.54108, 1.53843, 1.53647, 1.53379, 1.53095, 1.52702, 1.52516, 1.5226, 1.52236, 1.52035, 1.51557, 1.51364, 1.51292, 1.51241, 1.50764, 1.50928, 1.50786, 1.50771, 1.50736, 1.50562, 1.50852, 1.52753, 1.50379, 1.50627, 1.50048, 1.49892, 1.50173, 1.49779, 1.51228, 1.5095, 1.53511, 1.54482, 1.53733, 1.51786, 1.49146, 1.4985, 1.4965, 1.50022, 1.48162, 1.48519, 1.4744, 1.43974, 1.48186, 1.48257, 1.49698, 1.52304, 1.55393, 1.55247, 1.53097, 1.50914, 1.51809, 1.54183, 1.53478, 1.49979, 1.47817, 1.44958, 1.43429, 1.43976, 1.46354, 1.45832, 1.47632, 1.47238, 1.47729, 1.48769, 1.48232, 1.5089, 1.49484, 1.48285, 1.472, 1.45839, 1.44739, 1.42951, 1.42766, 1.43438, 1.4241, 1.42407, 1.42113, 1.41399, 1.41235, 1.40945, 1.4085, 1.40603, 1.40531, 1.40296, 1.42959, 1.39841, 1.39697, 1.39437, 1.39473, 1.39143, 1.39143, 1.38822, 1.39081, 1.38552, 1.38525, 1.38495, 1.39164, 1.38061, 1.3796, 1.37834, 1.3782, 1.3758, 1.37447, 1.37401, 1.3731, 1.37138, 1.36995, 1.37148, 1.36717, 1.36728, 1.36795, 1.36495, 1.36388, 1.36371, 1.36256, 1.36268, 1.35987, 1.36013, 1.35708, 1.35621, 1.35379, 1.35226, 1.3533, 1.35103, 1.35062, 1.37431, 1.34554, 1.34513, 1.34802, 1.36042, 1.3649, 1.33052, 1.37761, 1.36553, 1.42057, 1.46367, 1.5162, 1.55462, 1.58145, 1.61737, 1.61085, 1.52147, 1.4889, 1.41006, 1.32494, 1.30619, 1.32662, 1.33064, 1.33809, 1.32607, 1.33026, 1.32659, 1.32122, 1.33764, 1.31988, 1.31708, 1.31513, 1.31354, 1.31359, 1.30991, 1.30863, 1.306, 1.30634, 1.3064
1.64777, 1.64617, 1.64795, 1.6424, 1.6415, 1.64073, 1.63927, 1.63982, 1.63721, 1.63212, 1.63044, 1.62869, 1.6249, 1.62384, 1.61931, 1.61612, 1.61454, 1.61163, 1.61164, 1.61021, 1.61911, 1.60975, 1.60706, 1.58859, 1.68349, 1.68229, 1.71748, 1.75784, 1.82419, 1.86145, 1.85536, 1.80959, 1.70685, 1.58706, 1.55492, 1.58574, 1.59973, 1.57748, 1.58326, 1.57849, 1.57472, 1.57098, 1.56902, 1.5717, 1.56375, 1.5603, 1.55788, 1.55499, 1.55343, 1.54896, 1.54357, 1.54582, 1.54723, 1.54006, 1.53828, 1.53509, 1.53194, 1.5307, 1.52777, 1.5259, 1.52178, 1.5198, 1.5161, 1.5138, 1.52997, 1.51297, 1.50956, 1.50914, 1.50859, 1.5066, 1.50575, 1.50274, 1.50243, 1.50183, 1.50203, 1.49971, 1.49941, 1.49892, 1.49551, 1.49582, 1.49384, 1.50327, 1.50527, 1.50304, 1.53767, 1.55728, 1.52645, 1.50939, 1.51268, 1.48679, 1.48895, 1.48888, 1.48504, 1.47584, 1.46032, 1.4603, 1.50716, 1.52768, 1.54164, 1.54379, 1.54507, 1.53855, 1.51558, 1.51938, 1.50554, 1.52536, 1.52339, 1.49967, 1.51031, 1.46422, 1.46012, 1.46271, 1.46865, 1.46291, 1.47242, 1.46364, 1.45575, 1.45193, 1.4458, 1.45198, 1.44674, 1.44021, 1.44499, 1.43287, 1.42639, 1.42304, 1.42236, 1.41846, 1.41581, 1.41332, 1.41263, 1.41023, 1.4089, 1.40718, 1.40467, 1.40506, 1.40166, 1.40061, 1.3992, 1.39773, 1.39688, 1.39322, 1.39037, 1.38671, 1.38543, 1.38433, 1.38419, 1.38348, 1.38263, 1.38215, 1.38103, 1.37863, 1.37912, 1.3773, 1.37622, 1.37487, 1.37429, 1.37072, 1.37034, 1.3697, 1.36839, 1.36706, 1.36617, 1.36337, 1.36238, 1.36129, 1.35841, 1.35913, 1.35765, 1.35483, 1.35479, 1.35381, 1.35101, 1.35015, 1.34954, 1.34728, 1.34639, 1.34367, 1.34218, 1.34103, 1.34206, 1.34086, 1.35311, 1.33976, 1.31239, 1.33689, 1.38925, 1.41253, 1.4823, 1.50681, 1.5483, 1.60667, 1.63352, 1.62356, 1.60233, 1.43431, 1.40507, 1.29799, 1.31245, 1.33985, 1.3502, 1.32405, 1.33295, 1.31687, 1.31406, 1.31565, 1.31394, 1.31321, 1.31217, 1.31532, 1.30763, 1.30584, 1.30471, 1.3029, 1.30247, 1.30417, 1.30056
1.64202, 1.63845, 1.63846, 1.63553, 1.63668, 1.63842, 1.63963, 1.63793, 1.6374, 1.63729, 1.63398, 1.63075, 1.63434, 1.64012, 1.62083, 1.61807, 1.62407, 1.61466, 1.61346, 1.61008, 1.61143, 1.60254, 1.60202, 1.58653, 1.6215, 1.6208, 1.74914, 1.79736, 1.9138, 1.9892, 1.99603, 1.96568, 1.74677, 1.65522, 1.5606, 1.59662, 1.59723, 1.59168, 1.59696, 1.58736, 1.58625, 1.58539, 1.58383, 1.58569, 1.57501, 1.58068, 1.56515, 1.56327, 1.56187, 1.57159, 1.55492, 1.55212, 1.56425, 1.54424, 1.54291, 1.53848, 1.53736, 1.53458, 1.53281, 1.53035, 1.52936, 1.5262, 1.52443, 1.5223, 1.52108, 1.51726, 1.51416, 1.51234, 1.51557, 1.50756, 1.50719, 1.50699, 1.50523, 1.5032, 1.5025, 1.50065, 1.49691, 1.49238, 1.49261, 1.51336, 1.49626, 1.49438, 1.49277, 1.50934, 1.50049, 1.53037, 1.536, 1.56474, 1.5518, 1.52223, 1.50348, 1.49692, 1.48592, 1.47157, 1.46878, 1.47529, 1.49244, 1.50648, 1.54481, 1.52887, 1.5297, 1.50593, 1.50349, 1.49058, 1.5374, 1.54106, 1.51417, 1.50577, 1.47875, 1.45547, 1.44758, 1.45237, 1.46059, 1.46016, 1.44432, 1.45087, 1.44157, 1.4503, 1.43469, 1.44516, 1.43025, 1.42777, 1.42598, 1.42586, 1.42311, 1.4274, 1.41808, 1.42949, 1.41432, 1.41244, 1.41131, 1.41126, 1.40742, 1.40735, 1.40531, 1.40242, 1.40187, 1.40254, 1.39892, 1.396, 1.39513, 1.39319, 1.39284, 1.39166, 1.38978, 1.3901, 1.38965, 1.38731, 1.38571, 1.38318, 1.38146, 1.3797, 1.37862, 1.37788, 1.41603, 1.37743, 1.37613, 1.37592, 1.3742, 1.37294, 1.37161, 1.37235, 1.37106, 1.36887, 1.36696, 1.36516, 1.36407, 1.36655, 1.35919, 1.35797, 1.3573, 1.35612, 1.35328, 1.36112, 1.35109, 1.34652, 1.35329, 1.34473, 1.35087, 1.34466, 1.35498, 1.35807, 1.35794, 1.35082, 1.35491, 1.33404, 1.38625, 1.41322, 1.46964, 1.53092, 1.52961, 1.60521, 1.61747, 1.62466, 1.55795, 1.50068, 1.39835, 1.31304, 1.30565, 1.32236, 1.34166, 1.33062, 1.32724, 1.32128, 1.31784, 1.31694, 1.31437, 1.31355, 1.31446, 1.31161, 1.31078, 1.31923, 1.31142, 1.30879, 1.30746, 1.30774, 1.30641
1.64734, 1.64343, 1.64366, 1.64104, 1.64065, 1.63944, 1.64033, 1.63934, 1.63555, 1.63397, 1.63109, 1.63326, 1.62728, 1.62312, 1.62149, 1.61942, 1.61712, 1.61388, 1.61276, 1.61091, 1.60818, 1.61138, 1.60705, 1.56446, 1.60308, 1.66282, 1.71418, 1.77857, 1.8466, 1.88631, 1.94225, 2.22552, 1.71124, 1.63345, 1.55834, 1.57668, 1.58708, 1.59167, 1.58776, 1.60119, 1.59289, 1.58713, 1.58171, 1.58247, 1.58478, 1.5722, 1.57436, 1.55797, 1.57424, 1.5516, 1.54847, 1.54608, 1.5437, 1.54229, 1.54, 1.5374, 1.53431, 1.53214, 1.52964, 1.52676, 1.52463, 1.53394, 1.52124, 1.52025, 1.51805, 1.51611, 1.51289, 1.51211, 1.5082, 1.50716, 1.50468, 1.50322, 1.50252, 1.50177, 1.50033, 1.4989, 1.49844, 1.4962, 1.49393, 1.4942, 1.49349, 1.49059, 1.48892, 1.48744, 1.48584, 1.4861, 1.49272, 1.48683, 1.49352, 1.50861, 1.49321, 1.48901, 1.50944, 1.47891, 1.46764, 1.46863, 1.48177, 1.51907, 1.53764, 1.57747, 1.54114, 1.56868, 1.48129, 1.49702, 1.50234, 1.51509, 1.51627, 1.50475, 1.52721, 1.46399, 1.45261, 1.4541, 1.45516, 1.4524, 1.44262, 1.43929, 1.43716, 1.43615, 1.43254, 1.43023, 1.42905, 1.42643, 1.42475, 1.42112, 1.41764, 1.41603, 1.41422, 1.4137, 1.4117, 1.40977, 1.40942, 1.4083, 1.40707, 1.4053, 1.40472, 1.39946, 1.39826, 1.39806, 1.39804, 1.39681, 1.39744, 1.39471, 1.39225, 1.39151, 1.39128, 1.38988, 1.38765, 1.38562, 1.38435, 1.3805, 1.37886, 1.37771, 1.37721, 1.37628, 1.37567, 1.37438, 1.37368, 1.38311, 1.3707, 1.36808, 1.36767, 1.3681, 1.36772, 1.36594, 1.36674, 1.3637, 1.36359, 1.361, 1.35912, 1.35675, 1.35506, 1.35306, 1.35029, 1.34972, 1.34765, 1.34569, 1.34656, 1.35207, 1.34345, 1.34391, 1.34553, 1.34418, 1.36508, 1.36124, 1.36768, 1.32506, 1.35681, 1.41584, 1.4863, 1.52634, 1.56539, 1.62093, 1.65075, 1.6545, 1.56861, 1.53742, 1.45993, 1.35183, 1.30301, 1.33722, 1.32873, 1.32362, 1.3224, 1.31859, 1.31819, 1.31429, 1.31528, 1.31198, 1.31024, 1.31158, 1.31102, 1.3108, 1.30978, 1.30845, 1.30911, 1.30541, 1.30701
1.64251, 1.64025, 1.63799, 1.63899, 1.63844, 1.6373, 1.63523, 1.63377, 1.63182, 1.6288, 1.62728, 1.62494, 1.62483, 1.61964, 1.61792, 1.61574, 1.61266, 1.62351, 1.61677, 1.60881, 1.60778, 1.60677, 1.60995, 1.59193, 1.62552, 1.67972, 1.7036, 1.81039, 1.84974, 2.027, 2.03631, 2.13934, 1.69381, 1.57956, 1.55732, 1.56645, 1.56836, 1.56121, 1.55596, 1.55939, 1.56494, 1.57105, 1.5855, 1.58949, 1.58864, 1.57842, 1.56701, 1.56266, 1.5622, 1.55673, 1.55392, 1.5406, 1.53688, 1.53494, 1.53533, 1.53514, 1.53308, 1.53009, 1.52786, 1.52687, 1.52386, 1.52092, 1.5214, 1.52051, 1.51692, 1.51556, 1.51501, 1.51274, 1.50897, 1.50741, 1.50339, 1.50286, 1.50185, 1.49958, 1.49811, 1.49589, 1.49506, 1.49261, 1.49047, 1.48924, 1.4904, 1.4858, 1.48502, 1.48446, 1.48127, 1.48154, 1.47833, 1.4776, 1.47805, 1.47664, 1.48477, 1.49093, 1.47974, 1.49036, 1.48546, 1.48808, 1.51546, 1.5232, 1.5287, 1.53811, 1.52806, 1.53073, 1.50296, 1.48991, 1.48795, 1.53411, 1.53893, 1.50678, 1.47375, 1.4718, 1.45385, 1.45278, 1.46476, 1.4536, 1.44737, 1.43889, 1.43773, 1.43589, 1.43369, 1.43036, 1.42968, 1.42703, 1.42411, 1.42302, 1.42136, 1.41898, 1.41683, 1.41451, 1.41532, 1.41257, 1.41229, 1.40959, 1.40841, 1.40715, 1.40632, 1.40198, 1.40398, 1.40138, 1.39893, 1.39645, 1.39691, 1.39571, 1.39518, 1.39373, 1.39103, 1.38896, 1.38762, 1.3884, 1.38599, 1.38457, 1.38135, 1.38094, 1.3782, 1.3771, 1.37472, 1.3745, 1.37378, 1.37217, 1.37032, 1.36757, 1.36741, 1.36681, 1.37176, 1.36383, 1.36243, 1.36071, 1.35956, 1.3574, 1.35629, 1.35738, 1.35686, 1.35487, 1.3523, 1.35046, 1.34937, 1.34823, 1.35601, 1.34612, 1.34649, 1.34473, 1.3542, 1.34662, 1.35987, 1.34822, 1.34847, 1.34229, 1.35443, 1.39554, 1.43563, 1.51262, 1.56916, 1.59816, 1.6308, 1.64662, 1.64085, 1.58535, 1.46679, 1.35407, 1.30229, 1.32296, 1.32785, 1.3325, 1.31945, 1.327, 1.3168, 1.31464, 1.31588, 1.32417, 1.31149, 1.31233, 1.31149, 1.31256, 1.31076, 1.30951, 1.30836, 1.31061, 1.30824
1.64067, 1.64082, 1.63544, 1.6324, 1.63201, 1.63127, 1.63028, 1.62658, 1.62451, 1.62474, 1.62388, 1.62334, 1.62233, 1.6187, 1.63471, 1.61245, 1.61094, 1.6111, 1.61321, 1.61366, 1.60618, 1.61206, 1.61384, 1.59411, 1.59902, 1.67178, 1.73312, 1.75035, 1.81079, 1.87433, 1.99307, 1.95304, 1.7988, 1.58515, 1.5278, 1.53402, 1.60598, 1.63421, 1.67205, 1.691, 1.65165, 1.63788, 1.61319, 1.60878, 1.5873, 1.59, 1.58898, 1.58649, 1.57112, 1.57246, 1.55418, 1.56575, 1.53882, 1.53797, 1.53526, 1.53485, 1.53688, 1.5285, 1.52661, 1.52399, 1.52358, 1.52162, 1.52115, 1.51926, 1.51669, 1.51701, 1.51457, 1.51161, 1.50761, 1.50674, 1.50404, 1.49966, 1.49972, 1.4992, 1.50322, 1.49549, 1.49378, 1.49468, 1.49145, 1.48971, 1.48713, 1.48386, 1.48158, 1.47971, 1.4779, 1.47587, 1.47441, 1.47451, 1.47254, 1.47313, 1.47462, 1.48904, 1.47924, 1.4803, 1.47733, 1.48171, 1.49654, 1.51557, 1.52475, 1.53046, 1.4988, 1.51885, 1.50631, 1.47198, 1.48623, 1.34322, 1.49848, 1.5385, 1.48203, 1.46811, 1.44515, 1.45846, 1.4558, 1.45512, 1.44197, 1.43655, 1.44011, 1.43058, 1.42859, 1.42912, 1.42451, 1.42243, 1.41879, 1.41649, 1.41598, 1.41394, 1.41237, 1.41855, 1.40983, 1.40885, 1.4081, 1.40744, 1.40759, 1.40691, 1.40551, 1.40452, 1.40523, 1.39976, 1.39939, 1.39593, 1.39456, 1.39192, 1.39111, 1.39105, 1.38782, 1.3871, 1.38515, 1.385, 1.38237, 1.38156, 1.37983, 1.37859, 1.37827, 1.37634, 1.37336, 1.37373, 1.37095, 1.36998, 1.36879, 1.36508, 1.36388, 1.36759, 1.36098, 1.36101, 1.35822, 1.35861, 1.35668, 1.3531, 1.35049, 1.35002, 1.35067, 1.35169, 1.35156, 1.34696, 1.35804, 1.34556, 1.34631, 1.34321, 1.3429, 1.34139, 1.34023, 1.34012, 1.34189, 1.34553, 1.34946, 1.33707, 1.35441, 1.37373, 1.42093, 1.48817, 1.48749, 1.57666, 1.5961, 1.77059, 1.63038, 1.56186, 1.45631, 1.3373, 1.30585, 1.32518, 1.33664, 1.32979, 1.319, 1.3176, 1.31505, 1.31585, 1.31458, 1.31816, 1.31071, 1.3159, 1.32331, 1.30496, 1.30624, 1.30286, 1.30318, 1.3035, 1.30413
1.6398, 1.63953, 1.63602, 1.63543, 1.63286, 1.63202, 1.62888, 1.62785, 1.62545, 1.62351, 1.6219, 1.61981, 1.6165, 1.61307, 1.6202, 1.60865, 1.60766, 1.61297, 1.60716, 1.61337, 1.60515, 1.60506, 1.6029, 1.58075, 1.58233, 1.67193, 1.67494, 1.7227, 1.78298, 1.97676, 1.99634, 1.94885, 1.81658, 1.64731, 1.55181, 1.5437, 1.57987, 1.64165, 1.69514, 1.73464, 1.71429, 1.6965, 1.62874, 1.60945, 1.59728, 1.59644, 1.58306, 1.57237, 1.56939, 1.56461, 1.55361, 1.54545, 1.54396, 1.53738, 1.54839, 1.54026, 1.53295, 1.52779, 1.52612, 1.52402, 1.52111, 1.52036, 1.51884, 1.51954, 1.51714, 1.51556, 1.51378, 1.50932, 1.50811, 1.50594, 1.50507, 1.50186, 1.50183, 1.4976, 1.49589, 1.49198, 1.49799, 1.51333, 1.48774, 1.4962, 1.48709, 1.4854, 1.48369, 1.48151, 1.48061, 1.47804, 1.47545, 1.47444, 1.47669, 1.47168, 1.47529, 1.47595, 1.478, 1.4927, 1.47632, 1.48116, 1.50536, 1.53732, 1.56484, 1.52167, 1.5232, 1.5446, 1.47468, 1.4733, 1.47961, 1.52996, 1.51386, 1.50276, 1.47496, 1.46045, 1.46065, 1.45448, 1.45626, 1.44425, 1.43963, 1.43375, 1.4295, 1.42654, 1.42469, 1.42141, 1.41942, 1.41496, 1.41504, 1.41507, 1.41269, 1.41087, 1.41021, 1.40875, 1.40862, 1.40888, 1.40921, 1.40894, 1.4077, 1.40703, 1.40555, 1.40516, 1.40277, 1.39983, 1.39557, 1.39437, 1.39265, 1.39151, 1.38806, 1.38676, 1.38509, 1.38327, 1.38205, 1.38105, 1.37985, 1.37759, 1.37692, 1.37784, 1.37387, 1.37316, 1.37174, 1.36947, 1.36953, 1.36703, 1.36707, 1.36551, 1.36373, 1.36295, 1.36175, 1.36039, 1.35913, 1.35573, 1.35514, 1.35468, 1.35494, 1.35656, 1.35352, 1.35261, 1.35093, 1.34835, 1.34837, 1.34664, 1.34552, 1.34419, 1.351, 1.34484, 1.35422, 1.34752, 1.36828, 1.34722, 1.34809, 1.3094, 1.36584, 1.38503, 1.42773, 1.4802, 1.53883, 1.59643, 1.65175, 1.65833, 1.61266, 1.50199, 1.45643, 1.3639, 1.29863, 1.33588, 1.33669, 1.32657, 1.32888, 1.3249, 1.32672, 1.31133, 1.3094, 1.30918, 1.30974, 1.31145, 1.3057, 1.31983, 1.30352, 1.30471, 1.30189, 1.30041, 1.30061
