1.6232, 1.61777, 1.6031, 1.60071, 1.59884, 1.58915, 1.58905, 1.59083, 1.60671, 1.56904, 1.58044, 1.60697, 1.60627, 1.61915, 1.65407, 1.69274, 1.67179, 1.54216, 1.53062, 1.54909, 1.53724, 1.53733, 1.55126, 1.55738, 1.52652, 1.52342, 1.51357, 1.50945, 1.50699, 1.50393, 1.50186, 1.49826, 1.49741, 1.49407, 1.48984, 1.48405, 1.4808, 1.47673, 1.47498, 1.47124, 1.46509, 1.46077, 1.45644, 1.45474, 1.4558, 1.45141, 1.45583, 1.45127, 1.45227, 1.44716, 1.51986, 1.69805, 1.78112, 1.65627, 1.58173, 1.41299, 1.42265, 1.43969, 1.41408, 1.42676, 1.40643, 1.41573, 1.40181, 1.39799, 1.39366, 1.39127, 1.38936, 1.38252, 1.37945, 1.37586, 1.37422, 1.37017, 1.37041, 1.36231, 1.36318, 1.35834, 1.35709, 1.35473, 1.35737, 1.35266, 1.35754, 1.33975, 1.34321, 1.33488, 1.33158, 1.32798, 1.33124, 1.3255, 1.32381, 1.3193, 1.31929, 1.31594, 1.3135, 1.31374, 1.3215, 1.33644, 1.32589, 1.34092, 1.33634, 1.35566, 1.34409, 1.34611, 1.37776, 1.30885, 1.32002, 1.30314, 1.29177, 1.28366, 1.27894, 1.27808, 1.28177, 1.27504, 1.29936, 1.2745, 1.30344, 
1.62251, 1.61107, 1.60633, 1.60628, 1.60292, 1.59475, 1.5919, 1.59205, 1.59585, 1.60293, 1.60736, 1.62889, 1.65015, 1.64952, 1.67207, 1.67, 1.62446, 1.55695, 1.55492, 1.54899, 1.54335, 1.54781, 1.5519, 1.56009, 1.52998, 1.52727, 1.51538, 1.51622, 1.51003, 1.50952, 1.5033, 1.5012, 1.49702, 1.49545, 1.48756, 1.48636, 1.48161, 1.48031, 1.47543, 1.47287, 1.46978, 1.46816, 1.46189, 1.45728, 1.45569, 1.45242, 1.45227, 1.46462, 1.46604, 1.41809, 1.51268, 1.67104, 1.72832, 1.71542, 1.45363, 1.40964, 1.43584, 1.42104, 1.41329, 1.4088, 1.40647, 1.41192, 1.3992, 1.39597, 1.39014, 1.38729, 1.3866, 1.38551, 1.3817, 1.37771, 1.37384, 1.37175, 1.36746, 1.36826, 1.36292, 1.35764, 1.3582, 1.3566, 1.35319, 1.35081, 1.35025, 1.3512, 1.34689, 1.34099, 1.33635, 1.33211, 1.33377, 1.33147, 1.32705, 1.32441, 1.32199, 1.31999, 1.31874, 1.3266, 1.32655, 1.33297, 1.33336, 1.35027, 1.34693, 1.35295, 1.37892, 1.35174, 1.35794, 1.31902, 1.30956, 1.33009, 1.28842, 1.28395, 1.27885, 1.27448, 1.27293, 1.27241, 1.27774, 1.27469, 1.27854, 
1.66695, 1.64449, 1.60965, 1.60454, 1.60093, 1.59832, 1.59426, 1.59316, 1.6049, 1.57879, 1.58686, 1.63752, 1.62812, 1.64416, 1.68721, 1.67469, 1.66552, 1.54004, 1.56452, 1.55392, 1.54297, 1.53698, 1.53494, 1.55118, 1.55257, 1.53316, 1.52018, 1.51597, 1.5102, 1.5083, 1.50444, 1.50158, 1.49782, 1.49598, 1.4925, 1.48846, 1.48343, 1.48152, 1.47681, 1.47376, 1.47076, 1.46851, 1.46102, 1.4775, 1.46625, 1.45332, 1.45131, 1.44818, 1.44964, 1.42916, 1.523, 1.59442, 1.7298, 1.70106, 1.58673, 1.39212, 1.42563, 1.42251, 1.41393, 1.41264, 1.41243, 1.40511, 1.39871, 1.39679, 1.38558, 1.38428, 1.38534, 1.38478, 1.38179, 1.38014, 1.37567, 1.37425, 1.37057, 1.36995, 1.36516, 1.36542, 1.35748, 1.35498, 1.35533, 1.3552, 1.35112, 1.35248, 1.3444, 1.34346, 1.33875, 1.33962, 1.33984, 1.34011, 1.33431, 1.33267, 1.34083, 1.33048, 1.32693, 1.33264, 1.33105, 1.32749, 1.33248, 1.36716, 1.37515, 1.37249, 1.35367, 1.36195, 1.39641, 1.32413, 1.30963, 1.29852, 1.29146, 1.28418, 1.27885, 1.28128, 1.27759, 1.27766, 1.28082, 1.27938, 1.29096, 
1.6591, 1.64454, 1.61562, 1.61225, 1.60983, 1.60427, 1.60176, 1.6002, 1.59555, 1.58313, 1.5895, 1.64929, 1.66131, 1.65785, 1.70116, 1.68658, 1.67003, 1.54822, 1.5607, 1.56222, 1.56258, 1.54695, 1.53915, 1.54897, 1.55389, 1.54066, 1.53666, 1.5236, 1.51572, 1.51378, 1.51061, 1.50597, 1.50027, 1.49878, 1.49512, 1.49035, 1.4893, 1.49518, 1.48485, 1.4823, 1.47821, 1.47414, 1.46974, 1.46136, 1.4619, 1.45997, 1.45598, 1.4549, 1.45323, 1.44151, 1.52722, 1.61315, 1.72634, 1.70819, 1.52414, 1.39826, 1.42708, 1.42635, 1.42757, 1.43491, 1.41376, 1.40905, 1.40316, 1.40064, 1.39676, 1.39278, 1.39193, 1.39391, 1.39136, 1.38721, 1.38325, 1.38001, 1.37677, 1.37447, 1.36988, 1.3712, 1.36733, 1.36389, 1.35968, 1.35635, 1.35191, 1.35018, 1.35003, 1.34817, 1.34325, 1.34434, 1.34347, 1.34145, 1.34071, 1.33653, 1.33298, 1.33093, 1.33844, 1.33364, 1.33623, 1.34701, 1.34916, 1.36382, 1.35213, 1.35845, 1.37886, 1.35801, 1.35097, 1.34477, 1.31975, 1.31856, 1.29772, 1.29266, 1.28517, 1.2864, 1.28601, 1.28017, 1.28225, 1.2857, 1.2836, 
1.65678, 1.65703, 1.61959, 1.61648, 1.60881, 1.6059, 1.60693, 1.61204, 1.60827, 1.58693, 1.6228, 1.63585, 1.64067, 1.67357, 1.71272, 1.71872, 1.67898, 1.6009, 1.56048, 1.56528, 1.54927, 1.54588, 1.54438, 1.5384, 1.53442, 1.54646, 1.53205, 1.53003, 1.51797, 1.52132, 1.50931, 1.50519, 1.49964, 1.49946, 1.49637, 1.49357, 1.49195, 1.49, 1.48701, 1.48539, 1.47937, 1.47628, 1.4704, 1.47129, 1.46477, 1.46463, 1.46266, 1.46193, 1.46116, 1.42215, 1.49856, 1.65096, 1.73361, 1.73366, 1.61872, 1.39772, 1.43714, 1.44709, 1.42708, 1.42635, 1.41717, 1.41367, 1.41335, 1.40343, 1.40229, 1.39809, 1.39935, 1.392, 1.39266, 1.38925, 1.38653, 1.38199, 1.38207, 1.37834, 1.37638, 1.37323, 1.37094, 1.36779, 1.37211, 1.35954, 1.35495, 1.35057, 1.34752, 1.34987, 1.35016, 1.346, 1.35, 1.3489, 1.37161, 1.34707, 1.34311, 1.34202, 1.33445, 1.33467, 1.33821, 1.34053, 1.33792, 1.34169, 1.38264, 1.35081, 1.36493, 1.37395, 1.37191, 1.34076, 1.30943, 1.32019, 1.30326, 1.30266, 1.28997, 1.29422, 1.29689, 1.28655, 1.28661, 1.28475, 1.28209, 
1.67327, 1.66967, 1.65051, 1.64046, 1.6191, 1.62132, 1.6065, 1.61086, 1.61995, 1.62505, 1.62833, 1.62956, 1.66416, 1.68559, 1.71602, 1.67877, 1.63294, 1.56429, 1.56482, 1.5807, 1.56107, 1.55324, 1.5449, 1.54061, 1.55898, 1.55631, 1.57121, 1.52954, 1.52593, 1.5211, 1.52741, 1.51884, 1.50833, 1.50623, 1.50444, 1.50112, 1.49857, 1.49214, 1.48903, 1.48651, 1.48258, 1.48229, 1.48889, 1.47504, 1.47601, 1.47202, 1.46928, 1.47153, 1.46369, 1.44755, 1.53736, 1.56732, 1.73517, 1.69053, 1.57524, 1.44236, 1.45681, 1.44583, 1.43908, 1.43417, 1.44004, 1.42046, 1.41515, 1.41217, 1.4087, 1.4069, 1.40365, 1.40063, 1.39584, 1.39298, 1.38921, 1.38871, 1.38781, 1.38406, 1.38254, 1.37906, 1.37804, 1.3747, 1.36786, 1.36462, 1.36124, 1.35482, 1.35149, 1.34893, 1.34823, 1.34962, 1.35059, 1.35256, 1.35277, 1.34803, 1.348, 1.34502, 1.34167, 1.34061, 1.34462, 1.35084, 1.3431, 1.35064, 1.36362, 1.37112, 1.36978, 1.38718, 1.38699, 1.33977, 1.32529, 1.31946, 1.31118, 1.30153, 1.30642, 1.29807, 1.30771, 1.29518, 1.29508, 1.28855, 1.28837, 
1.65173, 1.67556, 1.66244, 1.62384, 1.61731, 1.61056, 1.61002, 1.61377, 1.61767, 1.61809, 1.60152, 1.66118, 1.67643, 1.70278, 1.73374, 1.71114, 1.68218, 1.58343, 1.56926, 1.56782, 1.55691, 1.55979, 1.55494, 1.54557, 1.54935, 1.55049, 1.54404, 1.54269, 1.52424, 1.52597, 1.52216, 1.51639, 1.51331, 1.5093, 1.50561, 1.50057, 1.49948, 1.49573, 1.49269, 1.48984, 1.48655, 1.48493, 1.48296, 1.48161, 1.47998, 1.47254, 1.48315, 1.4812, 1.47365, 1.46202, 1.56374, 1.67907, 1.72452, 1.72894, 1.64029, 1.43819, 1.44656, 1.4514, 1.44604, 1.44061, 1.42707, 1.42327, 1.42066, 1.44082, 1.41213, 1.41182, 1.40976, 1.4052, 1.4028, 1.39857, 1.39578, 1.39203, 1.38983, 1.39147, 1.38706, 1.38552, 1.3824, 1.37907, 1.37321, 1.3691, 1.36298, 1.35851, 1.35436, 1.34915, 1.34991, 1.34945, 1.3481, 1.34934, 1.35073, 1.3444, 1.35671, 1.34475, 1.34092, 1.34753, 1.34272, 1.35153, 1.36126, 1.34488, 1.36207, 1.37076, 1.38402, 1.38291, 1.38994, 1.33392, 1.32673, 1.32438, 1.32678, 1.31903, 1.30548, 1.30281, 1.32091, 1.29883, 1.30005, 1.30649, 1.29996, 
1.65183, 1.64277, 1.6445, 1.6378, 1.62491, 1.61701, 1.6124, 1.61064, 1.61226, 1.60166, 1.62135, 1.69855, 1.66833, 1.67182, 1.73159, 1.7366, 1.6688, 1.57199, 1.5783, 1.58232, 1.56196, 1.55935, 1.55006, 1.54654, 1.54545, 1.55464, 1.57112, 1.5375, 1.53321, 1.53244, 1.52797, 1.52467, 1.51674, 1.51337, 1.50962, 1.50599, 1.50346, 1.49891, 1.4952, 1.49246, 1.4918, 1.492, 1.48906, 1.4832, 1.48397, 1.48658, 1.49153, 1.48077, 1.47856, 1.44935, 1.54581, 1.6038, 1.70128, 1.69566, 1.56574, 1.46134, 1.44368, 1.46507, 1.43858, 1.43012, 1.43588, 1.42807, 1.42275, 1.41863, 1.41629, 1.41262, 1.41014, 1.40914, 1.40563, 1.40264, 1.39893, 1.39501, 1.39419, 1.39241, 1.3911, 1.39033, 1.38802, 1.38506, 1.37868, 1.37491, 1.36945, 1.36387, 1.35919, 1.35515, 1.35304, 1.35038, 1.34972, 1.34703, 1.34456, 1.34492, 1.344, 1.36071, 1.34176, 1.34204, 1.34538, 1.34345, 1.36301, 1.39906, 1.39648, 1.38732, 1.39015, 1.39928, 1.38383, 1.35055, 1.32173, 1.32302, 1.31938, 1.31711, 1.30857, 1.30312, 1.29707, 1.29645, 1.29787, 1.30163, 1.30633, 
1.64024, 1.63151, 1.64065, 1.62997, 1.62757, 1.62166, 1.62277, 1.62209, 1.62421, 1.60918, 1.62431, 1.66934, 1.69036, 1.71752, 1.73505, 1.76718, 1.74507, 1.62808, 1.57848, 1.58679, 1.56869, 1.55615, 1.56021, 1.54386, 1.54067, 1.5428, 1.55986, 1.54435, 1.54891, 1.53552, 1.52922, 1.52474, 1.52054, 1.51698, 1.51541, 1.51082, 1.50499, 1.50104, 1.49698, 1.49422, 1.48971, 1.48845, 1.48385, 1.50379, 1.48252, 1.47599, 1.48249, 1.4765, 1.46075, 1.46161, 1.52335, 1.66845, 1.721, 1.64429, 1.66703, 1.4938, 1.43297, 1.47495, 1.44462, 1.43595, 1.42768, 1.426, 1.4208, 1.42051, 1.41791, 1.41482, 1.41097, 1.41071, 1.409, 1.4062, 1.40088, 1.40211, 1.39528, 1.39292, 1.39246, 1.39137, 1.3953, 1.38929, 1.38618, 1.3795, 1.37741, 1.36967, 1.36528, 1.36343, 1.36031, 1.35623, 1.35802, 1.35331, 1.35408, 1.35332, 1.34919, 1.34938, 1.3534, 1.3402, 1.34977, 1.36052, 1.33874, 1.35552, 1.38412, 1.39313, 1.39494, 1.40876, 1.39559, 1.37652, 1.31329, 1.32392, 1.3276, 1.32551, 1.30836, 1.30525, 1.3028, 1.2993, 1.29925, 1.29809, 1.29626, 
1.64195, 1.63865, 1.61994, 1.64508, 1.64335, 1.62779, 1.61807, 1.61455, 1.62048, 1.60758, 1.62709, 1.64188, 1.67651, 1.71058, 1.74044, 1.74145, 1.65871, 1.63819, 1.58998, 1.5862, 1.57369, 1.55727, 1.55258, 1.54743, 1.541, 1.5389, 1.55202, 1.55072, 1.5382, 1.53515, 1.53039, 1.5286, 1.52334, 1.52059, 1.51312, 1.51235, 1.506, 1.50265, 1.49829, 1.49713, 1.49156, 1.49037, 1.48641, 1.48579, 1.48162, 1.47655, 1.47615, 1.47453, 1.47129, 1.46798, 1.51675, 1.63896, 1.68819, 1.68731, 1.62409, 1.43096, 1.41959, 1.44463, 1.44168, 1.43721, 1.42665, 1.42331, 1.42098, 1.41827, 1.41823, 1.41649, 1.41056, 1.41078, 1.4088, 1.40705, 1.40155, 1.39587, 1.39392, 1.39192, 1.39057, 1.39054, 1.39258, 1.39095, 1.38702, 1.38337, 1.37867, 1.37736, 1.37209, 1.36844, 1.36112, 1.35947, 1.35862, 1.35853, 1.35934, 1.35641, 1.35098, 1.3476, 1.34721, 1.33944, 1.34189, 1.34406, 1.3508, 1.35308, 1.37965, 1.38083, 1.38141, 1.40204, 1.39468, 1.37614, 1.32998, 1.33017, 1.33273, 1.31404, 1.31169, 1.31582, 1.30774, 1.30247, 1.29619, 1.2983, 1.29344, 
1.65726, 1.65505, 1.64823, 1.65546, 1.64445, 1.6298, 1.62378, 1.62073, 1.62369, 1.59745, 1.61007, 1.64101, 1.69399, 1.72847, 1.72813, 1.7686, 1.72851, 1.60371, 1.55572, 1.58905, 1.5701, 1.56359, 1.55945, 1.55201, 1.54583, 1.55061, 1.54319, 1.54453, 1.55059, 1.53336, 1.53522, 1.52796, 1.52472, 1.52287, 1.51803, 1.51448, 1.51106, 1.50969, 1.50502, 1.50126, 1.49556, 1.49397, 1.49035, 1.48624, 1.4808, 1.48435, 1.47515, 1.48169, 1.48315, 1.4495, 1.5755, 1.59919, 1.67353, 1.68717, 1.64862, 1.5137, 1.41546, 1.44789, 1.44441, 1.43378, 1.43613, 1.42621, 1.42274, 1.42721, 1.41726, 1.41272, 1.40981, 1.40904, 1.4092, 1.40352, 1.40065, 1.39783, 1.39643, 1.39114, 1.39136, 1.39177, 1.38907, 1.38787, 1.38853, 1.3842, 1.38256, 1.37937, 1.37836, 1.36964, 1.36516, 1.36212, 1.36605, 1.36388, 1.36401, 1.3629, 1.36147, 1.3545, 1.34756, 1.34422, 1.34542, 1.34807, 1.33826, 1.3779, 1.38024, 1.39293, 1.40618, 1.41925, 1.41071, 1.35498, 1.3166, 1.32914, 1.33243, 1.32666, 1.31163, 1.31056, 1.3064, 1.30232, 1.30152, 1.2991, 1.29644, 
1.65753, 1.64956, 1.65408, 1.64575, 1.64864, 1.6505, 1.62733, 1.62308, 1.62097, 1.61093, 1.60967, 1.67722, 1.69289, 1.73355, 1.73877, 1.75748, 1.70119, 1.59295, 1.59759, 1.58879, 1.57059, 1.57107, 1.56317, 1.555, 1.55094, 1.54786, 1.5518, 1.55479, 1.56081, 1.54384, 1.53288, 1.5346, 1.52479, 1.52392, 1.52036, 1.51606, 1.51419, 1.50944, 1.50749, 1.50597, 1.49953, 1.49895, 1.49211, 1.49028, 1.48578, 1.49976, 1.47777, 1.47831, 1.48878, 1.46874, 1.48563, 1.63772, 1.6683, 1.68582, 1.60047, 1.47217, 1.42298, 1.44713, 1.44493, 1.43049, 1.42828, 1.42664, 1.42412, 1.41951, 1.41697, 1.4131, 1.41422, 1.41079, 1.40962, 1.40715, 1.40228, 1.40074, 1.39734, 1.39461, 1.39127, 1.38956, 1.38958, 1.38786, 1.38582, 1.38835, 1.38207, 1.3806, 1.37413, 1.3723, 1.36884, 1.36635, 1.36499, 1.36412, 1.36216, 1.36086, 1.36081, 1.35697, 1.3579, 1.3538, 1.35676, 1.36432, 1.33617, 1.36375, 1.37296, 1.39192, 1.42497, 1.42096, 1.41501, 1.37439, 1.33737, 1.32965, 1.33412, 1.31674, 1.31443, 1.32475, 1.30812, 1.30777, 1.30334, 1.30284, 1.29911, 
1.65042, 1.64517, 1.64048, 1.64743, 1.65809, 1.64718, 1.64074, 1.62512, 1.61906, 1.6147, 1.62633, 1.65175, 1.70941, 1.7037, 1.77316, 1.75724, 1.68223, 1.61617, 1.58261, 1.59228, 1.5762, 1.57333, 1.56933, 1.56256, 1.55944, 1.56091, 1.55465, 1.55162, 1.58294, 1.55742, 1.53505, 1.53099, 1.52747, 1.52343, 1.52245, 1.52055, 1.52036, 1.51239, 1.50909, 1.50399, 1.50071, 1.49673, 1.496, 1.48982, 1.4886, 1.48451, 1.48387, 1.48301, 1.49137, 1.46041, 1.52789, 1.62132, 1.68201, 1.68611, 1.66859, 1.50611, 1.43676, 1.4441, 1.43669, 1.43579, 1.43136, 1.43099, 1.42681, 1.42597, 1.42129, 1.41659, 1.41655, 1.4143, 1.41099, 1.40861, 1.4053, 1.40354, 1.40178, 1.39624, 1.39349, 1.39424, 1.39256, 1.39069, 1.38932, 1.3886, 1.38608, 1.38463, 1.37599, 1.37233, 1.37086, 1.36935, 1.36696, 1.36424, 1.36373, 1.36244, 1.35827, 1.35854, 1.35897, 1.35888, 1.36038, 1.35376, 1.33774, 1.36235, 1.40469, 1.41941, 1.44489, 1.44357, 1.44258, 1.41922, 1.31023, 1.35163, 1.34024, 1.32961, 1.31309, 1.31286, 1.30608, 1.30508, 1.30162, 1.32092, 1.2995, 
1.65371, 1.64292, 1.64051, 1.63792, 1.66187, 1.64925, 1.65146, 1.63242, 1.63798, 1.63134, 1.60679, 1.66082, 1.73692, 1.74017, 1.78297, 1.76376, 1.74332, 1.60016, 1.56939, 1.60083, 1.59242, 1.57883, 1.57393, 1.56824, 1.57424, 1.56146, 1.55583, 1.55797, 1.56879, 1.56511, 1.54165, 1.54829, 1.53795, 1.52629, 1.53792, 1.52234, 1.51894, 1.51455, 1.51094, 1.50815, 1.50487, 1.4998, 1.49641, 1.51447, 1.49246, 1.49071, 1.48567, 1.48802, 1.48533, 1.46039, 1.56042, 1.62668, 1.67027, 1.68043, 1.67478, 1.56704, 1.44289, 1.46442, 1.46205, 1.44467, 1.44037, 1.43403, 1.43072, 1.42818, 1.42644, 1.42283, 1.42329, 1.41956, 1.41743, 1.42973, 1.41646, 1.41288, 1.4066, 1.40376, 1.40882, 1.39969, 1.39737, 1.39385, 1.39275, 1.39106, 1.38808, 1.38433, 1.38081, 1.37722, 1.3753, 1.3731, 1.37285, 1.37807, 1.36808, 1.36636, 1.3642, 1.36285, 1.35934, 1.35779, 1.37084, 1.3644, 1.35882, 1.37831, 1.39333, 1.41888, 1.44041, 1.44474, 1.44481, 1.38461, 1.35176, 1.35321, 1.34392, 1.33308, 1.31719, 1.31552, 1.31065, 1.31036, 1.31705, 1.30523, 1.30581, 
1.65584, 1.6541, 1.64638, 1.64371, 1.64386, 1.64744, 1.64714, 1.6504, 1.63731, 1.6371, 1.61798, 1.6691, 1.6725, 1.67531, 1.76599, 1.75103, 1.73775, 1.64682, 1.60309, 1.5934, 1.5946, 1.57611, 1.57126, 1.56966, 1.56741, 1.56302, 1.55936, 1.55627, 1.55611, 1.562, 1.56024, 1.54334, 1.53296, 1.53684, 1.5239, 1.51957, 1.51652, 1.51303, 1.51211, 1.50622, 1.50521, 1.50269, 1.50173, 1.49623, 1.49202, 1.49016, 1.48776, 1.49915, 1.48798, 1.45382, 1.54326, 1.63719, 1.68611, 1.69281, 1.68296, 1.53054, 1.43891, 1.46496, 1.46106, 1.4615, 1.44846, 1.4404, 1.43914, 1.43377, 1.42927, 1.42491, 1.42062, 1.41988, 1.41911, 1.41822, 1.41547, 1.41174, 1.4094, 1.40766, 1.40774, 1.40519, 1.40156, 1.40033, 1.39535, 1.39072, 1.38735, 1.38571, 1.37944, 1.37647, 1.37421, 1.37271, 1.36837, 1.36669, 1.36477, 1.36249, 1.3598, 1.36371, 1.35812, 1.3649, 1.35627, 1.36181, 1.34705, 1.37576, 1.41661, 1.43243, 1.44409, 1.45737, 1.47482, 1.37851, 1.36024, 1.3441, 1.33801, 1.32475, 1.31968, 1.31707, 1.3237, 1.31433, 1.31377, 1.30964, 1.31013, 
1.66259, 1.65607, 1.65353, 1.67277, 1.65618, 1.65395, 1.65907, 1.65597, 1.63819, 1.63343, 1.6162, 1.63093, 1.74804, 1.77187, 1.76877, 1.75303, 1.7056, 1.6482, 1.58352, 1.59493, 1.5896, 1.57776, 1.57594, 1.5695, 1.56569, 1.56396, 1.5597, 1.56041, 1.5617, 1.56328, 1.55523, 1.5423, 1.53864, 1.54185, 1.52796, 1.52338, 1.52085, 1.51981, 1.51619, 1.51264, 1.50927, 1.50733, 1.50267, 1.49853, 1.49746, 1.49362, 1.50261, 1.48833, 1.49485, 1.48885, 1.52296, 1.55788, 1.65817, 1.68248, 1.6414, 1.57169, 1.4283, 1.47494, 1.46474, 1.46353, 1.46091, 1.4479, 1.4397, 1.44003, 1.43178, 1.45312, 1.42428, 1.42338, 1.41891, 1.41881, 1.42336, 1.41536, 1.41102, 1.40924, 1.4069, 1.40556, 1.40276, 1.40281, 1.3952, 1.392, 1.38493, 1.38159, 1.3788, 1.37515, 1.37297, 1.37045, 1.36555, 1.36689, 1.36378, 1.35994, 1.35854, 1.37822, 1.35541, 1.3549, 1.35735, 1.36882, 1.34827, 1.34874, 1.42329, 1.4418, 1.43994, 1.4519, 1.48897, 1.41548, 1.35783, 1.34252, 1.33497, 1.3211, 1.31718, 1.31721, 1.31913, 1.31377, 1.3103, 1.31611, 1.3264, 
1.66208, 1.66012, 1.65513, 1.66869, 1.65491, 1.65479, 1.66954, 1.64904, 1.64431, 1.63697, 1.61434, 1.62427, 1.6836, 1.75828, 1.77621, 1.79043, 1.70421, 1.64879, 1.59361, 1.59302, 1.58515, 1.57628, 1.57297, 1.56855, 1.56679, 1.56316, 1.56217, 1.55874, 1.56819, 1.58679, 1.58205, 1.55107, 1.55186, 1.53547, 1.53311, 1.52916, 1.5245, 1.52103, 1.51952, 1.51675, 1.51123, 1.50761, 1.50568, 1.50463, 1.50192, 1.49643, 1.49321, 1.49028, 1.49552, 1.47587, 1.51804, 1.60515, 1.65567, 1.68206, 1.67573, 1.53011, 1.44832, 1.47555, 1.46506, 1.46619, 1.45467, 1.44812, 1.44391, 1.44054, 1.43478, 1.43055, 1.4294, 1.42484, 1.42279, 1.42959, 1.41811, 1.41706, 1.41471, 1.41125, 1.40991, 1.41104, 1.40545, 1.40267, 1.39964, 1.39526, 1.39502, 1.38933, 1.38639, 1.3802, 1.37693, 1.37243, 1.36897, 1.37014, 1.36542, 1.36116, 1.38168, 1.36088, 1.36063, 1.36737, 1.36378, 1.38126, 1.35088, 1.40363, 1.42753, 1.45993, 1.46444, 1.45408, 1.45378, 1.41955, 1.3712, 1.34013, 1.33625, 1.33056, 1.32603, 1.33409, 1.3382, 1.32424, 1.31442, 1.32611, 1.31578, 
1.66417, 1.65917, 1.65439, 1.65104, 1.64943, 1.64581, 1.66825, 1.67133, 1.63901, 1.63738, 1.61292, 1.61616, 1.70003, 1.7673, 1.81318, 1.80585, 1.77787, 1.62768, 1.59238, 1.59477, 1.59624, 1.59861, 1.57689, 1.57259, 1.57086, 1.56718, 1.56577, 1.55898, 1.55787, 1.60344, 1.58252, 1.56388, 1.5418, 1.538, 1.53553, 1.53177, 1.53062, 1.52522, 1.52407, 1.51886, 1.51643, 1.51206, 1.51034, 1.51909, 1.51054, 1.49857, 1.4982, 1.49743, 1.50318, 1.47218, 1.48096, 1.58214, 1.62816, 1.68307, 1.64668, 1.51647, 1.48296, 1.46214, 1.48552, 1.46442, 1.46055, 1.45526, 1.45209, 1.44843, 1.44348, 1.43935, 1.43154, 1.43124, 1.42851, 1.42453, 1.4245, 1.41958, 1.4173, 1.41397, 1.41242, 1.40926, 1.4068, 1.4047, 1.4002, 1.39791, 1.39514, 1.39187, 1.38804, 1.3833, 1.37936, 1.37659, 1.37418, 1.37326, 1.37146, 1.36808, 1.36797, 1.37004, 1.36625, 1.36656, 1.38266, 1.37397, 1.3757, 1.37861, 1.47538, 1.45378, 1.45413, 1.46451, 1.46395, 1.43313, 1.32982, 1.34054, 1.3299, 1.32794, 1.32317, 1.3212, 1.31893, 1.3196, 1.32009, 1.3201, 1.3165, 
1.66466, 1.65936, 1.65531, 1.65164, 1.64963, 1.65871, 1.66072, 1.67655, 1.64173, 1.64526, 1.60745, 1.64228, 1.70144, 1.76154, 1.82075, 1.82091, 1.72723, 1.66183, 1.58944, 1.59975, 1.59641, 1.58602, 1.58256, 1.57932, 1.57436, 1.57168, 1.56755, 1.56438, 1.56229, 1.55741, 1.56311, 1.56923, 1.55373, 1.54017, 1.53899, 1.5349, 1.5364, 1.53166, 1.52992, 1.5219, 1.51981, 1.51971, 1.51528, 1.51002, 1.50594, 1.50297, 1.50157, 1.51224, 1.50227, 1.47983, 1.48971, 1.67934, 1.69024, 1.6789, 1.67894, 1.60263, 1.45481, 1.47657, 1.46872, 1.46095, 1.46806, 1.45511, 1.45014, 1.44964, 1.44454, 1.44088, 1.43957, 1.43768, 1.43324, 1.43179, 1.42737, 1.42363, 1.42176, 1.41751, 1.41408, 1.41154, 1.40971, 1.40671, 1.40506, 1.40158, 1.39738, 1.39462, 1.38987, 1.38598, 1.38295, 1.38077, 1.38022, 1.37731, 1.37507, 1.39124, 1.37076, 1.37199, 1.40037, 1.37152, 1.37435, 1.37501, 1.378, 1.3827, 1.43269, 1.46392, 1.46794, 1.46674, 1.46709, 1.42037, 1.39401, 1.34923, 1.33979, 1.33748, 1.32774, 1.32802, 1.32531, 1.33032, 1.32292, 1.32194, 1.33415, 
1.6633, 1.65921, 1.65308, 1.65021, 1.64616, 1.64512, 1.64905, 1.66145, 1.65618, 1.62954, 1.60464, 1.68859, 1.74692, 1.76174, 1.79724, 1.79674, 1.7723, 1.63011, 1.58878, 1.60685, 1.60004, 1.58699, 1.58273, 1.57862, 1.57471, 1.57092, 1.56673, 1.56397, 1.56192, 1.55871, 1.56367, 1.5653, 1.5443, 1.55132, 1.53653, 1.53596, 1.53345, 1.52933, 1.52663, 1.52165, 1.51743, 1.51032, 1.50951, 1.50416, 1.5015, 1.49755, 1.49763, 1.5062, 1.49904, 1.47533, 1.52797, 1.57919, 1.65656, 1.68143, 1.66813, 1.551, 1.49847, 1.46897, 1.46374, 1.46565, 1.45371, 1.45488, 1.44724, 1.44387, 1.43953, 1.44107, 1.43633, 1.43276, 1.4316, 1.42929, 1.42782, 1.42419, 1.42201, 1.42068, 1.41954, 1.41334, 1.41152, 1.41012, 1.40626, 1.40461, 1.40043, 1.39854, 1.41442, 1.38967, 1.38794, 1.38476, 1.38181, 1.38005, 1.3772, 1.37175, 1.37258, 1.37084, 1.3697, 1.37246, 1.37085, 1.37215, 1.3653, 1.38069, 1.43406, 1.46731, 1.47091, 1.49391, 1.47327, 1.43598, 1.40271, 1.35115, 1.34754, 1.33301, 1.33021, 1.3306, 1.3306, 1.32791, 1.32631, 1.32451, 1.32097, 
1.66613, 1.66073, 1.65929, 1.66931, 1.64618, 1.64081, 1.65288, 1.66114, 1.66899, 1.62835, 1.60932, 1.62567, 1.68813, 1.76183, 1.80323, 1.83737, 1.81279, 1.59277, 1.59877, 1.61185, 1.59877, 1.59272, 1.57795, 1.5798, 1.57851, 1.57531, 1.57166, 1.56433, 1.55861, 1.55486, 1.56565, 1.55121, 1.55012, 1.5453, 1.5342, 1.5376, 1.5298, 1.53964, 1.53045, 1.52618, 1.51448, 1.50852, 1.50255, 1.50098, 1.49704, 1.49526, 1.49181, 1.49172, 1.49262, 1.48921, 1.484, 1.61008, 1.67384, 1.69235, 1.68572, 1.58625, 1.44661, 1.45204, 1.47724, 1.45634, 1.46207, 1.4456, 1.44069, 1.43872, 1.43745, 1.436, 1.43228, 1.42935, 1.42726, 1.42283, 1.4197, 1.41932, 1.41891, 1.41689, 1.41591, 1.41386, 1.41116, 1.40859, 1.40622, 1.40758, 1.4048, 1.3996, 1.39751, 1.39487, 1.38924, 1.39161, 1.38306, 1.38427, 1.37889, 1.37522, 1.3727, 1.37191, 1.37193, 1.3831, 1.36691, 1.36803, 1.36344, 1.3674, 1.43957, 1.45871, 1.44359, 1.48531, 1.47822, 1.45467, 1.38907, 1.31972, 1.34064, 1.33622, 1.33487, 1.341, 1.33357, 1.32706, 1.32597, 1.32234, 1.31818, 
1.66522, 1.6607, 1.65505, 1.65412, 1.64488, 1.65178, 1.63774, 1.6626, 1.65603, 1.62361, 1.61572, 1.62946, 1.68802, 1.74515, 1.81474, 1.81867, 1.76149, 1.62144, 1.5859, 1.6028, 1.58439, 1.57904, 1.57473, 1.57214, 1.57299, 1.56623, 1.56224, 1.55733, 1.55428, 1.54889, 1.54394, 1.54275, 1.56241, 1.54488, 1.52852, 1.53029, 1.52982, 1.52844, 1.52419, 1.52361, 1.509, 1.50275, 1.49881, 1.48949, 1.49133, 1.48881, 1.48669, 1.48988, 1.49885, 1.48836, 1.52019, 1.60023, 1.66079, 1.66558, 1.61551, 1.64398, 1.47627, 1.45965, 1.47574, 1.45682, 1.453, 1.45343, 1.4383, 1.43762, 1.43291, 1.42994, 1.42976, 1.42832, 1.42408, 1.41955, 1.41717, 1.41883, 1.41949, 1.41764, 1.41203, 1.40972, 1.40759, 1.40644, 1.4034, 1.40533, 1.40063, 1.39771, 1.39649, 1.39546, 1.392, 1.3849, 1.38618, 1.37779, 1.37597, 1.37334, 1.37087, 1.39693, 1.36797, 1.36444, 1.37741, 1.37331, 1.33397, 1.38007, 1.42302, 1.45854, 1.47472, 1.47865, 1.49854, 1.46173, 1.42336, 1.34082, 1.35702, 1.33597, 1.33553, 1.33963, 1.34046, 1.32695, 1.32475, 1.31973, 1.31931, 
1.67417, 1.6683, 1.66604, 1.66208, 1.65896, 1.66585, 1.65841, 1.65302, 1.66596, 1.6594, 1.63497, 1.6234, 1.64728, 1.78879, 1.80324, 1.84902, 1.81247, 1.65778, 1.60213, 1.60365, 1.59512, 1.59246, 1.58595, 1.57809, 1.59868, 1.57863, 1.57111, 1.57132, 1.56577, 1.55704, 1.55124, 1.55768, 1.53913, 1.5576, 1.55192, 1.53819, 1.54768, 1.53378, 1.5311, 1.52916, 1.51396, 1.53331, 1.50534, 1.50298, 1.5005, 1.49885, 1.49339, 1.50316, 1.5194, 1.48258, 1.56157, 1.61561, 1.64955, 1.65487, 1.64747, 1.55097, 1.4608, 1.43625, 1.47469, 1.46668, 1.45448, 1.45688, 1.44517, 1.44304, 1.44187, 1.43741, 1.43403, 1.43037, 1.42805, 1.42316, 1.41927, 1.41926, 1.4226, 1.42045, 1.4183, 1.41577, 1.41074, 1.41239, 1.4089, 1.40197, 1.39907, 1.39519, 1.39356, 1.38997, 1.38892, 1.38889, 1.38323, 1.37862, 1.37928, 1.37597, 1.3718, 1.38491, 1.36816, 1.36711, 1.36686, 1.36684, 1.37826, 1.39966, 1.43679, 1.43947, 1.48763, 1.50322, 1.49299, 1.46541, 1.40619, 1.35811, 1.35812, 1.338, 1.33732, 1.33943, 1.33206, 1.32909, 1.32398, 1.32279, 1.32404, 
1.67968, 1.67511, 1.6686, 1.68102, 1.66499, 1.67296, 1.67958, 1.65458, 1.65481, 1.64594, 1.64164, 1.63836, 1.67357, 1.75393, 1.83806, 1.83526, 1.77854, 1.71482, 1.59802, 1.60604, 1.60049, 1.59638, 1.60182, 1.58718, 1.58314, 1.57697, 1.57614, 1.57611, 1.57528, 1.56244, 1.56502, 1.55753, 1.55837, 1.567, 1.55714, 1.55396, 1.54837, 1.52917, 1.5289, 1.52934, 1.52699, 1.52168, 1.51617, 1.52665, 1.51362, 1.5093, 1.51694, 1.50873, 1.52265, 1.49955, 1.48303, 1.59885, 1.69514, 1.65061, 1.61673, 1.61113, 1.4602, 1.44144, 1.4859, 1.49075, 1.4957, 1.46434, 1.46859, 1.46117, 1.45165, 1.45051, 1.4476, 1.44136, 1.45056, 1.42974, 1.43051, 1.4329, 1.43571, 1.43111, 1.42733, 1.42626, 1.41912, 1.41798, 1.41614, 1.4128, 1.41071, 1.40571, 1.40233, 1.40157, 1.3987, 1.397, 1.39272, 1.39198, 1.38809, 1.38585, 1.37923, 1.37714, 1.37745, 1.38852, 1.38884, 1.3818, 1.37402, 1.40116, 1.47055, 1.49318, 1.52998, 1.51684, 1.51764, 1.47263, 1.40981, 1.33839, 1.35367, 1.35204, 1.34759, 1.33906, 1.33949, 1.33966, 1.33324, 1.33643, 1.32699, 
1.67874, 1.65123, 1.64726, 1.64537, 1.66028, 1.65266, 1.65605, 1.65206, 1.63688, 1.63879, 1.63903, 1.61435, 1.70227, 1.78685, 1.84251, 1.85178, 1.82754, 1.66271, 1.59598, 1.61028, 1.60246, 1.58983, 1.60211, 1.56978, 1.55797, 1.5587, 1.56937, 1.56755, 1.54799, 1.54411, 1.55424, 1.55849, 1.55191, 1.5514, 1.56014, 1.55373, 1.54015, 1.52731, 1.52802, 1.53429, 1.52757, 1.51732, 1.50418, 1.5037, 1.50835, 1.51017, 1.49892, 1.50147, 1.5158, 1.4963, 1.47873, 1.57494, 1.63462, 1.64971, 1.61534, 1.60622, 1.49575, 1.46004, 1.47093, 1.49183, 1.47594, 1.46854, 1.45486, 1.4588, 1.45369, 1.44757, 1.44441, 1.43411, 1.42307, 1.41601, 1.41697, 1.42695, 1.43611, 1.42915, 1.41261, 1.40227, 1.40305, 1.40495, 1.40551, 1.40505, 1.39925, 1.39852, 1.39493, 1.38273, 1.39186, 1.38312, 1.38351, 1.38067, 1.38133, 1.37466, 1.36701, 1.36559, 1.36381, 1.39277, 1.3787, 1.39212, 1.38892, 1.36837, 1.4298, 1.50746, 1.51351, 1.44516, 1.48962, 1.45094, 1.40466, 1.31912, 1.35802, 1.33607, 1.33691, 1.3366, 1.3344, 1.33937, 1.32526, 1.31479, 1.31262, 
1.6733, 1.66501, 1.66811, 1.65875, 1.67903, 1.65999, 1.67269, 1.65326, 1.6495, 1.62801, 1.63159, 1.62798, 1.6831, 1.71392, 1.84204, 1.87272, 1.86225, 1.67092, 1.5968, 1.61283, 1.6082, 1.61264, 1.59972, 1.58887, 1.5811, 1.58439, 1.59355, 1.57257, 1.56225, 1.55772, 1.55093, 1.5479, 1.54677, 1.5492, 1.55304, 1.54791, 1.55353, 1.5371, 1.5407, 1.53088, 1.52676, 1.5507, 1.52812, 1.52659, 1.51477, 1.52599, 1.51026, 1.51758, 1.5158, 1.49068, 1.48172, 1.62625, 1.62726, 1.65703, 1.65796, 1.63335, 1.49617, 1.44953, 1.46613, 1.46311, 1.48798, 1.46624, 1.46267, 1.46524, 1.46924, 1.44304, 1.43517, 1.43822, 1.42406, 1.42235, 1.42169, 1.43741, 1.43244, 1.43017, 1.41511, 1.4044, 1.40107, 1.39479, 1.39363, 1.39163, 1.3881, 1.38535, 1.3826, 1.37573, 1.37683, 1.37873, 1.38231, 1.38414, 1.38785, 1.39657, 1.37137, 1.36817, 1.36029, 1.36789, 1.3678, 1.37045, 1.38006, 1.35415, 1.46437, 1.47197, 1.47125, 1.51992, 1.51638, 1.42596, 1.38664, 1.34726, 1.35414, 1.34742, 1.34719, 1.34258, 1.32689, 1.31705, 1.31245, 1.31207, 1.31283, 
1.69171, 1.67579, 1.66627, 1.66446, 1.68129, 1.67299, 1.66042, 1.65122, 1.65225, 1.64599, 1.62934, 1.60244, 1.71516, 1.7728, 1.83924, 1.85848, 1.85826, 1.62545, 1.58909, 1.61463, 1.61425, 1.6134, 1.5933, 1.58569, 1.58944, 1.57822, 1.57597, 1.57797, 1.57172, 1.56718, 1.56173, 1.56047, 1.57563, 1.56209, 1.55292, 1.56341, 1.55169, 1.5532, 1.53492, 1.52867, 1.5268, 1.52442, 1.5389, 1.53296, 1.51367, 1.51109, 1.51639, 1.50739, 1.51606, 1.51829, 1.5005, 1.55213, 1.62627, 1.65132, 1.63115, 1.58983, 1.57602, 1.45283, 1.47803, 1.47271, 1.48694, 1.47955, 1.46219, 1.47156, 1.45466, 1.44999, 1.4443, 1.44074, 1.43734, 1.43524, 1.43614, 1.43431, 1.43294, 1.42785, 1.43057, 1.42299, 1.41859, 1.41725, 1.41397, 1.41248, 1.40874, 1.40555, 1.40234, 1.39942, 1.39744, 1.39588, 1.39353, 1.39007, 1.39162, 1.39518, 1.38654, 1.40366, 1.39049, 1.37827, 1.38483, 1.37868, 1.38042, 1.37396, 1.42318, 1.45876, 1.51187, 1.53633, 1.54138, 1.47543, 1.37599, 1.35065, 1.36486, 1.35855, 1.35065, 1.35808, 1.3498, 1.33377, 1.33427, 1.33243, 1.32945, 
1.66542, 1.66239, 1.65961, 1.65906, 1.65678, 1.6509, 1.6431, 1.64538, 1.6352, 1.6377, 1.63488, 1.59922, 1.68321, 1.78223, 1.78627, 1.84819, 1.80922, 1.71664, 1.61046, 1.60144, 1.59655, 1.59551, 1.5957, 1.58096, 1.57798, 1.56628, 1.56214, 1.55724, 1.55879, 1.55772, 1.56248, 1.54629, 1.54845, 1.54572, 1.55177, 1.55747, 1.557, 1.53325, 1.52983, 1.51971, 1.51697, 1.51523, 1.52313, 1.51769, 1.50968, 1.50529, 1.50531, 1.49524, 1.51176, 1.50803, 1.47974, 1.5781, 1.61293, 1.63127, 1.6354, 1.58268, 1.54419, 1.44895, 1.47431, 1.46082, 1.47883, 1.4782, 1.45092, 1.4415, 1.43969, 1.44034, 1.42919, 1.42673, 1.43071, 1.4303, 1.42983, 1.42567, 1.42101, 1.42189, 1.4197, 1.41167, 1.40981, 1.40902, 1.4057, 1.40151, 1.39962, 1.39208, 1.3904, 1.38863, 1.38528, 1.38113, 1.37858, 1.378, 1.37586, 1.37535, 1.37492, 1.37561, 1.37126, 1.36863, 1.3675, 1.37173, 1.38574, 1.37182, 1.42606, 1.4433, 1.49585, 1.51403, 1.50948, 1.50207, 1.44794, 1.34304, 1.35088, 1.35673, 1.33359, 1.32761, 1.32652, 1.32266, 1.32372, 1.32572, 1.32067, 
1.66183, 1.65658, 1.65205, 1.65137, 1.64564, 1.64158, 1.63869, 1.63748, 1.63553, 1.63509, 1.6478, 1.59638, 1.6357, 1.76175, 1.78564, 1.86914, 1.82995, 1.74767, 1.57171, 1.59393, 1.58794, 1.57827, 1.58107, 1.57128, 1.58337, 1.56233, 1.56003, 1.5492, 1.54894, 1.54559, 1.5446, 1.54272, 1.5419, 1.55547, 1.53736, 1.53626, 1.55359, 1.52759, 1.52188, 1.51474, 1.51282, 1.5106, 1.50528, 1.51833, 1.49573, 1.49079, 1.4869, 1.49221, 1.50691, 1.49862, 1.48656, 1.57132, 1.58313, 1.62689, 1.61965, 1.59064, 1.52826, 1.44395, 1.46193, 1.46832, 1.45567, 1.47481, 1.46195, 1.43739, 1.43813, 1.42778, 1.42672, 1.42468, 1.42603, 1.4258, 1.42277, 1.41979, 1.41937, 1.41298, 1.4067, 1.40969, 1.4006, 1.40886, 1.40837, 1.39295, 1.3866, 1.38418, 1.38124, 1.37888, 1.37793, 1.37221, 1.37054, 1.37035, 1.36813, 1.37143, 1.36799, 1.36174, 1.35966, 1.35685, 1.35719, 1.37125, 1.35396, 1.38686, 1.38226, 1.39461, 1.49983, 1.52097, 1.54615, 1.5212, 1.43524, 1.3468, 1.35399, 1.35377, 1.32594, 1.32218, 1.32869, 1.31885, 1.32071, 1.31776, 1.31521, 
1.66655, 1.66831, 1.67147, 1.65578, 1.66763, 1.65486, 1.64431, 1.63937, 1.632, 1.63507, 1.6336, 1.62218, 1.66294, 1.74287, 1.82083, 1.8675, 1.85172, 1.68463, 1.58975, 1.60406, 1.59448, 1.59608, 1.58018, 1.57663, 1.58125, 1.57147, 1.57879, 1.55916, 1.55572, 1.5507, 1.54841, 1.55127, 1.54364, 1.55107, 1.53227, 1.53147, 1.54415, 1.53964, 1.53377, 1.52614, 1.51735, 1.51514, 1.51643, 1.50062, 1.49817, 1.49565, 1.50259, 1.49326, 1.51559, 1.49477, 1.50712, 1.53972, 1.60063, 1.63989, 1.6273, 1.59307, 1.53708, 1.44995, 1.46349, 1.47192, 1.45594, 1.45878, 1.45447, 1.44249, 1.44384, 1.43816, 1.43448, 1.43304, 1.42998, 1.42491, 1.42382, 1.41926, 1.41925, 1.41703, 1.41449, 1.41294, 1.40908, 1.40719, 1.40487, 1.40623, 1.39624, 1.39604, 1.38813, 1.3842, 1.38307, 1.38212, 1.37871, 1.3775, 1.37528, 1.37765, 1.38491, 1.37826, 1.36687, 1.37563, 1.36053, 1.37378, 1.35743, 1.33407, 1.41385, 1.46184, 1.49912, 1.52384, 1.54179, 1.49354, 1.465, 1.34526, 1.34788, 1.35655, 1.3518, 1.33299, 1.32669, 1.32578, 1.32175, 1.34727, 1.31855, 
1.65924, 1.65249, 1.64616, 1.64451, 1.64159, 1.63539, 1.63365, 1.62396, 1.61974, 1.62763, 1.61267, 1.60953, 1.67412, 1.70331, 1.79391, 1.88243, 1.86254, 1.76578, 1.57535, 1.57906, 1.58095, 1.58596, 1.56743, 1.56493, 1.56954, 1.55779, 1.55471, 1.55358, 1.55056, 1.54607, 1.54301, 1.53996, 1.53548, 1.52636, 1.52177, 1.53488, 1.5133, 1.53207, 1.51011, 1.50586, 1.50875, 1.49833, 1.49515, 1.49151, 1.48977, 1.48494, 1.48195, 1.48287, 1.49592, 1.4957, 1.46373, 1.51542, 1.61354, 1.62503, 1.61928, 1.61395, 1.54498, 1.46096, 1.44891, 1.46058, 1.44698, 1.45293, 1.46067, 1.43487, 1.42754, 1.42387, 1.42108, 1.41923, 1.4153, 1.41346, 1.41076, 1.40383, 1.40259, 1.39896, 1.39737, 1.39458, 1.3897, 1.38811, 1.38449, 1.38169, 1.37977, 1.37756, 1.37685, 1.37411, 1.37055, 1.36729, 1.36405, 1.36183, 1.36046, 1.35858, 1.35639, 1.35356, 1.34829, 1.34683, 1.34547, 1.34796, 1.34741, 1.31662, 1.38767, 1.41596, 1.48202, 1.50593, 1.53799, 1.5097, 1.39913, 1.30228, 1.33719, 1.32774, 1.33642, 1.31383, 1.30974, 1.30659, 1.30559, 1.30454, 1.30262, 
1.65255, 1.65142, 1.64686, 1.64234, 1.63813, 1.63464, 1.64494, 1.62656, 1.62, 1.61256, 1.61486, 1.58658, 1.62064, 1.73114, 1.79801, 1.85521, 1.86159, 1.7233, 1.55282, 1.58594, 1.58263, 1.57206, 1.56914, 1.56356, 1.55984, 1.55518, 1.5526, 1.5514, 1.54778, 1.5436, 1.53979, 1.53269, 1.52877, 1.52611, 1.51966, 1.51482, 1.51681, 1.53683, 1.51854, 1.53023, 1.50298, 1.50146, 1.51256, 1.49594, 1.49533, 1.48589, 1.49548, 1.48753, 1.48585, 1.47504, 1.47246, 1.53623, 1.57764, 1.6374, 1.61462, 1.60374, 1.53961, 1.45774, 1.45491, 1.45788, 1.45002, 1.44642, 1.46231, 1.44696, 1.42608, 1.43147, 1.41985, 1.41589, 1.41359, 1.40768, 1.4063, 1.40195, 1.39971, 1.39773, 1.39293, 1.39184, 1.387, 1.38545, 1.38065, 1.38115, 1.38011, 1.38099, 1.37424, 1.37171, 1.36799, 1.36492, 1.3613, 1.35945, 1.35782, 1.35434, 1.3522, 1.3547, 1.34671, 1.34347, 1.34187, 1.35021, 1.34382, 1.33945, 1.39143, 1.48105, 1.52067, 1.5407, 1.5321, 1.51024, 1.39822, 1.30923, 1.32719, 1.329, 1.31152, 1.3103, 1.30679, 1.30681, 1.30471, 1.30296, 1.30157, 
1.6459, 1.64399, 1.63813, 1.63327, 1.63007, 1.62818, 1.62394, 1.62146, 1.62059, 1.62774, 1.61822, 1.60707, 1.68107, 1.70058, 1.82808, 1.88645, 1.81025, 1.76922, 1.56509, 1.5969, 1.59018, 1.57469, 1.56982, 1.56521, 1.56585, 1.55194, 1.55061, 1.54705, 1.54709, 1.54421, 1.54702, 1.53746, 1.53037, 1.52732, 1.53027, 1.52567, 1.52301, 1.52112, 1.54581, 1.51891, 1.50678, 1.50376, 1.50323, 1.49932, 1.49852, 1.49875, 1.48904, 1.48922, 1.48992, 1.49166, 1.45735, 1.53964, 1.60309, 1.60416, 1.61911, 1.60679, 1.52316, 1.44709, 1.45614, 1.45733, 1.4479, 1.4549, 1.45155, 1.46102, 1.43469, 1.4288, 1.42352, 1.42093, 1.41723, 1.41503, 1.40929, 1.40549, 1.40509, 1.40324, 1.40004, 1.39835, 1.39723, 1.39431, 1.39142, 1.38964, 1.38802, 1.38639, 1.38273, 1.37927, 1.3743, 1.36847, 1.36461, 1.36397, 1.36243, 1.36148, 1.35711, 1.3569, 1.35314, 1.34986, 1.34833, 1.35814, 1.36152, 1.33487, 1.3859, 1.45305, 1.46521, 1.51051, 1.52028, 1.47796, 1.44733, 1.3189, 1.33569, 1.32042, 1.31322, 1.313, 1.31302, 1.31025, 1.30533, 1.3066, 1.30571, 
1.64715, 1.64349, 1.63992, 1.64146, 1.62863, 1.62479, 1.62514, 1.61952, 1.62133, 1.62216, 1.61651, 1.61261, 1.67239, 1.7129, 1.82887, 1.87082, 1.79671, 1.70562, 1.57132, 1.58497, 1.58303, 1.56978, 1.56719, 1.56141, 1.55492, 1.56065, 1.56497, 1.54439, 1.54244, 1.54502, 1.54106, 1.54282, 1.52954, 1.52587, 1.51991, 1.5185, 1.51732, 1.5099, 1.52309, 1.53799, 1.50965, 1.49927, 1.51521, 1.49248, 1.49897, 1.48676, 1.48296, 1.48248, 1.49264, 1.48271, 1.45683, 1.52691, 1.56268, 1.59646, 1.59936, 1.58275, 1.53794, 1.51044, 1.45912, 1.46126, 1.45188, 1.44093, 1.44497, 1.44528, 1.43354, 1.4334, 1.42312, 1.42339, 1.41266, 1.41325, 1.41369, 1.41047, 1.40619, 1.399, 1.39952, 1.40232, 1.39475, 1.39452, 1.3939, 1.39162, 1.3894, 1.38727, 1.38095, 1.37803, 1.37453, 1.37066, 1.365, 1.36345, 1.36094, 1.35884, 1.35576, 1.35331, 1.35487, 1.35567, 1.35758, 1.36113, 1.37035, 1.3294, 1.43731, 1.45518, 1.48835, 1.55313, 1.53117, 1.44039, 1.41539, 1.29919, 1.32658, 1.3182, 1.31405, 1.31159, 1.31144, 1.30843, 1.30931, 1.30789, 1.30881, 
1.65636, 1.65305, 1.652, 1.6459, 1.6408, 1.63488, 1.63459, 1.62626, 1.62409, 1.61991, 1.62686, 1.58907, 1.66533, 1.7449, 1.82316, 1.8743, 1.89403, 1.67865, 1.57884, 1.59853, 1.59015, 1.57724, 1.56923, 1.56398, 1.5581, 1.55558, 1.55338, 1.54756, 1.54693, 1.54511, 1.54125, 1.53451, 1.53339, 1.52917, 1.52485, 1.52246, 1.5175, 1.51724, 1.51324, 1.53492, 1.51283, 1.5033, 1.49556, 1.49281, 1.49073, 1.48553, 1.48219, 1.48092, 1.48939, 1.48649, 1.45076, 1.54709, 1.52623, 1.59278, 1.60309, 1.58466, 1.54728, 1.44765, 1.43347, 1.44909, 1.44547, 1.4413, 1.43332, 1.45759, 1.45901, 1.42338, 1.41997, 1.41772, 1.41303, 1.41224, 1.41081, 1.40681, 1.40531, 1.4016, 1.39855, 1.39558, 1.39363, 1.39089, 1.38993, 1.38764, 1.38273, 1.38102, 1.37709, 1.37285, 1.37033, 1.36623, 1.36279, 1.36186, 1.35919, 1.35712, 1.35732, 1.35644, 1.36087, 1.3514, 1.35087, 1.36447, 1.35365, 1.3344, 1.40281, 1.44119, 1.50344, 1.53984, 1.52912, 1.4861, 1.4264, 1.31198, 1.32683, 1.32006, 1.31497, 1.31357, 1.31294, 1.3115, 1.30898, 1.30672, 1.30381, 
1.65632, 1.65476, 1.65102, 1.65207, 1.64168, 1.63852, 1.63497, 1.62647, 1.62165, 1.6186, 1.63473, 1.60592, 1.64379, 1.71441, 1.82002, 1.89242, 1.87724, 1.73846, 1.56176, 1.6009, 1.58712, 1.57778, 1.56798, 1.58068, 1.55706, 1.55276, 1.55083, 1.54781, 1.54542, 1.54282, 1.54031, 1.53769, 1.53371, 1.52847, 1.52511, 1.52161, 1.51724, 1.51924, 1.51996, 1.52879, 1.53026, 1.50047, 1.49622, 1.50027, 1.49916, 1.4889, 1.4878, 1.48479, 1.49228, 1.48149, 1.48455, 1.50378, 1.53129, 1.59469, 1.63122, 1.59351, 1.54831, 1.47526, 1.44756, 1.45692, 1.45198, 1.43429, 1.43389, 1.44181, 1.43652, 1.44536, 1.4303, 1.41932, 1.41557, 1.41243, 1.4121, 1.4093, 1.40196, 1.40196, 1.39978, 1.39594, 1.39929, 1.39053, 1.38865, 1.38477, 1.38464, 1.37969, 1.37657, 1.37701, 1.37138, 1.36813, 1.36696, 1.36377, 1.36332, 1.36198, 1.37976, 1.35744, 1.35599, 1.35422, 1.35828, 1.34696, 1.35679, 1.34725, 1.39221, 1.431, 1.50355, 1.55974, 1.57043, 1.52241, 1.44149, 1.33691, 1.33137, 1.3372, 1.3303, 1.31798, 1.31679, 1.32282, 1.32694, 1.31043, 1.34438, 
1.65436, 1.65072, 1.64808, 1.64126, 1.63867, 1.6355, 1.63665, 1.62825, 1.62544, 1.61964, 1.618, 1.60192, 1.63688, 1.70323, 1.75786, 1.82324, 1.96179, 1.66078, 1.56791, 1.58343, 1.5789, 1.57428, 1.56464, 1.55895, 1.55727, 1.55171, 1.55185, 1.5484, 1.54566, 1.54257, 1.53731, 1.53677, 1.53341, 1.52773, 1.52615, 1.52194, 1.51776, 1.51348, 1.5074, 1.52249, 1.5302, 1.51754, 1.49307, 1.49221, 1.49582, 1.48641, 1.48357, 1.48034, 1.49199, 1.48502, 1.44705, 1.50312, 1.55792, 1.57129, 1.57377, 1.57175, 1.5618, 1.49501, 1.45168, 1.45108, 1.44038, 1.436, 1.44339, 1.4379, 1.4349, 1.44386, 1.43026, 1.41399, 1.41227, 1.41137, 1.41242, 1.40631, 1.40536, 1.40418, 1.39988, 1.39816, 1.39631, 1.39208, 1.38856, 1.38461, 1.38485, 1.37927, 1.37685, 1.37103, 1.36888, 1.36667, 1.36768, 1.36125, 1.36062, 1.36301, 1.3588, 1.35734, 1.35554, 1.35371, 1.34536, 1.36094, 1.35487, 1.35232, 1.3932, 1.41243, 1.48527, 1.55406, 1.54764, 1.53142, 1.39893, 1.32675, 1.34563, 1.32905, 1.33684, 1.32229, 1.31888, 1.31547, 1.31411, 1.31251, 1.30596, 
1.65459, 1.65034, 1.64598, 1.64127, 1.63412, 1.63177, 1.62788, 1.6248, 1.62988, 1.62631, 1.62157, 1.62693, 1.61799, 1.67597, 1.75792, 1.84302, 1.89837, 1.82525, 1.57572, 1.59614, 1.58565, 1.57558, 1.57338, 1.57813, 1.57867, 1.56387, 1.56193, 1.5519, 1.55278, 1.54725, 1.54214, 1.53883, 1.53583, 1.54367, 1.5278, 1.52478, 1.51947, 1.51433, 1.51319, 1.51442, 1.52966, 1.50657, 1.5174, 1.49933, 1.5201, 1.49123, 1.50771, 1.4893, 1.49636, 1.47928, 1.47842, 1.48299, 1.55975, 1.59176, 1.59243, 1.56973, 1.54538, 1.47539, 1.44687, 1.46221, 1.444, 1.43959, 1.44141, 1.43513, 1.43451, 1.4479, 1.42965, 1.42642, 1.41644, 1.41202, 1.40963, 1.40636, 1.40624, 1.41429, 1.40181, 1.40109, 1.39599, 1.39234, 1.3882, 1.38545, 1.38188, 1.37996, 1.37756, 1.37514, 1.36898, 1.36807, 1.36496, 1.36169, 1.36072, 1.36033, 1.35822, 1.35716, 1.35341, 1.35564, 1.34795, 1.34715, 1.34845, 1.35428, 1.40311, 1.45094, 1.49335, 1.54643, 1.57555, 1.50755, 1.40994, 1.33067, 1.34386, 1.3333, 1.32914, 1.32665, 1.33324, 1.31729, 1.32891, 1.31345, 1.30933, 
1.65501, 1.64936, 1.6436, 1.64006, 1.63731, 1.63141, 1.62843, 1.62105, 1.61983, 1.61983, 1.62024, 1.62353, 1.59485, 1.6921, 1.80281, 1.88224, 1.90827, 1.75131, 1.57214, 1.58916, 1.5792, 1.59179, 1.5681, 1.58221, 1.56848, 1.55595, 1.5535, 1.54617, 1.54263, 1.54075, 1.53913, 1.53475, 1.53631, 1.53362, 1.52498, 1.52305, 1.51756, 1.52404, 1.511, 1.51329, 1.50597, 1.51567, 1.49856, 1.49694, 1.49538, 1.49377, 1.5067, 1.48357, 1.48383, 1.49444, 1.46808, 1.51006, 1.56747, 1.58917, 1.59945, 1.56178, 1.53787, 1.47859, 1.43656, 1.45458, 1.448, 1.4498, 1.43487, 1.43273, 1.43658, 1.43757, 1.42526, 1.41754, 1.41452, 1.41073, 1.41687, 1.40676, 1.40534, 1.40486, 1.40193, 1.40011, 1.39621, 1.40335, 1.38954, 1.38684, 1.38533, 1.38227, 1.37996, 1.37667, 1.37357, 1.37168, 1.36884, 1.36043, 1.36482, 1.35672, 1.35442, 1.35345, 1.35475, 1.35008, 1.34739, 1.34756, 1.35499, 1.36391, 1.37092, 1.41425, 1.46496, 1.51962, 1.54859, 1.51709, 1.41668, 1.30634, 1.33682, 1.3439, 1.31507, 1.31533, 1.3137, 1.30966, 1.31138, 1.31282, 1.30631, 
1.65361, 1.64979, 1.64489, 1.64022, 1.63545, 1.6308, 1.62741, 1.62652, 1.62491, 1.61967, 1.62788, 1.62797, 1.65252, 1.69984, 1.80566, 1.96915, 2.00047, 1.807, 1.56167, 1.58187, 1.57523, 1.57522, 1.56783, 1.56511, 1.56146, 1.55593, 1.55146, 1.5481, 1.54475, 1.54225, 1.54021, 1.53461, 1.53246, 1.52836, 1.52371, 1.52001, 1.51562, 1.51405, 1.51034, 1.50711, 1.50505, 1.53619, 1.51624, 1.49857, 1.49569, 1.49137, 1.4855, 1.48255, 1.48274, 1.47926, 1.45515, 1.47628, 1.52049, 1.55946, 1.55766, 1.55932, 1.50621, 1.49324, 1.46072, 1.45237, 1.44411, 1.44068, 1.43512, 1.43969, 1.42704, 1.42588, 1.43474, 1.42315, 1.41279, 1.41113, 1.4085, 1.40699, 1.40698, 1.40393, 1.40292, 1.39902, 1.39769, 1.39437, 1.39112, 1.38868, 1.38741, 1.38391, 1.3783, 1.37786, 1.37384, 1.3661, 1.36199, 1.35705, 1.35612, 1.35208, 1.35397, 1.35292, 1.35348, 1.35209, 1.3508, 1.35142, 1.35467, 1.36475, 1.36296, 1.42711, 1.51202, 1.55517, 1.60296, 1.51936, 1.41203, 1.31354, 1.32607, 1.33678, 1.31664, 1.32557, 1.31719, 1.31575, 1.31321, 1.31196, 1.30939, 
1.64866, 1.646, 1.64393, 1.63734, 1.63379, 1.628, 1.63363, 1.62235, 1.62013, 1.61975, 1.63069, 1.64236, 1.59374, 1.66011, 1.75538, 1.80512, 1.94429, 1.67999, 1.5648, 1.5829, 1.58894, 1.58597, 1.56823, 1.56294, 1.55861, 1.5576, 1.55166, 1.54956, 1.54692, 1.53862, 1.53748, 1.5316, 1.52825, 1.52613, 1.52036, 1.51709, 1.51332, 1.52731, 1.50521, 1.50322, 1.50262, 1.517, 1.51379, 1.49565, 1.49942, 1.50038, 1.48591, 1.48183, 1.4827, 1.48197, 1.47152, 1.52314, 1.57249, 1.56075, 1.57855, 1.54512, 1.53672, 1.4581, 1.42684, 1.45713, 1.45046, 1.43976, 1.43199, 1.4281, 1.42487, 1.4499, 1.45745, 1.43871, 1.44139, 1.41049, 1.40686, 1.40433, 1.40461, 1.40292, 1.40082, 1.39721, 1.39634, 1.39518, 1.39148, 1.38984, 1.38517, 1.38498, 1.38138, 1.37825, 1.37493, 1.36779, 1.3628, 1.3618, 1.36021, 1.35433, 1.35363, 1.35487, 1.3534, 1.35296, 1.35112, 1.36538, 1.35403, 1.35112, 1.38877, 1.45439, 1.50367, 1.58996, 1.6107, 1.58348, 1.37287, 1.31437, 1.33123, 1.33799, 1.33769, 1.32131, 1.33243, 1.3191, 1.31329, 1.31296, 1.31607, 
1.65004, 1.64929, 1.64215, 1.63767, 1.63386, 1.62865, 1.62032, 1.61978, 1.61909, 1.61844, 1.61677, 1.61596, 1.59347, 1.67142, 1.7262, 1.86495, 2.02376, 1.75542, 1.57928, 1.58243, 1.58865, 1.58251, 1.56826, 1.56326, 1.56444, 1.55448, 1.54986, 1.54571, 1.54398, 1.53992, 1.53761, 1.5338, 1.52966, 1.52473, 1.5225, 1.51774, 1.51177, 1.5097, 1.50408, 1.49854, 1.50088, 1.5096, 1.52973, 1.52254, 1.49287, 1.49956, 1.49666, 1.4825, 1.4895, 1.49615, 1.46514, 1.53114, 1.61918, 1.58007, 1.55113, 1.54511, 1.53973, 1.48578, 1.42321, 1.44889, 1.44814, 1.43653, 1.43095, 1.42758, 1.42613, 1.433, 1.42299, 1.41573, 1.40655, 1.41325, 1.4067, 1.40972, 1.40311, 1.40042, 1.3962, 1.39444, 1.3915, 1.38877, 1.38844, 1.3859, 1.38424, 1.38267, 1.38134, 1.37871, 1.37605, 1.37287, 1.36929, 1.36516, 1.36337, 1.36115, 1.35655, 1.35364, 1.35329, 1.35037, 1.34886, 1.34889, 1.35767, 1.36409, 1.36457, 1.42343, 1.5189, 1.55855, 1.59747, 1.57027, 1.40577, 1.28406, 1.3299, 1.3377, 1.31882, 1.31792, 1.31532, 1.31315, 1.30898, 1.30637, 1.3048, 
1.65372, 1.6452, 1.64068, 1.64561, 1.63166, 1.62882, 1.62487, 1.62214, 1.62093, 1.61943, 1.61681, 1.63318, 1.60706, 1.65912, 1.76186, 1.91731, 1.95006, 1.88979, 1.53627, 1.57988, 1.58706, 1.58256, 1.57001, 1.56223, 1.55995, 1.55541, 1.5514, 1.54819, 1.54483, 1.54439, 1.53858, 1.53588, 1.53155, 1.52939, 1.52525, 1.51952, 1.51623, 1.51178, 1.50515, 1.50247, 1.50013, 1.49807, 1.51541, 1.51083, 1.52037, 1.48836, 1.49306, 1.48445, 1.48089, 1.49594, 1.48247, 1.49587, 1.55078, 1.57075, 1.53926, 1.53407, 1.51282, 1.47838, 1.43327, 1.4521, 1.45888, 1.44952, 1.44403, 1.43227, 1.44561, 1.43857, 1.42315, 1.4408, 1.43336, 1.42593, 1.40415, 1.40176, 1.40097, 1.40322, 1.39501, 1.3915, 1.38825, 1.38779, 1.38601, 1.38485, 1.38173, 1.38087, 1.37641, 1.37414, 1.37212, 1.36912, 1.36796, 1.36622, 1.36388, 1.3634, 1.36417, 1.36074, 1.36114, 1.35226, 1.35096, 1.3477, 1.36103, 1.35185, 1.36054, 1.42755, 1.49528, 1.548, 1.55526, 1.53971, 1.41879, 1.31152, 1.34755, 1.326, 1.32425, 1.3146, 1.31284, 1.3115, 1.30829, 1.30661, 1.30673, 
1.6522, 1.64502, 1.63661, 1.63079, 1.62816, 1.62983, 1.63443, 1.62332, 1.62196, 1.62424, 1.61499, 1.6164, 1.60193, 1.70448, 1.73101, 1.8404, 1.91063, 1.7893, 1.55015, 1.57631, 1.57658, 1.58253, 1.56876, 1.56753, 1.55475, 1.55174, 1.54849, 1.54731, 1.54064, 1.53756, 1.53417, 1.53177, 1.5301, 1.52469, 1.52283, 1.51721, 1.5142, 1.50985, 1.50636, 1.501, 1.49977, 1.49719, 1.49901, 1.53468, 1.52347, 1.48994, 1.48337, 1.47873, 1.48181, 1.47896, 1.46404, 1.51079, 1.5756, 1.5717, 1.52735, 1.52948, 1.52154, 1.47133, 1.43798, 1.44702, 1.44751, 1.44824, 1.43868, 1.43671, 1.43028, 1.44577, 1.44735, 1.43547, 1.42898, 1.4194, 1.40743, 1.40541, 1.40259, 1.39975, 1.39683, 1.3927, 1.39036, 1.38768, 1.38652, 1.38542, 1.38179, 1.37771, 1.37712, 1.37505, 1.3715, 1.36789, 1.36437, 1.36599, 1.36384, 1.36655, 1.37133, 1.35562, 1.35483, 1.35335, 1.34758, 1.34471, 1.34745, 1.34819, 1.37735, 1.41441, 1.50997, 1.56903, 1.63076, 1.61576, 1.44458, 1.29276, 1.33721, 1.34057, 1.32296, 1.3165, 1.31298, 1.30961, 1.30744, 1.30455, 1.30411, 
1.65252, 1.64647, 1.64302, 1.63597, 1.6343, 1.63118, 1.62698, 1.62091, 1.61922, 1.61913, 1.62034, 1.61931, 1.59758, 1.69584, 1.7556, 1.86462, 1.9213, 1.88661, 1.60897, 1.58628, 1.57592, 1.57549, 1.58305, 1.55969, 1.558, 1.5543, 1.55095, 1.54857, 1.54428, 1.53791, 1.53507, 1.53085, 1.52522, 1.51924, 1.51791, 1.51557, 1.51186, 1.50869, 1.50614, 1.50366, 1.50322, 1.5101, 1.49649, 1.50942, 1.52425, 1.50714, 1.4886, 1.48595, 1.49191, 1.48503, 1.45534, 1.51902, 1.55813, 1.55053, 1.54641, 1.53764, 1.53378, 1.50913, 1.4469, 1.44429, 1.45053, 1.44772, 1.43308, 1.47038, 1.45326, 1.47292, 1.46804, 1.42398, 1.41597, 1.4074, 1.40669, 1.40491, 1.39946, 1.39861, 1.39408, 1.3923, 1.39023, 1.38856, 1.38443, 1.38382, 1.37927, 1.37631, 1.37185, 1.37122, 1.3673, 1.36768, 1.36396, 1.36112, 1.36075, 1.36058, 1.35811, 1.35658, 1.35584, 1.3524, 1.34702, 1.34502, 1.34663, 1.34735, 1.33405, 1.43296, 1.44322, 1.60308, 1.60341, 1.50616, 1.45084, 1.31243, 1.33831, 1.31931, 1.31718, 1.32034, 1.31548, 1.31287, 1.30978, 1.30814, 1.30496, 
1.65529, 1.65099, 1.64811, 1.64304, 1.63989, 1.63376, 1.63318, 1.62651, 1.62947, 1.61925, 1.62167, 1.61496, 1.57926, 1.65919, 1.74566, 1.81846, 2.08669, 1.73755, 1.53723, 1.59656, 1.5899, 1.57876, 1.57478, 1.57156, 1.56162, 1.55671, 1.55466, 1.54551, 1.54197, 1.53577, 1.53015, 1.52656, 1.52884, 1.5168, 1.51661, 1.52376, 1.50884, 1.50751, 1.50612, 1.51532, 1.50244, 1.50226, 1.50747, 1.50314, 1.52349, 1.54362, 1.49273, 1.49798, 1.50038, 1.48425, 1.45569, 1.48231, 1.54054, 1.55136, 1.51557, 1.5243, 1.533, 1.49671, 1.43221, 1.46656, 1.46479, 1.48545, 1.46929, 1.49317, 1.4724, 1.46052, 1.43673, 1.42778, 1.42748, 1.4143, 1.40945, 1.40786, 1.42975, 1.39878, 1.39705, 1.39158, 1.38874, 1.39134, 1.38496, 1.38242, 1.37825, 1.37673, 1.37424, 1.37249, 1.36985, 1.36851, 1.36745, 1.36407, 1.36193, 1.36241, 1.35856, 1.3565, 1.35279, 1.35052, 1.34882, 1.35532, 1.35406, 1.35615, 1.32377, 1.37908, 1.47091, 1.50958, 1.60664, 1.61351, 1.45044, 1.32169, 1.33711, 1.33341, 1.3262, 1.3226, 1.32433, 1.31629, 1.31208, 1.30934, 1.30589, 
1.65116, 1.64713, 1.64155, 1.63882, 1.63584, 1.63242, 1.62878, 1.62236, 1.62467, 1.61326, 1.61058, 1.61037, 1.60666, 1.66761, 1.7132, 1.83904, 1.8574, 1.69913, 1.55557, 1.58619, 1.57873, 1.57977, 1.57278, 1.56609, 1.56014, 1.55386, 1.55107, 1.53952, 1.53996, 1.53378, 1.53133, 1.52469, 1.51761, 1.52218, 1.50878, 1.50703, 1.50661, 1.50417, 1.50146, 1.50053, 1.49944, 1.4961, 1.49294, 1.49168, 1.50968, 1.5412, 1.51259, 1.51028, 1.4797, 1.47872, 1.45497, 1.5066, 1.52128, 1.53824, 1.52773, 1.52374, 1.54693, 1.50484, 1.45517, 1.46352, 1.4766, 1.48063, 1.4771, 1.45491, 1.43998, 1.43168, 1.42362, 1.42023, 1.4161, 1.4117, 1.40859, 1.40504, 1.401, 1.39807, 1.39514, 1.38983, 1.38844, 1.38406, 1.382, 1.38091, 1.37739, 1.37489, 1.37095, 1.37109, 1.3691, 1.36804, 1.36326, 1.36147, 1.35769, 1.35739, 1.35515, 1.35194, 1.34828, 1.34551, 1.34361, 1.3413, 1.34967, 1.34246, 1.33006, 1.42103, 1.44313, 1.5756, 1.61503, 1.60993, 1.40509, 1.30672, 1.32481, 1.33946, 1.31557, 1.31302, 1.31221, 1.30734, 1.30472, 1.30153, 1.30172, 
1.64432, 1.63877, 1.63553, 1.63807, 1.63775, 1.63524, 1.63681, 1.63334, 1.62077, 1.61485, 1.60944, 1.6076, 1.59638, 1.60591, 1.76181, 1.80159, 1.99472, 1.72632, 1.57235, 1.60391, 1.60043, 1.57797, 1.57718, 1.58191, 1.57017, 1.56462, 1.56548, 1.56167, 1.55009, 1.54748, 1.53524, 1.53306, 1.52789, 1.52995, 1.51931, 1.51427, 1.51113, 1.51029, 1.50568, 1.50461, 1.50084, 1.49383, 1.49565, 1.49345, 1.50047, 1.51367, 1.54612, 1.5429, 1.49497, 1.46233, 1.46054, 1.46468, 1.51659, 1.53777, 1.50225, 1.48737, 1.51943, 1.51221, 1.43965, 1.45901, 1.44806, 1.44807, 1.44434, 1.43763, 1.43058, 1.42942, 1.42343, 1.42234, 1.41532, 1.41111, 1.4077, 1.4052, 1.40035, 1.39859, 1.39523, 1.39246, 1.39113, 1.38982, 1.38458, 1.38358, 1.38065, 1.37675, 1.37851, 1.37607, 1.37707, 1.37252, 1.36936, 1.36488, 1.36154, 1.3599, 1.35755, 1.35174, 1.35071, 1.34821, 1.34376, 1.34335, 1.36073, 1.35089, 1.33797, 1.37788, 1.46658, 1.55542, 1.61985, 1.61299, 1.46128, 1.30278, 1.33539, 1.33893, 1.31816, 1.3154, 1.31181, 1.31078, 1.30974, 1.30745, 1.30254, 
1.64481, 1.64224, 1.63905, 1.63887, 1.642, 1.637, 1.63416, 1.62604, 1.62326, 1.62021, 1.61022, 1.60774, 1.57108, 1.61468, 1.7027, 1.83875, 1.96258, 1.96719, 1.55783, 1.59062, 1.58523, 1.60206, 1.58227, 1.57761, 1.58251, 1.56508, 1.55289, 1.54853, 1.54495, 1.53823, 1.53422, 1.52976, 1.52476, 1.52124, 1.52249, 1.5113, 1.50996, 1.5066, 1.50299, 1.50086, 1.49909, 1.49544, 1.49382, 1.50692, 1.49065, 1.48834, 1.49303, 1.50394, 1.51341, 1.51217, 1.47195, 1.472, 1.54167, 1.56392, 1.48266, 1.49543, 1.515, 1.50463, 1.45744, 1.45975, 1.4511, 1.43832, 1.43436, 1.43037, 1.4262, 1.42218, 1.41632, 1.41293, 1.40934, 1.40987, 1.40957, 1.40296, 1.39902, 1.39718, 1.39569, 1.39439, 1.39414, 1.39016, 1.3856, 1.38194, 1.37788, 1.37767, 1.37558, 1.38136, 1.36862, 1.36966, 1.36788, 1.36467, 1.36397, 1.35786, 1.35336, 1.352, 1.34946, 1.3487, 1.34401, 1.35208, 1.34486, 1.35076, 1.31321, 1.41535, 1.50173, 1.59543, 1.59636, 1.63884, 1.49983, 1.30238, 1.33464, 1.32326, 1.31545, 1.31257, 1.30982, 1.30981, 1.31068, 1.32022, 1.3069, 
1.64409, 1.6423, 1.63979, 1.6377, 1.64167, 1.63033, 1.6268, 1.62137, 1.61543, 1.61149, 1.60993, 1.61029, 1.62133, 1.59841, 1.6619, 1.85201, 1.92932, 1.83897, 1.57332, 1.58133, 1.58215, 1.58593, 1.58966, 1.57884, 1.57088, 1.56184, 1.55189, 1.54585, 1.53856, 1.53662, 1.53095, 1.52763, 1.52431, 1.51957, 1.51683, 1.51693, 1.51016, 1.50404, 1.50066, 1.49891, 1.49606, 1.49212, 1.48936, 1.48706, 1.48473, 1.48121, 1.47964, 1.48836, 1.47591, 1.47904, 1.47753, 1.50014, 1.51775, 1.55469, 1.51542, 1.54709, 1.50736, 1.49904, 1.46723, 1.45107, 1.45071, 1.44214, 1.43584, 1.43219, 1.42823, 1.42502, 1.41976, 1.41424, 1.41219, 1.40994, 1.40582, 1.40429, 1.40084, 1.39944, 1.39805, 1.39521, 1.39193, 1.38976, 1.38731, 1.38333, 1.37925, 1.37586, 1.37484, 1.37132, 1.36937, 1.36748, 1.36567, 1.36381, 1.35913, 1.35638, 1.355, 1.3517, 1.35065, 1.34713, 1.34608, 1.34326, 1.34294, 1.35746, 1.35782, 1.37864, 1.49153, 1.52485, 1.64151, 1.64566, 1.49523, 1.3301, 1.33035, 1.33776, 1.31623, 1.3128, 1.31157, 1.31047, 1.30978, 1.30928, 1.31019, 
1.64403, 1.63924, 1.63481, 1.63287, 1.63117, 1.62389, 1.62197, 1.62718, 1.62087, 1.61143, 1.60727, 1.60586, 1.60556, 1.60051, 1.64691, 1.79034, 1.92102, 1.96967, 1.56613, 1.54825, 1.56446, 1.57109, 1.55719, 1.58037, 1.58253, 1.57557, 1.55542, 1.53864, 1.53402, 1.53321, 1.53072, 1.52804, 1.54437, 1.52201, 1.5158, 1.51291, 1.50782, 1.50271, 1.5003, 1.50183, 1.49403, 1.49334, 1.49011, 1.4846, 1.48124, 1.47822, 1.47541, 1.47458, 1.47488, 1.48838, 1.47614, 1.48271, 1.52893, 1.53013, 1.48925, 1.50265, 1.50376, 1.49804, 1.47061, 1.45188, 1.44457, 1.43679, 1.43793, 1.42977, 1.4235, 1.41947, 1.41724, 1.41329, 1.40971, 1.4066, 1.40842, 1.40463, 1.40258, 1.39942, 1.39479, 1.39209, 1.39239, 1.38539, 1.38428, 1.38232, 1.38065, 1.37757, 1.37795, 1.36794, 1.36969, 1.36522, 1.36257, 1.36139, 1.35762, 1.35228, 1.35125, 1.35348, 1.34798, 1.34421, 1.34575, 1.3431, 1.34191, 1.34465, 1.30624, 1.32318, 1.45137, 1.53303, 1.56092, 1.62179, 1.40991, 1.30945, 1.33245, 1.32618, 1.31592, 1.31184, 1.31153, 1.31631, 1.3092, 1.3085, 1.30763, 
1.64191, 1.63839, 1.63354, 1.63018, 1.628, 1.62361, 1.61964, 1.61545, 1.61065, 1.60599, 1.60361, 1.60516, 1.62435, 1.59979, 1.70218, 1.82488, 1.85851, 1.82425, 1.53363, 1.56122, 1.65451, 1.80906, 1.66109, 1.59943, 1.58674, 1.57611, 1.57633, 1.54571, 1.539, 1.54542, 1.54152, 1.5297, 1.52396, 1.52079, 1.51649, 1.51142, 1.50728, 1.50229, 1.49966, 1.49701, 1.49341, 1.49087, 1.48818, 1.48618, 1.48036, 1.47799, 1.47443, 1.47214, 1.47382, 1.48481, 1.47807, 1.50267, 1.53746, 1.51705, 1.49264, 1.46914, 1.49226, 1.4968, 1.44918, 1.4538, 1.45007, 1.44891, 1.42727, 1.42288, 1.41973, 1.41504, 1.41254, 1.4101, 1.40706, 1.40682, 1.40846, 1.40666, 1.4036, 1.39814, 1.39298, 1.39216, 1.38619, 1.38318, 1.38152, 1.37851, 1.37592, 1.37358, 1.37043, 1.37068, 1.3668, 1.36374, 1.36141, 1.3597, 1.35326, 1.35081, 1.35104, 1.35241, 1.34786, 1.34431, 1.34378, 1.3421, 1.34007, 1.34794, 1.34439, 1.31086, 1.45508, 1.56479, 1.64874, 1.65118, 1.52346, 1.32112, 1.32934, 1.32846, 1.31858, 1.34264, 1.3262, 1.3095, 1.30541, 1.30149, 1.30108, 
1.63975, 1.635, 1.63172, 1.62878, 1.62569, 1.62936, 1.62801, 1.61331, 1.60953, 1.60353, 1.60633, 1.61331, 1.59672, 1.58601, 1.68625, 1.78924, 2.00727, 1.99432, 1.5614, 1.5721, 1.58472, 1.61832, 1.62355, 1.59247, 1.58878, 1.56758, 1.56193, 1.54322, 1.55108, 1.54513, 1.52674, 1.53343, 1.52017, 1.51748, 1.51564, 1.51053, 1.50826, 1.50364, 1.49862, 1.49732, 1.49089, 1.48769, 1.48455, 1.48126, 1.47885, 1.47531, 1.47319, 1.47068, 1.47114, 1.47851, 1.47885, 1.49231, 1.5245, 1.5238, 1.47938, 1.46562, 1.49556, 1.50181, 1.47369, 1.44121, 1.44099, 1.44481, 1.42327, 1.41917, 1.41581, 1.41222, 1.41046, 1.40916, 1.40846, 1.40665, 1.40514, 1.40051, 1.39966, 1.39325, 1.389, 1.39161, 1.38437, 1.38139, 1.37965, 1.37697, 1.37458, 1.37221, 1.3684, 1.3674, 1.36376, 1.36344, 1.36081, 1.35771, 1.35611, 1.3549, 1.3544, 1.35034, 1.34988, 1.34453, 1.3448, 1.34117, 1.34063, 1.3427, 1.34268, 1.36733, 1.44379, 1.54757, 1.66334, 1.71612, 1.47484, 1.31702, 1.33693, 1.3282, 1.317, 1.30967, 1.30917, 1.30745, 1.30516, 1.30442, 1.33586, 
1.63144, 1.62807, 1.62664, 1.62114, 1.61707, 1.61558, 1.61142, 1.60957, 1.60489, 1.60523, 1.59692, 1.59438, 1.59389, 1.59336, 1.69976, 1.80307, 1.87774, 1.83161, 1.54816, 1.56381, 1.563, 1.57164, 1.57427, 1.56852, 1.56969, 1.56058, 1.55102, 1.54743, 1.52699, 1.52075, 1.51847, 1.5172, 1.51259, 1.51037, 1.50542, 1.50549, 1.50398, 1.49939, 1.49596, 1.49044, 1.4854, 1.48091, 1.47784, 1.47528, 1.47154, 1.46879, 1.46501, 1.46249, 1.47241, 1.46721, 1.48223, 1.49334, 1.51619, 1.52634, 1.50412, 1.47922, 1.48543, 1.48239, 1.47821, 1.4381, 1.43869, 1.44054, 1.42596, 1.41764, 1.42935, 1.40995, 1.40911, 1.40659, 1.40409, 1.40185, 1.40168, 1.39755, 1.39242, 1.38801, 1.38302, 1.38365, 1.37806, 1.37507, 1.37392, 1.37615, 1.37568, 1.37442, 1.37302, 1.36415, 1.36335, 1.35845, 1.35585, 1.3522, 1.35117, 1.3503, 1.34956, 1.34825, 1.34346, 1.34434, 1.3404, 1.33609, 1.33523, 1.34434, 1.34755, 1.34657, 1.41922, 1.50255, 1.62388, 1.66835, 1.38274, 1.27224, 1.31681, 1.32597, 1.30828, 1.30302, 1.31686, 1.30029, 1.29982, 1.29526, 1.29257, 
1.62786, 1.62514, 1.62975, 1.62005, 1.61941, 1.61741, 1.61119, 1.60968, 1.60412, 1.59948, 1.59592, 1.59538, 1.59178, 1.5635, 1.66888, 1.80329, 2.06985, 1.69602, 1.54135, 1.56551, 1.56576, 1.55974, 1.56117, 1.56122, 1.55003, 1.5471, 1.53774, 1.53309, 1.52864, 1.52308, 1.52116, 1.51656, 1.51309, 1.50974, 1.50537, 1.50128, 1.49849, 1.49551, 1.49317, 1.48914, 1.48353, 1.47939, 1.47328, 1.46975, 1.46887, 1.46752, 1.46488, 1.46491, 1.46258, 1.4776, 1.46941, 1.50025, 1.52418, 1.51206, 1.50224, 1.46729, 1.48008, 1.49123, 1.48673, 1.44449, 1.44185, 1.4301, 1.42979, 1.42054, 1.41559, 1.41291, 1.40804, 1.40616, 1.40382, 1.39825, 1.39574, 1.39169, 1.39139, 1.38573, 1.38137, 1.37811, 1.37536, 1.37162, 1.37124, 1.37353, 1.37292, 1.37151, 1.36924, 1.36535, 1.36075, 1.35305, 1.35074, 1.34669, 1.34565, 1.3468, 1.34452, 1.34316, 1.3405, 1.35125, 1.33469, 1.33361, 1.33211, 1.34673, 1.33662, 1.33852, 1.40561, 1.55529, 1.56925, 1.69923, 1.56604, 1.29629, 1.31606, 1.32595, 1.30644, 1.30527, 1.302, 1.30489, 1.29957, 1.29683, 1.29551, 
1.62657, 1.62483, 1.62212, 1.61898, 1.61603, 1.6149, 1.61236, 1.60862, 1.60267, 1.5996, 1.59762, 1.59428, 1.59822, 1.56623, 1.69586, 1.80668, 1.79189, 1.78566, 1.54541, 1.53431, 1.56259, 1.55396, 1.55278, 1.54979, 1.56111, 1.54542, 1.54096, 1.53533, 1.52964, 1.52588, 1.52334, 1.51679, 1.51237, 1.50558, 1.50319, 1.5017, 1.4974, 1.49411, 1.49156, 1.48818, 1.48773, 1.47885, 1.47283, 1.47124, 1.46976, 1.46625, 1.46511, 1.4622, 1.46774, 1.4661, 1.47168, 1.51983, 1.50578, 1.49876, 1.48878, 1.47083, 1.48164, 1.50163, 1.45019, 1.44403, 1.44172, 1.43343, 1.42356, 1.42339, 1.41303, 1.41241, 1.40894, 1.40562, 1.40549, 1.41014, 1.39581, 1.39164, 1.38825, 1.38605, 1.38398, 1.38105, 1.3851, 1.37453, 1.37576, 1.37633, 1.37402, 1.36945, 1.36844, 1.3616, 1.35853, 1.35247, 1.35043, 1.3456, 1.34763, 1.34647, 1.34462, 1.34306, 1.34355, 1.34292, 1.33356, 1.33296, 1.33313, 1.34124, 1.33353, 1.31773, 1.39887, 1.45845, 1.62865, 1.64744, 1.52487, 1.28094, 1.31921, 1.30692, 1.30849, 1.30714, 1.3055, 1.30552, 1.30087, 1.30447, 1.29635, 
1.62376, 1.62002, 1.62003, 1.61996, 1.61678, 1.61535, 1.61101, 1.61312, 1.60423, 1.59933, 1.59515, 1.59919, 1.59206, 1.55816, 1.71062, 1.83383, 1.89732, 1.7383, 1.72746, 1.56356, 1.57452, 1.56897, 1.5587, 1.55841, 1.55123, 1.54437, 1.54137, 1.53383, 1.52972, 1.52703, 1.52262, 1.5192, 1.5105, 1.5091, 1.50372, 1.50275, 1.49748, 1.49456, 1.48998, 1.49384, 1.483, 1.48112, 1.47461, 1.47198, 1.47025, 1.46848, 1.47153, 1.46385, 1.46289, 1.46416, 1.46819, 1.48154, 1.50017, 1.53755, 1.48626, 1.46903, 1.47339, 1.48264, 1.4685, 1.44861, 1.44726, 1.42998, 1.41948, 1.41312, 1.40929, 1.40769, 1.40563, 1.40179, 1.40038, 1.39866, 1.39866, 1.39262, 1.39138, 1.38653, 1.38348, 1.38163, 1.38078, 1.37432, 1.37185, 1.36933, 1.36665, 1.36193, 1.3582, 1.354, 1.35236, 1.3486, 1.35016, 1.3447, 1.34503, 1.34699, 1.34094, 1.33836, 1.33493, 1.3335, 1.33279, 1.33057, 1.33683, 1.3274, 1.34406, 1.30764, 1.38127, 1.54237, 1.66435, 1.72073, 1.48525, 1.28871, 1.31158, 1.31655, 1.31341, 1.30997, 1.30294, 1.3026, 1.30584, 1.29782, 1.29577, 
1.62632, 1.62128, 1.61776, 1.61665, 1.61345, 1.61089, 1.60898, 1.6047, 1.61254, 1.59544, 1.59244, 1.589, 1.59215, 1.5961, 1.64789, 1.77882, 1.81206, 1.71172, 1.77918, 1.56407, 1.58171, 1.55883, 1.56194, 1.5511, 1.54808, 1.53986, 1.5349, 1.54025, 1.52502, 1.52274, 1.52678, 1.51616, 1.51485, 1.51039, 1.50599, 1.50286, 1.49852, 1.49552, 1.49127, 1.48548, 1.48338, 1.48096, 1.47932, 1.47428, 1.47155, 1.4684, 1.46436, 1.46403, 1.46466, 1.48141, 1.47514, 1.48695, 1.49885, 1.48948, 1.50196, 1.47176, 1.46073, 1.47324, 1.48994, 1.44131, 1.44771, 1.43112, 1.41252, 1.41067, 1.41013, 1.40733, 1.40581, 1.40499, 1.40213, 1.39588, 1.39208, 1.39186, 1.39601, 1.38488, 1.38264, 1.38157, 1.37555, 1.37757, 1.36989, 1.36471, 1.36209, 1.35965, 1.35419, 1.35154, 1.34789, 1.34497, 1.34422, 1.34191, 1.3436, 1.34269, 1.34047, 1.35102, 1.33703, 1.33581, 1.33361, 1.32971, 1.32932, 1.34039, 1.32916, 1.31902, 1.37053, 1.51131, 1.7012, 1.71191, 1.46379, 1.26677, 1.30202, 1.32289, 1.30244, 1.30217, 1.31218, 1.30042, 1.29897, 1.29487, 1.29564, 
1.62123, 1.6168, 1.61322, 1.61002, 1.60805, 1.60492, 1.62273, 1.5978, 1.5921, 1.58751, 1.58563, 1.57849, 1.5796, 1.57731, 1.66691, 1.74587, 1.84095, 2.13824, 1.62467, 1.56496, 1.56252, 1.54997, 1.56141, 1.54158, 1.53874, 1.52795, 1.5239, 1.51702, 1.51399, 1.51429, 1.51185, 1.51244, 1.50884, 1.50583, 1.5034, 1.49367, 1.49062, 1.48823, 1.48321, 1.47998, 1.47583, 1.4748, 1.47005, 1.47206, 1.46344, 1.46793, 1.45853, 1.4581, 1.46728, 1.47204, 1.47308, 1.46236, 1.49534, 1.47966, 1.47042, 1.46022, 1.4675, 1.4792, 1.46599, 1.4247, 1.42152, 1.42642, 1.40988, 1.40375, 1.40284, 1.39981, 1.39928, 1.39871, 1.39558, 1.39095, 1.3862, 1.38308, 1.38897, 1.3784, 1.37697, 1.37338, 1.37028, 1.36604, 1.36532, 1.36109, 1.36033, 1.35124, 1.34837, 1.34366, 1.34079, 1.344, 1.33721, 1.3377, 1.33834, 1.33907, 1.33639, 1.33605, 1.33182, 1.32962, 1.3259, 1.32411, 1.32163, 1.32184, 1.32281, 1.31217, 1.3607, 1.50401, 1.53797, 1.68718, 1.47548, 1.28464, 1.2983, 1.29858, 1.29513, 1.29606, 1.29631, 1.29026, 1.29082, 1.28629, 1.28231, 
1.62058, 1.61767, 1.61358, 1.60679, 1.60384, 1.60124, 1.59554, 1.59324, 1.58888, 1.58692, 1.57786, 1.57644, 1.58564, 1.57908, 1.62094, 1.75619, 1.8871, 1.72634, 1.62386, 1.55622, 1.56817, 1.5439, 1.54083, 1.53566, 1.53296, 1.52433, 1.51719, 1.51101, 1.50884, 1.50431, 1.50339, 1.50263, 1.50055, 1.49957, 1.49635, 1.49357, 1.48848, 1.48453, 1.48137, 1.47833, 1.47476, 1.46793, 1.4626, 1.46211, 1.45984, 1.45554, 1.45114, 1.4497, 1.45186, 1.45341, 1.45467, 1.46389, 1.48477, 1.47133, 1.48167, 1.45551, 1.46151, 1.46505, 1.46788, 1.43083, 1.42487, 1.41444, 1.40526, 1.4123, 1.39874, 1.39525, 1.39271, 1.3916, 1.39094, 1.38752, 1.3829, 1.37874, 1.37305, 1.36789, 1.36662, 1.36588, 1.36417, 1.36037, 1.36142, 1.35995, 1.35135, 1.35075, 1.34711, 1.34425, 1.33983, 1.33641, 1.33208, 1.33659, 1.33317, 1.33323, 1.3324, 1.32826, 1.32681, 1.32402, 1.32223, 1.31607, 1.31221, 1.31333, 1.32955, 1.27741, 1.37642, 1.48538, 1.61751, 1.61319, 1.44545, 1.26162, 1.29498, 1.3046, 1.28935, 1.28903, 1.28666, 1.28752, 1.28389, 1.28399, 1.27776, 
1.61614, 1.6165, 1.61154, 1.60635, 1.60112, 1.60985, 1.59532, 1.60439, 1.58874, 1.58516, 1.58158, 1.57847, 1.58559, 1.56605, 1.59294, 1.69908, 1.86465, 1.92797, 1.52249, 1.55486, 1.56095, 1.55138, 1.53827, 1.5343, 1.5307, 1.52146, 1.52665, 1.52424, 1.51408, 1.50946, 1.50405, 1.50256, 1.49874, 1.49562, 1.49359, 1.48956, 1.48313, 1.4818, 1.47648, 1.47448, 1.47124, 1.46896, 1.46399, 1.46048, 1.45791, 1.45306, 1.45035, 1.44756, 1.45457, 1.44922, 1.4612, 1.45873, 1.46629, 1.47183, 1.47504, 1.44907, 1.47977, 1.47496, 1.45243, 1.44468, 1.42342, 1.413, 1.40335, 1.3975, 1.39542, 1.39393, 1.39383, 1.3887, 1.38649, 1.3841, 1.38124, 1.37779, 1.37787, 1.37418, 1.3714, 1.3676, 1.36164, 1.36192, 1.35786, 1.35755, 1.35535, 1.35134, 1.3482, 1.34364, 1.33997, 1.33464, 1.33628, 1.33436, 1.33363, 1.3357, 1.3314, 1.33356, 1.32891, 1.32616, 1.32911, 1.32972, 1.32615, 1.31787, 1.31935, 1.30678, 1.38638, 1.51316, 1.5452, 1.6494, 1.51698, 1.27744, 1.30576, 1.30601, 1.29439, 1.29412, 1.28884, 1.28526, 1.28167, 1.28161, 1.28199, 
1.61811, 1.6136, 1.60832, 1.60645, 1.60275, 1.59868, 1.59111, 1.59032, 1.58646, 1.58584, 1.58159, 1.59007, 1.58627, 1.57561, 1.57537, 1.66997, 1.83025, 2.35985, 1.53728, 1.55178, 1.54734, 1.54271, 1.53682, 1.53189, 1.53177, 1.54214, 1.52072, 1.51958, 1.51119, 1.50752, 1.50307, 1.49925, 1.49518, 1.49423, 1.49219, 1.48986, 1.4866, 1.48134, 1.47808, 1.47463, 1.47133, 1.46749, 1.46468, 1.45995, 1.45686, 1.45427, 1.45007, 1.44706, 1.44972, 1.45598, 1.45834, 1.45739, 1.46202, 1.46282, 1.45843, 1.4545, 1.46832, 1.45941, 1.47015, 1.44451, 1.42137, 1.41983, 1.40657, 1.40246, 1.41295, 1.3997, 1.40196, 1.39304, 1.38987, 1.38694, 1.38441, 1.37666, 1.37601, 1.36769, 1.36636, 1.36288, 1.36139, 1.35727, 1.35341, 1.35351, 1.35173, 1.34776, 1.34806, 1.34742, 1.34299, 1.33711, 1.33574, 1.33453, 1.3326, 1.33031, 1.32909, 1.32877, 1.32643, 1.32557, 1.32058, 1.32291, 1.33708, 1.33958, 1.33657, 1.30036, 1.36098, 1.42916, 1.53829, 1.68828, 1.48647, 1.30233, 1.29895, 1.3081, 1.292, 1.3191, 1.28628, 1.2865, 1.28634, 1.28407, 1.28085, 
1.61621, 1.61202, 1.61016, 1.60724, 1.5984, 1.594, 1.58912, 1.58661, 1.59732, 1.58187, 1.58185, 1.58403, 1.5855, 1.59853, 1.62047, 1.69309, 1.83736, 1.93758, 1.67577, 1.5234, 1.55047, 1.54848, 1.53413, 1.53422, 1.52801, 1.52981, 1.52212, 1.52374, 1.51241, 1.50534, 1.50105, 1.49869, 1.49632, 1.49453, 1.49327, 1.4919, 1.48578, 1.47771, 1.47629, 1.47188, 1.46806, 1.46468, 1.4609, 1.45856, 1.45614, 1.45232, 1.44887, 1.44607, 1.44496, 1.45724, 1.45842, 1.4589, 1.46826, 1.46881, 1.46847, 1.45215, 1.46052, 1.46077, 1.46203, 1.45167, 1.42643, 1.41574, 1.4098, 1.39743, 1.39276, 1.38894, 1.38792, 1.38763, 1.38562, 1.3833, 1.38155, 1.38229, 1.37319, 1.36973, 1.36788, 1.36357, 1.35996, 1.3606, 1.35576, 1.35504, 1.35057, 1.35026, 1.34766, 1.34799, 1.34566, 1.34205, 1.33989, 1.33812, 1.33447, 1.33099, 1.3291, 1.32874, 1.32623, 1.3261, 1.32437, 1.34329, 1.32226, 1.33681, 1.33322, 1.32246, 1.31407, 1.42782, 1.5966, 1.64382, 1.52772, 1.28232, 1.30951, 1.32237, 1.29848, 1.29433, 1.29016, 1.28919, 1.29552, 1.28474, 1.27812, 
1.6012, 1.59521, 1.59921, 1.58902, 1.58626, 1.58421, 1.57858, 1.57611, 1.57562, 1.57086, 1.56559, 1.56516, 1.56522, 1.56357, 1.55635, 1.65915, 1.83368, 1.90395, 1.53085, 1.52975, 1.54407, 1.5286, 1.52386, 1.5164, 1.51305, 1.51631, 1.50971, 1.50663, 1.51076, 1.50029, 1.4933, 1.49077, 1.48596, 1.48161, 1.47795, 1.47759, 1.47479, 1.46814, 1.46441, 1.46108, 1.4568, 1.4543, 1.45282, 1.45047, 1.44896, 1.45619, 1.44118, 1.47138, 1.4367, 1.45092, 1.44428, 1.45175, 1.44913, 1.45148, 1.46713, 1.46052, 1.47132, 1.48207, 1.44771, 1.44008, 1.42243, 1.40718, 1.39837, 1.38636, 1.3916, 1.38514, 1.38239, 1.3819, 1.38155, 1.37757, 1.39717, 1.36894, 1.37037, 1.36465, 1.35977, 1.35853, 1.35593, 1.3592, 1.35124, 1.34662, 1.3512, 1.33923, 1.34328, 1.33486, 1.33463, 1.33251, 1.32822, 1.32879, 1.32152, 1.32406, 1.31953, 1.32015, 1.31897, 1.31854, 1.32353, 1.3216, 1.32636, 1.30912, 1.32091, 1.31424, 1.29269, 1.47287, 1.50446, 1.73854, 1.36778, 1.27398, 1.29888, 1.30843, 1.28901, 1.28643, 1.27994, 1.27868, 1.27723, 1.27773, 1.27037, 
1.58701, 1.58297, 1.58138, 1.57774, 1.57443, 1.56806, 1.56247, 1.55808, 1.55607, 1.55032, 1.54917, 1.54768, 1.56121, 1.55067, 1.51384, 1.66958, 1.85843, 1.93377, 1.51927, 1.50671, 1.51334, 1.51287, 1.50304, 1.49925, 1.49538, 1.49544, 1.49337, 1.4931, 1.4896, 1.48697, 1.48303, 1.47977, 1.47736, 1.46815, 1.47123, 1.45884, 1.45595, 1.45374, 1.45442, 1.44554, 1.44469, 1.44503, 1.43761, 1.43819, 1.42938, 1.42887, 1.42379, 1.41999, 1.42609, 1.41957, 1.44026, 1.44214, 1.44013, 1.448, 1.4443, 1.43033, 1.42887, 1.43206, 1.43747, 1.40818, 1.3916, 1.38658, 1.38859, 1.37436, 1.36707, 1.36429, 1.36047, 1.36378, 1.3696, 1.36856, 1.36137, 1.34877, 1.34757, 1.34431, 1.34047, 1.33765, 1.33849, 1.33161, 1.33109, 1.33076, 1.32358, 1.32035, 1.31576, 1.31328, 1.31073, 1.3179, 1.3175, 1.30261, 1.30008, 1.29901, 1.29717, 1.30109, 1.3022, 1.30095, 1.29473, 1.29196, 1.28786, 1.28338, 1.29988, 1.28738, 1.3064, 1.37877, 1.49737, 1.83361, 1.4477, 1.27382, 1.25351, 1.2843, 1.27713, 1.27372, 1.2609, 1.25718, 1.25242, 1.25051, 1.24677, 
1.59166, 1.59257, 1.59881, 1.59481, 1.5926, 1.5792, 1.57328, 1.57213, 1.57303, 1.5754, 1.56447, 1.56574, 1.57756, 1.56719, 1.54081, 1.62083, 1.82497, 1.92881, 1.48686, 1.53027, 1.54111, 1.53703, 1.51575, 1.50897, 1.5139, 1.50839, 1.50698, 1.50016, 1.49814, 1.49383, 1.49396, 1.49132, 1.48684, 1.4791, 1.47312, 1.46954, 1.46874, 1.47022, 1.46941, 1.4637, 1.45721, 1.45174, 1.44433, 1.44343, 1.44031, 1.44776, 1.43751, 1.43328, 1.42928, 1.42704, 1.4346, 1.44059, 1.45378, 1.45029, 1.44812, 1.44496, 1.44435, 1.46126, 1.45293, 1.42797, 1.41588, 1.39665, 1.39707, 1.40102, 1.3856, 1.3759, 1.372, 1.37097, 1.37145, 1.37084, 1.35889, 1.35693, 1.35859, 1.35319, 1.35047, 1.34749, 1.3466, 1.34769, 1.34388, 1.341, 1.3369, 1.32992, 1.32845, 1.32713, 1.32042, 1.31864, 1.31711, 1.31268, 1.31279, 1.31267, 1.30831, 1.30405, 1.30861, 1.31168, 1.29831, 1.29613, 1.29266, 1.29236, 1.31181, 1.31929, 1.26793, 1.41509, 1.4909, 1.50536, 1.54311, 1.27024, 1.2826, 1.30297, 1.27475, 1.2734, 1.26752, 1.26453, 1.26693, 1.26662, 1.27004, 
1.60378, 1.60165, 1.6005, 1.59723, 1.59957, 1.5932, 1.58504, 1.58089, 1.57482, 1.57861, 1.56903, 1.56856, 1.57464, 1.57595, 1.55442, 1.58009, 1.76486, 1.77807, 1.56095, 1.53254, 1.54394, 1.528, 1.52281, 1.5272, 1.51743, 1.51633, 1.51292, 1.50777, 1.50268, 1.53775, 1.51036, 1.49022, 1.48825, 1.48608, 1.49203, 1.47992, 1.47286, 1.4757, 1.47576, 1.46156, 1.45863, 1.45627, 1.4537, 1.44738, 1.44434, 1.44321, 1.45254, 1.43673, 1.43489, 1.43877, 1.45438, 1.45998, 1.45679, 1.45071, 1.45868, 1.46605, 1.43784, 1.43859, 1.44, 1.42974, 1.42629, 1.409, 1.40043, 1.3934, 1.39055, 1.38564, 1.38173, 1.38143, 1.37621, 1.3954, 1.37069, 1.37006, 1.36689, 1.36165, 1.35819, 1.35746, 1.35445, 1.35439, 1.34843, 1.34779, 1.34399, 1.34675, 1.3485, 1.34679, 1.33338, 1.32891, 1.32662, 1.33315, 1.32918, 1.32156, 1.34386, 1.31617, 1.31525, 1.31454, 1.32978, 1.3269, 1.30673, 1.32561, 1.31911, 1.30902, 1.29681, 1.39319, 1.48997, 1.48273, 1.48843, 1.2699, 1.28976, 1.30432, 1.28485, 1.28298, 1.27916, 1.27776, 1.27649, 1.27128, 1.26842, 
1.60204, 1.59831, 1.59501, 1.59276, 1.58854, 1.58486, 1.57488, 1.57602, 1.56934, 1.56632, 1.56542, 1.56477, 1.5819, 1.56409, 1.5511, 1.63983, 1.97558, 2.01675, 1.54361, 1.53367, 1.53413, 1.53173, 1.50769, 1.51991, 1.51918, 1.51218, 1.50832, 1.50004, 1.49616, 1.4767, 1.48565, 1.48632, 1.48683, 1.48502, 1.51105, 1.47775, 1.4728, 1.46796, 1.46229, 1.45744, 1.45341, 1.45378, 1.44792, 1.44413, 1.43991, 1.43868, 1.43785, 1.43553, 1.43502, 1.44235, 1.44259, 1.44038, 1.46785, 1.44661, 1.43709, 1.43765, 1.43725, 1.44429, 1.44802, 1.42085, 1.43157, 1.41255, 1.39823, 1.38731, 1.3852, 1.38281, 1.37902, 1.37496, 1.37198, 1.3699, 1.38867, 1.37414, 1.36368, 1.36086, 1.35753, 1.35587, 1.35485, 1.35372, 1.3468, 1.34071, 1.33979, 1.33687, 1.33407, 1.33316, 1.33417, 1.3282, 1.32397, 1.32521, 1.32081, 1.3186, 1.31626, 1.31281, 1.31228, 1.31233, 1.30824, 1.31706, 1.30737, 1.3194, 1.31288, 1.30353, 1.29273, 1.44721, 1.55899, 1.58272, 1.6825, 1.51811, 1.49641, 1.29791, 1.29227, 1.28345, 1.28185, 1.29974, 1.27761, 1.28449, 1.27421, 
1.59748, 1.59481, 1.59487, 1.59535, 1.59027, 1.58517, 1.57584, 1.57045, 1.57522, 1.5688, 1.57213, 1.5661, 1.55859, 1.56817, 1.55613, 1.61745, 1.80426, 2.14103, 1.52384, 1.53886, 1.54044, 1.52349, 1.52389, 1.51727, 1.51946, 1.5073, 1.50398, 1.50063, 1.49242, 1.48579, 1.48461, 1.48498, 1.48236, 1.48218, 1.47749, 1.47577, 1.47101, 1.4685, 1.46414, 1.45474, 1.45127, 1.44934, 1.44917, 1.44843, 1.44019, 1.43917, 1.43799, 1.43448, 1.44775, 1.44108, 1.45009, 1.44196, 1.44057, 1.44574, 1.44371, 1.44517, 1.45, 1.4421, 1.42962, 1.42736, 1.43004, 1.4026, 1.39537, 1.39159, 1.38458, 1.37956, 1.37445, 1.37092, 1.37754, 1.36813, 1.36471, 1.36258, 1.36407, 1.36183, 1.35689, 1.35454, 1.35247, 1.35012, 1.34704, 1.34244, 1.33941, 1.33676, 1.33707, 1.34383, 1.33439, 1.33345, 1.33152, 1.32338, 1.3208, 1.31933, 1.31588, 1.3165, 1.31546, 1.31567, 1.3095, 1.30571, 1.30971, 1.29864, 1.31285, 1.30011, 1.27989, 1.41251, 1.52367, 1.70645, 1.77189, 1.50257, 1.50658, 1.39891, 1.35982, 1.27527, 1.2737, 1.27792, 1.27116, 1.27582, 1.26095, 
1.58654, 1.58604, 1.58658, 1.5879, 1.58362, 1.57815, 1.57144, 1.56931, 1.56825, 1.56782, 1.56022, 1.56888, 1.55547, 1.56282, 1.57181, 1.61626, 1.70835, 2.18246, 1.60651, 1.50252, 1.52875, 1.51743, 1.51388, 1.51236, 1.5086, 1.51071, 1.51721, 1.49626, 1.49353, 1.48856, 1.48615, 1.48208, 1.4797, 1.47476, 1.47221, 1.4685, 1.46653, 1.47168, 1.45569, 1.4515, 1.45031, 1.44847, 1.44561, 1.44602, 1.44631, 1.43432, 1.43446, 1.43286, 1.43146, 1.4344, 1.4375, 1.44707, 1.4474, 1.43783, 1.43615, 1.44378, 1.43048, 1.43676, 1.42649, 1.42407, 1.41332, 1.40717, 1.40576, 1.38509, 1.3822, 1.37823, 1.38176, 1.36733, 1.3666, 1.36215, 1.36191, 1.35832, 1.35508, 1.35283, 1.3525, 1.3487, 1.3467, 1.34709, 1.34484, 1.33839, 1.33645, 1.334, 1.33567, 1.33494, 1.33252, 1.32789, 1.32325, 1.32041, 1.31429, 1.31192, 1.3126, 1.30906, 1.31309, 1.30822, 1.305, 1.29853, 1.29987, 1.29641, 1.29996, 1.29245, 1.28638, 1.37918, 1.51285, 1.68722, 1.51035, 1.4676, 1.43604, 1.36243, 1.30296, 1.27434, 1.26914, 1.27043, 1.26754, 1.26935, 1.25722, 
1.58523, 1.58119, 1.57676, 1.58104, 1.57215, 1.56659, 1.563, 1.56094, 1.55817, 1.55775, 1.55815, 1.57218, 1.55895, 1.56141, 1.55378, 1.69406, 1.79329, 1.7164, 1.55483, 1.49416, 1.52782, 1.51108, 1.50444, 1.52192, 1.51444, 1.51403, 1.49727, 1.49268, 1.48771, 1.4832, 1.47811, 1.47287, 1.47329, 1.46879, 1.46156, 1.4593, 1.45804, 1.45748, 1.45073, 1.44733, 1.4436, 1.44133, 1.43974, 1.43829, 1.44151, 1.4401, 1.43689, 1.42764, 1.44183, 1.44888, 1.43462, 1.44494, 1.44395, 1.43385, 1.4411, 1.42989, 1.42576, 1.43569, 1.42632, 1.41618, 1.39714, 1.40541, 1.39052, 1.37853, 1.36687, 1.36529, 1.36398, 1.36427, 1.3635, 1.36193, 1.35915, 1.35434, 1.35204, 1.35312, 1.3487, 1.35416, 1.35019, 1.33923, 1.33628, 1.33657, 1.3321, 1.32885, 1.32565, 1.32506, 1.32288, 1.32402, 1.31355, 1.31185, 1.30635, 1.30522, 1.30224, 1.30191, 1.29875, 1.3016, 1.29162, 1.2897, 1.28479, 1.28126, 1.28135, 1.28532, 1.26904, 1.34548, 1.47776, 1.72772, 1.61281, 1.41772, 1.34539, 1.29254, 1.26755, 1.26133, 1.27412, 1.26413, 1.27171, 1.27168, 1.25714, 
1.58537, 1.58457, 1.58314, 1.57937, 1.57587, 1.57036, 1.56579, 1.56106, 1.56792, 1.55214, 1.55326, 1.54798, 1.54355, 1.54442, 1.53297, 1.63235, 1.60618, 1.70959, 1.75205, 1.51132, 1.51532, 1.50562, 1.50166, 1.49973, 1.5015, 1.4976, 1.4984, 1.49349, 1.49023, 1.48784, 1.48245, 1.47622, 1.47225, 1.46797, 1.46088, 1.45707, 1.45425, 1.45076, 1.45142, 1.44679, 1.44364, 1.44131, 1.4404, 1.44756, 1.44305, 1.43064, 1.42739, 1.42604, 1.43823, 1.43018, 1.44318, 1.43387, 1.43365, 1.43328, 1.43152, 1.43046, 1.42903, 1.42646, 1.41992, 1.41325, 1.40062, 1.38825, 1.3823, 1.36843, 1.36724, 1.3697, 1.35812, 1.35846, 1.35528, 1.35719, 1.35401, 1.35134, 1.3516, 1.35114, 1.34461, 1.34241, 1.34034, 1.33682, 1.33008, 1.32348, 1.32191, 1.31949, 1.31712, 1.32074, 1.32159, 1.31717, 1.31706, 1.31493, 1.31002, 1.30736, 1.30558, 1.30323, 1.30165, 1.29948, 1.29296, 1.2912, 1.28786, 1.29475, 1.28632, 1.28517, 1.27871, 1.36209, 1.57188, 1.54004, 1.50009, 1.36278, 1.26123, 1.27407, 1.26077, 1.28175, 1.28618, 1.29453, 1.25877, 1.26004, 1.25121, 
1.58627, 1.58237, 1.58064, 1.58083, 1.57228, 1.57141, 1.56528, 1.56202, 1.56189, 1.57432, 1.55234, 1.55444, 1.55542, 1.56119, 1.55802, 1.59606, 1.79644, 1.70654, 1.79663, 1.51998, 1.52261, 1.51004, 1.51612, 1.50726, 1.51302, 1.49898, 1.49635, 1.4912, 1.49546, 1.48646, 1.48319, 1.47994, 1.47904, 1.47213, 1.46968, 1.46307, 1.45963, 1.46026, 1.45706, 1.45439, 1.4489, 1.44659, 1.44332, 1.43996, 1.45252, 1.44296, 1.43137, 1.43811, 1.42656, 1.42636, 1.43754, 1.43061, 1.43411, 1.45386, 1.44281, 1.43033, 1.43597, 1.41442, 1.41901, 1.41399, 1.39962, 1.39221, 1.38046, 1.3699, 1.3671, 1.36487, 1.36542, 1.3679, 1.36405, 1.35785, 1.35683, 1.35594, 1.35422, 1.35191, 1.34734, 1.34892, 1.34168, 1.34359, 1.33117, 1.32653, 1.32464, 1.32365, 1.32664, 1.32353, 1.31983, 1.31909, 1.31549, 1.31552, 1.32954, 1.31182, 1.31042, 1.30685, 1.31002, 1.30402, 1.33073, 1.29861, 1.2957, 1.30225, 1.29684, 1.29837, 1.29848, 1.33108, 1.36737, 1.613, 1.60953, 1.23837, 1.24353, 1.27301, 1.28606, 1.27781, 1.26881, 1.26108, 1.25809, 1.25691, 1.25027, 
1.58187, 1.57962, 1.57323, 1.57275, 1.56679, 1.56373, 1.55592, 1.55338, 1.55113, 1.56041, 1.54472, 1.54036, 1.54548, 1.54177, 1.53881, 1.64866, 1.71268, 1.71938, 1.73506, 1.50085, 1.50331, 1.51634, 1.50339, 1.52336, 1.52005, 1.49769, 1.49349, 1.48812, 1.48577, 1.47572, 1.46947, 1.48109, 1.49103, 1.46329, 1.46758, 1.45407, 1.44944, 1.44557, 1.44212, 1.43997, 1.43781, 1.43442, 1.43309, 1.46163, 1.4278, 1.42317, 1.41884, 1.42022, 1.42208, 1.41993, 1.42314, 1.42602, 1.43967, 1.43467, 1.43482, 1.42628, 1.41666, 1.4171, 1.41115, 1.41914, 1.38908, 1.38887, 1.38258, 1.37917, 1.36571, 1.36447, 1.35972, 1.36257, 1.35327, 1.36129, 1.35756, 1.3514, 1.3488, 1.34504, 1.34314, 1.33736, 1.33529, 1.34103, 1.32932, 1.33617, 1.3411, 1.32573, 1.31642, 1.31517, 1.31134, 1.31206, 1.31184, 1.3092, 1.30492, 1.30683, 1.30218, 1.29927, 1.29941, 1.29916, 1.31492, 1.30374, 1.30507, 1.28913, 1.29901, 1.28557, 1.30536, 1.25069, 1.44078, 1.80201, 1.7988, 1.31128, 1.28918, 1.26787, 1.2611, 1.2644, 1.2553, 1.26419, 1.24692, 1.24609, 1.2474, 
