1.65543, 1.66398, 1.66863, 1.66864, 1.62826, 1.63595, 1.62202, 1.63396, 1.61679, 1.61749, 1.616, 1.61098, 1.62309, 1.61083, 1.60744, 1.61009, 1.61141, 1.61591, 1.63634, 1.61651, 1.60515, 1.6261, 1.64095, 1.67117, 1.65595, 1.65486, 1.66775, 1.68711, 1.68726, 1.67952, 1.67224, 1.64305, 1.62332, 1.60996, 1.57844, 1.57527, 1.56138, 1.58004, 1.57588, 1.57813, 1.56536, 1.55571, 1.55443, 1.56251, 1.54703, 1.54545, 1.54526, 1.55255, 1.55344, 1.56108, 1.55643, 1.56225, 1.54156, 1.54382, 1.5471, 1.52765, 1.54355, 1.53031, 1.52249, 1.52299, 1.52019, 1.51916, 1.51631, 1.51065, 1.51303, 1.51094, 1.50933, 1.50792, 1.50756, 1.51319, 1.50254, 1.50208, 1.50068, 1.49639, 1.49571, 1.49528, 1.49279, 1.49172, 1.49101, 1.48939, 1.49168, 1.48446, 1.50166, 1.48272, 1.50309, 1.47978, 1.48143, 1.48016, 1.47802, 1.48423, 1.48498, 1.48177, 1.47099, 1.47299, 1.47533, 1.47514, 1.46725, 1.45123, 1.46124, 1.46729, 1.52233, 1.55137, 1.60268, 1.68285, 1.73855, 1.73518, 1.73478, 1.72223, 1.67491, 1.58907, 1.49434, 1.43692, 1.43312, 1.44804, 1.45387, 1.44397, 1.44128, 1.44975, 1.43455, 1.43171, 1.4298, 1.43006, 1.42408, 1.42303, 1.43931, 1.43326, 1.43743, 1.41397, 1.41343, 1.41305, 1.42622, 1.41122, 1.40908, 1.40855, 1.40591, 1.40465, 1.40237, 1.40013, 1.39739, 1.39976, 1.39231, 1.392, 1.3914, 1.39056, 1.39104, 1.38901, 1.38633, 1.38468, 1.38519, 1.38348, 1.38375, 1.38146, 1.38175, 1.38191, 1.37834, 1.37826, 1.3743, 1.37145, 1.36847, 1.3659, 1.36764, 1.36045, 1.36439, 1.35565, 1.35571, 1.35357, 1.35201, 1.35426, 1.34785, 1.34938, 1.35006, 1.35218, 1.35388, 1.35264, 1.3527, 1.35259, 1.35206, 1.35193, 1.35105, 1.35182, 1.35398, 1.34568, 1.34674, 1.3442, 1.34406, 1.34201, 1.3419, 1.34977, 1.34996, 1.3485, 1.34825, 1.34995, 1.34285, 1.36693, 1.36335, 1.35347, 1.37162, 1.37196, 1.36714, 1.43633, 1.42207, 1.44761, 1.37776, 1.40722, 1.3828, 1.3748, 1.35146, 1.31669, 1.31272, 1.32362, 1.33238, 1.31911, 1.31477, 1.32664, 1.315, 1.32937, 1.30458, 1.30262, 1.29968, 1.30109, 1.30292, 1.30214, 1.29956, 1.30048, 1.30115, 1.2992, 1.30145, 1.29442, 1.30148, 1.31589
1.63316, 1.65109, 1.65617, 1.652, 1.63778, 1.6397, 1.6322, 1.62619, 1.61872, 1.61815, 1.61396, 1.61287, 1.61062, 1.60945, 1.60954, 1.60924, 1.60991, 1.61588, 1.62166, 1.59379, 1.6004, 1.64062, 1.64134, 1.63061, 1.67828, 1.6645, 1.73425, 1.69239, 1.76811, 1.72143, 1.72331, 1.7025, 1.65782, 1.63751, 1.5962, 1.57166, 1.58193, 1.57148, 1.57369, 1.58668, 1.57287, 1.56341, 1.56241, 1.5538, 1.55615, 1.5471, 1.54589, 1.55453, 1.55021, 1.56437, 1.54058, 1.54912, 1.55915, 1.54473, 1.54801, 1.53781, 1.52773, 1.52916, 1.5298, 1.52857, 1.52792, 1.52352, 1.52004, 1.51799, 1.51708, 1.51411, 1.51317, 1.51213, 1.51033, 1.51011, 1.50769, 1.50255, 1.50204, 1.49997, 1.49803, 1.49576, 1.49498, 1.49336, 1.49251, 1.49209, 1.49172, 1.48952, 1.49035, 1.50887, 1.48789, 1.48752, 1.4863, 1.48458, 1.48252, 1.48104, 1.47735, 1.47491, 1.47835, 1.47259, 1.48032, 1.49082, 1.47478, 1.44885, 1.44609, 1.46922, 1.51599, 1.57539, 1.61431, 1.67588, 1.70624, 1.71177, 1.71078, 1.67032, 1.6196, 1.56424, 1.52954, 1.42816, 1.41938, 1.45124, 1.45572, 1.45757, 1.45072, 1.43888, 1.43258, 1.44503, 1.44346, 1.42865, 1.44484, 1.42625, 1.45157, 1.42149, 1.41679, 1.41641, 1.41394, 1.41841, 1.41236, 1.41221, 1.41175, 1.40847, 1.40563, 1.40593, 1.4047, 1.40384, 1.40164, 1.40007, 1.39865, 1.39566, 1.39294, 1.39316, 1.39168, 1.39101, 1.38911, 1.39074, 1.39043, 1.38818, 1.38773, 1.3884, 1.38544, 1.38422, 1.38474, 1.38234, 1.37482, 1.3717, 1.37101, 1.36864, 1.36492, 1.36342, 1.36172, 1.35957, 1.35936, 1.35703, 1.35443, 1.3521, 1.35281, 1.36098, 1.35302, 1.35033, 1.35095, 1.35027, 1.35057, 1.34684, 1.34756, 1.34761, 1.34372, 1.34305, 1.35383, 1.3446, 1.34383, 1.34398, 1.34292, 1.34984, 1.34548, 1.34436, 1.34395, 1.34577, 1.3578, 1.34822, 1.35682, 1.35276, 1.37785, 1.36886, 1.37443, 1.37156, 1.39249, 1.39234, 1.41441, 1.39079, 1.4535, 1.41219, 1.3751, 1.38892, 1.3591, 1.34051, 1.31044, 1.33002, 1.32019, 1.3311, 1.31804, 1.31637, 1.31382, 1.31011, 1.30899, 1.30334, 1.30264, 1.30257, 1.29907, 1.30783, 1.31846, 1.29989, 1.30526, 1.29859, 1.29885, 1.30828, 1.30306, 1.30082
1.6413, 1.63298, 1.64506, 1.63315, 1.63763, 1.65357, 1.63777, 1.63223, 1.62466, 1.62513, 1.6213, 1.62092, 1.6229, 1.62067, 1.62701, 1.61716, 1.61521, 1.62764, 1.61954, 1.58739, 1.59971, 1.60304, 1.67571, 1.64915, 1.65327, 1.66155, 1.67241, 1.71269, 1.73036, 1.73525, 1.733, 1.70045, 1.72284, 1.67483, 1.61135, 1.57527, 1.58156, 1.58829, 1.57356, 1.58558, 1.57546, 1.56548, 1.57458, 1.56194, 1.55681, 1.55242, 1.54943, 1.55489, 1.56238, 1.54673, 1.55701, 1.56251, 1.54499, 1.56079, 1.54699, 1.5472, 1.54007, 1.54106, 1.53658, 1.53428, 1.53156, 1.53131, 1.52775, 1.52401, 1.52087, 1.51811, 1.51752, 1.5155, 1.51404, 1.51218, 1.51052, 1.5073, 1.50558, 1.50431, 1.50502, 1.49904, 1.49781, 1.49618, 1.49732, 1.49447, 1.49308, 1.49375, 1.49334, 1.48961, 1.48803, 1.48552, 1.48382, 1.48221, 1.49983, 1.47935, 1.4783, 1.47567, 1.47666, 1.47512, 1.48754, 1.47675, 1.47555, 1.46261, 1.45292, 1.48446, 1.54737, 1.55758, 1.61903, 1.654, 1.71213, 1.72039, 1.71936, 1.70129, 1.66554, 1.60792, 1.51965, 1.44827, 1.4171, 1.45102, 1.45723, 1.44926, 1.45148, 1.44257, 1.43536, 1.43422, 1.43163, 1.42907, 1.45167, 1.42422, 1.4237, 1.42388, 1.42009, 1.4193, 1.41842, 1.41814, 1.41667, 1.41564, 1.41581, 1.41348, 1.41265, 1.41144, 1.41112, 1.41066, 1.40831, 1.40621, 1.40427, 1.4008, 1.39755, 1.39793, 1.39791, 1.39602, 1.39509, 1.39593, 1.39557, 1.39543, 1.39323, 1.39431, 1.39295, 1.38929, 1.38879, 1.38786, 1.39318, 1.38456, 1.37996, 1.37972, 1.37486, 1.37087, 1.36836, 1.36659, 1.36417, 1.36428, 1.36369, 1.36079, 1.3571, 1.35977, 1.35814, 1.35471, 1.35434, 1.35329, 1.35174, 1.35167, 1.35095, 1.34882, 1.3472, 1.35085, 1.34977, 1.3478, 1.3475, 1.34694, 1.34897, 1.34108, 1.34295, 1.3467, 1.34492, 1.34711, 1.34879, 1.34291, 1.34712, 1.35487, 1.3551, 1.36797, 1.38593, 1.37395, 1.40294, 1.39026, 1.39159, 1.39213, 1.40572, 1.40361, 1.39628, 1.38509, 1.3358, 1.32953, 1.30797, 1.32063, 1.33217, 1.32269, 1.32331, 1.33632, 1.31944, 1.32911, 1.31086, 1.31192, 1.30857, 1.31471, 1.30275, 1.30905, 1.30054, 1.29875, 1.30194, 1.2993, 1.3078, 1.30829, 1.30221, 1.30237
1.649, 1.63618, 1.6419, 1.6406, 1.63643, 1.66006, 1.65104, 1.64471, 1.65728, 1.64417, 1.62517, 1.62669, 1.62065, 1.62078, 1.61972, 1.6231, 1.63409, 1.61147, 1.60654, 1.59432, 1.60239, 1.61673, 1.65369, 1.65899, 1.68194, 1.68987, 1.68127, 1.71047, 1.75127, 1.7442, 1.74797, 1.71608, 1.70841, 1.63813, 1.58307, 1.56133, 1.59223, 1.58487, 1.57551, 1.58932, 1.57732, 1.5647, 1.56514, 1.5589, 1.55568, 1.55162, 1.54872, 1.54794, 1.54486, 1.54262, 1.54052, 1.54183, 1.55533, 1.5692, 1.56319, 1.55312, 1.55273, 1.5584, 1.53831, 1.53974, 1.53295, 1.5285, 1.52718, 1.52644, 1.52427, 1.52229, 1.52149, 1.52228, 1.51926, 1.51679, 1.5157, 1.51145, 1.50871, 1.50602, 1.50335, 1.5009, 1.49939, 1.49826, 1.49663, 1.49591, 1.49314, 1.49097, 1.48943, 1.48948, 1.48765, 1.51013, 1.4966, 1.48478, 1.48356, 1.48199, 1.47959, 1.47775, 1.4763, 1.47336, 1.47453, 1.47453, 1.47469, 1.47251, 1.44519, 1.49943, 1.49681, 1.55807, 1.59506, 1.64842, 1.6838, 1.71046, 1.70676, 1.64021, 1.67142, 1.5474, 1.49964, 1.45548, 1.42253, 1.45182, 1.44448, 1.44437, 1.44768, 1.44598, 1.44671, 1.43544, 1.42947, 1.42858, 1.43082, 1.42574, 1.42232, 1.42021, 1.42049, 1.41984, 1.41975, 1.41875, 1.4182, 1.41726, 1.4133, 1.41305, 1.41237, 1.41323, 1.4113, 1.40865, 1.40901, 1.40606, 1.40349, 1.40227, 1.39975, 1.39762, 1.39487, 1.39181, 1.39204, 1.39285, 1.39179, 1.39254, 1.39286, 1.39304, 1.39399, 1.39464, 1.3915, 1.39221, 1.3894, 1.3869, 1.3861, 1.38488, 1.38083, 1.37964, 1.37681, 1.37346, 1.37242, 1.36946, 1.37029, 1.36691, 1.36505, 1.36294, 1.36244, 1.36132, 1.35736, 1.35907, 1.35515, 1.3573, 1.35651, 1.35483, 1.35484, 1.35573, 1.35194, 1.3521, 1.35059, 1.34952, 1.34654, 1.34451, 1.34296, 1.34254, 1.35068, 1.34954, 1.35408, 1.34309, 1.35135, 1.34328, 1.3551, 1.35846, 1.39175, 1.36665, 1.37395, 1.38583, 1.39862, 1.39576, 1.40521, 1.41993, 1.39581, 1.40039, 1.3591, 1.33285, 1.30533, 1.33663, 1.32478, 1.32751, 1.32452, 1.32937, 1.32378, 1.31453, 1.31227, 1.31098, 1.30611, 1.30831, 1.31221, 1.30191, 1.31422, 1.29887, 1.29687, 1.29841, 1.29652, 1.29341, 1.29498, 1.29775
1.64693, 1.64692, 1.64578, 1.64529, 1.64948, 1.66527, 1.66941, 1.66483, 1.64779, 1.66105, 1.63488, 1.6343, 1.62298, 1.62647, 1.616, 1.62087, 1.61685, 1.61392, 1.60203, 1.59614, 1.65421, 1.62094, 1.66562, 1.69069, 1.70763, 1.69786, 1.70239, 1.71307, 1.71262, 1.71711, 1.77188, 1.75838, 1.74349, 1.6628, 1.59978, 1.579, 1.55854, 1.57936, 1.58657, 1.58785, 1.57732, 1.57426, 1.56927, 1.56422, 1.55835, 1.55573, 1.55364, 1.5506, 1.54818, 1.55221, 1.54219, 1.54009, 1.5379, 1.55848, 1.54496, 1.56265, 1.53731, 1.54549, 1.53879, 1.55438, 1.53192, 1.52967, 1.52768, 1.52691, 1.52463, 1.52315, 1.52006, 1.51957, 1.51754, 1.51676, 1.51314, 1.51206, 1.50915, 1.50328, 1.50243, 1.50347, 1.50087, 1.49988, 1.50163, 1.49645, 1.49495, 1.49214, 1.4916, 1.49002, 1.48942, 1.48856, 1.48713, 1.48515, 1.48202, 1.48169, 1.47771, 1.4845, 1.47413, 1.48445, 1.47929, 1.47853, 1.47379, 1.46734, 1.44203, 1.45842, 1.51755, 1.54071, 1.60995, 1.63623, 1.65442, 1.66971, 1.6835, 1.67767, 1.63409, 1.5945, 1.53536, 1.46256, 1.4147, 1.43038, 1.44788, 1.45172, 1.44604, 1.46057, 1.43439, 1.43689, 1.42925, 1.42727, 1.42519, 1.42399, 1.42612, 1.42166, 1.422, 1.41876, 1.41781, 1.4166, 1.41462, 1.41471, 1.41252, 1.41099, 1.41177, 1.41017, 1.40666, 1.40488, 1.40486, 1.40573, 1.3996, 1.39665, 1.39789, 1.39557, 1.39579, 1.395, 1.39268, 1.39114, 1.39237, 1.39113, 1.39248, 1.39169, 1.39176, 1.39106, 1.38997, 1.38879, 1.38835, 1.38671, 1.38644, 1.38547, 1.38348, 1.38291, 1.38272, 1.38091, 1.37835, 1.37446, 1.37325, 1.36915, 1.36854, 1.36607, 1.3653, 1.36521, 1.3645, 1.367, 1.36489, 1.36489, 1.36349, 1.36437, 1.36297, 1.36075, 1.35957, 1.35576, 1.35891, 1.35116, 1.34869, 1.34422, 1.34183, 1.34439, 1.34063, 1.3471, 1.34613, 1.34077, 1.32924, 1.34415, 1.35401, 1.38276, 1.37972, 1.37984, 1.38879, 1.42106, 1.41827, 1.41401, 1.41047, 1.42724, 1.41185, 1.40405, 1.37572, 1.37107, 1.31895, 1.31344, 1.34308, 1.32699, 1.32247, 1.3251, 1.32695, 1.31587, 1.32054, 1.30985, 1.31203, 1.30835, 1.30805, 1.30813, 1.30365, 1.30693, 1.30307, 1.30309, 1.29833, 1.29851, 1.29635, 1.29898
1.66621, 1.67514, 1.65932, 1.65467, 1.65075, 1.64704, 1.64556, 1.66464, 1.65796, 1.64509, 1.65019, 1.641, 1.63425, 1.6392, 1.62382, 1.61684, 1.61569, 1.62717, 1.61031, 1.59682, 1.61981, 1.62778, 1.63152, 1.68347, 1.68557, 1.70972, 1.72326, 1.73703, 1.73053, 1.74472, 1.74601, 1.7605, 1.69289, 1.66857, 1.6613, 1.61368, 1.55865, 1.5833, 1.58839, 1.58109, 1.58773, 1.57243, 1.5692, 1.56375, 1.56494, 1.56005, 1.55848, 1.5716, 1.57039, 1.55554, 1.55452, 1.56465, 1.54785, 1.5425, 1.55108, 1.55981, 1.55265, 1.53699, 1.54059, 1.54077, 1.53476, 1.54722, 1.53078, 1.53491, 1.52637, 1.5268, 1.5247, 1.52377, 1.52249, 1.51994, 1.51575, 1.5143, 1.51367, 1.51294, 1.51934, 1.50889, 1.50873, 1.50625, 1.50441, 1.50542, 1.50238, 1.50008, 1.49739, 1.49683, 1.49377, 1.49423, 1.48892, 1.48816, 1.48616, 1.49307, 1.48373, 1.49918, 1.48546, 1.47775, 1.47836, 1.47893, 1.47794, 1.47661, 1.44868, 1.46197, 1.51332, 1.54097, 1.59271, 1.64355, 1.65267, 1.68086, 1.68737, 1.66311, 1.63099, 1.58638, 1.54077, 1.50426, 1.42682, 1.42863, 1.45738, 1.46073, 1.44129, 1.4384, 1.45513, 1.43134, 1.43068, 1.42771, 1.42794, 1.42595, 1.42485, 1.42243, 1.42218, 1.41937, 1.4168, 1.41685, 1.4156, 1.41332, 1.41323, 1.41328, 1.41359, 1.41219, 1.41146, 1.41957, 1.40735, 1.40553, 1.40465, 1.40194, 1.39936, 1.401, 1.40019, 1.39715, 1.39698, 1.39286, 1.39244, 1.39217, 1.39083, 1.39109, 1.38944, 1.38986, 1.38974, 1.38813, 1.3861, 1.38711, 1.38957, 1.38288, 1.38545, 1.38228, 1.38202, 1.37822, 1.37626, 1.37604, 1.36734, 1.36935, 1.36814, 1.36737, 1.36844, 1.36795, 1.36646, 1.36606, 1.36751, 1.36484, 1.36499, 1.36433, 1.3714, 1.36155, 1.36408, 1.36097, 1.36039, 1.3623, 1.35611, 1.35507, 1.35451, 1.35493, 1.36064, 1.34979, 1.35717, 1.34493, 1.34062, 1.34721, 1.34665, 1.36831, 1.37269, 1.39193, 1.39537, 1.39531, 1.39693, 1.40309, 1.41946, 1.42021, 1.40604, 1.40531, 1.38745, 1.37175, 1.30869, 1.30676, 1.33075, 1.33751, 1.33751, 1.32275, 1.32202, 1.31804, 1.31497, 1.31386, 1.31144, 1.3108, 1.31107, 1.3096, 1.3089, 1.30712, 1.3068, 1.30495, 1.30421, 1.30304, 1.29875, 1.2985
1.64822, 1.64881, 1.64627, 1.645, 1.64453, 1.65441, 1.65083, 1.64984, 1.64811, 1.66066, 1.63635, 1.64812, 1.62775, 1.62537, 1.63536, 1.62128, 1.61811, 1.63089, 1.61047, 1.59793, 1.59984, 1.59887, 1.63633, 1.69468, 1.6729, 1.67363, 1.72861, 1.71258, 1.71682, 1.7185, 1.71079, 1.72627, 1.70691, 1.65519, 1.64079, 1.6208, 1.56707, 1.61313, 1.59661, 1.58095, 1.57699, 1.57469, 1.57777, 1.57221, 1.57025, 1.56774, 1.56509, 1.56319, 1.55897, 1.55762, 1.55546, 1.55229, 1.55034, 1.55484, 1.5517, 1.55508, 1.56407, 1.56179, 1.55355, 1.542, 1.54414, 1.53373, 1.53226, 1.53069, 1.52872, 1.52722, 1.52481, 1.52333, 1.52296, 1.52253, 1.521, 1.52005, 1.51765, 1.5147, 1.5126, 1.51245, 1.51071, 1.50724, 1.50596, 1.50409, 1.50263, 1.50048, 1.49921, 1.49876, 1.49662, 1.49333, 1.49228, 1.4914, 1.48949, 1.48725, 1.4815, 1.48374, 1.48256, 1.48239, 1.49252, 1.48266, 1.48118, 1.47993, 1.45581, 1.49986, 1.51615, 1.52869, 1.57796, 1.62297, 1.64164, 1.67729, 1.68285, 1.68262, 1.66836, 1.58888, 1.53389, 1.50953, 1.42724, 1.41697, 1.4378, 1.44638, 1.44866, 1.44025, 1.43402, 1.43198, 1.431, 1.43035, 1.43054, 1.43151, 1.42955, 1.42841, 1.42649, 1.42519, 1.42353, 1.41973, 1.4254, 1.41568, 1.41571, 1.41924, 1.41693, 1.41506, 1.41435, 1.41225, 1.41111, 1.41025, 1.40807, 1.40611, 1.40519, 1.40255, 1.40194, 1.40091, 1.39902, 1.39483, 1.39684, 1.39478, 1.39375, 1.3932, 1.39324, 1.39033, 1.39057, 1.38935, 1.39172, 1.39279, 1.38709, 1.38567, 1.38659, 1.38805, 1.38422, 1.38193, 1.37669, 1.37608, 1.3745, 1.37351, 1.37191, 1.37037, 1.36981, 1.36951, 1.36774, 1.36915, 1.36462, 1.36679, 1.36643, 1.36537, 1.36517, 1.36217, 1.36107, 1.3579, 1.35998, 1.35966, 1.36012, 1.35825, 1.35768, 1.35669, 1.35826, 1.35488, 1.3638, 1.36174, 1.33921, 1.34671, 1.40629, 1.36499, 1.38313, 1.40308, 1.40612, 1.41526, 1.43179, 1.44095, 1.45139, 1.47625, 1.45767, 1.43385, 1.42491, 1.38918, 1.33349, 1.31314, 1.32948, 1.33475, 1.33382, 1.34732, 1.32114, 1.31612, 1.31298, 1.31101, 1.30954, 1.30866, 1.30895, 1.31306, 1.31651, 1.30573, 1.30323, 1.30947, 1.30576, 1.30505, 1.30098, 1.29808
1.65785, 1.64701, 1.64413, 1.65141, 1.65134, 1.641, 1.65832, 1.64189, 1.64921, 1.66187, 1.65887, 1.65242, 1.63567, 1.63533, 1.63897, 1.64387, 1.62839, 1.63421, 1.63403, 1.61214, 1.60434, 1.66724, 1.66507, 1.72697, 1.73896, 1.73432, 1.7476, 1.76746, 1.78993, 1.78062, 1.79377, 1.76403, 1.73511, 1.723, 1.64907, 1.61301, 1.56354, 1.58948, 1.60912, 1.59528, 1.58564, 1.58409, 1.5794, 1.57788, 1.57741, 1.57462, 1.57166, 1.57131, 1.56634, 1.56375, 1.56906, 1.56468, 1.55643, 1.55498, 1.56177, 1.56859, 1.5723, 1.55381, 1.56547, 1.55819, 1.54443, 1.54411, 1.54209, 1.54373, 1.54154, 1.53051, 1.52723, 1.52604, 1.52701, 1.53275, 1.52641, 1.52295, 1.51956, 1.51906, 1.51642, 1.51441, 1.51331, 1.51356, 1.51086, 1.50922, 1.5069, 1.5038, 1.50275, 1.50163, 1.51339, 1.49663, 1.50918, 1.50865, 1.50212, 1.49194, 1.49178, 1.49162, 1.48846, 1.48717, 1.48704, 1.49215, 1.49899, 1.49269, 1.47126, 1.4614, 1.49426, 1.5444, 1.56173, 1.64022, 1.70344, 1.70244, 1.69135, 1.6823, 1.68186, 1.63071, 1.54654, 1.52415, 1.44173, 1.42604, 1.45471, 1.45362, 1.45416, 1.4608, 1.44402, 1.44227, 1.4411, 1.43814, 1.43649, 1.43579, 1.44523, 1.43232, 1.43052, 1.42767, 1.42687, 1.42757, 1.42653, 1.4101, 1.42298, 1.42187, 1.42081, 1.41915, 1.42111, 1.41853, 1.4177, 1.41617, 1.41663, 1.41337, 1.41217, 1.40932, 1.41783, 1.40577, 1.4058, 1.40281, 1.403, 1.40141, 1.40091, 1.40051, 1.39746, 1.39487, 1.39345, 1.39323, 1.39396, 1.39195, 1.39022, 1.39093, 1.38927, 1.38841, 1.38837, 1.38402, 1.38279, 1.37972, 1.37794, 1.37825, 1.37568, 1.37628, 1.37297, 1.37233, 1.38247, 1.37372, 1.37078, 1.3708, 1.38156, 1.37185, 1.36756, 1.36514, 1.36443, 1.36414, 1.37083, 1.36841, 1.36245, 1.35899, 1.35984, 1.35828, 1.36128, 1.36046, 1.37105, 1.37201, 1.35765, 1.36124, 1.3604, 1.39975, 1.39256, 1.40301, 1.42351, 1.45059, 1.4429, 1.4441, 1.44221, 1.44671, 1.44503, 1.43822, 1.43022, 1.37461, 1.33268, 1.33019, 1.35402, 1.35555, 1.34094, 1.34026, 1.33027, 1.33672, 1.31941, 1.31686, 1.31905, 1.31401, 1.33233, 1.31486, 1.30728, 1.30985, 1.30666, 1.30527, 1.30537, 1.30535, 1.3093, 1.31443
1.65559, 1.65444, 1.65261, 1.64832, 1.64707, 1.64497, 1.64415, 1.65131, 1.65893, 1.65682, 1.63701, 1.64933, 1.64804, 1.64778, 1.63973, 1.63739, 1.63745, 1.63896, 1.63331, 1.62305, 1.61589, 1.62662, 1.69843, 1.68046, 1.65958, 1.67493, 1.67578, 1.69719, 1.75053, 1.76255, 1.76295, 1.74386, 1.73993, 1.6995, 1.66873, 1.62019, 1.5702, 1.60352, 1.60217, 1.59466, 1.59371, 1.59052, 1.57908, 1.57617, 1.57428, 1.57207, 1.57127, 1.57154, 1.56805, 1.56773, 1.56467, 1.56426, 1.56141, 1.55898, 1.55899, 1.55764, 1.55732, 1.55845, 1.58628, 1.57253, 1.56606, 1.55901, 1.54844, 1.53641, 1.53482, 1.53248, 1.5301, 1.52847, 1.52665, 1.52475, 1.52289, 1.52042, 1.51887, 1.51585, 1.51416, 1.51459, 1.51272, 1.51475, 1.51035, 1.5069, 1.50575, 1.50644, 1.50411, 1.52329, 1.52036, 1.50101, 1.49727, 1.49654, 1.49451, 1.49185, 1.50023, 1.49129, 1.48907, 1.49406, 1.48733, 1.49927, 1.48903, 1.49663, 1.4833, 1.44076, 1.48083, 1.54455, 1.59206, 1.63818, 1.66657, 1.68842, 1.69355, 1.69438, 1.68011, 1.63896, 1.61106, 1.50535, 1.46132, 1.4402, 1.46152, 1.47033, 1.46216, 1.45568, 1.45513, 1.45077, 1.45036, 1.44793, 1.44398, 1.45091, 1.43925, 1.43746, 1.43322, 1.43337, 1.43027, 1.42952, 1.4272, 1.43405, 1.4274, 1.42265, 1.4217, 1.42074, 1.41982, 1.42267, 1.42087, 1.4192, 1.4172, 1.41516, 1.41584, 1.41263, 1.41552, 1.4102, 1.41139, 1.40861, 1.40764, 1.40623, 1.40514, 1.4058, 1.40286, 1.40265, 1.40196, 1.40021, 1.39832, 1.39443, 1.39204, 1.39079, 1.39102, 1.38647, 1.38611, 1.38403, 1.38178, 1.38013, 1.37875, 1.37744, 1.37541, 1.37549, 1.37329, 1.37208, 1.37193, 1.36994, 1.36827, 1.367, 1.36542, 1.36508, 1.36369, 1.36322, 1.36233, 1.3633, 1.36151, 1.36151, 1.36011, 1.35958, 1.36043, 1.35832, 1.35705, 1.36047, 1.36002, 1.36752, 1.34636, 1.35065, 1.38837, 1.37269, 1.39922, 1.4035, 1.43357, 1.4279, 1.43035, 1.42721, 1.41937, 1.45405, 1.44156, 1.42751, 1.37279, 1.3789, 1.33586, 1.35023, 1.35064, 1.34547, 1.3507, 1.3452, 1.33016, 1.32608, 1.32297, 1.32159, 1.32137, 1.31801, 1.31858, 1.31767, 1.31571, 1.31807, 1.31039, 1.3188, 1.31719, 1.32309, 1.31012, 1.31249
1.66306, 1.65981, 1.65861, 1.6559, 1.65502, 1.65314, 1.67496, 1.64762, 1.6525, 1.65767, 1.66484, 1.66505, 1.68561, 1.65577, 1.65538, 1.65861, 1.64045, 1.64381, 1.63543, 1.63753, 1.61767, 1.63497, 1.63183, 1.66431, 1.66481, 1.74584, 1.77696, 1.63648, 1.66673, 1.77159, 1.75758, 1.74331, 1.75497, 1.70728, 1.64274, 1.61485, 1.58565, 1.60944, 1.60292, 1.59518, 1.59212, 1.58214, 1.58534, 1.5792, 1.58067, 1.58455, 1.57195, 1.57813, 1.57264, 1.56731, 1.56668, 1.5718, 1.56095, 1.56223, 1.57292, 1.5592, 1.56117, 1.5528, 1.56049, 1.56989, 1.57698, 1.5553, 1.54529, 1.54265, 1.54213, 1.53691, 1.54029, 1.54372, 1.53136, 1.5287, 1.52615, 1.52353, 1.52248, 1.52151, 1.52036, 1.51893, 1.51962, 1.51713, 1.5145, 1.51289, 1.5137, 1.50916, 1.5089, 1.50978, 1.50422, 1.50401, 1.50071, 1.49945, 1.49873, 1.49738, 1.49534, 1.49311, 1.50017, 1.49038, 1.48933, 1.49008, 1.49025, 1.50304, 1.47965, 1.47171, 1.52384, 1.543, 1.55957, 1.68218, 1.65847, 1.65539, 1.66503, 1.66525, 1.64794, 1.61345, 1.56353, 1.51851, 1.47513, 1.42668, 1.45721, 1.46775, 1.46642, 1.46292, 1.45969, 1.47088, 1.46124, 1.46637, 1.4498, 1.45209, 1.45084, 1.44022, 1.45189, 1.43677, 1.43333, 1.43131, 1.43803, 1.42863, 1.42636, 1.42502, 1.42322, 1.42434, 1.4202, 1.42015, 1.42009, 1.42074, 1.41949, 1.41813, 1.4162, 1.41485, 1.41282, 1.4134, 1.41071, 1.41064, 1.40924, 1.40812, 1.41031, 1.40646, 1.4058, 1.40395, 1.40231, 1.40162, 1.39754, 1.3949, 1.3927, 1.39201, 1.38861, 1.38887, 1.38534, 1.38324, 1.38093, 1.38114, 1.3819, 1.37714, 1.37557, 1.37428, 1.37119, 1.3697, 1.36712, 1.36726, 1.36737, 1.36483, 1.36463, 1.36286, 1.3627, 1.36059, 1.36016, 1.36153, 1.37871, 1.35832, 1.35749, 1.35988, 1.356, 1.35701, 1.36058, 1.36719, 1.36178, 1.36497, 1.35292, 1.36938, 1.35037, 1.38899, 1.3899, 1.38758, 1.44295, 1.44418, 1.44238, 1.44176, 1.45484, 1.45722, 1.45729, 1.43748, 1.41815, 1.39271, 1.36028, 1.31958, 1.34155, 1.33735, 1.33735, 1.33641, 1.3242, 1.3313, 1.31874, 1.32204, 1.31987, 1.31935, 1.32006, 1.32613, 1.34168, 1.31669, 1.31297, 1.31288, 1.31429, 1.31854, 1.31442, 1.32026
1.66218, 1.66347, 1.6648, 1.65777, 1.65465, 1.65276, 1.65183, 1.66571, 1.6502, 1.65894, 1.65281, 1.66486, 1.66034, 1.66135, 1.63957, 1.63063, 1.66209, 1.64551, 1.65081, 1.63438, 1.60842, 1.61951, 1.63508, 1.68866, 1.73154, 1.77294, 1.75179, 1.75576, 1.852, 1.81096, 1.79293, 1.7762, 1.77226, 1.69628, 1.69005, 1.60606, 1.57718, 1.60407, 1.60096, 1.59398, 1.58748, 1.5876, 1.57935, 1.57796, 1.59134, 1.58206, 1.57155, 1.56894, 1.56997, 1.57567, 1.57143, 1.56266, 1.56167, 1.56183, 1.56109, 1.57808, 1.55697, 1.57411, 1.57403, 1.59156, 1.5959, 1.59798, 1.57128, 1.54414, 1.55319, 1.55372, 1.53842, 1.53413, 1.53375, 1.54116, 1.53094, 1.53035, 1.527, 1.52621, 1.52334, 1.5232, 1.51999, 1.52126, 1.51653, 1.516, 1.51245, 1.51028, 1.51865, 1.508, 1.50647, 1.50685, 1.50517, 1.51616, 1.49965, 1.49725, 1.50287, 1.51049, 1.49273, 1.49954, 1.4991, 1.49307, 1.50577, 1.49574, 1.47078, 1.47446, 1.5147, 1.55467, 1.56241, 1.62076, 1.65147, 1.66487, 1.68337, 1.68448, 1.6823, 1.651, 1.61367, 1.53088, 1.47513, 1.43331, 1.44471, 1.47204, 1.46998, 1.46755, 1.462, 1.46081, 1.46519, 1.45495, 1.45199, 1.44787, 1.44683, 1.44471, 1.44168, 1.43942, 1.44004, 1.43659, 1.43443, 1.43266, 1.43057, 1.43076, 1.42811, 1.42536, 1.42571, 1.42438, 1.42351, 1.42407, 1.42274, 1.41965, 1.41904, 1.41802, 1.4156, 1.42382, 1.4163, 1.41342, 1.41032, 1.41042, 1.40908, 1.40893, 1.40817, 1.40703, 1.40575, 1.40281, 1.40098, 1.40038, 1.3983, 1.39852, 1.39584, 1.39496, 1.39175, 1.38895, 1.38683, 1.38521, 1.38337, 1.37972, 1.38042, 1.37702, 1.37627, 1.37481, 1.37228, 1.37201, 1.36891, 1.37007, 1.36786, 1.36393, 1.3623, 1.36458, 1.3631, 1.3637, 1.36114, 1.36345, 1.37057, 1.36096, 1.36438, 1.36381, 1.36422, 1.36474, 1.36702, 1.37157, 1.37139, 1.37804, 1.37125, 1.4139, 1.41551, 1.43678, 1.44192, 1.44419, 1.45403, 1.45343, 1.45773, 1.45588, 1.44264, 1.41265, 1.43811, 1.42308, 1.36354, 1.31593, 1.33093, 1.35462, 1.34378, 1.33682, 1.34005, 1.32802, 1.3303, 1.32633, 1.32388, 1.33962, 1.31983, 1.31743, 1.31607, 1.33647, 1.31428, 1.31575, 1.31765, 1.32673, 1.31906, 1.32564
1.66797, 1.66582, 1.66215, 1.67793, 1.65843, 1.65387, 1.653, 1.65798, 1.66627, 1.64719, 1.64606, 1.64703, 1.67808, 1.67811, 1.66963, 1.67166, 1.65581, 1.64018, 1.64135, 1.63468, 1.624, 1.61953, 1.62006, 1.66268, 1.69318, 1.74152, 1.79593, 1.77253, 1.77966, 1.82225, 1.81457, 1.80265, 1.79368, 1.78113, 1.68925, 1.64518, 1.57247, 1.60972, 1.60278, 1.59309, 1.59752, 1.58652, 1.58451, 1.58196, 1.58542, 1.57753, 1.57498, 1.57403, 1.57285, 1.57156, 1.57013, 1.56869, 1.56564, 1.57141, 1.56421, 1.56211, 1.56088, 1.57953, 1.58801, 1.58452, 1.59804, 1.57532, 1.56555, 1.56561, 1.55191, 1.54344, 1.54065, 1.53991, 1.53768, 1.5352, 1.53376, 1.53322, 1.53238, 1.52999, 1.52772, 1.52646, 1.53398, 1.52352, 1.52157, 1.51904, 1.51821, 1.51783, 1.51551, 1.51361, 1.51037, 1.51117, 1.50831, 1.50617, 1.5167, 1.52007, 1.49813, 1.49985, 1.52894, 1.50693, 1.50497, 1.50532, 1.4955, 1.49853, 1.46869, 1.46775, 1.49831, 1.52977, 1.56023, 1.59949, 1.61706, 1.61324, 1.65599, 1.68151, 1.63702, 1.60204, 1.56974, 1.53451, 1.49521, 1.4443, 1.46056, 1.47564, 1.46814, 1.46919, 1.47264, 1.46369, 1.46237, 1.46022, 1.45764, 1.45686, 1.45558, 1.45282, 1.45095, 1.44731, 1.44595, 1.44314, 1.43997, 1.4398, 1.43528, 1.43423, 1.43152, 1.43305, 1.43219, 1.43116, 1.429, 1.42828, 1.42751, 1.42754, 1.42348, 1.42288, 1.41928, 1.41892, 1.41609, 1.41703, 1.41625, 1.41162, 1.41152, 1.41051, 1.4097, 1.40767, 1.40671, 1.40369, 1.40142, 1.40156, 1.39994, 1.40161, 1.39679, 1.39495, 1.39332, 1.39133, 1.39095, 1.38768, 1.38582, 1.38326, 1.38121, 1.38132, 1.37882, 1.38045, 1.37751, 1.37377, 1.37476, 1.37438, 1.37297, 1.37136, 1.36908, 1.36841, 1.36787, 1.36714, 1.36806, 1.36804, 1.36852, 1.37087, 1.37486, 1.37549, 1.37165, 1.37406, 1.38543, 1.38818, 1.38169, 1.3598, 1.35186, 1.40158, 1.45317, 1.44493, 1.46714, 1.4489, 1.45806, 1.45723, 1.46382, 1.47106, 1.46407, 1.4615, 1.44765, 1.4369, 1.40376, 1.33308, 1.32036, 1.34141, 1.34425, 1.34464, 1.33326, 1.32894, 1.32587, 1.32961, 1.32461, 1.32576, 1.32489, 1.32125, 1.32213, 1.32202, 1.32003, 1.32115, 1.31815, 1.31642, 1.31729, 1.31758
1.66527, 1.66387, 1.66125, 1.65824, 1.6569, 1.65519, 1.66251, 1.652, 1.65028, 1.6496, 1.65488, 1.64855, 1.6546, 1.6652, 1.66946, 1.64475, 1.62795, 1.64573, 1.65113, 1.64788, 1.60993, 1.64321, 1.66798, 1.67949, 1.69718, 1.73408, 1.758, 1.76881, 1.85411, 1.80828, 1.80611, 1.80258, 1.7439, 1.70533, 1.68029, 1.61754, 1.58086, 1.60102, 1.61401, 1.61054, 1.59569, 1.59746, 1.5869, 1.58579, 1.58507, 1.582, 1.57951, 1.57841, 1.5757, 1.57495, 1.57352, 1.57228, 1.57015, 1.56987, 1.56929, 1.5763, 1.56375, 1.56095, 1.56219, 1.55864, 1.56748, 1.57451, 1.56783, 1.57456, 1.56052, 1.54507, 1.54083, 1.53957, 1.54764, 1.5379, 1.53728, 1.53442, 1.53387, 1.53355, 1.53075, 1.52963, 1.52712, 1.5278, 1.52417, 1.52163, 1.52402, 1.53647, 1.52223, 1.52588, 1.51326, 1.51178, 1.51021, 1.50772, 1.50647, 1.50571, 1.50418, 1.50258, 1.50363, 1.50097, 1.50109, 1.52276, 1.50274, 1.50422, 1.47402, 1.47114, 1.49075, 1.53237, 1.58189, 1.63042, 1.69203, 1.6905, 1.6807, 1.67755, 1.67258, 1.63492, 1.62707, 1.53438, 1.49616, 1.45081, 1.46762, 1.46903, 1.46816, 1.46205, 1.46189, 1.46775, 1.47487, 1.4726, 1.46871, 1.45848, 1.45207, 1.45079, 1.45006, 1.44903, 1.44637, 1.45103, 1.44386, 1.44039, 1.44165, 1.43921, 1.43756, 1.43659, 1.43547, 1.43549, 1.43334, 1.43144, 1.42947, 1.42712, 1.42502, 1.4255, 1.42162, 1.42071, 1.41966, 1.41899, 1.41767, 1.41566, 1.41426, 1.30831, 1.41229, 1.41187, 1.41017, 1.40862, 1.40678, 1.40643, 1.40349, 1.40357, 1.40013, 1.39819, 1.39595, 1.40237, 1.39137, 1.39471, 1.38716, 1.38847, 1.38798, 1.38505, 1.39176, 1.38052, 1.38203, 1.37883, 1.38027, 1.37848, 1.37785, 1.37577, 1.37554, 1.37359, 1.37425, 1.37187, 1.37285, 1.37238, 1.37213, 1.37371, 1.37311, 1.38025, 1.37744, 1.38518, 1.38579, 1.39001, 1.40313, 1.3596, 1.39652, 1.40946, 1.44398, 1.49587, 1.45464, 1.45323, 1.44832, 1.46563, 1.47444, 1.47397, 1.45868, 1.44842, 1.43241, 1.42159, 1.38301, 1.36462, 1.34265, 1.35294, 1.35007, 1.3492, 1.34944, 1.32913, 1.32964, 1.33023, 1.33078, 1.33058, 1.32926, 1.32784, 1.33041, 1.33391, 1.32615, 1.32431, 1.32966, 1.3247, 1.32314, 1.32082
1.66293, 1.67293, 1.65964, 1.65899, 1.65461, 1.65727, 1.64825, 1.64811, 1.64413, 1.64604, 1.64476, 1.64097, 1.64591, 1.65351, 1.66209, 1.66308, 1.66455, 1.64125, 1.63332, 1.63023, 1.61011, 1.60971, 1.66353, 1.67427, 1.70197, 1.71686, 1.73745, 1.80201, 1.80434, 1.80861, 1.81689, 1.8014, 1.77794, 1.74141, 1.66459, 1.60155, 1.58076, 1.60036, 1.61116, 1.5996, 1.59423, 1.58692, 1.59247, 1.58622, 1.58446, 1.58047, 1.57977, 1.57912, 1.57481, 1.59174, 1.57017, 1.57051, 1.56767, 1.56466, 1.56424, 1.56315, 1.57194, 1.56688, 1.56846, 1.563, 1.55341, 1.57129, 1.56507, 1.56878, 1.55883, 1.55462, 1.54204, 1.54224, 1.53888, 1.53658, 1.53645, 1.53395, 1.53338, 1.53265, 1.53079, 1.52988, 1.52945, 1.52758, 1.52383, 1.52027, 1.51833, 1.51424, 1.51366, 1.5096, 1.50778, 1.50507, 1.50568, 1.50253, 1.50243, 1.49942, 1.49869, 1.49659, 1.49593, 1.49664, 1.49629, 1.51005, 1.49995, 1.49654, 1.49183, 1.46983, 1.50354, 1.57663, 1.61272, 1.56625, 1.64028, 1.65895, 1.67589, 1.67998, 1.6794, 1.64022, 1.65643, 1.55893, 1.50405, 1.43992, 1.45102, 1.47851, 1.47842, 1.47236, 1.45815, 1.46825, 1.47145, 1.46784, 1.45192, 1.44671, 1.45364, 1.44588, 1.44388, 1.44031, 1.43823, 1.43853, 1.43867, 1.43542, 1.43591, 1.43451, 1.43353, 1.44151, 1.43008, 1.43284, 1.42786, 1.4271, 1.42413, 1.42534, 1.4241, 1.42285, 1.4223, 1.4203, 1.42091, 1.42213, 1.41734, 1.41733, 1.41702, 1.41502, 1.412, 1.41169, 1.41266, 1.41011, 1.4069, 1.40666, 1.4064, 1.40468, 1.40142, 1.40376, 1.40174, 1.39802, 1.39565, 1.39418, 1.428, 1.39183, 1.3917, 1.39086, 1.3889, 1.38709, 1.38345, 1.3825, 1.37979, 1.3798, 1.37933, 1.37773, 1.37735, 1.3741, 1.37619, 1.37499, 1.37446, 1.37202, 1.37187, 1.37117, 1.37151, 1.3822, 1.38187, 1.37973, 1.37387, 1.37117, 1.36431, 1.35228, 1.38965, 1.43074, 1.42581, 1.45445, 1.47798, 1.46632, 1.46949, 1.47422, 1.47783, 1.4782, 1.46802, 1.46118, 1.45395, 1.40941, 1.41189, 1.35414, 1.33651, 1.3377, 1.35075, 1.35375, 1.3307, 1.33319, 1.33329, 1.33367, 1.33096, 1.33367, 1.34004, 1.33029, 1.3289, 1.3298, 1.32968, 1.32757, 1.32666, 1.32613, 1.32152, 1.32162
1.66788, 1.66643, 1.66527, 1.66083, 1.65846, 1.65521, 1.65374, 1.65149, 1.64834, 1.64992, 1.64473, 1.64213, 1.64948, 1.64813, 1.65456, 1.67081, 1.65865, 1.65199, 1.6479, 1.6305, 1.62093, 1.60748, 1.64452, 1.65813, 1.71378, 1.71479, 1.75596, 1.76466, 1.78606, 1.82717, 1.82276, 1.80166, 1.77085, 1.72565, 1.69769, 1.63165, 1.58027, 1.61031, 1.60646, 1.59675, 1.59537, 1.58737, 1.57645, 1.57472, 1.58307, 1.57879, 1.58177, 1.59333, 1.57301, 1.57883, 1.5686, 1.56554, 1.56189, 1.56431, 1.56357, 1.56152, 1.56006, 1.55911, 1.57462, 1.55443, 1.56033, 1.55314, 1.56679, 1.56094, 1.55041, 1.55949, 1.56498, 1.56144, 1.53418, 1.55086, 1.5308, 1.53063, 1.53031, 1.52968, 1.53038, 1.52767, 1.53173, 1.52307, 1.51853, 1.51741, 1.51687, 1.51671, 1.51111, 1.50745, 1.50413, 1.50211, 1.5099, 1.49564, 1.50222, 1.49483, 1.50385, 1.49262, 1.49198, 1.50222, 1.50404, 1.49004, 1.49709, 1.49362, 1.47516, 1.47513, 1.48599, 1.55459, 1.5722, 1.6146, 1.65793, 1.67791, 1.68328, 1.6874, 1.6815, 1.62246, 1.60007, 1.55764, 1.50308, 1.45904, 1.44732, 1.46481, 1.46533, 1.46498, 1.46894, 1.45841, 1.46105, 1.45545, 1.44493, 1.44835, 1.44109, 1.4395, 1.43861, 1.43852, 1.45438, 1.4338, 1.43436, 1.43209, 1.43159, 1.46398, 1.44325, 1.42953, 1.42722, 1.42729, 1.42334, 1.42295, 1.41962, 1.42012, 1.41941, 1.41982, 1.42107, 1.42032, 1.41806, 1.41808, 1.41606, 1.41655, 1.41533, 1.41346, 1.41458, 1.40997, 1.40941, 1.40858, 1.42027, 1.40561, 1.40755, 1.40566, 1.4083, 1.40533, 1.40231, 1.39901, 1.39991, 1.39784, 1.39692, 1.39573, 1.39428, 1.38944, 1.38639, 1.38973, 1.38628, 1.38496, 1.38173, 1.3925, 1.37845, 1.37875, 1.39134, 1.37766, 1.37503, 1.3727, 1.37321, 1.37134, 1.38244, 1.38465, 1.36877, 1.37644, 1.37465, 1.38002, 1.37828, 1.37037, 1.37794, 1.35708, 1.36843, 1.3821, 1.385, 1.43679, 1.44317, 1.45169, 1.52318, 1.50924, 1.48183, 1.48439, 1.48161, 1.47264, 1.44358, 1.43571, 1.38607, 1.33514, 1.34024, 1.35082, 1.35136, 1.35676, 1.34423, 1.34428, 1.33941, 1.34564, 1.35458, 1.33389, 1.33736, 1.33172, 1.34129, 1.32908, 1.32457, 1.32279, 1.32283, 1.32065, 1.32109, 1.31616
1.66695, 1.6663, 1.66446, 1.66265, 1.66195, 1.65948, 1.65611, 1.65312, 1.65128, 1.64925, 1.64856, 1.64573, 1.6557, 1.64208, 1.64455, 1.65597, 1.65471, 1.66439, 1.64826, 1.6388, 1.61264, 1.62008, 1.62587, 1.63158, 1.65555, 1.71637, 1.75772, 1.76191, 1.80145, 1.81507, 1.81861, 1.80763, 1.79317, 1.76911, 1.67866, 1.59329, 1.5762, 1.58055, 1.60346, 1.6019, 1.59124, 1.58816, 1.58321, 1.58266, 1.57882, 1.57809, 1.57715, 1.57521, 1.57495, 1.57337, 1.57145, 1.57543, 1.56675, 1.56469, 1.56439, 1.5627, 1.56069, 1.55906, 1.55567, 1.55274, 1.55104, 1.54867, 1.54361, 1.55497, 1.5522, 1.55716, 1.56549, 1.55456, 1.54415, 1.53169, 1.53696, 1.52956, 1.53164, 1.53172, 1.53098, 1.5379, 1.52788, 1.52672, 1.52255, 1.51923, 1.5156, 1.5108, 1.50907, 1.50428, 1.50097, 1.49666, 1.49314, 1.49222, 1.48666, 1.48652, 1.49278, 1.49261, 1.48889, 1.50834, 1.49546, 1.50097, 1.51083, 1.49968, 1.49467, 1.46693, 1.50546, 1.55526, 1.57276, 1.59645, 1.66596, 1.67863, 1.67147, 1.60338, 1.61144, 1.66554, 1.60972, 1.55543, 1.49814, 1.46096, 1.44412, 1.4669, 1.47296, 1.4824, 1.46544, 1.46291, 1.45104, 1.44729, 1.45365, 1.44472, 1.44341, 1.43892, 1.43894, 1.43805, 1.43618, 1.43636, 1.43392, 1.43274, 1.43218, 1.43179, 1.42936, 1.42834, 1.42579, 1.42433, 1.42211, 1.42124, 1.42015, 1.41733, 1.41701, 1.4169, 1.41874, 1.42022, 1.41858, 1.4177, 1.41689, 1.41477, 1.41331, 1.4118, 1.40917, 1.40803, 1.40812, 1.40746, 1.40536, 1.40622, 1.40266, 1.40222, 1.40122, 1.39935, 1.39633, 1.39464, 1.39495, 1.39308, 1.39484, 1.38937, 1.38823, 1.38369, 1.3841, 1.38245, 1.37909, 1.37856, 1.3778, 1.37412, 1.37396, 1.37491, 1.37513, 1.37271, 1.37128, 1.37075, 1.37208, 1.37784, 1.36967, 1.37447, 1.36746, 1.36428, 1.3643, 1.36815, 1.36626, 1.36686, 1.35862, 1.35081, 1.36099, 1.39628, 1.4398, 1.46135, 1.47023, 1.47798, 1.48175, 1.48623, 1.50195, 1.49411, 1.50955, 1.50548, 1.45789, 1.44268, 1.41634, 1.36491, 1.31404, 1.35135, 1.35597, 1.34713, 1.34151, 1.33758, 1.33487, 1.33352, 1.33198, 1.33133, 1.32872, 1.32843, 1.32495, 1.32531, 1.32264, 1.32147, 1.31964, 1.31974, 1.31935, 1.31952
1.68199, 1.67918, 1.67732, 1.67527, 1.67284, 1.67287, 1.67188, 1.66888, 1.6662, 1.66527, 1.66409, 1.66247, 1.66084, 1.65768, 1.67233, 1.65611, 1.66314, 1.676, 1.67422, 1.6633, 1.65524, 1.60835, 1.617, 1.62091, 1.67474, 1.7313, 1.77253, 1.77874, 1.8803, 1.84524, 1.85958, 1.84146, 1.82549, 1.76281, 1.73103, 1.62875, 1.59916, 1.60167, 1.60974, 1.60451, 1.59628, 1.59643, 1.59703, 1.59754, 1.59489, 1.60128, 1.59926, 1.58639, 1.58391, 1.58207, 1.581, 1.57907, 1.57772, 1.57781, 1.57834, 1.57934, 1.57238, 1.56987, 1.56883, 1.56186, 1.55919, 1.55564, 1.55912, 1.55462, 1.55842, 1.54942, 1.56199, 1.56249, 1.56226, 1.54842, 1.56195, 1.54585, 1.55173, 1.53908, 1.53493, 1.5343, 1.53319, 1.5329, 1.53206, 1.53003, 1.52577, 1.5228, 1.51745, 1.5183, 1.53435, 1.51488, 1.5279, 1.51421, 1.51187, 1.5084, 1.50615, 1.50496, 1.52036, 1.50526, 1.51178, 1.51636, 1.51478, 1.52339, 1.53432, 1.49326, 1.50566, 1.52959, 1.57154, 1.6024, 1.63476, 1.62887, 1.65929, 1.63704, 1.63784, 1.63058, 1.61313, 1.56877, 1.54964, 1.48209, 1.44907, 1.45708, 1.47299, 1.48126, 1.47294, 1.47752, 1.47524, 1.46811, 1.47097, 1.45713, 1.45756, 1.46381, 1.472, 1.44809, 1.44718, 1.44757, 1.44595, 1.44336, 1.44281, 1.44094, 1.43798, 1.43495, 1.43345, 1.43049, 1.4268, 1.42529, 1.42589, 1.42387, 1.42652, 1.42744, 1.43011, 1.43263, 1.43117, 1.42964, 1.4257, 1.41955, 1.41875, 1.41632, 1.41536, 1.41471, 1.41559, 1.4166, 1.41577, 1.41467, 1.41354, 1.41037, 1.40691, 1.40742, 1.40135, 1.3985, 1.40665, 1.39798, 1.39563, 1.39472, 1.3973, 1.39723, 1.39752, 1.39572, 1.39161, 1.391, 1.38661, 1.38459, 1.38506, 1.38682, 1.38419, 1.3803, 1.37636, 1.37488, 1.37495, 1.37573, 1.37467, 1.37578, 1.37502, 1.37589, 1.37337, 1.37027, 1.38549, 1.37263, 1.38475, 1.34684, 1.35444, 1.37279, 1.39698, 1.44076, 1.46488, 1.47556, 1.50715, 1.50827, 1.50738, 1.50898, 1.50319, 1.50876, 1.46596, 1.45439, 1.4259, 1.37799, 1.32557, 1.36131, 1.35073, 1.36247, 1.35565, 1.34046, 1.34476, 1.34711, 1.3408, 1.34363, 1.33654, 1.33946, 1.33978, 1.33957, 1.33947, 1.33376, 1.33079, 1.32657, 1.3262, 1.32368
1.67628, 1.67271, 1.66596, 1.6578, 1.65673, 1.65662, 1.65356, 1.65447, 1.66149, 1.67032, 1.65634, 1.66586, 1.65778, 1.65826, 1.65434, 1.65984, 1.64197, 1.65804, 1.64172, 1.64851, 1.64042, 1.61081, 1.66582, 1.66979, 1.69268, 1.70473, 1.74173, 1.77566, 1.82014, 1.85189, 1.84717, 1.84692, 1.81949, 1.78267, 1.65816, 1.62372, 1.58705, 1.59819, 1.61048, 1.60681, 1.59622, 1.59276, 1.60398, 1.60448, 1.60625, 1.58299, 1.57551, 1.57249, 1.56606, 1.57711, 1.5861, 1.56811, 1.56979, 1.57089, 1.57068, 1.56684, 1.56417, 1.55765, 1.55601, 1.55451, 1.55442, 1.55548, 1.55893, 1.55452, 1.57232, 1.5626, 1.55975, 1.55561, 1.57099, 1.55728, 1.55569, 1.54354, 1.5531, 1.53394, 1.5281, 1.52838, 1.52824, 1.52827, 1.53826, 1.52841, 1.52905, 1.52362, 1.52209, 1.53602, 1.51415, 1.51332, 1.51027, 1.52526, 1.51338, 1.5129, 1.50953, 1.51727, 1.5131, 1.50637, 1.50422, 1.50986, 1.51126, 1.5131, 1.50352, 1.4819, 1.51254, 1.50308, 1.53818, 1.61214, 1.62856, 1.66062, 1.66126, 1.6652, 1.66508, 1.62663, 1.60806, 1.58396, 1.50629, 1.47843, 1.43917, 1.44479, 1.47183, 1.47214, 1.47173, 1.48495, 1.49576, 1.46554, 1.47478, 1.46478, 1.46323, 1.45523, 1.45495, 1.45533, 1.45461, 1.45431, 1.46138, 1.45142, 1.45101, 1.45131, 1.44426, 1.44387, 1.43715, 1.43332, 1.4278, 1.43345, 1.42617, 1.42695, 1.43091, 1.43321, 1.43349, 1.43416, 1.43393, 1.42845, 1.42104, 1.41927, 1.4249, 1.41558, 1.41375, 1.41515, 1.41579, 1.41532, 1.41366, 1.41533, 1.4105, 1.41247, 1.40575, 1.40517, 1.40291, 1.40275, 1.39949, 1.40087, 1.39799, 1.39817, 1.39367, 1.39884, 1.39227, 1.3924, 1.39045, 1.38867, 1.38604, 1.38605, 1.39129, 1.38616, 1.37887, 1.37849, 1.39192, 1.38219, 1.38518, 1.37504, 1.39125, 1.37852, 1.37906, 1.38307, 1.38255, 1.37476, 1.3891, 1.37796, 1.37785, 1.36807, 1.41952, 1.42319, 1.45493, 1.45461, 1.47576, 1.49358, 1.48888, 1.55424, 1.4925, 1.48592, 1.53545, 1.59829, 1.48499, 1.45151, 1.42343, 1.35987, 1.34013, 1.35871, 1.34812, 1.36128, 1.35134, 1.34744, 1.35235, 1.34524, 1.3412, 1.34006, 1.33972, 1.33683, 1.34473, 1.34261, 1.33171, 1.33735, 1.32452, 1.32475, 1.32881, 1.3235
1.67806, 1.6716, 1.66649, 1.65509, 1.68278, 1.66191, 1.6524, 1.6506, 1.65226, 1.66139, 1.65781, 1.65884, 1.65866, 1.65479, 1.64901, 1.64056, 1.63858, 1.63512, 1.6296, 1.64692, 1.62415, 1.60524, 1.61976, 1.63105, 1.66991, 1.73206, 1.74152, 1.77547, 1.81742, 1.85122, 1.89241, 1.86809, 1.87588, 1.80765, 1.74166, 1.62464, 1.61252, 1.59632, 1.61716, 1.61029, 1.60396, 1.60193, 1.59972, 1.59815, 1.59546, 1.59111, 1.59065, 1.57041, 1.56348, 1.5697, 1.56301, 1.5665, 1.58475, 1.57163, 1.56978, 1.5686, 1.56151, 1.56274, 1.5718, 1.57355, 1.54459, 1.54625, 1.54682, 1.54477, 1.54265, 1.54414, 1.55115, 1.54447, 1.56559, 1.55081, 1.5594, 1.54129, 1.53897, 1.5332, 1.5353, 1.53477, 1.53497, 1.53311, 1.53109, 1.52996, 1.52802, 1.52409, 1.51775, 1.5244, 1.50613, 1.50948, 1.50327, 1.52351, 1.51086, 1.51134, 1.50872, 1.51337, 1.49894, 1.49613, 1.49648, 1.49839, 1.50864, 1.49738, 1.49804, 1.47091, 1.47229, 1.4952, 1.54061, 1.58589, 1.60798, 1.61141, 1.64148, 1.6398, 1.63716, 1.64445, 1.61273, 1.58009, 1.57311, 1.50334, 1.43783, 1.43954, 1.46876, 1.47239, 1.4555, 1.46749, 1.4827, 1.47528, 1.48307, 1.46405, 1.45501, 1.45495, 1.45527, 1.45696, 1.45563, 1.45202, 1.45803, 1.43929, 1.4352, 1.43484, 1.43449, 1.42979, 1.42439, 1.42058, 1.41702, 1.41574, 1.41447, 1.41705, 1.43095, 1.43046, 1.43242, 1.43206, 1.42518, 1.41943, 1.41245, 1.40864, 1.4019, 1.3983, 1.39845, 1.39434, 1.39401, 1.39527, 1.39461, 1.3943, 1.3931, 1.39275, 1.39134, 1.3863, 1.38707, 1.38748, 1.38574, 1.38161, 1.37763, 1.37321, 1.37272, 1.37275, 1.37359, 1.37352, 1.37436, 1.37524, 1.37948, 1.38118, 1.38592, 1.39207, 1.38236, 1.3781, 1.37087, 1.36742, 1.36027, 1.35828, 1.35624, 1.35648, 1.35858, 1.35776, 1.35867, 1.36085, 1.36893, 1.37113, 1.36908, 1.35389, 1.34691, 1.4009, 1.40134, 1.48555, 1.47286, 1.47519, 1.50496, 1.5073, 1.53753, 1.52613, 1.52777, 1.52018, 1.5161, 1.45066, 1.41496, 1.35752, 1.32246, 1.32501, 1.36384, 1.35075, 1.35198, 1.34469, 1.34353, 1.33884, 1.33942, 1.33649, 1.33274, 1.32723, 1.31926, 1.31247, 1.30979, 1.31018, 1.30857, 1.30978, 1.30674, 1.30543
1.6755, 1.67482, 1.68382, 1.67205, 1.67545, 1.66785, 1.69024, 1.68578, 1.66417, 1.6855, 1.67213, 1.66322, 1.65559, 1.65177, 1.65946, 1.65362, 1.65211, 1.642, 1.64938, 1.63957, 1.64118, 1.61923, 1.62167, 1.64589, 1.69326, 1.74279, 1.7801, 1.81073, 1.81959, 1.8845, 1.88696, 1.88332, 1.86125, 1.82404, 1.72123, 1.67248, 1.59674, 1.58941, 1.62825, 1.61396, 1.61926, 1.61257, 1.60933, 1.62108, 1.60059, 1.62273, 1.6043, 1.59529, 1.59578, 1.59286, 1.57978, 1.5806, 1.57894, 1.57894, 1.57833, 1.57659, 1.57381, 1.57153, 1.56966, 1.56864, 1.56583, 1.58235, 1.5779, 1.56149, 1.55983, 1.55857, 1.55823, 1.57439, 1.56995, 1.57215, 1.57547, 1.55484, 1.55752, 1.55268, 1.56504, 1.54005, 1.53701, 1.53488, 1.5551, 1.53074, 1.54049, 1.5279, 1.52776, 1.52767, 1.53688, 1.55009, 1.52311, 1.5208, 1.52314, 1.51731, 1.51849, 1.52289, 1.52367, 1.50897, 1.5168, 1.51377, 1.51477, 1.52682, 1.5271, 1.51827, 1.49032, 1.50895, 1.56913, 1.59939, 1.65934, 1.66339, 1.66246, 1.66739, 1.65209, 1.64689, 1.599, 1.58347, 1.57205, 1.51412, 1.4747, 1.44927, 1.48229, 1.48246, 1.47561, 1.48251, 1.47575, 1.4971, 1.49357, 1.48045, 1.47973, 1.48577, 1.47134, 1.47236, 1.46465, 1.45532, 1.46567, 1.45161, 1.44767, 1.44334, 1.44136, 1.44375, 1.43742, 1.43698, 1.43702, 1.43624, 1.43777, 1.43728, 1.43836, 1.43721, 1.43548, 1.43527, 1.43383, 1.43076, 1.42727, 1.42638, 1.4244, 1.42371, 1.42017, 1.4176, 1.41728, 1.41348, 1.41227, 1.41126, 1.42461, 1.4179, 1.40839, 1.40978, 1.40658, 1.40657, 1.40537, 1.40154, 1.39997, 1.40968, 1.3999, 1.39719, 1.39796, 1.39976, 1.39727, 1.39171, 1.39515, 1.39201, 1.39499, 1.39472, 1.39311, 1.39985, 1.40749, 1.40161, 1.39226, 1.38543, 1.39273, 1.38022, 1.38242, 1.37875, 1.3744, 1.39263, 1.38498, 1.39467, 1.39196, 1.37585, 1.35943, 1.39589, 1.39205, 1.43044, 1.44969, 1.46325, 1.47759, 1.51886, 1.50893, 1.51771, 1.5798, 1.54317, 1.46609, 1.48916, 1.45389, 1.35794, 1.35467, 1.35293, 1.35931, 1.36039, 1.35688, 1.34805, 1.35938, 1.35053, 1.36805, 1.34364, 1.3614, 1.33811, 1.34806, 1.33478, 1.33602, 1.33586, 1.33598, 1.33216, 1.33771, 1.33241
1.66795, 1.66586, 1.66418, 1.66213, 1.66083, 1.66137, 1.66019, 1.6584, 1.65824, 1.65692, 1.6543, 1.65336, 1.65585, 1.64534, 1.64391, 1.63889, 1.63681, 1.65114, 1.63814, 1.63457, 1.64547, 1.61653, 1.60611, 1.65055, 1.67654, 1.70959, 1.73787, 1.78774, 1.79066, 1.82859, 1.85904, 1.85063, 1.83947, 1.81075, 1.73016, 1.66835, 1.59785, 1.59287, 1.60764, 1.6036, 1.60367, 1.60313, 1.5935, 1.59181, 1.58767, 1.58283, 1.57951, 1.5754, 1.57265, 1.57588, 1.56928, 1.56719, 1.56414, 1.5693, 1.56114, 1.56149, 1.56185, 1.56387, 1.56157, 1.56102, 1.55738, 1.55532, 1.55275, 1.55804, 1.55027, 1.54938, 1.54851, 1.54739, 1.54578, 1.5412, 1.55855, 1.56412, 1.54555, 1.53426, 1.53375, 1.52736, 1.5253, 1.53353, 1.53384, 1.51915, 1.52149, 1.51845, 1.51726, 1.5165, 1.51517, 1.51317, 1.51221, 1.5124, 1.51192, 1.51008, 1.5083, 1.51652, 1.50252, 1.51216, 1.50015, 1.50018, 1.50664, 1.51689, 1.50221, 1.47565, 1.47502, 1.51396, 1.58537, 1.58158, 1.61295, 1.62681, 1.63827, 1.63444, 1.63039, 1.62662, 1.60693, 1.60266, 1.54812, 1.51734, 1.47968, 1.44688, 1.46566, 1.46488, 1.47861, 1.46746, 1.46478, 1.48205, 1.47694, 1.4873, 1.463, 1.46043, 1.45684, 1.44349, 1.44086, 1.44251, 1.43689, 1.434, 1.43017, 1.42921, 1.42993, 1.42978, 1.43031, 1.43075, 1.43087, 1.43017, 1.42952, 1.42913, 1.42626, 1.42502, 1.42356, 1.42234, 1.42274, 1.42244, 1.42221, 1.45099, 1.4165, 1.41633, 1.41912, 1.41145, 1.411, 1.4113, 1.41078, 1.40765, 1.40516, 1.40429, 1.40222, 1.40041, 1.39864, 1.39832, 1.39469, 1.39301, 1.39258, 1.3907, 1.38847, 1.38576, 1.38465, 1.38164, 1.37993, 1.38124, 1.38064, 1.38097, 1.37919, 1.37963, 1.3785, 1.37792, 1.37801, 1.37747, 1.38155, 1.39624, 1.37389, 1.37956, 1.37921, 1.3715, 1.40532, 1.38402, 1.37125, 1.37695, 1.37381, 1.36355, 1.35587, 1.40012, 1.38954, 1.43789, 1.44788, 1.47111, 1.48576, 1.50733, 1.51069, 1.51201, 1.51235, 1.49441, 1.48451, 1.45649, 1.42599, 1.37179, 1.33988, 1.33413, 1.35174, 1.36578, 1.34772, 1.35618, 1.34349, 1.33581, 1.34035, 1.32887, 1.32855, 1.3275, 1.33141, 1.32521, 1.33939, 1.3331, 1.32596, 1.32659, 1.32413, 1.32579
1.66169, 1.65816, 1.65739, 1.65376, 1.6535, 1.65082, 1.65152, 1.66059, 1.64711, 1.64516, 1.64805, 1.64224, 1.63867, 1.64381, 1.63669, 1.63711, 1.63399, 1.63543, 1.63554, 1.63536, 1.65368, 1.61496, 1.59413, 1.63137, 1.63575, 1.68555, 1.71463, 1.76837, 1.78872, 1.83232, 1.8491, 1.87638, 1.86446, 1.80377, 1.78311, 1.65839, 1.5645, 1.57127, 1.59358, 1.59702, 1.58555, 1.58278, 1.57979, 1.5797, 1.575, 1.57409, 1.57053, 1.58337, 1.5678, 1.56598, 1.58486, 1.56086, 1.55752, 1.55464, 1.55158, 1.55097, 1.54906, 1.54807, 1.54869, 1.54607, 1.54525, 1.54448, 1.54264, 1.54092, 1.54128, 1.55146, 1.54462, 1.54727, 1.54159, 1.53475, 1.53409, 1.54711, 1.55331, 1.53356, 1.52382, 1.52404, 1.52489, 1.5161, 1.52335, 1.51354, 1.51342, 1.51418, 1.51175, 1.50855, 1.50714, 1.50583, 1.50077, 1.50011, 1.49749, 1.50569, 1.49158, 1.49195, 1.4888, 1.48823, 1.4872, 1.48683, 1.48943, 1.48827, 1.48302, 1.47206, 1.46019, 1.51961, 1.54783, 1.57131, 1.57947, 1.59, 1.61643, 1.62502, 1.62313, 1.61997, 1.59276, 1.57098, 1.54534, 1.49937, 1.46698, 1.42804, 1.46449, 1.45711, 1.45738, 1.46573, 1.4571, 1.4847, 1.46715, 1.46514, 1.46152, 1.45027, 1.44743, 1.43621, 1.43991, 1.44714, 1.43044, 1.42859, 1.42798, 1.42688, 1.42581, 1.42621, 1.42646, 1.42662, 1.4276, 1.42642, 1.42575, 1.42465, 1.42402, 1.42016, 1.4178, 1.41674, 1.41449, 1.41269, 1.41245, 1.40887, 1.40662, 1.40424, 1.40153, 1.40313, 1.40716, 1.40999, 1.40857, 1.40648, 1.39624, 1.39292, 1.39001, 1.38954, 1.38788, 1.38472, 1.38513, 1.38274, 1.384, 1.37996, 1.37905, 1.37571, 1.37434, 1.37362, 1.37232, 1.37221, 1.37291, 1.37129, 1.37082, 1.3715, 1.36921, 1.36826, 1.3709, 1.36882, 1.37397, 1.36342, 1.36233, 1.36122, 1.36184, 1.35928, 1.35824, 1.36094, 1.36511, 1.37641, 1.38138, 1.37157, 1.33659, 1.38621, 1.37528, 1.42668, 1.42703, 1.49186, 1.47615, 1.4935, 1.51779, 1.52994, 1.5493, 1.53735, 1.50719, 1.4921, 1.44022, 1.39255, 1.32379, 1.36301, 1.36094, 1.34384, 1.34801, 1.34317, 1.32751, 1.32549, 1.33216, 1.32337, 1.32263, 1.32221, 1.31993, 1.32031, 1.31958, 1.31897, 1.31967, 1.31943, 1.31932, 1.31688
1.66903, 1.68179, 1.66786, 1.66648, 1.66315, 1.66183, 1.65768, 1.65447, 1.66846, 1.64753, 1.65604, 1.65913, 1.65558, 1.65901, 1.6388, 1.63975, 1.63229, 1.64069, 1.63404, 1.63027, 1.6357, 1.6316, 1.6233, 1.64474, 1.66239, 1.67843, 1.72697, 1.75756, 1.81333, 1.83394, 1.86409, 1.86822, 1.85292, 1.76203, 1.68398, 1.64809, 1.58573, 1.57565, 1.60763, 1.59636, 1.60355, 1.5946, 1.59985, 1.58529, 1.59285, 1.58039, 1.5825, 1.59215, 1.58178, 1.5727, 1.58414, 1.58546, 1.5796, 1.56507, 1.58432, 1.55892, 1.55657, 1.55521, 1.56199, 1.55091, 1.55071, 1.54831, 1.55076, 1.55526, 1.54597, 1.54234, 1.53888, 1.53736, 1.55733, 1.53397, 1.5315, 1.531, 1.5377, 1.5452, 1.53851, 1.53038, 1.53372, 1.53447, 1.53346, 1.52994, 1.52711, 1.51786, 1.51653, 1.51122, 1.51787, 1.50669, 1.52676, 1.50276, 1.49985, 1.5029, 1.50259, 1.4959, 1.5021, 1.50522, 1.49358, 1.50448, 1.50717, 1.50129, 1.51436, 1.50612, 1.48153, 1.51275, 1.52674, 1.63062, 1.59082, 1.64834, 1.64059, 1.64156, 1.6287, 1.61226, 1.61212, 1.56139, 1.54095, 1.52701, 1.47536, 1.43699, 1.47273, 1.47213, 1.46497, 1.47065, 1.46474, 1.45819, 1.4588, 1.46899, 1.47058, 1.46454, 1.44802, 1.44143, 1.44528, 1.43406, 1.43729, 1.44723, 1.43625, 1.43503, 1.44457, 1.43269, 1.43203, 1.43039, 1.42735, 1.42578, 1.42452, 1.42388, 1.42028, 1.41969, 1.42054, 1.4197, 1.41889, 1.41672, 1.41362, 1.42335, 1.43717, 1.41248, 1.41926, 1.40907, 1.42432, 1.40837, 1.40632, 1.40629, 1.40396, 1.41256, 1.3986, 1.39574, 1.39359, 1.39171, 1.39544, 1.38905, 1.38687, 1.38517, 1.38482, 1.38479, 1.38323, 1.3797, 1.37852, 1.37839, 1.38551, 1.37777, 1.38488, 1.37577, 1.37603, 1.38175, 1.37409, 1.37097, 1.38546, 1.38897, 1.36718, 1.36773, 1.36944, 1.36381, 1.36232, 1.37885, 1.37041, 1.37866, 1.37132, 1.34366, 1.3264, 1.34032, 1.38847, 1.41403, 1.43421, 1.46801, 1.47856, 1.50073, 1.51602, 1.52392, 1.54714, 1.55312, 1.52328, 1.49171, 1.46102, 1.38202, 1.34065, 1.36415, 1.35524, 1.34897, 1.35013, 1.34597, 1.3513, 1.34478, 1.34701, 1.35946, 1.33235, 1.34286, 1.32653, 1.34323, 1.32266, 1.32157, 1.32296, 1.32273, 1.32672, 1.31992
1.65775, 1.65556, 1.65358, 1.65136, 1.65015, 1.6474, 1.64653, 1.64542, 1.64141, 1.64096, 1.63874, 1.63434, 1.63457, 1.62717, 1.62706, 1.63342, 1.62072, 1.63097, 1.62842, 1.6309, 1.61391, 1.60592, 1.59089, 1.61422, 1.64081, 1.6862, 1.7129, 1.76753, 1.78329, 1.84563, 1.87203, 1.87365, 1.87165, 1.83263, 1.75241, 1.65224, 1.5634, 1.55843, 1.57955, 1.58141, 1.57635, 1.5746, 1.58513, 1.57266, 1.57142, 1.56825, 1.5673, 1.56646, 1.56338, 1.56175, 1.5607, 1.55748, 1.55814, 1.55584, 1.5548, 1.55476, 1.55302, 1.55142, 1.55102, 1.54723, 1.54582, 1.54415, 1.54036, 1.5379, 1.54114, 1.53164, 1.54814, 1.52705, 1.52828, 1.54099, 1.53333, 1.52259, 1.52153, 1.53756, 1.53392, 1.53111, 1.51288, 1.51099, 1.52135, 1.50762, 1.5059, 1.50309, 1.50062, 1.49859, 1.49742, 1.49561, 1.49651, 1.49229, 1.49062, 1.48978, 1.48621, 1.49157, 1.48843, 1.48262, 1.48167, 1.48274, 1.49808, 1.49587, 1.48017, 1.45318, 1.47581, 1.47448, 1.51624, 1.60702, 1.5884, 1.62802, 1.62718, 1.62618, 1.621, 1.62082, 1.62664, 1.57258, 1.53773, 1.5164, 1.45216, 1.42348, 1.43474, 1.46073, 1.46463, 1.46431, 1.44703, 1.44782, 1.45603, 1.4532, 1.4605, 1.45713, 1.45107, 1.43481, 1.43752, 1.42677, 1.428, 1.42589, 1.42407, 1.42235, 1.4207, 1.419, 1.41785, 1.41537, 1.41526, 1.43392, 1.41218, 1.40906, 1.4059, 1.40517, 1.40231, 1.4022, 1.40112, 1.39996, 1.39877, 1.39905, 1.39657, 1.39274, 1.39166, 1.39154, 1.38925, 1.38662, 1.38519, 1.38374, 1.38308, 1.38089, 1.37963, 1.37868, 1.37825, 1.37872, 1.37729, 1.37691, 1.3751, 1.37241, 1.37243, 1.36978, 1.36857, 1.36798, 1.36624, 1.36382, 1.36315, 1.36154, 1.36111, 1.36109, 1.35922, 1.35704, 1.35551, 1.35432, 1.35485, 1.35261, 1.35134, 1.34978, 1.34681, 1.34783, 1.34699, 1.34653, 1.34845, 1.37175, 1.34755, 1.3402, 1.31528, 1.34985, 1.35662, 1.37954, 1.4151, 1.44989, 1.45415, 1.4824, 1.51318, 1.50667, 1.54428, 1.56934, 1.52646, 1.45398, 1.41292, 1.36157, 1.30952, 1.31942, 1.33721, 1.34712, 1.32908, 1.3419, 1.32119, 1.31764, 1.31374, 1.32333, 1.31212, 1.31587, 1.30731, 1.3065, 1.31502, 1.30638, 1.30296, 1.30573, 1.30207, 1.30289
1.65643, 1.64911, 1.64998, 1.64643, 1.64476, 1.64406, 1.64415, 1.63992, 1.64183, 1.63476, 1.64065, 1.63479, 1.62986, 1.62643, 1.62402, 1.6227, 1.61746, 1.61382, 1.61438, 1.61691, 1.62517, 1.60696, 1.57851, 1.58052, 1.64606, 1.68808, 1.71983, 1.73836, 1.79987, 1.82469, 1.89724, 1.9195, 1.86538, 1.86183, 1.77007, 1.61295, 1.58817, 1.55569, 1.58177, 1.58411, 1.58824, 1.57645, 1.57609, 1.57354, 1.5712, 1.56841, 1.56647, 1.56384, 1.56236, 1.55909, 1.55857, 1.55586, 1.55557, 1.55398, 1.55281, 1.55255, 1.55063, 1.54818, 1.54726, 1.54571, 1.54288, 1.54027, 1.53708, 1.53358, 1.53228, 1.53024, 1.5278, 1.52411, 1.52321, 1.52149, 1.51844, 1.52368, 1.5272, 1.51689, 1.51834, 1.52658, 1.52461, 1.53293, 1.51105, 1.51315, 1.50518, 1.51192, 1.5026, 1.5009, 1.5006, 1.50011, 1.49903, 1.51329, 1.50433, 1.50677, 1.4892, 1.49062, 1.4902, 1.48675, 1.48665, 1.48543, 1.49271, 1.48807, 1.49258, 1.47697, 1.46741, 1.48867, 1.49729, 1.52666, 1.56786, 1.58679, 1.61997, 1.63092, 1.61728, 1.59942, 1.58839, 1.59638, 1.56148, 1.4947, 1.50683, 1.43391, 1.43337, 1.45436, 1.46478, 1.46365, 1.44834, 1.45634, 1.44345, 1.44368, 1.44891, 1.46471, 1.46179, 1.43701, 1.43687, 1.43025, 1.4263, 1.4263, 1.42406, 1.41973, 1.43409, 1.41929, 1.41527, 1.4134, 1.41035, 1.40851, 1.40684, 1.40424, 1.40261, 1.40312, 1.40343, 1.40046, 1.39818, 1.40559, 1.39432, 1.39458, 1.39235, 1.39217, 1.39015, 1.38852, 1.38842, 1.38816, 1.38484, 1.3864, 1.38438, 1.38134, 1.38076, 1.38123, 1.37927, 1.37742, 1.37561, 1.37534, 1.3738, 1.37272, 1.37064, 1.36947, 1.36869, 1.36412, 1.36429, 1.36266, 1.36095, 1.35831, 1.35711, 1.35752, 1.35683, 1.35523, 1.35351, 1.3532, 1.35037, 1.34816, 1.34646, 1.34576, 1.34534, 1.34766, 1.34337, 1.35059, 1.34561, 1.34374, 1.36124, 1.33601, 1.35419, 1.34173, 1.37025, 1.43707, 1.48, 1.47758, 1.51545, 1.52761, 1.54242, 1.54396, 1.53667, 1.52739, 1.50734, 1.45886, 1.39283, 1.33135, 1.28489, 1.29504, 1.33133, 1.34203, 1.32414, 1.32224, 1.32188, 1.31332, 1.3131, 1.31105, 1.30899, 1.30699, 1.30654, 1.30715, 1.30263, 1.30188, 1.30319, 1.30223, 1.30442, 1.30197
1.64884, 1.6455, 1.64253, 1.64119, 1.63824, 1.63721, 1.6352, 1.63172, 1.63174, 1.65465, 1.629, 1.62619, 1.62224, 1.63339, 1.6306, 1.62261, 1.62269, 1.62238, 1.62105, 1.62012, 1.62694, 1.61091, 1.60208, 1.59656, 1.6391, 1.67995, 1.7194, 1.7551, 1.80839, 1.81295, 1.87968, 1.89554, 1.90007, 1.85257, 1.76167, 1.64347, 1.59174, 1.55973, 1.58523, 1.58658, 1.58496, 1.57879, 1.5797, 1.57601, 1.56871, 1.57652, 1.56578, 1.56378, 1.56202, 1.55873, 1.556, 1.55363, 1.55108, 1.55476, 1.54216, 1.54037, 1.53718, 1.54104, 1.5437, 1.54363, 1.54335, 1.54435, 1.53725, 1.53711, 1.53357, 1.53071, 1.53055, 1.54762, 1.5314, 1.52661, 1.5233, 1.52377, 1.52157, 1.52722, 1.5212, 1.51505, 1.54012, 1.53658, 1.52784, 1.51069, 1.51016, 1.50534, 1.51047, 1.50514, 1.50351, 1.50187, 1.50174, 1.5005, 1.4996, 1.49876, 1.49644, 1.49448, 1.49219, 1.48863, 1.48776, 1.48836, 1.48872, 1.48985, 1.49664, 1.48557, 1.45907, 1.47886, 1.49254, 1.52453, 1.54366, 1.60039, 1.60081, 1.6067, 1.61664, 1.61635, 1.59003, 1.59214, 1.5599, 1.53097, 1.46489, 1.44295, 1.44299, 1.45236, 1.46804, 1.45808, 1.45017, 1.45128, 1.45375, 1.44496, 1.44692, 1.46235, 1.46247, 1.4513, 1.44151, 1.44548, 1.43103, 1.43709, 1.4344, 1.42403, 1.4223, 1.44245, 1.41819, 1.4173, 1.4178, 1.41377, 1.41335, 1.41222, 1.41026, 1.40924, 1.40826, 1.40732, 1.40495, 1.40321, 1.4014, 1.40123, 1.39954, 1.39856, 1.39813, 1.39799, 1.39688, 1.39556, 1.39469, 1.39463, 1.39148, 1.38909, 1.38991, 1.38813, 1.38726, 1.38661, 1.38443, 1.38241, 1.38082, 1.38378, 1.3781, 1.37694, 1.375, 1.36487, 1.36902, 1.36877, 1.37774, 1.36752, 1.3651, 1.3636, 1.36266, 1.3618, 1.36004, 1.3592, 1.35859, 1.35833, 1.35522, 1.35349, 1.35313, 1.35335, 1.35066, 1.35156, 1.35155, 1.36093, 1.36803, 1.36456, 1.34465, 1.37141, 1.35183, 1.36497, 1.47939, 1.46066, 1.47198, 1.48478, 1.50356, 1.5271, 1.52749, 1.51609, 1.49015, 1.44175, 1.41909, 1.32945, 1.33987, 1.31669, 1.33717, 1.32526, 1.33092, 1.32356, 1.31752, 1.31514, 1.34127, 1.31616, 1.31289, 1.31245, 1.31176, 1.31034, 1.30897, 1.30899, 1.30797, 1.30812, 1.30658, 1.30544
1.65105, 1.64929, 1.64516, 1.65115, 1.64259, 1.64467, 1.64422, 1.64505, 1.64531, 1.63097, 1.62763, 1.62679, 1.63783, 1.62638, 1.62504, 1.62192, 1.62097, 1.6373, 1.63736, 1.61658, 1.61854, 1.61731, 1.59996, 1.59984, 1.67204, 1.68968, 1.7253, 1.75235, 1.811, 1.84363, 1.8727, 1.87815, 1.89534, 1.81091, 1.78634, 1.66282, 1.59049, 1.55892, 1.5954, 1.58392, 1.57976, 1.58474, 1.57367, 1.5722, 1.5687, 1.56698, 1.56291, 1.5644, 1.55883, 1.55295, 1.55571, 1.55115, 1.55051, 1.54759, 1.54877, 1.54216, 1.54138, 1.54185, 1.54344, 1.54406, 1.54198, 1.54047, 1.53903, 1.5357, 1.5335, 1.52926, 1.52704, 1.52695, 1.5261, 1.52352, 1.5201, 1.52291, 1.5186, 1.51753, 1.51615, 1.51126, 1.51858, 1.52788, 1.53068, 1.52045, 1.5042, 1.50814, 1.49923, 1.49959, 1.49979, 1.49609, 1.4952, 1.4889, 1.48933, 1.48636, 1.48534, 1.48626, 1.48578, 1.4827, 1.48164, 1.49584, 1.48368, 1.48851, 1.48212, 1.48353, 1.45774, 1.46817, 1.50805, 1.52964, 1.57924, 1.6273, 1.59559, 1.59976, 1.59964, 1.58852, 1.56814, 1.5575, 1.54921, 1.51136, 1.48226, 1.4276, 1.44118, 1.46147, 1.44917, 1.4611, 1.44999, 1.44378, 1.43323, 1.43254, 1.43234, 1.44792, 1.45103, 1.45743, 1.43739, 1.4305, 1.4331, 1.42402, 1.42204, 1.4367, 1.43062, 1.42808, 1.42348, 1.41319, 1.41354, 1.41377, 1.41443, 1.41531, 1.41097, 1.40938, 1.40703, 1.40702, 1.39997, 1.3988, 1.40169, 1.39951, 1.40001, 1.40017, 1.39581, 1.39581, 1.39468, 1.3931, 1.39485, 1.39473, 1.39203, 1.3913, 1.38921, 1.38694, 1.38519, 1.38441, 1.38355, 1.37841, 1.37771, 1.37697, 1.37649, 1.3754, 1.37083, 1.37052, 1.36718, 1.36488, 1.36455, 1.36452, 1.36234, 1.36395, 1.36095, 1.35938, 1.35958, 1.35846, 1.35779, 1.35727, 1.36887, 1.35676, 1.35511, 1.35369, 1.35802, 1.35367, 1.34785, 1.35995, 1.36825, 1.36177, 1.33772, 1.31929, 1.36837, 1.46942, 1.48317, 1.47106, 1.47328, 1.50551, 1.53256, 1.54145, 1.54767, 1.54803, 1.53066, 1.46448, 1.43936, 1.38987, 1.329, 1.30934, 1.32983, 1.3435, 1.33383, 1.32084, 1.32374, 1.31448, 1.31392, 1.31208, 1.31258, 1.31242, 1.31112, 1.31042, 1.31097, 1.30997, 1.3093, 1.30702, 1.30529, 1.2991
1.66097, 1.65826, 1.68478, 1.65416, 1.65738, 1.6593, 1.65367, 1.65153, 1.64513, 1.65735, 1.64021, 1.64768, 1.63628, 1.6366, 1.62987, 1.6281, 1.62439, 1.62434, 1.62054, 1.62004, 1.62042, 1.64004, 1.59637, 1.5965, 1.62633, 1.669, 1.68507, 1.73257, 1.77671, 1.83215, 1.86593, 1.86771, 1.94103, 1.80721, 1.74834, 1.71586, 1.5988, 1.56932, 1.58125, 1.61528, 1.58609, 1.59111, 1.5781, 1.58161, 1.57176, 1.56901, 1.56725, 1.56384, 1.56087, 1.55961, 1.55742, 1.56195, 1.55464, 1.55914, 1.56234, 1.54908, 1.55075, 1.54654, 1.54709, 1.54425, 1.54298, 1.5416, 1.53813, 1.53606, 1.53402, 1.5322, 1.52969, 1.52932, 1.52694, 1.526, 1.54069, 1.52139, 1.52077, 1.51655, 1.52342, 1.51369, 1.52071, 1.50241, 1.53087, 1.53693, 1.51656, 1.51243, 1.50222, 1.49939, 1.49892, 1.50246, 1.49363, 1.49918, 1.49189, 1.49011, 1.49889, 1.48635, 1.48472, 1.48429, 1.48258, 1.48724, 1.5018, 1.49519, 1.49768, 1.49407, 1.45641, 1.45371, 1.49543, 1.54338, 1.54385, 1.58816, 1.61056, 1.61525, 1.61007, 1.58486, 1.58436, 1.57645, 1.55184, 1.529, 1.47523, 1.47558, 1.44372, 1.46525, 1.4558, 1.4545, 1.44079, 1.44103, 1.43541, 1.43798, 1.43517, 1.43406, 1.4436, 1.45473, 1.46118, 1.45872, 1.43983, 1.42925, 1.42535, 1.41993, 1.41939, 1.42693, 1.41608, 1.41409, 1.41278, 1.41228, 1.41045, 1.41007, 1.40946, 1.40836, 1.40515, 1.40482, 1.4094, 1.40073, 1.40007, 1.39868, 1.39772, 1.3963, 1.39486, 1.39419, 1.39256, 1.38991, 1.39079, 1.38983, 1.38926, 1.38557, 1.38643, 1.38311, 1.38182, 1.37878, 1.37886, 1.37728, 1.37531, 1.37409, 1.37216, 1.37064, 1.36894, 1.36832, 1.3658, 1.36279, 1.36382, 1.36377, 1.36197, 1.36001, 1.36125, 1.36054, 1.36155, 1.35932, 1.36316, 1.35575, 1.36778, 1.35402, 1.3613, 1.35199, 1.35777, 1.37141, 1.36051, 1.36105, 1.36879, 1.37916, 1.35029, 1.33556, 1.36896, 1.43101, 1.4347, 1.44334, 1.47906, 1.50249, 1.55089, 1.54055, 1.56717, 1.54084, 1.54276, 1.47782, 1.39825, 1.38896, 1.32854, 1.32931, 1.33263, 1.34832, 1.33697, 1.32319, 1.32102, 1.31718, 1.31833, 1.31578, 1.31444, 1.33121, 1.31424, 1.31349, 1.3125, 1.31223, 1.30987, 1.30681, 1.30847, 1.30602
1.65848, 1.65625, 1.65364, 1.6513, 1.65154, 1.66295, 1.64883, 1.64478, 1.64203, 1.63893, 1.63669, 1.6437, 1.63134, 1.64432, 1.62832, 1.62498, 1.62395, 1.62303, 1.62026, 1.61917, 1.63166, 1.6206, 1.59478, 1.59513, 1.61898, 1.64015, 1.69289, 1.7244, 1.77581, 1.81431, 1.84304, 1.87348, 1.90271, 1.89698, 1.76872, 1.69336, 1.60751, 1.55605, 1.55908, 1.58935, 1.58536, 1.58853, 1.57274, 1.57244, 1.56553, 1.56468, 1.56489, 1.56791, 1.55756, 1.59536, 1.55359, 1.5526, 1.55234, 1.55419, 1.54952, 1.54819, 1.54754, 1.54593, 1.54428, 1.54388, 1.54028, 1.53999, 1.54053, 1.53746, 1.53436, 1.5412, 1.53071, 1.52774, 1.52439, 1.52241, 1.52116, 1.51978, 1.52006, 1.51605, 1.5141, 1.5206, 1.52398, 1.51663, 1.51545, 1.52077, 1.52533, 1.52108, 1.5068, 1.49745, 1.49576, 1.49286, 1.49268, 1.4933, 1.48955, 1.4893, 1.48946, 1.50525, 1.48376, 1.48133, 1.48112, 1.48178, 1.48312, 1.48532, 1.49839, 1.47578, 1.45019, 1.47403, 1.49508, 1.51616, 1.55099, 1.58023, 1.58291, 1.59489, 1.62099, 1.59008, 1.61647, 1.5916, 1.53221, 1.49659, 1.47916, 1.46061, 1.42594, 1.44754, 1.45789, 1.45809, 1.45011, 1.43778, 1.43671, 1.43377, 1.4336, 1.43461, 1.43412, 1.44365, 1.44633, 1.44454, 1.44074, 1.43217, 1.42295, 1.43503, 1.43986, 1.41492, 1.41333, 1.41501, 1.40914, 1.40946, 1.41103, 1.40775, 1.40753, 1.40605, 1.40487, 1.40476, 1.40321, 1.39978, 1.39978, 1.39788, 1.3953, 1.39393, 1.39588, 1.39507, 1.39405, 1.39023, 1.39019, 1.38812, 1.38661, 1.38652, 1.38338, 1.38157, 1.37933, 1.37852, 1.37957, 1.37909, 1.37867, 1.37506, 1.37235, 1.37007, 1.36894, 1.36809, 1.36763, 1.36705, 1.36652, 1.36512, 1.36379, 1.36286, 1.36078, 1.36053, 1.35986, 1.35924, 1.35729, 1.35725, 1.35772, 1.35684, 1.35437, 1.35338, 1.3536, 1.35807, 1.36397, 1.3575, 1.35089, 1.35154, 1.33351, 1.32123, 1.3533, 1.41584, 1.43385, 1.46154, 1.48975, 1.51565, 1.52488, 1.54707, 1.55369, 1.54462, 1.52589, 1.49647, 1.42881, 1.35366, 1.32453, 1.32115, 1.33348, 1.34779, 1.33225, 1.33392, 1.33587, 1.34452, 1.32573, 1.33306, 1.32446, 1.32041, 1.32028, 1.32276, 1.3176, 1.32712, 1.31321, 1.31029, 1.30928, 1.30935
1.65535, 1.65382, 1.65192, 1.64872, 1.64727, 1.64486, 1.64361, 1.64153, 1.63842, 1.63843, 1.63445, 1.63317, 1.63092, 1.62972, 1.6317, 1.62652, 1.62446, 1.62266, 1.62147, 1.62163, 1.61988, 1.63253, 1.60418, 1.59901, 1.62221, 1.64552, 1.69578, 1.70854, 1.73658, 1.76796, 1.81277, 1.92014, 1.92789, 1.89827, 1.80201, 1.70455, 1.58381, 1.55983, 1.56872, 1.58741, 1.58274, 1.58165, 1.5751, 1.57226, 1.56906, 1.5704, 1.5648, 1.57237, 1.56111, 1.5596, 1.55839, 1.55912, 1.55894, 1.554, 1.55375, 1.55287, 1.55134, 1.54868, 1.54748, 1.54545, 1.54305, 1.54058, 1.53753, 1.53741, 1.53632, 1.53531, 1.53243, 1.52986, 1.52935, 1.52711, 1.52537, 1.52266, 1.51951, 1.51907, 1.51576, 1.51411, 1.52308, 1.51234, 1.51165, 1.52873, 1.52177, 1.52029, 1.52783, 1.51599, 1.49891, 1.49845, 1.49726, 1.50224, 1.49388, 1.49227, 1.4918, 1.48991, 1.48848, 1.48677, 1.48667, 1.49546, 1.48508, 1.49227, 1.48546, 1.49107, 1.45795, 1.45781, 1.48232, 1.50039, 1.52057, 1.5692, 1.58018, 1.57089, 1.63146, 1.61636, 1.5881, 1.5741, 1.56796, 1.52299, 1.52576, 1.48156, 1.43955, 1.46254, 1.46233, 1.46106, 1.45105, 1.44136, 1.43977, 1.43671, 1.45052, 1.43448, 1.43307, 1.43273, 1.43788, 1.45133, 1.44351, 1.45457, 1.44271, 1.4232, 1.41924, 1.41706, 1.41451, 1.41358, 1.41234, 1.41109, 1.40935, 1.40854, 1.40633, 1.40605, 1.40597, 1.40612, 1.40339, 1.4019, 1.40085, 1.40068, 1.39986, 1.39931, 1.39686, 1.39529, 1.39469, 1.39531, 1.39169, 1.38974, 1.38821, 1.38637, 1.38461, 1.38352, 1.38171, 1.37907, 1.37799, 1.37704, 1.37426, 1.37236, 1.37137, 1.36937, 1.36798, 1.36658, 1.36608, 1.36598, 1.3643, 1.36444, 1.36127, 1.36105, 1.36, 1.36003, 1.3602, 1.35731, 1.35691, 1.35565, 1.35432, 1.35252, 1.35277, 1.35003, 1.34657, 1.34587, 1.34608, 1.34653, 1.35449, 1.35707, 1.35155, 1.32298, 1.3477, 1.40076, 1.45494, 1.44476, 1.47842, 1.49211, 1.38222, 1.38751, 1.38593, 1.5674, 1.54828, 1.50906, 1.37902, 1.35472, 1.3171, 1.32985, 1.33376, 1.35514, 1.33264, 1.33153, 1.32868, 1.32765, 1.32414, 1.32336, 1.31992, 1.31946, 1.32916, 1.31781, 1.3158, 1.31459, 1.31337, 1.31239, 1.31176, 1.30931
1.65472, 1.65291, 1.65248, 1.64942, 1.64776, 1.64641, 1.64333, 1.63835, 1.63646, 1.63521, 1.63171, 1.63101, 1.63064, 1.63355, 1.64529, 1.62425, 1.62222, 1.62757, 1.62294, 1.63315, 1.63038, 1.62906, 1.63291, 1.58273, 1.61804, 1.6551, 1.71367, 1.7066, 1.75508, 1.78982, 1.8576, 1.87826, 1.9021, 1.88225, 1.79955, 1.71296, 1.62505, 1.56469, 1.57508, 1.59663, 1.59525, 1.60241, 1.58721, 1.57772, 1.58558, 1.57916, 1.58699, 1.57464, 1.56641, 1.57052, 1.56907, 1.556, 1.55399, 1.55177, 1.54896, 1.54814, 1.54686, 1.54696, 1.54648, 1.54357, 1.54209, 1.54253, 1.58769, 1.5402, 1.5385, 1.53798, 1.53538, 1.53242, 1.53016, 1.52789, 1.53086, 1.52401, 1.52084, 1.52139, 1.51683, 1.52033, 1.51433, 1.51273, 1.52362, 1.52363, 1.52783, 1.51318, 1.52266, 1.52794, 1.50448, 1.506, 1.50539, 1.5042, 1.51274, 1.50401, 1.49356, 1.49189, 1.48833, 1.48808, 1.48637, 1.48636, 1.48724, 1.48713, 1.48967, 1.49276, 1.45471, 1.47213, 1.50869, 1.52755, 1.55726, 1.56626, 1.64479, 1.60084, 1.58518, 1.57823, 1.57512, 1.55505, 1.53239, 1.53374, 1.47961, 1.45905, 1.42695, 1.45375, 1.46483, 1.45814, 1.45452, 1.45262, 1.4534, 1.44072, 1.43968, 1.43769, 1.43551, 1.4339, 1.43247, 1.43853, 1.4422, 1.43481, 1.43847, 1.43029, 1.42158, 1.42058, 1.41887, 1.4168, 1.4154, 1.41365, 1.41267, 1.41128, 1.40957, 1.40864, 1.40673, 1.40748, 1.40691, 1.40497, 1.40424, 1.40384, 1.40053, 1.39917, 1.39712, 1.39537, 1.39461, 1.3925, 1.39184, 1.38958, 1.38702, 1.38587, 1.38417, 1.38262, 1.38208, 1.38182, 1.3815, 1.37915, 1.37677, 1.37394, 1.3743, 1.37206, 1.37013, 1.37057, 1.368, 1.3644, 1.36361, 1.36123, 1.36116, 1.36074, 1.36069, 1.36002, 1.35884, 1.35545, 1.35533, 1.35476, 1.3539, 1.35375, 1.353, 1.35123, 1.35062, 1.34907, 1.35318, 1.34878, 1.3501, 1.35139, 1.35056, 1.32371, 1.32609, 1.39356, 1.41191, 1.43874, 1.49794, 1.49925, 1.5258, 1.56978, 1.56117, 1.55169, 1.49833, 1.47179, 1.43091, 1.39919, 1.34335, 1.31588, 1.35162, 1.33649, 1.33693, 1.32703, 1.32602, 1.32587, 1.32403, 1.326, 1.31948, 1.32868, 1.31593, 1.31518, 1.32346, 1.31372, 1.31524, 1.30981, 1.30941, 1.31133
1.6662, 1.65389, 1.65194, 1.64919, 1.64684, 1.64405, 1.64064, 1.64005, 1.63659, 1.63591, 1.63187, 1.63045, 1.6292, 1.62522, 1.62354, 1.6358, 1.62448, 1.62248, 1.62134, 1.62156, 1.62313, 1.62601, 1.6168, 1.59604, 1.60718, 1.62337, 1.66886, 1.70985, 1.74651, 1.75965, 1.87613, 1.8789, 2.01809, 1.96097, 1.84444, 1.67517, 1.57852, 1.57016, 1.59169, 1.5878, 1.60014, 1.58658, 1.57612, 1.57471, 1.57188, 1.56857, 1.56683, 1.5778, 1.56315, 1.55991, 1.55908, 1.55569, 1.55295, 1.55199, 1.54946, 1.54846, 1.54926, 1.54356, 1.54238, 1.54105, 1.54026, 1.54048, 1.53868, 1.53663, 1.53307, 1.53211, 1.53406, 1.532, 1.52889, 1.52352, 1.52111, 1.52728, 1.51863, 1.51607, 1.51395, 1.51385, 1.51333, 1.50935, 1.51369, 1.51672, 1.50729, 1.53038, 1.53309, 1.52451, 1.51698, 1.51021, 1.50014, 1.49776, 1.49732, 1.51282, 1.49542, 1.4932, 1.48962, 1.48851, 1.48592, 1.48427, 1.48378, 1.48497, 1.49221, 1.47697, 1.46518, 1.46242, 1.47892, 1.51339, 1.51307, 1.55395, 1.57479, 1.58263, 1.55901, 1.55764, 1.55898, 1.55239, 1.54129, 1.49988, 1.47522, 1.45578, 1.42207, 1.44675, 1.45346, 1.45828, 1.45007, 1.44567, 1.44068, 1.44834, 1.43839, 1.437, 1.43442, 1.43283, 1.43077, 1.43044, 1.44004, 1.44098, 1.44791, 1.43712, 1.42294, 1.43224, 1.43037, 1.42438, 1.41294, 1.41003, 1.4107, 1.41066, 1.41081, 1.4101, 1.40869, 1.4078, 1.4071, 1.40494, 1.40241, 1.40182, 1.40018, 1.40009, 1.39959, 1.39858, 1.39603, 1.39353, 1.39189, 1.38931, 1.38893, 1.38756, 1.38671, 1.3856, 1.38392, 1.38257, 1.38127, 1.37997, 1.3777, 1.37628, 1.37169, 1.37157, 1.3706, 1.36848, 1.36425, 1.36158, 1.36019, 1.35762, 1.35682, 1.35474, 1.35341, 1.35301, 1.35505, 1.3538, 1.35356, 1.35416, 1.35394, 1.34964, 1.34948, 1.34798, 1.3491, 1.3478, 1.34761, 1.34846, 1.36091, 1.35445, 1.35259, 1.34799, 1.36885, 1.38571, 1.41054, 1.44023, 1.49772, 1.509, 1.56091, 1.61671, 1.61057, 1.6116, 1.64082, 1.57538, 1.41554, 1.39244, 1.31592, 1.30572, 1.32778, 1.32799, 1.33487, 1.33134, 1.31903, 1.31676, 1.31721, 1.31454, 1.31874, 1.33333, 1.31583, 1.31256, 1.31294, 1.31443, 1.31394, 1.31487, 1.3094, 1.30597
1.6552, 1.64912, 1.64785, 1.64759, 1.64502, 1.64332, 1.64084, 1.63799, 1.6353, 1.63453, 1.63078, 1.62871, 1.62855, 1.62678, 1.62408, 1.6233, 1.64733, 1.62166, 1.62005, 1.61784, 1.62672, 1.61992, 1.62084, 1.5826, 1.60264, 1.69658, 1.68941, 1.70517, 1.75452, 1.80342, 1.88902, 1.88331, 1.90845, 1.95549, 1.86195, 1.6832, 1.65258, 1.56428, 1.56862, 1.58636, 1.58459, 1.5848, 1.59081, 1.58798, 1.56966, 1.56762, 1.56482, 1.56216, 1.56067, 1.55971, 1.5604, 1.55934, 1.55517, 1.55256, 1.55043, 1.5544, 1.54781, 1.54508, 1.54066, 1.53964, 1.54035, 1.53804, 1.53552, 1.5315, 1.53061, 1.5302, 1.528, 1.52728, 1.52475, 1.52313, 1.52058, 1.51957, 1.51794, 1.5171, 1.51354, 1.50999, 1.50952, 1.50901, 1.50897, 1.50678, 1.50572, 1.50619, 1.50326, 1.51453, 1.52418, 1.51758, 1.51969, 1.49993, 1.49511, 1.49504, 1.49255, 1.4908, 1.48714, 1.48455, 1.48566, 1.48491, 1.49617, 1.48891, 1.48764, 1.4742, 1.47344, 1.46707, 1.48498, 1.55367, 1.55048, 1.55798, 1.57202, 1.57514, 1.56864, 1.55466, 1.55426, 1.54554, 1.54128, 1.53289, 1.48084, 1.51034, 1.4238, 1.44605, 1.4526, 1.46856, 1.45936, 1.45143, 1.44203, 1.43512, 1.43502, 1.43269, 1.43042, 1.42818, 1.42679, 1.4238, 1.42405, 1.43806, 1.45431, 1.46191, 1.44983, 1.44552, 1.4437, 1.4131, 1.41289, 1.41031, 1.40893, 1.40851, 1.40922, 1.40759, 1.4056, 1.40512, 1.40508, 1.40522, 1.40472, 1.40673, 1.40233, 1.39918, 1.39973, 1.39816, 1.39752, 1.39623, 1.3946, 1.3939, 1.39197, 1.38947, 1.38811, 1.38647, 1.38485, 1.38259, 1.38111, 1.38071, 1.37859, 1.37686, 1.37763, 1.37335, 1.37153, 1.3679, 1.36593, 1.36446, 1.36337, 1.36418, 1.36179, 1.35727, 1.35396, 1.35454, 1.35436, 1.35245, 1.35307, 1.35416, 1.35263, 1.35343, 1.35204, 1.35323, 1.36202, 1.35171, 1.35119, 1.35388, 1.37143, 1.35408, 1.36122, 1.34393, 1.34876, 1.41557, 1.43398, 1.45148, 1.49899, 1.51649, 1.59575, 1.58482, 1.59341, 1.61603, 1.58713, 1.54764, 1.50971, 1.36531, 1.2995, 1.31893, 1.33284, 1.32909, 1.33449, 1.32659, 1.33315, 1.32933, 1.32015, 1.31997, 1.32819, 1.31941, 1.31634, 1.31585, 1.31528, 1.31483, 1.31176, 1.31043, 1.30917, 1.30739
1.65116, 1.65357, 1.64862, 1.64557, 1.64239, 1.64126, 1.64, 1.63719, 1.63344, 1.63063, 1.64406, 1.62662, 1.62515, 1.62324, 1.62244, 1.62392, 1.62026, 1.62005, 1.61858, 1.61833, 1.61613, 1.61738, 1.61873, 1.61384, 1.5923, 1.62288, 1.65792, 1.6728, 1.71429, 1.79366, 1.8576, 1.86823, 1.93871, 1.87572, 1.81115, 1.67129, 1.59483, 1.56754, 1.57553, 1.59151, 1.59307, 1.58626, 1.57417, 1.57156, 1.56866, 1.56666, 1.56575, 1.56333, 1.56763, 1.5592, 1.55744, 1.55886, 1.56063, 1.55041, 1.54828, 1.54746, 1.54501, 1.54482, 1.54107, 1.54028, 1.53817, 1.53669, 1.53599, 1.53692, 1.53243, 1.53004, 1.52662, 1.5242, 1.52331, 1.5222, 1.51724, 1.51586, 1.51334, 1.51337, 1.51178, 1.5079, 1.50989, 1.50261, 1.50023, 1.49857, 1.49858, 1.49894, 1.49922, 1.50512, 1.51272, 1.51463, 1.51701, 1.50554, 1.49483, 1.50007, 1.49318, 1.49326, 1.48947, 1.48731, 1.48272, 1.4813, 1.49337, 1.49572, 1.48468, 1.47543, 1.45332, 1.45593, 1.47312, 1.52014, 1.55111, 1.59602, 1.59204, 1.57446, 1.57003, 1.55089, 1.54863, 1.54917, 1.55492, 1.53055, 1.51636, 1.48662, 1.45144, 1.43191, 1.45529, 1.45189, 1.44709, 1.45487, 1.43829, 1.43742, 1.43296, 1.43269, 1.42944, 1.428, 1.42635, 1.44796, 1.42564, 1.42303, 1.41782, 1.42212, 1.41645, 1.40229, 1.40652, 1.41239, 1.4094, 1.40761, 1.40739, 1.40621, 1.40616, 1.41299, 1.40661, 1.40412, 1.40286, 1.40093, 1.4002, 1.39823, 1.39679, 1.39654, 1.39406, 1.39397, 1.39218, 1.39166, 1.39139, 1.39005, 1.38911, 1.38776, 1.38681, 1.3864, 1.38427, 1.38338, 1.3839, 1.38228, 1.38139, 1.37991, 1.37742, 1.37545, 1.37459, 1.37394, 1.37891, 1.36875, 1.36742, 1.36473, 1.3628, 1.36215, 1.35986, 1.3595, 1.35659, 1.35567, 1.35404, 1.3534, 1.35331, 1.35504, 1.35462, 1.35148, 1.35032, 1.34906, 1.34995, 1.34974, 1.35318, 1.35328, 1.35138, 1.33828, 1.31802, 1.37883, 1.38229, 1.44049, 1.50216, 1.51718, 1.55073, 1.56734, 1.58248, 1.6149, 1.57309, 1.55475, 1.45069, 1.36474, 1.32273, 1.29941, 1.33773, 1.33822, 1.3411, 1.32361, 1.32076, 1.31923, 1.31904, 1.32084, 1.31634, 1.3166, 1.31606, 1.33626, 1.31248, 1.31231, 1.31092, 1.30875, 1.30747, 1.30529
1.65605, 1.64929, 1.64894, 1.64606, 1.64569, 1.64088, 1.64567, 1.64408, 1.6335, 1.63225, 1.62972, 1.62718, 1.62557, 1.62492, 1.62281, 1.6226, 1.63186, 1.62103, 1.62414, 1.61854, 1.61772, 1.6201, 1.6227, 1.61092, 1.59651, 1.64731, 1.68194, 1.68969, 1.72478, 1.78642, 1.84072, 1.85657, 1.99046, 1.97983, 1.89233, 1.79073, 1.61409, 1.55075, 1.56718, 1.58334, 1.58212, 1.57647, 1.57557, 1.58037, 1.5808, 1.56899, 1.56649, 1.56459, 1.56037, 1.55839, 1.55752, 1.55529, 1.55542, 1.55123, 1.54866, 1.54736, 1.54636, 1.54378, 1.54319, 1.54134, 1.543, 1.53828, 1.53706, 1.53546, 1.534, 1.53225, 1.53053, 1.52949, 1.52602, 1.52321, 1.52151, 1.51997, 1.51678, 1.514, 1.51225, 1.50911, 1.50752, 1.50581, 1.50346, 1.50242, 1.50059, 1.50025, 1.50181, 1.50536, 1.49838, 1.52245, 1.52908, 1.52495, 1.51752, 1.49261, 1.49411, 1.49525, 1.48921, 1.4947, 1.48263, 1.48916, 1.48219, 1.48288, 1.48182, 1.48404, 1.46055, 1.48619, 1.52048, 1.50574, 1.51784, 1.53531, 1.58545, 1.57512, 1.55045, 1.5433, 1.54835, 1.53943, 1.52748, 1.51679, 1.48502, 1.48584, 1.45715, 1.44277, 1.44994, 1.45003, 1.45386, 1.45439, 1.43875, 1.44045, 1.43455, 1.43244, 1.43192, 1.43685, 1.43427, 1.43504, 1.4333, 1.43006, 1.41763, 1.4328, 1.42429, 1.43312, 1.43967, 1.42267, 1.40866, 1.40735, 1.41748, 1.40314, 1.42619, 1.4099, 1.40259, 1.4027, 1.40041, 1.39983, 1.39759, 1.39645, 1.39507, 1.39193, 1.39089, 1.38975, 1.38858, 1.38824, 1.387, 1.38744, 1.38576, 1.3863, 1.38509, 1.3842, 1.38159, 1.37977, 1.37864, 1.37845, 1.37704, 1.37545, 1.37482, 1.37209, 1.37214, 1.37064, 1.37013, 1.36804, 1.36789, 1.36635, 1.36574, 1.36491, 1.36506, 1.36281, 1.36334, 1.36316, 1.36018, 1.35818, 1.35629, 1.35438, 1.35334, 1.35168, 1.35287, 1.35149, 1.35169, 1.35754, 1.35143, 1.35094, 1.35625, 1.33984, 1.35487, 1.36485, 1.39574, 1.43042, 1.48942, 1.48566, 1.52453, 1.55836, 1.57098, 1.55659, 1.53382, 1.48133, 1.41533, 1.33743, 1.31666, 1.31633, 1.34373, 1.33258, 1.3306, 1.33024, 1.32104, 1.31752, 1.31858, 1.31875, 1.31629, 1.31617, 1.31544, 1.31167, 1.326, 1.31077, 1.30957, 1.30664, 1.3077, 1.30492
1.65116, 1.64879, 1.6454, 1.64024, 1.63873, 1.63781, 1.6322, 1.6299, 1.62823, 1.63018, 1.62823, 1.62879, 1.62677, 1.62517, 1.62517, 1.62299, 1.62201, 1.62038, 1.61782, 1.61629, 1.61638, 1.61618, 1.61641, 1.61399, 1.60358, 1.60831, 1.64764, 1.69245, 1.73832, 1.79336, 1.84342, 1.93763, 1.96555, 1.91303, 1.79869, 1.66044, 1.64849, 1.5417, 1.55948, 1.57996, 1.5877, 1.58044, 1.5699, 1.58435, 1.57141, 1.58241, 1.56205, 1.55757, 1.55499, 1.55461, 1.5528, 1.55204, 1.54998, 1.54917, 1.54863, 1.5455, 1.54446, 1.54141, 1.53964, 1.53884, 1.53868, 1.53551, 1.53347, 1.53249, 1.53226, 1.53151, 1.52751, 1.52506, 1.52501, 1.52423, 1.52049, 1.51866, 1.51636, 1.51417, 1.51246, 1.5172, 1.50759, 1.51598, 1.50454, 1.50343, 1.50148, 1.50158, 1.49873, 1.4976, 1.49647, 1.51055, 1.51691, 1.53046, 1.52305, 1.52345, 1.49247, 1.49565, 1.49609, 1.48509, 1.4842, 1.48791, 1.48094, 1.49087, 1.48026, 1.47113, 1.45759, 1.46214, 1.52454, 1.53254, 1.61149, 1.61434, 1.57184, 1.56942, 1.58292, 1.53027, 1.53079, 1.53127, 1.52639, 1.50663, 1.49931, 1.46165, 1.44313, 1.43818, 1.44445, 1.4572, 1.46512, 1.44266, 1.44958, 1.43954, 1.44777, 1.43903, 1.43789, 1.44989, 1.44312, 1.46822, 1.44107, 1.45148, 1.44797, 1.45036, 1.44663, 1.42764, 1.42744, 1.417, 1.41384, 1.40998, 1.40926, 1.41842, 1.41356, 1.40521, 1.40424, 1.40293, 1.40184, 1.39964, 1.39989, 1.39673, 1.39585, 1.39291, 1.39144, 1.39002, 1.38856, 1.38954, 1.38813, 1.38787, 1.38683, 1.38547, 1.38347, 1.38278, 1.37942, 1.37976, 1.37762, 1.37762, 1.37474, 1.37452, 1.37343, 1.37129, 1.36988, 1.36852, 1.36708, 1.36598, 1.36541, 1.36517, 1.36499, 1.36533, 1.36431, 1.3647, 1.36373, 1.364, 1.35784, 1.35787, 1.35731, 1.35716, 1.35423, 1.35339, 1.35093, 1.34772, 1.3465, 1.35482, 1.35326, 1.35861, 1.35175, 1.36555, 1.32659, 1.39672, 1.41736, 1.42906, 1.45061, 1.50758, 1.56915, 1.58303, 1.59849, 1.62713, 1.61266, 1.56812, 1.40209, 1.39481, 1.3118, 1.2924, 1.34119, 1.33723, 1.34374, 1.34055, 1.33933, 1.32232, 1.33659, 1.32299, 1.31595, 1.31189, 1.31078, 1.31055, 1.31102, 1.30828, 1.30783, 1.30843, 1.31623, 1.30456
1.65299, 1.65223, 1.64928, 1.6471, 1.64482, 1.64054, 1.63746, 1.63532, 1.6353, 1.63417, 1.63232, 1.63023, 1.62736, 1.62276, 1.62259, 1.6206, 1.62078, 1.61767, 1.61637, 1.61446, 1.62209, 1.6148, 1.61827, 1.6139, 1.59808, 1.61656, 1.65584, 1.68374, 1.73078, 1.76154, 1.866, 1.86892, 1.92021, 1.92368, 1.8864, 1.68542, 1.60938, 1.55132, 1.58584, 1.58319, 1.57795, 1.57614, 1.57659, 1.58582, 1.56638, 1.56482, 1.56189, 1.55893, 1.55952, 1.55799, 1.55472, 1.55516, 1.55171, 1.5625, 1.55031, 1.58923, 1.54604, 1.54468, 1.54057, 1.5383, 1.53556, 1.53422, 1.53187, 1.5285, 1.5274, 1.52434, 1.52148, 1.51953, 1.51901, 1.51805, 1.51633, 1.51604, 1.51421, 1.51215, 1.5099, 1.50954, 1.50836, 1.50662, 1.50563, 1.50487, 1.50443, 1.50369, 1.50081, 1.50934, 1.50213, 1.50614, 1.51076, 1.51567, 1.53425, 1.53834, 1.51568, 1.49013, 1.4885, 1.48963, 1.48872, 1.48206, 1.48635, 1.49214, 1.48019, 1.49171, 1.4605, 1.45609, 1.5161, 1.51915, 1.53515, 1.55913, 1.55311, 1.55048, 1.5469, 1.52634, 1.53964, 1.53681, 1.53442, 1.52753, 1.52208, 1.50705, 1.44692, 1.43016, 1.4372, 1.44481, 1.45673, 1.44698, 1.45797, 1.45071, 1.43526, 1.42648, 1.43723, 1.47553, 1.44736, 1.45166, 1.48558, 1.47754, 1.47085, 1.45085, 1.44418, 1.42246, 1.41674, 1.41388, 1.40961, 1.40876, 1.41022, 1.42034, 1.40692, 1.40321, 1.40174, 1.4002, 1.3995, 1.39824, 1.39658, 1.39506, 1.39338, 1.39276, 1.39146, 1.39107, 1.38821, 1.38769, 1.38575, 1.38547, 1.3849, 1.38364, 1.38162, 1.37953, 1.37851, 1.37786, 1.37404, 1.37303, 1.37162, 1.371, 1.3694, 1.36753, 1.36821, 1.36662, 1.36528, 1.3654, 1.36343, 1.36188, 1.36245, 1.36157, 1.36189, 1.36085, 1.35942, 1.35735, 1.35774, 1.35678, 1.35679, 1.35502, 1.35315, 1.35193, 1.34864, 1.34864, 1.34969, 1.34655, 1.34683, 1.35711, 1.35815, 1.3651, 1.33444, 1.33008, 1.36533, 1.42677, 1.44473, 1.49783, 1.54653, 1.60267, 1.60114, 1.60619, 1.5882, 1.5069, 1.45112, 1.41267, 1.32333, 1.30645, 1.32684, 1.3263, 1.32085, 1.31988, 1.32679, 1.31932, 1.3192, 1.32085, 1.31684, 1.31438, 1.31499, 1.31572, 1.3118, 1.31076, 1.30925, 1.30813, 1.30644, 1.30647
1.65321, 1.65329, 1.65247, 1.65115, 1.64815, 1.64678, 1.64271, 1.64154, 1.63919, 1.63494, 1.63201, 1.63175, 1.6299, 1.62853, 1.63127, 1.62448, 1.62747, 1.63425, 1.61666, 1.61124, 1.60982, 1.63183, 1.61716, 1.6142, 1.58848, 1.58312, 1.67348, 1.68719, 1.77852, 1.76809, 1.77655, 1.85025, 1.93696, 2.08612, 2.04606, 1.60886, 1.57895, 1.57761, 1.57193, 1.58152, 1.58189, 1.59271, 1.57568, 1.5789, 1.57524, 1.57558, 1.56542, 1.57279, 1.56157, 1.55792, 1.55792, 1.55381, 1.55462, 1.55059, 1.54886, 1.54584, 1.54477, 1.54155, 1.54733, 1.53666, 1.5341, 1.53172, 1.52963, 1.52631, 1.52448, 1.5221, 1.52179, 1.51935, 1.51536, 1.51223, 1.51475, 1.51264, 1.50843, 1.50965, 1.50835, 1.5074, 1.50807, 1.50563, 1.50706, 1.51044, 1.52637, 1.5039, 1.49936, 1.50046, 1.4986, 1.50314, 1.49913, 1.51337, 1.51195, 1.53546, 1.54455, 1.54933, 1.50701, 1.49133, 1.49268, 1.49769, 1.51269, 1.48918, 1.48575, 1.47698, 1.43966, 1.4684, 1.48166, 1.48847, 1.49688, 1.52275, 1.5537, 1.557, 1.53111, 1.50942, 1.51812, 1.53292, 1.53461, 1.52091, 1.49327, 1.45067, 1.43655, 1.42332, 1.43373, 1.46436, 1.45902, 1.47545, 1.46952, 1.47678, 1.48792, 1.48232, 1.509, 1.49498, 1.48206, 1.48555, 1.46055, 1.45901, 1.43009, 1.42741, 1.42693, 1.43548, 1.43983, 1.41739, 1.42311, 1.41401, 1.4118, 1.40951, 1.40849, 1.40614, 1.40535, 1.40415, 1.42984, 1.39877, 1.39729, 1.39415, 1.39331, 1.39361, 1.38967, 1.38966, 1.3879, 1.3866, 1.38601, 1.38575, 1.38501, 1.39164, 1.38068, 1.37976, 1.37894, 1.37753, 1.37607, 1.37579, 1.37481, 1.37374, 1.37186, 1.3723, 1.36986, 1.37156, 1.36703, 1.37038, 1.36726, 1.36675, 1.36388, 1.36335, 1.36278, 1.36365, 1.3601, 1.35975, 1.35752, 1.35653, 1.35521, 1.3529, 1.35219, 1.35067, 1.35856, 1.35025, 1.37443, 1.34534, 1.35049, 1.34775, 1.36833, 1.36468, 1.3314, 1.36733, 1.36571, 1.4002, 1.44918, 1.46423, 1.54418, 1.57275, 1.59079, 1.61572, 1.6024, 1.52346, 1.47981, 1.38256, 1.3236, 1.33296, 1.34422, 1.34257, 1.33778, 1.32694, 1.33008, 1.34441, 1.3218, 1.32028, 1.31784, 1.31883, 1.31535, 1.31813, 1.31408, 1.31612, 1.31014, 1.30668, 1.30734, 1.30625
1.65102, 1.64771, 1.64628, 1.64839, 1.64506, 1.64216, 1.63991, 1.64058, 1.63872, 1.6356, 1.63416, 1.63194, 1.62976, 1.62791, 1.62466, 1.62127, 1.61878, 1.61575, 1.61434, 1.61173, 1.61204, 1.61014, 1.61881, 1.61132, 1.60783, 1.6043, 1.62973, 1.6548, 1.68176, 1.71869, 1.79565, 1.82371, 1.86225, 1.86663, 1.70793, 1.70653, 1.60939, 1.55474, 1.58646, 1.60008, 1.5934, 1.58873, 1.57603, 1.57838, 1.57299, 1.56989, 1.5687, 1.56525, 1.56244, 1.56021, 1.55619, 1.55542, 1.55351, 1.56049, 1.54352, 1.546, 1.54694, 1.53998, 1.53805, 1.53476, 1.53489, 1.53123, 1.53021, 1.52674, 1.52483, 1.52138, 1.51792, 1.51636, 1.5141, 1.52347, 1.51271, 1.5095, 1.50923, 1.50864, 1.50713, 1.50574, 1.50948, 1.50294, 1.50198, 1.50234, 1.50098, 1.49924, 1.49922, 1.49693, 1.49573, 1.50276, 1.4937, 1.49965, 1.50554, 1.50318, 1.53792, 1.55736, 1.51316, 1.50834, 1.51266, 1.49143, 1.47862, 1.48211, 1.49177, 1.48536, 1.4676, 1.46165, 1.45931, 1.50649, 1.52732, 1.54073, 1.54383, 1.54507, 1.5386, 1.5145, 1.51959, 1.50601, 1.52644, 1.52392, 1.49982, 1.51037, 1.46286, 1.45965, 1.46137, 1.46845, 1.46614, 1.47231, 1.46733, 1.45315, 1.44636, 1.46892, 1.44425, 1.43664, 1.44566, 1.43427, 1.4435, 1.43681, 1.43344, 1.42498, 1.42287, 1.41938, 1.41644, 1.41495, 1.41281, 1.41129, 1.41042, 1.40898, 1.40701, 1.40482, 1.40528, 1.40177, 1.40068, 1.39925, 1.3982, 1.39683, 1.39724, 1.39333, 1.38868, 1.38647, 1.38452, 1.38484, 1.38293, 1.38344, 1.38286, 1.3828, 1.3812, 1.37877, 1.37826, 1.37667, 1.37582, 1.37538, 1.37472, 1.40221, 1.37021, 1.37081, 1.36927, 1.3682, 1.36731, 1.3671, 1.36354, 1.36158, 1.36046, 1.35897, 1.35919, 1.35791, 1.35537, 1.35389, 1.3545, 1.35298, 1.35018, 1.35006, 1.34745, 1.34752, 1.34471, 1.34311, 1.34235, 1.34143, 1.3417, 1.3508, 1.34471, 1.34027, 1.31298, 1.33692, 1.389, 1.41256, 1.44161, 1.5071, 1.54875, 1.5579, 1.61664, 1.62219, 1.62462, 1.57682, 1.43497, 1.37107, 1.30646, 1.31281, 1.33989, 1.35022, 1.32431, 1.33275, 1.31652, 1.31435, 1.31592, 1.31346, 1.31453, 1.31233, 1.3136, 1.30826, 1.30709, 1.30546, 1.30458, 1.30211, 1.30345, 1.30385
1.64545, 1.64206, 1.63869, 1.6387, 1.63762, 1.6356, 1.63728, 1.63935, 1.63915, 1.63747, 1.63616, 1.63527, 1.63241, 1.63065, 1.63409, 1.6238, 1.62051, 1.61733, 1.62408, 1.61418, 1.61387, 1.61018, 1.61347, 1.60344, 1.6023, 1.58621, 1.6193, 1.6222, 1.71424, 1.75537, 1.7964, 1.91413, 1.99046, 1.99686, 1.96596, 1.74696, 1.65585, 1.56068, 1.59699, 1.59602, 1.59625, 1.59951, 1.59492, 1.58641, 1.57981, 1.58318, 1.57938, 1.58607, 1.57682, 1.5774, 1.5649, 1.57615, 1.5618, 1.57156, 1.55474, 1.55217, 1.56393, 1.54448, 1.54373, 1.55039, 1.53792, 1.53552, 1.53428, 1.53202, 1.52988, 1.52798, 1.52627, 1.52427, 1.52166, 1.52134, 1.51611, 1.51386, 1.5124, 1.51482, 1.51054, 1.50759, 1.50707, 1.50538, 1.50463, 1.50274, 1.50154, 1.49924, 1.49574, 1.49238, 1.49182, 1.51395, 1.50343, 1.49475, 1.49389, 1.49626, 1.50074, 1.53053, 1.53651, 1.54091, 1.55318, 1.53093, 1.51801, 1.50299, 1.50196, 1.47728, 1.46685, 1.47235, 1.47731, 1.4921, 1.50612, 1.54524, 1.52734, 1.52958, 1.50631, 1.50363, 1.5029, 1.53798, 1.53545, 1.58167, 1.50602, 1.4962, 1.46543, 1.45371, 1.44035, 1.45534, 1.46093, 1.45856, 1.44388, 1.45097, 1.44197, 1.45022, 1.43497, 1.44348, 1.43719, 1.42754, 1.42825, 1.42596, 1.42366, 1.42718, 1.41929, 1.42643, 1.41539, 1.4132, 1.41232, 1.41179, 1.41054, 1.40726, 1.4071, 1.40536, 1.40292, 1.40234, 1.40066, 1.399, 1.39677, 1.39551, 1.39454, 1.39286, 1.39184, 1.39181, 1.38951, 1.39074, 1.38885, 1.38742, 1.38582, 1.38314, 1.38158, 1.38005, 1.37918, 1.37734, 1.37691, 1.37779, 1.37643, 1.37708, 1.37459, 1.37375, 1.3723, 1.37149, 1.37181, 1.37873, 1.36799, 1.36681, 1.36545, 1.3645, 1.36711, 1.36042, 1.35803, 1.3571, 1.3559, 1.37908, 1.35368, 1.35262, 1.35008, 1.34815, 1.36227, 1.34532, 1.35072, 1.34449, 1.3491, 1.35347, 1.35829, 1.35073, 1.35478, 1.33421, 1.35481, 1.40005, 1.46915, 1.50715, 1.53025, 1.55919, 1.61681, 1.62648, 1.61409, 1.55813, 1.45181, 1.39847, 1.31186, 1.29473, 1.32242, 1.343, 1.33089, 1.32981, 1.32134, 1.31808, 1.31675, 1.31606, 1.31349, 1.31416, 1.31184, 1.31353, 1.31128, 1.31057, 1.31052, 1.30846, 1.30859, 1.30711
1.64803, 1.6467, 1.64352, 1.64391, 1.6412, 1.64112, 1.63866, 1.64038, 1.64015, 1.63796, 1.63472, 1.64067, 1.63025, 1.62809, 1.62647, 1.62305, 1.62052, 1.6199, 1.61737, 1.61407, 1.61306, 1.61574, 1.60925, 1.61184, 1.62337, 1.56475, 1.60263, 1.68363, 1.68023, 1.71461, 1.82293, 1.84792, 1.92463, 1.94226, 2.23222, 1.7113, 1.61331, 1.55875, 1.5762, 1.58695, 1.59277, 1.59212, 1.59134, 1.58983, 1.59369, 1.58939, 1.58137, 1.58668, 1.5827, 1.57525, 1.58291, 1.55805, 1.5642, 1.55202, 1.5488, 1.5466, 1.54416, 1.54241, 1.53997, 1.53871, 1.53571, 1.53327, 1.53052, 1.52962, 1.52607, 1.52448, 1.52263, 1.52145, 1.52076, 1.51899, 1.51615, 1.51304, 1.51265, 1.50871, 1.50806, 1.50528, 1.50394, 1.50271, 1.50256, 1.50085, 1.50061, 1.49874, 1.49767, 1.49469, 1.49448, 1.49449, 1.49164, 1.49199, 1.48929, 1.48758, 1.48617, 1.48631, 1.49804, 1.48728, 1.4941, 1.50858, 1.49486, 1.49058, 1.50871, 1.50277, 1.4789, 1.46733, 1.47139, 1.49016, 1.52034, 1.53808, 1.58142, 1.54105, 1.56873, 1.48188, 1.48294, 1.50248, 1.53106, 1.51692, 1.5133, 1.50382, 1.45878, 1.45493, 1.45165, 1.45455, 1.4538, 1.44923, 1.44145, 1.43896, 1.43721, 1.43648, 1.43266, 1.43036, 1.42954, 1.42711, 1.42571, 1.42251, 1.41917, 1.41713, 1.41539, 1.41404, 1.41282, 1.41083, 1.41017, 1.40954, 1.40863, 1.40772, 1.4054, 1.40511, 1.40011, 1.39859, 1.39846, 1.39827, 1.39778, 1.39846, 1.39579, 1.39385, 1.39224, 1.39191, 1.39101, 1.39016, 1.38764, 1.38491, 1.38411, 1.38013, 1.37916, 1.37784, 1.37733, 1.37627, 1.37632, 1.37518, 1.37396, 1.37376, 1.37243, 1.37056, 1.36726, 1.36914, 1.36845, 1.36799, 1.36701, 1.36688, 1.36452, 1.36365, 1.36122, 1.36008, 1.35691, 1.35578, 1.35353, 1.35103, 1.35003, 1.34839, 1.34654, 1.34657, 1.35065, 1.34322, 1.34393, 1.34438, 1.3455, 1.36511, 1.34829, 1.36281, 1.36754, 1.32561, 1.35694, 1.38709, 1.44158, 1.50573, 1.56556, 1.60049, 1.62164, 1.65447, 1.65133, 1.569, 1.46037, 1.39277, 1.32804, 1.3142, 1.33728, 1.32873, 1.32418, 1.33349, 1.31979, 1.31716, 1.32186, 1.31524, 1.31314, 1.31182, 1.31028, 1.31218, 1.31189, 1.30877, 1.31054, 1.3098, 1.30899, 1.30668
1.64568, 1.64283, 1.64099, 1.63915, 1.6394, 1.63866, 1.63727, 1.63772, 1.63525, 1.63187, 1.63148, 1.62857, 1.62705, 1.62507, 1.62789, 1.61962, 1.61852, 1.61504, 1.61286, 1.62364, 1.60894, 1.60914, 1.60961, 1.60692, 1.60967, 1.59303, 1.60276, 1.66509, 1.7065, 1.74098, 1.81053, 1.87072, 2.0274, 2.09056, 1.93894, 1.69372, 1.56476, 1.54701, 1.56808, 1.56783, 1.56795, 1.55446, 1.55934, 1.56517, 1.57146, 1.58838, 1.58488, 1.59066, 1.57898, 1.56986, 1.56539, 1.56439, 1.56237, 1.55735, 1.55432, 1.54116, 1.53745, 1.53627, 1.53561, 1.53612, 1.53421, 1.53051, 1.52932, 1.52721, 1.52501, 1.52406, 1.52092, 1.52144, 1.52018, 1.51731, 1.51574, 1.5153, 1.51291, 1.50932, 1.50868, 1.50426, 1.50295, 1.50259, 1.5009, 1.49859, 1.49722, 1.4957, 1.4952, 1.49223, 1.49008, 1.48966, 1.49037, 1.48629, 1.48578, 1.48485, 1.48158, 1.48173, 1.47828, 1.47782, 1.47878, 1.47677, 1.4934, 1.48549, 1.4792, 1.48203, 1.48219, 1.47375, 1.52338, 1.50523, 1.52981, 1.53488, 1.53817, 1.52781, 1.53095, 1.5191, 1.49124, 1.48808, 1.52082, 1.53534, 1.50649, 1.50941, 1.47258, 1.45559, 1.46175, 1.45409, 1.45615, 1.44842, 1.45422, 1.4396, 1.43772, 1.43604, 1.43396, 1.43098, 1.43068, 1.4273, 1.42548, 1.42341, 1.42214, 1.41971, 1.4186, 1.41652, 1.41536, 1.42027, 1.41296, 1.41239, 1.4093, 1.40851, 1.40732, 1.40637, 1.40204, 1.40798, 1.4017, 1.40032, 1.39733, 1.39746, 1.39601, 1.39566, 1.3948, 1.39129, 1.39119, 1.38955, 1.3878, 1.38788, 1.38514, 1.38428, 1.38158, 1.38161, 1.37861, 1.37734, 1.37486, 1.37459, 1.37476, 1.37325, 1.37003, 1.36936, 1.36768, 1.3676, 1.36668, 1.37203, 1.36385, 1.3636, 1.3606, 1.35918, 1.35754, 1.35671, 1.35711, 1.3568, 1.35632, 1.35388, 1.35117, 1.34974, 1.34839, 1.34885, 1.34514, 1.34661, 1.34537, 1.34518, 1.34596, 1.3462, 1.34729, 1.34912, 1.34855, 1.34274, 1.36734, 1.39542, 1.43568, 1.50323, 1.52734, 1.57022, 1.62296, 1.64686, 1.64061, 1.62118, 1.55524, 1.37912, 1.35439, 1.30269, 1.32288, 1.33274, 1.33267, 1.31937, 1.31735, 1.31783, 1.31783, 1.3158, 1.32452, 1.31192, 1.31334, 1.3118, 1.3103, 1.31197, 1.31119, 1.30912, 1.30926, 1.31008
1.64363, 1.64077, 1.64089, 1.63554, 1.6374, 1.63192, 1.63361, 1.63056, 1.6479, 1.62583, 1.62467, 1.62422, 1.62378, 1.62294, 1.6205, 1.62744, 1.61497, 1.61198, 1.61058, 1.61139, 1.61381, 1.61699, 1.60876, 1.61305, 1.60391, 1.59388, 1.57558, 1.62682, 1.68716, 1.73518, 1.76997, 1.87488, 1.95961, 1.99337, 1.95282, 1.79924, 1.58578, 1.54042, 1.53382, 1.58358, 1.6448, 1.65283, 1.70031, 1.73198, 1.63861, 1.62488, 1.61055, 1.60763, 1.58797, 1.58964, 1.58784, 1.56883, 1.57297, 1.57249, 1.55416, 1.56582, 1.53896, 1.53724, 1.53694, 1.53498, 1.54722, 1.5309, 1.52822, 1.52654, 1.52411, 1.52363, 1.52184, 1.52026, 1.51981, 1.51667, 1.51665, 1.51521, 1.51184, 1.50825, 1.50703, 1.50513, 1.5027, 1.49941, 1.50071, 1.49757, 1.49525, 1.49563, 1.49398, 1.49382, 1.49154, 1.48946, 1.48728, 1.4841, 1.48143, 1.48009, 1.47802, 1.47623, 1.47501, 1.47426, 1.47316, 1.47321, 1.47484, 1.48878, 1.47711, 1.47899, 1.47736, 1.47556, 1.482, 1.49732, 1.51273, 1.52544, 1.53036, 1.49905, 1.51903, 1.50657, 1.47262, 1.47206, 1.34313, 1.50038, 1.49796, 1.47174, 1.48229, 1.45427, 1.44707, 1.45726, 1.47224, 1.44502, 1.44418, 1.43633, 1.44414, 1.43095, 1.42914, 1.42735, 1.42517, 1.42235, 1.42088, 1.4167, 1.41639, 1.41883, 1.41283, 1.41212, 1.40981, 1.41004, 1.40879, 1.40797, 1.41061, 1.40767, 1.40702, 1.40559, 1.40487, 1.40284, 1.40018, 1.39938, 1.39658, 1.39501, 1.39287, 1.38698, 1.39163, 1.38934, 1.3878, 1.38645, 1.3857, 1.38335, 1.39452, 1.38143, 1.37968, 1.37871, 1.37883, 1.37717, 1.38179, 1.3737, 1.37164, 1.37055, 1.3705, 1.36653, 1.36431, 1.36286, 1.36192, 1.36065, 1.36058, 1.35924, 1.35789, 1.35518, 1.35317, 1.35095, 1.35005, 1.35037, 1.35313, 1.35467, 1.34822, 1.36421, 1.34554, 1.34719, 1.34493, 1.34415, 1.34201, 1.34122, 1.34125, 1.34127, 1.34177, 1.34681, 1.34999, 1.3366, 1.35447, 1.37294, 1.4212, 1.47083, 1.48821, 1.53873, 1.5786, 1.6796, 1.72317, 1.63001, 1.50809, 1.45792, 1.33747, 1.30666, 1.32626, 1.33741, 1.32976, 1.31936, 1.32392, 1.324, 1.31658, 1.31319, 1.31622, 1.31089, 1.31115, 1.30888, 1.30554, 1.30602, 1.30531, 1.30387, 1.30352, 1.30072
1.64276, 1.63965, 1.63964, 1.65159, 1.63556, 1.6337, 1.63313, 1.62973, 1.62856, 1.62654, 1.62473, 1.62289, 1.62098, 1.61763, 1.61491, 1.61306, 1.60916, 1.6086, 1.60793, 1.61314, 1.6073, 1.6126, 1.60546, 1.61358, 1.60437, 1.60656, 1.58173, 1.63038, 1.6831, 1.72315, 1.72315, 1.78341, 2.02883, 1.99681, 1.94952, 1.75511, 1.62628, 1.55204, 1.55444, 1.57944, 1.58077, 1.64862, 1.70593, 1.73456, 1.71464, 1.65558, 1.61035, 1.63028, 1.59686, 1.59621, 1.58375, 1.57136, 1.57944, 1.5649, 1.55436, 1.54759, 1.54543, 1.53755, 1.54726, 1.53299, 1.53319, 1.52857, 1.52683, 1.52478, 1.52366, 1.52022, 1.51976, 1.51835, 1.51806, 1.51782, 1.51665, 1.51926, 1.5094, 1.50822, 1.5072, 1.50523, 1.50265, 1.50229, 1.49913, 1.49659, 1.51547, 1.49251, 1.50009, 1.51294, 1.48791, 1.48786, 1.48716, 1.48585, 1.48354, 1.48153, 1.48064, 1.47804, 1.47684, 1.47503, 1.47323, 1.47196, 1.48812, 1.47583, 1.47828, 1.4859, 1.47774, 1.4815, 1.48168, 1.49852, 1.56528, 1.56485, 1.52169, 1.5233, 1.54463, 1.47451, 1.4732, 1.47794, 1.53061, 1.51989, 1.50204, 1.52313, 1.48889, 1.45793, 1.44863, 1.45563, 1.45697, 1.44118, 1.4368, 1.43332, 1.42976, 1.42636, 1.42508, 1.42255, 1.41928, 1.41573, 1.41542, 1.41466, 1.41388, 1.41246, 1.41033, 1.4093, 1.40913, 1.40843, 1.40963, 1.40981, 1.40875, 1.40785, 1.40696, 1.40577, 1.40549, 1.40349, 1.39985, 1.39822, 1.39472, 1.39317, 1.39143, 1.38795, 1.38718, 1.38655, 1.3852, 1.38317, 1.38206, 1.38132, 1.37867, 1.37756, 1.37671, 1.37691, 1.37433, 1.37368, 1.37102, 1.37028, 1.36938, 1.3709, 1.36682, 1.36773, 1.36531, 1.36347, 1.36346, 1.36212, 1.36003, 1.35952, 1.35621, 1.35551, 1.35486, 1.35498, 1.35684, 1.35377, 1.35316, 1.35176, 1.34808, 1.3489, 1.34732, 1.34639, 1.35102, 1.34457, 1.34506, 1.35367, 1.34316, 1.34921, 1.35409, 1.34769, 1.34803, 1.30947, 1.33764, 1.3828, 1.42808, 1.47973, 1.52339, 1.57206, 1.62225, 1.6519, 1.61372, 1.56247, 1.49649, 1.4648, 1.2949, 1.29965, 1.35421, 1.33636, 1.32652, 1.32928, 1.32916, 1.31451, 1.323, 1.3103, 1.30967, 1.30865, 1.31228, 1.30664, 1.30503, 1.31907, 1.30361, 1.30742, 1.30142, 1.30063
1.63374, 1.64444, 1.62999, 1.6283, 1.6253, 1.62313, 1.62384, 1.62072, 1.62094, 1.61819, 1.61759, 1.61427, 1.61239, 1.6107, 1.6093, 1.60903, 1.60529, 1.60261, 1.6007, 1.60026, 1.59898, 1.59952, 1.59628, 1.59556, 1.59601, 1.60635, 1.57877, 1.59901, 1.66004, 1.69712, 1.7963, 1.87419, 1.92751, 1.98278, 1.87344, 1.77968, 1.65447, 1.55653, 1.54856, 1.56199, 1.56841, 1.5756, 1.592, 1.57257, 1.58337, 1.57596, 1.5825, 1.585, 1.57154, 1.57125, 1.56124, 1.56493, 1.55822, 1.5457, 1.55377, 1.53391, 1.53058, 1.52979, 1.52877, 1.52429, 1.52362, 1.52072, 1.51823, 1.51707, 1.51713, 1.51466, 1.51164, 1.51074, 1.51001, 1.5056, 1.50586, 1.50638, 1.50604, 1.50451, 1.50258, 1.50027, 1.49838, 1.49755, 1.49492, 1.49355, 1.48899, 1.48554, 1.48336, 1.48401, 1.47846, 1.4763, 1.47437, 1.47425, 1.47182, 1.47148, 1.4706, 1.47078, 1.46925, 1.46746, 1.46697, 1.46732, 1.47114, 1.48505, 1.47979, 1.48445, 1.48721, 1.49518, 1.47176, 1.52682, 1.53287, 1.51818, 1.52069, 1.53374, 1.49044, 1.50363, 1.48946, 1.46902, 1.48601, 1.52029, 1.5162, 1.49626, 1.50602, 1.46621, 1.43945, 1.43843, 1.44109, 1.43662, 1.44112, 1.43749, 1.42587, 1.42572, 1.41949, 1.41864, 1.41759, 1.41749, 1.41314, 1.40938, 1.40929, 1.40709, 1.40953, 1.40523, 1.40535, 1.40634, 1.4273, 1.40403, 1.40193, 1.40032, 1.39888, 1.39879, 1.39654, 1.39317, 1.39122, 1.38798, 1.386, 1.38325, 1.38189, 1.38068, 1.38354, 1.38179, 1.3801, 1.37578, 1.37601, 1.37735, 1.37846, 1.37758, 1.37721, 1.37728, 1.37447, 1.37611, 1.37432, 1.3715, 1.36848, 1.36517, 1.36547, 1.36478, 1.36381, 1.35957, 1.35758, 1.35927, 1.35811, 1.35688, 1.35708, 1.35421, 1.3529, 1.35211, 1.35204, 1.3509, 1.35041, 1.3639, 1.34815, 1.34519, 1.34282, 1.34264, 1.34329, 1.33963, 1.33866, 1.33821, 1.33742, 1.33918, 1.34866, 1.34823, 1.34488, 1.30693, 1.3031, 1.3569, 1.35602, 1.45697, 1.4996, 1.5408, 1.61909, 1.62677, 1.62582, 1.58493, 1.46774, 1.41219, 1.3064, 1.30706, 1.33079, 1.33963, 1.33277, 1.31547, 1.31351, 1.32792, 1.30834, 1.30743, 1.31718, 1.33056, 1.30608, 1.31225, 1.30686, 1.30339, 1.30274, 1.33037, 1.2993, 1.29987
1.63033, 1.62797, 1.62967, 1.62634, 1.62368, 1.62296, 1.62233, 1.61874, 1.61886, 1.61793, 1.61796, 1.6151, 1.61262, 1.61149, 1.60785, 1.60667, 1.60835, 1.60259, 1.59921, 1.59727, 1.59663, 1.59485, 1.59552, 1.60449, 1.59361, 1.59579, 1.57208, 1.63089, 1.67132, 1.74128, 1.72818, 1.82084, 1.89332, 1.98023, 1.9448, 1.71941, 1.55685, 1.55068, 1.52942, 1.57146, 1.56413, 1.56355, 1.5641, 1.56515, 1.56445, 1.57256, 1.56121, 1.5603, 1.56401, 1.55907, 1.55607, 1.54914, 1.54939, 1.53653, 1.5348, 1.53098, 1.54107, 1.52625, 1.5251, 1.52288, 1.52279, 1.51985, 1.51819, 1.51595, 1.51284, 1.51221, 1.5123, 1.5093, 1.50668, 1.50555, 1.50521, 1.50431, 1.50212, 1.50067, 1.499, 1.49824, 1.49663, 1.4948, 1.49183, 1.49192, 1.48682, 1.48332, 1.48186, 1.47831, 1.4783, 1.47426, 1.47191, 1.47087, 1.47027, 1.46954, 1.47256, 1.46852, 1.46734, 1.46635, 1.46375, 1.46277, 1.46245, 1.47212, 1.46571, 1.46846, 1.47483, 1.47483, 1.47721, 1.51192, 1.55463, 1.5154, 1.506, 1.51758, 1.50715, 1.47793, 1.4677, 1.46656, 1.48283, 1.50533, 1.51509, 1.51034, 1.49283, 1.47772, 1.43822, 1.44508, 1.44978, 1.44304, 1.43762, 1.43044, 1.42977, 1.42585, 1.4232, 1.42105, 1.418, 1.41572, 1.41497, 1.41125, 1.41184, 1.40949, 1.40676, 1.4051, 1.40257, 1.40091, 1.40154, 1.40017, 1.39824, 1.39726, 1.39401, 1.39252, 1.39191, 1.38854, 1.38762, 1.3846, 1.38533, 1.38053, 1.3808, 1.37852, 1.37764, 1.37708, 1.37447, 1.37379, 1.3747, 1.37572, 1.37525, 1.37515, 1.37443, 1.375, 1.37487, 1.37421, 1.37362, 1.37264, 1.36925, 1.36778, 1.36609, 1.36015, 1.36147, 1.35597, 1.35239, 1.35263, 1.38108, 1.34643, 1.34885, 1.34773, 1.35071, 1.35154, 1.35125, 1.3468, 1.34538, 1.34468, 1.34444, 1.34452, 1.34357, 1.34117, 1.34105, 1.33971, 1.33968, 1.33513, 1.3353, 1.33365, 1.33318, 1.3406, 1.34109, 1.34593, 1.33921, 1.34749, 1.41403, 1.45902, 1.47781, 1.57441, 1.66288, 1.69412, 1.70519, 1.66686, 1.59583, 1.38882, 1.31281, 1.29148, 1.31766, 1.31597, 1.31517, 1.31022, 1.31568, 1.30622, 1.30509, 1.30487, 1.30473, 1.30209, 1.30096, 1.30219, 1.30136, 1.29781, 1.29807, 1.29958, 1.29616, 1.29342
