1.66543, 1.66194, 1.65921, 1.65662, 1.65366, 1.65248, 1.64832, 1.67251, 1.65119, 1.66066, 1.66225, 1.692, 1.65908, 1.64282, 1.64122, 1.64314, 1.61302, 1.62733, 1.63119, 1.67572, 1.70917, 1.75423, 1.76393, 1.82048, 1.82067, 1.82149, 1.78332, 1.72712, 1.66165, 1.58276, 1.6009, 1.60199, 1.60733, 1.59029, 1.58941, 1.59369, 1.58298, 1.58319, 1.57829, 1.58295, 1.57547, 1.57245, 1.57313, 1.56923, 1.56784, 1.56676, 1.56316, 1.56262, 1.55796, 1.56469, 1.57234, 1.56152, 1.56984, 1.56555, 1.5421, 1.54034, 1.53971, 1.53752, 1.53529, 1.53503, 1.53152, 1.53145, 1.53066, 1.53041, 1.52394, 1.52258, 1.52069, 1.51662, 1.51465, 1.51367, 1.51624, 1.51082, 1.5076, 1.50616, 1.50311, 1.50374, 1.50117, 1.50996, 1.51173, 1.51307, 1.50243, 1.49336, 1.47154, 1.49025, 1.57185, 1.65769, 1.65151, 1.6862, 1.6825, 1.67894, 1.66492, 1.60379, 1.5412, 1.48917, 1.44809, 1.4781, 1.47154, 1.46506, 1.46065, 1.46479, 1.46655, 1.45473, 1.4544, 1.46028, 1.44918, 1.44969, 1.44796, 1.44437, 1.44155, 1.4403, 1.43964, 1.43878, 1.43655, 1.434, 1.43275, 1.43126, 1.42904, 1.42621, 1.42398, 1.42239, 1.42012, 1.41856, 1.41697, 1.41405, 1.41303, 1.41177, 1.41006, 1.4098, 1.40766, 1.40512, 1.4048, 1.40401, 1.40083, 1.39682, 1.39499, 1.3949, 1.38957, 1.38971, 1.38593, 1.38462, 1.38335, 1.38118, 1.3811, 1.38181, 1.37878, 1.37865, 1.3768, 1.37543, 1.37788, 1.37222, 1.37316, 1.37183, 1.37073, 1.39176, 1.37238, 1.38359, 1.37226, 1.37654, 1.37577, 1.39505, 1.37531, 1.38649, 1.43339, 1.47449, 1.49666, 1.46009, 1.48337, 1.46747, 1.46761, 1.46523, 1.44913, 1.41991, 1.36892, 1.36152, 1.32992, 1.35016, 1.34012, 1.33997, 1.33842, 1.32668, 1.32909, 1.32838, 1.32684, 1.32776, 1.32388, 1.32486, 1.32752, 1.3239, 1.32202, 1.33649, 1.32395
1.66333, 1.66171, 1.65933, 1.65375, 1.65165, 1.65101, 1.66438, 1.64701, 1.64535, 1.65126, 1.65343, 1.66188, 1.66139, 1.66499, 1.65261, 1.63326, 1.60681, 1.62532, 1.66864, 1.68931, 1.74656, 1.76914, 1.82113, 1.79774, 1.80002, 1.81002, 1.77253, 1.7111, 1.64102, 1.58722, 1.58792, 1.60759, 1.59307, 1.59954, 1.58823, 1.5856, 1.58405, 1.58152, 1.57938, 1.57752, 1.58296, 1.5712, 1.5709, 1.56723, 1.56456, 1.56383, 1.56267, 1.56202, 1.55898, 1.56249, 1.55539, 1.56522, 1.57455, 1.57522, 1.54443, 1.54064, 1.53723, 1.53665, 1.53623, 1.53462, 1.53322, 1.52978, 1.52868, 1.5277, 1.52466, 1.52151, 1.51811, 1.51493, 1.51074, 1.51143, 1.50906, 1.50994, 1.50484, 1.50252, 1.49923, 1.49767, 1.49764, 1.49868, 1.49988, 1.49995, 1.49876, 1.5018, 1.46915, 1.50717, 1.57897, 1.58526, 1.65384, 1.66044, 1.68197, 1.68086, 1.68352, 1.61365, 1.54038, 1.48191, 1.43744, 1.47229, 1.47592, 1.47146, 1.45724, 1.46434, 1.46123, 1.45495, 1.44696, 1.4466, 1.44451, 1.44393, 1.4397, 1.44005, 1.43971, 1.43799, 1.43698, 1.43409, 1.43231, 1.4328, 1.4306, 1.4294, 1.42785, 1.42603, 1.42475, 1.4223, 1.42069, 1.42133, 1.41992, 1.41922, 1.4189, 1.41362, 1.4135, 1.41211, 1.41006, 1.40766, 1.40635, 1.4052, 1.40315, 1.40054, 1.39852, 1.39851, 1.39502, 1.39291, 1.3909, 1.39036, 1.38827, 1.38545, 1.38257, 1.38091, 1.38095, 1.37976, 1.37813, 1.3759, 1.37132, 1.3729, 1.38673, 1.37184, 1.37042, 1.37013, 1.37482, 1.37406, 1.38583, 1.37834, 1.37439, 1.38521, 1.35082, 1.40935, 1.4199, 1.43519, 1.48308, 1.467, 1.46838, 1.47225, 1.48542, 1.47303, 1.4997, 1.43559, 1.40164, 1.35083, 1.3244, 1.34056, 1.34715, 1.3337, 1.34058, 1.33343, 1.33158, 1.33049, 1.33161, 1.33067, 1.32866, 1.32817, 1.32695, 1.32712, 1.32345, 1.32237, 1.32013
1.66568, 1.66136, 1.66079, 1.65824, 1.6531, 1.65795, 1.64739, 1.64465, 1.66171, 1.64104, 1.65492, 1.65564, 1.66269, 1.65202, 1.6454, 1.62881, 1.62728, 1.60338, 1.62717, 1.65761, 1.74798, 1.76061, 1.78269, 1.8037, 1.81437, 1.83744, 1.82491, 1.75047, 1.71759, 1.59911, 1.59986, 1.60664, 1.59693, 1.59687, 1.59552, 1.58481, 1.58822, 1.57808, 1.57939, 1.57275, 1.58619, 1.57186, 1.57765, 1.56544, 1.56407, 1.57848, 1.55944, 1.55967, 1.55638, 1.55448, 1.55142, 1.55113, 1.56496, 1.55044, 1.56723, 1.54843, 1.53804, 1.54399, 1.53855, 1.53172, 1.53037, 1.53781, 1.52691, 1.52288, 1.51948, 1.52604, 1.51655, 1.51381, 1.50947, 1.50706, 1.50193, 1.50702, 1.49891, 1.49791, 1.49648, 1.49914, 1.50266, 1.49226, 1.49218, 1.50348, 1.49232, 1.49545, 1.46917, 1.50952, 1.58478, 1.60891, 1.67342, 1.67477, 1.69158, 1.69206, 1.6722, 1.60304, 1.55492, 1.476, 1.4476, 1.4743, 1.47755, 1.4699, 1.45675, 1.46463, 1.45508, 1.4473, 1.44211, 1.44036, 1.44045, 1.4381, 1.43667, 1.43889, 1.4339, 1.43348, 1.43229, 1.42962, 1.42991, 1.42682, 1.42452, 1.42193, 1.42101, 1.41933, 1.41807, 1.4187, 1.41796, 1.41747, 1.41835, 1.41671, 1.41451, 1.41338, 1.41189, 1.40952, 1.40894, 1.40787, 1.40636, 1.40559, 1.40505, 1.4047, 1.40089, 1.39863, 1.398, 1.39946, 1.39474, 1.39415, 1.39017, 1.39008, 1.39227, 1.38524, 1.38304, 1.37883, 1.37861, 1.3749, 1.37599, 1.3827, 1.37392, 1.37421, 1.37146, 1.37085, 1.36864, 1.36773, 1.36725, 1.37537, 1.38207, 1.35853, 1.34601, 1.36783, 1.40909, 1.46385, 1.44419, 1.4592, 1.44516, 1.47708, 1.48506, 1.48443, 1.4761, 1.45363, 1.40395, 1.38872, 1.31976, 1.34134, 1.34412, 1.34121, 1.33635, 1.33571, 1.33472, 1.33454, 1.34403, 1.33459, 1.32735, 1.327, 1.36463, 1.33222, 1.3223, 1.32101, 1.31586
1.66543, 1.66279, 1.66071, 1.65789, 1.65424, 1.65523, 1.64708, 1.64434, 1.65222, 1.63998, 1.64933, 1.63942, 1.65572, 1.67048, 1.65983, 1.62363, 1.6163, 1.61586, 1.63031, 1.68857, 1.72101, 1.78589, 1.81833, 1.8131, 1.81746, 1.8175, 1.81281, 1.73731, 1.69021, 1.61753, 1.59175, 1.59918, 1.60259, 1.58459, 1.58216, 1.58042, 1.58622, 1.57485, 1.57308, 1.57242, 1.57216, 1.56834, 1.5644, 1.5626, 1.55945, 1.55714, 1.55453, 1.55415, 1.55097, 1.54888, 1.54494, 1.54299, 1.56235, 1.57149, 1.56868, 1.53797, 1.53106, 1.52881, 1.52863, 1.52842, 1.52994, 1.52906, 1.52884, 1.52451, 1.52437, 1.51694, 1.51244, 1.50902, 1.5032, 1.51074, 1.49682, 1.51359, 1.48941, 1.48947, 1.48839, 1.48935, 1.4884, 1.48796, 1.49906, 1.49189, 1.49303, 1.50912, 1.46883, 1.51327, 1.54841, 1.59981, 1.64009, 1.65904, 1.66615, 1.60927, 1.6168, 1.59953, 1.56474, 1.48094, 1.43685, 1.45091, 1.47097, 1.47076, 1.45685, 1.46628, 1.44789, 1.44134, 1.43956, 1.44369, 1.43858, 1.43647, 1.43352, 1.43233, 1.42988, 1.43071, 1.42995, 1.42928, 1.42671, 1.42509, 1.42111, 1.41888, 1.41654, 1.41908, 1.41783, 1.41903, 1.42044, 1.41864, 1.45185, 1.41257, 1.41213, 1.4094, 1.40837, 1.40718, 1.40679, 1.4036, 1.40763, 1.40549, 1.40416, 1.40055, 1.39885, 1.39828, 1.39759, 1.39607, 1.39422, 1.39163, 1.40577, 1.38563, 1.38456, 1.38128, 1.3789, 1.37832, 1.37643, 1.37656, 1.37437, 1.37269, 1.37115, 1.37191, 1.36829, 1.37487, 1.36801, 1.37256, 1.37808, 1.37172, 1.37338, 1.36712, 1.334, 1.39197, 1.40965, 1.43173, 1.46203, 1.46025, 1.47064, 1.47708, 1.50619, 1.51486, 1.49988, 1.45607, 1.46083, 1.35902, 1.31139, 1.34089, 1.36107, 1.34165, 1.33653, 1.33613, 1.33599, 1.33251, 1.34105, 1.33178, 1.33259, 1.32585, 1.32927, 1.32077, 1.32263, 1.32003, 1.31984
1.67298, 1.66946, 1.6691, 1.66703, 1.66542, 1.6625, 1.65944, 1.65889, 1.65795, 1.66528, 1.65275, 1.65129, 1.65418, 1.66549, 1.66644, 1.66158, 1.63588, 1.62036, 1.62206, 1.6476, 1.68659, 1.76539, 1.78944, 1.8087, 1.82502, 1.84103, 1.81288, 1.78695, 1.64895, 1.59259, 1.61036, 1.60415, 1.61668, 1.59352, 1.59225, 1.59491, 1.58534, 1.57983, 1.57844, 1.57835, 1.59909, 1.57607, 1.57882, 1.57128, 1.57241, 1.57205, 1.56876, 1.56428, 1.55781, 1.55483, 1.55229, 1.55692, 1.55823, 1.53953, 1.55446, 1.5578, 1.55168, 1.53797, 1.5446, 1.53823, 1.53806, 1.53477, 1.53333, 1.53169, 1.52847, 1.52534, 1.52146, 1.51459, 1.5146, 1.50621, 1.51425, 1.50522, 1.50105, 1.50206, 1.49241, 1.49967, 1.4933, 1.49626, 1.50145, 1.52041, 1.51807, 1.51567, 1.49316, 1.51739, 1.56818, 1.61567, 1.66756, 1.64811, 1.65592, 1.66195, 1.62508, 1.62952, 1.55153, 1.49128, 1.44456, 1.43944, 1.47544, 1.46369, 1.47232, 1.4721, 1.45444, 1.45571, 1.45706, 1.44652, 1.45774, 1.44308, 1.44275, 1.44024, 1.43814, 1.43679, 1.43418, 1.43098, 1.42988, 1.4278, 1.42433, 1.42371, 1.42, 1.4196, 1.41985, 1.42286, 1.42338, 1.42267, 1.41965, 1.41803, 1.41611, 1.41451, 1.41192, 1.41013, 1.41316, 1.40915, 1.40907, 1.40708, 1.40237, 1.39961, 1.39652, 1.39477, 1.39435, 1.39071, 1.39187, 1.38983, 1.38864, 1.38872, 1.41239, 1.38374, 1.38043, 1.37897, 1.37913, 1.38078, 1.37616, 1.3782, 1.37287, 1.3789, 1.37014, 1.36895, 1.36874, 1.37924, 1.36692, 1.37453, 1.38469, 1.37859, 1.353, 1.40251, 1.42402, 1.43492, 1.44028, 1.48195, 1.48873, 1.50794, 1.50371, 1.49788, 1.51676, 1.46643, 1.41634, 1.40517, 1.35723, 1.34801, 1.35812, 1.35128, 1.34773, 1.33689, 1.3352, 1.33295, 1.33319, 1.33802, 1.33027, 1.33046, 1.32652, 1.32467, 1.3233, 1.33189, 1.32537
1.67974, 1.6763, 1.66996, 1.66985, 1.66894, 1.70287, 1.6658, 1.66468, 1.67292, 1.67685, 1.66204, 1.66215, 1.65555, 1.6545, 1.666, 1.64621, 1.6446, 1.61712, 1.62147, 1.67164, 1.71409, 1.75397, 1.77602, 1.8403, 1.83829, 1.82732, 1.82775, 1.77748, 1.71427, 1.64115, 1.59027, 1.60653, 1.60746, 1.60571, 1.59583, 1.60321, 1.60058, 1.59064, 1.58926, 1.58437, 1.58037, 1.57877, 1.5779, 1.57701, 1.57697, 1.57548, 1.5753, 1.56798, 1.5632, 1.56472, 1.55908, 1.55746, 1.55784, 1.55829, 1.5655, 1.55422, 1.5691, 1.55594, 1.54871, 1.55375, 1.54805, 1.54794, 1.52933, 1.52956, 1.53016, 1.53052, 1.52773, 1.52807, 1.52104, 1.52347, 1.53694, 1.52513, 1.51676, 1.51325, 1.51187, 1.5097, 1.50897, 1.50808, 1.51964, 1.51929, 1.52139, 1.51665, 1.48235, 1.49187, 1.56177, 1.60027, 1.62829, 1.6492, 1.64862, 1.64546, 1.61756, 1.61228, 1.57611, 1.51, 1.46143, 1.4424, 1.46496, 1.47649, 1.49263, 1.49485, 1.47913, 1.47044, 1.4622, 1.46868, 1.46136, 1.45464, 1.45207, 1.45277, 1.45171, 1.45157, 1.44781, 1.44309, 1.43817, 1.4352, 1.43209, 1.43001, 1.43115, 1.43326, 1.43307, 1.43467, 1.43614, 1.43585, 1.42985, 1.42468, 1.42648, 1.42188, 1.41966, 1.41904, 1.41861, 1.41771, 1.4156, 1.41426, 1.41317, 1.40977, 1.40495, 1.40627, 1.40293, 1.40199, 1.4019, 1.39978, 1.39902, 1.39763, 1.39577, 1.39267, 1.39162, 1.39059, 1.38843, 1.38718, 1.38416, 1.38022, 1.37793, 1.38462, 1.37767, 1.37865, 1.37786, 1.3755, 1.38916, 1.37972, 1.38, 1.37362, 1.34434, 1.42039, 1.41181, 1.46996, 1.47192, 1.49325, 1.53207, 1.5201, 1.51695, 1.51806, 1.48185, 1.48888, 1.42974, 1.3936, 1.32729, 1.37044, 1.35521, 1.35937, 1.35434, 1.3464, 1.34016, 1.34013, 1.33917, 1.33987, 1.3403, 1.33787, 1.33295, 1.35145, 1.33758, 1.32958, 1.3254
1.67371, 1.66107, 1.65034, 1.64748, 1.64768, 1.64596, 1.64469, 1.66049, 1.65456, 1.65602, 1.66453, 1.65211, 1.65499, 1.64459, 1.64689, 1.64005, 1.64669, 1.60659, 1.61535, 1.6714, 1.71645, 1.76492, 1.78732, 1.81797, 1.8456, 1.85915, 1.8329, 1.74489, 1.67575, 1.61673, 1.58682, 1.60569, 1.60972, 1.60201, 1.59461, 1.59007, 1.59159, 1.57665, 1.57006, 1.56065, 1.55685, 1.55762, 1.56821, 1.56957, 1.57001, 1.56733, 1.55932, 1.54837, 1.54454, 1.56088, 1.5507, 1.56115, 1.55103, 1.55484, 1.55368, 1.56276, 1.55141, 1.56151, 1.55498, 1.54193, 1.53359, 1.52794, 1.53662, 1.52858, 1.53634, 1.53707, 1.52664, 1.52817, 1.51703, 1.50769, 1.50412, 1.50419, 1.51063, 1.50772, 1.52683, 1.50913, 1.49871, 1.50959, 1.50131, 1.49957, 1.50831, 1.49597, 1.46479, 1.48874, 1.52612, 1.57426, 1.59266, 1.63385, 1.64892, 1.63994, 1.61584, 1.60524, 1.57407, 1.49716, 1.46833, 1.46071, 1.46617, 1.47334, 1.46773, 1.48026, 1.47535, 1.45522, 1.46542, 1.45465, 1.45903, 1.45176, 1.45405, 1.46347, 1.44743, 1.44947, 1.44504, 1.4494, 1.44357, 1.42434, 1.41677, 1.41721, 1.42652, 1.42076, 1.42786, 1.43339, 1.4369, 1.42953, 1.42063, 1.4111, 1.41559, 1.40232, 1.40277, 1.40462, 1.40651, 1.40776, 1.40742, 1.40548, 1.40408, 1.40017, 1.40046, 1.39802, 1.39493, 1.38937, 1.38502, 1.38438, 1.39078, 1.38358, 1.39475, 1.3808, 1.39672, 1.38073, 1.38129, 1.37811, 1.37463, 1.38631, 1.36699, 1.36678, 1.37494, 1.36386, 1.38121, 1.37736, 1.37669, 1.3816, 1.39148, 1.39495, 1.34762, 1.36963, 1.44057, 1.42997, 1.45714, 1.50927, 1.53252, 1.51245, 1.45877, 1.50875, 1.49851, 1.45745, 1.42063, 1.37701, 1.31892, 1.35396, 1.34685, 1.34347, 1.33662, 1.33667, 1.33729, 1.3532, 1.33788, 1.33356, 1.33789, 1.32718, 1.32038, 1.31699, 1.31479, 1.31383, 1.31915
1.67474, 1.66607, 1.67946, 1.6682, 1.65854, 1.6833, 1.67247, 1.67982, 1.6608, 1.66814, 1.65875, 1.65347, 1.64857, 1.63831, 1.63574, 1.65061, 1.64088, 1.64057, 1.62737, 1.66578, 1.68596, 1.71412, 1.765, 1.83003, 1.86483, 1.87859, 1.85631, 1.87618, 1.77631, 1.61662, 1.60016, 1.61248, 1.61559, 1.60918, 1.60478, 1.61143, 1.59587, 1.60604, 1.58998, 1.58199, 1.57607, 1.58351, 1.58528, 1.57514, 1.59439, 1.57258, 1.57156, 1.56257, 1.55831, 1.55276, 1.56472, 1.5504, 1.54761, 1.54993, 1.54751, 1.55009, 1.54863, 1.56096, 1.54742, 1.55473, 1.55397, 1.54884, 1.53728, 1.54125, 1.53223, 1.53071, 1.52786, 1.52615, 1.52357, 1.55194, 1.51208, 1.51375, 1.52034, 1.51599, 1.51372, 1.51282, 1.51003, 1.50344, 1.50256, 1.51729, 1.51695, 1.50964, 1.49023, 1.50349, 1.52772, 1.62725, 1.62137, 1.63591, 1.63775, 1.65675, 1.64441, 1.63191, 1.54492, 1.4963, 1.45009, 1.45094, 1.4776, 1.4653, 1.45444, 1.4756, 1.48926, 1.46533, 1.46724, 1.45928, 1.4707, 1.46447, 1.47102, 1.45221, 1.44353, 1.43806, 1.43525, 1.43242, 1.42978, 1.42509, 1.42102, 1.42029, 1.42055, 1.42341, 1.43371, 1.43378, 1.43138, 1.42748, 1.42251, 1.41392, 1.41183, 1.40364, 1.4019, 1.39862, 1.39487, 1.39468, 1.39435, 1.39251, 1.39056, 1.3871, 1.38593, 1.38748, 1.38639, 1.38069, 1.3766, 1.37482, 1.37779, 1.38754, 1.37998, 1.38355, 1.38434, 1.38639, 1.38895, 1.38802, 1.38897, 1.40533, 1.36842, 1.36711, 1.36151, 1.36174, 1.36014, 1.36762, 1.36508, 1.37083, 1.38105, 1.37963, 1.35468, 1.35267, 1.40829, 1.4819, 1.46073, 1.47209, 1.47763, 1.571, 1.51735, 1.53109, 1.46463, 1.42681, 1.41984, 1.3511, 1.29825, 1.35213, 1.3536, 1.35762, 1.34806, 1.34698, 1.34001, 1.3432, 1.33343, 1.32738, 1.31651, 1.31502, 1.32055, 1.31738, 1.31293, 1.34442, 1.31216
1.68174, 1.67196, 1.70907, 1.6664, 1.68296, 1.6625, 1.68204, 1.65701, 1.67312, 1.66518, 1.65815, 1.65272, 1.64483, 1.65248, 1.65223, 1.63828, 1.62286, 1.6283, 1.603, 1.6612, 1.71688, 1.74519, 1.77507, 1.83409, 1.83787, 1.85676, 1.85745, 1.78334, 1.68815, 1.62572, 1.584, 1.61295, 1.61101, 1.61455, 1.61345, 1.61386, 1.61017, 1.59304, 1.60018, 1.59597, 1.58398, 1.57973, 1.57803, 1.58343, 1.57636, 1.5758, 1.57319, 1.56903, 1.5675, 1.56517, 1.56382, 1.55929, 1.56108, 1.55469, 1.56951, 1.55442, 1.56145, 1.56787, 1.5628, 1.56085, 1.55197, 1.54127, 1.53813, 1.55168, 1.54261, 1.52876, 1.52663, 1.53835, 1.52367, 1.53829, 1.52998, 1.51832, 1.52507, 1.52752, 1.51288, 1.51087, 1.5141, 1.51328, 1.51015, 1.50734, 1.51333, 1.51087, 1.51026, 1.50501, 1.55197, 1.60626, 1.62564, 1.65174, 1.6511, 1.67157, 1.63035, 1.59022, 1.58703, 1.54797, 1.49229, 1.45348, 1.46835, 1.47491, 1.47245, 1.48766, 1.50236, 1.49884, 1.47107, 1.47923, 1.4717, 1.47204, 1.45604, 1.45209, 1.44876, 1.44523, 1.44327, 1.44025, 1.44, 1.43731, 1.43504, 1.43639, 1.4364, 1.43647, 1.43494, 1.43429, 1.43217, 1.42906, 1.42533, 1.4234, 1.42346, 1.42276, 1.4206, 1.4174, 1.41773, 1.41558, 1.415, 1.41456, 1.41102, 1.40924, 1.40887, 1.40621, 1.40321, 1.40158, 1.40898, 1.40693, 1.39858, 1.39698, 1.39576, 1.39359, 1.39115, 1.3924, 1.39177, 1.39304, 1.39096, 1.38734, 1.39248, 1.38558, 1.38433, 1.38218, 1.3792, 1.38111, 1.38664, 1.38493, 1.37967, 1.3818, 1.36612, 1.37827, 1.38123, 1.42762, 1.45859, 1.46426, 1.5124, 1.50717, 1.53631, 1.54138, 1.5099, 1.49961, 1.43757, 1.38144, 1.32393, 1.3639, 1.36077, 1.35596, 1.35891, 1.35081, 1.35195, 1.35764, 1.35022, 1.33478, 1.33442, 1.33503, 1.33518, 1.33421, 1.33983, 1.3305, 1.34657
1.66586, 1.66474, 1.66121, 1.65896, 1.66037, 1.65733, 1.657, 1.65522, 1.65178, 1.66489, 1.64385, 1.6541, 1.6443, 1.64753, 1.6347, 1.6406, 1.64406, 1.64194, 1.59935, 1.67565, 1.68367, 1.73349, 1.78292, 1.80978, 1.83589, 1.84891, 1.84472, 1.74698, 1.71634, 1.63751, 1.5819, 1.60204, 1.60333, 1.59949, 1.59436, 1.5933, 1.59599, 1.58015, 1.59559, 1.57865, 1.57008, 1.56588, 1.56429, 1.56211, 1.56431, 1.55736, 1.5586, 1.56026, 1.55843, 1.55571, 1.5636, 1.54817, 1.54709, 1.55507, 1.548, 1.54848, 1.55166, 1.54182, 1.54086, 1.55862, 1.55915, 1.53106, 1.52643, 1.53103, 1.51987, 1.51964, 1.52503, 1.51903, 1.51514, 1.51496, 1.52144, 1.51669, 1.5104, 1.51041, 1.51364, 1.51343, 1.50568, 1.50292, 1.4962, 1.50714, 1.51316, 1.51285, 1.47955, 1.48617, 1.53992, 1.57799, 1.59, 1.64722, 1.63204, 1.63106, 1.62459, 1.60576, 1.58207, 1.54064, 1.45587, 1.44752, 1.47489, 1.46967, 1.46073, 1.47569, 1.47863, 1.47916, 1.48571, 1.45896, 1.44725, 1.4412, 1.43993, 1.43937, 1.43388, 1.42852, 1.42815, 1.42744, 1.42789, 1.43033, 1.43026, 1.43107, 1.42946, 1.42797, 1.42518, 1.42356, 1.42264, 1.42274, 1.42128, 1.41976, 1.41374, 1.41228, 1.40958, 1.40876, 1.40891, 1.41303, 1.40528, 1.40258, 1.40001, 1.39867, 1.42358, 1.39272, 1.3917, 1.3909, 1.38882, 1.38798, 1.38366, 1.38171, 1.37898, 1.37909, 1.37949, 1.37889, 1.37776, 1.37535, 1.37726, 1.37548, 1.37567, 1.37525, 1.37367, 1.37129, 1.36929, 1.37019, 1.36813, 1.3682, 1.39148, 1.38232, 1.38576, 1.35037, 1.40473, 1.4514, 1.44204, 1.47925, 1.50017, 1.50644, 1.51556, 1.51022, 1.502, 1.49194, 1.44848, 1.36169, 1.3207, 1.34365, 1.3539, 1.34519, 1.35429, 1.33631, 1.33076, 1.33146, 1.32711, 1.32569, 1.32297, 1.35091, 1.32406, 1.3242, 1.32554, 1.32098, 1.3245
1.65979, 1.65935, 1.65623, 1.67748, 1.65196, 1.65151, 1.64768, 1.64553, 1.64778, 1.64056, 1.63803, 1.63556, 1.63236, 1.63624, 1.63633, 1.63558, 1.64854, 1.62439, 1.60994, 1.63652, 1.70063, 1.72694, 1.77801, 1.80814, 1.85395, 1.86897, 1.86223, 1.77157, 1.74719, 1.59202, 1.57143, 1.61645, 1.59445, 1.59535, 1.58548, 1.57876, 1.57934, 1.58295, 1.57105, 1.5796, 1.58366, 1.56434, 1.56807, 1.55736, 1.55372, 1.55046, 1.54941, 1.54782, 1.54708, 1.54657, 1.54493, 1.54364, 1.54192, 1.54193, 1.54612, 1.55553, 1.53892, 1.53988, 1.53689, 1.53762, 1.55398, 1.52923, 1.52653, 1.5181, 1.52374, 1.51406, 1.51409, 1.51143, 1.51029, 1.50784, 1.51355, 1.50898, 1.49904, 1.49592, 1.49269, 1.48988, 1.48862, 1.48754, 1.48642, 1.50963, 1.48989, 1.49946, 1.46873, 1.49507, 1.54458, 1.57167, 1.58199, 1.61343, 1.65102, 1.62605, 1.61858, 1.59053, 1.52862, 1.55617, 1.4612, 1.43331, 1.45505, 1.46169, 1.4562, 1.45534, 1.45605, 1.47496, 1.47193, 1.45972, 1.43862, 1.44453, 1.43906, 1.43471, 1.42846, 1.42697, 1.42539, 1.42513, 1.42498, 1.42725, 1.42598, 1.42524, 1.42463, 1.42251, 1.42723, 1.41864, 1.4141, 1.41176, 1.41122, 1.40725, 1.4053, 1.4094, 1.40143, 1.4044, 1.40941, 1.40939, 1.40471, 1.39617, 1.39061, 1.38827, 1.38553, 1.38384, 1.38179, 1.38097, 1.37867, 1.3858, 1.37565, 1.3726, 1.3727, 1.37051, 1.37112, 1.37003, 1.36923, 1.37074, 1.36914, 1.37134, 1.36599, 1.3653, 1.36114, 1.35914, 1.35696, 1.35797, 1.35715, 1.36414, 1.37459, 1.36828, 1.37213, 1.3751, 1.37827, 1.40878, 1.39464, 1.39967, 1.47775, 1.50064, 1.52982, 1.55481, 1.54431, 1.50174, 1.4353, 1.37059, 1.32328, 1.35475, 1.34493, 1.3492, 1.34813, 1.32633, 1.32608, 1.33653, 1.32166, 1.31916, 1.31891, 1.32613, 1.31947, 1.31832, 1.31911, 1.31623, 1.31485
1.66839, 1.66653, 1.66839, 1.662, 1.72142, 1.65704, 1.66915, 1.66685, 1.65639, 1.65091, 1.64386, 1.63789, 1.63939, 1.63168, 1.63384, 1.64111, 1.63567, 1.63083, 1.60111, 1.64199, 1.67276, 1.69011, 1.75845, 1.82071, 1.83254, 1.86552, 1.85259, 1.8203, 1.68425, 1.64754, 1.57523, 1.60767, 1.59599, 1.59494, 1.59491, 1.59741, 1.59198, 1.58452, 1.57689, 1.58591, 1.57628, 1.57298, 1.57039, 1.56764, 1.58489, 1.55824, 1.55587, 1.55414, 1.56067, 1.55062, 1.54847, 1.54611, 1.54297, 1.54094, 1.55146, 1.53773, 1.54117, 1.53216, 1.53115, 1.55444, 1.54412, 1.53929, 1.54058, 1.54059, 1.5336, 1.52094, 1.52756, 1.51733, 1.51364, 1.50995, 1.52793, 1.50403, 1.51343, 1.49925, 1.51334, 1.52796, 1.50126, 1.49312, 1.49208, 1.5129, 1.50155, 1.50551, 1.47953, 1.46843, 1.50985, 1.61475, 1.60301, 1.59775, 1.64102, 1.63688, 1.62634, 1.5928, 1.57499, 1.53523, 1.50255, 1.44982, 1.47246, 1.47229, 1.46574, 1.46421, 1.45711, 1.45897, 1.47505, 1.45835, 1.45012, 1.44336, 1.4448, 1.43442, 1.44391, 1.4346, 1.43582, 1.43302, 1.4332, 1.43057, 1.42799, 1.42508, 1.42466, 1.42203, 1.41958, 1.41969, 1.41936, 1.41737, 1.41526, 1.41313, 1.41386, 1.41214, 1.40944, 1.41216, 1.40778, 1.40683, 1.42187, 1.40475, 1.41175, 1.39626, 1.39558, 1.39033, 1.39554, 1.38815, 1.38452, 1.38589, 1.38303, 1.38306, 1.37867, 1.38005, 1.37765, 1.37793, 1.37578, 1.37499, 1.37764, 1.37291, 1.37033, 1.36899, 1.3883, 1.3673, 1.37088, 1.36245, 1.36111, 1.36959, 1.36919, 1.36623, 1.35156, 1.33096, 1.38083, 1.39825, 1.4393, 1.47594, 1.48639, 1.50732, 1.516, 1.54726, 1.52384, 1.52023, 1.46496, 1.38159, 1.33709, 1.37403, 1.35253, 1.34903, 1.35644, 1.3525, 1.34806, 1.33164, 1.3324, 1.32687, 1.32591, 1.32319, 1.32202, 1.32236, 1.32147, 1.32641, 1.31909
1.66117, 1.65558, 1.65205, 1.6472, 1.64589, 1.64539, 1.64324, 1.63979, 1.64257, 1.63309, 1.62841, 1.62517, 1.62267, 1.61726, 1.62849, 1.62755, 1.61312, 1.60414, 1.57653, 1.60959, 1.67441, 1.71269, 1.7681, 1.79405, 1.84934, 1.88167, 1.88534, 1.82865, 1.74579, 1.62411, 1.55617, 1.55949, 1.57947, 1.58133, 1.57637, 1.57319, 1.57067, 1.56766, 1.56586, 1.56445, 1.56241, 1.57774, 1.5575, 1.556, 1.55552, 1.55419, 1.55136, 1.55076, 1.54767, 1.54559, 1.54357, 1.54015, 1.54526, 1.53969, 1.53371, 1.5267, 1.52383, 1.52133, 1.53414, 1.52746, 1.52007, 1.52874, 1.53332, 1.51295, 1.50907, 1.50612, 1.50987, 1.50047, 1.49902, 1.49766, 1.4951, 1.49294, 1.49157, 1.48925, 1.48553, 1.48839, 1.49611, 1.49141, 1.48791, 1.50151, 1.49518, 1.49639, 1.45401, 1.47129, 1.5159, 1.54949, 1.61357, 1.62729, 1.62577, 1.62144, 1.61737, 1.61537, 1.58359, 1.56101, 1.48093, 1.42327, 1.44756, 1.45291, 1.45551, 1.45822, 1.44804, 1.45742, 1.45178, 1.46193, 1.45836, 1.4357, 1.44152, 1.42899, 1.42422, 1.42391, 1.42196, 1.42028, 1.41861, 1.42691, 1.41394, 1.41316, 1.41172, 1.40876, 1.40523, 1.40367, 1.40265, 1.39938, 1.39813, 1.39751, 1.39619, 1.39355, 1.39125, 1.38988, 1.38842, 1.38646, 1.38337, 1.382, 1.38102, 1.38005, 1.37781, 1.3785, 1.3763, 1.37725, 1.374, 1.37171, 1.37073, 1.36808, 1.3717, 1.36457, 1.36365, 1.36165, 1.36474, 1.35977, 1.36007, 1.35615, 1.35472, 1.35343, 1.35342, 1.34961, 1.34885, 1.34709, 1.34696, 1.34673, 1.3599, 1.36539, 1.33586, 1.31591, 1.35442, 1.38822, 1.41676, 1.41814, 1.47215, 1.49207, 1.5069, 1.53711, 1.52268, 1.51066, 1.45017, 1.38236, 1.34355, 1.32042, 1.32817, 1.33711, 1.33001, 1.32268, 1.31667, 1.32497, 1.31379, 1.30962, 1.32606, 1.30789, 1.30596, 1.30402, 1.30504, 1.30391, 1.30591
1.65296, 1.65103, 1.66739, 1.64619, 1.64552, 1.64148, 1.63906, 1.63742, 1.63491, 1.63017, 1.62617, 1.62521, 1.62146, 1.63352, 1.61307, 1.6136, 1.61465, 1.59833, 1.57577, 1.58888, 1.62093, 1.68218, 1.73811, 1.79723, 1.83478, 1.85528, 1.87538, 1.77144, 1.7234, 1.6408, 1.55412, 1.58284, 1.5861, 1.59064, 1.59218, 1.58329, 1.57119, 1.56771, 1.5646, 1.56311, 1.56029, 1.55676, 1.55536, 1.55363, 1.55267, 1.55107, 1.55061, 1.54782, 1.54428, 1.54264, 1.5398, 1.53525, 1.53208, 1.53018, 1.5279, 1.52622, 1.52108, 1.51944, 1.51515, 1.51658, 1.51739, 1.52857, 1.53655, 1.52748, 1.51424, 1.51414, 1.51655, 1.50293, 1.50136, 1.50187, 1.5048, 1.49694, 1.51324, 1.50548, 1.48973, 1.48598, 1.48818, 1.48753, 1.49497, 1.48604, 1.50003, 1.49297, 1.47487, 1.45524, 1.50772, 1.53708, 1.57111, 1.61226, 1.66906, 1.6157, 1.61433, 1.60668, 1.58299, 1.53496, 1.47828, 1.45532, 1.43688, 1.45273, 1.45081, 1.45803, 1.45125, 1.44705, 1.44365, 1.46428, 1.45993, 1.44658, 1.42645, 1.43471, 1.42582, 1.42091, 1.42969, 1.4196, 1.41557, 1.41429, 1.41206, 1.40747, 1.40696, 1.40263, 1.40204, 1.40053, 1.4029, 1.39814, 1.39509, 1.3939, 1.39215, 1.38965, 1.3886, 1.3869, 1.3845, 1.38168, 1.38148, 1.38181, 1.38125, 1.38107, 1.38085, 1.38101, 1.37461, 1.37457, 1.3722, 1.36916, 1.36793, 1.36584, 1.36317, 1.36244, 1.36314, 1.35878, 1.35795, 1.35759, 1.35506, 1.35369, 1.3535, 1.34958, 1.34858, 1.34778, 1.34588, 1.34307, 1.34287, 1.34312, 1.36174, 1.35529, 1.33805, 1.34094, 1.37467, 1.40171, 1.47137, 1.4802, 1.52057, 1.53555, 1.54564, 1.53394, 1.53407, 1.50622, 1.44399, 1.39863, 1.28652, 1.32044, 1.32725, 1.32571, 1.33009, 1.31297, 1.31255, 1.3124, 1.30883, 1.30651, 1.30644, 1.30733, 1.30345, 1.30175, 1.30376, 1.30251, 1.30025
1.64876, 1.64554, 1.64217, 1.63872, 1.63507, 1.63412, 1.63031, 1.63064, 1.62884, 1.62695, 1.62366, 1.62249, 1.62127, 1.6214, 1.62805, 1.62212, 1.63105, 1.61982, 1.60596, 1.60334, 1.68189, 1.70286, 1.74458, 1.81799, 1.84406, 1.89271, 1.88767, 1.80465, 1.73332, 1.63824, 1.56799, 1.57998, 1.59759, 1.58957, 1.57864, 1.5757, 1.57288, 1.56961, 1.56507, 1.56371, 1.55881, 1.55593, 1.55203, 1.55058, 1.5479, 1.55071, 1.5421, 1.54353, 1.5461, 1.54396, 1.54237, 1.53781, 1.53475, 1.53058, 1.53066, 1.52836, 1.54274, 1.53778, 1.5264, 1.52076, 1.5183, 1.52163, 1.53462, 1.52426, 1.53696, 1.50921, 1.51206, 1.50502, 1.5041, 1.50312, 1.50403, 1.49965, 1.50993, 1.49897, 1.49758, 1.49886, 1.49051, 1.48818, 1.49314, 1.49687, 1.49059, 1.49052, 1.46725, 1.45777, 1.50759, 1.53059, 1.58835, 1.60353, 1.60883, 1.62749, 1.6192, 1.61255, 1.5625, 1.54503, 1.50701, 1.44776, 1.45752, 1.4676, 1.4587, 1.45336, 1.45407, 1.45147, 1.45111, 1.44121, 1.46427, 1.45941, 1.43792, 1.43429, 1.42921, 1.42496, 1.42403, 1.42138, 1.41982, 1.41709, 1.41568, 1.41473, 1.4135, 1.40961, 1.40686, 1.40584, 1.40712, 1.40353, 1.40229, 1.40055, 1.39818, 1.3982, 1.39694, 1.3956, 1.39473, 1.39363, 1.39114, 1.39046, 1.3894, 1.38845, 1.38757, 1.38414, 1.38395, 1.38176, 1.38007, 1.37658, 1.374, 1.37035, 1.36653, 1.36441, 1.36451, 1.36388, 1.36276, 1.36239, 1.36122, 1.35834, 1.35737, 1.35435, 1.35427, 1.35262, 1.35211, 1.35358, 1.34955, 1.35058, 1.3643, 1.35861, 1.35046, 1.33958, 1.33738, 1.418, 1.43076, 1.48131, 1.46807, 1.49869, 1.51737, 1.52272, 1.53395, 1.48827, 1.42583, 1.37593, 1.32576, 1.33693, 1.32319, 1.34038, 1.32774, 1.3323, 1.31389, 1.32351, 1.31367, 1.31208, 1.31063, 1.30825, 1.30596, 1.30772, 1.30893, 1.30593, 1.3043
1.64655, 1.64472, 1.64171, 1.64074, 1.64445, 1.63874, 1.63871, 1.62715, 1.62553, 1.62678, 1.62451, 1.61983, 1.62084, 1.62229, 1.62251, 1.62075, 1.62683, 1.62687, 1.60479, 1.59936, 1.67302, 1.71343, 1.75448, 1.82852, 1.85639, 1.87238, 1.87064, 1.79735, 1.73213, 1.654, 1.56969, 1.58476, 1.58494, 1.59002, 1.57964, 1.57091, 1.56841, 1.56477, 1.56307, 1.55857, 1.55551, 1.55692, 1.55412, 1.5495, 1.54781, 1.54307, 1.54044, 1.54234, 1.54525, 1.54366, 1.54232, 1.54326, 1.53319, 1.53087, 1.52877, 1.5262, 1.52464, 1.51951, 1.51887, 1.51947, 1.51784, 1.51786, 1.51606, 1.5238, 1.53702, 1.52747, 1.51983, 1.50066, 1.49907, 1.49948, 1.4985, 1.49737, 1.49142, 1.4906, 1.48763, 1.48803, 1.48565, 1.48278, 1.48245, 1.50203, 1.49494, 1.48585, 1.47075, 1.45712, 1.49754, 1.52708, 1.55516, 1.56815, 1.59283, 1.59915, 1.59984, 1.58283, 1.54731, 1.5368, 1.54363, 1.46177, 1.42294, 1.44769, 1.45744, 1.45244, 1.4368, 1.4342, 1.44158, 1.44188, 1.45753, 1.44542, 1.43407, 1.43396, 1.43369, 1.42179, 1.41778, 1.42235, 1.4184, 1.41246, 1.41305, 1.41291, 1.41418, 1.41264, 1.4101, 1.40951, 1.40575, 1.39973, 1.40018, 1.39982, 1.39793, 1.39717, 1.39512, 1.39561, 1.39507, 1.39509, 1.39411, 1.39242, 1.3922, 1.39183, 1.3878, 1.38711, 1.38131, 1.38023, 1.37892, 1.37597, 1.37302, 1.37067, 1.3673, 1.36537, 1.36777, 1.36361, 1.36186, 1.36025, 1.3587, 1.36012, 1.35588, 1.35417, 1.35477, 1.35518, 1.35351, 1.35081, 1.34849, 1.35171, 1.36164, 1.35481, 1.36602, 1.32908, 1.362, 1.41937, 1.44143, 1.45826, 1.48947, 1.53342, 1.5371, 1.5446, 1.53188, 1.48945, 1.44091, 1.31345, 1.33381, 1.31343, 1.33943, 1.32148, 1.31817, 1.31536, 1.31161, 1.312, 1.3123, 1.31016, 1.30849, 1.31016, 1.31577, 1.30964, 1.30687, 1.30427, 1.30369
1.65567, 1.65415, 1.65297, 1.65854, 1.66235, 1.6477, 1.65381, 1.63878, 1.6351, 1.63453, 1.63217, 1.64425, 1.62632, 1.62313, 1.6208, 1.61992, 1.6201, 1.6332, 1.59941, 1.58727, 1.63747, 1.68402, 1.76556, 1.82113, 1.85388, 1.88259, 1.89688, 1.88951, 1.67907, 1.6569, 1.58031, 1.58333, 1.59874, 1.58364, 1.57903, 1.57728, 1.56994, 1.57432, 1.56531, 1.56311, 1.56075, 1.55774, 1.55437, 1.55424, 1.54914, 1.54753, 1.54752, 1.54736, 1.54942, 1.54353, 1.54119, 1.53726, 1.53383, 1.53354, 1.52955, 1.52821, 1.52582, 1.52378, 1.52137, 1.51982, 1.51694, 1.51648, 1.52338, 1.51395, 1.53635, 1.51672, 1.52032, 1.51139, 1.50229, 1.49725, 1.4956, 1.49308, 1.49197, 1.49169, 1.48865, 1.48553, 1.48329, 1.48181, 1.48264, 1.48915, 1.48415, 1.48788, 1.47925, 1.4504, 1.49503, 1.53325, 1.53526, 1.52699, 1.59158, 1.59409, 1.58989, 1.58496, 1.57865, 1.5472, 1.53318, 1.44765, 1.42768, 1.45389, 1.44842, 1.44374, 1.44657, 1.45043, 1.44171, 1.43276, 1.44873, 1.45724, 1.45034, 1.44658, 1.42476, 1.42239, 1.41954, 1.44476, 1.42668, 1.41384, 1.41313, 1.41285, 1.41122, 1.40939, 1.40784, 1.40541, 1.40419, 1.40108, 1.39974, 1.3991, 1.39744, 1.39581, 1.39458, 1.39234, 1.39137, 1.39527, 1.38915, 1.38753, 1.38699, 1.3843, 1.38163, 1.38071, 1.37909, 1.37595, 1.37401, 1.37266, 1.36996, 1.36854, 1.36629, 1.36376, 1.36238, 1.36185, 1.36032, 1.35977, 1.35742, 1.3575, 1.35667, 1.35734, 1.36437, 1.35523, 1.35415, 1.35419, 1.35104, 1.35137, 1.36372, 1.37833, 1.36184, 1.34149, 1.35455, 1.4375, 1.42745, 1.44767, 1.50516, 1.54125, 1.53956, 1.53668, 1.52419, 1.47842, 1.42788, 1.40967, 1.31256, 1.31587, 1.32927, 1.32935, 1.32053, 1.31988, 1.31366, 1.31485, 1.3145, 1.31259, 1.31229, 1.31285, 1.30915, 1.30748, 1.30872, 1.30493, 1.3053
1.65626, 1.65555, 1.65383, 1.65121, 1.64836, 1.65155, 1.65736, 1.64211, 1.63909, 1.63698, 1.63449, 1.62721, 1.6247, 1.62201, 1.61869, 1.62781, 1.63425, 1.62591, 1.59486, 1.58995, 1.64372, 1.68866, 1.71432, 1.74252, 1.82168, 1.88024, 1.8963, 1.80796, 1.73867, 1.60629, 1.5546, 1.56208, 1.59268, 1.60149, 1.57893, 1.57758, 1.57214, 1.56666, 1.57794, 1.57567, 1.55747, 1.56028, 1.55274, 1.55138, 1.54963, 1.54819, 1.54592, 1.54433, 1.54378, 1.5405, 1.53908, 1.5392, 1.53642, 1.5338, 1.53174, 1.56199, 1.53464, 1.52385, 1.52237, 1.52108, 1.51704, 1.51412, 1.51365, 1.51639, 1.5202, 1.53062, 1.53462, 1.50459, 1.501, 1.49753, 1.49578, 1.49401, 1.50366, 1.48918, 1.49547, 1.51001, 1.48343, 1.48806, 1.48605, 1.48684, 1.49244, 1.48186, 1.48614, 1.4537, 1.46143, 1.51305, 1.5314, 1.56132, 1.58043, 1.58717, 1.63161, 1.60657, 1.57227, 1.51287, 1.48871, 1.44725, 1.42795, 1.45746, 1.45233, 1.44445, 1.43859, 1.43488, 1.43454, 1.43467, 1.44419, 1.44196, 1.43667, 1.44438, 1.45206, 1.43729, 1.43023, 1.42079, 1.41792, 1.41621, 1.41324, 1.41253, 1.41265, 1.41071, 1.40943, 1.40328, 1.40183, 1.40248, 1.40209, 1.39983, 1.39731, 1.3953, 1.39621, 1.39372, 1.39167, 1.39027, 1.38765, 1.38574, 1.38423, 1.38496, 1.38096, 1.3803, 1.37699, 1.37784, 1.37664, 1.37413, 1.37048, 1.36877, 1.36796, 1.36615, 1.36471, 1.36465, 1.36292, 1.36245, 1.36263, 1.36351, 1.35977, 1.35719, 1.35651, 1.35742, 1.35743, 1.36696, 1.35701, 1.34968, 1.34712, 1.35965, 1.3678, 1.3474, 1.36804, 1.3919, 1.43651, 1.46051, 1.48074, 1.53431, 1.56052, 1.56106, 1.54679, 1.51832, 1.47144, 1.44261, 1.30974, 1.33586, 1.33405, 1.33901, 1.33042, 1.33334, 1.34317, 1.31901, 1.32273, 1.31711, 1.32377, 1.31596, 1.32855, 1.3573, 1.31072, 1.30852, 1.30807
1.65426, 1.65166, 1.65034, 1.64863, 1.64545, 1.64105, 1.63992, 1.63837, 1.63585, 1.63741, 1.63447, 1.63528, 1.62508, 1.62348, 1.62125, 1.61906, 1.62016, 1.62444, 1.61023, 1.60008, 1.63628, 1.65381, 1.7047, 1.76933, 1.82316, 1.83811, 1.9728, 1.93471, 1.75227, 1.66092, 1.56806, 1.57856, 1.59641, 1.59651, 1.57695, 1.56867, 1.56489, 1.56668, 1.56175, 1.55814, 1.56128, 1.55217, 1.55185, 1.55179, 1.55374, 1.54817, 1.54611, 1.54482, 1.54294, 1.54274, 1.53779, 1.53718, 1.53615, 1.53374, 1.53103, 1.52776, 1.52702, 1.52479, 1.52315, 1.52129, 1.51751, 1.51639, 1.51339, 1.50891, 1.50796, 1.51308, 1.51953, 1.53076, 1.50709, 1.49384, 1.50267, 1.49344, 1.49232, 1.49192, 1.48869, 1.48626, 1.48528, 1.4844, 1.48178, 1.47965, 1.49253, 1.48876, 1.50176, 1.44652, 1.5031, 1.56781, 1.5582, 1.55869, 1.57181, 1.56747, 1.57587, 1.57455, 1.56306, 1.53414, 1.50941, 1.49483, 1.43369, 1.45465, 1.45038, 1.45426, 1.43846, 1.43624, 1.43426, 1.44115, 1.43315, 1.4415, 1.4367, 1.43434, 1.43698, 1.42739, 1.43141, 1.42277, 1.41473, 1.41287, 1.41235, 1.4119, 1.41087, 1.40728, 1.40628, 1.4061, 1.40616, 1.40462, 1.40221, 1.40047, 1.39844, 1.39845, 1.39758, 1.39549, 1.39237, 1.3912, 1.3883, 1.38609, 1.38484, 1.38335, 1.38179, 1.37989, 1.37774, 1.37274, 1.37108, 1.3708, 1.36874, 1.36712, 1.36801, 1.36714, 1.36658, 1.36271, 1.36122, 1.36102, 1.36301, 1.36074, 1.35862, 1.3582, 1.35727, 1.35681, 1.3617, 1.3509, 1.34565, 1.34625, 1.35386, 1.34768, 1.35383, 1.34719, 1.35086, 1.39618, 1.42729, 1.45235, 1.47874, 1.50955, 1.55423, 1.5479, 1.53421, 1.50256, 1.46841, 1.39928, 1.32472, 1.33284, 1.33629, 1.34695, 1.35399, 1.33942, 1.32109, 1.3293, 1.33417, 1.31688, 1.31557, 1.3158, 1.31488, 1.31392, 1.31121, 1.3078, 1.30633
1.65529, 1.65285, 1.65025, 1.64691, 1.64416, 1.64104, 1.63986, 1.63364, 1.63164, 1.63272, 1.62817, 1.62741, 1.63575, 1.6241, 1.62189, 1.63844, 1.62653, 1.62764, 1.62749, 1.59975, 1.64422, 1.70605, 1.71246, 1.74595, 1.80223, 1.84426, 1.89953, 1.89333, 1.81349, 1.68124, 1.56738, 1.5853, 1.59688, 1.58698, 1.58537, 1.57577, 1.5789, 1.57575, 1.57829, 1.5646, 1.5781, 1.55946, 1.56511, 1.55788, 1.55484, 1.55744, 1.55242, 1.54952, 1.54704, 1.54702, 1.54289, 1.53948, 1.53878, 1.53668, 1.54447, 1.5358, 1.53004, 1.52707, 1.52516, 1.52313, 1.52007, 1.51742, 1.51421, 1.51454, 1.51909, 1.51619, 1.5296, 1.53052, 1.53028, 1.51624, 1.50944, 1.49987, 1.50781, 1.49922, 1.50324, 1.49185, 1.5095, 1.48849, 1.48903, 1.4889, 1.50599, 1.49125, 1.47936, 1.46775, 1.47217, 1.48342, 1.54402, 1.56151, 1.59128, 1.59177, 1.62575, 1.57095, 1.54684, 1.54752, 1.51291, 1.47543, 1.44471, 1.45109, 1.46303, 1.45392, 1.45064, 1.44034, 1.43876, 1.43745, 1.4338, 1.44039, 1.44, 1.45115, 1.44551, 1.44043, 1.43101, 1.42072, 1.41946, 1.4168, 1.41412, 1.41222, 1.41036, 1.41054, 1.40735, 1.40668, 1.40644, 1.41633, 1.40441, 1.40194, 1.40195, 1.4015, 1.39731, 1.39519, 1.39328, 1.39113, 1.38851, 1.38679, 1.38473, 1.38293, 1.381, 1.38005, 1.37823, 1.38541, 1.37448, 1.37092, 1.36884, 1.36983, 1.3671, 1.36616, 1.36576, 1.36255, 1.36109, 1.36046, 1.36076, 1.35852, 1.3579, 1.35909, 1.35417, 1.35436, 1.3524, 1.36765, 1.35717, 1.34771, 1.34727, 1.34701, 1.35059, 1.35248, 1.3528, 1.4036, 1.43033, 1.44111, 1.48585, 1.51223, 1.54725, 1.56221, 1.60042, 1.51734, 1.42119, 1.38983, 1.31778, 1.34719, 1.34484, 1.33544, 1.33351, 1.32917, 1.3276, 1.32502, 1.32252, 1.32206, 1.33995, 1.31998, 1.31742, 1.31531, 1.31439, 1.31129, 1.31066
1.6544, 1.65112, 1.64868, 1.64497, 1.64382, 1.64091, 1.63848, 1.63374, 1.63178, 1.62978, 1.6273, 1.62613, 1.62106, 1.62101, 1.62028, 1.62091, 1.62059, 1.62673, 1.61518, 1.5837, 1.59404, 1.6668, 1.69237, 1.79057, 1.85057, 1.8825, 1.91266, 1.9068, 1.75153, 1.66884, 1.56222, 1.58235, 1.60397, 1.58127, 1.57839, 1.58913, 1.57012, 1.56799, 1.56593, 1.58022, 1.56066, 1.55658, 1.55448, 1.55415, 1.54828, 1.54714, 1.54414, 1.54217, 1.54103, 1.54099, 1.56216, 1.54057, 1.53541, 1.53619, 1.53673, 1.53329, 1.52671, 1.52491, 1.52335, 1.52306, 1.51772, 1.51591, 1.51465, 1.51602, 1.51571, 1.51972, 1.50648, 1.52427, 1.52744, 1.51758, 1.49885, 1.4988, 1.4965, 1.49658, 1.49762, 1.4931, 1.49259, 1.48752, 1.48413, 1.4839, 1.48816, 1.49256, 1.47541, 1.46789, 1.47114, 1.52721, 1.55152, 1.57695, 1.59013, 1.5916, 1.56547, 1.56304, 1.54421, 1.52296, 1.51663, 1.46824, 1.42454, 1.46517, 1.45649, 1.45639, 1.44814, 1.45063, 1.43762, 1.43656, 1.43305, 1.4332, 1.43648, 1.42082, 1.45152, 1.44725, 1.42632, 1.41971, 1.41759, 1.41462, 1.41222, 1.41051, 1.41025, 1.40785, 1.40804, 1.40547, 1.40549, 1.40584, 1.4048, 1.4034, 1.40118, 1.39847, 1.39644, 1.39578, 1.3949, 1.39168, 1.39018, 1.38801, 1.38672, 1.38779, 1.38515, 1.38222, 1.38085, 1.38436, 1.37711, 1.37412, 1.3718, 1.37086, 1.37165, 1.36769, 1.36125, 1.36062, 1.36092, 1.35867, 1.35677, 1.35504, 1.3559, 1.35437, 1.35431, 1.35668, 1.35125, 1.35031, 1.34867, 1.34699, 1.34894, 1.35065, 1.35711, 1.32738, 1.34039, 1.37824, 1.41543, 1.41266, 1.46436, 1.5001, 1.52061, 1.56433, 1.54915, 1.5174, 1.4567, 1.40238, 1.31507, 1.33604, 1.33735, 1.32995, 1.34471, 1.34075, 1.31311, 1.316, 1.31532, 1.3144, 1.31057, 1.31181, 1.31212, 1.31298, 1.31363, 1.30746, 1.30748
1.65427, 1.65058, 1.64888, 1.64508, 1.64107, 1.64086, 1.63611, 1.63459, 1.63064, 1.62917, 1.6281, 1.62677, 1.65031, 1.623, 1.6265, 1.62, 1.62071, 1.6292, 1.62299, 1.6028, 1.63127, 1.70071, 1.69823, 1.80411, 1.84915, 1.96901, 2.00063, 1.97752, 1.73416, 1.56919, 1.56616, 1.57252, 1.58268, 1.58143, 1.5758, 1.57585, 1.57002, 1.56785, 1.56538, 1.56184, 1.56076, 1.5581, 1.5563, 1.55253, 1.5499, 1.54785, 1.54602, 1.54464, 1.54328, 1.54115, 1.54073, 1.53691, 1.53466, 1.53349, 1.53156, 1.52849, 1.52723, 1.52366, 1.52104, 1.51834, 1.5155, 1.51435, 1.5136, 1.51344, 1.51587, 1.51382, 1.50513, 1.52237, 1.52105, 1.53685, 1.51777, 1.49923, 1.49796, 1.49694, 1.50294, 1.4916, 1.4887, 1.48482, 1.48275, 1.48323, 1.48286, 1.48129, 1.47742, 1.45544, 1.47668, 1.52396, 1.52102, 1.53224, 1.56154, 1.54838, 1.55793, 1.55972, 1.55616, 1.50661, 1.4943, 1.49484, 1.473, 1.45415, 1.45125, 1.449, 1.45464, 1.44052, 1.44364, 1.43538, 1.43487, 1.43313, 1.43001, 1.42639, 1.42709, 1.42745, 1.43598, 1.43833, 1.41636, 1.42326, 1.41151, 1.42954, 1.40956, 1.40844, 1.40807, 1.40734, 1.40623, 1.40563, 1.40442, 1.40343, 1.40138, 1.39897, 1.39792, 1.39573, 1.39475, 1.39238, 1.39124, 1.38975, 1.38846, 1.38609, 1.38501, 1.38244, 1.38023, 1.37889, 1.37752, 1.37429, 1.37181, 1.3684, 1.3638, 1.36103, 1.35821, 1.35816, 1.35672, 1.35433, 1.35349, 1.35357, 1.35357, 1.35299, 1.35412, 1.35362, 1.35427, 1.35265, 1.35142, 1.35099, 1.35178, 1.3603, 1.35297, 1.35149, 1.33077, 1.36436, 1.41335, 1.42693, 1.48547, 1.53596, 1.55506, 1.60382, 1.61259, 1.51967, 1.42033, 1.37798, 1.3143, 1.33383, 1.32724, 1.33084, 1.3179, 1.3168, 1.31936, 1.32457, 1.3134, 1.31531, 1.31588, 1.31568, 1.31263, 1.31269, 1.312, 1.3098, 1.30867
1.64826, 1.6477, 1.6446, 1.64505, 1.64246, 1.63685, 1.63556, 1.63182, 1.63003, 1.62723, 1.63426, 1.62427, 1.62166, 1.62068, 1.62007, 1.61646, 1.62717, 1.62913, 1.61533, 1.59912, 1.61718, 1.66946, 1.705, 1.79707, 1.80483, 1.89672, 1.9545, 1.97219, 1.93799, 1.65477, 1.56722, 1.56289, 1.59345, 1.5893, 1.57916, 1.57365, 1.57023, 1.56764, 1.56223, 1.56121, 1.55853, 1.55822, 1.55758, 1.55263, 1.55208, 1.54921, 1.54681, 1.54235, 1.53966, 1.53859, 1.53735, 1.53399, 1.53131, 1.52879, 1.52794, 1.52771, 1.52317, 1.51927, 1.51746, 1.51592, 1.51432, 1.51286, 1.51012, 1.50526, 1.50505, 1.50305, 1.50366, 1.50279, 1.49977, 1.52547, 1.51514, 1.51261, 1.49595, 1.49314, 1.50108, 1.50211, 1.48659, 1.49265, 1.48183, 1.48235, 1.48482, 1.48303, 1.4758, 1.47104, 1.47302, 1.52347, 1.60469, 1.57619, 1.56072, 1.58163, 1.57224, 1.54889, 1.54408, 1.53676, 1.52218, 1.47477, 1.42622, 1.44146, 1.46376, 1.4506, 1.44443, 1.44018, 1.43373, 1.43325, 1.43086, 1.42782, 1.42568, 1.4243, 1.4463, 1.45835, 1.45758, 1.43882, 1.45806, 1.44064, 1.41016, 1.41351, 1.42523, 1.407, 1.40579, 1.40496, 1.40505, 1.40547, 1.40202, 1.4003, 1.40166, 1.3975, 1.39681, 1.39605, 1.3956, 1.39376, 1.39163, 1.41566, 1.38927, 1.38596, 1.38584, 1.38471, 1.38219, 1.38094, 1.38129, 1.37623, 1.37259, 1.36968, 1.36511, 1.36443, 1.36203, 1.36226, 1.36086, 1.35571, 1.35348, 1.35447, 1.3584, 1.35448, 1.35454, 1.35415, 1.35368, 1.35461, 1.36808, 1.35128, 1.36562, 1.35398, 1.35857, 1.35103, 1.33211, 1.38955, 1.42336, 1.45896, 1.50341, 1.52366, 1.59993, 1.61071, 1.6094, 1.58415, 1.48002, 1.37308, 1.32463, 1.33211, 1.32912, 1.32897, 1.33741, 1.32306, 1.32151, 1.32214, 1.33095, 1.3179, 1.31683, 1.31686, 1.31402, 1.31433, 1.31397, 1.30931, 1.30591
1.65102, 1.64983, 1.64594, 1.64399, 1.64184, 1.63806, 1.63445, 1.63069, 1.62843, 1.62656, 1.62011, 1.62026, 1.62021, 1.61913, 1.61867, 1.61828, 1.61672, 1.61645, 1.62236, 1.5916, 1.59375, 1.67228, 1.6858, 1.72555, 1.78176, 1.83745, 1.99469, 2.02344, 1.75772, 1.66208, 1.57169, 1.58184, 1.58558, 1.58882, 1.58632, 1.57913, 1.56891, 1.56658, 1.56397, 1.56254, 1.55947, 1.55523, 1.55451, 1.55056, 1.54925, 1.54688, 1.54418, 1.54277, 1.54035, 1.5387, 1.53675, 1.53619, 1.53349, 1.53028, 1.52776, 1.52565, 1.52329, 1.51999, 1.51827, 1.51735, 1.51238, 1.5109, 1.50864, 1.50467, 1.50298, 1.49827, 1.49992, 1.50316, 1.51024, 1.52037, 1.52358, 1.52282, 1.51967, 1.49355, 1.49273, 1.49886, 1.48937, 1.48258, 1.49304, 1.49543, 1.48839, 1.48548, 1.46178, 1.45838, 1.49741, 1.50896, 1.56119, 1.58795, 1.57947, 1.58081, 1.55076, 1.54526, 1.54289, 1.54012, 1.51708, 1.46426, 1.42379, 1.45171, 1.4576, 1.44747, 1.44837, 1.43719, 1.43321, 1.43227, 1.42996, 1.42686, 1.42624, 1.43021, 1.42351, 1.43436, 1.42304, 1.42917, 1.41345, 1.4247, 1.41309, 1.40608, 1.40733, 1.41301, 1.4153, 1.40483, 1.40355, 1.40172, 1.39932, 1.39667, 1.39563, 1.40153, 1.39149, 1.39048, 1.39097, 1.38816, 1.38989, 1.38764, 1.38632, 1.3849, 1.39145, 1.38334, 1.38155, 1.38132, 1.37921, 1.37759, 1.375, 1.37384, 1.37211, 1.37028, 1.36804, 1.3654, 1.36429, 1.36254, 1.36032, 1.35744, 1.3556, 1.35402, 1.35324, 1.35356, 1.35309, 1.35803, 1.35013, 1.34849, 1.34994, 1.35888, 1.36572, 1.36744, 1.32075, 1.37615, 1.39543, 1.41994, 1.50469, 1.53453, 1.57217, 1.58629, 1.58564, 1.56942, 1.45399, 1.38131, 1.2841, 1.33354, 1.3378, 1.33373, 1.32592, 1.31958, 1.31868, 1.31887, 1.31511, 1.31642, 1.31283, 1.31346, 1.30875, 1.30926, 1.30676, 1.30511, 1.30529
1.65383, 1.64859, 1.64555, 1.64136, 1.64064, 1.64457, 1.63482, 1.63409, 1.63072, 1.62742, 1.62446, 1.62311, 1.62252, 1.62333, 1.62066, 1.61913, 1.61756, 1.61672, 1.61866, 1.59922, 1.61073, 1.66036, 1.72317, 1.76174, 1.77707, 1.91909, 1.99079, 1.95154, 1.88298, 1.7683, 1.53581, 1.57357, 1.60107, 1.58618, 1.58205, 1.57416, 1.58922, 1.56947, 1.5646, 1.56277, 1.55868, 1.55695, 1.55463, 1.55217, 1.55031, 1.5486, 1.54547, 1.54425, 1.54403, 1.54244, 1.53909, 1.53704, 1.53529, 1.533, 1.5313, 1.52827, 1.52602, 1.52294, 1.5203, 1.51768, 1.51584, 1.51293, 1.50941, 1.50768, 1.50421, 1.5022, 1.49943, 1.49953, 1.49872, 1.51651, 1.52698, 1.52633, 1.51417, 1.50627, 1.49159, 1.48942, 1.49221, 1.49278, 1.48275, 1.48035, 1.48177, 1.49513, 1.47446, 1.47369, 1.49687, 1.4966, 1.5289, 1.55822, 1.56887, 1.54995, 1.54006, 1.53949, 1.53014, 1.51408, 1.49195, 1.47809, 1.43289, 1.44194, 1.45765, 1.44976, 1.44749, 1.4496, 1.44669, 1.4346, 1.43369, 1.43369, 1.44686, 1.44336, 1.438, 1.42247, 1.42377, 1.44237, 1.4384, 1.41397, 1.4165, 1.41324, 1.40532, 1.40291, 1.4023, 1.40181, 1.40136, 1.39999, 1.39828, 1.396, 1.3952, 1.39116, 1.38991, 1.38829, 1.38789, 1.38656, 1.38683, 1.38477, 1.385, 1.38233, 1.38228, 1.37913, 1.37758, 1.37509, 1.37471, 1.37341, 1.37209, 1.36885, 1.36819, 1.36786, 1.36726, 1.3666, 1.36449, 1.36376, 1.36386, 1.36467, 1.36359, 1.36189, 1.36822, 1.35412, 1.35319, 1.35205, 1.35203, 1.34982, 1.3476, 1.35572, 1.36379, 1.35044, 1.33642, 1.36095, 1.35901, 1.42984, 1.46829, 1.50736, 1.53773, 1.55552, 1.58793, 1.54023, 1.42061, 1.3246, 1.31516, 1.34672, 1.33708, 1.32875, 1.32737, 1.32106, 1.31942, 1.31698, 1.31445, 1.31374, 1.31242, 1.31246, 1.31382, 1.30907, 1.30787, 1.30708, 1.30534
1.65238, 1.64751, 1.63924, 1.63764, 1.63391, 1.63043, 1.62838, 1.62836, 1.62952, 1.62817, 1.62669, 1.62455, 1.62434, 1.62176, 1.61829, 1.61618, 1.6156, 1.62662, 1.61688, 1.61402, 1.60559, 1.66668, 1.69483, 1.74688, 1.7854, 1.84198, 1.91268, 1.91087, 1.79, 1.65755, 1.55159, 1.56471, 1.58035, 1.57667, 1.57847, 1.5831, 1.56776, 1.5628, 1.56167, 1.55688, 1.55453, 1.55448, 1.55131, 1.54913, 1.54906, 1.54855, 1.54358, 1.54006, 1.53803, 1.53743, 1.5345, 1.53305, 1.5315, 1.53092, 1.52976, 1.52576, 1.52372, 1.52285, 1.51886, 1.51614, 1.51386, 1.51116, 1.50909, 1.50661, 1.5043, 1.50138, 1.5007, 1.50059, 1.49819, 1.49675, 1.49042, 1.50517, 1.52264, 1.53211, 1.51817, 1.48991, 1.49651, 1.48962, 1.47926, 1.48991, 1.48256, 1.47842, 1.47164, 1.46396, 1.48555, 1.51279, 1.57916, 1.57312, 1.57152, 1.56389, 1.52828, 1.52949, 1.53041, 1.51252, 1.49874, 1.464, 1.43689, 1.4367, 1.44741, 1.44889, 1.44204, 1.44823, 1.43999, 1.44521, 1.43753, 1.43678, 1.43991, 1.44043, 1.44532, 1.45267, 1.44833, 1.43678, 1.427, 1.41482, 1.4222, 1.419, 1.40724, 1.41695, 1.40525, 1.40464, 1.40308, 1.40065, 1.39867, 1.39696, 1.39775, 1.3932, 1.39124, 1.38904, 1.38765, 1.38675, 1.38884, 1.38542, 1.38422, 1.38273, 1.38099, 1.37756, 1.37786, 1.3754, 1.37427, 1.37331, 1.37076, 1.36892, 1.36765, 1.36549, 1.36498, 1.36449, 1.3641, 1.37163, 1.36443, 1.36365, 1.36459, 1.35668, 1.35568, 1.35622, 1.35345, 1.35243, 1.34873, 1.34795, 1.34577, 1.35445, 1.35752, 1.3576, 1.34599, 1.37696, 1.41838, 1.42722, 1.51096, 1.53691, 1.57983, 1.61879, 1.62388, 1.61442, 1.51146, 1.41118, 1.30586, 1.29138, 1.34137, 1.337, 1.3414, 1.31978, 1.31962, 1.31547, 1.31414, 1.31323, 1.31034, 1.32965, 1.30897, 1.30848, 1.30623, 1.30611, 1.30425
1.6525, 1.6501, 1.64774, 1.64409, 1.63903, 1.63513, 1.635, 1.63376, 1.63093, 1.64782, 1.6264, 1.62431, 1.62029, 1.6213, 1.61722, 1.61683, 1.61316, 1.61459, 1.61737, 1.62051, 1.59886, 1.65531, 1.68335, 1.75659, 1.84215, 1.8671, 1.91323, 1.92266, 1.8868, 1.60875, 1.55067, 1.59204, 1.58313, 1.57697, 1.57548, 1.58611, 1.57462, 1.56447, 1.56099, 1.55887, 1.55795, 1.55461, 1.55485, 1.56797, 1.57668, 1.54815, 1.54571, 1.54406, 1.53959, 1.53727, 1.53436, 1.53157, 1.52898, 1.52519, 1.52255, 1.51982, 1.51846, 1.51743, 1.51594, 1.52086, 1.51149, 1.50937, 1.50757, 1.50775, 1.50553, 1.50418, 1.50374, 1.50299, 1.49932, 1.51, 1.49637, 1.51068, 1.51449, 1.52468, 1.5381, 1.49968, 1.48859, 1.49021, 1.48818, 1.48623, 1.48331, 1.4925, 1.48924, 1.45779, 1.4567, 1.51438, 1.53552, 1.56003, 1.55057, 1.54622, 1.52618, 1.53895, 1.53489, 1.53623, 1.52694, 1.49839, 1.44458, 1.43, 1.44593, 1.45143, 1.44502, 1.44514, 1.4454, 1.43392, 1.43757, 1.48569, 1.44121, 1.45774, 1.50064, 1.47326, 1.44976, 1.44335, 1.42385, 1.41514, 1.41676, 1.40814, 1.40701, 1.40753, 1.40483, 1.4013, 1.39916, 1.39878, 1.39542, 1.39514, 1.39436, 1.39222, 1.39085, 1.38958, 1.38699, 1.38548, 1.3846, 1.38481, 1.38204, 1.37983, 1.37827, 1.37723, 1.37322, 1.3734, 1.37038, 1.36819, 1.36683, 1.36748, 1.36455, 1.36672, 1.36348, 1.36164, 1.36151, 1.36135, 1.36091, 1.35879, 1.3577, 1.35705, 1.35649, 1.3554, 1.35366, 1.34792, 1.34757, 1.34757, 1.34523, 1.34663, 1.35686, 1.35641, 1.33546, 1.33714, 1.36519, 1.44428, 1.49593, 1.49848, 1.60282, 1.60073, 1.62063, 1.50691, 1.45161, 1.38236, 1.32283, 1.31208, 1.32535, 1.3384, 1.31963, 1.32605, 1.31909, 1.31785, 1.31605, 1.31536, 1.31443, 1.31206, 1.31214, 1.30873, 1.30851, 1.30596, 1.30572
1.65577, 1.65214, 1.6508, 1.64767, 1.64572, 1.64282, 1.64058, 1.63554, 1.63215, 1.63032, 1.63676, 1.62665, 1.62998, 1.62081, 1.62058, 1.61757, 1.62819, 1.61441, 1.6176, 1.61116, 1.59928, 1.65197, 1.67558, 1.76561, 1.77062, 1.81809, 1.86545, 2.0999, 1.85923, 1.67156, 1.54501, 1.5893, 1.59909, 1.57863, 1.57577, 1.5813, 1.57289, 1.57623, 1.56593, 1.56193, 1.5579, 1.55565, 1.55257, 1.55415, 1.54931, 1.54498, 1.54368, 1.54055, 1.53651, 1.53544, 1.53041, 1.52864, 1.52648, 1.52982, 1.541, 1.52414, 1.51804, 1.51678, 1.52071, 1.51043, 1.50935, 1.50887, 1.50713, 1.50625, 1.50678, 1.50523, 1.5038, 1.50311, 1.5093, 1.50654, 1.51612, 1.49714, 1.50726, 1.52419, 1.538, 1.52392, 1.51746, 1.48517, 1.49781, 1.5029, 1.5237, 1.48399, 1.45952, 1.45663, 1.47834, 1.48656, 1.51737, 1.54118, 1.55382, 1.55161, 1.51624, 1.525, 1.53376, 1.53877, 1.5211, 1.4959, 1.43292, 1.429, 1.47113, 1.45395, 1.4652, 1.47973, 1.49613, 1.47849, 1.4906, 1.48974, 1.48828, 1.47215, 1.46065, 1.43997, 1.42673, 1.43398, 1.42934, 1.42694, 1.43109, 1.41653, 1.41049, 1.40846, 1.40634, 1.43002, 1.42957, 1.39979, 1.39793, 1.39528, 1.39363, 1.39197, 1.38934, 1.38921, 1.39407, 1.38656, 1.38496, 1.38435, 1.38249, 1.3799, 1.37829, 1.37783, 1.37545, 1.37388, 1.37175, 1.37076, 1.36975, 1.37137, 1.36784, 1.36741, 1.36496, 1.3645, 1.36313, 1.3623, 1.36287, 1.36016, 1.35897, 1.35757, 1.35586, 1.35223, 1.35115, 1.34975, 1.36045, 1.34815, 1.34432, 1.35524, 1.35497, 1.35561, 1.34069, 1.32266, 1.34687, 1.38028, 1.43314, 1.51272, 1.59957, 1.5965, 1.61365, 1.59532, 1.5178, 1.39965, 1.30589, 1.32635, 1.33836, 1.33639, 1.32618, 1.32687, 1.32032, 1.32009, 1.31734, 1.33595, 1.3162, 1.31296, 1.31186, 1.31006, 1.31137, 1.30663, 1.30737
1.65093, 1.6483, 1.64669, 1.64378, 1.64206, 1.63834, 1.63769, 1.63426, 1.63387, 1.63017, 1.62856, 1.62362, 1.62061, 1.61773, 1.62653, 1.61306, 1.61101, 1.61065, 1.61332, 1.61385, 1.59612, 1.61627, 1.66508, 1.71487, 1.78943, 1.83964, 1.88855, 1.87105, 1.7785, 1.67116, 1.54478, 1.58809, 1.58565, 1.57912, 1.57933, 1.5913, 1.57204, 1.5756, 1.56602, 1.56165, 1.56043, 1.55618, 1.55403, 1.55169, 1.56826, 1.53907, 1.54021, 1.5403, 1.53594, 1.53313, 1.53196, 1.52865, 1.52424, 1.52421, 1.51453, 1.51812, 1.50975, 1.50895, 1.51187, 1.50707, 1.50686, 1.50561, 1.50387, 1.50202, 1.50168, 1.50131, 1.49973, 1.49969, 1.49753, 1.49572, 1.49351, 1.49241, 1.50232, 1.51489, 1.51894, 1.55023, 1.53896, 1.51252, 1.51231, 1.48501, 1.47912, 1.47932, 1.48095, 1.45721, 1.46772, 1.50715, 1.50983, 1.53514, 1.53855, 1.53202, 1.52708, 1.5233, 1.54794, 1.53893, 1.53185, 1.50444, 1.45583, 1.4559, 1.46398, 1.48816, 1.47462, 1.48142, 1.47948, 1.46526, 1.45606, 1.45489, 1.44093, 1.4404, 1.4315, 1.43069, 1.42465, 1.4203, 1.41749, 1.41596, 1.41256, 1.41166, 1.40933, 1.40676, 1.40526, 1.40309, 1.39986, 1.39872, 1.39691, 1.3957, 1.3956, 1.38829, 1.38701, 1.38508, 1.38394, 1.38344, 1.3824, 1.38185, 1.37941, 1.3775, 1.37649, 1.37533, 1.37718, 1.37086, 1.37198, 1.37022, 1.3694, 1.36809, 1.36816, 1.36353, 1.36325, 1.3605, 1.35946, 1.35836, 1.35728, 1.35641, 1.35583, 1.35191, 1.34894, 1.35089, 1.34965, 1.3465, 1.34508, 1.34282, 1.3404, 1.34178, 1.34207, 1.3416, 1.34265, 1.3314, 1.3854, 1.42256, 1.47278, 1.53054, 1.57583, 1.61621, 1.61771, 1.5988, 1.50541, 1.40514, 1.30641, 1.31733, 1.32505, 1.32561, 1.32333, 1.31502, 1.3144, 1.31609, 1.31393, 1.31228, 1.31059, 1.30866, 1.30477, 1.30586, 1.30219, 1.30504, 1.29993
1.64815, 1.64017, 1.63862, 1.63637, 1.63682, 1.64448, 1.63978, 1.64879, 1.63608, 1.63303, 1.63097, 1.64128, 1.62344, 1.62199, 1.61558, 1.61649, 1.61717, 1.60854, 1.60713, 1.61288, 1.57382, 1.6054, 1.68977, 1.73409, 1.76232, 1.85411, 1.96984, 1.99689, 2.00795, 1.64615, 1.55895, 1.59221, 1.60359, 1.58905, 1.58605, 1.57799, 1.58885, 1.57709, 1.58071, 1.57194, 1.56983, 1.5673, 1.57093, 1.55954, 1.56771, 1.55255, 1.55092, 1.54473, 1.54111, 1.54472, 1.53621, 1.5345, 1.53066, 1.52883, 1.52623, 1.53011, 1.51993, 1.519, 1.51543, 1.51284, 1.51033, 1.50982, 1.50744, 1.50627, 1.50414, 1.50363, 1.50211, 1.49935, 1.50748, 1.49223, 1.49489, 1.50725, 1.49979, 1.50366, 1.49863, 1.51376, 1.53352, 1.54649, 1.53521, 1.51524, 1.49281, 1.47997, 1.46101, 1.46071, 1.45758, 1.46526, 1.51479, 1.54454, 1.54774, 1.51755, 1.50338, 1.49233, 1.51278, 1.51887, 1.52009, 1.49323, 1.46432, 1.4404, 1.47783, 1.45122, 1.4482, 1.4443, 1.45129, 1.4474, 1.43866, 1.44042, 1.43164, 1.43065, 1.42679, 1.42567, 1.42404, 1.42086, 1.42355, 1.41594, 1.42673, 1.41161, 1.41066, 1.407, 1.40598, 1.40362, 1.40062, 1.39931, 1.39846, 1.39534, 1.39395, 1.39323, 1.39192, 1.39104, 1.38959, 1.38551, 1.3853, 1.38471, 1.38186, 1.38067, 1.37915, 1.37801, 1.37848, 1.37732, 1.37636, 1.37512, 1.37419, 1.37374, 1.37151, 1.37066, 1.36593, 1.36578, 1.36245, 1.36043, 1.36041, 1.35763, 1.36066, 1.36086, 1.35136, 1.35158, 1.34956, 1.34724, 1.34373, 1.34429, 1.34364, 1.34255, 1.36054, 1.3641, 1.3515, 1.34321, 1.35418, 1.41605, 1.47248, 1.53298, 1.55676, 1.62058, 1.62053, 1.59192, 1.46826, 1.39247, 1.3355, 1.32952, 1.33386, 1.3259, 1.3436, 1.31971, 1.32176, 1.31549, 1.31592, 1.31241, 1.31248, 1.31156, 1.31025, 1.31285, 1.30887, 1.30634, 1.30467
1.64448, 1.64251, 1.64312, 1.64002, 1.63904, 1.64053, 1.64184, 1.63848, 1.63718, 1.6343, 1.64147, 1.62708, 1.62476, 1.62093, 1.61792, 1.62061, 1.61012, 1.61549, 1.60695, 1.60964, 1.57142, 1.59244, 1.64873, 1.70287, 1.79697, 1.8385, 1.94817, 1.96303, 1.96824, 1.66953, 1.56974, 1.57568, 1.59057, 1.58053, 1.59377, 1.5829, 1.58683, 1.58249, 1.5781, 1.57126, 1.57137, 1.56505, 1.5579, 1.55551, 1.55149, 1.54876, 1.5466, 1.54391, 1.53976, 1.53662, 1.534, 1.53113, 1.5296, 1.52699, 1.5231, 1.52054, 1.51954, 1.51552, 1.5125, 1.51181, 1.51026, 1.50795, 1.50578, 1.5036, 1.50274, 1.50074, 1.49941, 1.49896, 1.49584, 1.49299, 1.494, 1.49526, 1.51232, 1.49055, 1.48909, 1.48828, 1.49399, 1.4936, 1.49866, 1.51697, 1.50313, 1.51288, 1.50943, 1.48548, 1.47161, 1.4826, 1.54003, 1.54447, 1.54708, 1.53145, 1.48626, 1.48905, 1.49754, 1.55201, 1.51585, 1.49829, 1.47979, 1.45015, 1.46027, 1.45164, 1.45365, 1.44178, 1.43736, 1.43559, 1.43278, 1.4304, 1.42722, 1.42547, 1.42139, 1.42597, 1.41636, 1.41488, 1.4121, 1.40971, 1.41074, 1.4105, 1.40973, 1.4068, 1.40288, 1.40065, 1.39901, 1.39749, 1.3985, 1.39617, 1.39515, 1.39441, 1.39445, 1.39523, 1.39151, 1.39077, 1.38435, 1.38531, 1.38079, 1.37829, 1.37814, 1.37796, 1.37718, 1.37582, 1.37258, 1.37085, 1.37067, 1.37049, 1.36947, 1.36845, 1.36639, 1.36446, 1.36459, 1.36055, 1.35816, 1.35451, 1.35416, 1.3536, 1.35012, 1.35049, 1.34765, 1.34786, 1.34698, 1.34395, 1.3473, 1.34384, 1.35696, 1.35017, 1.345, 1.32817, 1.32703, 1.41607, 1.493, 1.5103, 1.58445, 1.65113, 1.58564, 1.64032, 1.50208, 1.37113, 1.33426, 1.33254, 1.34149, 1.33435, 1.32285, 1.32217, 1.31394, 1.31285, 1.31038, 1.3114, 1.31178, 1.31029, 1.31199, 1.31692, 1.31742, 1.309, 1.30997
1.64467, 1.64431, 1.64092, 1.64039, 1.63911, 1.63775, 1.63777, 1.6375, 1.63123, 1.62865, 1.62746, 1.62297, 1.62016, 1.61727, 1.61449, 1.6113, 1.61008, 1.60999, 1.61114, 1.61811, 1.62048, 1.59886, 1.64313, 1.69057, 1.8025, 1.85044, 1.92865, 1.89214, 1.76342, 1.69122, 1.57389, 1.57774, 1.57484, 1.58305, 1.58609, 1.585, 1.59119, 1.58925, 1.58385, 1.57906, 1.5703, 1.57138, 1.5619, 1.56508, 1.54787, 1.54408, 1.54016, 1.538, 1.53715, 1.5345, 1.53154, 1.52983, 1.52638, 1.52496, 1.52303, 1.51938, 1.5193, 1.5172, 1.51431, 1.51258, 1.50885, 1.50647, 1.50376, 1.50191, 1.49972, 1.49947, 1.49708, 1.49642, 1.49421, 1.49155, 1.48865, 1.48793, 1.48706, 1.48519, 1.48309, 1.48141, 1.47992, 1.47916, 1.47816, 1.48854, 1.47646, 1.47938, 1.48261, 1.48395, 1.48108, 1.50271, 1.52287, 1.59593, 1.53741, 1.51782, 1.51126, 1.55784, 1.49239, 1.51306, 1.53053, 1.49885, 1.46836, 1.45476, 1.4511, 1.46503, 1.45382, 1.44523, 1.4429, 1.43663, 1.43357, 1.43215, 1.42983, 1.4269, 1.42473, 1.42121, 1.41921, 1.41677, 1.41271, 1.41258, 1.41132, 1.41027, 1.40849, 1.40586, 1.40437, 1.40178, 1.39975, 1.40119, 1.39888, 1.39823, 1.39602, 1.39538, 1.39361, 1.39146, 1.39006, 1.3878, 1.38699, 1.38393, 1.38199, 1.38045, 1.37735, 1.37675, 1.37464, 1.37436, 1.37171, 1.37026, 1.36849, 1.36824, 1.36708, 1.36562, 1.36422, 1.36334, 1.36032, 1.35786, 1.35672, 1.35671, 1.37135, 1.35905, 1.3514, 1.35221, 1.34844, 1.34716, 1.34644, 1.34397, 1.34363, 1.34408, 1.34392, 1.36108, 1.35703, 1.31665, 1.34289, 1.42076, 1.46849, 1.50161, 1.53637, 1.64134, 1.64484, 1.64513, 1.63592, 1.43979, 1.33052, 1.31728, 1.33468, 1.32369, 1.32587, 1.31955, 1.31548, 1.31327, 1.32375, 1.31234, 1.31052, 1.31137, 1.31102, 1.31081, 1.30977, 1.31179, 1.30762
1.64353, 1.64055, 1.6394, 1.63513, 1.63375, 1.63394, 1.63293, 1.62966, 1.62351, 1.62282, 1.62238, 1.62196, 1.62947, 1.63026, 1.61285, 1.61699, 1.60734, 1.60618, 1.60653, 1.60479, 1.60723, 1.57209, 1.64441, 1.64802, 1.79001, 1.82313, 1.92072, 2.21449, 1.96979, 1.63879, 1.54865, 1.54184, 1.54113, 1.56496, 1.59458, 1.56307, 1.55867, 1.55807, 1.58005, 1.58243, 1.58629, 1.5755, 1.56902, 1.55725, 1.55464, 1.53981, 1.53771, 1.53371, 1.53292, 1.5334, 1.53038, 1.52771, 1.52746, 1.52442, 1.52331, 1.52154, 1.51646, 1.51513, 1.51342, 1.51211, 1.50882, 1.5052, 1.50207, 1.49997, 1.50084, 1.49733, 1.4947, 1.49367, 1.49281, 1.49133, 1.48919, 1.48617, 1.48461, 1.48177, 1.47968, 1.47784, 1.47555, 1.47547, 1.4758, 1.47547, 1.48934, 1.47992, 1.48497, 1.47564, 1.49272, 1.51704, 1.52418, 1.53013, 1.52898, 1.50676, 1.48968, 1.4785, 1.5022, 1.49136, 1.50822, 1.4979, 1.47107, 1.45806, 1.45738, 1.45517, 1.44386, 1.46224, 1.43635, 1.44021, 1.43058, 1.43, 1.4248, 1.42264, 1.41982, 1.42053, 1.4168, 1.41467, 1.41113, 1.40978, 1.40855, 1.40809, 1.41296, 1.40915, 1.407, 1.40449, 1.40245, 1.4011, 1.39748, 1.39507, 1.39297, 1.39289, 1.39271, 1.39303, 1.38538, 1.3855, 1.38335, 1.3827, 1.38142, 1.38231, 1.37822, 1.37897, 1.37591, 1.37187, 1.36901, 1.37117, 1.36895, 1.36606, 1.36465, 1.3664, 1.36258, 1.36122, 1.35936, 1.35772, 1.35203, 1.35116, 1.3672, 1.36929, 1.35985, 1.36202, 1.34512, 1.34354, 1.34545, 1.34315, 1.35233, 1.34123, 1.34308, 1.3443, 1.35381, 1.34133, 1.32288, 1.38433, 1.43367, 1.49602, 1.53332, 1.55881, 1.62568, 1.61528, 1.50769, 1.40982, 1.32653, 1.30253, 1.32726, 1.33982, 1.3249, 1.31728, 1.32315, 1.31309, 1.31222, 1.31189, 1.31006, 1.31191, 1.30939, 1.31044, 1.30981, 1.30883, 1.30757
1.64231, 1.63983, 1.63865, 1.63388, 1.63288, 1.63065, 1.62848, 1.62663, 1.62383, 1.62204, 1.61962, 1.61609, 1.61503, 1.61045, 1.60748, 1.60587, 1.60417, 1.60393, 1.6053, 1.60431, 1.60679, 1.58484, 1.61662, 1.64827, 1.70228, 1.8246, 1.85843, 2.02673, 2.0078, 1.82435, 1.55712, 1.5321, 1.58255, 1.65531, 1.73234, 1.80494, 1.80939, 1.68857, 1.59947, 1.59932, 1.58664, 1.58134, 1.58475, 1.57671, 1.55381, 1.5465, 1.5415, 1.53835, 1.53623, 1.5501, 1.53043, 1.52843, 1.52738, 1.52317, 1.52249, 1.52082, 1.51657, 1.51556, 1.51955, 1.51082, 1.50767, 1.50642, 1.50255, 1.50057, 1.49915, 1.50185, 1.49899, 1.51329, 1.49157, 1.48983, 1.48812, 1.48736, 1.48466, 1.48096, 1.4801, 1.4779, 1.47518, 1.47434, 1.4727, 1.47187, 1.47411, 1.47664, 1.48544, 1.48909, 1.49192, 1.50276, 1.52967, 1.52215, 1.51972, 1.52288, 1.50588, 1.46965, 1.51598, 1.49209, 1.50335, 1.49662, 1.47473, 1.44932, 1.44553, 1.45384, 1.45073, 1.43819, 1.43056, 1.42749, 1.42441, 1.42255, 1.41995, 1.42323, 1.41551, 1.41436, 1.41215, 1.41046, 1.40914, 1.40747, 1.40637, 1.40697, 1.40623, 1.40727, 1.40581, 1.40519, 1.40249, 1.39856, 1.3943, 1.39269, 1.3919, 1.39823, 1.38703, 1.38522, 1.38426, 1.38201, 1.38099, 1.37837, 1.37938, 1.37589, 1.37496, 1.37302, 1.37068, 1.37063, 1.37176, 1.36801, 1.36603, 1.36433, 1.36344, 1.36062, 1.35861, 1.35708, 1.35385, 1.35213, 1.35095, 1.35035, 1.35254, 1.35337, 1.36519, 1.34623, 1.34504, 1.34489, 1.34662, 1.34298, 1.34185, 1.3409, 1.34459, 1.34324, 1.3603, 1.33135, 1.32691, 1.41735, 1.45493, 1.48922, 1.57483, 1.62381, 1.64964, 1.64503, 1.52295, 1.44622, 1.34726, 1.32269, 1.33205, 1.3263, 1.3222, 1.31836, 1.34405, 1.31339, 1.32387, 1.31507, 1.30894, 1.30621, 1.30376, 1.30796, 1.3081, 1.30137, 1.30082
1.63827, 1.63868, 1.63345, 1.63155, 1.63021, 1.62956, 1.62575, 1.65495, 1.6211, 1.61977, 1.61565, 1.61584, 1.6199, 1.60803, 1.60296, 1.60262, 1.61635, 1.60892, 1.60296, 1.60325, 1.5968, 1.57131, 1.60194, 1.69289, 1.75424, 1.83532, 1.92794, 2.01008, 1.99166, 1.70179, 1.58137, 1.55516, 1.57197, 1.55563, 1.59831, 1.61614, 1.63162, 1.62389, 1.57532, 1.57945, 1.57652, 1.58239, 1.56771, 1.56446, 1.5519, 1.54168, 1.53774, 1.53666, 1.54476, 1.52832, 1.52687, 1.53326, 1.52637, 1.52064, 1.51746, 1.52247, 1.51679, 1.51576, 1.51085, 1.50947, 1.50866, 1.50567, 1.50033, 1.49808, 1.49862, 1.49687, 1.4916, 1.48995, 1.48758, 1.48513, 1.48476, 1.4832, 1.48132, 1.47903, 1.4928, 1.47577, 1.48531, 1.49562, 1.47145, 1.47191, 1.48244, 1.48871, 1.47984, 1.46916, 1.47435, 1.50688, 1.51593, 1.53306, 1.52726, 1.48521, 1.47242, 1.46602, 1.48064, 1.50993, 1.49384, 1.50333, 1.47161, 1.4662, 1.44277, 1.44482, 1.44123, 1.444, 1.42972, 1.42759, 1.4221, 1.41913, 1.41666, 1.41364, 1.41289, 1.42039, 1.41102, 1.40998, 1.40922, 1.40836, 1.40849, 1.41375, 1.40574, 1.40484, 1.39993, 1.39998, 1.39818, 1.39662, 1.39496, 1.3904, 1.38967, 1.38565, 1.38508, 1.38349, 1.38241, 1.38013, 1.37906, 1.37828, 1.3759, 1.37641, 1.37393, 1.37268, 1.37019, 1.36904, 1.36749, 1.36657, 1.36409, 1.36318, 1.36137, 1.36132, 1.35873, 1.35836, 1.35747, 1.35718, 1.35497, 1.35456, 1.35427, 1.35158, 1.3502, 1.34714, 1.34598, 1.34472, 1.35538, 1.3468, 1.34143, 1.34982, 1.3431, 1.36375, 1.3501, 1.34264, 1.33336, 1.36231, 1.44464, 1.48951, 1.54946, 1.60571, 1.7231, 1.71684, 1.47662, 1.44075, 1.31767, 1.33072, 1.32745, 1.33463, 1.31988, 1.31753, 1.32082, 1.3115, 1.3193, 1.30964, 1.30879, 1.30647, 1.30629, 1.30512, 1.30362, 1.30325, 1.29875
1.63046, 1.6318, 1.62811, 1.6257, 1.62458, 1.62148, 1.61915, 1.61608, 1.61513, 1.61247, 1.61159, 1.60944, 1.60715, 1.61355, 1.60193, 1.59775, 1.59833, 1.59571, 1.59507, 1.59496, 1.60747, 1.60279, 1.61836, 1.67532, 1.7018, 1.80361, 1.87807, 2.13244, 1.9219, 1.7263, 1.59326, 1.55508, 1.5709, 1.56388, 1.56464, 1.56986, 1.57309, 1.57539, 1.57026, 1.58284, 1.57326, 1.56204, 1.55644, 1.55313, 1.5376, 1.54454, 1.52873, 1.52605, 1.5224, 1.52021, 1.51836, 1.51895, 1.51624, 1.51283, 1.51239, 1.51, 1.5067, 1.50551, 1.50563, 1.50595, 1.50427, 1.49978, 1.49856, 1.4965, 1.49335, 1.49075, 1.4883, 1.48568, 1.48165, 1.47809, 1.47848, 1.47697, 1.47334, 1.4732, 1.47079, 1.46948, 1.46756, 1.46474, 1.46565, 1.46271, 1.4718, 1.46715, 1.46918, 1.48449, 1.4791, 1.49216, 1.49325, 1.51288, 1.52693, 1.50899, 1.50789, 1.47123, 1.48056, 1.47754, 1.49963, 1.4832, 1.47824, 1.45858, 1.43769, 1.45407, 1.43864, 1.44098, 1.42872, 1.42606, 1.42164, 1.41679, 1.41541, 1.41966, 1.41007, 1.4093, 1.40894, 1.40724, 1.40715, 1.40421, 1.4024, 1.40181, 1.40196, 1.39922, 1.39536, 1.39468, 1.39249, 1.38911, 1.38724, 1.38563, 1.38475, 1.38149, 1.37936, 1.37861, 1.37569, 1.37458, 1.37457, 1.37682, 1.37661, 1.37713, 1.378, 1.37588, 1.37663, 1.36937, 1.36462, 1.3642, 1.36358, 1.35916, 1.35782, 1.35451, 1.35335, 1.35372, 1.35391, 1.35059, 1.35094, 1.35085, 1.3479, 1.34993, 1.35808, 1.34383, 1.34463, 1.34098, 1.3407, 1.34738, 1.33634, 1.33649, 1.33679, 1.3449, 1.35792, 1.32987, 1.32839, 1.38703, 1.41675, 1.49297, 1.5712, 1.59647, 1.66446, 1.66585, 1.55389, 1.38809, 1.32991, 1.29041, 1.33336, 1.32061, 1.32764, 1.30926, 1.30649, 1.30375, 1.31977, 1.31378, 1.30186, 1.30145, 1.30133, 1.29822, 1.2958, 1.29922, 1.29542
1.62797, 1.62734, 1.62536, 1.62143, 1.62263, 1.62052, 1.62102, 1.61883, 1.61627, 1.61295, 1.61202, 1.60987, 1.60688, 1.60424, 1.6039, 1.60002, 1.59798, 1.59508, 1.59428, 1.60899, 1.59235, 1.57304, 1.56594, 1.66917, 1.703, 1.8058, 1.83674, 2.07042, 1.84265, 1.69619, 1.5591, 1.54231, 1.56581, 1.5665, 1.56293, 1.56176, 1.56128, 1.56088, 1.5602, 1.56497, 1.55033, 1.54721, 1.54574, 1.54023, 1.53712, 1.53463, 1.52968, 1.52696, 1.52405, 1.52301, 1.52201, 1.51765, 1.5141, 1.51297, 1.51087, 1.50907, 1.50648, 1.50426, 1.50246, 1.50063, 1.4988, 1.49739, 1.49604, 1.49419, 1.49291, 1.48922, 1.48588, 1.4834, 1.47932, 1.47551, 1.47393, 1.47372, 1.47006, 1.47749, 1.46826, 1.46787, 1.46577, 1.4646, 1.46354, 1.46456, 1.46294, 1.46513, 1.46799, 1.47242, 1.48314, 1.48885, 1.52471, 1.51521, 1.51368, 1.50758, 1.48188, 1.46735, 1.48279, 1.47215, 1.50386, 1.48635, 1.48201, 1.45447, 1.44029, 1.44469, 1.44712, 1.43459, 1.42946, 1.42606, 1.42271, 1.41961, 1.41748, 1.41451, 1.41313, 1.40984, 1.40833, 1.40712, 1.40636, 1.40304, 1.40136, 1.39874, 1.39673, 1.39523, 1.39185, 1.39104, 1.3909, 1.38765, 1.38317, 1.38127, 1.37994, 1.37777, 1.37614, 1.375, 1.37229, 1.37234, 1.37244, 1.37458, 1.3741, 1.37214, 1.37278, 1.37139, 1.3703, 1.36889, 1.36586, 1.36211, 1.35797, 1.3554, 1.35238, 1.35121, 1.35386, 1.34802, 1.34749, 1.34687, 1.3504, 1.34575, 1.34571, 1.34274, 1.34185, 1.34194, 1.34143, 1.33851, 1.33629, 1.35112, 1.33561, 1.33226, 1.33294, 1.34897, 1.33489, 1.34386, 1.31963, 1.36409, 1.42267, 1.49962, 1.55537, 1.58305, 1.7443, 1.71256, 1.60567, 1.44415, 1.34466, 1.29594, 1.31903, 1.32317, 1.31146, 1.31205, 1.30576, 1.30566, 1.30318, 1.30321, 1.30498, 1.30293, 1.30043, 1.29879, 1.29713, 1.2978, 1.29543
1.62657, 1.62661, 1.62448, 1.62295, 1.62023, 1.61731, 1.61684, 1.61625, 1.6138, 1.61514, 1.61231, 1.60901, 1.60441, 1.60637, 1.6012, 1.59983, 1.59847, 1.59553, 1.59494, 1.59506, 1.59893, 1.58325, 1.56564, 1.63672, 1.70416, 1.80727, 1.79182, 1.75527, 1.74697, 1.7865, 1.51776, 1.52398, 1.56833, 1.56524, 1.57281, 1.55386, 1.55448, 1.55225, 1.55037, 1.54806, 1.55127, 1.54766, 1.54365, 1.54743, 1.53719, 1.53514, 1.53859, 1.52991, 1.52711, 1.52222, 1.52313, 1.51896, 1.51625, 1.52017, 1.50703, 1.50637, 1.50448, 1.5031, 1.50205, 1.50058, 1.49691, 1.49606, 1.49512, 1.49166, 1.48974, 1.4887, 1.48694, 1.48324, 1.47877, 1.47884, 1.47349, 1.47162, 1.47149, 1.47101, 1.46948, 1.46693, 1.46635, 1.46443, 1.46314, 1.4625, 1.46726, 1.46787, 1.46544, 1.46149, 1.47977, 1.49505, 1.49918, 1.51894, 1.51946, 1.50206, 1.48966, 1.46576, 1.47819, 1.48233, 1.50372, 1.50163, 1.48576, 1.45094, 1.44335, 1.44118, 1.43889, 1.43603, 1.43475, 1.42426, 1.42025, 1.41602, 1.41408, 1.41252, 1.41361, 1.41002, 1.40896, 1.40758, 1.40445, 1.40174, 1.40254, 1.39936, 1.39691, 1.39623, 1.3926, 1.39227, 1.38839, 1.38671, 1.39119, 1.38438, 1.38234, 1.40197, 1.37874, 1.37645, 1.37537, 1.37619, 1.37492, 1.37586, 1.37499, 1.37448, 1.37231, 1.37077, 1.3691, 1.36725, 1.36306, 1.3598, 1.35727, 1.35482, 1.35155, 1.34894, 1.34471, 1.34687, 1.34805, 1.34621, 1.34729, 1.34619, 1.34462, 1.34317, 1.34216, 1.34286, 1.3392, 1.3406, 1.3348, 1.33401, 1.3331, 1.33052, 1.3301, 1.33002, 1.33392, 1.33326, 1.31923, 1.33314, 1.39959, 1.47177, 1.48589, 1.57653, 1.64738, 1.64723, 1.53422, 1.44047, 1.27137, 1.2918, 1.32061, 1.3189, 1.31132, 1.31829, 1.30676, 1.30826, 1.30592, 1.30633, 1.30589, 1.31146, 1.30059, 1.30065, 1.29745, 1.29965, 1.29893
1.62478, 1.622, 1.61975, 1.62046, 1.62084, 1.61959, 1.62438, 1.61761, 1.61571, 1.61413, 1.61649, 1.6136, 1.60732, 1.60854, 1.60106, 1.5955, 1.59825, 1.59321, 1.59243, 1.59304, 1.60045, 1.5966, 1.55891, 1.69357, 1.74156, 1.83368, 1.89887, 1.78429, 1.74452, 1.73403, 1.58693, 1.53051, 1.56541, 1.57358, 1.56855, 1.56878, 1.56511, 1.56919, 1.55537, 1.55123, 1.56888, 1.56481, 1.54472, 1.54098, 1.53845, 1.53436, 1.53087, 1.53019, 1.52878, 1.52598, 1.52352, 1.52068, 1.51651, 1.5133, 1.50974, 1.50775, 1.50553, 1.50361, 1.50363, 1.49943, 1.49821, 1.49605, 1.495, 1.49066, 1.48973, 1.4949, 1.48579, 1.48256, 1.48167, 1.47709, 1.47478, 1.47481, 1.47189, 1.47065, 1.46894, 1.46819, 1.47189, 1.46494, 1.4644, 1.4627, 1.47497, 1.46427, 1.47224, 1.47645, 1.46131, 1.48041, 1.49209, 1.53225, 1.5582, 1.48714, 1.50566, 1.47099, 1.46997, 1.50319, 1.47616, 1.48469, 1.48019, 1.45197, 1.43674, 1.45016, 1.43366, 1.42937, 1.42306, 1.41908, 1.41477, 1.41314, 1.40962, 1.40903, 1.40714, 1.41182, 1.4052, 1.40269, 1.4027, 1.40149, 1.39875, 1.39885, 1.39837, 1.39322, 1.39277, 1.39214, 1.39143, 1.38815, 1.38554, 1.38225, 1.38118, 1.37844, 1.37806, 1.38122, 1.37419, 1.37223, 1.37197, 1.37037, 1.36763, 1.36799, 1.36428, 1.36067, 1.35946, 1.35829, 1.35584, 1.35429, 1.35098, 1.35048, 1.34743, 1.34775, 1.34635, 1.34504, 1.34549, 1.34529, 1.34745, 1.34241, 1.34135, 1.33909, 1.33784, 1.33645, 1.33413, 1.33434, 1.33449, 1.33141, 1.33067, 1.33073, 1.32701, 1.32766, 1.34078, 1.33275, 1.32163, 1.33978, 1.38266, 1.46182, 1.54354, 1.60892, 1.67314, 1.72734, 1.6586, 1.4743, 1.28886, 1.28499, 1.32267, 1.31527, 1.323, 1.33738, 1.30684, 1.30556, 1.30416, 1.30455, 1.3037, 1.30279, 1.30122, 1.32732, 1.30173, 1.29668, 1.29555
1.62671, 1.62343, 1.62143, 1.61997, 1.61696, 1.61627, 1.61705, 1.61337, 1.61289, 1.61133, 1.60811, 1.61964, 1.60301, 1.60085, 1.59658, 1.59555, 1.59295, 1.59284, 1.60567, 1.58945, 1.60325, 1.59582, 1.5712, 1.64717, 1.67109, 1.72815, 1.81139, 1.76403, 1.71195, 1.77916, 1.62903, 1.53305, 1.56497, 1.58272, 1.56513, 1.56512, 1.56367, 1.55549, 1.5516, 1.54952, 1.55569, 1.54834, 1.54064, 1.53542, 1.53387, 1.5291, 1.56617, 1.52569, 1.52335, 1.52296, 1.52043, 1.51779, 1.51631, 1.51469, 1.51328, 1.51242, 1.50762, 1.50595, 1.50283, 1.50068, 1.49846, 1.49946, 1.4957, 1.49164, 1.48975, 1.48671, 1.4906, 1.48334, 1.48139, 1.48474, 1.47843, 1.48694, 1.47337, 1.47144, 1.47092, 1.46898, 1.46642, 1.46497, 1.46389, 1.46488, 1.47244, 1.47194, 1.48186, 1.46776, 1.48593, 1.47463, 1.49068, 1.49035, 1.4883, 1.48408, 1.50381, 1.45512, 1.46624, 1.46196, 1.47568, 1.47305, 1.48966, 1.44873, 1.44132, 1.44407, 1.43038, 1.43138, 1.42989, 1.41257, 1.4197, 1.41042, 1.41001, 1.42973, 1.40891, 1.40686, 1.406, 1.40568, 1.40286, 1.40159, 1.39792, 1.39672, 1.39418, 1.39254, 1.39142, 1.38844, 1.38694, 1.38571, 1.38382, 1.38369, 1.3828, 1.37941, 1.38176, 1.37687, 1.3732, 1.37196, 1.36917, 1.36557, 1.3647, 1.3625, 1.3604, 1.35886, 1.3558, 1.35194, 1.35304, 1.35122, 1.34774, 1.34635, 1.34356, 1.34378, 1.34308, 1.3442, 1.34609, 1.34361, 1.34338, 1.34251, 1.3495, 1.34095, 1.33799, 1.33744, 1.35027, 1.33571, 1.34977, 1.33308, 1.33016, 1.32991, 1.32946, 1.33281, 1.32914, 1.33699, 1.32073, 1.3642, 1.41003, 1.45369, 1.51111, 1.56562, 1.69371, 1.71244, 1.52014, 1.46295, 1.27456, 1.26582, 1.30288, 1.3176, 1.30573, 1.30342, 1.30237, 1.30258, 1.31783, 1.30896, 1.30088, 1.30068, 1.2999, 1.29715, 1.31024, 1.29468, 1.29195
1.62087, 1.6174, 1.61651, 1.61312, 1.61212, 1.60954, 1.60887, 1.60726, 1.604, 1.60028, 1.59915, 1.59711, 1.59461, 1.59271, 1.59006, 1.58704, 1.58539, 1.58938, 1.57962, 1.57784, 1.5786, 1.57759, 1.56666, 1.64945, 1.66843, 1.75847, 1.84103, 2.13472, 2.13826, 1.80492, 1.60562, 1.55378, 1.56428, 1.56316, 1.55415, 1.55044, 1.56185, 1.55438, 1.54297, 1.53956, 1.54, 1.53329, 1.52858, 1.52505, 1.52094, 1.51749, 1.52317, 1.5147, 1.51472, 1.51289, 1.51244, 1.51262, 1.51102, 1.50915, 1.50771, 1.50572, 1.5031, 1.50539, 1.49575, 1.49215, 1.49006, 1.48911, 1.48777, 1.48504, 1.48286, 1.48036, 1.47674, 1.4756, 1.47513, 1.47322, 1.4698, 1.46822, 1.47152, 1.46248, 1.46401, 1.46163, 1.46008, 1.45863, 1.4682, 1.45938, 1.45664, 1.45855, 1.46221, 1.47212, 1.47205, 1.4807, 1.4968, 1.49498, 1.48066, 1.47072, 1.46902, 1.4541, 1.46095, 1.46111, 1.48817, 1.47952, 1.46951, 1.44571, 1.43954, 1.44717, 1.42251, 1.41976, 1.42029, 1.40901, 1.40541, 1.40945, 1.40274, 1.40131, 1.40104, 1.39925, 1.40151, 1.39839, 1.39865, 1.39593, 1.3951, 1.39119, 1.38876, 1.38492, 1.3856, 1.38269, 1.38916, 1.37937, 1.37809, 1.37741, 1.37458, 1.37308, 1.37129, 1.36972, 1.37035, 1.36624, 1.36433, 1.36127, 1.35919, 1.35515, 1.35369, 1.35062, 1.34879, 1.34717, 1.34439, 1.34352, 1.34213, 1.3433, 1.33832, 1.33991, 1.3389, 1.33791, 1.33963, 1.33961, 1.3394, 1.33862, 1.33727, 1.33622, 1.33132, 1.33267, 1.33048, 1.32955, 1.32657, 1.32433, 1.3237, 1.32286, 1.32265, 1.32202, 1.32262, 1.3227, 1.3255, 1.31288, 1.34382, 1.41334, 1.50914, 1.5398, 1.68599, 1.69216, 1.47449, 1.43561, 1.28476, 1.28151, 1.29939, 1.29825, 1.2993, 1.29763, 1.29626, 1.29744, 1.29523, 1.29773, 1.29218, 1.29005, 1.29097, 1.28811, 1.28883, 1.2835, 1.28263
1.62066, 1.61854, 1.61571, 1.6195, 1.61258, 1.60876, 1.60637, 1.60341, 1.60044, 1.60276, 1.59609, 1.59325, 1.59281, 1.59345, 1.58766, 1.5918, 1.5793, 1.57769, 1.57471, 1.57265, 1.57696, 1.57224, 1.57577, 1.59632, 1.65242, 1.74039, 1.88677, 1.93544, 1.93984, 1.72697, 1.62382, 1.54892, 1.55499, 1.56993, 1.56463, 1.54359, 1.54224, 1.54068, 1.53643, 1.53223, 1.52992, 1.52632, 1.52259, 1.51824, 1.51669, 1.51687, 1.52339, 1.50832, 1.50635, 1.50429, 1.50364, 1.50416, 1.50259, 1.50051, 1.50013, 1.49819, 1.49783, 1.49533, 1.4936, 1.49158, 1.48803, 1.48512, 1.48363, 1.48173, 1.48286, 1.4786, 1.47642, 1.47459, 1.46914, 1.46407, 1.46281, 1.46202, 1.46181, 1.4592, 1.45803, 1.45543, 1.45182, 1.45096, 1.45051, 1.44903, 1.45106, 1.45302, 1.45537, 1.45379, 1.45809, 1.46196, 1.4658, 1.47123, 1.47167, 1.47876, 1.48428, 1.45782, 1.46194, 1.46974, 1.48531, 1.47099, 1.46871, 1.46202, 1.43731, 1.42657, 1.4242, 1.41847, 1.41161, 1.4063, 1.40187, 1.40067, 1.39904, 1.39931, 1.39525, 1.40543, 1.39304, 1.39184, 1.39254, 1.39059, 1.38881, 1.38819, 1.38389, 1.38088, 1.37635, 1.37444, 1.37178, 1.36908, 1.36749, 1.36659, 1.366, 1.36563, 1.37061, 1.36454, 1.36061, 1.36114, 1.36134, 1.36087, 1.35751, 1.35182, 1.35033, 1.34796, 1.34831, 1.34588, 1.34376, 1.34059, 1.35489, 1.33775, 1.33387, 1.33202, 1.33717, 1.33321, 1.33313, 1.33346, 1.33433, 1.33348, 1.33242, 1.32991, 1.32948, 1.32667, 1.32494, 1.32391, 1.3226, 1.32238, 1.3167, 1.31581, 1.31318, 1.31303, 1.31344, 1.33288, 1.31259, 1.27543, 1.34506, 1.42363, 1.48576, 1.57134, 1.63103, 1.85479, 1.61427, 1.44666, 1.2615, 1.26263, 1.28849, 1.29446, 1.29362, 1.28984, 1.29551, 1.29182, 1.29005, 1.28754, 1.28775, 1.28776, 1.28534, 1.28227, 1.28177, 1.27878, 1.27687
1.61607, 1.61605, 1.61332, 1.61137, 1.60856, 1.60636, 1.60403, 1.60015, 1.59922, 1.59726, 1.59513, 1.59347, 1.60347, 1.58894, 1.5975, 1.58508, 1.58248, 1.58063, 1.57933, 1.59958, 1.58586, 1.59224, 1.58216, 1.60646, 1.62498, 1.69984, 1.81617, 1.90481, 1.92819, 1.75503, 1.56773, 1.52337, 1.55341, 1.56193, 1.55405, 1.55195, 1.53968, 1.53736, 1.53449, 1.53204, 1.52958, 1.52366, 1.52085, 1.54019, 1.51762, 1.52303, 1.51433, 1.51301, 1.50918, 1.50646, 1.50448, 1.50269, 1.50071, 1.49878, 1.49724, 1.49529, 1.49372, 1.49287, 1.49105, 1.488, 1.48503, 1.48308, 1.48025, 1.4765, 1.47547, 1.47527, 1.47103, 1.46987, 1.46951, 1.46664, 1.46422, 1.46256, 1.46076, 1.45809, 1.45976, 1.45315, 1.45073, 1.45004, 1.44843, 1.44823, 1.45138, 1.45117, 1.45067, 1.45174, 1.46029, 1.45837, 1.46515, 1.47044, 1.47225, 1.47334, 1.46494, 1.46227, 1.45076, 1.45084, 1.46534, 1.47581, 1.45512, 1.44424, 1.44384, 1.43585, 1.42286, 1.41781, 1.41385, 1.4052, 1.40039, 1.42228, 1.39699, 1.39533, 1.39458, 1.39504, 1.39449, 1.39027, 1.38869, 1.38856, 1.38476, 1.38186, 1.38171, 1.38232, 1.37833, 1.37737, 1.37551, 1.37511, 1.37264, 1.37477, 1.36688, 1.36434, 1.36256, 1.36365, 1.36288, 1.36019, 1.35755, 1.35759, 1.35715, 1.35533, 1.35395, 1.35102, 1.34926, 1.34523, 1.34381, 1.34031, 1.33678, 1.33571, 1.33529, 1.33427, 1.3354, 1.33632, 1.3346, 1.3345, 1.33368, 1.33306, 1.33322, 1.3349, 1.33267, 1.3327, 1.32872, 1.32555, 1.33363, 1.32179, 1.32232, 1.31831, 1.31898, 1.32003, 1.31932, 1.31943, 1.30779, 1.3033, 1.34491, 1.42674, 1.51354, 1.56583, 1.63678, 1.65161, 1.58799, 1.42228, 1.2856, 1.28472, 1.32037, 1.30482, 1.31124, 1.29619, 1.29546, 1.29459, 1.30502, 1.28908, 1.28646, 1.28542, 1.28224, 1.28139, 1.28341, 1.28373, 1.28403
1.62663, 1.61505, 1.61221, 1.61069, 1.60822, 1.60647, 1.60415, 1.60942, 1.59873, 1.5942, 1.59101, 1.58934, 1.58591, 1.58841, 1.58524, 1.58388, 1.58224, 1.58142, 1.59273, 1.57937, 1.5857, 1.57606, 1.56206, 1.57694, 1.66981, 1.73446, 1.79202, 1.89663, 2.36031, 1.82727, 1.5223, 1.5264, 1.55352, 1.54897, 1.54524, 1.54322, 1.53772, 1.53669, 1.53244, 1.53126, 1.53192, 1.52879, 1.54267, 1.52379, 1.52082, 1.51704, 1.51298, 1.51132, 1.50876, 1.50593, 1.5032, 1.49972, 1.49744, 1.49593, 1.49628, 1.49479, 1.49838, 1.49262, 1.4907, 1.48742, 1.48678, 1.4839, 1.48112, 1.47801, 1.47635, 1.47501, 1.47296, 1.47052, 1.4683, 1.466, 1.4643, 1.4609, 1.46087, 1.45753, 1.4557, 1.46078, 1.45237, 1.45003, 1.44769, 1.44737, 1.45291, 1.45786, 1.46065, 1.46764, 1.45045, 1.45861, 1.46816, 1.46296, 1.46248, 1.47782, 1.45905, 1.4554, 1.45813, 1.47413, 1.46067, 1.46634, 1.46981, 1.45229, 1.44467, 1.42569, 1.42057, 1.41955, 1.42592, 1.40674, 1.40257, 1.39985, 1.39865, 1.39751, 1.41295, 1.40206, 1.41509, 1.3942, 1.39188, 1.39955, 1.38871, 1.38689, 1.38457, 1.38075, 1.3768, 1.37755, 1.39232, 1.36884, 1.36709, 1.36719, 1.36413, 1.363, 1.36069, 1.3577, 1.35737, 1.35536, 1.35415, 1.35386, 1.35217, 1.35252, 1.35374, 1.34834, 1.34865, 1.34776, 1.34656, 1.34302, 1.34091, 1.34305, 1.33712, 1.33591, 1.33587, 1.33636, 1.33388, 1.33573, 1.33045, 1.33057, 1.33682, 1.3292, 1.32892, 1.32634, 1.32562, 1.33378, 1.33381, 1.32304, 1.32176, 1.32657, 1.31806, 1.32148, 1.31903, 1.33048, 1.32396, 1.29584, 1.36399, 1.4166, 1.42948, 1.53917, 1.55121, 1.81849, 1.63448, 1.49232, 1.30929, 1.28476, 1.32223, 1.3084, 1.30922, 1.30261, 1.29253, 1.29281, 1.30133, 1.2879, 1.28793, 1.28926, 1.28846, 1.28539, 1.28496, 1.28161, 1.28126
1.61514, 1.61283, 1.60916, 1.61057, 1.60667, 1.60926, 1.59987, 1.59853, 1.59642, 1.59118, 1.58867, 1.58603, 1.58444, 1.59755, 1.58213, 1.58116, 1.58163, 1.58643, 1.58296, 1.58507, 1.57881, 1.58306, 1.58194, 1.5812, 1.62138, 1.69346, 1.83796, 1.92817, 1.93722, 1.67441, 1.66278, 1.52408, 1.54751, 1.55078, 1.55191, 1.5418, 1.53728, 1.53402, 1.53647, 1.53356, 1.52951, 1.52603, 1.53015, 1.5219, 1.51773, 1.51792, 1.53046, 1.51133, 1.50586, 1.50346, 1.50038, 1.52029, 1.49825, 1.4975, 1.49549, 1.49442, 1.49502, 1.49223, 1.49, 1.48806, 1.4856, 1.48172, 1.47789, 1.47654, 1.47409, 1.47128, 1.46967, 1.46774, 1.46516, 1.4627, 1.46217, 1.45911, 1.45725, 1.46324, 1.45424, 1.45788, 1.44924, 1.44688, 1.44736, 1.44592, 1.45029, 1.45649, 1.45855, 1.45118, 1.46466, 1.45841, 1.46749, 1.46927, 1.46913, 1.46776, 1.45396, 1.4686, 1.45507, 1.45065, 1.47057, 1.46887, 1.46572, 1.46188, 1.45055, 1.43673, 1.42632, 1.41745, 1.41061, 1.40649, 1.39771, 1.39553, 1.39337, 1.39207, 1.38945, 1.38843, 1.3879, 1.3884, 1.38697, 1.39289, 1.385, 1.38361, 1.38183, 1.38046, 1.3764, 1.37398, 1.37143, 1.37102, 1.37366, 1.36734, 1.36314, 1.36408, 1.36152, 1.36097, 1.35916, 1.35797, 1.35573, 1.35716, 1.35364, 1.35294, 1.35112, 1.3491, 1.35444, 1.34876, 1.34743, 1.34667, 1.34585, 1.34338, 1.3412, 1.34006, 1.33819, 1.33888, 1.3331, 1.33141, 1.33144, 1.33011, 1.32858, 1.32804, 1.3278, 1.32748, 1.32678, 1.32547, 1.32567, 1.33374, 1.32465, 1.32308, 1.33983, 1.33373, 1.33852, 1.3327, 1.33414, 1.32621, 1.32363, 1.4015, 1.42728, 1.50949, 1.6202, 1.6432, 1.56391, 1.36522, 1.28149, 1.28891, 1.31107, 1.3227, 1.30596, 1.29741, 1.29468, 1.29207, 1.29144, 1.2904, 1.28956, 1.28856, 1.28497, 1.28687, 1.28469, 1.31625, 1.28066
1.60223, 1.60001, 1.59537, 1.59984, 1.60607, 1.58888, 1.59183, 1.58624, 1.58512, 1.58589, 1.57873, 1.57775, 1.57445, 1.5742, 1.57739, 1.57322, 1.5759, 1.56802, 1.57242, 1.58167, 1.56543, 1.57217, 1.56321, 1.55859, 1.64057, 1.66014, 1.75779, 1.83418, 1.90658, 1.73712, 1.55754, 1.50876, 1.52996, 1.54374, 1.53462, 1.54739, 1.52315, 1.5245, 1.51761, 1.51564, 1.5016, 1.51573, 1.51003, 1.50966, 1.51038, 1.50654, 1.50887, 1.50344, 1.50853, 1.50117, 1.49709, 1.49275, 1.49076, 1.48856, 1.48505, 1.48105, 1.47894, 1.4782, 1.47606, 1.47331, 1.4761, 1.4698, 1.46777, 1.46578, 1.46186, 1.46069, 1.45679, 1.45692, 1.45376, 1.45729, 1.45365, 1.45359, 1.45076, 1.44944, 1.45433, 1.44522, 1.44118, 1.44171, 1.4655, 1.44758, 1.43694, 1.45118, 1.44479, 1.44507, 1.4538, 1.45171, 1.46248, 1.45359, 1.46147, 1.44879, 1.46749, 1.45082, 1.45117, 1.4403, 1.45331, 1.4826, 1.46329, 1.43137, 1.41982, 1.41561, 1.41664, 1.40722, 1.40738, 1.39932, 1.38734, 1.38835, 1.39257, 1.38826, 1.38745, 1.38498, 1.38209, 1.38151, 1.39117, 1.38197, 1.37923, 1.37744, 1.3796, 1.37203, 1.3693, 1.37929, 1.36793, 1.36432, 1.36362, 1.36027, 1.35955, 1.35827, 1.35987, 1.35995, 1.35509, 1.35373, 1.35111, 1.35435, 1.34804, 1.34473, 1.3412, 1.33994, 1.33715, 1.3353, 1.33425, 1.33475, 1.33467, 1.33266, 1.33134, 1.32869, 1.32928, 1.32496, 1.32286, 1.32282, 1.32218, 1.32209, 1.32146, 1.32036, 1.32108, 1.31865, 1.32055, 1.32749, 1.31803, 1.31152, 1.32181, 1.33369, 1.32656, 1.31025, 1.3193, 1.3117, 1.31631, 1.3129, 1.29116, 1.40351, 1.47439, 1.56788, 1.63787, 1.74754, 1.73106, 1.36841, 1.36479, 1.27358, 1.29823, 1.31535, 1.289, 1.29043, 1.28562, 1.28515, 1.28221, 1.27868, 1.27936, 1.2804, 1.27756, 1.278, 1.28017, 1.27279, 1.26833
1.58749, 1.58461, 1.58304, 1.58461, 1.57958, 1.5797, 1.57597, 1.57089, 1.56827, 1.56393, 1.56229, 1.55834, 1.55816, 1.55722, 1.55545, 1.5514, 1.55023, 1.54818, 1.54881, 1.54818, 1.56008, 1.56448, 1.54293, 1.51452, 1.61071, 1.66593, 1.76917, 1.858, 1.95166, 1.88738, 1.52327, 1.49998, 1.50905, 1.51476, 1.5128, 1.5124, 1.51748, 1.50258, 1.49938, 1.49517, 1.49576, 1.49541, 1.49563, 1.49432, 1.49384, 1.49517, 1.49358, 1.49036, 1.48861, 1.48569, 1.48288, 1.47999, 1.48104, 1.47802, 1.47269, 1.46877, 1.4667, 1.46408, 1.45973, 1.45899, 1.45649, 1.45521, 1.45453, 1.45494, 1.45042, 1.44628, 1.44425, 1.44567, 1.44545, 1.43999, 1.43725, 1.4389, 1.43761, 1.42999, 1.43002, 1.42768, 1.42627, 1.42353, 1.41992, 1.41919, 1.41963, 1.42041, 1.43153, 1.43356, 1.44209, 1.42741, 1.44387, 1.44017, 1.43699, 1.46057, 1.43446, 1.43655, 1.41762, 1.42982, 1.41915, 1.43257, 1.44992, 1.4354, 1.40615, 1.40904, 1.39168, 1.38708, 1.38161, 1.38967, 1.37576, 1.36848, 1.36743, 1.36592, 1.36416, 1.3626, 1.36806, 1.36185, 1.3693, 1.37093, 1.37768, 1.36721, 1.36124, 1.35023, 1.35096, 1.34988, 1.34753, 1.34464, 1.34262, 1.34016, 1.33993, 1.33784, 1.33693, 1.33611, 1.33307, 1.33231, 1.33105, 1.33054, 1.32913, 1.32338, 1.32181, 1.32096, 1.3171, 1.31474, 1.31367, 1.31157, 1.31225, 1.31929, 1.31866, 1.31916, 1.31546, 1.30318, 1.30118, 1.30148, 1.29973, 1.30223, 1.30022, 1.30172, 1.30273, 1.30334, 1.3012, 1.29794, 1.29578, 1.2926, 1.29225, 1.28856, 1.28505, 1.28795, 1.29583, 1.29269, 1.28647, 1.28902, 1.30564, 1.37312, 1.48541, 1.49888, 1.54863, 1.82177, 1.83293, 1.44881, 1.28793, 1.24985, 1.25252, 1.28524, 1.27736, 1.27764, 1.27786, 1.27407, 1.27454, 1.26816, 1.25745, 1.25945, 1.25472, 1.2509, 1.27187, 1.24975, 1.24815
1.59127, 1.59239, 1.59305, 1.59283, 1.59703, 1.59718, 1.59442, 1.58546, 1.57952, 1.5755, 1.57329, 1.57398, 1.58086, 1.57336, 1.57167, 1.56642, 1.56589, 1.57685, 1.57918, 1.57337, 1.57345, 1.5689, 1.56079, 1.54165, 1.60746, 1.64073, 1.82544, 2.09155, 0.00331884, 1.75152, 1.63022, 1.48687, 1.54513, 1.5342, 1.53011, 1.52795, 1.51962, 1.51372, 1.50923, 1.51332, 1.517, 1.50661, 1.50792, 1.50785, 1.52053, 1.50074, 1.49935, 1.49745, 1.49547, 1.49519, 1.49976, 1.49202, 1.49159, 1.48808, 1.4886, 1.47967, 1.47489, 1.47299, 1.47191, 1.46952, 1.46876, 1.47122, 1.4705, 1.46924, 1.46468, 1.46367, 1.46114, 1.45751, 1.45748, 1.45044, 1.44471, 1.44442, 1.45041, 1.44114, 1.44803, 1.44, 1.43827, 1.43795, 1.43141, 1.44065, 1.43022, 1.44088, 1.43707, 1.43442, 1.4349, 1.45039, 1.44048, 1.45365, 1.44957, 1.44658, 1.43993, 1.44717, 1.45862, 1.44584, 1.42923, 1.46126, 1.4713, 1.45178, 1.43151, 1.42665, 1.42314, 1.39895, 1.39703, 1.39557, 1.41083, 1.39815, 1.38519, 1.38878, 1.37607, 1.3813, 1.37158, 1.37082, 1.37253, 1.37261, 1.37076, 1.37261, 1.35867, 1.35762, 1.35728, 1.3594, 1.36062, 1.35398, 1.35012, 1.34948, 1.34723, 1.35348, 1.34756, 1.34726, 1.3482, 1.34493, 1.34362, 1.34309, 1.34004, 1.33381, 1.33, 1.33009, 1.32744, 1.33087, 1.32782, 1.33313, 1.31837, 1.31933, 1.31941, 1.31835, 1.31414, 1.31422, 1.3188, 1.31528, 1.31318, 1.30914, 1.30489, 1.30302, 1.30823, 1.30981, 1.31158, 1.31291, 1.30153, 1.29815, 1.3133, 1.29459, 1.31552, 1.30959, 1.29699, 1.30845, 1.31914, 1.26662, 1.28269, 1.36183, 1.41706, 1.49146, 1.46815, 1.50436, 1.54222, 1.48481, 1.33072, 1.27281, 1.27431, 1.28084, 1.27862, 1.27747, 1.27352, 1.27178, 1.26791, 1.27049, 1.27578, 1.26692, 1.27068, 1.26735, 1.26215, 1.26557, 1.26305
1.60385, 1.60206, 1.60093, 1.60172, 1.6003, 1.59605, 1.60263, 1.59218, 1.5889, 1.58593, 1.59257, 1.58949, 1.57924, 1.57458, 1.57821, 1.59611, 1.57026, 1.56921, 1.57628, 1.57539, 1.57409, 1.57244, 1.57829, 1.534, 1.57871, 1.63762, 1.76602, 1.81677, 1.77773, 1.74898, 1.62479, 1.52329, 1.54492, 1.53548, 1.53028, 1.54457, 1.52467, 1.52129, 1.52726, 1.53076, 1.53305, 1.51698, 1.52399, 1.51388, 1.50924, 1.50729, 1.50483, 1.5003, 1.5386, 1.49654, 1.50955, 1.49271, 1.4906, 1.48823, 1.48635, 1.48352, 1.48284, 1.48224, 1.4798, 1.47961, 1.47408, 1.47293, 1.46755, 1.47592, 1.46522, 1.46129, 1.45988, 1.45724, 1.4553, 1.45275, 1.45237, 1.44795, 1.44702, 1.44432, 1.44372, 1.44356, 1.4507, 1.44181, 1.44399, 1.43926, 1.44947, 1.44485, 1.45356, 1.4402, 1.44748, 1.459, 1.45751, 1.44147, 1.45054, 1.44997, 1.4582, 1.46353, 1.44794, 1.43786, 1.43811, 1.43768, 1.44092, 1.43513, 1.42895, 1.41572, 1.42718, 1.41254, 1.4074, 1.41012, 1.3973, 1.39304, 1.39416, 1.39607, 1.38647, 1.38325, 1.39159, 1.38268, 1.40005, 1.37631, 1.38717, 1.38149, 1.37068, 1.37145, 1.36967, 1.36902, 1.3669, 1.37026, 1.36095, 1.3581, 1.35722, 1.35804, 1.35537, 1.3541, 1.35387, 1.35184, 1.34798, 1.34775, 1.34397, 1.34524, 1.34059, 1.34656, 1.34806, 1.34014, 1.33716, 1.33658, 1.3345, 1.3296, 1.33013, 1.32651, 1.32656, 1.32349, 1.32623, 1.32262, 1.32118, 1.32297, 1.31662, 1.31552, 1.31703, 1.31602, 1.31519, 1.31898, 1.33035, 1.32723, 1.31108, 1.31822, 1.31242, 1.32458, 1.31559, 1.30621, 1.31588, 1.31913, 1.28821, 1.33364, 1.37376, 1.49247, 1.48127, 1.48242, 1.4834, 1.46104, 1.32537, 1.27142, 1.2883, 1.29497, 1.29926, 1.28604, 1.28445, 1.29142, 1.28156, 1.27938, 1.27874, 1.27908, 1.27572, 1.27777, 1.28473, 1.26793, 1.26709
1.60205, 1.59945, 1.59739, 1.59535, 1.59398, 1.59363, 1.5907, 1.58645, 1.58822, 1.57642, 1.57476, 1.57471, 1.57887, 1.56866, 1.5687, 1.56686, 1.56651, 1.56593, 1.56517, 1.56337, 1.56935, 1.56163, 1.56464, 1.54948, 1.57512, 1.6394, 1.81071, 1.97612, 2.01963, 1.75233, 1.54417, 1.51065, 1.53378, 1.53466, 1.53046, 1.53396, 1.50719, 1.50761, 1.5228, 1.51403, 1.5197, 1.51247, 1.528, 1.50801, 1.50437, 1.50055, 1.49646, 1.48792, 1.47878, 1.47652, 1.47859, 1.48456, 1.48672, 1.48629, 1.48656, 1.48472, 1.48203, 1.48115, 1.47819, 1.47551, 1.47307, 1.46929, 1.46641, 1.46278, 1.46081, 1.45737, 1.45436, 1.45386, 1.45396, 1.45077, 1.44837, 1.44543, 1.44216, 1.44157, 1.43929, 1.43868, 1.43848, 1.43688, 1.43658, 1.43549, 1.43496, 1.44632, 1.43775, 1.44645, 1.44171, 1.4401, 1.46846, 1.44646, 1.44728, 1.44799, 1.44062, 1.43732, 1.43988, 1.44425, 1.44177, 1.44628, 1.45425, 1.43711, 1.42286, 1.41767, 1.41549, 1.41252, 1.40306, 1.39716, 1.39904, 1.39091, 1.38567, 1.38372, 1.3845, 1.38186, 1.3784, 1.39913, 1.37658, 1.37248, 1.37068, 1.37055, 1.36804, 1.36737, 1.36716, 1.3651, 1.36394, 1.36105, 1.36136, 1.35812, 1.35679, 1.35537, 1.35672, 1.35366, 1.35122, 1.34854, 1.34699, 1.34437, 1.34129, 1.33958, 1.3374, 1.34638, 1.33483, 1.33498, 1.33274, 1.33073, 1.33788, 1.32845, 1.32656, 1.32614, 1.32319, 1.32143, 1.32107, 1.32162, 1.3201, 1.31658, 1.31558, 1.31319, 1.31301, 1.31321, 1.31357, 1.31977, 1.32215, 1.30954, 1.31595, 1.32363, 1.30588, 1.31353, 1.30606, 1.31289, 1.31137, 1.3052, 1.27567, 1.35962, 1.43722, 1.55866, 1.62658, 1.58588, 1.59782, 1.5266, 1.52326, 1.50895, 1.49634, 1.36583, 1.30096, 1.28515, 1.29906, 1.29253, 1.30518, 1.28931, 1.29113, 1.27901, 1.27559, 1.29979, 1.29213, 1.27427, 1.26802
1.59769, 1.59545, 1.59524, 1.59429, 1.59576, 1.59369, 1.5913, 1.59124, 1.58395, 1.57904, 1.57453, 1.57173, 1.56941, 1.57514, 1.56948, 1.56845, 1.56859, 1.57059, 1.5646, 1.5589, 1.57204, 1.56627, 1.56359, 1.55685, 1.59981, 1.65145, 1.73745, 1.86517, 2.1418, 0.0037177, 1.60405, 1.50535, 1.53816, 1.53416, 1.53778, 1.52457, 1.51773, 1.51805, 1.51782, 1.52018, 1.52008, 1.52638, 1.50784, 1.50764, 1.50246, 1.51343, 1.49638, 1.49201, 1.48718, 1.4833, 1.48532, 1.48542, 1.48466, 1.48253, 1.48273, 1.48817, 1.47817, 1.4766, 1.4778, 1.47259, 1.47084, 1.46937, 1.46644, 1.46291, 1.45893, 1.45429, 1.46177, 1.45143, 1.45091, 1.45377, 1.44914, 1.44905, 1.45684, 1.44146, 1.43966, 1.43813, 1.43768, 1.43708, 1.43675, 1.43436, 1.44867, 1.44613, 1.45227, 1.4479, 1.44838, 1.44219, 1.44082, 1.45758, 1.44548, 1.44054, 1.45753, 1.43731, 1.45067, 1.43149, 1.43776, 1.44408, 1.44288, 1.42977, 1.4282, 1.43406, 1.42685, 1.40986, 1.39663, 1.39857, 1.39103, 1.39203, 1.38539, 1.38301, 1.38033, 1.37777, 1.37403, 1.37264, 1.3709, 1.37765, 1.36917, 1.36942, 1.3658, 1.36586, 1.36406, 1.36465, 1.36455, 1.36389, 1.36014, 1.35654, 1.35692, 1.35477, 1.35364, 1.35138, 1.35135, 1.34719, 1.34794, 1.34437, 1.34164, 1.34068, 1.33922, 1.3405, 1.33666, 1.33655, 1.33681, 1.33548, 1.3503, 1.33454, 1.3304, 1.328, 1.32667, 1.32322, 1.32007, 1.31875, 1.32078, 1.31803, 1.31611, 1.32298, 1.31671, 1.31552, 1.31357, 1.31522, 1.31053, 1.31502, 1.30609, 1.30522, 1.30291, 1.30062, 1.2993, 1.31358, 1.29918, 1.3047, 1.27316, 1.2812, 1.41666, 1.48873, 1.53809, 1.70724, 1.71417, 1.49888, 1.49564, 1.50258, 1.48395, 1.45457, 1.37966, 1.36765, 1.27575, 1.27519, 1.27227, 1.28749, 1.27279, 1.27541, 1.27246, 1.27026, 1.28762, 1.27482, 1.26278
1.58596, 1.58778, 1.58676, 1.58315, 1.58778, 1.58859, 1.58566, 1.58413, 1.57883, 1.57575, 1.57148, 1.5681, 1.5679, 1.56851, 1.56819, 1.56774, 1.56085, 1.55945, 1.55716, 1.55852, 1.57529, 1.55874, 1.5637, 1.52575, 1.6159, 1.65562, 1.68943, 1.79736, 2.18285, 1.94582, 1.60643, 1.50577, 1.52619, 1.52775, 1.52838, 1.52491, 1.51766, 1.51387, 1.5115, 1.51212, 1.51544, 1.5126, 1.51701, 1.5172, 1.49985, 1.49524, 1.49562, 1.49257, 1.4901, 1.48669, 1.48618, 1.48321, 1.48171, 1.47722, 1.47554, 1.47499, 1.47396, 1.47193, 1.4694, 1.46868, 1.46766, 1.46564, 1.46214, 1.46089, 1.45487, 1.45161, 1.45042, 1.44863, 1.45002, 1.44661, 1.4464, 1.44382, 1.44107, 1.44018, 1.44349, 1.43469, 1.43439, 1.43661, 1.43322, 1.43203, 1.43156, 1.43443, 1.43518, 1.43904, 1.43769, 1.447, 1.4415, 1.44808, 1.43746, 1.45201, 1.45188, 1.44068, 1.43593, 1.44418, 1.42759, 1.42448, 1.44465, 1.44674, 1.44046, 1.42548, 1.41317, 1.4043, 1.39557, 1.40501, 1.38589, 1.38503, 1.38341, 1.38082, 1.37807, 1.37858, 1.38131, 1.36869, 1.36782, 1.38268, 1.36449, 1.36131, 1.36801, 1.35912, 1.35798, 1.35833, 1.35535, 1.3547, 1.35556, 1.35271, 1.35055, 1.34962, 1.34734, 1.34751, 1.34752, 1.34546, 1.34555, 1.3413, 1.33825, 1.33637, 1.33483, 1.33298, 1.33512, 1.33627, 1.33518, 1.33523, 1.33261, 1.32906, 1.32573, 1.3238, 1.32201, 1.31874, 1.31621, 1.31303, 1.31394, 1.31234, 1.31225, 1.30847, 1.31303, 1.30938, 1.30994, 1.30635, 1.33367, 1.29892, 1.29671, 1.30082, 1.29894, 1.29627, 1.29872, 1.30123, 1.30378, 1.29826, 1.28956, 1.30885, 1.37894, 1.44094, 1.59239, 1.68746, 1.93154, 1.50966, 1.48827, 1.44682, 1.43877, 1.43545, 1.36404, 1.31696, 1.2818, 1.27149, 1.26975, 1.26971, 1.27174, 1.26838, 1.27076, 1.26973, 1.2693, 1.26645, 1.25431
1.58484, 1.58211, 1.58048, 1.57693, 1.57622, 1.57815, 1.57494, 1.57241, 1.56739, 1.56546, 1.56307, 1.56096, 1.56027, 1.55886, 1.55761, 1.55918, 1.55834, 1.55576, 1.56214, 1.56233, 1.5546, 1.55839, 1.56445, 1.55571, 1.54098, 1.62816, 1.73536, 1.79352, 1.6803, 1.79996, 1.56728, 1.4907, 1.49391, 1.52887, 1.512, 1.51442, 1.50457, 1.52014, 1.52324, 1.51317, 1.51642, 1.5129, 1.51634, 1.50025, 1.50303, 1.49361, 1.49997, 1.48607, 1.48321, 1.48266, 1.47862, 1.47764, 1.47342, 1.47475, 1.47265, 1.48166, 1.46602, 1.46146, 1.46009, 1.45782, 1.45923, 1.45548, 1.45218, 1.45145, 1.44798, 1.4476, 1.44455, 1.44352, 1.44191, 1.44043, 1.43938, 1.44279, 1.43763, 1.43344, 1.44097, 1.43068, 1.4305, 1.43771, 1.43007, 1.42822, 1.44461, 1.42934, 1.44794, 1.43633, 1.43482, 1.4459, 1.44432, 1.43684, 1.45441, 1.43367, 1.44449, 1.43399, 1.42888, 1.42659, 1.4333, 1.4386, 1.43796, 1.41412, 1.41386, 1.40135, 1.39722, 1.39456, 1.40596, 1.39168, 1.38945, 1.37286, 1.37106, 1.37012, 1.36519, 1.36496, 1.36612, 1.36455, 1.3641, 1.36359, 1.36126, 1.36178, 1.36172, 1.3575, 1.35555, 1.35339, 1.35503, 1.35336, 1.3528, 1.34895, 1.35159, 1.34682, 1.35022, 1.3401, 1.33955, 1.33706, 1.33569, 1.3335, 1.33351, 1.33165, 1.32975, 1.32761, 1.32693, 1.32564, 1.32976, 1.3244, 1.32175, 1.3178, 1.31632, 1.3158, 1.31327, 1.31204, 1.30828, 1.30551, 1.3042, 1.30365, 1.30293, 1.30239, 1.30196, 1.29944, 1.30195, 1.2989, 1.29269, 1.29153, 1.29039, 1.29708, 1.28567, 1.28206, 1.28096, 1.28197, 1.29478, 1.27855, 1.26924, 1.26536, 1.39898, 1.47978, 1.59855, 1.72665, 1.61353, 1.62009, 1.45805, 1.40596, 1.32475, 1.33343, 1.30609, 1.26913, 1.26218, 1.26189, 1.28433, 1.27513, 1.2635, 1.27461, 1.27268, 1.27638, 1.27073, 1.26501, 1.25748
1.58314, 1.58504, 1.58414, 1.58359, 1.58202, 1.57899, 1.57842, 1.5752, 1.57114, 1.56826, 1.56293, 1.56112, 1.56246, 1.56167, 1.57576, 1.5526, 1.55275, 1.5541, 1.54952, 1.54523, 1.54382, 1.5439, 1.54627, 1.5237, 1.54079, 1.63352, 1.6898, 1.63868, 1.70539, 1.77188, 1.75136, 1.50061, 1.51242, 1.5164, 1.52832, 1.50769, 1.50528, 1.50184, 1.50047, 1.50065, 1.5003, 1.50485, 1.49876, 1.49806, 1.49457, 1.49321, 1.49243, 1.49051, 1.48962, 1.48586, 1.4825, 1.47982, 1.47484, 1.47735, 1.46958, 1.46594, 1.46431, 1.46051, 1.45891, 1.45669, 1.45265, 1.44992, 1.45199, 1.45186, 1.44958, 1.44661, 1.44587, 1.44367, 1.44304, 1.44122, 1.44024, 1.43976, 1.45385, 1.45122, 1.4337, 1.43014, 1.42947, 1.42667, 1.43705, 1.42392, 1.42414, 1.42989, 1.43779, 1.44066, 1.44952, 1.43383, 1.43331, 1.44119, 1.44713, 1.43556, 1.43069, 1.431, 1.43169, 1.41929, 1.43858, 1.42627, 1.41319, 1.4376, 1.41653, 1.40524, 1.40056, 1.38969, 1.38463, 1.38471, 1.38089, 1.36805, 1.3674, 1.36579, 1.36077, 1.36019, 1.35873, 1.3591, 1.35732, 1.3559, 1.35734, 1.35953, 1.35553, 1.354, 1.35136, 1.3525, 1.35119, 1.35085, 1.34937, 1.34713, 1.34352, 1.3432, 1.34106, 1.33708, 1.33518, 1.33311, 1.32835, 1.32579, 1.32343, 1.3227, 1.31967, 1.3213, 1.31969, 1.32187, 1.32329, 1.32099, 1.31975, 1.31906, 1.31702, 1.31914, 1.31496, 1.31232, 1.31028, 1.30835, 1.30691, 1.30607, 1.3072, 1.30427, 1.30424, 1.30584, 1.30067, 1.29878, 1.29428, 1.29486, 1.29915, 1.28832, 1.2957, 1.2889, 1.28554, 1.28483, 1.28461, 1.28748, 1.27869, 1.29192, 1.33929, 1.4596, 1.56194, 1.55629, 1.52801, 1.50029, 1.36408, 1.34703, 1.27704, 1.27142, 1.27528, 1.26105, 1.26136, 1.26399, 1.27655, 1.28829, 1.28211, 1.26024, 1.25786, 1.27117, 1.25324, 1.25129, 1.2527
1.58688, 1.58395, 1.58198, 1.58122, 1.57919, 1.57761, 1.57549, 1.57256, 1.57842, 1.56604, 1.56495, 1.58281, 1.56128, 1.57006, 1.5653, 1.55486, 1.5687, 1.55136, 1.55747, 1.54854, 1.54576, 1.55978, 1.55897, 1.50608, 1.54108, 1.59504, 1.71617, 1.79664, 1.70721, 1.6892, 1.75155, 1.50681, 1.52694, 1.52074, 1.52697, 1.51034, 1.52284, 1.51579, 1.5103, 1.50831, 1.51337, 1.50743, 1.49948, 1.49604, 1.49763, 1.4914, 1.4967, 1.48843, 1.48802, 1.48504, 1.48339, 1.48124, 1.4882, 1.4782, 1.47528, 1.47329, 1.47083, 1.46807, 1.46434, 1.46281, 1.46065, 1.46123, 1.45706, 1.45628, 1.45576, 1.45447, 1.45145, 1.44748, 1.44566, 1.44444, 1.44374, 1.44177, 1.44018, 1.4367, 1.45341, 1.44619, 1.43168, 1.43705, 1.43928, 1.44002, 1.42665, 1.4261, 1.43349, 1.44025, 1.43659, 1.44588, 1.43391, 1.4525, 1.44142, 1.44158, 1.44133, 1.43006, 1.43493, 1.43112, 1.4234, 1.43067, 1.41836, 1.4198, 1.41568, 1.39839, 1.40049, 1.39183, 1.38151, 1.37881, 1.3877, 1.37009, 1.36736, 1.36665, 1.37017, 1.36551, 1.36763, 1.36807, 1.37735, 1.36072, 1.36036, 1.35834, 1.35773, 1.35848, 1.35758, 1.36413, 1.35699, 1.35331, 1.35083, 1.34819, 1.34796, 1.34414, 1.34272, 1.34325, 1.3396, 1.33715, 1.33199, 1.32829, 1.32607, 1.32727, 1.32566, 1.32386, 1.32594, 1.32401, 1.32492, 1.32089, 1.3198, 1.31982, 1.31997, 1.3167, 1.31676, 1.31738, 1.31396, 1.31269, 1.3126, 1.31053, 1.30955, 1.31295, 1.3095, 1.32838, 1.30721, 1.32243, 1.3029, 1.31922, 1.29921, 1.29869, 1.30257, 1.31311, 1.29239, 1.29846, 1.29238, 1.29594, 1.29921, 1.29884, 1.33085, 1.36782, 1.52682, 1.61255, 1.62611, 1.59084, 1.35765, 1.23732, 1.27421, 1.27126, 1.27474, 1.28475, 1.2712, 1.27145, 1.27462, 1.27202, 1.26147, 1.26019, 1.25779, 1.25731, 1.25645, 1.251, 1.24714
1.58278, 1.58249, 1.57908, 1.58175, 1.57351, 1.57424, 1.56918, 1.57061, 1.56335, 1.55972, 1.55496, 1.55391, 1.56802, 1.56481, 1.55158, 1.5513, 1.5443, 1.55059, 1.54028, 1.54775, 1.54585, 1.53716, 1.54616, 1.53788, 1.54332, 1.58355, 1.7045, 1.68553, 1.68602, 1.75085, 1.75861, 1.52168, 1.50233, 1.50843, 1.50079, 1.50698, 1.51993, 1.50355, 1.50217, 1.50585, 1.50184, 1.49894, 1.49695, 1.49345, 1.49047, 1.48723, 1.4819, 1.47805, 1.47554, 1.47801, 1.47019, 1.47435, 1.46782, 1.49148, 1.46422, 1.46385, 1.4614, 1.46098, 1.45465, 1.45179, 1.44989, 1.44636, 1.44497, 1.44217, 1.44324, 1.43977, 1.43865, 1.43701, 1.43511, 1.4333, 1.43322, 1.43794, 1.43062, 1.42977, 1.42624, 1.42163, 1.42037, 1.41772, 1.41671, 1.42349, 1.43442, 1.42029, 1.42127, 1.42346, 1.43391, 1.42743, 1.43539, 1.44021, 1.43415, 1.4342, 1.44699, 1.42905, 1.4297, 1.41663, 1.42934, 1.41831, 1.41165, 1.40583, 1.41859, 1.3959, 1.38913, 1.38927, 1.38334, 1.37899, 1.37204, 1.36918, 1.36771, 1.37843, 1.37125, 1.36022, 1.36356, 1.36335, 1.37836, 1.35385, 1.35169, 1.34979, 1.3575, 1.34988, 1.35306, 1.3509, 1.34695, 1.34551, 1.3464, 1.34319, 1.3456, 1.33752, 1.33671, 1.33469, 1.33468, 1.33195, 1.32947, 1.32842, 1.34063, 1.33112, 1.32428, 1.33689, 1.32013, 1.31668, 1.31485, 1.31577, 1.31069, 1.34704, 1.3119, 1.31183, 1.30989, 1.30957, 1.30555, 1.30412, 1.33742, 1.30435, 1.30253, 1.30155, 1.30089, 1.305, 1.29923, 1.30138, 1.31207, 1.31339, 1.3087, 1.30443, 1.29942, 1.29957, 1.29221, 1.2933, 1.2853, 1.28657, 1.29298, 1.25031, 1.31976, 1.4395, 1.77426, 1.79986, 1.79966, 1.59509, 1.49921, 1.31154, 1.28662, 1.26853, 1.27549, 1.26663, 1.26379, 1.26851, 1.2569, 1.25713, 1.25299, 1.25578, 1.26728, 1.24687, 1.24996, 1.24454, 1.24396
