1.63468, 1.62311, 1.62056, 1.60748, 1.60419, 1.60245, 1.59986, 1.60632, 1.59242, 1.59687, 1.58773, 1.60065, 1.5914, 1.6011, 1.59202, 1.59285, 1.56999, 1.57904, 1.59662, 1.60642, 1.60665, 1.62115, 1.61922, 1.65759, 1.65319, 1.69596, 1.69227, 1.6718, 1.59436, 1.54333, 1.53034, 1.55251, 1.56973, 1.54835, 1.53838, 1.54475, 1.53781, 1.55165, 1.56399, 1.54897, 1.53711, 1.52681, 1.52362, 1.52451, 1.52435, 1.5105, 1.52066, 1.50717, 1.5072, 1.5042, 1.50042, 1.50086, 1.5004, 1.49862, 1.4978, 1.49464, 1.49227, 1.49199, 1.48934, 1.48382, 1.482, 1.48096, 1.47806, 1.47589, 1.47564, 1.47255, 1.51575, 1.4969, 1.46383, 1.46191, 1.458, 1.46022, 1.45751, 1.46843, 1.45487, 1.4522, 1.45152, 1.4484, 1.45726, 1.45233, 1.45738, 1.41975, 1.44076, 1.51001, 1.53655, 1.64822, 1.70647, 1.77604, 1.78242, 1.65715, 1.60004, 1.41938, 1.39672, 1.41277, 1.42365, 1.42488, 1.41622, 1.41427, 1.41374, 1.42647, 1.4137, 1.40735, 1.4034, 1.40192, 1.40146, 1.39798, 1.39563, 1.39353, 1.3926, 1.3922, 1.39061, 1.38601, 1.38415, 1.38102, 1.37894, 1.37643, 1.37428, 1.37528, 1.37109, 1.37357, 1.37048, 1.36733, 1.3639, 1.36319, 1.35973, 1.35882, 1.35997, 1.35606, 1.35416, 1.35679, 1.35566, 1.35199, 1.35147, 1.35238, 1.36769, 1.33989, 1.34319, 1.34416, 1.34071, 1.33439, 1.33345, 1.3308, 1.32886, 1.33002, 1.33058, 1.32585, 1.32585, 1.329, 1.3206, 1.32035, 1.3192, 1.31935, 1.31652, 1.31485, 1.31429, 1.31941, 1.32058, 1.32277, 1.33749, 1.33675, 1.34321, 1.34057, 1.33492, 1.33861, 1.38277, 1.358, 1.34573, 1.34526, 1.34528, 1.36292, 1.37818, 1.32951, 1.30982, 1.30967, 1.31835, 1.3197, 1.29858, 1.29261, 1.28542, 1.27989, 1.28466, 1.28032, 1.28906, 1.28164, 1.27553, 1.28729, 1.27617, 1.29907, 1.27603, 1.29414, 1.29942, 
1.64409, 1.64115, 1.63985, 1.63967, 1.62346, 1.65326, 1.64849, 1.64176, 1.63203, 1.62768, 1.63086, 1.61727, 1.61516, 1.61668, 1.61325, 1.60733, 1.59236, 1.60032, 1.63721, 1.6406, 1.66445, 1.70225, 1.7114, 1.74174, 1.74325, 1.77115, 1.71452, 1.67624, 1.6442, 1.57088, 1.55664, 1.58624, 1.57506, 1.5814, 1.56513, 1.56195, 1.55951, 1.55553, 1.55211, 1.54933, 1.55357, 1.54163, 1.54077, 1.54765, 1.5481, 1.55783, 1.55437, 1.54429, 1.53606, 1.53536, 1.54088, 1.52942, 1.5273, 1.52622, 1.52162, 1.52263, 1.52084, 1.51474, 1.5142, 1.52435, 1.5063, 1.50219, 1.50275, 1.49989, 1.49899, 1.49758, 1.494, 1.49433, 1.49278, 1.49539, 1.48798, 1.48679, 1.48539, 1.49973, 1.49202, 1.48253, 1.47778, 1.47482, 1.47528, 1.47445, 1.48726, 1.44736, 1.45576, 1.49753, 1.53075, 1.59508, 1.64077, 1.69238, 1.69332, 1.68811, 1.59765, 1.59987, 1.40915, 1.41615, 1.42671, 1.44478, 1.45125, 1.43892, 1.43932, 1.43371, 1.43767, 1.42455, 1.4275, 1.42248, 1.42208, 1.42005, 1.41876, 1.41864, 1.41614, 1.41621, 1.41079, 1.41004, 1.41102, 1.41011, 1.40826, 1.40781, 1.40283, 1.40074, 1.39618, 1.39492, 1.3926, 1.39309, 1.39129, 1.3916, 1.39135, 1.39245, 1.39275, 1.39148, 1.39233, 1.39166, 1.38931, 1.3861, 1.38169, 1.37928, 1.37792, 1.37689, 1.37725, 1.37424, 1.37019, 1.36669, 1.36382, 1.36304, 1.36195, 1.36041, 1.36061, 1.35992, 1.35896, 1.36023, 1.36028, 1.35693, 1.35859, 1.35061, 1.34959, 1.34473, 1.34289, 1.34057, 1.34318, 1.34355, 1.34502, 1.35414, 1.33172, 1.34765, 1.36888, 1.41754, 1.37965, 1.3883, 1.39463, 1.39682, 1.40367, 1.40582, 1.39557, 1.38782, 1.34246, 1.3089, 1.33985, 1.33275, 1.33261, 1.3239, 1.31509, 1.31538, 1.31259, 1.31127, 1.31002, 1.32183, 1.30401, 1.30192, 1.3264, 1.29682, 1.29481, 1.31541, 1.29852, 
1.66481, 1.66341, 1.66076, 1.65852, 1.65529, 1.65639, 1.65189, 1.64968, 1.65076, 1.6481, 1.66434, 1.66259, 1.66226, 1.65557, 1.63549, 1.64466, 1.6336, 1.6104, 1.64435, 1.69611, 1.69645, 1.7339, 1.75027, 1.77529, 1.80749, 1.80399, 1.78611, 1.74492, 1.68301, 1.61691, 1.58059, 1.61015, 1.61248, 1.6086, 1.58991, 1.58683, 1.58474, 1.58481, 1.59395, 1.57867, 1.57559, 1.57527, 1.57235, 1.57827, 1.56957, 1.56768, 1.57545, 1.56341, 1.56069, 1.55918, 1.56599, 1.57461, 1.56209, 1.5596, 1.54644, 1.54833, 1.53875, 1.53759, 1.53661, 1.54124, 1.53325, 1.53246, 1.53017, 1.52804, 1.52697, 1.52362, 1.52299, 1.52343, 1.52118, 1.52423, 1.51195, 1.51099, 1.50974, 1.50614, 1.50485, 1.50927, 1.521, 1.50109, 1.49985, 1.50168, 1.50297, 1.50487, 1.47178, 1.48606, 1.54413, 1.58441, 1.63058, 1.69056, 1.68817, 1.67697, 1.67638, 1.63445, 1.57096, 1.5207, 1.45015, 1.46735, 1.48161, 1.47473, 1.46115, 1.46051, 1.47491, 1.47139, 1.45197, 1.45186, 1.45039, 1.4493, 1.448, 1.44528, 1.44342, 1.44032, 1.44071, 1.43843, 1.4365, 1.43517, 1.43418, 1.43253, 1.43018, 1.42884, 1.42556, 1.42547, 1.42082, 1.41927, 1.41883, 1.41652, 1.41506, 1.41398, 1.41225, 1.41162, 1.41027, 1.40789, 1.40618, 1.40454, 1.40292, 1.40066, 1.39984, 1.40193, 1.3921, 1.39162, 1.39212, 1.38858, 1.40263, 1.38483, 1.37961, 1.37931, 1.37872, 1.37794, 1.37856, 1.37702, 1.37779, 1.37304, 1.37226, 1.37139, 1.3721, 1.37138, 1.372, 1.37163, 1.37886, 1.38547, 1.39621, 1.3958, 1.36098, 1.35751, 1.40949, 1.44126, 1.44426, 1.45352, 1.44906, 1.46222, 1.47257, 1.4695, 1.45736, 1.42665, 1.41807, 1.38369, 1.3402, 1.34194, 1.34989, 1.34818, 1.33454, 1.32892, 1.32819, 1.33112, 1.3299, 1.32859, 1.3275, 1.33115, 1.32549, 1.32245, 1.32478, 1.32316, 1.32081, 
1.66154, 1.66263, 1.65867, 1.65575, 1.65478, 1.65469, 1.65153, 1.65046, 1.66655, 1.66302, 1.6571, 1.65046, 1.64711, 1.63167, 1.63228, 1.63881, 1.63476, 1.65097, 1.63205, 1.6338, 1.66814, 1.72455, 1.74857, 1.77906, 1.81794, 1.82738, 1.83566, 1.81405, 1.72505, 1.67897, 1.61134, 1.58636, 1.60962, 1.59692, 1.60294, 1.59065, 1.6002, 1.57912, 1.57484, 1.57256, 1.58289, 1.56784, 1.58565, 1.55915, 1.55736, 1.55295, 1.55271, 1.55188, 1.55467, 1.55427, 1.56573, 1.546, 1.54253, 1.55011, 1.54585, 1.54541, 1.54466, 1.54103, 1.55463, 1.56557, 1.55401, 1.53815, 1.52596, 1.53, 1.53593, 1.52466, 1.51725, 1.52124, 1.51314, 1.51033, 1.52659, 1.50685, 1.52684, 1.51301, 1.50568, 1.50987, 1.49705, 1.50686, 1.49252, 1.49885, 1.50344, 1.49922, 1.48825, 1.46175, 1.54068, 1.55995, 1.57927, 1.58744, 1.62506, 1.6271, 1.62459, 1.61447, 1.58172, 1.56027, 1.50003, 1.45719, 1.44473, 1.45767, 1.46315, 1.46477, 1.47178, 1.47738, 1.47977, 1.46588, 1.4504, 1.44321, 1.43842, 1.43839, 1.43586, 1.42871, 1.42836, 1.42673, 1.42857, 1.42648, 1.42968, 1.43107, 1.42994, 1.42931, 1.42737, 1.42606, 1.4197, 1.41748, 1.41596, 1.41722, 1.41413, 1.42679, 1.4066, 1.40528, 1.40445, 1.40718, 1.40472, 1.40034, 1.3956, 1.39513, 1.39626, 1.38804, 1.38715, 1.38587, 1.38765, 1.38695, 1.38409, 1.37962, 1.37678, 1.37824, 1.37794, 1.37705, 1.37535, 1.37215, 1.37092, 1.37197, 1.37427, 1.3751, 1.3702, 1.36852, 1.36585, 1.36401, 1.36239, 1.36151, 1.37103, 1.37215, 1.37171, 1.36537, 1.3989, 1.38929, 1.44432, 1.45014, 1.48884, 1.49852, 1.51302, 1.52634, 1.52763, 1.5057, 1.47613, 1.44855, 1.35587, 1.33958, 1.3416, 1.34736, 1.34077, 1.34168, 1.32943, 1.33123, 1.32957, 1.32617, 1.32251, 1.32018, 1.32405, 1.32441, 1.32373, 1.32283, 1.3194, 
1.65512, 1.65296, 1.65168, 1.64805, 1.64551, 1.64254, 1.64097, 1.6377, 1.63409, 1.63423, 1.63165, 1.62895, 1.62817, 1.62552, 1.62232, 1.62075, 1.62029, 1.62957, 1.63241, 1.60157, 1.59355, 1.64577, 1.67017, 1.73568, 1.76667, 1.82821, 1.91761, 1.93369, 1.80186, 1.70409, 1.58321, 1.56782, 1.58582, 1.60332, 1.58128, 1.57444, 1.5708, 1.56874, 1.56505, 1.56508, 1.56113, 1.55863, 1.55816, 1.5602, 1.5537, 1.55366, 1.55229, 1.54946, 1.54778, 1.54534, 1.54216, 1.53841, 1.53683, 1.53646, 1.53487, 1.53192, 1.52939, 1.52806, 1.52629, 1.52247, 1.51909, 1.5184, 1.51408, 1.51343, 1.52443, 1.51091, 1.52502, 1.52152, 1.52713, 1.51591, 1.49859, 1.49743, 1.49799, 1.49391, 1.49198, 1.49115, 1.48935, 1.48673, 1.48635, 1.48543, 1.48447, 1.48628, 1.48319, 1.45725, 1.46, 1.48287, 1.51767, 1.56192, 1.58416, 1.57916, 1.59848, 1.61534, 1.57822, 1.56231, 1.5205, 1.5214, 1.46824, 1.43974, 1.46207, 1.4526, 1.44887, 1.44041, 1.43665, 1.43502, 1.43403, 1.43344, 1.43177, 1.45302, 1.4586, 1.46375, 1.44072, 1.43721, 1.41811, 1.42297, 1.41248, 1.41217, 1.40878, 1.40859, 1.40677, 1.40537, 1.40525, 1.40538, 1.40205, 1.3997, 1.39998, 1.39965, 1.39691, 1.39586, 1.39351, 1.39416, 1.3903, 1.38804, 1.38608, 1.38417, 1.38353, 1.38045, 1.37821, 1.37735, 1.37394, 1.37174, 1.37039, 1.36798, 1.36651, 1.36487, 1.36443, 1.36364, 1.36203, 1.36035, 1.35925, 1.35956, 1.3578, 1.3565, 1.35672, 1.35388, 1.36112, 1.35136, 1.34839, 1.34509, 1.34486, 1.34695, 1.35176, 1.35129, 1.32326, 1.3477, 1.39926, 1.42942, 1.45344, 1.49222, 1.38157, 1.38647, 1.5646, 1.55015, 1.50942, 1.37822, 1.34478, 1.31674, 1.33386, 1.33519, 1.33214, 1.3294, 1.32711, 1.32598, 1.32358, 1.31893, 1.32557, 1.32978, 1.31626, 1.31447, 1.31294, 1.31238, 1.30869, 
1.65276, 1.65088, 1.65, 1.65023, 1.6449, 1.64203, 1.64017, 1.63752, 1.63328, 1.63131, 1.62934, 1.62626, 1.62137, 1.61824, 1.61719, 1.61353, 1.60969, 1.60922, 1.62057, 1.61696, 1.60299, 1.58679, 1.6879, 1.74439, 1.84272, 1.83092, 1.93507, 1.93983, 1.94533, 1.78685, 1.62625, 1.56477, 1.61032, 1.58962, 1.57742, 1.5895, 1.58142, 1.56866, 1.57947, 1.56135, 1.55994, 1.55575, 1.55393, 1.55104, 1.54756, 1.54479, 1.54074, 1.53993, 1.53806, 1.53338, 1.53191, 1.53232, 1.52565, 1.52356, 1.51885, 1.51578, 1.51448, 1.5111, 1.50964, 1.50885, 1.50623, 1.50455, 1.50437, 1.50505, 1.50236, 1.50095, 1.49988, 1.49974, 1.49794, 1.49716, 1.49646, 1.49333, 1.50683, 1.50872, 1.53772, 1.5271, 1.53519, 1.52048, 1.50165, 1.49952, 1.48165, 1.48941, 1.48153, 1.46669, 1.45748, 1.48116, 1.48497, 1.50403, 1.55078, 1.55035, 1.51711, 1.51244, 1.51311, 1.53501, 1.56594, 1.52344, 1.48555, 1.4496, 1.47935, 1.49948, 1.47904, 1.49127, 1.49627, 1.49395, 1.49177, 1.46113, 1.45151, 1.46015, 1.45196, 1.43492, 1.44076, 1.43843, 1.42129, 1.41733, 1.41525, 1.41275, 1.41066, 1.40892, 1.40637, 1.40485, 1.40213, 1.40164, 1.39851, 1.3966, 1.39516, 1.39211, 1.38896, 1.38743, 1.38672, 1.38414, 1.38232, 1.38211, 1.37876, 1.37767, 1.37733, 1.3756, 1.37297, 1.37208, 1.37648, 1.36717, 1.36704, 1.36696, 1.36578, 1.36427, 1.3627, 1.36087, 1.35877, 1.36061, 1.35761, 1.3566, 1.35452, 1.35424, 1.35029, 1.3497, 1.34763, 1.34655, 1.34545, 1.34477, 1.34365, 1.34067, 1.34136, 1.35817, 1.35489, 1.32103, 1.32895, 1.39358, 1.42305, 1.47502, 1.54301, 1.59001, 1.64243, 1.62522, 1.58323, 1.45294, 1.38133, 1.31053, 1.32654, 1.32814, 1.32961, 1.31779, 1.31641, 1.31561, 1.31561, 1.31482, 1.31354, 1.31034, 1.30887, 1.30696, 1.30647, 1.30487, 1.30342, 
1.62919, 1.62756, 1.62647, 1.62454, 1.62308, 1.62208, 1.62191, 1.61993, 1.61839, 1.61689, 1.6143, 1.61394, 1.61031, 1.60665, 1.61694, 1.60935, 1.60129, 1.59765, 1.59998, 1.59517, 1.59698, 1.59535, 1.56096, 1.58339, 1.67812, 1.73421, 1.7913, 1.79926, 1.76249, 1.76251, 1.62785, 1.53264, 1.53453, 1.56809, 1.57599, 1.55821, 1.56485, 1.55623, 1.56444, 1.55418, 1.54946, 1.55463, 1.54718, 1.54233, 1.54082, 1.53702, 1.53399, 1.53375, 1.53071, 1.52698, 1.52402, 1.52242, 1.52392, 1.51484, 1.5118, 1.51103, 1.50845, 1.50598, 1.50347, 1.5016, 1.50063, 1.49791, 1.49549, 1.49398, 1.49186, 1.49033, 1.4893, 1.48603, 1.48213, 1.47928, 1.47666, 1.47634, 1.47411, 1.47213, 1.47114, 1.46908, 1.46664, 1.46405, 1.46304, 1.46256, 1.46217, 1.46403, 1.46541, 1.47558, 1.45846, 1.4852, 1.48847, 1.52344, 1.50611, 1.4993, 1.51765, 1.46886, 1.46952, 1.48896, 1.49444, 1.48117, 1.50653, 1.46845, 1.44362, 1.45055, 1.44757, 1.44531, 1.43468, 1.43038, 1.42351, 1.43527, 1.41796, 1.41554, 1.41335, 1.41117, 1.40974, 1.40821, 1.40649, 1.40426, 1.40188, 1.4026, 1.40003, 1.39821, 1.39548, 1.39144, 1.38953, 1.38841, 1.38628, 1.38514, 1.38279, 1.37957, 1.37886, 1.37671, 1.3759, 1.37426, 1.37309, 1.37378, 1.3746, 1.37391, 1.37254, 1.3718, 1.36879, 1.37066, 1.36557, 1.36121, 1.36024, 1.35577, 1.3535, 1.35084, 1.34894, 1.34914, 1.34968, 1.34662, 1.34713, 1.34586, 1.34469, 1.34338, 1.34184, 1.34183, 1.34023, 1.33802, 1.33665, 1.33316, 1.33349, 1.33249, 1.32933, 1.33175, 1.33778, 1.33261, 1.31914, 1.32398, 1.37111, 1.41862, 1.50972, 1.52565, 1.59971, 1.67601, 1.67502, 1.55932, 1.42257, 1.29583, 1.31027, 1.31987, 1.32811, 1.31806, 1.30535, 1.30391, 1.31374, 1.30572, 1.30628, 1.30374, 1.30005, 1.29804, 1.29938, 1.29853, 1.29757, 
1.59067, 1.58741, 1.58487, 1.58153, 1.58195, 1.57992, 1.57672, 1.57596, 1.5696, 1.5679, 1.5647, 1.56142, 1.55812, 1.55768, 1.55724, 1.55171, 1.55036, 1.54931, 1.55407, 1.55019, 1.552, 1.56417, 1.55094, 1.51468, 1.56164, 1.62032, 1.66548, 1.76713, 1.92517, 1.9316, 1.78907, 1.50995, 1.49009, 1.52188, 1.51433, 1.51246, 1.50941, 1.50423, 1.5021, 1.49889, 1.49712, 1.49635, 1.49541, 1.49549, 1.49669, 1.49476, 1.49512, 1.49232, 1.49162, 1.48823, 1.48446, 1.48125, 1.48014, 1.4773, 1.47315, 1.46988, 1.46832, 1.46529, 1.46256, 1.45943, 1.45897, 1.45515, 1.45428, 1.4648, 1.44889, 1.44683, 1.44536, 1.44518, 1.44642, 1.44421, 1.43775, 1.43841, 1.44033, 1.43579, 1.43042, 1.43011, 1.43037, 1.42516, 1.43025, 1.42046, 1.42003, 1.43354, 1.43031, 1.43995, 1.43228, 1.44801, 1.43778, 1.4294, 1.44313, 1.44484, 1.45769, 1.44771, 1.44538, 1.43104, 1.4263, 1.4254, 1.45033, 1.44538, 1.43592, 1.40973, 1.39973, 1.38995, 1.38661, 1.38494, 1.37499, 1.37206, 1.36825, 1.36668, 1.36589, 1.36509, 1.36421, 1.36568, 1.3755, 1.36959, 1.37235, 1.38187, 1.36747, 1.35591, 1.35425, 1.35661, 1.34861, 1.34706, 1.34511, 1.34291, 1.34193, 1.34342, 1.34017, 1.33805, 1.33767, 1.33352, 1.33247, 1.33285, 1.3299, 1.32605, 1.32461, 1.32591, 1.32058, 1.31659, 1.32295, 1.31275, 1.31172, 1.32188, 1.31942, 1.32153, 1.31727, 1.30837, 1.30424, 1.30068, 1.29977, 1.30071, 1.29996, 1.30103, 1.30241, 1.30376, 1.30177, 1.30166, 1.29806, 1.29384, 1.29426, 1.29264, 1.28915, 1.28586, 1.28602, 1.28633, 1.30484, 1.29284, 1.2741, 1.28546, 1.36788, 1.50044, 1.51727, 1.62146, 1.94127, 1.48208, 1.43083, 1.26811, 1.25269, 1.25734, 1.28848, 1.277, 1.27754, 1.27502, 1.27465, 1.26571, 1.25678, 1.27481, 1.28091, 1.26445, 1.25279, 1.25725, 1.25427, 
1.58266, 1.58318, 1.57987, 1.57887, 1.57698, 1.57429, 1.57444, 1.56985, 1.56654, 1.56254, 1.56066, 1.55383, 1.55391, 1.56827, 1.55802, 1.56168, 1.55209, 1.54446, 1.54729, 1.54085, 1.54673, 1.55096, 1.54605, 1.55878, 1.52305, 1.56821, 1.64838, 1.71373, 1.68736, 1.72064, 1.75118, 1.5237, 1.49204, 1.50362, 1.503, 1.50742, 1.51853, 1.51203, 1.5035, 1.50285, 1.50546, 1.5004, 1.49757, 1.49516, 1.49207, 1.48903, 1.48497, 1.49242, 1.47793, 1.47538, 1.47129, 1.47074, 1.4699, 1.48283, 1.46596, 1.46407, 1.46355, 1.45951, 1.46216, 1.45498, 1.45106, 1.44791, 1.44708, 1.44434, 1.44225, 1.44091, 1.44016, 1.43803, 1.43494, 1.43696, 1.43355, 1.43471, 1.43129, 1.43032, 1.42797, 1.42264, 1.42083, 1.42054, 1.42987, 1.42322, 1.42238, 1.42324, 1.42041, 1.4215, 1.42371, 1.43399, 1.43593, 1.4503, 1.44112, 1.43477, 1.43389, 1.44729, 1.4376, 1.41932, 1.41601, 1.42708, 1.41907, 1.41299, 1.42076, 1.40265, 1.38892, 1.39284, 1.38804, 1.38748, 1.38182, 1.37098, 1.36798, 1.37392, 1.36516, 1.36609, 1.36032, 1.36443, 1.36423, 1.36069, 1.35376, 1.3506, 1.358, 1.35773, 1.35153, 1.35045, 1.35333, 1.34694, 1.34613, 1.34474, 1.34316, 1.3464, 1.33762, 1.37491, 1.33491, 1.33276, 1.33028, 1.32749, 1.33311, 1.33926, 1.32396, 1.32845, 1.32045, 1.31905, 1.31634, 1.31544, 1.31127, 1.31224, 1.31003, 1.31203, 1.3099, 1.3097, 1.30746, 1.32397, 1.30403, 1.33794, 1.30483, 1.29988, 1.30171, 1.30148, 1.30579, 1.30515, 1.32188, 1.31216, 1.31342, 1.29269, 1.306, 1.28926, 1.29144, 1.29157, 1.28604, 1.3023, 1.28552, 1.29257, 1.2503, 1.3192, 1.4417, 1.77614, 1.7997, 1.79952, 1.49869, 1.33988, 1.31135, 1.26338, 1.26861, 1.26445, 1.26908, 1.26207, 1.26726, 1.25667, 1.25767, 1.25337, 1.25664, 1.24941, 1.2497, 1.24984, 1.24451, 
