1.66363, 1.65975, 1.65859, 1.65455, 1.6558, 1.64954, 1.65568, 1.64625, 1.66115, 1.65574, 1.67248, 1.66917, 1.65834, 1.64788, 1.64546, 1.63751, 1.63911, 1.63748, 1.61178, 1.62548, 1.68293, 1.68378, 1.68168, 1.73538, 1.75699, 1.76447, 1.7794, 1.77741, 1.79179, 1.78346, 1.68873, 1.6642, 1.64873, 1.58218, 1.59575, 1.60509, 1.59329, 1.58494, 1.57851, 1.59576, 1.57452, 1.57325, 1.57104, 1.56911, 1.56889, 1.56848, 1.56627, 1.56427, 1.56499, 1.56264, 1.55954, 1.55828, 1.55501, 1.57097, 1.55345, 1.58931, 1.58484, 1.56886, 1.55564, 1.55186, 1.54931, 1.53727, 1.54036, 1.534, 1.53892, 1.531, 1.52838, 1.52594, 1.52446, 1.52166, 1.52277, 1.52086, 1.51787, 1.51749, 1.5127, 1.51191, 1.50877, 1.50915, 1.5075, 1.51299, 1.5057, 1.51878, 1.50923, 1.49883, 1.49875, 1.49681, 1.49369, 1.49204, 1.4919, 1.49156, 1.49954, 1.49518, 1.46181, 1.48231, 1.51872, 1.55982, 1.60629, 1.64812, 1.66402, 1.6783, 1.68345, 1.67636, 1.6268, 1.62321, 1.53019, 1.43141, 1.43789, 1.4848, 1.47499, 1.46741, 1.46812, 1.46839, 1.45716, 1.4538, 1.45174, 1.44803, 1.44502, 1.44311, 1.44129, 1.43878, 1.44034, 1.43569, 1.43172, 1.43026, 1.42944, 1.48127, 1.42598, 1.42522, 1.426, 1.4242, 1.42979, 1.42198, 1.41917, 1.41921, 1.41725, 1.41555, 1.4143, 1.41111, 1.41301, 1.41122, 1.41121, 1.41059, 1.40806, 1.40616, 1.40491, 1.40334, 1.40128, 1.40598, 1.39803, 1.39775, 1.39549, 1.39271, 1.3908, 1.38913, 1.38622, 1.38339, 1.38149, 1.38126, 1.37911, 1.3751, 1.37416, 1.37397, 1.36991, 1.37038, 1.37095, 1.36693, 1.36523, 1.3655, 1.36421, 1.36232, 1.38082, 1.36185, 1.36834, 1.36221, 1.35988, 1.36179, 1.36465, 1.37536, 1.36485, 1.38281, 1.35198, 1.35365, 1.37783, 1.38873, 1.46351, 1.43257, 1.46452, 1.46087, 1.45818, 1.4539, 1.45754, 1.45412, 1.43143, 1.42336, 1.4306, 1.38285, 1.34325, 1.32004, 1.33702, 1.33722, 1.34632, 1.32814, 1.32922, 1.32819, 1.32941, 1.32331, 1.3273, 1.31808, 1.31988, 1.31638, 1.32619, 1.31412, 1.3412, 1.32628, 1.31639, 1.32676, 1.34047
1.66282, 1.66051, 1.65766, 1.65497, 1.65299, 1.65196, 1.65112, 1.64847, 1.64673, 1.64605, 1.66879, 1.6675, 1.6736, 1.65612, 1.64477, 1.63899, 1.63876, 1.62422, 1.62177, 1.61743, 1.64696, 1.66959, 1.70082, 1.75167, 1.76065, 1.76877, 1.81401, 1.80786, 1.80537, 1.779, 1.75547, 1.68972, 1.6289, 1.57479, 1.59309, 1.60168, 1.59391, 1.58635, 1.59615, 1.58784, 1.58887, 1.5769, 1.57949, 1.57323, 1.5727, 1.57084, 1.56869, 1.56785, 1.56736, 1.56606, 1.5623, 1.55931, 1.55888, 1.58296, 1.59642, 1.59415, 1.5848, 1.583, 1.56826, 1.54577, 1.54325, 1.54108, 1.53789, 1.53697, 1.53527, 1.53303, 1.53094, 1.53128, 1.52999, 1.5258, 1.52581, 1.52503, 1.52061, 1.51914, 1.51868, 1.51665, 1.51571, 1.51334, 1.51237, 1.50941, 1.51268, 1.50531, 1.50347, 1.52064, 1.49965, 1.50075, 1.49901, 1.4958, 1.49746, 1.4996, 1.50463, 1.49605, 1.47234, 1.48185, 1.50332, 1.57372, 1.58206, 1.61753, 1.60016, 1.67215, 1.67709, 1.64714, 1.60993, 1.55992, 1.51318, 1.47297, 1.46143, 1.46668, 1.46499, 1.46926, 1.46866, 1.46407, 1.46808, 1.46106, 1.45754, 1.45585, 1.45439, 1.45243, 1.44958, 1.44791, 1.44426, 1.44296, 1.43994, 1.43526, 1.43193, 1.43128, 1.43671, 1.43012, 1.42944, 1.43051, 1.42488, 1.42641, 1.42505, 1.42101, 1.41927, 1.41883, 1.41746, 1.41459, 1.41399, 1.41311, 1.41437, 1.41191, 1.40879, 1.40801, 1.40732, 1.40534, 1.40187, 1.40161, 1.39946, 1.39869, 1.39716, 1.39479, 1.39315, 1.39119, 1.38899, 1.38644, 1.38463, 1.38207, 1.38056, 1.37813, 1.3786, 1.37604, 1.37513, 1.37527, 1.37274, 1.37309, 1.37253, 1.36973, 1.3689, 1.36887, 1.36783, 1.37296, 1.36786, 1.36564, 1.36744, 1.36742, 1.36989, 1.37446, 1.37511, 1.37446, 1.37094, 1.3886, 1.36944, 1.37619, 1.41075, 1.4649, 1.45486, 1.45037, 1.45513, 1.45846, 1.46687, 1.45979, 1.49545, 1.46505, 1.43057, 1.35868, 1.33985, 1.33178, 1.33155, 1.33288, 1.33145, 1.33963, 1.32749, 1.32463, 1.32422, 1.32361, 1.32157, 1.31952, 1.32, 1.33061, 1.32073, 1.32028, 1.32068, 1.3191, 1.32654, 1.32845, 1.32346
1.66411, 1.66155, 1.65898, 1.65701, 1.65435, 1.65259, 1.6506, 1.64869, 1.65074, 1.6589, 1.66171, 1.66157, 1.66546, 1.65973, 1.65448, 1.64194, 1.6549, 1.63362, 1.60699, 1.63597, 1.63145, 1.67486, 1.74705, 1.71049, 1.76273, 1.83568, 1.82043, 1.82205, 1.81505, 1.81244, 1.72707, 1.66202, 1.63203, 1.58284, 1.60182, 1.60201, 1.6067, 1.5906, 1.5904, 1.58569, 1.59238, 1.58396, 1.58808, 1.57859, 1.58233, 1.57601, 1.57376, 1.58167, 1.57474, 1.56781, 1.57489, 1.56554, 1.56338, 1.57653, 1.55844, 1.55928, 1.56544, 1.57967, 1.57195, 1.56544, 1.56318, 1.54225, 1.54017, 1.54059, 1.53833, 1.53595, 1.53595, 1.53487, 1.53406, 1.543, 1.53004, 1.5292, 1.53033, 1.52256, 1.52075, 1.54159, 1.51645, 1.51458, 1.51374, 1.51627, 1.51035, 1.50977, 1.50652, 1.50668, 1.50317, 1.51918, 1.50241, 1.51634, 1.51157, 1.51334, 1.50293, 1.5102, 1.48564, 1.47145, 1.48991, 1.56495, 1.66572, 1.65245, 1.68998, 1.67916, 1.68142, 1.67905, 1.61748, 1.60368, 1.54167, 1.48953, 1.4483, 1.47941, 1.47012, 1.47237, 1.46431, 1.46127, 1.46553, 1.4653, 1.46124, 1.45523, 1.45385, 1.45135, 1.44951, 1.4495, 1.46785, 1.44484, 1.44363, 1.44144, 1.4402, 1.43917, 1.43817, 1.43701, 1.43372, 1.43288, 1.43397, 1.43098, 1.42729, 1.42651, 1.42405, 1.42185, 1.42103, 1.41875, 1.4186, 1.41888, 1.41436, 1.41314, 1.41052, 1.41061, 1.41069, 1.40843, 1.406, 1.40573, 1.40446, 1.4019, 1.39956, 1.39598, 1.39531, 1.3953, 1.39145, 1.39078, 1.3883, 1.38555, 1.38451, 1.38359, 1.38195, 1.38123, 1.38139, 1.37854, 1.38518, 1.3778, 1.37569, 1.37641, 1.39055, 1.37213, 1.3727, 1.37255, 1.37242, 1.36849, 1.3858, 1.38451, 1.38389, 1.37172, 1.37935, 1.38487, 1.39328, 1.35389, 1.37541, 1.41468, 1.43299, 1.44245, 1.49649, 1.46032, 1.46435, 1.48264, 1.50077, 1.46705, 1.44733, 1.45078, 1.42779, 1.36893, 1.35535, 1.33016, 1.35019, 1.33995, 1.33349, 1.36345, 1.34236, 1.3276, 1.32905, 1.32866, 1.32609, 1.32728, 1.32694, 1.32421, 1.32616, 1.32853, 1.32386, 1.32194, 1.32215, 1.33344, 1.31646
1.66242, 1.66144, 1.66207, 1.65385, 1.65136, 1.65095, 1.65138, 1.66255, 1.64534, 1.64547, 1.6436, 1.65449, 1.66216, 1.66951, 1.66828, 1.6528, 1.65448, 1.63066, 1.60845, 1.62501, 1.66894, 1.68923, 1.77272, 1.74423, 1.77866, 1.8217, 1.79837, 1.80003, 1.80368, 1.77328, 1.7182, 1.71092, 1.6092, 1.58045, 1.59022, 1.61311, 1.59877, 1.5995, 1.58848, 1.58603, 1.58419, 1.58364, 1.58012, 1.57952, 1.57757, 1.58259, 1.57149, 1.57113, 1.56902, 1.56578, 1.56449, 1.56402, 1.56215, 1.56171, 1.55916, 1.56282, 1.56118, 1.56486, 1.56674, 1.57473, 1.56198, 1.54439, 1.54098, 1.53811, 1.53718, 1.53651, 1.53518, 1.53395, 1.53254, 1.53019, 1.52881, 1.52774, 1.52553, 1.5229, 1.5204, 1.51805, 1.5151, 1.51076, 1.51185, 1.50886, 1.51621, 1.50476, 1.50247, 1.50111, 1.49893, 1.49762, 1.49752, 1.49851, 1.49906, 1.49963, 1.50035, 1.49765, 1.50241, 1.47969, 1.50768, 1.56708, 1.58543, 1.65106, 1.65607, 1.68229, 1.68149, 1.67598, 1.65485, 1.58986, 1.54116, 1.48171, 1.42997, 1.46458, 1.47739, 1.46453, 1.46654, 1.4575, 1.46433, 1.45412, 1.45483, 1.4548, 1.44753, 1.44623, 1.44418, 1.44431, 1.4398, 1.44006, 1.44332, 1.46878, 1.43644, 1.43508, 1.43468, 1.43241, 1.43322, 1.43061, 1.42939, 1.42961, 1.42698, 1.42568, 1.42484, 1.42359, 1.421, 1.42169, 1.42096, 1.42028, 1.41918, 1.41528, 1.41392, 1.41314, 1.4125, 1.4105, 1.40987, 1.4072, 1.40621, 1.40354, 1.4021, 1.39998, 1.39851, 1.3985, 1.39558, 1.39172, 1.39144, 1.39195, 1.38868, 1.38904, 1.38514, 1.38214, 1.3812, 1.38144, 1.38802, 1.37987, 1.37801, 1.37583, 1.37123, 1.37447, 1.37408, 1.37189, 1.37355, 1.37037, 1.37034, 1.3745, 1.37193, 1.38513, 1.38158, 1.37465, 1.38614, 1.35852, 1.35667, 1.41583, 1.45093, 1.43716, 1.48381, 1.46703, 1.46035, 1.47054, 1.49624, 1.48469, 1.48143, 1.44363, 1.43642, 1.40338, 1.35084, 1.31944, 1.33937, 1.34803, 1.3413, 1.33402, 1.33314, 1.3287, 1.33209, 1.33126, 1.33421, 1.33149, 1.32898, 1.32921, 1.3283, 1.32818, 1.32755, 1.32592, 1.32847, 1.32128, 1.32055
1.66451, 1.66156, 1.66152, 1.65882, 1.65445, 1.65034, 1.65562, 1.64583, 1.64705, 1.65615, 1.64848, 1.65701, 1.65565, 1.66198, 1.66813, 1.64685, 1.62846, 1.64459, 1.61011, 1.60724, 1.62727, 1.65745, 1.6897, 1.75586, 1.76157, 1.78277, 1.80407, 1.81414, 1.8375, 1.82536, 1.76306, 1.70662, 1.59342, 1.57545, 1.60005, 1.60712, 1.59582, 1.59791, 1.59263, 1.58358, 1.58785, 1.57946, 1.5784, 1.5792, 1.57932, 1.58632, 1.57209, 1.568, 1.5661, 1.56699, 1.56387, 1.58736, 1.55948, 1.55976, 1.5578, 1.55488, 1.56417, 1.55114, 1.56434, 1.55107, 1.55019, 1.54508, 1.54678, 1.53632, 1.54384, 1.5379, 1.54041, 1.53192, 1.52933, 1.54, 1.52764, 1.52426, 1.51981, 1.52703, 1.52111, 1.51623, 1.51143, 1.50908, 1.50663, 1.50259, 1.50098, 1.50644, 1.49786, 1.51068, 1.49974, 1.49264, 1.50315, 1.4923, 1.49231, 1.5084, 1.49235, 1.50075, 1.47004, 1.48578, 1.52334, 1.5848, 1.60885, 1.63738, 1.67504, 1.68874, 1.69119, 1.68676, 1.67256, 1.60221, 1.53814, 1.47641, 1.44663, 1.45294, 1.48529, 1.47645, 1.45666, 1.45663, 1.46404, 1.46127, 1.44745, 1.45107, 1.44187, 1.44044, 1.45837, 1.44028, 1.43682, 1.43544, 1.434, 1.43434, 1.43303, 1.43103, 1.42993, 1.43035, 1.42713, 1.42447, 1.42287, 1.42144, 1.41922, 1.41998, 1.43032, 1.41825, 1.41806, 1.41777, 1.42007, 1.41722, 1.41554, 1.41425, 1.41347, 1.41229, 1.40982, 1.40913, 1.40875, 1.40646, 1.40661, 1.40691, 1.40528, 1.4024, 1.40188, 1.39969, 1.39804, 1.28614, 1.39555, 1.39529, 1.39285, 1.39011, 1.39133, 1.39756, 1.38563, 1.38331, 1.3821, 1.37835, 1.37806, 1.37639, 1.37565, 1.39469, 1.37421, 1.37452, 1.37227, 1.37085, 1.3694, 1.36768, 1.36722, 1.36807, 1.38842, 1.38189, 1.36073, 1.34604, 1.36809, 1.36811, 1.43696, 1.44196, 1.44573, 1.46064, 1.45558, 1.44451, 1.47829, 1.48635, 1.48246, 1.4753, 1.43434, 1.4039, 1.38962, 1.32735, 1.33441, 1.35675, 1.34087, 1.33815, 1.33653, 1.33556, 1.33622, 1.34288, 1.3459, 1.3377, 1.33286, 1.32601, 1.33005, 1.32561, 1.33311, 1.32335, 1.32161, 1.31727, 1.3163
1.66484, 1.66172, 1.66073, 1.6575, 1.65443, 1.65179, 1.6476, 1.64497, 1.64373, 1.65135, 1.63927, 1.6377, 1.64254, 1.65941, 1.64841, 1.65947, 1.66111, 1.62099, 1.61672, 1.60393, 1.63041, 1.68739, 1.68978, 1.73566, 1.81815, 1.81364, 1.8232, 1.81793, 1.818, 1.79613, 1.76203, 1.69069, 1.62156, 1.59129, 1.58538, 1.60263, 1.59933, 1.58487, 1.58317, 1.58024, 1.58057, 1.57607, 1.5749, 1.57298, 1.57291, 1.57199, 1.57992, 1.5722, 1.56377, 1.56038, 1.55956, 1.55696, 1.55497, 1.5543, 1.55195, 1.54977, 1.54825, 1.5436, 1.54312, 1.56232, 1.56207, 1.57057, 1.53793, 1.53059, 1.53821, 1.52765, 1.52974, 1.52903, 1.53044, 1.52989, 1.53267, 1.52507, 1.5258, 1.52358, 1.51941, 1.51226, 1.50883, 1.50312, 1.51074, 1.49806, 1.51411, 1.48987, 1.48989, 1.48924, 1.48888, 1.49018, 1.49944, 1.4879, 1.49864, 1.4916, 1.49339, 1.49096, 1.502, 1.46884, 1.50653, 1.54852, 1.59883, 1.63797, 1.6586, 1.66509, 1.64487, 1.60831, 1.61724, 1.62, 1.5749, 1.47722, 1.45061, 1.43674, 1.47325, 1.46888, 1.47147, 1.45521, 1.46588, 1.44791, 1.45513, 1.44012, 1.43924, 1.44408, 1.43861, 1.43532, 1.43391, 1.43249, 1.43017, 1.43089, 1.43061, 1.42989, 1.42893, 1.4273, 1.42528, 1.42269, 1.42043, 1.4181, 1.41709, 1.41738, 1.41895, 1.41878, 1.42002, 1.419, 1.45069, 1.41479, 1.41195, 1.4112, 1.40948, 1.40868, 1.40791, 1.40661, 1.4037, 1.40728, 1.40563, 1.40629, 1.40278, 1.40039, 1.39856, 1.39857, 1.39786, 1.39688, 1.39379, 1.39506, 1.39234, 1.38579, 1.3878, 1.3856, 1.3809, 1.38007, 1.37859, 1.3778, 1.37614, 1.37747, 1.37386, 1.37225, 1.37115, 1.37293, 1.37501, 1.37463, 1.36752, 1.36744, 1.37751, 1.36437, 1.37297, 1.37401, 1.36875, 1.33382, 1.34696, 1.38097, 1.41218, 1.43158, 1.46366, 1.46018, 1.46576, 1.47785, 1.49603, 1.54844, 1.50229, 1.48579, 1.45507, 1.42413, 1.35925, 1.31187, 1.34145, 1.35783, 1.35405, 1.34373, 1.33825, 1.33577, 1.33651, 1.33279, 1.34433, 1.33081, 1.33056, 1.33401, 1.32595, 1.32725, 1.32122, 1.3246, 1.32108, 1.32018, 1.31892
1.67138, 1.66855, 1.66966, 1.66747, 1.66562, 1.6622, 1.66078, 1.65944, 1.65811, 1.65573, 1.65947, 1.65347, 1.65159, 1.65418, 1.66554, 1.66807, 1.67143, 1.66166, 1.62739, 1.62262, 1.62159, 1.64787, 1.68527, 1.73375, 1.78661, 1.80403, 1.81024, 1.84949, 1.84095, 1.81296, 1.76468, 1.72314, 1.64877, 1.58765, 1.61272, 1.60468, 1.61516, 1.59332, 1.5927, 1.59225, 1.59375, 1.58427, 1.58025, 1.57843, 1.57921, 1.59914, 1.57563, 1.57337, 1.57192, 1.57196, 1.57247, 1.57145, 1.57798, 1.56441, 1.55826, 1.57331, 1.55359, 1.55809, 1.54744, 1.55855, 1.54034, 1.55373, 1.55728, 1.55873, 1.53758, 1.53872, 1.53802, 1.53858, 1.53616, 1.53532, 1.53355, 1.53201, 1.52955, 1.52659, 1.52218, 1.51729, 1.51413, 1.51033, 1.50673, 1.51398, 1.50518, 1.51318, 1.50081, 1.4962, 1.49236, 1.49177, 1.49389, 1.49654, 1.5024, 1.50992, 1.52026, 1.51657, 1.47597, 1.49279, 1.51731, 1.54254, 1.59669, 1.60277, 1.64932, 1.65519, 1.66233, 1.64867, 1.62611, 1.62707, 1.55175, 1.48941, 1.45997, 1.4371, 1.45335, 1.46442, 1.46485, 1.47353, 1.4723, 1.45467, 1.45432, 1.45794, 1.44754, 1.44776, 1.44641, 1.44308, 1.44295, 1.44129, 1.43863, 1.43863, 1.43527, 1.43418, 1.43133, 1.42956, 1.42821, 1.42453, 1.42409, 1.42193, 1.41948, 1.42294, 1.4206, 1.42312, 1.42353, 1.42297, 1.42273, 1.4184, 1.41746, 1.41571, 1.41422, 1.41246, 1.41056, 1.41082, 1.41105, 1.40928, 1.40645, 1.40333, 1.40157, 1.39859, 1.39734, 1.39546, 1.39459, 1.39179, 1.39114, 1.38988, 1.38891, 1.39016, 1.39475, 1.41261, 1.38395, 1.38052, 1.37925, 1.37876, 1.38172, 1.38084, 1.3767, 1.37986, 1.37301, 1.39291, 1.378, 1.37059, 1.37824, 1.3703, 1.36668, 1.36684, 1.37201, 1.38203, 1.3792, 1.37783, 1.34423, 1.40033, 1.4242, 1.43871, 1.44087, 1.48272, 1.48827, 1.49652, 1.50891, 1.49741, 1.49716, 1.51633, 1.46599, 1.41597, 1.41356, 1.35792, 1.36894, 1.36762, 1.35233, 1.3417, 1.34646, 1.34474, 1.33533, 1.34786, 1.33299, 1.33605, 1.33143, 1.32967, 1.32973, 1.32566, 1.3257, 1.32408, 1.33294, 1.32351, 1.31955
1.67934, 1.67509, 1.67425, 1.67021, 1.6691, 1.66818, 1.66599, 1.66517, 1.67152, 1.67599, 1.66199, 1.66254, 1.66182, 1.65572, 1.65522, 1.66768, 1.65086, 1.64544, 1.64327, 1.6175, 1.62138, 1.65193, 1.66568, 1.71634, 1.75517, 1.80255, 1.84107, 1.83853, 1.83552, 1.88262, 1.77846, 1.71368, 1.65503, 1.58856, 1.6166, 1.60633, 1.60704, 1.60617, 1.59591, 1.60358, 1.60007, 1.60228, 1.58915, 1.59608, 1.58436, 1.58194, 1.57967, 1.57813, 1.5767, 1.57681, 1.57786, 1.57423, 1.57524, 1.56849, 1.56293, 1.56283, 1.56552, 1.55864, 1.55882, 1.55792, 1.55854, 1.56761, 1.55465, 1.5692, 1.57575, 1.55607, 1.55127, 1.54787, 1.55768, 1.53057, 1.52953, 1.52974, 1.53046, 1.53074, 1.53145, 1.52729, 1.52395, 1.5208, 1.52389, 1.53687, 1.51483, 1.51617, 1.51622, 1.52413, 1.51075, 1.51032, 1.50874, 1.50939, 1.52027, 1.51911, 1.5203, 1.52655, 1.50022, 1.48197, 1.52502, 1.56449, 1.58865, 1.62113, 1.63305, 1.65066, 1.64788, 1.64328, 1.61545, 1.61249, 1.59249, 1.50261, 1.46054, 1.4416, 1.47121, 1.46353, 1.48217, 1.47684, 1.49496, 1.47931, 1.4679, 1.46266, 1.46787, 1.46835, 1.46158, 1.47083, 1.45228, 1.4534, 1.45212, 1.45083, 1.4502, 1.44667, 1.44167, 1.4375, 1.44128, 1.43172, 1.43135, 1.43007, 1.43204, 1.43412, 1.43292, 1.43592, 1.43611, 1.43583, 1.43016, 1.42764, 1.42476, 1.42526, 1.42198, 1.41913, 1.41839, 1.41868, 1.4188, 1.4163, 1.41484, 1.4138, 1.41106, 1.41196, 1.40571, 1.40567, 1.40323, 1.4021, 1.40174, 1.40153, 1.39939, 1.39923, 1.39723, 1.39645, 1.39419, 1.39131, 1.39188, 1.38885, 1.38861, 1.3863, 1.38328, 1.38024, 1.37815, 1.37774, 1.37721, 1.3788, 1.37794, 1.37697, 1.37505, 1.3887, 1.38111, 1.38101, 1.37401, 1.37557, 1.34577, 1.40032, 1.41416, 1.4715, 1.47195, 1.49349, 1.49185, 1.52249, 1.51771, 1.51649, 1.52006, 1.48182, 1.47238, 1.43066, 1.41158, 1.33989, 1.34851, 1.35244, 1.36423, 1.36805, 1.3574, 1.34436, 1.34017, 1.33942, 1.34011, 1.33942, 1.34028, 1.3407, 1.34003, 1.33339, 1.35156, 1.33714, 1.32954, 1.32689, 1.32791
1.66376, 1.65843, 1.65215, 1.64782, 1.64764, 1.64683, 1.64494, 1.64401, 1.65238, 1.65372, 1.65567, 1.66461, 1.65188, 1.66084, 1.64468, 1.64596, 1.63807, 1.64211, 1.65553, 1.60617, 1.61567, 1.67057, 1.70293, 1.71615, 1.77901, 1.78936, 1.8374, 1.8456, 1.85912, 1.83335, 1.79171, 1.74411, 1.66121, 1.57804, 1.59863, 1.60592, 1.61177, 1.60212, 1.59998, 1.59046, 1.59666, 1.58399, 1.57433, 1.56877, 1.56078, 1.55753, 1.55745, 1.5876, 1.56783, 1.57026, 1.56939, 1.56653, 1.56517, 1.54862, 1.5455, 1.54464, 1.54923, 1.56066, 1.5584, 1.55071, 1.56508, 1.54826, 1.57316, 1.55863, 1.56186, 1.55596, 1.54367, 1.53405, 1.53401, 1.52808, 1.52708, 1.52876, 1.54091, 1.53704, 1.52831, 1.52665, 1.51991, 1.5159, 1.50805, 1.50411, 1.50411, 1.506, 1.50962, 1.51038, 1.51659, 1.49982, 1.49887, 1.50863, 1.51526, 1.50011, 1.50065, 1.50973, 1.47972, 1.48822, 1.4848, 1.52682, 1.57501, 1.59246, 1.63453, 1.65015, 1.6407, 1.63846, 1.61582, 1.60413, 1.57338, 1.49609, 1.4679, 1.4476, 1.4581, 1.47193, 1.4757, 1.46769, 1.48083, 1.46508, 1.46892, 1.47897, 1.45395, 1.45712, 1.45919, 1.4613, 1.45384, 1.46122, 1.44868, 1.44714, 1.44622, 1.44326, 1.44996, 1.44083, 1.43003, 1.42262, 1.41725, 1.41695, 1.41901, 1.4248, 1.43865, 1.43374, 1.44694, 1.42894, 1.42151, 1.41304, 1.41569, 1.4037, 1.40268, 1.40315, 1.40484, 1.40694, 1.40792, 1.40716, 1.40661, 1.40372, 1.4023, 1.39952, 1.40032, 1.39838, 1.39538, 1.39209, 1.38784, 1.38394, 1.38285, 1.39181, 1.38297, 1.39365, 1.38407, 1.38239, 1.38056, 1.38081, 1.37847, 1.37688, 1.37436, 1.38663, 1.36681, 1.36729, 1.37459, 1.38061, 1.36433, 1.37567, 1.37673, 1.38008, 1.38062, 1.3822, 1.37116, 1.34795, 1.36139, 1.4329, 1.44085, 1.43094, 1.47314, 1.50926, 1.5313, 1.51357, 1.45848, 1.50874, 1.48922, 1.49849, 1.45152, 1.42082, 1.37719, 1.33094, 1.31959, 1.34791, 1.34515, 1.34784, 1.33599, 1.3369, 1.33739, 1.34797, 1.33892, 1.33596, 1.34106, 1.33828, 1.34107, 1.3203, 1.31728, 1.31485, 1.31563, 1.32012, 1.3161
1.67544, 1.66577, 1.68128, 1.66758, 1.65872, 1.67586, 1.67832, 1.6799, 1.66099, 1.68526, 1.66563, 1.67212, 1.65361, 1.6549, 1.63933, 1.64809, 1.64861, 1.6425, 1.64051, 1.63436, 1.62693, 1.66534, 1.67317, 1.69239, 1.74602, 1.76439, 1.83862, 1.8653, 1.87841, 1.85777, 1.8758, 1.79996, 1.67234, 1.61576, 1.61218, 1.61375, 1.61557, 1.60935, 1.60593, 1.60366, 1.61265, 1.59382, 1.60553, 1.58853, 1.57434, 1.57626, 1.5831, 1.58669, 1.58851, 1.59586, 1.57425, 1.57161, 1.56449, 1.5618, 1.55929, 1.55219, 1.56511, 1.54991, 1.54936, 1.55377, 1.54809, 1.54732, 1.55018, 1.54838, 1.58098, 1.55497, 1.55569, 1.54268, 1.55359, 1.54851, 1.53735, 1.54129, 1.53361, 1.53154, 1.52981, 1.52712, 1.52368, 1.51842, 1.55239, 1.51217, 1.51093, 1.51354, 1.5166, 1.51496, 1.52599, 1.50981, 1.50399, 1.50388, 1.50167, 1.50931, 1.50657, 1.51659, 1.51075, 1.49065, 1.53191, 1.51413, 1.59983, 1.61332, 1.62782, 1.63727, 1.65686, 1.65824, 1.64472, 1.63308, 1.54429, 1.51392, 1.45029, 1.44039, 1.46197, 1.47583, 1.46383, 1.45405, 1.47554, 1.47187, 1.46551, 1.46782, 1.46055, 1.46486, 1.46034, 1.46349, 1.4586, 1.466, 1.45356, 1.44031, 1.43658, 1.43688, 1.43246, 1.42757, 1.42593, 1.42101, 1.42292, 1.41995, 1.42324, 1.42927, 1.4343, 1.43338, 1.43517, 1.42766, 1.42472, 1.41563, 1.4118, 1.40505, 1.40349, 1.40228, 1.39677, 1.39494, 1.39448, 1.39463, 1.39396, 1.39164, 1.38955, 1.38647, 1.38552, 1.38735, 1.38538, 1.38138, 1.37802, 1.37547, 1.37535, 1.38803, 1.37989, 1.38179, 1.3836, 1.43838, 1.38537, 1.38874, 1.38874, 1.38869, 1.39011, 1.40686, 1.36915, 1.36857, 1.36157, 1.36226, 1.36094, 1.36796, 1.36551, 1.37194, 1.37102, 1.38079, 1.3787, 1.35711, 1.35065, 1.36099, 1.40977, 1.48266, 1.46417, 1.47252, 1.47842, 1.56255, 1.51718, 1.54065, 1.54438, 1.46497, 1.42799, 1.39105, 1.35094, 1.29784, 1.33625, 1.35329, 1.35523, 1.34828, 1.35163, 1.34216, 1.33881, 1.33682, 1.33514, 1.3282, 1.31994, 1.3173, 1.3199, 1.31408, 1.31765, 1.31428, 1.34335, 1.3108, 1.31027
1.67278, 1.68181, 1.66879, 1.66819, 1.66558, 1.66238, 1.66204, 1.68334, 1.67208, 1.67379, 1.65225, 1.65821, 1.67078, 1.6446, 1.65392, 1.65245, 1.63628, 1.64229, 1.62356, 1.61351, 1.60352, 1.66201, 1.71945, 1.71769, 1.77547, 1.79905, 1.82809, 1.84495, 1.86461, 1.85817, 1.81804, 1.70005, 1.62589, 1.60677, 1.58321, 1.61515, 1.61163, 1.61338, 1.61088, 1.61411, 1.602, 1.61396, 1.60341, 1.59968, 1.59537, 1.58477, 1.58923, 1.57922, 1.57851, 1.57693, 1.57643, 1.57438, 1.57364, 1.56941, 1.568, 1.56583, 1.56386, 1.57098, 1.56924, 1.56417, 1.57469, 1.56941, 1.55446, 1.56221, 1.56778, 1.57615, 1.55941, 1.55731, 1.54379, 1.54858, 1.53857, 1.53504, 1.54374, 1.53018, 1.53087, 1.54897, 1.52631, 1.52979, 1.53811, 1.54806, 1.51811, 1.53084, 1.52426, 1.51393, 1.51247, 1.5124, 1.51455, 1.51583, 1.52247, 1.50706, 1.51522, 1.51985, 1.512, 1.49639, 1.50204, 1.55195, 1.59704, 1.6258, 1.62788, 1.65082, 1.67367, 1.6709, 1.62388, 1.59041, 1.5894, 1.57663, 1.49236, 1.45317, 1.4536, 1.47582, 1.48556, 1.49585, 1.48817, 1.48883, 1.49039, 1.47117, 1.47902, 1.46198, 1.46842, 1.47322, 1.46083, 1.45272, 1.45142, 1.44856, 1.44538, 1.44267, 1.43983, 1.44036, 1.43753, 1.43519, 1.43711, 1.43645, 1.43793, 1.43516, 1.4357, 1.43411, 1.43265, 1.42966, 1.42699, 1.42371, 1.42342, 1.42385, 1.42326, 1.42006, 1.42589, 1.41769, 1.41668, 1.41429, 1.4161, 1.41644, 1.41014, 1.40978, 1.40932, 1.40682, 1.40352, 1.40215, 1.40075, 1.39944, 1.39832, 1.39929, 1.39634, 1.39946, 1.39361, 1.39133, 1.39813, 1.39257, 1.39215, 1.39426, 1.38977, 1.38704, 1.39231, 1.38548, 1.38514, 1.38467, 1.38167, 1.37855, 1.37961, 1.38475, 1.37855, 1.38426, 1.38177, 1.37427, 1.38641, 1.37558, 1.38255, 1.42807, 1.4646, 1.46502, 1.51172, 1.50683, 1.53072, 1.54296, 1.58659, 1.5107, 1.48452, 1.44621, 1.38147, 1.32485, 1.35414, 1.36162, 1.35971, 1.35989, 1.35857, 1.35027, 1.36871, 1.358, 1.35334, 1.35117, 1.33609, 1.33521, 1.3434, 1.33521, 1.3346, 1.33321, 1.35082, 1.33015, 1.33296
1.66579, 1.6639, 1.66119, 1.65882, 1.66076, 1.6594, 1.65754, 1.6562, 1.6552, 1.65195, 1.65193, 1.64351, 1.64455, 1.64458, 1.63632, 1.63601, 1.65585, 1.64179, 1.64431, 1.64113, 1.59991, 1.64139, 1.68464, 1.72933, 1.78176, 1.78697, 1.81085, 1.83424, 1.84935, 1.84402, 1.80946, 1.74749, 1.66798, 1.58256, 1.61032, 1.60228, 1.60306, 1.59924, 1.5957, 1.59829, 1.59464, 1.58897, 1.58092, 1.57638, 1.57884, 1.57023, 1.58945, 1.56496, 1.56335, 1.56188, 1.55667, 1.55778, 1.55922, 1.56057, 1.55911, 1.55797, 1.55443, 1.54885, 1.55395, 1.54744, 1.54869, 1.54879, 1.54773, 1.55152, 1.55445, 1.54054, 1.55796, 1.56052, 1.5344, 1.53105, 1.52723, 1.52832, 1.5203, 1.51954, 1.51971, 1.52446, 1.5175, 1.51511, 1.51445, 1.51311, 1.51381, 1.5202, 1.51124, 1.50989, 1.50635, 1.50712, 1.50598, 1.51529, 1.49681, 1.50296, 1.50684, 1.51444, 1.51249, 1.46906, 1.48583, 1.53972, 1.57784, 1.57797, 1.62093, 1.63047, 1.6322, 1.62786, 1.62153, 1.61992, 1.58255, 1.54533, 1.54038, 1.4493, 1.44402, 1.47528, 1.46994, 1.46106, 1.47595, 1.47864, 1.47893, 1.47891, 1.46235, 1.45059, 1.44636, 1.44201, 1.44033, 1.43987, 1.44373, 1.43056, 1.42808, 1.42871, 1.42781, 1.42772, 1.43064, 1.43044, 1.43117, 1.42985, 1.42961, 1.42626, 1.4255, 1.42303, 1.4216, 1.42316, 1.42378, 1.42067, 1.42279, 1.41311, 1.41246, 1.40956, 1.40929, 1.40911, 1.40813, 1.40563, 1.40349, 1.40092, 1.40002, 1.39968, 1.39819, 1.39301, 1.39136, 1.39098, 1.38964, 1.38885, 1.38647, 1.38255, 1.38232, 1.37844, 1.37957, 1.37943, 1.37887, 1.3793, 1.37576, 1.3776, 1.37745, 1.37556, 1.3753, 1.37541, 1.37381, 1.37224, 1.3721, 1.38005, 1.37007, 1.36798, 1.36971, 1.39164, 1.38241, 1.38632, 1.35778, 1.37228, 1.40567, 1.43298, 1.44335, 1.4796, 1.49963, 1.50595, 1.51063, 1.51454, 1.5208, 1.50302, 1.46813, 1.44884, 1.36119, 1.3235, 1.36222, 1.34721, 1.354, 1.35532, 1.33828, 1.33656, 1.33076, 1.33123, 1.32791, 1.32617, 1.32441, 1.3226, 1.35738, 1.32391, 1.32442, 1.32555, 1.32295, 1.3246, 1.32287
1.65972, 1.65882, 1.65532, 1.67781, 1.65165, 1.65236, 1.64968, 1.6469, 1.64515, 1.64809, 1.64016, 1.63823, 1.63556, 1.63275, 1.63631, 1.63714, 1.63536, 1.63569, 1.64093, 1.62409, 1.61011, 1.637, 1.63631, 1.71658, 1.75877, 1.78626, 1.80692, 1.8484, 1.83212, 1.86264, 1.8309, 1.7496, 1.70631, 1.56499, 1.57123, 1.61658, 1.5954, 1.59583, 1.59321, 1.58023, 1.57916, 1.57463, 1.57231, 1.57114, 1.58369, 1.58394, 1.56487, 1.56788, 1.55868, 1.55528, 1.5534, 1.55039, 1.54948, 1.54754, 1.5475, 1.54628, 1.54568, 1.54464, 1.54376, 1.54739, 1.54294, 1.54486, 1.54477, 1.53879, 1.53772, 1.53814, 1.54385, 1.53857, 1.53998, 1.53412, 1.52699, 1.52257, 1.51705, 1.51923, 1.51428, 1.51421, 1.5114, 1.51116, 1.50853, 1.50653, 1.50139, 1.49992, 1.49691, 1.49594, 1.49232, 1.49017, 1.48866, 1.48769, 1.50854, 1.49204, 1.48983, 1.50011, 1.49469, 1.46122, 1.49535, 1.5453, 1.57124, 1.57507, 1.582, 1.63351, 1.62725, 1.6229, 1.61746, 1.59063, 1.56164, 1.52892, 1.46148, 1.4439, 1.44519, 1.46105, 1.46864, 1.45706, 1.45409, 1.48214, 1.47497, 1.48959, 1.46167, 1.44104, 1.43928, 1.44671, 1.43945, 1.4363, 1.429, 1.42818, 1.42667, 1.42598, 1.42613, 1.42576, 1.42672, 1.42634, 1.42562, 1.42539, 1.42238, 1.42736, 1.41873, 1.41782, 1.41529, 1.41213, 1.41245, 1.40955, 1.4066, 1.40536, 1.40231, 1.40221, 1.40657, 1.40958, 1.40966, 1.40796, 1.40276, 1.39255, 1.38994, 1.38806, 1.3848, 1.38442, 1.38211, 1.38267, 1.38011, 1.37847, 1.37625, 1.38231, 1.37328, 1.3735, 1.37093, 1.37116, 1.37106, 1.37028, 1.36972, 1.36848, 1.36905, 1.37153, 1.36668, 1.3685, 1.3616, 1.36016, 1.3587, 1.35815, 1.35925, 1.35773, 1.36373, 1.37449, 1.37588, 1.35395, 1.33854, 1.37528, 1.40391, 1.42338, 1.39615, 1.46482, 1.47788, 1.5002, 1.51926, 1.56436, 1.54966, 1.5448, 1.50327, 1.43611, 1.37136, 1.31619, 1.347, 1.3494, 1.35217, 1.34635, 1.33066, 1.32601, 1.32656, 1.32352, 1.32196, 1.3255, 1.32012, 1.31982, 1.3265, 1.32154, 1.31904, 1.31957, 1.32566, 1.31684, 1.31478
1.66925, 1.6676, 1.66856, 1.6598, 1.72139, 1.6685, 1.65273, 1.66804, 1.64688, 1.65712, 1.65241, 1.64513, 1.63812, 1.63976, 1.63216, 1.64057, 1.63485, 1.63079, 1.63623, 1.61784, 1.60127, 1.64159, 1.66876, 1.69061, 1.73922, 1.78296, 1.82674, 1.83455, 1.86573, 1.88587, 1.8196, 1.68423, 1.68574, 1.58502, 1.57525, 1.60678, 1.59622, 1.606, 1.59598, 1.59531, 1.59839, 1.58064, 1.57984, 1.58617, 1.58155, 1.57632, 1.57221, 1.57021, 1.57663, 1.5656, 1.58459, 1.5582, 1.55619, 1.55438, 1.5609, 1.55066, 1.55042, 1.54861, 1.54438, 1.54321, 1.54013, 1.54379, 1.53748, 1.53954, 1.53371, 1.53118, 1.53139, 1.54404, 1.54474, 1.5474, 1.54063, 1.53332, 1.52335, 1.52354, 1.52031, 1.52944, 1.51704, 1.51261, 1.51022, 1.51682, 1.50668, 1.51306, 1.49949, 1.50023, 1.50304, 1.49598, 1.49618, 1.49233, 1.51958, 1.5055, 1.49987, 1.50254, 1.51373, 1.48036, 1.4743, 1.51009, 1.54058, 1.59089, 1.59825, 1.64117, 1.64146, 1.62871, 1.62697, 1.58575, 1.57528, 1.53785, 1.51276, 1.47496, 1.45071, 1.46515, 1.47312, 1.46728, 1.4643, 1.45809, 1.47485, 1.47636, 1.4685, 1.45124, 1.4451, 1.43968, 1.44508, 1.43473, 1.43796, 1.43454, 1.43714, 1.44392, 1.43291, 1.43416, 1.43054, 1.46777, 1.42629, 1.42423, 1.42601, 1.42125, 1.41959, 1.42077, 1.41958, 1.41793, 1.41631, 1.41304, 1.43661, 1.41231, 1.41087, 1.41054, 1.40847, 1.40793, 1.40752, 1.40495, 1.40477, 1.41254, 1.39918, 1.39571, 1.39472, 1.39014, 1.39563, 1.38801, 1.38548, 1.38562, 1.38466, 1.38265, 1.38393, 1.37911, 1.3789, 1.37819, 1.378, 1.37777, 1.37574, 1.37735, 1.38135, 1.38421, 1.37055, 1.36809, 1.38895, 1.36612, 1.3683, 1.36442, 1.36224, 1.36826, 1.37008, 1.37429, 1.37803, 1.35786, 1.32987, 1.34041, 1.39651, 1.41412, 1.43335, 1.45903, 1.48694, 1.50076, 1.51573, 1.54093, 1.5512, 1.52398, 1.49814, 1.46573, 1.38176, 1.34166, 1.34994, 1.36441, 1.34924, 1.35669, 1.34481, 1.35404, 1.33411, 1.34368, 1.33355, 1.32787, 1.32658, 1.32571, 1.32306, 1.3216, 1.33558, 1.3214, 1.32048, 1.3195, 1.31858
1.65546, 1.65673, 1.65415, 1.6476, 1.64628, 1.64561, 1.64357, 1.64707, 1.63951, 1.64315, 1.63359, 1.62811, 1.62541, 1.62302, 1.62132, 1.62889, 1.61724, 1.61302, 1.61351, 1.60403, 1.57673, 1.60989, 1.68563, 1.67476, 1.72152, 1.77974, 1.82019, 1.84715, 1.88201, 1.88568, 1.86179, 1.74905, 1.62416, 1.57109, 1.57578, 1.55894, 1.57987, 1.58203, 1.57811, 1.58602, 1.57144, 1.56986, 1.56881, 1.5665, 1.56424, 1.56254, 1.57892, 1.55807, 1.55687, 1.55553, 1.55584, 1.55409, 1.55094, 1.55093, 1.54821, 1.54653, 1.54358, 1.54085, 1.54869, 1.53652, 1.54032, 1.53192, 1.52692, 1.52471, 1.52171, 1.52915, 1.53805, 1.52026, 1.51264, 1.53258, 1.5335, 1.52964, 1.5114, 1.50735, 1.50584, 1.5066, 1.5006, 1.49905, 1.4979, 1.49562, 1.49327, 1.49177, 1.4908, 1.48935, 1.4849, 1.48936, 1.48314, 1.48124, 1.48372, 1.48878, 1.48515, 1.49564, 1.49624, 1.45491, 1.472, 1.51619, 1.54942, 1.61454, 1.6263, 1.62621, 1.62523, 1.62107, 1.61594, 1.63437, 1.57012, 1.55133, 1.48257, 1.46072, 1.42479, 1.45137, 1.45341, 1.45756, 1.45894, 1.44661, 1.45732, 1.45205, 1.45862, 1.46047, 1.45792, 1.43053, 1.44092, 1.44113, 1.42437, 1.42428, 1.42241, 1.42193, 1.41995, 1.41919, 1.42598, 1.41447, 1.41353, 1.41195, 1.40982, 1.40667, 1.40526, 1.40323, 1.40307, 1.39976, 1.39827, 1.39745, 1.39721, 1.39495, 1.39408, 1.39167, 1.38966, 1.38847, 1.38728, 1.38451, 1.38325, 1.38142, 1.38068, 1.37993, 1.3777, 1.37868, 1.3774, 1.37741, 1.37537, 1.37268, 1.37079, 1.37128, 1.36811, 1.36809, 1.36514, 1.36357, 1.36215, 1.36318, 1.36076, 1.35933, 1.35792, 1.35678, 1.35555, 1.35345, 1.35374, 1.35175, 1.34856, 1.34745, 1.34789, 1.34649, 1.34812, 1.35981, 1.36848, 1.34843, 1.32828, 1.31783, 1.35427, 1.38826, 1.41689, 1.41833, 1.47191, 1.49171, 1.50696, 1.53662, 1.53808, 1.51201, 1.51074, 1.44736, 1.38287, 1.3477, 1.30916, 1.34725, 1.32757, 1.3285, 1.32319, 1.33697, 1.31675, 1.31587, 1.31504, 1.31255, 1.31034, 1.32748, 1.30685, 1.30618, 1.30452, 1.30476, 1.30487, 1.30598, 1.30691
1.65318, 1.65055, 1.67542, 1.64689, 1.64776, 1.64152, 1.64065, 1.63734, 1.63556, 1.63956, 1.63147, 1.62631, 1.62526, 1.62184, 1.61735, 1.6282, 1.61309, 1.61411, 1.61443, 1.59923, 1.58148, 1.58899, 1.68338, 1.62065, 1.71051, 1.78895, 1.79729, 1.8377, 1.85487, 1.85229, 1.82357, 1.77172, 1.724, 1.55513, 1.55206, 1.58195, 1.58514, 1.58128, 1.59218, 1.5838, 1.5721, 1.57026, 1.56765, 1.56487, 1.5634, 1.56066, 1.55811, 1.55646, 1.55474, 1.55276, 1.55245, 1.55133, 1.55017, 1.54772, 1.54523, 1.54424, 1.54088, 1.53847, 1.53423, 1.53167, 1.53055, 1.52799, 1.52652, 1.52345, 1.51969, 1.51734, 1.51421, 1.51681, 1.53321, 1.52668, 1.5367, 1.53012, 1.5186, 1.51481, 1.50693, 1.51645, 1.50333, 1.50175, 1.50268, 1.51294, 1.5128, 1.49553, 1.49752, 1.49389, 1.48918, 1.48643, 1.49668, 1.48783, 1.48682, 1.48618, 1.48887, 1.4871, 1.47589, 1.47462, 1.45906, 1.48453, 1.53742, 1.57174, 1.58665, 1.61735, 1.6383, 1.61481, 1.59877, 1.60554, 1.60368, 1.54416, 1.53824, 1.45601, 1.43775, 1.45769, 1.45391, 1.45061, 1.45736, 1.44388, 1.44445, 1.46554, 1.46477, 1.46423, 1.45833, 1.4504, 1.42665, 1.43454, 1.43027, 1.42142, 1.43461, 1.41972, 1.41686, 1.41627, 1.41523, 1.41209, 1.40783, 1.40769, 1.4058, 1.40271, 1.40189, 1.40091, 1.40056, 1.39859, 1.39541, 1.39476, 1.39344, 1.39274, 1.38975, 1.38849, 1.38708, 1.38468, 1.38295, 1.38091, 1.38212, 1.38187, 1.3813, 1.38095, 1.38134, 1.38127, 1.37549, 1.37456, 1.37343, 1.37112, 1.36967, 1.36722, 1.36543, 1.37124, 1.36273, 1.36256, 1.36007, 1.35828, 1.3583, 1.3581, 1.35461, 1.35461, 1.35321, 1.35011, 1.3479, 1.34726, 1.34701, 1.34601, 1.34326, 1.34279, 1.34432, 1.36148, 1.34615, 1.35462, 1.34004, 1.3753, 1.39608, 1.4378, 1.47197, 1.52754, 1.52011, 1.53462, 1.53829, 1.5467, 1.53357, 1.51959, 1.49602, 1.44515, 1.3504, 1.29541, 1.29942, 1.32687, 1.32743, 1.32897, 1.31462, 1.3139, 1.31285, 1.31317, 1.30987, 1.30872, 1.3087, 1.3075, 1.30789, 1.30421, 1.30183, 1.30386, 1.30232, 1.30215, 1.30017
1.64615, 1.64636, 1.64292, 1.63903, 1.6357, 1.63497, 1.63121, 1.63057, 1.63022, 1.62932, 1.62539, 1.62425, 1.62279, 1.62226, 1.62144, 1.62101, 1.62805, 1.63314, 1.61969, 1.61457, 1.60594, 1.60326, 1.65113, 1.70206, 1.72879, 1.7887, 1.82753, 1.85635, 1.89278, 1.88792, 1.81157, 1.7338, 1.68666, 1.57436, 1.56814, 1.59891, 1.59797, 1.58995, 1.59051, 1.57688, 1.57478, 1.56931, 1.56651, 1.56414, 1.56751, 1.55904, 1.5569, 1.55368, 1.55071, 1.55103, 1.5472, 1.55226, 1.54187, 1.54396, 1.54649, 1.54409, 1.543, 1.54829, 1.53674, 1.53369, 1.53039, 1.53096, 1.52838, 1.54175, 1.53746, 1.52389, 1.52382, 1.5196, 1.52622, 1.52117, 1.53394, 1.54278, 1.53741, 1.52023, 1.50966, 1.5135, 1.50537, 1.50419, 1.50367, 1.50323, 1.50005, 1.51032, 1.49963, 1.49837, 1.49766, 1.49389, 1.49023, 1.48821, 1.48975, 1.4952, 1.49897, 1.49007, 1.49259, 1.45748, 1.45833, 1.50856, 1.53514, 1.54152, 1.60377, 1.59482, 1.60741, 1.61996, 1.61761, 1.6125, 1.56224, 1.5456, 1.52078, 1.44697, 1.45798, 1.45785, 1.45945, 1.45768, 1.45341, 1.4483, 1.45131, 1.45803, 1.45288, 1.44185, 1.46494, 1.4611, 1.43773, 1.43653, 1.42951, 1.4293, 1.42451, 1.42199, 1.42028, 1.42025, 1.4173, 1.42288, 1.41523, 1.41408, 1.40986, 1.40888, 1.40654, 1.40651, 1.40608, 1.40405, 1.40625, 1.40148, 1.39953, 1.3984, 1.39842, 1.39711, 1.39645, 1.39485, 1.39376, 1.3911, 1.39099, 1.39026, 1.38975, 1.38862, 1.38789, 1.38537, 1.38438, 1.38259, 1.38099, 1.3787, 1.37503, 1.37355, 1.36852, 1.36795, 1.3651, 1.36458, 1.36427, 1.3636, 1.3627, 1.36195, 1.3611, 1.35869, 1.35754, 1.35541, 1.35497, 1.35331, 1.35312, 1.35049, 1.35079, 1.3499, 1.35015, 1.3637, 1.35728, 1.35139, 1.35017, 1.3364, 1.37137, 1.41422, 1.44843, 1.45458, 1.48637, 1.49778, 1.51642, 1.51821, 1.52265, 1.5025, 1.47224, 1.42637, 1.44672, 1.32548, 1.30819, 1.33713, 1.32417, 1.32129, 1.33208, 1.33241, 1.31455, 1.32395, 1.31421, 1.31385, 1.31293, 1.311, 1.30913, 1.30531, 1.30819, 1.30667, 1.30888, 1.30555, 1.30319
1.6467, 1.64482, 1.6403, 1.64086, 1.65471, 1.64189, 1.64118, 1.62838, 1.63367, 1.62573, 1.62751, 1.63578, 1.62022, 1.62074, 1.62169, 1.62245, 1.62244, 1.62639, 1.61831, 1.6268, 1.60469, 1.60021, 1.6378, 1.67337, 1.73175, 1.75533, 1.84034, 1.87622, 1.8725, 1.87041, 1.7973, 1.79963, 1.70607, 1.57951, 1.57093, 1.58529, 1.58536, 1.59531, 1.57935, 1.58305, 1.57021, 1.56744, 1.56319, 1.56293, 1.55898, 1.55539, 1.55712, 1.55548, 1.55044, 1.5485, 1.54597, 1.5422, 1.54027, 1.5429, 1.54543, 1.54506, 1.5435, 1.54256, 1.54213, 1.53227, 1.53003, 1.52815, 1.52629, 1.52512, 1.52043, 1.51939, 1.5183, 1.5195, 1.51808, 1.51091, 1.51607, 1.52362, 1.53668, 1.5374, 1.52315, 1.50491, 1.50047, 1.49904, 1.49952, 1.49839, 1.51647, 1.49185, 1.49094, 1.48977, 1.48774, 1.48709, 1.48595, 1.48314, 1.48205, 1.48437, 1.49555, 1.49242, 1.47977, 1.47097, 1.46523, 1.49794, 1.54411, 1.52776, 1.56889, 1.58497, 1.59035, 1.59901, 1.6002, 1.58287, 1.55614, 1.53735, 1.54492, 1.50918, 1.41506, 1.43415, 1.45802, 1.4582, 1.45288, 1.4366, 1.43529, 1.43372, 1.44076, 1.44452, 1.45786, 1.44627, 1.43581, 1.4336, 1.43428, 1.4224, 1.42261, 1.42986, 1.41967, 1.41435, 1.4128, 1.41317, 1.41995, 1.41455, 1.41411, 1.4122, 1.4106, 1.40841, 1.40658, 1.40008, 1.40044, 1.40028, 1.39999, 1.39567, 1.39646, 1.39569, 1.396, 1.39554, 1.3954, 1.39461, 1.39384, 1.3924, 1.39115, 1.38905, 1.38737, 1.38658, 1.3815, 1.38096, 1.37974, 1.37654, 1.37508, 1.37252, 1.37065, 1.36745, 1.36629, 1.36638, 1.36425, 1.36262, 1.36096, 1.36012, 1.35881, 1.35849, 1.35622, 1.35396, 1.35493, 1.36057, 1.37156, 1.36164, 1.35066, 1.36497, 1.35356, 1.36158, 1.35419, 1.36693, 1.3276, 1.33081, 1.40902, 1.44011, 1.44632, 1.45904, 1.46609, 1.52754, 1.53564, 1.55066, 1.53257, 1.53167, 1.47063, 1.44117, 1.39962, 1.31218, 1.29852, 1.34041, 1.32343, 1.31982, 1.31636, 1.31584, 1.31187, 1.31241, 1.31253, 1.31134, 1.30985, 1.30859, 1.31155, 1.31684, 1.31002, 1.30744, 1.30483, 1.30377, 1.3026
1.66874, 1.65405, 1.65268, 1.65899, 1.65803, 1.64758, 1.64542, 1.64072, 1.6378, 1.63478, 1.63586, 1.63202, 1.64406, 1.62643, 1.6248, 1.62285, 1.62003, 1.62746, 1.62076, 1.62424, 1.59928, 1.58749, 1.63671, 1.68402, 1.7488, 1.77125, 1.8219, 1.85239, 1.88243, 1.89717, 1.89568, 1.75846, 1.70385, 1.62796, 1.56365, 1.58528, 1.59674, 1.58832, 1.5926, 1.57817, 1.57591, 1.57033, 1.57541, 1.56436, 1.56387, 1.56141, 1.55775, 1.55527, 1.55457, 1.55169, 1.54854, 1.54786, 1.54755, 1.54756, 1.546, 1.55046, 1.54229, 1.53916, 1.53743, 1.53426, 1.53315, 1.52967, 1.52862, 1.5262, 1.52409, 1.52316, 1.52115, 1.51934, 1.51692, 1.51758, 1.52355, 1.51507, 1.53058, 1.53465, 1.51578, 1.51315, 1.51024, 1.5024, 1.49765, 1.49601, 1.49438, 1.49313, 1.49277, 1.49001, 1.49541, 1.48571, 1.48328, 1.48234, 1.4815, 1.48343, 1.48739, 1.48555, 1.4791, 1.48815, 1.45016, 1.49561, 1.57137, 1.53698, 1.52677, 1.57259, 1.59308, 1.59644, 1.59044, 1.58545, 1.57882, 1.54717, 1.50025, 1.47954, 1.44786, 1.42757, 1.44582, 1.45357, 1.44405, 1.4463, 1.44979, 1.44179, 1.43534, 1.43353, 1.44886, 1.45437, 1.45021, 1.45881, 1.41799, 1.424, 1.42015, 1.41859, 1.43832, 1.41397, 1.41432, 1.41331, 1.41399, 1.41256, 1.4114, 1.40847, 1.40748, 1.40598, 1.40388, 1.40162, 1.40076, 1.40026, 1.3987, 1.39611, 1.39486, 1.39447, 1.3949, 1.39182, 1.39309, 1.39035, 1.3886, 1.38775, 1.38454, 1.3842, 1.38191, 1.3808, 1.37923, 1.37736, 1.3741, 1.373, 1.37124, 1.37004, 1.36859, 1.36514, 1.36408, 1.36334, 1.36332, 1.36101, 1.35932, 1.35863, 1.35754, 1.35797, 1.35617, 1.35634, 1.35582, 1.36754, 1.37136, 1.35285, 1.35383, 1.35236, 1.35119, 1.37409, 1.35581, 1.36195, 1.34292, 1.33646, 1.35622, 1.4095, 1.42785, 1.44752, 1.50635, 1.50245, 1.54946, 1.53956, 1.52684, 1.51745, 1.45425, 1.42803, 1.40997, 1.3577, 1.31509, 1.32829, 1.3298, 1.32765, 1.33706, 1.31883, 1.31388, 1.31397, 1.31349, 1.31284, 1.31265, 1.31229, 1.31284, 1.30965, 1.3078, 1.30818, 1.30783, 1.30445, 1.30586
1.65724, 1.65459, 1.65177, 1.65141, 1.64824, 1.64504, 1.64776, 1.64374, 1.64052, 1.63869, 1.63658, 1.65142, 1.62768, 1.62514, 1.62283, 1.62284, 1.61935, 1.6268, 1.62741, 1.63538, 1.6024, 1.59052, 1.63515, 1.64403, 1.71479, 1.71949, 1.80334, 1.8224, 1.8619, 1.87379, 1.8801, 1.73878, 1.73891, 1.58778, 1.55549, 1.58171, 1.60114, 1.59009, 1.59291, 1.57786, 1.57251, 1.57086, 1.56725, 1.58491, 1.57311, 1.55742, 1.56045, 1.55369, 1.55149, 1.55048, 1.54949, 1.54781, 1.54619, 1.5447, 1.54379, 1.54127, 1.54074, 1.53983, 1.53853, 1.53646, 1.53398, 1.53183, 1.56199, 1.52641, 1.52497, 1.523, 1.5223, 1.52073, 1.52859, 1.51372, 1.51404, 1.51465, 1.51819, 1.51249, 1.53133, 1.52205, 1.50329, 1.5168, 1.49803, 1.49618, 1.49778, 1.50369, 1.50071, 1.49703, 1.48871, 1.48513, 1.48384, 1.48819, 1.48766, 1.48571, 1.49077, 1.48364, 1.48356, 1.47667, 1.45326, 1.46199, 1.5138, 1.53169, 1.56133, 1.58053, 1.58635, 1.59076, 1.62944, 1.59415, 1.57229, 1.54792, 1.48934, 1.48996, 1.4341, 1.45752, 1.45731, 1.4517, 1.46536, 1.45417, 1.44007, 1.43533, 1.43377, 1.44655, 1.44269, 1.45432, 1.4367, 1.44357, 1.44738, 1.42632, 1.43034, 1.43095, 1.42067, 1.41777, 1.41663, 1.41324, 1.41285, 1.41332, 1.41154, 1.41, 1.40966, 1.40298, 1.40188, 1.40287, 1.40271, 1.40105, 1.39902, 1.39681, 1.39574, 1.39574, 1.39251, 1.39197, 1.39088, 1.39753, 1.38647, 1.38592, 1.38589, 1.38282, 1.38077, 1.3802, 1.37749, 1.37697, 1.37603, 1.37584, 1.37518, 1.37109, 1.3689, 1.3677, 1.36635, 1.36535, 1.36473, 1.36336, 1.36206, 1.36199, 1.36302, 1.36045, 1.35971, 1.35742, 1.35959, 1.35722, 1.35627, 1.36208, 1.35724, 1.35159, 1.34847, 1.34729, 1.35957, 1.36767, 1.34773, 1.34729, 1.3684, 1.39961, 1.43087, 1.46046, 1.4812, 1.51953, 1.56129, 1.56091, 1.57488, 1.54784, 1.51822, 1.47145, 1.44281, 1.32917, 1.33648, 1.33695, 1.33486, 1.33811, 1.32735, 1.33405, 1.34332, 1.32091, 1.32034, 1.31703, 1.31801, 1.31509, 1.31423, 1.32937, 1.35724, 1.31175, 1.30785, 1.30849, 1.30725
1.65301, 1.6518, 1.65027, 1.64868, 1.64595, 1.64151, 1.64061, 1.63745, 1.63799, 1.63562, 1.63167, 1.62855, 1.64487, 1.62643, 1.62471, 1.62286, 1.61975, 1.61979, 1.62394, 1.63077, 1.60194, 1.58907, 1.61383, 1.65393, 1.68357, 1.70526, 1.77033, 1.82435, 1.83876, 1.93054, 1.93428, 1.7573, 1.66139, 1.5694, 1.55521, 1.57841, 1.58352, 1.57953, 1.58104, 1.57202, 1.56777, 1.56482, 1.56813, 1.56102, 1.55876, 1.56154, 1.55374, 1.55197, 1.55161, 1.55489, 1.55126, 1.54716, 1.54643, 1.54466, 1.54284, 1.54372, 1.54061, 1.53677, 1.53734, 1.5362, 1.53431, 1.53104, 1.5282, 1.52704, 1.52573, 1.52384, 1.52173, 1.51956, 1.51752, 1.51948, 1.51357, 1.51101, 1.508, 1.50699, 1.52228, 1.51768, 1.51971, 1.5089, 1.49378, 1.50167, 1.494, 1.49231, 1.49621, 1.49642, 1.4882, 1.48578, 1.48548, 1.48381, 1.48251, 1.48014, 1.49277, 1.49824, 1.48885, 1.48355, 1.44695, 1.50315, 1.54008, 1.569, 1.55809, 1.57907, 1.56439, 1.56939, 1.57648, 1.5717, 1.56379, 1.56356, 1.54381, 1.49335, 1.46754, 1.43472, 1.45519, 1.45077, 1.45436, 1.44098, 1.43671, 1.43554, 1.43424, 1.44153, 1.43302, 1.43009, 1.43642, 1.43632, 1.44356, 1.43287, 1.43249, 1.42352, 1.43087, 1.41455, 1.41309, 1.41271, 1.41216, 1.41078, 1.40876, 1.40751, 1.40624, 1.4063, 1.40601, 1.40485, 1.40425, 1.40109, 1.39975, 1.39834, 1.39774, 1.39647, 1.39766, 1.39292, 1.39137, 1.39003, 1.38736, 1.38592, 1.38518, 1.38257, 1.38952, 1.37924, 1.37774, 1.37718, 1.37113, 1.37101, 1.37241, 1.36821, 1.36708, 1.36737, 1.36729, 1.3665, 1.36296, 1.36298, 1.36134, 1.36417, 1.36226, 1.3623, 1.35835, 1.35763, 1.35661, 1.35747, 1.35469, 1.36118, 1.3476, 1.34693, 1.34662, 1.35428, 1.34709, 1.35513, 1.35671, 1.32328, 1.34819, 1.36402, 1.41274, 1.45244, 1.48097, 1.51028, 1.55323, 1.55482, 1.54759, 1.53283, 1.48269, 1.46858, 1.39961, 1.32276, 1.33306, 1.34477, 1.33724, 1.33053, 1.3528, 1.32992, 1.33656, 1.32267, 1.33325, 1.32099, 1.31687, 1.31574, 1.31597, 1.31534, 1.31407, 1.3119, 1.30876, 1.30692, 1.30625
1.65477, 1.65139, 1.64939, 1.64721, 1.64438, 1.64176, 1.64195, 1.63953, 1.63343, 1.63188, 1.63678, 1.62783, 1.62806, 1.63558, 1.6242, 1.62251, 1.62963, 1.62766, 1.62689, 1.62736, 1.62007, 1.59971, 1.61921, 1.66572, 1.70587, 1.7269, 1.77657, 1.83059, 1.84439, 1.89421, 1.90309, 1.82503, 1.68097, 1.63488, 1.56796, 1.58474, 1.59693, 1.59574, 1.5806, 1.58242, 1.57745, 1.57838, 1.5761, 1.57814, 1.56453, 1.57806, 1.56047, 1.56506, 1.55842, 1.55532, 1.55619, 1.55248, 1.55208, 1.55041, 1.54745, 1.54767, 1.54347, 1.54208, 1.53969, 1.53778, 1.53654, 1.54467, 1.53414, 1.53212, 1.52892, 1.52642, 1.5241, 1.52121, 1.51926, 1.5241, 1.51449, 1.51377, 1.51282, 1.51736, 1.51403, 1.53045, 1.52262, 1.5213, 1.51677, 1.51052, 1.49982, 1.50906, 1.50664, 1.5064, 1.51008, 1.49178, 1.51002, 1.48888, 1.48909, 1.50333, 1.50608, 1.49694, 1.4922, 1.46902, 1.47836, 1.47237, 1.4838, 1.53297, 1.55939, 1.56643, 1.59055, 1.59175, 1.62526, 1.57088, 1.54765, 1.54659, 1.51466, 1.50577, 1.45711, 1.44745, 1.4584, 1.46231, 1.45124, 1.44728, 1.44077, 1.43949, 1.44404, 1.44067, 1.43967, 1.43318, 1.44002, 1.44053, 1.46401, 1.44802, 1.43935, 1.43015, 1.42034, 1.41936, 1.41667, 1.4146, 1.41248, 1.41276, 1.40955, 1.4078, 1.4062, 1.40746, 1.40688, 1.41634, 1.40507, 1.40215, 1.40203, 1.40204, 1.4014, 1.39681, 1.39498, 1.3933, 1.39148, 1.38884, 1.3878, 1.3855, 1.38377, 1.38238, 1.38097, 1.38062, 1.3784, 1.37848, 1.37442, 1.37158, 1.37043, 1.36944, 1.36797, 1.36733, 1.36679, 1.36567, 1.3629, 1.36234, 1.36078, 1.36093, 1.3612, 1.35895, 1.35789, 1.35916, 1.35614, 1.35554, 1.3548, 1.35384, 1.35798, 1.35028, 1.34763, 1.34721, 1.34712, 1.35142, 1.35097, 1.31901, 1.36351, 1.40325, 1.44543, 1.44169, 1.4744, 1.50684, 1.57645, 1.54718, 1.5745, 1.55216, 1.50876, 1.42159, 1.39598, 1.33598, 1.32001, 1.34564, 1.34456, 1.34408, 1.33136, 1.32888, 1.32757, 1.32608, 1.32637, 1.32209, 1.33662, 1.32936, 1.31949, 1.33968, 1.31557, 1.31366, 1.31209, 1.31053, 1.31243
1.65346, 1.65053, 1.64876, 1.64408, 1.64429, 1.64178, 1.63983, 1.63791, 1.63234, 1.6317, 1.62955, 1.63582, 1.6261, 1.62293, 1.62066, 1.6209, 1.62025, 1.62059, 1.62156, 1.62639, 1.6151, 1.58581, 1.59299, 1.6589, 1.69242, 1.75309, 1.80069, 1.83906, 1.88262, 1.91118, 1.90513, 1.7892, 1.75152, 1.5875, 1.5621, 1.59407, 1.60394, 1.58133, 1.586, 1.57664, 1.58966, 1.56935, 1.56768, 1.56596, 1.56275, 1.56104, 1.55749, 1.55529, 1.55474, 1.55296, 1.54798, 1.54526, 1.54355, 1.54265, 1.54114, 1.54092, 1.53987, 1.54116, 1.53593, 1.53617, 1.53689, 1.53708, 1.53363, 1.52699, 1.52531, 1.52509, 1.52338, 1.5213, 1.51804, 1.51636, 1.51544, 1.51325, 1.51558, 1.51031, 1.50627, 1.52471, 1.52441, 1.51616, 1.51798, 1.50212, 1.49919, 1.49738, 1.49648, 1.51249, 1.49742, 1.49483, 1.50273, 1.50721, 1.48477, 1.48419, 1.48592, 1.48986, 1.476, 1.47494, 1.46807, 1.47141, 1.51734, 1.54134, 1.56812, 1.57902, 1.59002, 1.59886, 1.56445, 1.56807, 1.5437, 1.54043, 1.50985, 1.47799, 1.42643, 1.44442, 1.46228, 1.4571, 1.45603, 1.44893, 1.44727, 1.43959, 1.43695, 1.43604, 1.43344, 1.43357, 1.43694, 1.43057, 1.43778, 1.44712, 1.42593, 1.42694, 1.41932, 1.41754, 1.41517, 1.4121, 1.4111, 1.40972, 1.41038, 1.40878, 1.40637, 1.40663, 1.40558, 1.40604, 1.40523, 1.40938, 1.40221, 1.39964, 1.39796, 1.39654, 1.39577, 1.39489, 1.39163, 1.38993, 1.39062, 1.38786, 1.38666, 1.38674, 1.38567, 1.38206, 1.38112, 1.38087, 1.37694, 1.37553, 1.37391, 1.37162, 1.3706, 1.37727, 1.36738, 1.36302, 1.36137, 1.36207, 1.3599, 1.35744, 1.35664, 1.35666, 1.3572, 1.3549, 1.3545, 1.35748, 1.35241, 1.35134, 1.3496, 1.34911, 1.34898, 1.35046, 1.3502, 1.35828, 1.36212, 1.32643, 1.35058, 1.37911, 1.41492, 1.41289, 1.46505, 1.49843, 1.52078, 1.56419, 1.56359, 1.55012, 1.51102, 1.4575, 1.40295, 1.31572, 1.3066, 1.33904, 1.33067, 1.32835, 1.34559, 1.31977, 1.31919, 1.31658, 1.31448, 1.31596, 1.31331, 1.31167, 1.31222, 1.31542, 1.31398, 1.31326, 1.30791, 1.30799, 1.30731
1.65219, 1.65072, 1.64777, 1.64515, 1.64185, 1.64086, 1.63686, 1.63598, 1.63528, 1.62992, 1.62884, 1.6277, 1.62723, 1.65072, 1.62433, 1.62421, 1.63453, 1.63381, 1.62021, 1.62774, 1.61657, 1.60248, 1.63115, 1.67954, 1.69988, 1.77126, 1.8067, 1.89071, 1.96917, 1.96594, 2.00167, 1.92448, 1.73466, 1.56859, 1.56517, 1.5655, 1.58285, 1.58139, 1.57621, 1.57585, 1.57184, 1.56931, 1.56774, 1.56497, 1.56229, 1.56102, 1.5581, 1.55683, 1.55399, 1.55175, 1.5497, 1.54765, 1.54585, 1.54492, 1.54366, 1.54169, 1.54125, 1.53947, 1.53671, 1.53503, 1.53299, 1.53104, 1.52895, 1.52813, 1.52413, 1.52321, 1.51931, 1.51703, 1.51439, 1.51594, 1.51713, 1.51139, 1.51689, 1.51606, 1.50568, 1.5056, 1.52239, 1.5298, 1.5369, 1.51913, 1.51319, 1.49881, 1.49805, 1.49623, 1.49335, 1.4916, 1.48858, 1.48495, 1.48435, 1.483, 1.48333, 1.48319, 1.48012, 1.47781, 1.45586, 1.47668, 1.52344, 1.52299, 1.53412, 1.57257, 1.56134, 1.5571, 1.59425, 1.55948, 1.55637, 1.50636, 1.5161, 1.49213, 1.49144, 1.44027, 1.45472, 1.46161, 1.44975, 1.45521, 1.44101, 1.44063, 1.43656, 1.4349, 1.43481, 1.44093, 1.43012, 1.42719, 1.4262, 1.43964, 1.44945, 1.43765, 1.42497, 1.41622, 1.42397, 1.41199, 1.41655, 1.40962, 1.40887, 1.40847, 1.40842, 1.40848, 1.40726, 1.40563, 1.40446, 1.40365, 1.40313, 1.40026, 1.39866, 1.39781, 1.39588, 1.39484, 1.39238, 1.39115, 1.39077, 1.38962, 1.38907, 1.38646, 1.38463, 1.38187, 1.38111, 1.37916, 1.3785, 1.37542, 1.37434, 1.37187, 1.36728, 1.36382, 1.3617, 1.35897, 1.35836, 1.35797, 1.3546, 1.3536, 1.35379, 1.36098, 1.35402, 1.35385, 1.35408, 1.35452, 1.35379, 1.35317, 1.3529, 1.35044, 1.35178, 1.35202, 1.35872, 1.35479, 1.35154, 1.33707, 1.33135, 1.38419, 1.40636, 1.42673, 1.47975, 1.5284, 1.55569, 1.57338, 1.60289, 1.5859, 1.48851, 1.4208, 1.39414, 1.31768, 1.33476, 1.33605, 1.33059, 1.33205, 1.31896, 1.31758, 1.32005, 1.32459, 1.31822, 1.3143, 1.31581, 1.31604, 1.31461, 1.31614, 1.31326, 1.31207, 1.31166, 1.30976, 1.30808
1.64822, 1.64679, 1.64422, 1.6452, 1.64255, 1.65486, 1.63661, 1.63346, 1.63094, 1.62846, 1.62789, 1.62498, 1.62485, 1.62212, 1.62983, 1.62026, 1.61946, 1.61649, 1.62872, 1.63055, 1.61583, 1.59805, 1.61663, 1.65998, 1.7053, 1.76274, 1.75449, 1.80471, 1.89694, 1.94446, 1.97279, 1.93742, 1.68607, 1.56643, 1.56251, 1.56524, 1.58364, 1.58923, 1.58143, 1.57366, 1.57083, 1.58469, 1.57527, 1.56225, 1.56114, 1.55892, 1.55865, 1.55781, 1.57479, 1.57902, 1.55093, 1.54908, 1.54693, 1.54257, 1.54046, 1.53847, 1.53778, 1.53927, 1.53255, 1.53043, 1.52872, 1.52926, 1.52735, 1.5239, 1.52079, 1.51914, 1.51706, 1.51595, 1.51444, 1.51227, 1.51074, 1.50575, 1.5049, 1.504, 1.50327, 1.50442, 1.50311, 1.51504, 1.52405, 1.51543, 1.51632, 1.4965, 1.49786, 1.49297, 1.50144, 1.48882, 1.48635, 1.48526, 1.48951, 1.48227, 1.48382, 1.48552, 1.4829, 1.47283, 1.48219, 1.47399, 1.51256, 1.60449, 1.57432, 1.5773, 1.5598, 1.58242, 1.57882, 1.54934, 1.54684, 1.53629, 1.52255, 1.50218, 1.45791, 1.42633, 1.44341, 1.46433, 1.47438, 1.45224, 1.44304, 1.44848, 1.43358, 1.43244, 1.4298, 1.42741, 1.42579, 1.42483, 1.44752, 1.4507, 1.45796, 1.44796, 1.43854, 1.45745, 1.43412, 1.41062, 1.40891, 1.41929, 1.40804, 1.40641, 1.40548, 1.40533, 1.40496, 1.40546, 1.40218, 1.40108, 1.40146, 1.39858, 1.39742, 1.39713, 1.39782, 1.39608, 1.39471, 1.39163, 1.41605, 1.39028, 1.3889, 1.38688, 1.38536, 1.38527, 1.38265, 1.38117, 1.38098, 1.37683, 1.37532, 1.37158, 1.36894, 1.36503, 1.36476, 1.36437, 1.36231, 1.36196, 1.35679, 1.35488, 1.35412, 1.35438, 1.3647, 1.36833, 1.35523, 1.35534, 1.35373, 1.35397, 1.35423, 1.35223, 1.35275, 1.35441, 1.36206, 1.36062, 1.35295, 1.35066, 1.33306, 1.3893, 1.42503, 1.45962, 1.50436, 1.51503, 1.56258, 1.60191, 1.61247, 1.60743, 1.58483, 1.48004, 1.37465, 1.32295, 1.32602, 1.33035, 1.33752, 1.32792, 1.33686, 1.32412, 1.32204, 1.323, 1.33082, 1.32285, 1.31943, 1.31713, 1.31641, 1.31578, 1.31396, 1.31369, 1.30947, 1.30614, 1.3072
1.65001, 1.65143, 1.64692, 1.64428, 1.64195, 1.63837, 1.63512, 1.63288, 1.63004, 1.62806, 1.6256, 1.62039, 1.62031, 1.62048, 1.61969, 1.61939, 1.61763, 1.61797, 1.61675, 1.61662, 1.6224, 1.59353, 1.59312, 1.63231, 1.67231, 1.69391, 1.72602, 1.78253, 1.83822, 1.99498, 2.0238, 1.87742, 1.75443, 1.59889, 1.56941, 1.584, 1.59389, 1.5889, 1.58688, 1.5729, 1.57011, 1.56791, 1.57284, 1.56383, 1.56387, 1.55991, 1.57571, 1.55499, 1.55367, 1.55052, 1.54858, 1.54649, 1.5441, 1.54255, 1.54019, 1.53854, 1.53759, 1.53672, 1.53564, 1.53345, 1.52999, 1.52796, 1.52605, 1.52382, 1.5206, 1.52085, 1.51724, 1.51899, 1.51245, 1.51127, 1.50903, 1.50602, 1.5027, 1.49838, 1.49834, 1.50321, 1.50348, 1.50994, 1.52039, 1.51752, 1.52901, 1.52127, 1.49441, 1.49343, 1.49374, 1.49975, 1.48951, 1.48376, 1.4965, 1.49295, 1.48976, 1.48726, 1.48194, 1.45956, 1.45759, 1.50136, 1.50887, 1.56052, 1.62257, 1.5861, 1.57995, 1.56201, 1.54788, 1.54534, 1.54495, 1.53902, 1.53072, 1.49756, 1.4516, 1.4243, 1.45229, 1.45846, 1.44726, 1.44972, 1.43834, 1.43764, 1.43291, 1.4313, 1.42967, 1.42668, 1.42669, 1.42549, 1.42439, 1.42293, 1.42315, 1.42304, 1.42698, 1.41329, 1.42636, 1.42037, 1.41288, 1.40838, 1.40622, 1.4103, 1.4058, 1.40444, 1.40412, 1.40178, 1.39995, 1.39695, 1.39662, 1.39535, 1.40021, 1.39187, 1.39179, 1.39153, 1.38909, 1.38896, 1.38874, 1.38693, 1.38535, 1.38476, 1.3843, 1.38343, 1.38154, 1.3812, 1.38003, 1.37824, 1.37757, 1.37429, 1.374, 1.37238, 1.37058, 1.36817, 1.36734, 1.36428, 1.36311, 1.36091, 1.36016, 1.35838, 1.35548, 1.35427, 1.35339, 1.35358, 1.35454, 1.35261, 1.35092, 1.34992, 1.34765, 1.35027, 1.35023, 1.36493, 1.35718, 1.32995, 1.32296, 1.37534, 1.39829, 1.45049, 1.50072, 1.52056, 1.56063, 1.58584, 1.58646, 1.58552, 1.57188, 1.45413, 1.38179, 1.30377, 1.28509, 1.32861, 1.33776, 1.32692, 1.32729, 1.31992, 1.31869, 1.31843, 1.31996, 1.31706, 1.31568, 1.31334, 1.313, 1.30874, 1.30864, 1.33601, 1.30509, 1.30473, 1.35414
1.64924, 1.64735, 1.64425, 1.64182, 1.64066, 1.63775, 1.64395, 1.63313, 1.63152, 1.62901, 1.63817, 1.62497, 1.62307, 1.62226, 1.62268, 1.6209, 1.62108, 1.61927, 1.61683, 1.61769, 1.63373, 1.61991, 1.58481, 1.6376, 1.66135, 1.7191, 1.76172, 1.81706, 1.91908, 1.96592, 1.95156, 1.91236, 1.76959, 1.63556, 1.53705, 1.57315, 1.60071, 1.5854, 1.58581, 1.58244, 1.58743, 1.59047, 1.56517, 1.5629, 1.56297, 1.55882, 1.55747, 1.55587, 1.55309, 1.55104, 1.55012, 1.54878, 1.54553, 1.54434, 1.54363, 1.54136, 1.54013, 1.53781, 1.5363, 1.53491, 1.53339, 1.53089, 1.52871, 1.52639, 1.52466, 1.52192, 1.51981, 1.51737, 1.51587, 1.5125, 1.50974, 1.50778, 1.50497, 1.50329, 1.50088, 1.49998, 1.50316, 1.49876, 1.50982, 1.51659, 1.52608, 1.51228, 1.51226, 1.4925, 1.49053, 1.49175, 1.49221, 1.49298, 1.48311, 1.48192, 1.48131, 1.4828, 1.49539, 1.4683, 1.47441, 1.49015, 1.49603, 1.52977, 1.52493, 1.57137, 1.63439, 1.55701, 1.54033, 1.53965, 1.52433, 1.51344, 1.50103, 1.47896, 1.48182, 1.43305, 1.4681, 1.45754, 1.45312, 1.45851, 1.4487, 1.44741, 1.44673, 1.4348, 1.43308, 1.43974, 1.44626, 1.44407, 1.43853, 1.42291, 1.43356, 1.423, 1.4404, 1.43159, 1.41487, 1.42554, 1.40947, 1.40528, 1.40397, 1.40262, 1.40297, 1.40206, 1.40167, 1.40019, 1.39799, 1.39647, 1.39557, 1.39151, 1.39144, 1.38964, 1.38783, 1.38786, 1.38591, 1.3867, 1.38505, 1.38723, 1.38352, 1.38197, 1.3819, 1.38052, 1.37812, 1.37642, 1.37496, 1.3744, 1.37382, 1.37199, 1.37005, 1.36894, 1.36826, 1.36727, 1.3669, 1.36494, 1.3636, 1.36441, 1.3645, 1.36429, 1.36408, 1.36191, 1.35883, 1.3547, 1.35414, 1.353, 1.35259, 1.35313, 1.35142, 1.34788, 1.34907, 1.36017, 1.35126, 1.33746, 1.36003, 1.38255, 1.35826, 1.41359, 1.46934, 1.48274, 1.54066, 1.55494, 1.55688, 1.58821, 1.54093, 1.42082, 1.34942, 1.33648, 1.31629, 1.34751, 1.33023, 1.32736, 1.33976, 1.32062, 1.31977, 1.31898, 1.31639, 1.31287, 1.31577, 1.31305, 1.31275, 1.30945, 1.30943, 1.30613, 1.30647, 1.30784, 1.30475
1.64995, 1.6474, 1.6398, 1.63847, 1.63437, 1.63231, 1.62949, 1.6283, 1.63094, 1.62899, 1.62748, 1.62672, 1.62502, 1.62432, 1.62286, 1.61846, 1.62468, 1.61688, 1.61577, 1.61635, 1.61694, 1.61459, 1.57201, 1.60922, 1.66836, 1.71242, 1.76893, 1.79284, 1.84221, 1.91316, 1.91156, 1.79012, 1.75431, 1.65699, 1.55118, 1.56493, 1.5807, 1.58632, 1.57801, 1.58301, 1.58879, 1.56452, 1.562, 1.57948, 1.55635, 1.55461, 1.55389, 1.55209, 1.55072, 1.54921, 1.54976, 1.54557, 1.54379, 1.54018, 1.53826, 1.53802, 1.5364, 1.53337, 1.53244, 1.53126, 1.5316, 1.53064, 1.52563, 1.52463, 1.53068, 1.52013, 1.51854, 1.51567, 1.51391, 1.51132, 1.50907, 1.50775, 1.50672, 1.50222, 1.50153, 1.5014, 1.49913, 1.49808, 1.49676, 1.49043, 1.51685, 1.53462, 1.52323, 1.52035, 1.49039, 1.48918, 1.496, 1.48356, 1.47967, 1.48997, 1.48219, 1.47986, 1.47818, 1.47146, 1.46828, 1.48596, 1.51183, 1.53117, 1.57585, 1.5726, 1.57151, 1.56169, 1.5281, 1.52952, 1.53078, 1.52035, 1.49939, 1.46467, 1.44815, 1.43803, 1.43665, 1.44764, 1.44921, 1.44745, 1.45036, 1.43872, 1.44006, 1.43793, 1.4372, 1.43758, 1.44067, 1.44087, 1.45016, 1.44998, 1.45328, 1.45061, 1.434, 1.42153, 1.41526, 1.41368, 1.41913, 1.41294, 1.41793, 1.40608, 1.40532, 1.40398, 1.40318, 1.40116, 1.39846, 1.39766, 1.39752, 1.39434, 1.39231, 1.39097, 1.38901, 1.38762, 1.38783, 1.3863, 1.3862, 1.38542, 1.38812, 1.382, 1.38072, 1.37785, 1.37781, 1.37687, 1.37487, 1.37398, 1.37379, 1.37057, 1.3686, 1.36757, 1.366, 1.36564, 1.36595, 1.36424, 1.36423, 1.36433, 1.38936, 1.36438, 1.35821, 1.35676, 1.35666, 1.35671, 1.35584, 1.35339, 1.35109, 1.34867, 1.34705, 1.34599, 1.35504, 1.35876, 1.35765, 1.34639, 1.32507, 1.37741, 1.41538, 1.42754, 1.51155, 1.5371, 1.55565, 1.5806, 1.60204, 1.63075, 1.61416, 1.45765, 1.41088, 1.3309, 1.29228, 1.32749, 1.33715, 1.34331, 1.3303, 1.32011, 1.31992, 1.31623, 1.31455, 1.31322, 1.3142, 1.31089, 1.31272, 1.30913, 1.30936, 1.30591, 1.30604, 1.30483, 1.30326
1.65192, 1.64902, 1.64588, 1.64416, 1.63931, 1.63669, 1.63506, 1.63423, 1.63348, 1.63043, 1.64432, 1.62386, 1.62391, 1.62043, 1.62063, 1.61729, 1.61579, 1.61952, 1.62147, 1.615, 1.61895, 1.61994, 1.59904, 1.65539, 1.68276, 1.72044, 1.75861, 1.81659, 1.86776, 1.91215, 1.92374, 1.92295, 1.68549, 1.60903, 1.55079, 1.58535, 1.58881, 1.57797, 1.576, 1.42971, 1.57617, 1.57569, 1.56477, 1.56117, 1.56057, 1.55828, 1.55569, 1.55421, 1.56464, 1.55225, 1.5495, 1.54784, 1.54447, 1.54408, 1.54005, 1.5389, 1.53512, 1.53294, 1.53134, 1.52779, 1.52493, 1.52144, 1.5203, 1.51899, 1.5182, 1.51672, 1.5159, 1.52087, 1.51129, 1.50965, 1.50795, 1.50776, 1.50615, 1.50502, 1.50453, 1.5091, 1.5031, 1.49885, 1.51039, 1.49644, 1.50971, 1.51472, 1.5338, 1.53761, 1.51601, 1.49965, 1.48933, 1.49129, 1.48708, 1.48103, 1.48546, 1.49142, 1.49235, 1.46982, 1.47739, 1.45696, 1.51347, 1.50329, 1.55916, 1.55368, 1.55046, 1.54663, 1.52717, 1.53877, 1.53487, 1.53206, 1.52712, 1.51012, 1.4543, 1.44396, 1.44918, 1.44463, 1.45142, 1.45549, 1.44371, 1.4485, 1.43525, 1.43388, 1.43661, 1.4733, 1.44131, 1.45681, 1.50095, 1.47254, 1.46236, 1.44844, 1.42862, 1.42434, 1.41536, 1.41622, 1.40764, 1.41163, 1.40637, 1.407, 1.40317, 1.40083, 1.40047, 1.39938, 1.39863, 1.39522, 1.39384, 1.39294, 1.39225, 1.39102, 1.38947, 1.38752, 1.38557, 1.38547, 1.38469, 1.38433, 1.38175, 1.37953, 1.37835, 1.37675, 1.37399, 1.37257, 1.37125, 1.36891, 1.3683, 1.36746, 1.36717, 1.36505, 1.3673, 1.3633, 1.36234, 1.36179, 1.36152, 1.36185, 1.36088, 1.35895, 1.35919, 1.35711, 1.35682, 1.35631, 1.35443, 1.35072, 1.34832, 1.34803, 1.34854, 1.34623, 1.34638, 1.34769, 1.3573, 1.36456, 1.35105, 1.33786, 1.36558, 1.4277, 1.44482, 1.49515, 1.5415, 1.60208, 1.61171, 1.62001, 1.5059, 1.45152, 1.41372, 1.34014, 1.30547, 1.33369, 1.32672, 1.3374, 1.3204, 1.31833, 1.31923, 1.31927, 1.31714, 1.31594, 1.31369, 1.31383, 1.31043, 1.31159, 1.30927, 1.30902, 1.3067, 1.30648, 1.30591
1.65543, 1.65249, 1.65123, 1.64765, 1.64679, 1.64319, 1.64133, 1.63942, 1.63435, 1.63855, 1.63031, 1.63602, 1.62676, 1.62798, 1.62281, 1.61985, 1.62, 1.62829, 1.62453, 1.61511, 1.61793, 1.61278, 1.57925, 1.62054, 1.65088, 1.68577, 1.76623, 1.77127, 1.81843, 1.86628, 2.08634, 1.98377, 1.73762, 1.57864, 1.54512, 1.5887, 1.59925, 1.59343, 1.57668, 1.57909, 1.57589, 1.57557, 1.56766, 1.5638, 1.5624, 1.55774, 1.55625, 1.59173, 1.55367, 1.55151, 1.54881, 1.54469, 1.54385, 1.54089, 1.54734, 1.53564, 1.53125, 1.53033, 1.52753, 1.52708, 1.52607, 1.52172, 1.52341, 1.51789, 1.51696, 1.51974, 1.51318, 1.50991, 1.51643, 1.50879, 1.50748, 1.50749, 1.50588, 1.50581, 1.50511, 1.50327, 1.50964, 1.50906, 1.50618, 1.51516, 1.49736, 1.5089, 1.50679, 1.52349, 1.53807, 1.5241, 1.50143, 1.48509, 1.49909, 1.4993, 1.50091, 1.48232, 1.48519, 1.45828, 1.46474, 1.47776, 1.48807, 1.50474, 1.54044, 1.55358, 1.54922, 1.53096, 1.51538, 1.52441, 1.53384, 1.53663, 1.51319, 1.49652, 1.44487, 1.43199, 1.41799, 1.47144, 1.45456, 1.46223, 1.47919, 1.48796, 1.47922, 1.47218, 1.49174, 1.49606, 1.48848, 1.47511, 1.45834, 1.46093, 1.43893, 1.42705, 1.44106, 1.42878, 1.42739, 1.43296, 1.41555, 1.41271, 1.4091, 1.40975, 1.40671, 1.40489, 1.42988, 1.40013, 1.39827, 1.39862, 1.39472, 1.39364, 1.39026, 1.38962, 1.3883, 1.39515, 1.38706, 1.38542, 1.38456, 1.38335, 1.38185, 1.3791, 1.37779, 1.37753, 1.37754, 1.37444, 1.37262, 1.37133, 1.37044, 1.37136, 1.37064, 1.36836, 1.36766, 1.36529, 1.36539, 1.36396, 1.36166, 1.36213, 1.39201, 1.35999, 1.35906, 1.35759, 1.35701, 1.3539, 1.3523, 1.35155, 1.35089, 1.36102, 1.34754, 1.34431, 1.35498, 1.35321, 1.35742, 1.35334, 1.34053, 1.34116, 1.39513, 1.3804, 1.43302, 1.51222, 1.54272, 1.58168, 1.59684, 1.61457, 1.55216, 1.45073, 1.43094, 1.30144, 1.3127, 1.34151, 1.33701, 1.35101, 1.32727, 1.33986, 1.32037, 1.31988, 1.31932, 1.3272, 1.32261, 1.31588, 1.31286, 1.31283, 1.31105, 1.30971, 1.30621, 1.30831, 1.30996
1.65131, 1.64784, 1.64768, 1.64413, 1.6422, 1.63838, 1.63832, 1.63579, 1.63424, 1.63021, 1.63016, 1.62821, 1.62364, 1.6214, 1.6192, 1.62555, 1.61435, 1.61143, 1.61087, 1.61133, 1.61407, 1.60804, 1.60329, 1.60313, 1.63752, 1.70342, 1.72966, 1.7899, 1.84003, 1.88929, 1.93832, 1.7793, 1.67098, 1.62802, 1.54487, 1.58749, 1.58512, 1.57874, 1.58229, 1.59438, 1.57974, 1.57303, 1.56851, 1.56743, 1.5621, 1.5616, 1.55617, 1.57075, 1.55251, 1.54716, 1.54145, 1.5391, 1.54141, 1.54044, 1.53684, 1.53418, 1.53271, 1.52979, 1.52606, 1.52345, 1.51715, 1.51399, 1.51783, 1.5109, 1.50922, 1.50962, 1.50729, 1.50785, 1.50784, 1.50611, 1.50413, 1.5027, 1.50192, 1.50124, 1.50054, 1.49984, 1.49912, 1.49772, 1.49588, 1.49412, 1.49258, 1.49237, 1.491, 1.51257, 1.53979, 1.55061, 1.52498, 1.51301, 1.51181, 1.48455, 1.48447, 1.47844, 1.48154, 1.48085, 1.45342, 1.46834, 1.50802, 1.50737, 1.5239, 1.54164, 1.53827, 1.5293, 1.51698, 1.50382, 1.5142, 1.54715, 1.53396, 1.50468, 1.47601, 1.45561, 1.45716, 1.4649, 1.48848, 1.47845, 1.48119, 1.47227, 1.45745, 1.46557, 1.46039, 1.44772, 1.44101, 1.44, 1.44048, 1.43135, 1.42664, 1.42383, 1.42055, 1.41739, 1.41586, 1.41264, 1.41215, 1.40976, 1.40871, 1.40624, 1.40509, 1.40292, 1.40036, 1.3989, 1.39734, 1.39617, 1.40513, 1.39294, 1.38837, 1.38712, 1.38573, 1.38427, 1.38454, 1.38311, 1.38287, 1.38077, 1.37875, 1.37713, 1.3771, 1.37596, 1.37705, 1.37123, 1.37251, 1.37087, 1.36975, 1.36929, 1.36833, 1.36585, 1.36383, 1.36363, 1.36191, 1.36084, 1.36089, 1.35828, 1.35738, 1.35678, 1.35591, 1.35245, 1.3507, 1.35093, 1.35033, 1.34681, 1.34557, 1.34413, 1.34385, 1.34032, 1.34276, 1.35039, 1.34323, 1.34035, 1.33218, 1.3326, 1.37475, 1.42255, 1.45784, 1.53048, 1.53783, 1.57589, 1.61794, 1.62401, 1.59293, 1.50582, 1.40557, 1.32644, 1.30667, 1.33775, 1.32647, 1.34093, 1.32584, 1.31572, 1.31564, 1.31535, 1.3145, 1.31415, 1.31227, 1.30978, 1.30656, 1.30546, 1.30599, 1.30188, 1.30467, 1.30458, 1.30084
1.64093, 1.63787, 1.63978, 1.63639, 1.63702, 1.64444, 1.63981, 1.6466, 1.63709, 1.63466, 1.63387, 1.63213, 1.64139, 1.62421, 1.62292, 1.64429, 1.61584, 1.61466, 1.61811, 1.6081, 1.6073, 1.61249, 1.5722, 1.59601, 1.64817, 1.68997, 1.7348, 1.76271, 1.85461, 1.99296, 1.99626, 2.0053, 1.72697, 1.65046, 1.56096, 1.59233, 1.60405, 1.58897, 1.60222, 1.57785, 1.59142, 1.57858, 1.57912, 1.57962, 1.5716, 1.58488, 1.56875, 1.56746, 1.56014, 1.56691, 1.55426, 1.55207, 1.55187, 1.54486, 1.54159, 1.55399, 1.53677, 1.53569, 1.53394, 1.52998, 1.52821, 1.52651, 1.52475, 1.52071, 1.51971, 1.51788, 1.51414, 1.51271, 1.51088, 1.51076, 1.50779, 1.50706, 1.50427, 1.51178, 1.50274, 1.50234, 1.49849, 1.51072, 1.49296, 1.49511, 1.49557, 1.51658, 1.50039, 1.50002, 1.49778, 1.51412, 1.53367, 1.54695, 1.54629, 1.51499, 1.51965, 1.4846, 1.47858, 1.46119, 1.48221, 1.45762, 1.46507, 1.51259, 1.52362, 1.53711, 1.53165, 1.50381, 1.50282, 1.48576, 1.51051, 1.51919, 1.52031, 1.51316, 1.49326, 1.4642, 1.45868, 1.48938, 1.45166, 1.44839, 1.44464, 1.45198, 1.44328, 1.45337, 1.44078, 1.44097, 1.43193, 1.43038, 1.43083, 1.42668, 1.43976, 1.42599, 1.42069, 1.4163, 1.41617, 1.42656, 1.41228, 1.41187, 1.40902, 1.40689, 1.4052, 1.40364, 1.40065, 1.40003, 1.3987, 1.39677, 1.39597, 1.39461, 1.39295, 1.39122, 1.39143, 1.38967, 1.3861, 1.38591, 1.38559, 1.38306, 1.38206, 1.37963, 1.37954, 1.37834, 1.37846, 1.37888, 1.37734, 1.37562, 1.3748, 1.37405, 1.37379, 1.37176, 1.37032, 1.36684, 1.3657, 1.36369, 1.3613, 1.36062, 1.359, 1.35746, 1.36001, 1.3612, 1.35249, 1.36091, 1.35068, 1.34981, 1.34624, 1.34437, 1.34373, 1.34356, 1.34254, 1.35511, 1.36075, 1.36103, 1.33814, 1.34673, 1.37591, 1.41615, 1.47252, 1.52167, 1.55712, 1.60401, 1.62052, 1.62114, 1.58513, 1.46785, 1.39251, 1.33658, 1.32978, 1.33619, 1.33594, 1.32625, 1.33646, 1.31892, 1.34073, 1.31587, 1.3227, 1.31573, 1.31411, 1.31165, 1.3112, 1.30916, 1.30664, 1.30945, 1.30705, 1.30545, 1.30481
1.64399, 1.64365, 1.64111, 1.63982, 1.63932, 1.64002, 1.64174, 1.63997, 1.6381, 1.63628, 1.64076, 1.63081, 1.62752, 1.62512, 1.62228, 1.62698, 1.61926, 1.61282, 1.61004, 1.616, 1.60741, 1.60949, 1.60893, 1.57156, 1.61629, 1.65029, 1.70312, 1.7974, 1.83876, 1.94774, 1.96276, 1.96723, 1.77311, 1.67534, 1.559, 1.57968, 1.5903, 1.57997, 1.6032, 1.60337, 1.58674, 1.58706, 1.59561, 1.57778, 1.57192, 1.57162, 1.58208, 1.56589, 1.55673, 1.5537, 1.55099, 1.5484, 1.54672, 1.54381, 1.53986, 1.53788, 1.53442, 1.53275, 1.52977, 1.52886, 1.52533, 1.52324, 1.5212, 1.5201, 1.51748, 1.51391, 1.51228, 1.51097, 1.51111, 1.50735, 1.50589, 1.50458, 1.50356, 1.50232, 1.50048, 1.50029, 1.49851, 1.49652, 1.49316, 1.49413, 1.4954, 1.50682, 1.49106, 1.49592, 1.48929, 1.48796, 1.4958, 1.49423, 1.50983, 1.50613, 1.50224, 1.51298, 1.50917, 1.51066, 1.4728, 1.4718, 1.48288, 1.5201, 1.54216, 1.54453, 1.53172, 1.53133, 1.48536, 1.48979, 1.49774, 1.55334, 1.51619, 1.53531, 1.48166, 1.4585, 1.45149, 1.46029, 1.45204, 1.44847, 1.45141, 1.43861, 1.43677, 1.43381, 1.4318, 1.42865, 1.42752, 1.42581, 1.42257, 1.42089, 1.41794, 1.41599, 1.41314, 1.41175, 1.41001, 1.41103, 1.41073, 1.41047, 1.40894, 1.40604, 1.40232, 1.40028, 1.39966, 1.3983, 1.39813, 1.39646, 1.39671, 1.39474, 1.39476, 1.39445, 1.39529, 1.39195, 1.39154, 1.38661, 1.385, 1.38202, 1.38059, 1.37885, 1.37827, 1.38046, 1.37768, 1.37755, 1.37433, 1.37117, 1.36958, 1.3704, 1.37005, 1.37022, 1.36878, 1.3672, 1.36531, 1.3649, 1.3613, 1.35846, 1.35895, 1.35539, 1.35431, 1.3539, 1.35105, 1.35047, 1.34994, 1.35021, 1.34776, 1.34684, 1.34959, 1.36351, 1.34314, 1.34735, 1.35433, 1.34862, 1.34435, 1.32798, 1.36901, 1.41643, 1.4729, 1.53062, 1.58493, 1.63169, 1.58503, 1.6409, 1.64111, 1.49174, 1.37044, 1.3468, 1.32988, 1.34284, 1.3332, 1.32489, 1.32326, 1.31852, 1.31444, 1.31336, 1.31515, 1.31123, 1.31075, 1.31182, 1.31183, 1.31175, 1.3174, 1.32011, 1.30913, 1.3094, 1.31011
1.64463, 1.64501, 1.64124, 1.64042, 1.63888, 1.63775, 1.63816, 1.64176, 1.64127, 1.63071, 1.62728, 1.6252, 1.62278, 1.62076, 1.63379, 1.61574, 1.61388, 1.61159, 1.61066, 1.61029, 1.60988, 1.61764, 1.61983, 1.59913, 1.61692, 1.66169, 1.72351, 1.80392, 1.85945, 1.9051, 1.96626, 1.89237, 1.68137, 1.57429, 1.57277, 1.57949, 1.57477, 1.57165, 1.56941, 1.58505, 1.5857, 1.59293, 1.58905, 1.58615, 1.57225, 1.57043, 1.57225, 1.57038, 1.56203, 1.55021, 1.54671, 1.54447, 1.54043, 1.53816, 1.53697, 1.53731, 1.53244, 1.53099, 1.52946, 1.52592, 1.5248, 1.5224, 1.52004, 1.51866, 1.51795, 1.51739, 1.51496, 1.51148, 1.50898, 1.50654, 1.50405, 1.50153, 1.50069, 1.49957, 1.49805, 1.49819, 1.49571, 1.49384, 1.49173, 1.48979, 1.48859, 1.48714, 1.4866, 1.48469, 1.48235, 1.48147, 1.48034, 1.47958, 1.47982, 1.48758, 1.48249, 1.49299, 1.48009, 1.48238, 1.48484, 1.48124, 1.50149, 1.51832, 1.56674, 1.53885, 1.52004, 1.51635, 1.52483, 1.55803, 1.48878, 1.5209, 1.51216, 1.50138, 1.49142, 1.4673, 1.45123, 1.46505, 1.46512, 1.44909, 1.44542, 1.44071, 1.43868, 1.43599, 1.43329, 1.43249, 1.43013, 1.42838, 1.42589, 1.42319, 1.42091, 1.41843, 1.41651, 1.41413, 1.41262, 1.41178, 1.41264, 1.40938, 1.40634, 1.40391, 1.40396, 1.40162, 1.40056, 1.40107, 1.39966, 1.39869, 1.39827, 1.39566, 1.3953, 1.39345, 1.3923, 1.39024, 1.38804, 1.38765, 1.38527, 1.38347, 1.38051, 1.38047, 1.37737, 1.37719, 1.3748, 1.37411, 1.37336, 1.37063, 1.36962, 1.36857, 1.3684, 1.36753, 1.36588, 1.38612, 1.3638, 1.36302, 1.35858, 1.3605, 1.35684, 1.35626, 1.35788, 1.35389, 1.35249, 1.35099, 1.34827, 1.3476, 1.34679, 1.3469, 1.34468, 1.34385, 1.34473, 1.34373, 1.37603, 1.35539, 1.35046, 1.33673, 1.37624, 1.43719, 1.46974, 1.51223, 1.53627, 1.59145, 1.64443, 1.64574, 1.64181, 1.60734, 1.49011, 1.35904, 1.30571, 1.33409, 1.32627, 1.33934, 1.31988, 1.31981, 1.31598, 1.31522, 1.31263, 1.31256, 1.31185, 1.31249, 1.31185, 1.31058, 1.31145, 1.31013, 1.31165, 1.30952, 1.30642
1.64156, 1.64024, 1.6405, 1.6353, 1.63451, 1.63411, 1.63202, 1.63121, 1.62483, 1.62336, 1.62266, 1.62184, 1.62348, 1.62664, 1.62072, 1.6134, 1.61921, 1.6169, 1.60749, 1.60614, 1.60692, 1.60516, 1.60762, 1.5647, 1.60262, 1.64587, 1.73406, 1.79265, 1.86744, 1.87633, 2.21517, 1.96913, 1.84128, 1.63871, 1.54326, 1.54786, 1.53888, 1.56535, 1.59509, 1.62682, 1.57215, 1.55804, 1.58366, 1.58003, 1.58304, 1.58606, 1.5745, 1.56648, 1.57268, 1.55501, 1.55244, 1.53936, 1.53614, 1.5338, 1.53317, 1.55401, 1.53218, 1.53016, 1.52755, 1.52617, 1.52506, 1.52364, 1.52177, 1.52148, 1.5157, 1.51443, 1.51275, 1.51139, 1.50687, 1.50498, 1.50203, 1.50055, 1.50083, 1.49928, 1.49588, 1.49467, 1.49402, 1.49321, 1.49126, 1.48884, 1.4875, 1.48524, 1.48288, 1.482, 1.47964, 1.47769, 1.47626, 1.47659, 1.47511, 1.47566, 1.47671, 1.48499, 1.48168, 1.48531, 1.48237, 1.4845, 1.51747, 1.52334, 1.52986, 1.52988, 1.40861, 1.50713, 1.47882, 1.47646, 1.5021, 1.49225, 1.50909, 1.49827, 1.50586, 1.47141, 1.45747, 1.45746, 1.45548, 1.44344, 1.46252, 1.43742, 1.43477, 1.4412, 1.43063, 1.42982, 1.42489, 1.42331, 1.41996, 1.42123, 1.41864, 1.41708, 1.41425, 1.41119, 1.4103, 1.4083, 1.40876, 1.40746, 1.40849, 1.40671, 1.40627, 1.40419, 1.4028, 1.40122, 1.3988, 1.39521, 1.39817, 1.39318, 1.39302, 1.39253, 1.39155, 1.38568, 1.38514, 1.38472, 1.38487, 1.38305, 1.3818, 1.3883, 1.37827, 1.3778, 1.37649, 1.37225, 1.37021, 1.36876, 1.37117, 1.36919, 1.36474, 1.36428, 1.36564, 1.36406, 1.3621, 1.36076, 1.35768, 1.3573, 1.35267, 1.35249, 1.36742, 1.35295, 1.35052, 1.36177, 1.34655, 1.34448, 1.34495, 1.34717, 1.3438, 1.35134, 1.34482, 1.3432, 1.34419, 1.3467, 1.35356, 1.33304, 1.32334, 1.38531, 1.40302, 1.47179, 1.49645, 1.56255, 1.60675, 1.62659, 1.57786, 1.49934, 1.40926, 1.32667, 1.30224, 1.32633, 1.3301, 1.34136, 1.32989, 1.31775, 1.32404, 1.31475, 1.31182, 1.31292, 1.31328, 1.31084, 1.3098, 1.3091, 1.30744, 1.30917, 1.30913, 1.3087, 1.30818
1.64727, 1.63989, 1.63749, 1.63425, 1.63287, 1.63059, 1.62959, 1.62798, 1.62559, 1.62359, 1.62179, 1.61908, 1.61652, 1.61487, 1.61155, 1.60875, 1.60685, 1.60571, 1.60416, 1.6034, 1.60532, 1.60389, 1.60714, 1.58541, 1.58311, 1.64693, 1.70205, 1.75823, 1.82483, 1.85303, 2.05802, 2.02625, 1.82469, 1.67887, 1.53359, 1.53735, 1.57258, 1.65537, 1.72828, 1.80592, 1.7965, 1.68058, 1.59334, 1.59971, 1.5998, 1.58706, 1.57906, 1.58485, 1.56626, 1.56272, 1.55393, 1.5459, 1.54215, 1.53875, 1.53676, 1.53356, 1.53048, 1.52983, 1.52814, 1.52681, 1.52338, 1.52217, 1.521, 1.51791, 1.51627, 1.51364, 1.51236, 1.51555, 1.50803, 1.50446, 1.50291, 1.50303, 1.50009, 1.4984, 1.50248, 1.49285, 1.49286, 1.49176, 1.49001, 1.48843, 1.48718, 1.486, 1.4917, 1.48118, 1.47896, 1.47788, 1.47542, 1.47444, 1.47321, 1.47232, 1.47314, 1.47577, 1.47866, 1.47586, 1.47451, 1.47803, 1.52332, 1.50204, 1.53948, 1.51869, 1.51922, 1.50573, 1.48188, 1.46988, 1.51622, 1.49071, 1.50325, 1.49254, 1.49735, 1.47498, 1.43244, 1.45418, 1.45452, 1.45089, 1.45123, 1.43478, 1.42963, 1.4263, 1.42323, 1.42314, 1.42011, 1.42515, 1.41645, 1.41517, 1.41273, 1.41193, 1.4103, 1.40883, 1.40758, 1.40656, 1.40699, 1.40573, 1.40593, 1.40879, 1.40629, 1.40566, 1.40168, 1.39902, 1.39463, 1.39357, 1.39243, 1.39047, 1.39758, 1.38702, 1.3856, 1.38492, 1.38251, 1.38169, 1.37901, 1.37891, 1.37667, 1.37619, 1.37471, 1.374, 1.37094, 1.37126, 1.37138, 1.37066, 1.36756, 1.36547, 1.36499, 1.36321, 1.36137, 1.36108, 1.35773, 1.35605, 1.35405, 1.35167, 1.35191, 1.35168, 1.3529, 1.35269, 1.35858, 1.34668, 1.34861, 1.3461, 1.34342, 1.34415, 1.34313, 1.34176, 1.34109, 1.34222, 1.35443, 1.34838, 1.34734, 1.33128, 1.31189, 1.41833, 1.45515, 1.48945, 1.57439, 1.59468, 1.64906, 1.65156, 1.64655, 1.51566, 1.44647, 1.37353, 1.32261, 1.31627, 1.33152, 1.32744, 1.32239, 1.32102, 1.34385, 1.31953, 1.31594, 1.31505, 1.31031, 1.30893, 1.30594, 1.30543, 1.31001, 1.30908, 1.30153, 1.29941, 1.30041
1.64146, 1.63825, 1.63357, 1.65017, 1.63089, 1.62984, 1.62801, 1.62468, 1.6234, 1.62164, 1.62724, 1.61548, 1.61645, 1.61312, 1.60898, 1.60388, 1.60371, 1.60272, 1.6167, 1.60347, 1.60263, 1.60257, 1.59882, 1.5918, 1.57096, 1.63221, 1.69314, 1.77746, 1.83588, 1.92765, 1.99392, 1.99647, 1.84264, 1.58972, 1.53702, 1.57626, 1.56477, 1.55662, 1.59836, 1.62061, 1.63288, 1.63002, 1.59832, 1.57585, 1.59918, 1.57669, 1.56984, 1.5683, 1.56365, 1.56426, 1.55201, 1.5402, 1.55205, 1.53682, 1.54469, 1.52976, 1.53265, 1.52719, 1.53416, 1.52632, 1.52024, 1.51771, 1.52259, 1.51452, 1.51612, 1.51093, 1.51132, 1.50945, 1.50783, 1.50431, 1.50055, 1.49867, 1.49916, 1.49799, 1.52255, 1.49172, 1.4896, 1.48864, 1.48542, 1.48506, 1.48236, 1.48134, 1.48028, 1.47831, 1.49203, 1.47607, 1.48409, 1.49361, 1.47139, 1.47245, 1.4728, 1.47484, 1.48323, 1.47949, 1.46927, 1.47484, 1.50636, 1.51631, 1.53412, 1.50916, 1.5278, 1.48481, 1.47194, 1.46621, 1.47613, 1.51354, 1.49413, 1.50178, 1.47887, 1.4686, 1.46635, 1.4529, 1.44431, 1.44761, 1.44292, 1.43077, 1.42938, 1.42165, 1.42089, 1.41897, 1.4167, 1.41379, 1.41365, 1.4127, 1.41207, 1.41109, 1.40935, 1.40986, 1.40887, 1.40953, 1.40749, 1.40633, 1.40524, 1.40524, 1.40043, 1.40023, 1.39892, 1.39748, 1.39459, 1.39914, 1.38977, 1.3884, 1.38512, 1.39146, 1.38432, 1.38282, 1.38017, 1.38078, 1.37839, 1.37908, 1.3755, 1.37584, 1.37386, 1.37259, 1.37069, 1.36906, 1.36825, 1.36748, 1.36494, 1.36421, 1.36279, 1.36212, 1.36088, 1.35911, 1.3587, 1.35858, 1.35688, 1.35701, 1.35529, 1.35562, 1.35442, 1.35183, 1.35109, 1.34942, 1.34648, 1.34528, 1.36073, 1.35507, 1.34765, 1.34669, 1.34984, 1.34366, 1.3564, 1.35513, 1.34907, 1.34298, 1.33347, 1.36268, 1.42905, 1.47516, 1.54095, 1.54927, 1.64474, 1.71841, 1.71715, 1.47744, 1.44062, 1.35062, 1.31051, 1.3372, 1.33735, 1.33394, 1.33364, 1.31848, 1.32074, 1.31211, 1.31111, 1.30946, 1.3097, 1.30771, 1.30615, 1.30713, 1.30541, 1.30438, 1.30281, 1.33754, 1.3003
1.63142, 1.63038, 1.62862, 1.62619, 1.62525, 1.62174, 1.62008, 1.61601, 1.61752, 1.6152, 1.61169, 1.61198, 1.60957, 1.60976, 1.60501, 1.61388, 1.60338, 1.59891, 1.60179, 1.59584, 1.59547, 1.59543, 1.596, 1.60617, 1.599, 1.62751, 1.69791, 1.70313, 1.80362, 1.87867, 2.12178, 2.30411, 1.83222, 1.59266, 1.54157, 1.54501, 1.56899, 1.56425, 1.56457, 1.57206, 1.57342, 1.57242, 1.57643, 1.57159, 1.57534, 1.57356, 1.56288, 1.55752, 1.54608, 1.55133, 1.53651, 1.53895, 1.52891, 1.5262, 1.52377, 1.52066, 1.51945, 1.51959, 1.51826, 1.51655, 1.51305, 1.51253, 1.51013, 1.50887, 1.50585, 1.50575, 1.50634, 1.50546, 1.50325, 1.5001, 1.49951, 1.49661, 1.49625, 1.49265, 1.48984, 1.48609, 1.48537, 1.48165, 1.47785, 1.47885, 1.47834, 1.47388, 1.47372, 1.47182, 1.47088, 1.4696, 1.46746, 1.4653, 1.46554, 1.46298, 1.47137, 1.46646, 1.46761, 1.4796, 1.48602, 1.49529, 1.49097, 1.49352, 1.51627, 1.51227, 1.53671, 1.50837, 1.48221, 1.46544, 1.47811, 1.4772, 1.50043, 1.48169, 1.48558, 1.47848, 1.44019, 1.4383, 1.45392, 1.43848, 1.44091, 1.43242, 1.42875, 1.42296, 1.42121, 1.41796, 1.41546, 1.41401, 1.41153, 1.40983, 1.40941, 1.40958, 1.40844, 1.40676, 1.40508, 1.40294, 1.40214, 1.40305, 1.40075, 1.3993, 1.39516, 1.39483, 1.39181, 1.38964, 1.38888, 1.38576, 1.3846, 1.38352, 1.38048, 1.37962, 1.37881, 1.37585, 1.37496, 1.37499, 1.37607, 1.37812, 1.37738, 1.37687, 1.37785, 1.37667, 1.37636, 1.37057, 1.36546, 1.3645, 1.36373, 1.36196, 1.35922, 1.35751, 1.35458, 1.35432, 1.35312, 1.3543, 1.35351, 1.35151, 1.35111, 1.35087, 1.34806, 1.35049, 1.35083, 1.34509, 1.34404, 1.34559, 1.34119, 1.34083, 1.35395, 1.33717, 1.3374, 1.33672, 1.34675, 1.34039, 1.34143, 1.32909, 1.32672, 1.38723, 1.41794, 1.50284, 1.51684, 1.57152, 1.62446, 1.66534, 1.59874, 1.55414, 1.42681, 1.33025, 1.27875, 1.30711, 1.34034, 1.33015, 1.32711, 1.30888, 1.30757, 1.30403, 1.30838, 1.31967, 1.3031, 1.30193, 1.3014, 1.2996, 1.29845, 1.29574, 1.29775, 1.2957, 1.30296
1.62809, 1.62729, 1.62463, 1.62182, 1.62293, 1.62099, 1.621, 1.61914, 1.619, 1.61577, 1.61293, 1.61172, 1.60991, 1.6074, 1.60549, 1.60365, 1.60952, 1.59949, 1.59716, 1.59528, 1.59987, 1.61043, 1.59956, 1.59278, 1.56546, 1.61381, 1.66951, 1.69442, 1.80612, 1.837, 2.07004, 1.90435, 1.6967, 1.5921, 1.55886, 1.55005, 1.56527, 1.56793, 1.56324, 1.56119, 1.56087, 1.56151, 1.56022, 1.56852, 1.5643, 1.55044, 1.54796, 1.54593, 1.5412, 1.53796, 1.53458, 1.53506, 1.53001, 1.52682, 1.52518, 1.52169, 1.5228, 1.52068, 1.51866, 1.51417, 1.51179, 1.51098, 1.50925, 1.50707, 1.50537, 1.50269, 1.5013, 1.49994, 1.49874, 1.49702, 1.49638, 1.49492, 1.49384, 1.49227, 1.48851, 1.48458, 1.48224, 1.47808, 1.47527, 1.47443, 1.47352, 1.47111, 1.47028, 1.47096, 1.46803, 1.47213, 1.46625, 1.46503, 1.46436, 1.46442, 1.46396, 1.4643, 1.46713, 1.46901, 1.4719, 1.47226, 1.4889, 1.53396, 1.5248, 1.51478, 1.50959, 1.49946, 1.48142, 1.46769, 1.48325, 1.48159, 1.48703, 1.48586, 1.48669, 1.4821, 1.46048, 1.43882, 1.44451, 1.44782, 1.43669, 1.42987, 1.42729, 1.42958, 1.42272, 1.41988, 1.41792, 1.41528, 1.41298, 1.41134, 1.40844, 1.40815, 1.40614, 1.40457, 1.40354, 1.40036, 1.39946, 1.39731, 1.39626, 1.39335, 1.39248, 1.38981, 1.38928, 1.38761, 1.3843, 1.38312, 1.38081, 1.37928, 1.37767, 1.37622, 1.3757, 1.37264, 1.37213, 1.37238, 1.37541, 1.37457, 1.37411, 1.37281, 1.37294, 1.37169, 1.37078, 1.3685, 1.36742, 1.36374, 1.36215, 1.35674, 1.35755, 1.3528, 1.35205, 1.3517, 1.34811, 1.34863, 1.34825, 1.34718, 1.35, 1.34671, 1.34587, 1.34307, 1.34269, 1.34268, 1.34185, 1.35049, 1.33855, 1.33569, 1.3511, 1.33484, 1.33275, 1.33312, 1.34058, 1.33446, 1.34342, 1.33732, 1.31969, 1.36454, 1.42314, 1.48001, 1.53949, 1.57198, 1.58282, 1.73536, 1.7122, 1.6057, 1.44391, 1.34605, 1.28152, 1.31925, 1.32329, 1.31288, 1.31667, 1.30751, 1.30605, 1.30608, 1.304, 1.30305, 1.30599, 1.30447, 1.30214, 1.30058, 1.29935, 1.29856, 1.29657, 1.29887, 1.29437
1.62635, 1.626, 1.62436, 1.62308, 1.62068, 1.61817, 1.61725, 1.61615, 1.61501, 1.61509, 1.61383, 1.61228, 1.60908, 1.60536, 1.60359, 1.60133, 1.6158, 1.59939, 1.59878, 1.59591, 1.59514, 1.59564, 1.5985, 1.58381, 1.56704, 1.60362, 1.66653, 1.70364, 1.80737, 1.79213, 1.82093, 1.74754, 1.78679, 1.58325, 1.51991, 1.52568, 1.55187, 1.56572, 1.57201, 1.56384, 1.55424, 1.55342, 1.55247, 1.55046, 1.54773, 1.55144, 1.54885, 1.54528, 1.55715, 1.53881, 1.53687, 1.53548, 1.53258, 1.52995, 1.52642, 1.52567, 1.52355, 1.51961, 1.51668, 1.51655, 1.50924, 1.50705, 1.50705, 1.50526, 1.50395, 1.5019, 1.502, 1.49988, 1.49728, 1.49583, 1.49501, 1.49259, 1.49027, 1.48847, 1.48895, 1.48626, 1.48234, 1.47941, 1.47947, 1.4739, 1.47236, 1.47157, 1.47179, 1.47058, 1.46867, 1.46668, 1.46667, 1.46451, 1.46308, 1.4632, 1.4618, 1.46958, 1.46567, 1.46592, 1.46115, 1.48019, 1.49497, 1.49965, 1.50669, 1.55417, 1.50142, 1.4883, 1.49046, 1.46587, 1.4684, 1.48208, 1.51606, 1.50293, 1.50264, 1.45099, 1.43841, 1.44398, 1.45044, 1.4403, 1.43684, 1.43592, 1.43334, 1.42447, 1.41978, 1.424, 1.41467, 1.41267, 1.41267, 1.41344, 1.40892, 1.40863, 1.40699, 1.40287, 1.40126, 1.40218, 1.40138, 1.39832, 1.39647, 1.39501, 1.39224, 1.39565, 1.38892, 1.38718, 1.39173, 1.38507, 1.3841, 1.38219, 1.38135, 1.37926, 1.37605, 1.37574, 1.37517, 1.37723, 1.37595, 1.37592, 1.37477, 1.37434, 1.3722, 1.37072, 1.3696, 1.3677, 1.36314, 1.36166, 1.35797, 1.35719, 1.35329, 1.3523, 1.35687, 1.36414, 1.34772, 1.34788, 1.34805, 1.34674, 1.34735, 1.34667, 1.34468, 1.34351, 1.34317, 1.34318, 1.34041, 1.33906, 1.34962, 1.33494, 1.33421, 1.33364, 1.3314, 1.33193, 1.3302, 1.34058, 1.34457, 1.34262, 1.31929, 1.33371, 1.40046, 1.42152, 1.48722, 1.56874, 1.63019, 1.64822, 1.64687, 1.53387, 1.43962, 1.34646, 1.27811, 1.31297, 1.32047, 1.31953, 1.3094, 1.31289, 1.30657, 1.30968, 1.30716, 1.30599, 1.30604, 1.30668, 1.30516, 1.3014, 1.30121, 1.2987, 1.29793, 1.29929, 1.29553
1.62582, 1.62205, 1.61995, 1.62128, 1.62168, 1.6198, 1.62036, 1.61797, 1.61629, 1.61582, 1.61387, 1.61099, 1.61359, 1.6122, 1.60552, 1.60947, 1.60028, 1.59625, 1.59378, 1.59378, 1.59274, 1.59337, 1.59985, 1.58926, 1.55838, 1.63394, 1.69292, 1.74223, 1.83347, 1.89987, 1.79693, 1.73572, 1.73792, 1.73355, 1.58703, 1.56139, 1.58101, 1.57375, 1.57362, 1.56897, 1.57093, 1.55876, 1.57499, 1.55473, 1.55182, 1.5696, 1.55161, 1.54517, 1.54415, 1.54064, 1.56494, 1.5339, 1.53117, 1.53035, 1.52981, 1.52631, 1.52342, 1.52336, 1.51973, 1.51605, 1.51228, 1.51012, 1.50913, 1.50438, 1.50492, 1.50502, 1.50239, 1.49952, 1.49749, 1.49584, 1.49529, 1.49192, 1.4903, 1.48944, 1.49553, 1.48456, 1.48269, 1.48484, 1.47769, 1.47555, 1.47434, 1.47273, 1.47141, 1.47055, 1.46875, 1.46824, 1.47198, 1.46526, 1.46484, 1.46683, 1.46312, 1.4644, 1.46535, 1.48659, 1.46902, 1.47577, 1.481, 1.49114, 1.50088, 1.5419, 1.51009, 1.48673, 1.50517, 1.47108, 1.46954, 1.48173, 1.48925, 1.48301, 1.50557, 1.48012, 1.45068, 1.44611, 1.43842, 1.43486, 1.42848, 1.43127, 1.42125, 1.41894, 1.41456, 1.41297, 1.41018, 1.40961, 1.40906, 1.4087, 1.405, 1.40525, 1.40304, 1.40215, 1.40174, 1.399, 1.39984, 1.39847, 1.39869, 1.39346, 1.39316, 1.39235, 1.39211, 1.38823, 1.38543, 1.38366, 1.3823, 1.42597, 1.37876, 1.37815, 1.38141, 1.37453, 1.37273, 1.37241, 1.3716, 1.36976, 1.36846, 1.36827, 1.36335, 1.3611, 1.36003, 1.3587, 1.35611, 1.35533, 1.35309, 1.35058, 1.34814, 1.35044, 1.34778, 1.34615, 1.34609, 1.34589, 1.34454, 1.346, 1.34698, 1.34251, 1.3419, 1.33979, 1.33798, 1.33801, 1.33581, 1.33442, 1.33468, 1.33381, 1.3318, 1.33103, 1.33035, 1.33875, 1.32777, 1.34044, 1.33196, 1.33303, 1.3216, 1.2981, 1.39178, 1.46228, 1.51056, 1.54335, 1.67392, 1.71009, 1.6679, 1.60024, 1.47404, 1.29631, 1.28518, 1.31285, 1.32616, 1.3171, 1.30899, 1.33723, 1.30639, 1.30694, 1.30358, 1.30607, 1.30407, 1.30391, 1.30188, 1.3023, 1.32721, 1.30042, 1.29867, 1.29699, 1.29353
1.62551, 1.62241, 1.62155, 1.61971, 1.61747, 1.61689, 1.61707, 1.6144, 1.61368, 1.61173, 1.61228, 1.6088, 1.62008, 1.60386, 1.60869, 1.59867, 1.59583, 1.59568, 1.5936, 1.59302, 1.60065, 1.60678, 1.60411, 1.60651, 1.56102, 1.56878, 1.64771, 1.67253, 1.7276, 1.81242, 1.76487, 1.75122, 1.71258, 1.77212, 1.56166, 1.54771, 1.56552, 1.58294, 1.57215, 1.56576, 1.56445, 1.56196, 1.55484, 1.55104, 1.5505, 1.55601, 1.54165, 1.54032, 1.53659, 1.53439, 1.54156, 1.52931, 1.56674, 1.52589, 1.52449, 1.52322, 1.52147, 1.52019, 1.5169, 1.51643, 1.51572, 1.51307, 1.51238, 1.51037, 1.50654, 1.5041, 1.50236, 1.49966, 1.4986, 1.49696, 1.49615, 1.49231, 1.49134, 1.48838, 1.48595, 1.48471, 1.48244, 1.4813, 1.48407, 1.47803, 1.47791, 1.47516, 1.4727, 1.47154, 1.47023, 1.46831, 1.46614, 1.46532, 1.46458, 1.46499, 1.46533, 1.47447, 1.46879, 1.47869, 1.46744, 1.48593, 1.48859, 1.49222, 1.49102, 1.49439, 1.48568, 1.5024, 1.4706, 1.45544, 1.46484, 1.46132, 1.48336, 1.47447, 1.49013, 1.49027, 1.44077, 1.44156, 1.44454, 1.4407, 1.43135, 1.42275, 1.41575, 1.41258, 1.41189, 1.41032, 1.41101, 1.41103, 1.40911, 1.40826, 1.40647, 1.4063, 1.40593, 1.40279, 1.40233, 1.39882, 1.39737, 1.39492, 1.39298, 1.39181, 1.39183, 1.38839, 1.39956, 1.3862, 1.38447, 1.38377, 1.38443, 1.38305, 1.37952, 1.3817, 1.37535, 1.37317, 1.37266, 1.37127, 1.36816, 1.36564, 1.36499, 1.36274, 1.36071, 1.35897, 1.35651, 1.35252, 1.35209, 1.3517, 1.34957, 1.34668, 1.34553, 1.34448, 1.34408, 1.34328, 1.34631, 1.34384, 1.34518, 1.34316, 1.34393, 1.34164, 1.34929, 1.34266, 1.3398, 1.33741, 1.33922, 1.33613, 1.33617, 1.33309, 1.33365, 1.33062, 1.33697, 1.32965, 1.35075, 1.34023, 1.32981, 1.33129, 1.32076, 1.36458, 1.41671, 1.40272, 1.48558, 1.51553, 1.6505, 1.69184, 1.71176, 1.51995, 1.46379, 1.2768, 1.26718, 1.3025, 1.31838, 1.32317, 1.30493, 1.30307, 1.30289, 1.30369, 1.31504, 1.30957, 1.30239, 1.30141, 1.30122, 1.29971, 1.31843, 1.30858, 1.29557, 1.29427, 1.29246
1.62064, 1.61741, 1.6155, 1.61314, 1.61208, 1.61048, 1.60862, 1.61151, 1.60712, 1.60321, 1.6001, 1.59822, 1.59743, 1.59566, 1.59285, 1.59152, 1.58862, 1.58769, 1.5855, 1.58617, 1.58009, 1.57872, 1.57844, 1.57786, 1.56653, 1.57226, 1.65051, 1.66962, 1.74891, 1.8145, 1.84125, 2.13745, 1.8542, 1.62625, 1.55175, 1.55388, 1.56445, 1.56396, 1.56009, 1.55123, 1.55104, 1.55521, 1.56092, 1.54204, 1.54018, 1.55519, 1.53529, 1.52862, 1.52814, 1.52527, 1.52102, 1.51739, 1.51409, 1.51523, 1.51532, 1.51464, 1.5128, 1.51303, 1.51301, 1.5104, 1.50913, 1.50781, 1.50648, 1.51207, 1.50089, 1.49746, 1.49332, 1.49169, 1.49034, 1.48923, 1.48778, 1.48596, 1.48353, 1.48087, 1.48111, 1.47691, 1.47495, 1.47553, 1.47353, 1.46994, 1.46912, 1.46566, 1.46378, 1.46471, 1.46339, 1.46209, 1.46045, 1.45915, 1.45857, 1.46288, 1.45702, 1.46518, 1.46351, 1.4621, 1.47221, 1.47238, 1.4816, 1.50581, 1.49653, 1.48029, 1.48107, 1.46836, 1.45823, 1.45379, 1.46113, 1.48463, 1.46872, 1.48112, 1.47937, 1.47197, 1.44473, 1.4396, 1.44758, 1.42298, 1.42082, 1.42708, 1.41022, 1.40896, 1.4058, 1.40405, 1.40335, 1.40191, 1.40136, 1.39961, 1.39955, 1.4001, 1.39869, 1.39848, 1.39634, 1.39556, 1.39237, 1.39005, 1.3862, 1.38587, 1.38408, 1.38176, 1.38225, 1.37962, 1.37844, 1.37825, 1.37559, 1.37465, 1.37375, 1.37098, 1.37121, 1.37124, 1.36657, 1.36486, 1.36276, 1.35877, 1.35881, 1.35517, 1.35351, 1.35039, 1.35006, 1.34753, 1.34511, 1.34354, 1.34294, 1.34294, 1.34366, 1.33894, 1.33958, 1.33954, 1.33824, 1.33906, 1.34026, 1.3409, 1.33967, 1.33814, 1.33779, 1.33694, 1.33441, 1.33298, 1.33311, 1.33107, 1.32783, 1.32522, 1.32469, 1.32432, 1.32411, 1.32297, 1.32277, 1.3228, 1.3227, 1.32594, 1.32761, 1.31434, 1.37254, 1.37512, 1.48153, 1.53968, 1.60281, 1.68662, 1.69118, 1.47437, 1.47878, 1.30598, 1.28594, 1.30007, 1.30971, 1.29933, 1.30623, 1.29866, 1.29685, 1.30013, 1.2961, 1.29685, 1.29384, 1.29492, 1.29183, 1.29198, 1.28912, 1.28862, 1.28315, 1.28463, 1.28177
1.61993, 1.61818, 1.61513, 1.61418, 1.61323, 1.60936, 1.60677, 1.60405, 1.60285, 1.60069, 1.60019, 1.59546, 1.59349, 1.59337, 1.61404, 1.58872, 1.5872, 1.58383, 1.5798, 1.57758, 1.57513, 1.57441, 1.5775, 1.58125, 1.60644, 1.57579, 1.61272, 1.72437, 1.74058, 1.80992, 1.92633, 1.94394, 1.72658, 1.69237, 1.55423, 1.53434, 1.5555, 1.57021, 1.55326, 1.55348, 1.54391, 1.54185, 1.53711, 1.5355, 1.53318, 1.52978, 1.52642, 1.52509, 1.52073, 1.51861, 1.51431, 1.51423, 1.5237, 1.50877, 1.50691, 1.50519, 1.50389, 1.50426, 1.50409, 1.50224, 1.50169, 1.50038, 1.49833, 1.49936, 1.49581, 1.4945, 1.49313, 1.4899, 1.48794, 1.48519, 1.48388, 1.48224, 1.48274, 1.47919, 1.47866, 1.47582, 1.47494, 1.47027, 1.46441, 1.46296, 1.4621, 1.46712, 1.46062, 1.46016, 1.45729, 1.45549, 1.4525, 1.45122, 1.45057, 1.45006, 1.44937, 1.45278, 1.45385, 1.46351, 1.45494, 1.45848, 1.46371, 1.47928, 1.48312, 1.47168, 1.47196, 1.47889, 1.48483, 1.45767, 1.46234, 1.46154, 1.46943, 1.48523, 1.48626, 1.47212, 1.46181, 1.43442, 1.42049, 1.42362, 1.42002, 1.41414, 1.40929, 1.4043, 1.4188, 1.40151, 1.39948, 1.3992, 1.3959, 1.39493, 1.4061, 1.39331, 1.39135, 1.39247, 1.39117, 1.38903, 1.38819, 1.38421, 1.38397, 1.3786, 1.37626, 1.37444, 1.37253, 1.36927, 1.37002, 1.36734, 1.36718, 1.36652, 1.36527, 1.3638, 1.36493, 1.36088, 1.36078, 1.36205, 1.36049, 1.36486, 1.35259, 1.35068, 1.35199, 1.35444, 1.35007, 1.3461, 1.34541, 1.34249, 1.34111, 1.33859, 1.33831, 1.33402, 1.33238, 1.33736, 1.33573, 1.33325, 1.33518, 1.33622, 1.33367, 1.33362, 1.33264, 1.32968, 1.32939, 1.32928, 1.32643, 1.32393, 1.32371, 1.32293, 1.323, 1.31833, 1.3171, 1.31322, 1.32987, 1.3156, 1.31651, 1.33397, 1.30659, 1.27606, 1.34528, 1.38519, 1.48614, 1.54393, 1.59992, 1.63073, 1.6144, 1.48106, 1.46398, 1.31681, 1.26269, 1.29484, 1.29592, 1.2937, 1.30036, 1.28998, 1.30956, 1.29151, 1.29067, 1.28777, 1.28823, 1.28819, 1.28867, 1.28661, 1.28276, 1.28161, 1.27992, 1.2775, 1.27798
1.61726, 1.61591, 1.61633, 1.61168, 1.60911, 1.60621, 1.60451, 1.60603, 1.60102, 1.59926, 1.5964, 1.59523, 1.59331, 1.60404, 1.58923, 1.59183, 1.58631, 1.58449, 1.58203, 1.58056, 1.57954, 1.59831, 1.58865, 1.57946, 1.56799, 1.58323, 1.59338, 1.63084, 1.7, 1.81555, 1.90459, 1.99947, 1.91151, 1.58303, 1.52268, 1.55564, 1.55406, 1.56293, 1.54951, 1.55226, 1.55226, 1.53799, 1.53674, 1.5348, 1.53175, 1.52983, 1.52651, 1.52196, 1.54047, 1.52643, 1.52327, 1.51731, 1.51377, 1.51362, 1.50959, 1.50704, 1.5053, 1.5035, 1.502, 1.50081, 1.49888, 1.49726, 1.49592, 1.49415, 1.49339, 1.49188, 1.52309, 1.49251, 1.48432, 1.4954, 1.48182, 1.47761, 1.47651, 1.4751, 1.47247, 1.47092, 1.4701, 1.47025, 1.46639, 1.46497, 1.46324, 1.4608, 1.4591, 1.45803, 1.45501, 1.45235, 1.45076, 1.45062, 1.44884, 1.449, 1.45545, 1.44922, 1.45089, 1.45075, 1.45687, 1.46066, 1.4588, 1.45612, 1.46856, 1.4727, 1.4645, 1.47625, 1.46574, 1.46233, 1.45036, 1.47182, 1.482, 1.47579, 1.47575, 1.45617, 1.44672, 1.43262, 1.4365, 1.42398, 1.41753, 1.41395, 1.40654, 1.40354, 1.39996, 1.42308, 1.39744, 1.39609, 1.39479, 1.39516, 1.39529, 1.3928, 1.38962, 1.38845, 1.39089, 1.38455, 1.38357, 1.38211, 1.38189, 1.37863, 1.37847, 1.37827, 1.3757, 1.37577, 1.37307, 1.37135, 1.36744, 1.36623, 1.36446, 1.36332, 1.36356, 1.36349, 1.36048, 1.35846, 1.35775, 1.35785, 1.35722, 1.35492, 1.35396, 1.35055, 1.34957, 1.34745, 1.34467, 1.34127, 1.33731, 1.337, 1.33557, 1.33622, 1.33494, 1.33494, 1.33932, 1.33578, 1.33489, 1.33516, 1.334, 1.33312, 1.33506, 1.33443, 1.33289, 1.33211, 1.32933, 1.33427, 1.33665, 1.32409, 1.32199, 1.32095, 1.31992, 1.31927, 1.31848, 1.31878, 1.31969, 1.31996, 1.30792, 1.28211, 1.39973, 1.38751, 1.46868, 1.51584, 1.56621, 1.63727, 1.65015, 1.58775, 1.42249, 1.35146, 1.28544, 1.29816, 1.30608, 1.30624, 1.30348, 1.2976, 1.29563, 1.29448, 1.30648, 1.28919, 1.30599, 1.28613, 1.28565, 1.28501, 1.28186, 1.28287, 1.2844, 1.28388, 1.28329
1.61801, 1.61374, 1.61265, 1.61065, 1.60866, 1.60686, 1.6045, 1.60284, 1.61046, 1.59798, 1.59312, 1.59054, 1.5894, 1.58788, 1.58693, 1.58573, 1.59131, 1.58307, 1.5827, 1.58195, 1.59298, 1.58541, 1.57881, 1.59266, 1.57556, 1.56136, 1.58903, 1.66773, 1.7341, 1.79247, 1.8317, 2.35936, 1.88949, 1.64856, 1.52343, 1.51283, 1.55373, 1.54914, 1.54668, 1.54243, 1.54418, 1.53715, 1.53336, 1.53363, 1.53097, 1.53122, 1.52852, 1.54372, 1.52594, 1.5211, 1.52049, 1.52387, 1.51351, 1.51117, 1.5096, 1.50574, 1.50356, 1.50232, 1.49982, 1.49639, 1.49588, 1.49594, 1.49496, 1.49949, 1.49311, 1.49274, 1.48926, 1.4875, 1.48665, 1.48555, 1.48121, 1.47973, 1.47857, 1.47609, 1.47484, 1.47087, 1.47047, 1.46771, 1.46626, 1.46443, 1.46087, 1.46126, 1.45811, 1.4572, 1.45521, 1.4606, 1.45324, 1.45054, 1.44831, 1.44754, 1.44842, 1.44699, 1.45945, 1.46408, 1.46845, 1.4575, 1.45922, 1.45928, 1.46539, 1.46186, 1.46347, 1.48639, 1.4658, 1.45561, 1.45916, 1.45237, 1.46016, 1.46715, 1.46949, 1.47026, 1.45435, 1.42956, 1.4258, 1.42069, 1.42017, 1.42995, 1.41933, 1.40583, 1.40288, 1.40154, 1.39915, 1.39864, 1.40284, 1.39938, 1.41104, 1.39321, 1.39998, 1.38915, 1.4066, 1.38886, 1.38713, 1.38551, 1.38242, 1.38036, 1.3759, 1.37492, 1.37216, 1.36951, 1.36883, 1.3677, 1.36594, 1.36362, 1.36063, 1.36364, 1.35796, 1.35749, 1.35584, 1.35416, 1.35367, 1.35391, 1.35237, 1.35202, 1.35265, 1.34938, 1.34874, 1.34772, 1.34692, 1.35092, 1.34372, 1.34134, 1.33922, 1.33825, 1.33615, 1.33512, 1.33687, 1.33465, 1.33347, 1.33074, 1.33133, 1.32945, 1.33139, 1.32958, 1.32862, 1.32632, 1.32672, 1.32576, 1.34819, 1.32326, 1.32538, 1.32239, 1.31907, 1.31834, 1.32243, 1.33798, 1.33603, 1.32373, 1.32426, 1.29582, 1.36358, 1.36106, 1.42995, 1.50395, 1.55004, 1.62467, 1.80226, 1.63501, 1.4923, 1.34293, 1.29118, 1.29821, 1.32293, 1.30919, 1.32028, 1.29802, 1.29361, 1.29225, 1.30183, 1.28914, 1.28738, 1.28917, 1.28915, 1.30554, 1.28537, 1.28468, 1.2844, 1.28201, 1.28016
1.61415, 1.61276, 1.61039, 1.60969, 1.60674, 1.60386, 1.60126, 1.59886, 1.5979, 1.59521, 1.59069, 1.5888, 1.58628, 1.58639, 1.59673, 1.59893, 1.58289, 1.58167, 1.59533, 1.58747, 1.58366, 1.58471, 1.57788, 1.57608, 1.5833, 1.56969, 1.58278, 1.6213, 1.69376, 1.77476, 1.83809, 1.92693, 1.93643, 1.66348, 1.53784, 1.52383, 1.54891, 1.55032, 1.55123, 1.54375, 1.54702, 1.55129, 1.53448, 1.5327, 1.55797, 1.52947, 1.52695, 1.52904, 1.5219, 1.5199, 1.53265, 1.52314, 1.53069, 1.51085, 1.50617, 1.50373, 1.50258, 1.50063, 1.50041, 1.49876, 1.49751, 1.4956, 1.49487, 1.49477, 1.49181, 1.49186, 1.49067, 1.48809, 1.48484, 1.48221, 1.47803, 1.47807, 1.47477, 1.47295, 1.4711, 1.46872, 1.46812, 1.46563, 1.46294, 1.46333, 1.45866, 1.46825, 1.45748, 1.45775, 1.45452, 1.45034, 1.44933, 1.44754, 1.44731, 1.44738, 1.44525, 1.46189, 1.45865, 1.45867, 1.45181, 1.46451, 1.45118, 1.46775, 1.46904, 1.47378, 1.46868, 1.45474, 1.47821, 1.45408, 1.45624, 1.44724, 1.47147, 1.4696, 1.46287, 1.46857, 1.45175, 1.44746, 1.44991, 1.4238, 1.43688, 1.42207, 1.41204, 1.40833, 1.40931, 1.39597, 1.3945, 1.39227, 1.39009, 1.38866, 1.38871, 1.38832, 1.38766, 1.38788, 1.38648, 1.38557, 1.38448, 1.3829, 1.38192, 1.38108, 1.37614, 1.37428, 1.3722, 1.37128, 1.36913, 1.36732, 1.36401, 1.36425, 1.3629, 1.36332, 1.36033, 1.35931, 1.35858, 1.35631, 1.35664, 1.35367, 1.35259, 1.35132, 1.35172, 1.34902, 1.35544, 1.34892, 1.34788, 1.34696, 1.34758, 1.34528, 1.34415, 1.34201, 1.3412, 1.33841, 1.33922, 1.33696, 1.33368, 1.33128, 1.33345, 1.33101, 1.32837, 1.33006, 1.32813, 1.32897, 1.32711, 1.32671, 1.32675, 1.32492, 1.32616, 1.32524, 1.3216, 1.3391, 1.33913, 1.33745, 1.33361, 1.33106, 1.31941, 1.30068, 1.3236, 1.36576, 1.40208, 1.47058, 1.59631, 1.6555, 1.64412, 1.59902, 1.36534, 1.32201, 1.27873, 1.30968, 1.31518, 1.32284, 1.30459, 1.29862, 1.30257, 1.29314, 1.29207, 1.28991, 1.29183, 1.28934, 1.2883, 1.29572, 1.28729, 1.28537, 1.2864, 1.28063, 1.28184
1.60106, 1.61099, 1.5955, 1.59947, 1.59595, 1.5994, 1.58724, 1.61233, 1.58609, 1.58417, 1.59046, 1.5783, 1.57795, 1.57476, 1.57484, 1.57567, 1.57115, 1.57554, 1.5671, 1.56579, 1.57267, 1.57405, 1.56624, 1.57276, 1.58597, 1.5541, 1.5604, 1.64012, 1.66043, 1.72716, 1.83389, 1.90743, 1.94433, 1.70662, 1.5326, 1.5065, 1.52978, 1.54397, 1.5334, 1.52816, 1.54732, 1.52409, 1.52636, 1.51873, 1.51635, 1.50095, 1.51562, 1.51084, 1.51074, 1.50956, 1.53375, 1.50689, 1.50684, 1.50434, 1.5004, 1.50024, 1.49762, 1.49246, 1.49252, 1.49055, 1.48813, 1.48503, 1.48171, 1.47964, 1.47909, 1.47603, 1.47896, 1.47459, 1.471, 1.47002, 1.46847, 1.46538, 1.46261, 1.46175, 1.46137, 1.45708, 1.45741, 1.45499, 1.4569, 1.45422, 1.454, 1.45169, 1.45024, 1.44841, 1.45459, 1.44492, 1.44127, 1.44607, 1.46455, 1.45884, 1.43693, 1.45152, 1.4484, 1.44402, 1.44715, 1.45405, 1.45761, 1.46231, 1.45012, 1.45456, 1.46787, 1.4494, 1.46811, 1.46114, 1.45117, 1.44161, 1.4404, 1.48263, 1.4494, 1.46401, 1.43353, 1.42033, 1.41514, 1.41654, 1.40861, 1.40596, 1.39943, 1.39241, 1.38837, 1.40274, 1.39308, 1.38576, 1.3852, 1.38639, 1.38334, 1.39249, 1.38209, 1.41318, 1.38235, 1.38142, 1.37715, 1.37912, 1.39845, 1.37105, 1.36935, 1.3797, 1.36791, 1.36483, 1.36403, 1.36057, 1.35994, 1.35956, 1.3599, 1.35836, 1.35848, 1.35551, 1.3541, 1.35246, 1.35328, 1.34764, 1.349, 1.34359, 1.35133, 1.34021, 1.34323, 1.3364, 1.33461, 1.33672, 1.33691, 1.33392, 1.33374, 1.33199, 1.32927, 1.32752, 1.32897, 1.32389, 1.3223, 1.32177, 1.32275, 1.32099, 1.32129, 1.32074, 1.32135, 1.32012, 1.32115, 1.3213, 1.32746, 1.31309, 1.31201, 1.32182, 1.33347, 1.32901, 1.32937, 1.31855, 1.30691, 1.31607, 1.31586, 1.31364, 1.29279, 1.40271, 1.44393, 1.48226, 1.56873, 1.69992, 1.74992, 1.77663, 1.3685, 1.37113, 1.27501, 1.30015, 1.3163, 1.30718, 1.29996, 1.29007, 1.28836, 1.28463, 1.28597, 1.27844, 1.28377, 1.2813, 1.2803, 1.27784, 1.27814, 1.27837, 1.27392, 1.27205, 1.27171
1.58727, 1.58386, 1.5836, 1.5827, 1.5801, 1.57991, 1.57614, 1.58322, 1.5693, 1.56604, 1.56433, 1.56068, 1.55826, 1.55772, 1.55702, 1.55771, 1.55245, 1.55015, 1.55061, 1.54843, 1.56263, 1.54836, 1.55905, 1.55479, 1.55187, 1.51448, 1.56874, 1.63149, 1.66598, 1.72389, 1.85802, 1.93946, 1.94894, 1.88899, 1.52001, 1.49267, 1.50868, 1.51468, 1.51357, 1.51296, 1.51697, 1.5036, 1.50027, 1.49978, 1.51639, 1.49605, 1.49545, 1.4961, 1.49541, 1.49396, 1.49405, 1.4945, 1.49266, 1.49438, 1.48923, 1.48665, 1.48332, 1.48142, 1.48125, 1.47931, 1.47843, 1.47326, 1.46934, 1.46785, 1.46446, 1.46098, 1.45909, 1.45876, 1.45627, 1.45503, 1.45456, 1.45539, 1.45203, 1.44798, 1.44349, 1.44549, 1.44624, 1.44455, 1.44022, 1.43725, 1.4389, 1.43943, 1.44765, 1.42977, 1.43114, 1.42792, 1.42598, 1.42424, 1.42061, 1.42025, 1.41898, 1.41942, 1.42009, 1.43945, 1.43339, 1.44242, 1.42823, 1.43406, 1.44024, 1.4475, 1.44768, 1.4363, 1.46121, 1.43671, 1.41682, 1.42948, 1.43749, 1.42082, 1.43465, 1.42704, 1.42309, 1.40529, 1.40964, 1.39272, 1.38768, 1.38558, 1.39665, 1.38099, 1.38139, 1.36874, 1.36753, 1.36674, 1.36496, 1.36367, 1.36758, 1.36003, 1.36412, 1.37062, 1.3713, 1.37755, 1.36721, 1.36223, 1.35059, 1.35097, 1.35031, 1.34984, 1.34757, 1.34461, 1.34385, 1.34108, 1.33999, 1.33938, 1.33874, 1.33712, 1.33685, 1.33284, 1.33276, 1.33239, 1.33077, 1.33124, 1.32296, 1.32576, 1.32228, 1.32112, 1.31741, 1.31528, 1.31327, 1.31233, 1.31177, 1.31657, 1.32, 1.31899, 1.31914, 1.31335, 1.30364, 1.30194, 1.29991, 1.30021, 1.29938, 1.29996, 1.3019, 1.30204, 1.30322, 1.30286, 1.30308, 1.30186, 1.29742, 1.2961, 1.29366, 1.29302, 1.28895, 1.28653, 1.2861, 1.2881, 1.29842, 1.29186, 1.29821, 1.29518, 1.30549, 1.37505, 1.38521, 1.5138, 1.49886, 1.61515, 1.83454, 1.83182, 1.44895, 1.26826, 1.25004, 1.25037, 1.28846, 1.2856, 1.27927, 1.27787, 1.27853, 1.27524, 1.26894, 1.26733, 1.26402, 1.26716, 1.25718, 1.25477, 1.25198, 1.2532, 1.24976, 1.24795, 1.24777
