1.61402, 1.6241, 1.61947, 1.6029, 1.59986, 1.59897, 1.59643, 1.59032, 1.58959, 1.59298, 1.56942, 1.59719, 1.60686, 1.60672, 1.6553, 1.69204, 1.70332, 1.59264, 1.53077, 1.56777, 1.5487, 1.53715, 1.52429, 1.56481, 1.53523, 1.53117, 1.52406, 1.51116, 1.50774, 1.50521, 1.50292, 1.50147, 1.49806, 1.4969, 1.49184, 1.48605, 1.48274, 1.48031, 1.47578, 1.47321, 1.51666, 1.4645, 1.45887, 1.45577, 1.45428, 1.45676, 1.45164, 1.45784, 1.45325, 1.41665, 1.44762, 1.55405, 1.6885, 1.7799, 1.65569, 1.41364, 1.41266, 1.4229, 1.41552, 1.41318, 1.41202, 1.40583, 1.40192, 1.40222, 1.39554, 1.39261, 1.38996, 1.38905, 1.38167, 1.37841, 1.37421, 1.37515, 1.37045, 1.36739, 1.36269, 1.35934, 1.35794, 1.3559, 1.35608, 1.3544, 1.35098, 1.35794, 1.34057, 1.34375, 1.33456, 1.33062, 1.32835, 1.33022, 1.32487, 1.31991, 1.31946, 1.31851, 1.31496, 1.31362, 1.31932, 1.32204, 1.33629, 1.34182, 1.33964, 1.33384, 1.35617, 1.34461, 1.3782, 1.33093, 1.30942, 1.32025, 1.30235, 1.28598, 1.28001, 1.27836, 1.2777, 1.2746, 1.2827, 1.27533, 1.29135, 
1.65821, 1.65974, 1.63438, 1.61437, 1.61214, 1.60568, 1.60419, 1.60023, 1.60247, 1.60088, 1.59053, 1.61592, 1.63443, 1.65725, 1.65578, 1.70913, 1.68148, 1.6343, 1.559, 1.56171, 1.56251, 1.55287, 1.54254, 1.54323, 1.54349, 1.55809, 1.53062, 1.52635, 1.5203, 1.53305, 1.51084, 1.51017, 1.50368, 1.50214, 1.49665, 1.49398, 1.49283, 1.48846, 1.48558, 1.48299, 1.48905, 1.47577, 1.4824, 1.46453, 1.46258, 1.46286, 1.45976, 1.45705, 1.46853, 1.44007, 1.45517, 1.56527, 1.60737, 1.70587, 1.67984, 1.54782, 1.41256, 1.43683, 1.44511, 1.41668, 1.41423, 1.4079, 1.4069, 1.40287, 1.39973, 1.39551, 1.39385, 1.3956, 1.39205, 1.38987, 1.38741, 1.38966, 1.37788, 1.37715, 1.37244, 1.37051, 1.37062, 1.36495, 1.36617, 1.35721, 1.35637, 1.35248, 1.35112, 1.34755, 1.34968, 1.34657, 1.34398, 1.34344, 1.34458, 1.3416, 1.34034, 1.33295, 1.33505, 1.33146, 1.33408, 1.33757, 1.33383, 1.3369, 1.3438, 1.38399, 1.3441, 1.36475, 1.35372, 1.35276, 1.31303, 1.31149, 1.30517, 1.29629, 1.29016, 1.28477, 1.28292, 1.28266, 1.28143, 1.28201, 1.2825, 
1.63488, 1.66144, 1.64884, 1.64487, 1.6182, 1.61779, 1.61326, 1.6092, 1.60729, 1.61038, 1.59653, 1.66202, 1.65082, 1.69079, 1.69534, 1.72797, 1.66099, 1.65705, 1.56592, 1.57277, 1.57809, 1.5757, 1.55139, 1.54891, 1.56083, 1.54743, 1.56352, 1.54262, 1.53317, 1.52715, 1.52599, 1.52336, 1.51565, 1.51534, 1.50931, 1.50741, 1.50275, 1.49727, 1.49583, 1.49185, 1.49092, 1.48821, 1.48843, 1.48664, 1.48211, 1.48006, 1.47468, 1.48144, 1.48943, 1.44316, 1.47174, 1.60329, 1.69354, 1.71849, 1.68654, 1.55189, 1.44293, 1.46254, 1.45467, 1.44094, 1.43499, 1.42648, 1.42302, 1.42035, 1.42292, 1.41295, 1.40958, 1.4079, 1.40419, 1.40193, 1.39839, 1.39504, 1.39248, 1.39138, 1.39181, 1.38662, 1.38863, 1.38472, 1.37679, 1.37229, 1.36748, 1.36229, 1.36873, 1.35479, 1.36113, 1.34984, 1.35046, 1.34946, 1.34746, 1.34523, 1.34325, 1.34295, 1.34348, 1.34034, 1.34268, 1.34707, 1.34423, 1.34117, 1.3683, 1.36774, 1.38594, 1.39153, 1.42994, 1.39571, 1.32249, 1.3229, 1.32026, 1.31974, 1.30848, 1.31285, 1.30017, 1.29751, 1.29854, 1.29958, 1.29961, 
1.64585, 1.64386, 1.64267, 1.65526, 1.64683, 1.64796, 1.62422, 1.62747, 1.62333, 1.63166, 1.60316, 1.61913, 1.65588, 1.69741, 1.7075, 1.72759, 1.71943, 1.66104, 1.56847, 1.58207, 1.58082, 1.56478, 1.55953, 1.55322, 1.54789, 1.54207, 1.53827, 1.54989, 1.5569, 1.54098, 1.53479, 1.52948, 1.52347, 1.52173, 1.51927, 1.5151, 1.50982, 1.5036, 1.49986, 1.49937, 1.49663, 1.4986, 1.49308, 1.48709, 1.48428, 1.47963, 1.47541, 1.47463, 1.47507, 1.46493, 1.51614, 1.57889, 1.61624, 1.67502, 1.65578, 1.59399, 1.44292, 1.42617, 1.44695, 1.43752, 1.44137, 1.42488, 1.42447, 1.42054, 1.41688, 1.41526, 1.41463, 1.41327, 1.41255, 1.40555, 1.40464, 1.39989, 1.39465, 1.39221, 1.39053, 1.3906, 1.39139, 1.38706, 1.38678, 1.38605, 1.38202, 1.38229, 1.38069, 1.37073, 1.36992, 1.36482, 1.36242, 1.3639, 1.36252, 1.36094, 1.36017, 1.35715, 1.34703, 1.34255, 1.34316, 1.36, 1.34139, 1.35106, 1.38146, 1.38581, 1.40033, 1.41336, 1.40586, 1.40308, 1.30475, 1.32809, 1.32388, 1.32407, 1.31366, 1.31257, 1.32103, 1.30559, 1.30921, 1.30529, 1.29466, 
1.65616, 1.64586, 1.64157, 1.64441, 1.64844, 1.66859, 1.64619, 1.64335, 1.63142, 1.62593, 1.60325, 1.6614, 1.68214, 1.75352, 1.75869, 1.77328, 1.76323, 1.69393, 1.57424, 1.59065, 1.5925, 1.58197, 1.57467, 1.57399, 1.56617, 1.5614, 1.55544, 1.55216, 1.55859, 1.55859, 1.54545, 1.54828, 1.53429, 1.53359, 1.52426, 1.52465, 1.52263, 1.5184, 1.51223, 1.51251, 1.50643, 1.50461, 1.49907, 1.49755, 1.49211, 1.48975, 1.48922, 1.48573, 1.4965, 1.49964, 1.49975, 1.57592, 1.71048, 1.70042, 1.68632, 1.64925, 1.50386, 1.44961, 1.45124, 1.45049, 1.4415, 1.43904, 1.44054, 1.43013, 1.42684, 1.4261, 1.42086, 1.41937, 1.41853, 1.41736, 1.41498, 1.41222, 1.40622, 1.40548, 1.40268, 1.40144, 1.39681, 1.39728, 1.39263, 1.38911, 1.3864, 1.38749, 1.38507, 1.37642, 1.37447, 1.37343, 1.36971, 1.36957, 1.36664, 1.36772, 1.3648, 1.36407, 1.35889, 1.35927, 1.35589, 1.36749, 1.34433, 1.37102, 1.36375, 1.40116, 1.43714, 1.43771, 1.45058, 1.42908, 1.37098, 1.33039, 1.34032, 1.34139, 1.33303, 1.33367, 1.30983, 1.31274, 1.30512, 1.3061, 1.2999, 
1.6753, 1.6615, 1.65568, 1.65308, 1.64798, 1.64865, 1.66075, 1.65933, 1.63361, 1.63902, 1.63059, 1.61812, 1.69882, 1.70593, 1.76189, 1.77176, 1.75816, 1.721, 1.60574, 1.59287, 1.59763, 1.59135, 1.57588, 1.57934, 1.56941, 1.56427, 1.56202, 1.55965, 1.55701, 1.56192, 1.56887, 1.55979, 1.54944, 1.53939, 1.534, 1.52979, 1.52506, 1.54135, 1.51979, 1.51734, 1.51426, 1.50912, 1.507, 1.50348, 1.50276, 1.49705, 1.50328, 1.50624, 1.49726, 1.49509, 1.46715, 1.51544, 1.61295, 1.67534, 1.68049, 1.64924, 1.55729, 1.45226, 1.46783, 1.4692, 1.46548, 1.4532, 1.44803, 1.44118, 1.43779, 1.43519, 1.42955, 1.42543, 1.43355, 1.42262, 1.42072, 1.41712, 1.41614, 1.41248, 1.41136, 1.40982, 1.40928, 1.40571, 1.4059, 1.39745, 1.39484, 1.38973, 1.38754, 1.38246, 1.37825, 1.37513, 1.37278, 1.36881, 1.36579, 1.36372, 1.36049, 1.36195, 1.36063, 1.38234, 1.35845, 1.37445, 1.36391, 1.37881, 1.40299, 1.42865, 1.45935, 1.45821, 1.45822, 1.45323, 1.39955, 1.31254, 1.34336, 1.34119, 1.32668, 1.32794, 1.31908, 1.32703, 1.3268, 1.31307, 1.3142, 
1.66533, 1.66196, 1.65815, 1.65189, 1.65088, 1.64517, 1.65054, 1.66278, 1.67923, 1.65717, 1.64102, 1.62499, 1.68879, 1.74316, 1.78715, 1.80626, 1.79016, 1.71801, 1.58521, 1.59884, 1.59922, 1.58909, 1.58345, 1.58182, 1.57768, 1.57095, 1.5705, 1.56482, 1.56352, 1.55869, 1.56022, 1.56536, 1.57187, 1.5443, 1.53865, 1.53592, 1.53382, 1.53135, 1.52768, 1.52493, 1.52061, 1.51539, 1.511, 1.50816, 1.50278, 1.50092, 1.49721, 1.49838, 1.4996, 1.49954, 1.46866, 1.56626, 1.65038, 1.67247, 1.68131, 1.62677, 1.54795, 1.42967, 1.4689, 1.48284, 1.4551, 1.46053, 1.44694, 1.44488, 1.44349, 1.43964, 1.43377, 1.43431, 1.4317, 1.43162, 1.42834, 1.42299, 1.42373, 1.42076, 1.42062, 1.41658, 1.41244, 1.41136, 1.41266, 1.40642, 1.40461, 1.39997, 1.39609, 1.39297, 1.3909, 1.38615, 1.38436, 1.38198, 1.38594, 1.37582, 1.37125, 1.3848, 1.37043, 1.36946, 1.37215, 1.38131, 1.37196, 1.36413, 1.41125, 1.43511, 1.46601, 1.47097, 1.48324, 1.4603, 1.43198, 1.34929, 1.35153, 1.33374, 1.33047, 1.33065, 1.33133, 1.32942, 1.32912, 1.32647, 1.32331, 
1.67886, 1.6751, 1.67123, 1.66903, 1.66525, 1.66224, 1.65945, 1.66594, 1.65417, 1.67046, 1.6488, 1.61028, 1.61867, 1.64997, 1.8558, 1.80866, 1.83735, 1.78204, 1.60297, 1.61046, 1.60248, 1.59412, 1.6043, 1.60918, 1.58206, 1.57952, 1.57529, 1.57544, 1.57181, 1.56646, 1.55624, 1.54933, 1.5542, 1.56096, 1.56654, 1.5416, 1.5475, 1.53572, 1.53393, 1.53128, 1.52458, 1.51643, 1.51119, 1.50879, 1.50685, 1.50157, 1.50957, 1.51297, 1.50317, 1.51685, 1.49666, 1.57214, 1.57941, 1.64657, 1.64943, 1.60884, 1.56457, 1.44478, 1.43764, 1.47823, 1.47285, 1.45541, 1.45818, 1.46096, 1.44405, 1.44067, 1.43809, 1.43575, 1.43066, 1.42772, 1.42223, 1.41995, 1.42336, 1.4265, 1.42536, 1.41588, 1.41256, 1.41664, 1.41164, 1.4104, 1.40578, 1.40154, 1.39475, 1.39268, 1.39024, 1.39224, 1.38999, 1.38402, 1.37832, 1.38179, 1.37308, 1.38915, 1.37142, 1.37923, 1.36943, 1.36704, 1.36931, 1.34682, 1.4052, 1.44038, 1.4748, 1.52027, 1.49733, 1.48547, 1.46977, 1.35892, 1.35311, 1.34583, 1.34061, 1.3353, 1.33366, 1.33271, 1.32978, 1.32416, 1.32228, 
1.68119, 1.67582, 1.67048, 1.67012, 1.6664, 1.66515, 1.66207, 1.66084, 1.66395, 1.64114, 1.64388, 1.65414, 1.69033, 1.67926, 1.77528, 1.89131, 1.88839, 1.84908, 1.61566, 1.60987, 1.63413, 1.6199, 1.60237, 1.62017, 1.58339, 1.5795, 1.57917, 1.57793, 1.5756, 1.56704, 1.56323, 1.56146, 1.55827, 1.5566, 1.55618, 1.58657, 1.56243, 1.54571, 1.5528, 1.53345, 1.54512, 1.52671, 1.53124, 1.54032, 1.52894, 1.51625, 1.51275, 1.51552, 1.5165, 1.51023, 1.48282, 1.52974, 1.61967, 1.68088, 1.66292, 1.65377, 1.55071, 1.49071, 1.46565, 1.47243, 1.48847, 1.49522, 1.48614, 1.46664, 1.46501, 1.46494, 1.44917, 1.44137, 1.4358, 1.42918, 1.43165, 1.43327, 1.43652, 1.43515, 1.42726, 1.42283, 1.42409, 1.41773, 1.40635, 1.39958, 1.39989, 1.41365, 1.39512, 1.39222, 1.38753, 1.38899, 1.3891, 1.39014, 1.39185, 1.39281, 1.38966, 1.37844, 1.38564, 1.37292, 1.38748, 1.3811, 1.3822, 1.37549, 1.3678, 1.38439, 1.44407, 1.494, 1.49655, 1.50684, 1.44326, 1.36513, 1.3629, 1.3629, 1.3507, 1.34021, 1.35414, 1.32709, 1.32268, 1.32409, 1.3237, 
1.67368, 1.66991, 1.66628, 1.66473, 1.67044, 1.65736, 1.64794, 1.64394, 1.66232, 1.64115, 1.63499, 1.6306, 1.63233, 1.66342, 1.72312, 1.84245, 1.87866, 1.82639, 1.64445, 1.57948, 1.60747, 1.60029, 1.59703, 1.5824, 1.58077, 1.59239, 1.58385, 1.57516, 1.56139, 1.55531, 1.55158, 1.55, 1.55857, 1.54303, 1.54073, 1.54162, 1.54476, 1.54548, 1.53789, 1.52273, 1.53333, 1.51873, 1.51269, 1.51824, 1.5241, 1.49807, 1.49399, 1.51094, 1.49961, 1.50702, 1.46169, 1.46124, 1.5824, 1.62128, 1.62298, 1.62719, 1.57165, 1.48285, 1.45435, 1.47128, 1.46085, 1.45182, 1.46005, 1.44982, 1.43658, 1.43303, 1.43242, 1.43377, 1.42966, 1.42977, 1.42774, 1.42455, 1.4229, 1.42669, 1.41677, 1.41221, 1.41003, 1.40884, 1.41035, 1.40769, 1.39873, 1.39323, 1.39005, 1.38705, 1.38568, 1.38086, 1.37787, 1.37457, 1.37562, 1.39918, 1.38133, 1.39609, 1.37451, 1.3746, 1.37618, 1.37467, 1.3673, 1.3531, 1.34261, 1.40505, 1.42962, 1.52138, 1.55689, 1.52018, 1.47479, 1.39538, 1.34713, 1.34732, 1.341, 1.32962, 1.32605, 1.34002, 1.33113, 1.32659, 1.31767, 
1.6549, 1.65477, 1.64186, 1.63712, 1.63441, 1.63237, 1.62711, 1.62422, 1.62076, 1.61817, 1.6163, 1.6231, 1.62603, 1.70495, 1.74335, 1.86632, 1.88217, 1.81536, 1.59545, 1.59526, 1.587, 1.58908, 1.57186, 1.5694, 1.57565, 1.55752, 1.55383, 1.54942, 1.5473, 1.5467, 1.54403, 1.54107, 1.53434, 1.52763, 1.52462, 1.52179, 1.5198, 1.52422, 1.5395, 1.51674, 1.50688, 1.50508, 1.50278, 1.50225, 1.49811, 1.50523, 1.50988, 1.48864, 1.48525, 1.49356, 1.45365, 1.48001, 1.5575, 1.61659, 1.6104, 1.6106, 1.58912, 1.53288, 1.4384, 1.45796, 1.45925, 1.44567, 1.45133, 1.47868, 1.44864, 1.43182, 1.42694, 1.42187, 1.41747, 1.41378, 1.41172, 1.40845, 1.40497, 1.40408, 1.39973, 1.39693, 1.39551, 1.39264, 1.39136, 1.39122, 1.38551, 1.38656, 1.38294, 1.38099, 1.37541, 1.37247, 1.36801, 1.36173, 1.35977, 1.36021, 1.3581, 1.355, 1.35342, 1.35136, 1.3475, 1.34678, 1.34863, 1.35067, 1.36545, 1.42471, 1.456, 1.52107, 1.51489, 1.51712, 1.49275, 1.38539, 1.32423, 1.32482, 1.31742, 1.31379, 1.31399, 1.30681, 1.30541, 1.30651, 1.30521, 
1.65974, 1.6559, 1.6526, 1.64956, 1.64356, 1.64098, 1.63823, 1.6318, 1.62414, 1.62368, 1.62906, 1.63133, 1.59338, 1.62519, 1.7348, 1.83678, 1.86336, 1.86613, 1.64791, 1.56275, 1.59578, 1.58728, 1.58241, 1.57243, 1.57504, 1.56475, 1.55255, 1.54864, 1.5463, 1.54375, 1.54023, 1.5402, 1.53692, 1.53277, 1.52884, 1.52299, 1.5196, 1.52716, 1.51172, 1.52841, 1.52518, 1.50938, 1.49859, 1.5036, 1.49259, 1.48851, 1.48614, 1.48952, 1.4997, 1.49295, 1.4919, 1.4685, 1.50634, 1.55209, 1.5881, 1.60569, 1.58422, 1.51628, 1.42686, 1.46103, 1.4466, 1.44033, 1.43348, 1.43427, 1.44436, 1.44204, 1.43331, 1.43682, 1.41604, 1.41599, 1.41132, 1.41035, 1.40902, 1.40308, 1.40155, 1.3988, 1.39499, 1.39352, 1.38946, 1.38873, 1.38531, 1.38152, 1.38228, 1.37493, 1.37244, 1.37047, 1.36805, 1.36493, 1.3626, 1.36193, 1.36044, 1.35821, 1.35753, 1.35504, 1.35451, 1.34895, 1.36103, 1.35311, 1.34004, 1.40938, 1.45213, 1.50521, 1.58112, 1.56276, 1.49521, 1.43036, 1.34096, 1.33955, 1.33611, 1.32809, 1.31836, 1.31662, 1.31307, 1.3122, 1.30711, 
1.65813, 1.6516, 1.65109, 1.64359, 1.64522, 1.63445, 1.6307, 1.6369, 1.62152, 1.62073, 1.62067, 1.62737, 1.60977, 1.60001, 1.73768, 1.81375, 1.91522, 1.78864, 1.66512, 1.56509, 1.58872, 1.57777, 1.5722, 1.56708, 1.56291, 1.55744, 1.57534, 1.54809, 1.54546, 1.54188, 1.53829, 1.5386, 1.53367, 1.53415, 1.53346, 1.52383, 1.52053, 1.52596, 1.51696, 1.50917, 1.50762, 1.52376, 1.52733, 1.49865, 1.49604, 1.49614, 1.50978, 1.49099, 1.49308, 1.48509, 1.48421, 1.46175, 1.53537, 1.58574, 1.59563, 1.56765, 1.54757, 1.51258, 1.46429, 1.4542, 1.45615, 1.44701, 1.43985, 1.43361, 1.43131, 1.42805, 1.44379, 1.42967, 1.41689, 1.41188, 1.4104, 1.40925, 1.40581, 1.40519, 1.40594, 1.40214, 1.39874, 1.39577, 1.3921, 1.39619, 1.38883, 1.38515, 1.3806, 1.37894, 1.3749, 1.37064, 1.36742, 1.36231, 1.36095, 1.35704, 1.35503, 1.35372, 1.35425, 1.35183, 1.34868, 1.36092, 1.34775, 1.35209, 1.3291, 1.39098, 1.43491, 1.52367, 1.56282, 1.56167, 1.51647, 1.35039, 1.31371, 1.34188, 1.32948, 1.31554, 1.31563, 1.30825, 1.31031, 1.31094, 1.30902, 
1.65445, 1.65103, 1.64575, 1.64167, 1.63795, 1.63209, 1.62808, 1.62323, 1.61981, 1.61999, 1.61893, 1.61645, 1.61572, 1.61435, 1.68153, 1.80803, 1.98977, 2.11007, 1.71711, 1.54087, 1.59247, 1.57644, 1.56991, 1.5661, 1.5621, 1.55762, 1.55403, 1.5481, 1.54502, 1.54277, 1.54111, 1.53722, 1.53218, 1.53067, 1.52506, 1.52045, 1.51455, 1.51211, 1.50861, 1.50258, 1.50056, 1.50507, 1.50332, 1.53327, 1.50726, 1.49999, 1.48995, 1.49602, 1.48166, 1.48848, 1.49094, 1.46538, 1.52761, 1.56048, 1.59243, 1.54383, 1.54402, 1.5227, 1.49901, 1.44072, 1.44771, 1.44181, 1.43603, 1.43568, 1.42734, 1.42641, 1.43681, 1.43003, 1.41172, 1.40717, 1.413, 1.40351, 1.40184, 1.40209, 1.39876, 1.39564, 1.39206, 1.40158, 1.38782, 1.38821, 1.38516, 1.38395, 1.38241, 1.38005, 1.3764, 1.37463, 1.37102, 1.36794, 1.36634, 1.36252, 1.36, 1.35549, 1.35948, 1.35892, 1.35166, 1.34647, 1.34676, 1.35163, 1.34778, 1.35087, 1.4588, 1.49964, 1.59925, 1.60571, 1.54999, 1.358, 1.2852, 1.33837, 1.33326, 1.3159, 1.31521, 1.31417, 1.3159, 1.30846, 1.30364, 
1.65529, 1.65355, 1.64837, 1.64332, 1.63775, 1.64418, 1.63348, 1.64183, 1.62631, 1.61801, 1.61609, 1.61475, 1.64767, 1.61273, 1.70455, 1.83143, 1.9211, 1.93064, 1.72718, 1.56183, 1.47166, 1.58165, 1.57637, 1.5669, 1.55992, 1.55536, 1.55669, 1.55096, 1.54697, 1.5411, 1.5365, 1.53294, 1.52804, 1.51962, 1.51564, 1.52294, 1.51218, 1.50892, 1.50745, 1.50488, 1.50362, 1.50446, 1.50009, 1.49618, 1.50947, 1.53098, 1.51692, 1.48898, 1.49843, 1.47991, 1.46976, 1.45703, 1.52392, 1.5385, 1.54813, 1.52744, 1.5326, 1.51964, 1.49597, 1.44385, 1.46863, 1.44241, 1.4548, 1.46563, 1.47407, 1.47182, 1.46594, 1.42803, 1.4298, 1.41246, 1.40987, 1.40615, 1.40618, 1.40065, 1.39734, 1.39173, 1.38963, 1.38816, 1.38518, 1.3825, 1.38123, 1.3783, 1.37537, 1.37393, 1.3692, 1.36808, 1.367, 1.36392, 1.36415, 1.36253, 1.36045, 1.3577, 1.35525, 1.35195, 1.35, 1.35545, 1.3445, 1.35631, 1.35063, 1.32309, 1.43766, 1.48523, 1.58913, 1.59643, 1.43044, 1.37485, 1.3267, 1.33901, 1.32718, 1.32187, 1.31435, 1.32949, 1.3103, 1.30845, 1.30613, 
1.64713, 1.64341, 1.63733, 1.63758, 1.63762, 1.63542, 1.63446, 1.62967, 1.62251, 1.6194, 1.61894, 1.6096, 1.61831, 1.5831, 1.63831, 1.77666, 1.97241, 1.953, 1.59503, 1.55358, 1.60353, 1.58295, 1.5798, 1.57784, 1.57401, 1.56497, 1.56637, 1.55383, 1.54954, 1.54248, 1.53517, 1.53164, 1.52699, 1.52277, 1.51829, 1.51343, 1.50895, 1.50652, 1.50552, 1.50261, 1.50046, 1.4986, 1.49215, 1.49403, 1.4924, 1.49477, 1.48909, 1.51617, 1.51594, 1.50725, 1.50022, 1.48219, 1.51732, 1.52207, 1.52349, 1.48159, 1.50047, 1.51777, 1.52025, 1.44784, 1.46435, 1.44363, 1.44484, 1.43381, 1.42925, 1.4256, 1.42349, 1.41742, 1.41479, 1.41096, 1.41004, 1.40628, 1.40353, 1.40019, 1.39797, 1.39756, 1.39219, 1.39175, 1.39119, 1.38714, 1.38258, 1.3781, 1.37755, 1.37671, 1.37593, 1.37263, 1.37194, 1.36872, 1.36573, 1.36178, 1.3587, 1.35676, 1.35324, 1.35045, 1.34757, 1.3496, 1.3445, 1.35673, 1.35868, 1.3333, 1.44295, 1.53194, 1.60646, 1.6391, 1.50157, 1.40907, 1.30357, 1.33465, 1.33671, 1.32815, 1.31401, 1.31229, 1.31094, 1.30982, 1.30754, 
1.65076, 1.64214, 1.63713, 1.63144, 1.62934, 1.62702, 1.62302, 1.62085, 1.6152, 1.61207, 1.60677, 1.6068, 1.61239, 1.57537, 1.62101, 1.72427, 1.85558, 1.93157, 1.61147, 1.52716, 1.60845, 1.748, 1.76933, 1.60543, 1.60798, 1.58193, 1.57872, 1.56706, 1.54429, 1.53739, 1.53384, 1.53422, 1.5254, 1.52269, 1.52085, 1.516, 1.51137, 1.50705, 1.50331, 1.50257, 1.49579, 1.49331, 1.48924, 1.48725, 1.48224, 1.47935, 1.47524, 1.47161, 1.47955, 1.47919, 1.47585, 1.47571, 1.51628, 1.52959, 1.49678, 1.49255, 1.47279, 1.51969, 1.49563, 1.45739, 1.45137, 1.44768, 1.44003, 1.44047, 1.43972, 1.41816, 1.41338, 1.41204, 1.40943, 1.40815, 1.40685, 1.40787, 1.40516, 1.40244, 1.39639, 1.39158, 1.38876, 1.38521, 1.38223, 1.38116, 1.3788, 1.37744, 1.37447, 1.37168, 1.36879, 1.36554, 1.36411, 1.35936, 1.35718, 1.3519, 1.35049, 1.35031, 1.35097, 1.34542, 1.34316, 1.34275, 1.33861, 1.33831, 1.35712, 1.32335, 1.39931, 1.44054, 1.59628, 1.65912, 1.65258, 1.45125, 1.32301, 1.32984, 1.32075, 1.32025, 1.31614, 1.30727, 1.3241, 1.30365, 1.30423, 
1.63014, 1.62812, 1.6244, 1.62239, 1.62021, 1.61733, 1.61374, 1.61087, 1.60848, 1.60246, 1.60231, 1.59564, 1.59389, 1.59159, 1.61285, 1.6721, 1.83765, 1.88804, 1.70354, 1.55749, 1.56474, 1.56822, 1.56112, 1.55961, 1.55787, 1.55, 1.54753, 1.53449, 1.53046, 1.52404, 1.52255, 1.5192, 1.51422, 1.5104, 1.5066, 1.50307, 1.50056, 1.49803, 1.49605, 1.4926, 1.48683, 1.48243, 1.47525, 1.47243, 1.46924, 1.46812, 1.46699, 1.46421, 1.46237, 1.4643, 1.46832, 1.47446, 1.50792, 1.52762, 1.50992, 1.48264, 1.49887, 1.47339, 1.48691, 1.42424, 1.44666, 1.43823, 1.42908, 1.42715, 1.41921, 1.41538, 1.41169, 1.40746, 1.40245, 1.4066, 1.39722, 1.39471, 1.39131, 1.38772, 1.3826, 1.37945, 1.37776, 1.37714, 1.37281, 1.3732, 1.37341, 1.37116, 1.37195, 1.36837, 1.36432, 1.35578, 1.35749, 1.3506, 1.34712, 1.3466, 1.34625, 1.34407, 1.34305, 1.34154, 1.33873, 1.33486, 1.33276, 1.33167, 1.33326, 1.32763, 1.3637, 1.47324, 1.57187, 1.63835, 1.63175, 1.44365, 1.29484, 1.32331, 1.31261, 1.30361, 1.30226, 1.3009, 1.30107, 1.29886, 1.29608, 
1.63358, 1.6267, 1.62129, 1.61681, 1.61469, 1.61248, 1.60905, 1.60693, 1.60223, 1.59765, 1.59438, 1.58859, 1.59122, 1.59494, 1.5751, 1.69981, 1.81317, 1.70683, 1.71971, 1.54135, 1.58538, 1.57193, 1.55761, 1.556, 1.54824, 1.54268, 1.5477, 1.53402, 1.52722, 1.52328, 1.52362, 1.51814, 1.51598, 1.51581, 1.51023, 1.50656, 1.50293, 1.4968, 1.4939, 1.48873, 1.48463, 1.48161, 1.47837, 1.47406, 1.47182, 1.469, 1.46797, 1.46416, 1.4828, 1.46452, 1.46813, 1.46589, 1.47312, 1.48969, 1.4865, 1.45748, 1.45432, 1.46884, 1.4675, 1.45866, 1.44452, 1.42505, 1.4182, 1.41213, 1.40882, 1.4147, 1.40843, 1.40546, 1.4037, 1.39963, 1.40023, 1.39282, 1.38846, 1.38588, 1.38423, 1.38151, 1.38046, 1.38624, 1.37054, 1.36775, 1.36501, 1.36057, 1.35703, 1.35139, 1.35113, 1.34688, 1.3422, 1.34614, 1.34376, 1.34262, 1.34254, 1.37272, 1.34088, 1.33548, 1.33265, 1.35188, 1.33752, 1.32959, 1.33246, 1.32768, 1.31598, 1.47169, 1.50624, 1.66397, 1.50359, 1.39304, 1.26483, 1.32596, 1.30348, 1.30127, 1.30191, 1.2996, 1.29943, 1.29478, 1.29286, 
1.61715, 1.6164, 1.61008, 1.6092, 1.60355, 1.60697, 1.59662, 1.59716, 1.59531, 1.58727, 1.58613, 1.59736, 1.58346, 1.58271, 1.55487, 1.6521, 1.76193, 1.81467, 1.70513, 1.53131, 1.5565, 1.56177, 1.5534, 1.53517, 1.53299, 1.52704, 1.52143, 1.51948, 1.51549, 1.51148, 1.50794, 1.50299, 1.49804, 1.50258, 1.506, 1.51641, 1.4861, 1.48131, 1.48151, 1.47475, 1.47274, 1.46955, 1.46539, 1.46429, 1.46095, 1.45605, 1.45237, 1.4565, 1.44863, 1.44839, 1.46197, 1.44866, 1.45464, 1.47997, 1.48555, 1.47252, 1.45792, 1.45943, 1.45562, 1.45112, 1.43375, 1.43512, 1.41612, 1.41129, 1.39787, 1.40251, 1.39464, 1.39364, 1.38857, 1.38429, 1.38077, 1.38124, 1.37498, 1.38515, 1.36956, 1.3668, 1.36357, 1.36171, 1.35764, 1.35714, 1.35477, 1.35356, 1.34891, 1.34645, 1.34596, 1.3385, 1.33708, 1.33543, 1.33393, 1.33264, 1.33437, 1.33143, 1.32971, 1.32813, 1.33989, 1.32389, 1.33381, 1.34147, 1.33095, 1.33332, 1.28062, 1.43401, 1.47411, 1.69501, 1.7309, 1.40553, 1.2727, 1.30218, 1.29911, 1.29602, 1.2928, 1.3023, 1.28669, 1.28352, 1.28178, 
1.59351, 1.58996, 1.58402, 1.58525, 1.57918, 1.57561, 1.57054, 1.5663, 1.58194, 1.56854, 1.55563, 1.5516, 1.5523, 1.56539, 1.52897, 1.59173, 1.64594, 1.89501, 1.69392, 1.52339, 1.51865, 1.52346, 1.521, 1.51598, 1.50651, 1.50426, 1.50154, 1.49934, 1.49706, 1.4933, 1.48881, 1.48278, 1.47924, 1.47642, 1.47227, 1.46594, 1.46448, 1.45904, 1.45764, 1.45349, 1.48931, 1.45, 1.44765, 1.44662, 1.44465, 1.44047, 1.43069, 1.42992, 1.42711, 1.44731, 1.43716, 1.44729, 1.45144, 1.44192, 1.45415, 1.44729, 1.43381, 1.44107, 1.45444, 1.43047, 1.41341, 1.39796, 1.39468, 1.38178, 1.38821, 1.38229, 1.38859, 1.37805, 1.37506, 1.37522, 1.37001, 1.36486, 1.35854, 1.35243, 1.35177, 1.3515, 1.35314, 1.34768, 1.34534, 1.33967, 1.3327, 1.32699, 1.32684, 1.33345, 1.32121, 1.32969, 1.32582, 1.32345, 1.31599, 1.31175, 1.30611, 1.30703, 1.30856, 1.3307, 1.30683, 1.30301, 1.30236, 1.30166, 1.30658, 1.30351, 1.27657, 1.27687, 1.44905, 1.55856, 1.4484, 1.36305, 1.25426, 1.28611, 1.28582, 1.27918, 1.27416, 1.27752, 1.27683, 1.2921, 1.26805, 
1.60386, 1.59999, 1.5964, 1.59428, 1.59194, 1.58694, 1.58484, 1.57781, 1.57464, 1.57094, 1.56656, 1.56719, 1.57276, 1.57792, 1.56467, 1.57587, 1.68872, 1.86742, 2.01795, 1.53358, 1.5407, 1.53602, 1.52374, 1.51436, 1.51376, 1.51419, 1.51127, 1.50563, 1.50582, 1.49173, 1.48609, 1.48565, 1.53398, 1.48625, 1.49183, 1.48163, 1.47599, 1.47504, 1.46951, 1.46135, 1.45708, 1.45404, 1.4617, 1.44839, 1.4424, 1.44792, 1.45868, 1.43694, 1.43513, 1.43605, 1.44903, 1.44088, 1.46076, 1.44345, 1.44497, 1.45652, 1.43296, 1.43995, 1.44689, 1.44396, 1.43092, 1.40939, 1.41468, 1.3934, 1.38675, 1.38784, 1.38423, 1.38254, 1.37826, 1.37709, 1.37561, 1.3681, 1.36779, 1.36256, 1.35874, 1.3554, 1.35767, 1.35489, 1.35102, 1.3451, 1.34108, 1.34043, 1.33739, 1.33617, 1.33365, 1.33026, 1.32905, 1.32544, 1.32308, 1.32172, 1.32625, 1.3228, 1.31289, 1.32797, 1.31291, 1.32661, 1.31302, 1.31641, 1.31255, 1.30873, 1.31225, 1.3572, 1.38205, 1.66051, 1.61824, 1.58828, 1.30934, 1.30192, 1.30278, 1.29404, 1.28505, 1.28134, 1.29877, 1.29088, 1.28814, 
1.58512, 1.58318, 1.57997, 1.57819, 1.57722, 1.57457, 1.56739, 1.56127, 1.56036, 1.55915, 1.55832, 1.55548, 1.55289, 1.56493, 1.55221, 1.54074, 1.64033, 1.87299, 1.72197, 1.51815, 1.51202, 1.51376, 1.50725, 1.52934, 1.51019, 1.50293, 1.50024, 1.50233, 1.49132, 1.48766, 1.48283, 1.47838, 1.47409, 1.47562, 1.46722, 1.46156, 1.45985, 1.45757, 1.4544, 1.44873, 1.44804, 1.44319, 1.44346, 1.44048, 1.44112, 1.43618, 1.43181, 1.42934, 1.43113, 1.43112, 1.44713, 1.43758, 1.44042, 1.43674, 1.44177, 1.43123, 1.42796, 1.4269, 1.41769, 1.42241, 1.40593, 1.40422, 1.41, 1.37861, 1.37745, 1.37811, 1.36795, 1.36632, 1.36382, 1.3615, 1.36049, 1.35823, 1.35554, 1.35181, 1.34956, 1.34949, 1.34625, 1.34211, 1.33803, 1.33438, 1.33612, 1.34374, 1.32678, 1.32631, 1.3259, 1.32108, 1.31656, 1.31405, 1.3094, 1.30676, 1.30647, 1.3024, 1.30182, 1.29971, 1.29589, 1.29554, 1.28964, 1.28525, 1.2811, 1.28261, 1.29678, 1.26558, 1.47777, 1.65139, 1.72415, 1.61337, 1.39532, 1.35389, 1.30147, 1.26733, 1.27162, 1.28657, 1.26534, 1.25761, 1.25873, 
1.58958, 1.58165, 1.57893, 1.57297, 1.57465, 1.56616, 1.56152, 1.55403, 1.55078, 1.55924, 1.54746, 1.54172, 1.54065, 1.54457, 1.55891, 1.54342, 1.67311, 1.71265, 1.7199, 1.52336, 1.50409, 1.50289, 1.51507, 1.50299, 1.52321, 1.49777, 1.49609, 1.48961, 1.49159, 1.47612, 1.47433, 1.46935, 1.49205, 1.46597, 1.46336, 1.46398, 1.45336, 1.44774, 1.44449, 1.44185, 1.43896, 1.44021, 1.43474, 1.43364, 1.43016, 1.42623, 1.42217, 1.41841, 1.42044, 1.43413, 1.42033, 1.42389, 1.42605, 1.43905, 1.43412, 1.43695, 1.42749, 1.41614, 1.41048, 1.41951, 1.39637, 1.39055, 1.38742, 1.38199, 1.37893, 1.36589, 1.36245, 1.36331, 1.37789, 1.35274, 1.35948, 1.34838, 1.35171, 1.34706, 1.3441, 1.34285, 1.33661, 1.33482, 1.33195, 1.32837, 1.33744, 1.35045, 1.32623, 1.31616, 1.31399, 1.31193, 1.31088, 1.30948, 1.30601, 1.30402, 1.34433, 1.30252, 1.29959, 1.29908, 1.32648, 1.31237, 1.30545, 1.28772, 1.30012, 1.29876, 1.28525, 1.25068, 1.31925, 1.77238, 1.79969, 1.49924, 1.31067, 1.26737, 1.26209, 1.26032, 1.25511, 1.25439, 1.25424, 1.24749, 1.24393, 
