1.62464, 1.61802, 1.62007, 1.60461, 1.6033, 1.6017, 1.60068, 1.59887, 1.59224, 1.58885, 1.58669, 1.5894, 1.59157, 1.60185, 1.59261, 1.59325, 1.57014, 1.57793, 1.58027, 1.5989, 1.60805, 1.60666, 1.62065, 1.61767, 1.65515, 1.65559, 1.68074, 1.6916, 1.67274, 1.59552, 1.54374, 1.53175, 1.56664, 1.56078, 1.55021, 1.53977, 1.53858, 1.54379, 1.53868, 1.55065, 1.56381, 1.54819, 1.53669, 1.52705, 1.52302, 1.52487, 1.51558, 1.51105, 1.51003, 1.50738, 1.50632, 1.50651, 1.50403, 1.50113, 1.50044, 1.49892, 1.49879, 1.49807, 1.49458, 1.49259, 1.49166, 1.48921, 1.49659, 1.48266, 1.48125, 1.47938, 1.47734, 1.47556, 1.47819, 1.47205, 1.47024, 1.46628, 1.46333, 1.46292, 1.45824, 1.45902, 1.45559, 1.46884, 1.45273, 1.45554, 1.45167, 1.45142, 1.45679, 1.45882, 1.45203, 1.46138, 1.41862, 1.43999, 1.49799, 1.5365, 1.64818, 1.70636, 1.76928, 1.78068, 1.70617, 1.65695, 1.53097, 1.41971, 1.40287, 1.42464, 1.42345, 1.42487, 1.41567, 1.41313, 1.4162, 1.42648, 1.41374, 1.40644, 1.41292, 1.4025, 1.40144, 1.39987, 1.39739, 1.39486, 1.3941, 1.39199, 1.39176, 1.39049, 1.38812, 1.3841, 1.38073, 1.37902, 1.37833, 1.37446, 1.37485, 1.37581, 1.37063, 1.37006, 1.36759, 1.3637, 1.36317, 1.36332, 1.36038, 1.35942, 1.3583, 1.35617, 1.35757, 1.37773, 1.35798, 1.35168, 1.35064, 1.35393, 1.35743, 1.33944, 1.34169, 1.34366, 1.34328, 1.33807, 1.33416, 1.33155, 1.33564, 1.32891, 1.33055, 1.33058, 1.32462, 1.32649, 1.32108, 1.3212, 1.32133, 1.31849, 1.31959, 1.3155, 1.31652, 1.31463, 1.31372, 1.32295, 1.32058, 1.32267, 1.33751, 1.3368, 1.32533, 1.3411, 1.35818, 1.33917, 1.33774, 1.36152, 1.35532, 1.33357, 1.34484, 1.34913, 1.37789, 1.33539, 1.3299, 1.30966, 1.30934, 1.31872, 1.30446, 1.29646, 1.29265, 1.28627, 1.29157, 1.28211, 1.28184, 1.27941, 1.27794, 1.2818, 1.28049, 1.28758, 1.29587, 1.27785, 1.27616, 1.29439, 1.30168, 1.30519, 
1.64188, 1.64019, 1.63973, 1.63897, 1.62404, 1.65101, 1.64822, 1.64073, 1.63375, 1.64384, 1.62721, 1.6171, 1.61546, 1.61745, 1.62029, 1.61717, 1.60748, 1.60268, 1.63395, 1.63977, 1.66932, 1.66463, 1.68967, 1.71578, 1.73802, 1.74108, 1.74444, 1.71493, 1.67645, 1.66867, 1.61903, 1.5576, 1.57799, 1.5764, 1.57118, 1.567, 1.56473, 1.56131, 1.55605, 1.55591, 1.5515, 1.55011, 1.55413, 1.54166, 1.5401, 1.55636, 1.54048, 1.5469, 1.55217, 1.54008, 1.53523, 1.53628, 1.53479, 1.53067, 1.52832, 1.52727, 1.52617, 1.52285, 1.52275, 1.52094, 1.5147, 1.51537, 1.51171, 1.50795, 1.50391, 1.5033, 1.50192, 1.4991, 1.49912, 1.49675, 1.49418, 1.49503, 1.49264, 1.48985, 1.48836, 1.4871, 1.48646, 1.49955, 1.49832, 1.48269, 1.47852, 1.47635, 1.4748, 1.474, 1.48488, 1.47932, 1.44543, 1.46408, 1.48673, 1.53128, 1.5954, 1.63903, 1.6619, 1.69513, 1.68779, 1.59779, 1.60009, 1.44783, 1.44496, 1.41762, 1.43776, 1.44445, 1.44077, 1.43983, 1.43676, 1.43396, 1.43731, 1.4251, 1.42677, 1.43665, 1.4227, 1.42075, 1.4189, 1.41898, 1.41747, 1.41635, 1.41493, 1.40959, 1.41228, 1.411, 1.41018, 1.40844, 1.40891, 1.40401, 1.40096, 1.39851, 1.39571, 1.3926, 1.39503, 1.3931, 1.39178, 1.39179, 1.39181, 1.39265, 1.39208, 1.39142, 1.39264, 1.39193, 1.39039, 1.38768, 1.3838, 1.38126, 1.3785, 1.37772, 1.37721, 1.37521, 1.37396, 1.36951, 1.36604, 1.36334, 1.36305, 1.36265, 1.36051, 1.36212, 1.36021, 1.3593, 1.35994, 1.36013, 1.35691, 1.35746, 1.35138, 1.35001, 1.34754, 1.34486, 1.34263, 1.3397, 1.34353, 1.34508, 1.34503, 1.35347, 1.33088, 1.34694, 1.36932, 1.39741, 1.38087, 1.38423, 1.3888, 1.38406, 1.39825, 1.40971, 1.40626, 1.42687, 1.38658, 1.34304, 1.30897, 1.33927, 1.33282, 1.34442, 1.32765, 1.31517, 1.31598, 1.31267, 1.31331, 1.31013, 1.31648, 1.30855, 1.30512, 1.30048, 1.30707, 1.29714, 1.29573, 1.29543, 1.29723, 1.2963, 
1.66468, 1.66107, 1.65958, 1.65759, 1.65601, 1.65188, 1.65334, 1.64974, 1.65132, 1.64823, 1.65519, 1.66238, 1.67067, 1.65607, 1.65902, 1.65426, 1.64424, 1.60974, 1.64354, 1.67207, 1.69615, 1.724, 1.73518, 1.76775, 1.85421, 1.80727, 1.81489, 1.78655, 1.74388, 1.68297, 1.61712, 1.58158, 1.59908, 1.60886, 1.61039, 1.59604, 1.59025, 1.58623, 1.58404, 1.58366, 1.59383, 1.57861, 1.57596, 1.57497, 1.57258, 1.57177, 1.57017, 1.56956, 1.576, 1.58603, 1.57796, 1.56245, 1.55834, 1.56567, 1.57419, 1.56302, 1.56036, 1.54624, 1.54062, 1.53885, 1.53809, 1.53708, 1.53977, 1.53357, 1.53268, 1.53192, 1.52986, 1.52697, 1.5265, 1.52306, 1.52015, 1.53637, 1.52218, 1.52519, 1.51238, 1.51118, 1.50916, 1.50684, 1.50603, 1.50457, 1.50318, 1.50206, 1.50045, 1.50029, 1.50236, 1.51363, 1.52755, 1.47197, 1.48822, 1.54421, 1.58442, 1.63096, 1.69253, 1.6697, 1.67799, 1.67632, 1.63451, 1.62588, 1.54195, 1.48997, 1.45878, 1.46701, 1.47255, 1.47518, 1.46125, 1.46067, 1.47488, 1.46296, 1.46892, 1.45771, 1.46497, 1.44996, 1.44834, 1.46575, 1.451, 1.44363, 1.44074, 1.43937, 1.43846, 1.4376, 1.43534, 1.43438, 1.43317, 1.4301, 1.4295, 1.4257, 1.4247, 1.42174, 1.42578, 1.41921, 1.41798, 1.4161, 1.41549, 1.41405, 1.41218, 1.41155, 1.41015, 1.40823, 1.40652, 1.40562, 1.40245, 1.405, 1.40016, 1.39695, 1.40182, 1.39098, 1.38799, 1.38647, 1.38867, 1.3857, 1.39219, 1.38195, 1.37966, 1.37813, 1.37848, 1.37933, 1.37643, 1.37606, 1.37389, 1.37333, 1.37165, 1.37192, 1.37209, 1.37204, 1.37145, 1.37222, 1.37942, 1.38528, 1.38753, 1.38906, 1.36945, 1.35756, 1.41598, 1.44478, 1.44371, 1.45584, 1.45303, 1.44797, 1.47877, 1.47393, 1.47006, 1.45437, 1.42572, 1.42258, 1.38447, 1.33951, 1.34192, 1.35079, 1.34864, 1.34545, 1.348, 1.32897, 1.32949, 1.32955, 1.3314, 1.32873, 1.35118, 1.33966, 1.32556, 1.32281, 1.3275, 1.32356, 1.32247, 1.32036, 
1.66297, 1.66028, 1.65546, 1.65399, 1.6544, 1.67906, 1.65099, 1.6608, 1.65119, 1.65985, 1.6555, 1.65044, 1.63647, 1.63406, 1.63745, 1.6346, 1.63439, 1.65062, 1.6368, 1.62702, 1.649, 1.66975, 1.72537, 1.74933, 1.78035, 1.81686, 1.82827, 1.83577, 1.81461, 1.72504, 1.70665, 1.64712, 1.58572, 1.60986, 1.59778, 1.60879, 1.60297, 1.59015, 1.59841, 1.5784, 1.57452, 1.5723, 1.58297, 1.56761, 1.58575, 1.56026, 1.55754, 1.55379, 1.552, 1.55787, 1.56116, 1.55407, 1.55449, 1.5481, 1.54491, 1.54183, 1.54143, 1.54611, 1.5455, 1.54453, 1.54081, 1.56815, 1.56955, 1.54246, 1.55142, 1.53079, 1.53051, 1.53556, 1.52636, 1.51682, 1.51856, 1.51401, 1.53469, 1.51034, 1.51538, 1.5147, 1.52703, 1.51349, 1.51361, 1.50578, 1.4985, 1.50728, 1.49235, 1.50012, 1.50922, 1.50364, 1.49847, 1.48846, 1.46219, 1.52029, 1.56, 1.57242, 1.58619, 1.61373, 1.62746, 1.62684, 1.61642, 1.59297, 1.57597, 1.53764, 1.48953, 1.44488, 1.44734, 1.45887, 1.46261, 1.46475, 1.47155, 1.48189, 1.46957, 1.46743, 1.45154, 1.45027, 1.43956, 1.43868, 1.43899, 1.43624, 1.42863, 1.42766, 1.42746, 1.4269, 1.42646, 1.42983, 1.43123, 1.43054, 1.42955, 1.42819, 1.42408, 1.42052, 1.41834, 1.41721, 1.41699, 1.41719, 1.41336, 1.40735, 1.40623, 1.40437, 1.40509, 1.40681, 1.40518, 1.40144, 1.39654, 1.39496, 1.39536, 1.38905, 1.38712, 1.3854, 1.3866, 1.38781, 1.38692, 1.38268, 1.38159, 1.37536, 1.37837, 1.37784, 1.37786, 1.3745, 1.37278, 1.37118, 1.37131, 1.37435, 1.37393, 1.37266, 1.36921, 1.36738, 1.36472, 1.36393, 1.36101, 1.36171, 1.3691, 1.37229, 1.37148, 1.35387, 1.36802, 1.39901, 1.3908, 1.44755, 1.47835, 1.4904, 1.50194, 1.51368, 1.52742, 1.50984, 1.49606, 1.47596, 1.44877, 1.356, 1.33839, 1.36439, 1.35846, 1.33991, 1.34165, 1.33338, 1.33061, 1.33014, 1.32836, 1.3259, 1.3222, 1.33066, 1.32325, 1.32381, 1.33208, 1.32244, 1.32162, 1.32021, 
1.65379, 1.65085, 1.64999, 1.64703, 1.64479, 1.64145, 1.64058, 1.6376, 1.63418, 1.63296, 1.63091, 1.62889, 1.62862, 1.62645, 1.62364, 1.62135, 1.62049, 1.61997, 1.63277, 1.62356, 1.59568, 1.62074, 1.65989, 1.69634, 1.73557, 1.76755, 1.80748, 1.8632, 1.94831, 1.89745, 1.80158, 1.58319, 1.57986, 1.56818, 1.5868, 1.58201, 1.57999, 1.57364, 1.56961, 1.56881, 1.5645, 1.56943, 1.56127, 1.55861, 1.55758, 1.55828, 1.56115, 1.55375, 1.55286, 1.5512, 1.54807, 1.5471, 1.54464, 1.54185, 1.53783, 1.5369, 1.53548, 1.53459, 1.53197, 1.52957, 1.52811, 1.52603, 1.52285, 1.52042, 1.5183, 1.51486, 1.51328, 1.51282, 1.51115, 1.51712, 1.52313, 1.52168, 1.51571, 1.51602, 1.49859, 1.49801, 1.49687, 1.50093, 1.49326, 1.49141, 1.48956, 1.48811, 1.48598, 1.48584, 1.49373, 1.493, 1.48527, 1.49114, 1.45738, 1.45778, 1.49381, 1.52065, 1.56098, 1.58208, 1.57159, 1.57766, 1.61628, 1.58613, 1.57291, 1.56229, 1.51962, 1.48099, 1.44709, 1.461, 1.46172, 1.45272, 1.45054, 1.44064, 1.43732, 1.43486, 1.43409, 1.43336, 1.43268, 1.43813, 1.45425, 1.45481, 1.45436, 1.42254, 1.42664, 1.41885, 1.42309, 1.41269, 1.41211, 1.40939, 1.40871, 1.4073, 1.40542, 1.40508, 1.40571, 1.40256, 1.4015, 1.40013, 1.3999, 1.39995, 1.39685, 1.39534, 1.39372, 1.39575, 1.39072, 1.38854, 1.38731, 1.38485, 1.38311, 1.38316, 1.37876, 1.37753, 1.37568, 1.37319, 1.37121, 1.36987, 1.36803, 1.36789, 1.36527, 1.36472, 1.36376, 1.36298, 1.36078, 1.36071, 1.35915, 1.35974, 1.35712, 1.3568, 1.35536, 1.35385, 1.35231, 1.3499, 1.34853, 1.34555, 1.34519, 1.34633, 1.35482, 1.34979, 1.3343, 1.3224, 1.40998, 1.41097, 1.44432, 1.49281, 1.54432, 1.38841, 1.38602, 1.5646, 1.5509, 1.50891, 1.37844, 1.345, 1.302, 1.32968, 1.33893, 1.33262, 1.33135, 1.3282, 1.32705, 1.32367, 1.32533, 1.31888, 1.32639, 1.31948, 1.31508, 1.31477, 1.31305, 1.31243, 1.31009, 1.30868, 
1.65203, 1.6508, 1.64931, 1.64555, 1.64384, 1.64087, 1.63945, 1.63664, 1.63262, 1.62991, 1.62906, 1.62635, 1.62167, 1.61899, 1.61687, 1.61448, 1.60976, 1.60911, 1.60992, 1.61637, 1.61017, 1.58589, 1.59914, 1.68951, 1.74358, 1.84313, 1.83064, 1.93518, 1.93927, 1.94573, 1.78721, 1.62677, 1.56531, 1.56351, 1.58662, 1.58819, 1.57692, 1.58333, 1.57248, 1.56871, 1.56483, 1.5609, 1.55992, 1.55601, 1.55443, 1.55116, 1.55922, 1.5458, 1.54185, 1.5396, 1.53967, 1.53599, 1.53297, 1.53205, 1.54099, 1.52535, 1.52371, 1.51708, 1.51586, 1.51454, 1.51124, 1.50981, 1.50885, 1.50706, 1.50477, 1.50488, 1.50576, 1.50431, 1.50254, 1.5008, 1.49999, 1.4996, 1.49813, 1.49765, 1.49694, 1.49359, 1.49306, 1.49613, 1.51216, 1.53752, 1.52732, 1.53477, 1.5014, 1.48373, 1.48327, 1.47903, 1.48182, 1.4893, 1.46603, 1.45832, 1.47994, 1.48518, 1.50178, 1.53922, 1.55166, 1.52627, 1.51311, 1.54739, 1.53385, 1.56754, 1.53802, 1.51708, 1.46603, 1.45044, 1.4541, 1.48607, 1.47955, 1.49089, 1.49627, 1.49331, 1.50966, 1.49254, 1.45993, 1.45824, 1.45243, 1.4368, 1.43424, 1.44037, 1.43789, 1.421, 1.41701, 1.41524, 1.41336, 1.41052, 1.40865, 1.40767, 1.40522, 1.40333, 1.40213, 1.40126, 1.39811, 1.39582, 1.39482, 1.3914, 1.39053, 1.38695, 1.38653, 1.38422, 1.38284, 1.38301, 1.37847, 1.37846, 1.37729, 1.37583, 1.37487, 1.37258, 1.37152, 1.37516, 1.36722, 1.36699, 1.36678, 1.36574, 1.36422, 1.36412, 1.36092, 1.36068, 1.36134, 1.35845, 1.35662, 1.35473, 1.35501, 1.35264, 1.35021, 1.34938, 1.34722, 1.34562, 1.3454, 1.34475, 1.34344, 1.34051, 1.3414, 1.35674, 1.35427, 1.33408, 1.3297, 1.37804, 1.39955, 1.46896, 1.50936, 1.56513, 1.59044, 1.65409, 1.6263, 1.56848, 1.45313, 1.38085, 1.31616, 1.32679, 1.32785, 1.33791, 1.32965, 1.31657, 1.3158, 1.31598, 1.31587, 1.31496, 1.31306, 1.31178, 1.30953, 1.30763, 1.30692, 1.30568, 1.30338, 1.30188, 
1.62794, 1.6274, 1.62975, 1.62363, 1.623, 1.62164, 1.6241, 1.61935, 1.61875, 1.61683, 1.61483, 1.61417, 1.61023, 1.60679, 1.60464, 1.60824, 1.60343, 1.59881, 1.59666, 1.59576, 1.59539, 1.59594, 1.59587, 1.58207, 1.58401, 1.67965, 1.78206, 1.7937, 1.79747, 1.7616, 1.76244, 1.66892, 1.54257, 1.53374, 1.53403, 1.56708, 1.57369, 1.55833, 1.57192, 1.5646, 1.55498, 1.55362, 1.5497, 1.55479, 1.54791, 1.54377, 1.54095, 1.53743, 1.53496, 1.5335, 1.58118, 1.52793, 1.5269, 1.52336, 1.52291, 1.51717, 1.51458, 1.51226, 1.51096, 1.50851, 1.50563, 1.50452, 1.5023, 1.50107, 1.49857, 1.49667, 1.49493, 1.49265, 1.49138, 1.49075, 1.48917, 1.48704, 1.48244, 1.4796, 1.4769, 1.47745, 1.47309, 1.47912, 1.47104, 1.46966, 1.46766, 1.4675, 1.46428, 1.46226, 1.46288, 1.46314, 1.46461, 1.47395, 1.46459, 1.45831, 1.48514, 1.48839, 1.50028, 1.50606, 1.51357, 1.51739, 1.49906, 1.4695, 1.48939, 1.49064, 1.48963, 1.48143, 1.50568, 1.46821, 1.44455, 1.45081, 1.45463, 1.448, 1.43603, 1.42928, 1.433, 1.42217, 1.41921, 1.41738, 1.41408, 1.4122, 1.4126, 1.40914, 1.40818, 1.40685, 1.41657, 1.40191, 1.40279, 1.40504, 1.39862, 1.39615, 1.39204, 1.39019, 1.38909, 1.38761, 1.3866, 1.38457, 1.3826, 1.3797, 1.37826, 1.3767, 1.37729, 1.37432, 1.37297, 1.3739, 1.37478, 1.37429, 1.37291, 1.37285, 1.37171, 1.36883, 1.36561, 1.3642, 1.36156, 1.35975, 1.35547, 1.35346, 1.35099, 1.34925, 1.3497, 1.34871, 1.34804, 1.34729, 1.3466, 1.34522, 1.34336, 1.34222, 1.34232, 1.34147, 1.33977, 1.33851, 1.33708, 1.33295, 1.33361, 1.33254, 1.33026, 1.33042, 1.33091, 1.34996, 1.33222, 1.29551, 1.35337, 1.37852, 1.41784, 1.52492, 1.55871, 1.59981, 1.67504, 1.66628, 1.53848, 1.42281, 1.29781, 1.30836, 1.32008, 1.32134, 1.31751, 1.30639, 1.30487, 1.30584, 1.31315, 1.30567, 1.30612, 1.30228, 1.30089, 1.29821, 1.29991, 1.2988, 1.29547, 1.29554, 
1.58782, 1.58678, 1.58241, 1.58208, 1.57995, 1.57918, 1.57611, 1.57582, 1.56955, 1.56647, 1.5645, 1.56115, 1.55824, 1.55795, 1.5572, 1.55829, 1.5514, 1.56445, 1.54865, 1.54857, 1.54882, 1.56478, 1.56543, 1.5582, 1.51532, 1.56188, 1.62046, 1.66574, 1.7672, 1.92544, 1.92712, 1.78926, 1.5347, 1.48938, 1.51184, 1.52013, 1.51349, 1.51107, 1.50593, 1.50522, 1.50184, 1.49892, 1.4971, 1.49616, 1.49571, 1.49534, 1.49657, 1.4952, 1.49446, 1.49329, 1.49269, 1.48959, 1.48877, 1.48404, 1.48131, 1.4792, 1.4772, 1.47429, 1.46982, 1.46841, 1.46559, 1.46276, 1.45912, 1.46036, 1.45715, 1.45464, 1.45342, 1.45051, 1.44788, 1.44645, 1.44545, 1.44552, 1.44674, 1.44374, 1.43787, 1.43876, 1.44044, 1.43781, 1.43133, 1.43018, 1.42998, 1.42655, 1.42454, 1.42093, 1.42008, 1.43325, 1.4202, 1.42078, 1.43976, 1.43235, 1.44807, 1.43747, 1.4292, 1.44135, 1.44517, 1.45737, 1.43931, 1.44527, 1.43205, 1.43258, 1.42573, 1.43596, 1.44983, 1.43409, 1.41699, 1.40963, 1.40134, 1.38934, 1.3868, 1.39326, 1.37785, 1.37269, 1.36899, 1.36805, 1.36669, 1.36523, 1.36508, 1.36496, 1.36343, 1.36587, 1.37089, 1.37265, 1.37191, 1.36493, 1.35843, 1.35508, 1.35632, 1.35017, 1.34798, 1.34505, 1.34423, 1.34288, 1.34289, 1.33906, 1.33942, 1.33869, 1.33749, 1.33355, 1.33251, 1.33247, 1.33047, 1.32707, 1.32485, 1.32638, 1.32105, 1.31849, 1.31637, 1.31431, 1.31271, 1.31152, 1.32377, 1.31853, 1.32169, 1.31736, 1.32233, 1.30466, 1.3019, 1.3004, 1.30059, 1.29964, 1.3009, 1.30172, 1.30321, 1.30317, 1.30181, 1.30088, 1.29645, 1.29438, 1.29445, 1.29247, 1.28965, 1.28747, 1.28597, 1.29509, 1.30175, 1.31314, 1.29929, 1.28457, 1.3276, 1.36817, 1.49993, 1.53065, 1.62206, 1.89085, 1.48212, 1.43056, 1.27785, 1.25326, 1.2549, 1.29307, 1.28731, 1.2809, 1.27859, 1.27467, 1.27369, 1.27229, 1.25697, 1.2644, 1.25785, 1.26441, 1.25297, 1.25687, 1.25476, 1.24967, 
1.58264, 1.58254, 1.57928, 1.61183, 1.57479, 1.5727, 1.56931, 1.57019, 1.56639, 1.57791, 1.56078, 1.55367, 1.55409, 1.55137, 1.56459, 1.55157, 1.5488, 1.54482, 1.54438, 1.5482, 1.54053, 1.54694, 1.53818, 1.5437, 1.55845, 1.52165, 1.5685, 1.64856, 1.70472, 1.68718, 1.6854, 1.75126, 1.73596, 1.52275, 1.50219, 1.50419, 1.50105, 1.50752, 1.51846, 1.51997, 1.50276, 1.51357, 1.50612, 1.50021, 1.49893, 1.49541, 1.49315, 1.49012, 1.48722, 1.48214, 1.47634, 1.47579, 1.47724, 1.47076, 1.46962, 1.46871, 1.48268, 1.46623, 1.46405, 1.46397, 1.46911, 1.45756, 1.45511, 1.45199, 1.45016, 1.44735, 1.44582, 1.44412, 1.4424, 1.44013, 1.43913, 1.43812, 1.4407, 1.43543, 1.43347, 1.43466, 1.43409, 1.43073, 1.433, 1.42583, 1.42192, 1.42057, 1.41936, 1.43022, 1.42383, 1.41861, 1.43405, 1.4204, 1.42198, 1.42382, 1.4345, 1.43503, 1.43875, 1.4405, 1.43368, 1.43407, 1.44778, 1.42956, 1.42658, 1.42948, 1.41597, 1.42721, 1.41111, 1.41216, 1.42103, 1.4025, 1.39684, 1.39528, 1.38772, 1.38795, 1.3798, 1.37241, 1.36928, 1.37449, 1.36578, 1.37116, 1.37513, 1.3602, 1.35707, 1.37789, 1.35546, 1.35373, 1.35081, 1.36004, 1.35764, 1.35095, 1.3533, 1.3512, 1.34744, 1.34582, 1.34647, 1.34393, 1.34307, 1.3376, 1.33814, 1.33647, 1.33572, 1.33272, 1.33075, 1.32945, 1.33358, 1.33917, 1.33095, 1.32457, 1.33648, 1.31848, 1.31641, 1.31695, 1.31502, 1.31192, 1.31291, 1.31088, 1.3122, 1.31027, 1.3102, 1.30846, 1.30531, 1.30558, 1.33756, 1.30268, 1.3021, 1.30018, 1.30291, 1.30159, 1.30892, 1.29981, 1.31733, 1.31205, 1.31354, 1.29275, 1.30554, 1.29891, 1.29153, 1.29206, 1.29331, 1.28614, 1.29189, 1.29464, 1.25056, 1.31794, 1.31916, 1.44212, 1.77391, 1.79982, 1.79959, 1.49862, 1.45859, 1.31201, 1.28834, 1.26924, 1.27495, 1.26528, 1.26158, 1.27068, 1.25721, 1.25654, 1.2667, 1.26368, 1.25713, 1.24932, 1.2495, 1.25173, 1.24506, 1.24747, 
