1.61414, 1.61755, 1.60239, 1.59931, 1.59011, 1.59987, 1.59104, 1.59476, 1.60741, 1.63771, 1.68295, 1.66113, 1.53138, 1.55155, 1.53757, 1.55121, 1.53658, 1.52017, 1.50991, 1.50626, 1.50299, 1.4988, 1.496, 1.48974, 1.48085, 1.47819, 1.47311, 1.46983, 1.45987, 1.45409, 1.45435, 1.44872, 1.45375, 1.45414, 1.53578, 1.77847, 1.70489, 1.41286, 1.42269, 1.4138, 1.41218, 1.40301, 1.40166, 1.39317, 1.3884, 1.38138, 1.37667, 1.37368, 1.36591, 1.36212, 1.35763, 1.35656, 1.35436, 1.35208, 1.34053, 1.33928, 1.33229, 1.32902, 1.33045, 1.31938, 1.31752, 1.31476, 1.3153, 1.32221, 1.32353, 1.33522, 1.35509, 1.34391, 1.37806, 1.31616, 1.3052, 1.285, 1.278, 1.27491, 1.28443, 1.27472, 
1.63772, 1.60827, 1.60762, 1.60181, 1.59722, 1.59395, 1.6069, 1.61609, 1.62394, 1.65768, 1.67614, 1.70949, 1.54817, 1.54679, 1.54084, 1.53533, 1.56527, 1.53085, 1.51674, 1.511, 1.5078, 1.50196, 1.49329, 1.49246, 1.48876, 1.47996, 1.47473, 1.47109, 1.46719, 1.46283, 1.457, 1.44918, 1.45514, 1.41547, 1.55479, 1.75691, 1.60877, 1.42051, 1.41897, 1.41393, 1.40631, 1.403, 1.39337, 1.39211, 1.38579, 1.38168, 1.37808, 1.37451, 1.37144, 1.36881, 1.36009, 1.35457, 1.35142, 1.34939, 1.34996, 1.34345, 1.33683, 1.33396, 1.33761, 1.32942, 1.32672, 1.32373, 1.33705, 1.32745, 1.32777, 1.35648, 1.34713, 1.3575, 1.37593, 1.30662, 1.29518, 1.28521, 1.28068, 1.27809, 1.28497, 1.27348, 
1.66163, 1.64818, 1.61679, 1.6098, 1.60365, 1.60115, 1.60095, 1.59058, 1.63462, 1.66565, 1.7046, 1.68888, 1.55514, 1.56263, 1.54861, 1.54033, 1.55144, 1.54171, 1.52093, 1.51582, 1.51517, 1.50479, 1.49981, 1.49552, 1.49041, 1.48919, 1.48324, 1.47541, 1.47635, 1.4615, 1.4608, 1.46466, 1.46862, 1.41969, 1.52499, 1.70683, 1.65133, 1.44132, 1.42982, 1.42837, 1.41507, 1.40604, 1.40123, 1.39913, 1.39211, 1.39371, 1.38893, 1.38528, 1.37765, 1.37408, 1.36835, 1.36529, 1.36345, 1.35373, 1.34798, 1.34796, 1.34536, 1.34174, 1.3579, 1.33936, 1.33436, 1.33072, 1.33259, 1.33456, 1.33647, 1.36044, 1.37863, 1.35889, 1.35777, 1.31004, 1.30981, 1.30552, 1.28597, 1.2861, 1.28742, 1.28139, 
1.64727, 1.67252, 1.6433, 1.62296, 1.60844, 1.61306, 1.61151, 1.5819, 1.6446, 1.68502, 1.68413, 1.66727, 1.54123, 1.5621, 1.54897, 1.54483, 1.53904, 1.55235, 1.53413, 1.52923, 1.51455, 1.50903, 1.50418, 1.49856, 1.49386, 1.49106, 1.48602, 1.47964, 1.47659, 1.47427, 1.46987, 1.4685, 1.46821, 1.43837, 1.61366, 1.71737, 1.6963, 1.43839, 1.44827, 1.43171, 1.42482, 1.41974, 1.40988, 1.40519, 1.4089, 1.39375, 1.38961, 1.38687, 1.38299, 1.38211, 1.37771, 1.37353, 1.36571, 1.35818, 1.35603, 1.35011, 1.34761, 1.3501, 1.35179, 1.34886, 1.34997, 1.33943, 1.33953, 1.33971, 1.33743, 1.39689, 1.40549, 1.38798, 1.35088, 1.32613, 1.31624, 1.30172, 1.29484, 1.30201, 1.29321, 1.28459, 
1.63485, 1.66536, 1.6445, 1.6218, 1.61342, 1.60582, 1.61544, 1.61144, 1.64905, 1.71016, 1.728, 1.6439, 1.56548, 1.58486, 1.5561, 1.55278, 1.54403, 1.55369, 1.53492, 1.52463, 1.5229, 1.51695, 1.51023, 1.50608, 1.49844, 1.49552, 1.49196, 1.48694, 1.4835, 1.48513, 1.47579, 1.46916, 1.47998, 1.47156, 1.61864, 1.72805, 1.61517, 1.43049, 1.45138, 1.43694, 1.42716, 1.42092, 1.4191, 1.41143, 1.4071, 1.41327, 1.41953, 1.39311, 1.40014, 1.38889, 1.39677, 1.37896, 1.37509, 1.3657, 1.35891, 1.35135, 1.35003, 1.34985, 1.35027, 1.34652, 1.34377, 1.34045, 1.34518, 1.35198, 1.35211, 1.3652, 1.39613, 1.38626, 1.33966, 1.31708, 1.31375, 1.31193, 1.30498, 1.29953, 1.29881, 1.30018, 
1.64114, 1.64093, 1.64523, 1.62285, 1.62055, 1.63417, 1.62332, 1.58206, 1.64181, 1.7022, 1.75271, 1.70246, 1.56522, 1.58941, 1.56257, 1.55206, 1.55466, 1.55124, 1.55862, 1.53702, 1.53407, 1.52681, 1.51715, 1.5123, 1.50298, 1.50143, 1.49401, 1.48992, 1.48579, 1.48254, 1.48088, 1.4743, 1.47769, 1.44459, 1.65452, 1.71841, 1.6542, 1.42313, 1.44688, 1.46641, 1.43079, 1.42286, 1.41796, 1.41676, 1.41471, 1.40842, 1.40632, 1.40168, 1.39626, 1.39323, 1.392, 1.38964, 1.38303, 1.37908, 1.36481, 1.36265, 1.3557, 1.35385, 1.34905, 1.34664, 1.34676, 1.34635, 1.34029, 1.34651, 1.34048, 1.37661, 1.38927, 1.40305, 1.39508, 1.32021, 1.32334, 1.31816, 1.30918, 1.30174, 1.2994, 1.29994, 
1.64561, 1.64046, 1.62289, 1.64908, 1.64095, 1.61603, 1.61656, 1.59276, 1.63757, 1.71005, 1.74207, 1.70785, 1.55836, 1.57995, 1.56568, 1.55418, 1.5507, 1.54747, 1.55383, 1.54418, 1.53386, 1.5267, 1.52172, 1.51304, 1.50901, 1.50268, 1.49937, 1.493, 1.48746, 1.50463, 1.47811, 1.47411, 1.48327, 1.48524, 1.59465, 1.69347, 1.59753, 1.41617, 1.45051, 1.43948, 1.42964, 1.43017, 1.41976, 1.41607, 1.40862, 1.40928, 1.40541, 1.40239, 1.3912, 1.39089, 1.39163, 1.39154, 1.38993, 1.37913, 1.37581, 1.37206, 1.36245, 1.35981, 1.35913, 1.3578, 1.35707, 1.34657, 1.34139, 1.34442, 1.34718, 1.38056, 1.38642, 1.40912, 1.41245, 1.34153, 1.33211, 1.31459, 1.30984, 1.30378, 1.30628, 1.29702, 
1.65264, 1.65152, 1.64492, 1.66903, 1.63453, 1.61711, 1.61984, 1.62632, 1.6298, 1.73508, 1.74685, 1.72133, 1.56201, 1.577, 1.57524, 1.56265, 1.55421, 1.5513, 1.56087, 1.54884, 1.54104, 1.52835, 1.52382, 1.51952, 1.51294, 1.5081, 1.50555, 1.49697, 1.49337, 1.49556, 1.4846, 1.47733, 1.47596, 1.44053, 1.56802, 1.6846, 1.66182, 1.42576, 1.44424, 1.45475, 1.42751, 1.4448, 1.42189, 1.42354, 1.41556, 1.41222, 1.40635, 1.3988, 1.39637, 1.39172, 1.38912, 1.38811, 1.38525, 1.38344, 1.37642, 1.37188, 1.36683, 1.36583, 1.36462, 1.36249, 1.35998, 1.35509, 1.35133, 1.35817, 1.3479, 1.37799, 1.39416, 1.41721, 1.40536, 1.3723, 1.33364, 1.31717, 1.31786, 1.30962, 1.30248, 1.29866, 
1.65258, 1.64777, 1.64039, 1.64476, 1.65515, 1.63039, 1.62363, 1.61492, 1.68098, 1.74465, 1.76057, 1.74035, 1.60375, 1.58804, 1.57701, 1.57768, 1.56447, 1.55764, 1.55649, 1.55189, 1.54768, 1.53086, 1.52502, 1.52103, 1.51805, 1.51959, 1.50881, 1.50212, 1.49575, 1.48967, 1.48653, 1.48345, 1.48297, 1.4588, 1.5445, 1.69873, 1.68389, 1.41553, 1.44531, 1.44135, 1.43459, 1.43029, 1.42647, 1.42111, 1.41797, 1.41699, 1.41244, 1.40679, 1.39892, 1.39724, 1.39564, 1.39156, 1.38866, 1.38552, 1.38173, 1.37415, 1.37121, 1.36782, 1.36344, 1.36336, 1.35762, 1.35952, 1.35655, 1.36527, 1.35618, 1.38681, 1.42905, 1.43825, 1.45419, 1.3203, 1.36113, 1.31883, 1.31267, 1.30364, 1.30277, 1.29965, 
1.65713, 1.64974, 1.64399, 1.64173, 1.66435, 1.63997, 1.63492, 1.62869, 1.70297, 1.70937, 1.76922, 1.74141, 1.58002, 1.59588, 1.59527, 1.57097, 1.5662, 1.56536, 1.56004, 1.5679, 1.56126, 1.54823, 1.53036, 1.52348, 1.51725, 1.51461, 1.50933, 1.50338, 1.50286, 1.49362, 1.49057, 1.49911, 1.48619, 1.43373, 1.59449, 1.68325, 1.68192, 1.44513, 1.45889, 1.45317, 1.4501, 1.43979, 1.43329, 1.42905, 1.41997, 1.41967, 1.41761, 1.41471, 1.40968, 1.40558, 1.40348, 1.39839, 1.39726, 1.39017, 1.3883, 1.37964, 1.3788, 1.37108, 1.36809, 1.36595, 1.36221, 1.36071, 1.3564, 1.37563, 1.34853, 1.39244, 1.42756, 1.43011, 1.44897, 1.35301, 1.33439, 1.33734, 1.32209, 1.3143, 1.31485, 1.30856, 
1.66776, 1.6596, 1.65352, 1.64895, 1.66068, 1.6483, 1.64408, 1.61479, 1.65806, 1.74748, 1.74184, 1.74882, 1.57088, 1.59674, 1.57902, 1.57459, 1.56668, 1.56113, 1.55971, 1.55466, 1.56929, 1.55852, 1.53434, 1.52759, 1.52252, 1.52008, 1.51371, 1.5071, 1.50271, 1.49881, 1.49629, 1.49238, 1.49158, 1.48169, 1.61753, 1.66778, 1.66876, 1.57344, 1.45483, 1.46517, 1.46516, 1.44319, 1.43689, 1.43054, 1.42563, 1.42942, 1.4199, 1.41909, 1.41212, 1.40969, 1.40704, 1.40282, 1.39672, 1.38915, 1.38561, 1.37833, 1.37293, 1.3691, 1.36487, 1.36211, 1.35667, 1.35637, 1.35596, 1.37458, 1.34707, 1.38816, 1.45375, 1.45208, 1.45945, 1.38102, 1.33394, 1.33837, 1.31989, 1.31641, 1.33203, 1.31261, 
1.66557, 1.66032, 1.65404, 1.65567, 1.65898, 1.66171, 1.63838, 1.62518, 1.64159, 1.74843, 1.78768, 1.79096, 1.66593, 1.60413, 1.59201, 1.57477, 1.57076, 1.57501, 1.56111, 1.59274, 1.58898, 1.56824, 1.53956, 1.53428, 1.53013, 1.52319, 1.52014, 1.51389, 1.50751, 1.50116, 1.4972, 1.49622, 1.49451, 1.46848, 1.55321, 1.67806, 1.6863, 1.54606, 1.45878, 1.46322, 1.45956, 1.45334, 1.44764, 1.44446, 1.43291, 1.42738, 1.42607, 1.41813, 1.41406, 1.41026, 1.41108, 1.40494, 1.39893, 1.39668, 1.39033, 1.38566, 1.37843, 1.37441, 1.37275, 1.37027, 1.36423, 1.36362, 1.37038, 1.36763, 1.37196, 1.42288, 1.45155, 1.45856, 1.44695, 1.35732, 1.32998, 1.34351, 1.32292, 1.32531, 1.3187, 1.31623, 
1.66634, 1.66278, 1.65443, 1.6498, 1.65806, 1.65986, 1.6376, 1.64516, 1.69619, 1.76674, 1.80368, 1.78676, 1.61396, 1.61054, 1.58878, 1.58532, 1.57778, 1.57203, 1.56971, 1.56139, 1.56215, 1.56162, 1.54103, 1.53705, 1.53304, 1.52868, 1.5271, 1.52083, 1.51244, 1.50704, 1.5062, 1.50041, 1.51737, 1.47168, 1.60283, 1.68965, 1.67569, 1.53347, 1.4682, 1.46092, 1.47197, 1.45224, 1.4493, 1.444, 1.43965, 1.43513, 1.43234, 1.42724, 1.41982, 1.41719, 1.41319, 1.41106, 1.40602, 1.4012, 1.39262, 1.39119, 1.38883, 1.37965, 1.37691, 1.37735, 1.37163, 1.3712, 1.37836, 1.37735, 1.36414, 1.43732, 1.45402, 1.47191, 1.45651, 1.41913, 1.34107, 1.34718, 1.32838, 1.3282, 1.32076, 1.32284, 
1.66877, 1.65949, 1.65942, 1.64586, 1.64063, 1.66853, 1.65983, 1.61037, 1.69, 1.76986, 1.84133, 1.7228, 1.575, 1.60629, 1.60407, 1.58087, 1.58467, 1.56842, 1.56254, 1.56077, 1.5566, 1.55148, 1.55767, 1.53503, 1.53048, 1.52741, 1.51969, 1.51275, 1.50359, 1.50095, 1.49447, 1.49198, 1.50133, 1.49929, 1.61621, 1.67927, 1.68737, 1.53357, 1.42664, 1.45625, 1.45748, 1.44645, 1.44106, 1.43745, 1.43102, 1.42861, 1.42385, 1.42228, 1.419, 1.41602, 1.41299, 1.40911, 1.40623, 1.40308, 1.39838, 1.39531, 1.38933, 1.38533, 1.38152, 1.37749, 1.37477, 1.38305, 1.3861, 1.37272, 1.3678, 1.40548, 1.43655, 1.46572, 1.48524, 1.40053, 1.33776, 1.34008, 1.33268, 1.33282, 1.32345, 1.32193, 
1.67252, 1.66226, 1.65807, 1.65104, 1.6521, 1.65724, 1.66465, 1.64461, 1.63732, 1.75792, 1.8094, 1.81111, 1.57907, 1.59939, 1.58129, 1.57643, 1.57496, 1.56649, 1.56276, 1.55562, 1.55043, 1.54197, 1.56547, 1.52796, 1.5285, 1.5279, 1.51623, 1.50879, 1.49631, 1.48595, 1.49058, 1.48879, 1.4975, 1.48578, 1.59525, 1.66764, 1.61716, 1.56656, 1.45731, 1.47173, 1.45918, 1.44335, 1.43569, 1.43289, 1.42851, 1.4253, 1.42066, 1.41618, 1.41688, 1.41553, 1.40899, 1.40544, 1.40278, 1.40148, 1.39609, 1.39274, 1.3874, 1.37819, 1.37503, 1.37287, 1.37013, 1.36575, 1.36286, 1.36366, 1.36145, 1.40605, 1.46937, 1.50478, 1.50373, 1.39918, 1.35459, 1.33793, 1.34609, 1.33119, 1.32661, 1.31931, 
1.68531, 1.67457, 1.67194, 1.66606, 1.66227, 1.6568, 1.67061, 1.66906, 1.61771, 1.7807, 1.84725, 1.84224, 1.60242, 1.60622, 1.59957, 1.59695, 1.5879, 1.57844, 1.57645, 1.57547, 1.56265, 1.55567, 1.56494, 1.55064, 1.545, 1.53941, 1.53034, 1.52488, 1.51636, 1.51358, 1.51019, 1.51689, 1.51718, 1.50247, 1.58385, 1.65117, 1.63882, 1.59516, 1.45994, 1.47879, 1.4856, 1.46908, 1.46384, 1.45174, 1.44886, 1.4343, 1.42861, 1.42901, 1.43274, 1.43362, 1.42006, 1.41771, 1.41797, 1.41208, 1.40207, 1.39947, 1.39694, 1.39684, 1.38617, 1.38595, 1.37814, 1.37514, 1.37615, 1.38885, 1.3809, 1.41906, 1.49293, 1.50001, 1.51668, 1.46918, 1.35728, 1.3514, 1.34854, 1.33868, 1.3399, 1.33208, 
1.67367, 1.6566, 1.64659, 1.64533, 1.65373, 1.65104, 1.63456, 1.65537, 1.60297, 1.74026, 1.84327, 1.83101, 1.63229, 1.61447, 1.59354, 1.59211, 1.57236, 1.56749, 1.5686, 1.56083, 1.54225, 1.54717, 1.54338, 1.5434, 1.53529, 1.52973, 1.53946, 1.52849, 1.49963, 1.50581, 1.50699, 1.49723, 1.4983, 1.4824, 1.56991, 1.62749, 1.6388, 1.60989, 1.44849, 1.46544, 1.47254, 1.45169, 1.45093, 1.45332, 1.43824, 1.43365, 1.41679, 1.41275, 1.42971, 1.41058, 1.39895, 1.39538, 1.4001, 1.39483, 1.39235, 1.38538, 1.37266, 1.37453, 1.37761, 1.3753, 1.36462, 1.35878, 1.36186, 1.3713, 1.36974, 1.40892, 1.47337, 1.49707, 1.48635, 1.4391, 1.34705, 1.33754, 1.3361, 1.34368, 1.31672, 1.30702, 
1.68023, 1.67186, 1.66643, 1.66181, 1.66381, 1.64891, 1.65954, 1.63766, 1.67188, 1.76482, 1.86172, 1.8543, 1.59978, 1.61642, 1.6133, 1.61407, 1.5884, 1.58026, 1.57498, 1.62071, 1.57445, 1.56039, 1.55731, 1.56373, 1.55136, 1.53834, 1.55048, 1.52715, 1.52347, 1.51853, 1.54025, 1.51989, 1.51084, 1.50242, 1.54859, 1.6583, 1.63845, 1.60874, 1.4731, 1.47131, 1.48659, 1.48928, 1.47128, 1.45509, 1.44502, 1.4371, 1.43544, 1.43676, 1.46916, 1.42843, 1.42337, 1.41978, 1.41207, 1.41356, 1.40616, 1.40048, 1.39795, 1.39561, 1.3936, 1.39063, 1.39324, 1.38795, 1.37828, 1.38299, 1.38446, 1.40627, 1.46016, 1.50632, 1.55041, 1.46481, 1.35676, 1.36476, 1.34801, 1.33547, 1.33708, 1.34671, 
1.66595, 1.66165, 1.65461, 1.65106, 1.65514, 1.63674, 1.63816, 1.63679, 1.64154, 1.71482, 1.82855, 1.83591, 1.70698, 1.59661, 1.60001, 1.57579, 1.58152, 1.57889, 1.55379, 1.55441, 1.55363, 1.54201, 1.54461, 1.54808, 1.55726, 1.53048, 1.51948, 1.52015, 1.50757, 1.50628, 1.5047, 1.49157, 1.50541, 1.49739, 1.53467, 1.61794, 1.62601, 1.6068, 1.43034, 1.46086, 1.46238, 1.47084, 1.45257, 1.43862, 1.42731, 1.42587, 1.43005, 1.4274, 1.41991, 1.41612, 1.41279, 1.40442, 1.40538, 1.39402, 1.38772, 1.3862, 1.38483, 1.37749, 1.37508, 1.37186, 1.37279, 1.36819, 1.38312, 1.36892, 1.36916, 1.42003, 1.44992, 1.5019, 1.50728, 1.47482, 1.34074, 1.3379, 1.32898, 1.32638, 1.32013, 1.32211, 
1.67353, 1.66905, 1.65959, 1.6535, 1.64374, 1.64034, 1.6326, 1.63446, 1.64491, 1.66488, 1.81359, 1.79521, 1.58156, 1.60196, 1.60565, 1.58284, 1.57765, 1.57312, 1.56301, 1.55973, 1.54933, 1.54795, 1.54784, 1.53601, 1.54542, 1.54109, 1.53051, 1.51992, 1.51254, 1.51135, 1.496, 1.49361, 1.50342, 1.49231, 1.47512, 1.63519, 1.63789, 1.59244, 1.46901, 1.46403, 1.47073, 1.465, 1.43865, 1.4349, 1.44079, 1.43206, 1.42677, 1.42333, 1.42249, 1.41395, 1.42636, 1.40735, 1.40639, 1.39666, 1.39508, 1.38845, 1.38643, 1.37904, 1.37755, 1.37478, 1.3702, 1.38571, 1.37123, 1.37783, 1.36219, 1.39943, 1.46586, 1.50918, 1.53659, 1.48891, 1.35723, 1.35033, 1.33138, 1.34129, 1.32293, 1.34408, 
1.66193, 1.65397, 1.65105, 1.6408, 1.63202, 1.62354, 1.61588, 1.61151, 1.58461, 1.66346, 1.77737, 1.84922, 1.70634, 1.58223, 1.5906, 1.57911, 1.56722, 1.5577, 1.55402, 1.55054, 1.55397, 1.53785, 1.5329, 1.51894, 1.52269, 1.53787, 1.51097, 1.50983, 1.49547, 1.49312, 1.48828, 1.4928, 1.49925, 1.45363, 1.55805, 1.6348, 1.62821, 1.57212, 1.51323, 1.43729, 1.45017, 1.46166, 1.43886, 1.42403, 1.42117, 1.41362, 1.40888, 1.40433, 1.39896, 1.39781, 1.39337, 1.38345, 1.3816, 1.37931, 1.37819, 1.37479, 1.37388, 1.36488, 1.3601, 1.35754, 1.35064, 1.35792, 1.34616, 1.34473, 1.35236, 1.38575, 1.45117, 1.48971, 1.53281, 1.40379, 1.33376, 1.33806, 1.31265, 1.311, 1.32026, 1.30372, 
1.65583, 1.64407, 1.63729, 1.62999, 1.62823, 1.62263, 1.61997, 1.6322, 1.58547, 1.74848, 1.85559, 1.88669, 1.56773, 1.59852, 1.58591, 1.56964, 1.5628, 1.55705, 1.54846, 1.54754, 1.54318, 1.53982, 1.52861, 1.53434, 1.51949, 1.52239, 1.52288, 1.50567, 1.50287, 1.4997, 1.49929, 1.48974, 1.49574, 1.49486, 1.53481, 1.59038, 1.61686, 1.58876, 1.46143, 1.4574, 1.44651, 1.44392, 1.45897, 1.42996, 1.42347, 1.42344, 1.42375, 1.4083, 1.40577, 1.40197, 1.39726, 1.39513, 1.38985, 1.3884, 1.38269, 1.3813, 1.37406, 1.36466, 1.36266, 1.36145, 1.35741, 1.35185, 1.34911, 1.34742, 1.3576, 1.33508, 1.46398, 1.51493, 1.51831, 1.46492, 1.32996, 1.31946, 1.31291, 1.30969, 1.30657, 1.30517, 
1.65439, 1.64991, 1.64469, 1.65973, 1.62887, 1.62587, 1.61974, 1.62367, 1.59581, 1.7168, 1.80654, 1.88615, 1.76543, 1.58892, 1.5801, 1.56905, 1.55825, 1.55667, 1.54767, 1.54129, 1.54082, 1.53531, 1.53085, 1.52339, 1.5165, 1.51342, 1.5245, 1.50093, 1.49837, 1.49172, 1.48452, 1.47885, 1.48162, 1.47879, 1.497, 1.5722, 1.58456, 1.55921, 1.5087, 1.45021, 1.43764, 1.43134, 1.44808, 1.41624, 1.42089, 1.42987, 1.41257, 1.40637, 1.40297, 1.39991, 1.3971, 1.39532, 1.38928, 1.38719, 1.38538, 1.37968, 1.36961, 1.36418, 1.3622, 1.36103, 1.35555, 1.35315, 1.3503, 1.35359, 1.35109, 1.36385, 1.48364, 1.50911, 1.55463, 1.46921, 1.31335, 1.32181, 1.31249, 1.3092, 1.30911, 1.30577, 
1.65758, 1.65593, 1.65075, 1.65242, 1.63723, 1.62656, 1.62072, 1.62685, 1.59054, 1.71389, 1.7421, 1.87922, 1.58806, 1.60091, 1.58722, 1.56906, 1.57865, 1.55296, 1.54866, 1.54422, 1.54033, 1.53749, 1.53325, 1.52364, 1.52348, 1.51341, 1.51395, 1.50147, 1.49668, 1.49966, 1.49198, 1.48831, 1.48686, 1.48473, 1.5037, 1.56087, 1.65885, 1.59317, 1.49576, 1.45835, 1.45445, 1.43359, 1.44469, 1.44764, 1.42954, 1.4167, 1.41204, 1.40902, 1.4022, 1.4015, 1.39572, 1.39243, 1.38922, 1.38561, 1.37941, 1.37636, 1.37098, 1.36715, 1.36387, 1.36232, 1.35797, 1.35497, 1.36772, 1.34708, 1.35715, 1.34772, 1.43021, 1.53096, 1.56076, 1.48571, 1.33557, 1.32904, 1.33585, 1.3166, 1.31516, 1.31036, 
1.65749, 1.65342, 1.64273, 1.63896, 1.63241, 1.62775, 1.6219, 1.6217, 1.59893, 1.6959, 1.76753, 1.89601, 1.57534, 1.596, 1.58901, 1.56774, 1.56252, 1.55736, 1.55247, 1.54899, 1.54265, 1.53691, 1.53399, 1.52782, 1.52072, 1.51358, 1.51103, 1.51779, 1.4974, 1.49854, 1.48997, 1.48661, 1.49611, 1.45673, 1.50198, 1.57124, 1.61002, 1.57523, 1.48167, 1.46233, 1.44125, 1.4348, 1.43258, 1.46931, 1.44042, 1.41678, 1.41203, 1.40635, 1.40514, 1.40037, 1.3983, 1.39464, 1.38958, 1.38517, 1.37893, 1.37332, 1.36798, 1.36456, 1.3625, 1.35968, 1.35706, 1.35362, 1.35087, 1.34373, 1.35624, 1.36809, 1.44414, 1.3836, 1.55925, 1.3537, 1.34951, 1.33067, 1.32479, 1.32047, 1.31629, 1.31309, 
1.65915, 1.65161, 1.6436, 1.63874, 1.63064, 1.6239, 1.62039, 1.61961, 1.62396, 1.66633, 1.83754, 1.88182, 1.78893, 1.58881, 1.57874, 1.57906, 1.56189, 1.55768, 1.54695, 1.54162, 1.53867, 1.53378, 1.53353, 1.52461, 1.52045, 1.514, 1.50937, 1.50626, 1.50769, 1.4963, 1.50207, 1.49227, 1.48338, 1.47487, 1.46042, 1.58154, 1.5906, 1.54405, 1.5167, 1.45463, 1.44771, 1.44339, 1.43314, 1.43347, 1.42688, 1.41694, 1.41046, 1.40701, 1.40528, 1.40382, 1.39892, 1.39477, 1.38956, 1.38674, 1.38167, 1.37807, 1.37277, 1.36591, 1.35981, 1.35695, 1.35425, 1.35405, 1.34798, 1.34727, 1.3547, 1.36489, 1.42717, 1.4926, 1.56294, 1.51683, 1.33692, 1.33629, 1.31523, 1.31401, 1.31038, 1.31197, 
1.65953, 1.65116, 1.64512, 1.6371, 1.6294, 1.62532, 1.62402, 1.62488, 1.57563, 1.66409, 1.81696, 1.91969, 1.70917, 1.58587, 1.58538, 1.5683, 1.56236, 1.56303, 1.54904, 1.54482, 1.54038, 1.53438, 1.52785, 1.5207, 1.51675, 1.52032, 1.50714, 1.50442, 1.52665, 1.50604, 1.49928, 1.48274, 1.4826, 1.48904, 1.50907, 1.56745, 1.57194, 1.54073, 1.53457, 1.45404, 1.46883, 1.43464, 1.42912, 1.42592, 1.44495, 1.43374, 1.41194, 1.40838, 1.40512, 1.40442, 1.40021, 1.39649, 1.39364, 1.38787, 1.38367, 1.38008, 1.37229, 1.36216, 1.36194, 1.35241, 1.35263, 1.38183, 1.34989, 1.35332, 1.35139, 1.34753, 1.42081, 1.51451, 1.59648, 1.53687, 1.33232, 1.32719, 1.31662, 1.31537, 1.31368, 1.33949, 
1.65483, 1.64945, 1.64302, 1.63463, 1.62722, 1.62181, 1.61939, 1.61751, 1.62029, 1.64243, 1.79295, 1.99456, 1.56003, 1.57974, 1.57232, 1.56915, 1.56112, 1.5556, 1.56761, 1.54366, 1.53831, 1.53333, 1.52621, 1.52198, 1.51341, 1.50703, 1.50259, 1.50001, 1.50669, 1.50427, 1.49125, 1.48889, 1.48824, 1.48914, 1.47177, 1.58545, 1.57791, 1.54431, 1.50993, 1.45525, 1.45803, 1.43413, 1.42666, 1.43603, 1.42279, 1.41239, 1.40967, 1.40335, 1.40398, 1.39884, 1.3949, 1.38912, 1.38815, 1.38451, 1.38341, 1.379, 1.37463, 1.3711, 1.36564, 1.36365, 1.35517, 1.35185, 1.34934, 1.34682, 1.34803, 1.32408, 1.3964, 1.53745, 1.58858, 1.43795, 1.33118, 1.33424, 1.31826, 1.31385, 1.31048, 1.30727, 
1.65406, 1.64825, 1.6375, 1.63018, 1.62836, 1.62416, 1.62099, 1.6168, 1.6149, 1.61452, 1.75785, 1.92051, 1.57289, 1.58555, 1.57435, 1.56456, 1.55747, 1.55218, 1.55003, 1.54381, 1.53858, 1.53454, 1.53016, 1.52407, 1.51765, 1.51242, 1.50576, 1.4995, 1.50364, 1.51858, 1.48894, 1.48582, 1.47971, 1.46509, 1.50756, 1.55525, 1.55369, 1.53211, 1.51369, 1.44677, 1.45094, 1.43773, 1.43733, 1.44763, 1.43029, 1.41536, 1.41926, 1.40424, 1.40218, 1.39718, 1.39217, 1.38829, 1.38739, 1.38371, 1.38072, 1.37497, 1.37038, 1.36609, 1.36562, 1.37187, 1.36048, 1.35626, 1.35172, 1.35398, 1.35842, 1.35715, 1.45118, 1.57808, 1.6357, 1.45233, 1.31609, 1.3309, 1.31536, 1.3133, 1.30981, 1.3191, 
1.65666, 1.65269, 1.63861, 1.63467, 1.63569, 1.62102, 1.61999, 1.61491, 1.61475, 1.64524, 1.86871, 1.91443, 1.73877, 1.59663, 1.57677, 1.56506, 1.55842, 1.55538, 1.55002, 1.54238, 1.53809, 1.53086, 1.52038, 1.51769, 1.51445, 1.50743, 1.50533, 1.50365, 1.50919, 1.51256, 1.52099, 1.4937, 1.48769, 1.47888, 1.45398, 1.54688, 1.53249, 1.53684, 1.52493, 1.43482, 1.45299, 1.44399, 1.45511, 1.45116, 1.43772, 1.41654, 1.4099, 1.40565, 1.39991, 1.39679, 1.39161, 1.38879, 1.38461, 1.38183, 1.37709, 1.37167, 1.36832, 1.3647, 1.36239, 1.36017, 1.35756, 1.35481, 1.35074, 1.34506, 1.35831, 1.34634, 1.43683, 1.56193, 1.60021, 1.51216, 1.33013, 1.31959, 1.31645, 1.3164, 1.31224, 1.30821, 
1.65431, 1.64989, 1.64259, 1.63918, 1.63296, 1.62517, 1.61908, 1.60955, 1.61073, 1.60681, 1.74248, 1.94041, 1.59985, 1.58986, 1.5862, 1.56886, 1.56081, 1.55396, 1.54916, 1.53868, 1.53336, 1.52521, 1.51601, 1.50978, 1.50664, 1.50414, 1.50062, 1.51363, 1.49568, 1.49539, 1.52678, 1.52681, 1.47842, 1.48128, 1.46891, 1.52649, 1.51678, 1.53428, 1.54153, 1.44781, 1.4955, 1.49558, 1.45895, 1.46052, 1.43108, 1.41676, 1.41089, 1.40656, 1.40056, 1.39569, 1.39134, 1.38588, 1.38188, 1.37745, 1.37478, 1.37153, 1.36687, 1.36492, 1.36047, 1.35777, 1.35506, 1.34772, 1.34625, 1.34174, 1.34106, 1.34, 1.42103, 1.56472, 1.61564, 1.57407, 1.32636, 1.31999, 1.31626, 1.313, 1.30697, 1.30392, 
1.65413, 1.64679, 1.63513, 1.63874, 1.63383, 1.63287, 1.62015, 1.62039, 1.6098, 1.62442, 1.73356, 1.99259, 1.74729, 1.596, 1.59845, 1.58499, 1.58522, 1.56274, 1.55666, 1.54248, 1.53764, 1.53049, 1.52527, 1.51683, 1.51265, 1.50724, 1.50343, 1.49864, 1.49156, 1.49375, 1.49474, 1.53736, 1.49818, 1.47469, 1.49004, 1.52955, 1.50505, 1.53304, 1.49576, 1.44171, 1.46566, 1.44072, 1.44352, 1.42838, 1.42372, 1.41845, 1.41223, 1.40578, 1.40026, 1.39969, 1.39187, 1.3914, 1.38743, 1.38153, 1.37657, 1.37483, 1.37262, 1.36989, 1.36486, 1.36059, 1.35507, 1.35063, 1.34497, 1.37524, 1.34948, 1.34687, 1.3965, 1.55796, 1.59854, 1.4549, 1.32125, 1.33026, 1.31731, 1.31278, 1.30943, 1.3094, 
1.64945, 1.64244, 1.6437, 1.63785, 1.64203, 1.6221, 1.61777, 1.61361, 1.61651, 1.58321, 1.67542, 1.95189, 1.71076, 1.57012, 1.5795, 1.58607, 1.57608, 1.56403, 1.54718, 1.53838, 1.53476, 1.52796, 1.52107, 1.51704, 1.50976, 1.50305, 1.49979, 1.49846, 1.49183, 1.48717, 1.48212, 1.48123, 1.47653, 1.47743, 1.50244, 1.53153, 1.48183, 1.5119, 1.53415, 1.44685, 1.46167, 1.43677, 1.43167, 1.42668, 1.4231, 1.41542, 1.41078, 1.40265, 1.4009, 1.39634, 1.39307, 1.39146, 1.3861, 1.37916, 1.37647, 1.37222, 1.36772, 1.36587, 1.36332, 1.35772, 1.35536, 1.35018, 1.34415, 1.34504, 1.35749, 1.34668, 1.41913, 1.4951, 1.64815, 1.53199, 1.34056, 1.32419, 1.32184, 1.31039, 1.30943, 1.31055, 
1.65071, 1.63934, 1.63423, 1.62903, 1.62329, 1.62595, 1.6162, 1.60859, 1.60535, 1.61067, 1.77197, 1.83618, 1.59278, 1.53409, 1.61608, 1.62247, 1.59354, 1.56929, 1.54142, 1.53666, 1.53332, 1.52601, 1.5228, 1.51976, 1.51175, 1.50532, 1.49934, 1.49283, 1.51604, 1.48539, 1.47746, 1.4746, 1.48077, 1.47976, 1.48164, 1.53134, 1.52841, 1.48308, 1.50302, 1.4444, 1.44759, 1.44285, 1.42722, 1.42245, 1.41692, 1.4098, 1.4074, 1.40551, 1.40064, 1.39805, 1.39302, 1.39137, 1.38335, 1.38067, 1.37636, 1.37091, 1.36594, 1.36253, 1.36795, 1.35573, 1.3498, 1.35146, 1.34072, 1.34157, 1.33941, 1.34379, 1.37828, 1.46806, 1.5522, 1.46489, 1.33606, 1.3261, 1.31502, 1.30994, 1.30797, 1.30938, 
1.64272, 1.63671, 1.63241, 1.62899, 1.62131, 1.62018, 1.61688, 1.60541, 1.60589, 1.58952, 1.73451, 2.00367, 1.60638, 1.55141, 1.67625, 1.65538, 1.582, 1.57546, 1.55504, 1.53859, 1.54186, 1.52468, 1.53077, 1.52073, 1.51075, 1.50258, 1.49924, 1.49741, 1.48596, 1.48323, 1.47688, 1.4734, 1.47304, 1.47886, 1.4727, 1.52282, 1.47397, 1.47228, 1.50838, 1.45406, 1.45085, 1.43388, 1.41975, 1.41555, 1.41147, 1.40815, 1.40715, 1.40677, 1.40119, 1.39567, 1.38984, 1.3833, 1.37988, 1.37554, 1.37228, 1.36887, 1.36825, 1.36292, 1.35808, 1.35448, 1.35337, 1.34888, 1.34443, 1.34321, 1.34135, 1.34182, 1.39854, 1.53695, 1.64181, 1.40831, 1.3223, 1.32908, 1.3139, 1.31547, 1.30611, 1.30524, 
1.63111, 1.62736, 1.62409, 1.61744, 1.61442, 1.60974, 1.6132, 1.59658, 1.59301, 1.58885, 1.7588, 1.93116, 1.6133, 1.53504, 1.56374, 1.56985, 1.57125, 1.56125, 1.53893, 1.52709, 1.51892, 1.51727, 1.50966, 1.50494, 1.50524, 1.49883, 1.49004, 1.48368, 1.47672, 1.47433, 1.46913, 1.46306, 1.46141, 1.46728, 1.49669, 1.5332, 1.48595, 1.50996, 1.47901, 1.43775, 1.43866, 1.43221, 1.42069, 1.41402, 1.4091, 1.40746, 1.39868, 1.39666, 1.38713, 1.38597, 1.382, 1.37549, 1.37477, 1.37478, 1.37483, 1.37135, 1.36413, 1.35511, 1.35004, 1.35255, 1.35065, 1.34472, 1.34039, 1.3369, 1.33651, 1.35811, 1.36866, 1.53855, 1.69849, 1.56131, 1.28541, 1.31337, 1.3035, 1.29997, 1.30119, 1.29688, 
1.6319, 1.63356, 1.62202, 1.62124, 1.61607, 1.61031, 1.6056, 1.59672, 1.59561, 1.59568, 1.78136, 1.78677, 1.76267, 1.52738, 1.55882, 1.56433, 1.55237, 1.54395, 1.53858, 1.53241, 1.5253, 1.52125, 1.50987, 1.50598, 1.49969, 1.49509, 1.4893, 1.48236, 1.4777, 1.47226, 1.46954, 1.46624, 1.46268, 1.47157, 1.48787, 1.5066, 1.51752, 1.48935, 1.48007, 1.44209, 1.45135, 1.43139, 1.4198, 1.41234, 1.40809, 1.40459, 1.40232, 1.39378, 1.38873, 1.38553, 1.37953, 1.37651, 1.37225, 1.37276, 1.36941, 1.36631, 1.3597, 1.35037, 1.34741, 1.34477, 1.34452, 1.3419, 1.33769, 1.33355, 1.33015, 1.3333, 1.32023, 1.52306, 1.54725, 1.66707, 1.3241, 1.31662, 1.3074, 1.30383, 1.29989, 1.29821, 
1.63439, 1.62469, 1.6213, 1.61821, 1.61413, 1.60987, 1.60727, 1.59662, 1.59329, 1.59356, 1.67103, 1.73496, 1.74348, 1.56389, 1.57836, 1.56392, 1.5516, 1.54404, 1.543, 1.52963, 1.52949, 1.51952, 1.50971, 1.50574, 1.49947, 1.4961, 1.48826, 1.48375, 1.48877, 1.47442, 1.46948, 1.46594, 1.46387, 1.47001, 1.48202, 1.50942, 1.5017, 1.45789, 1.47565, 1.48458, 1.44495, 1.42731, 1.42027, 1.42377, 1.40647, 1.40252, 1.3996, 1.39732, 1.39012, 1.38553, 1.37883, 1.37593, 1.37141, 1.36736, 1.36205, 1.35689, 1.35126, 1.34852, 1.34529, 1.3447, 1.34243, 1.33694, 1.33388, 1.33004, 1.329, 1.34362, 1.34005, 1.49722, 1.68454, 1.56442, 1.3072, 1.31627, 1.30331, 1.30175, 1.30108, 1.29879, 
1.62432, 1.6231, 1.61295, 1.60916, 1.60386, 1.5998, 1.59312, 1.58861, 1.57979, 1.57589, 1.61, 1.84707, 1.7073, 1.56157, 1.56052, 1.55051, 1.53962, 1.53116, 1.52665, 1.51721, 1.51546, 1.51322, 1.50865, 1.50107, 1.4916, 1.49028, 1.48226, 1.47822, 1.47253, 1.46758, 1.46835, 1.4621, 1.458, 1.45913, 1.47787, 1.50046, 1.48031, 1.45418, 1.48992, 1.46203, 1.42261, 1.41683, 1.40576, 1.40278, 1.40135, 1.39824, 1.39345, 1.39271, 1.38132, 1.38025, 1.37474, 1.37048, 1.36677, 1.35804, 1.35298, 1.3451, 1.34663, 1.33919, 1.33931, 1.33824, 1.33685, 1.33335, 1.33103, 1.33384, 1.32515, 1.3238, 1.31033, 1.4956, 1.69763, 1.72433, 1.30978, 1.31571, 1.2959, 1.30217, 1.30256, 1.28646, 
1.62425, 1.6172, 1.61403, 1.60396, 1.60051, 1.5985, 1.59276, 1.58216, 1.57622, 1.58301, 1.68631, 1.86385, 1.7061, 1.55387, 1.55742, 1.54296, 1.53387, 1.52377, 1.51898, 1.50959, 1.50411, 1.50271, 1.50217, 1.49663, 1.48816, 1.48352, 1.47904, 1.47154, 1.4663, 1.461, 1.46022, 1.45145, 1.4498, 1.45571, 1.4525, 1.48339, 1.48999, 1.4844, 1.48542, 1.47201, 1.43667, 1.42341, 1.40756, 1.39594, 1.39627, 1.39128, 1.38655, 1.3826, 1.37735, 1.36857, 1.3653, 1.36352, 1.3613, 1.35743, 1.3489, 1.34521, 1.33924, 1.33613, 1.33262, 1.33586, 1.33139, 1.33035, 1.32409, 1.3432, 1.3185, 1.32037, 1.27371, 1.46972, 1.65873, 1.85972, 1.27952, 1.31954, 1.28984, 1.29287, 1.28304, 1.2787, 
1.62149, 1.61691, 1.60668, 1.6038, 1.59441, 1.59265, 1.5857, 1.58271, 1.58121, 1.58245, 1.59025, 1.90712, 1.85354, 1.5454, 1.54692, 1.53518, 1.53007, 1.52803, 1.52233, 1.51481, 1.50655, 1.49624, 1.49521, 1.49197, 1.48679, 1.47799, 1.47499, 1.46996, 1.46802, 1.46072, 1.4608, 1.46183, 1.44766, 1.46826, 1.44875, 1.46715, 1.46796, 1.46716, 1.46159, 1.44374, 1.42325, 1.42288, 1.40027, 1.39668, 1.39277, 1.38997, 1.38575, 1.37932, 1.38111, 1.36856, 1.36871, 1.36086, 1.35268, 1.35187, 1.35045, 1.3469, 1.34175, 1.33769, 1.33348, 1.33205, 1.32946, 1.32689, 1.32393, 1.32008, 1.32589, 1.33299, 1.3168, 1.39281, 1.57125, 1.57487, 1.28788, 1.30852, 1.29925, 1.2884, 1.30042, 1.29599, 
1.62124, 1.60982, 1.6093, 1.59664, 1.59281, 1.5854, 1.58942, 1.57873, 1.57595, 1.57216, 1.54949, 1.76427, 1.97397, 1.5417, 1.54762, 1.53411, 1.52711, 1.52582, 1.51865, 1.51002, 1.50557, 1.4958, 1.49577, 1.48639, 1.4822, 1.47696, 1.46997, 1.46577, 1.46044, 1.45778, 1.4606, 1.44807, 1.45044, 1.45187, 1.4544, 1.45679, 1.4753, 1.45921, 1.44896, 1.46023, 1.43339, 1.40914, 1.40512, 1.38863, 1.38832, 1.38581, 1.38859, 1.37505, 1.37223, 1.3653, 1.36208, 1.36066, 1.35717, 1.35242, 1.34763, 1.34561, 1.34705, 1.33869, 1.33244, 1.32883, 1.32582, 1.32376, 1.32296, 1.31919, 1.34175, 1.31974, 1.31647, 1.33583, 1.4995, 1.38753, 1.29237, 1.30664, 1.29276, 1.28822, 1.28576, 1.28123, 
1.59151, 1.58681, 1.57915, 1.57545, 1.5658, 1.55889, 1.55742, 1.55211, 1.54953, 1.56491, 1.51408, 1.66501, 1.94532, 1.52095, 1.52025, 1.50617, 1.49755, 1.49514, 1.49496, 1.49131, 1.48306, 1.47819, 1.46858, 1.4644, 1.45907, 1.45367, 1.44543, 1.44488, 1.43778, 1.43967, 1.42948, 1.42542, 1.41951, 1.43075, 1.43058, 1.43791, 1.44735, 1.44442, 1.42627, 1.42416, 1.40802, 1.38517, 1.36896, 1.36431, 1.36357, 1.37138, 1.37727, 1.35476, 1.34956, 1.34209, 1.33941, 1.33657, 1.33211, 1.32496, 1.31992, 1.31678, 1.3098, 1.32016, 1.30688, 1.30019, 1.29922, 1.30177, 1.30169, 1.29201, 1.28794, 1.28586, 1.29279, 1.34306, 1.51678, 1.43025, 1.25172, 1.27667, 1.27469, 1.27113, 1.25703, 1.25151, 
1.60098, 1.60143, 1.60041, 1.59898, 1.61026, 1.58996, 1.57743, 1.56993, 1.57032, 1.56881, 1.5468, 1.90248, 1.86433, 1.53551, 1.54639, 1.52809, 1.51599, 1.51059, 1.51622, 1.50917, 1.49539, 1.49301, 1.48679, 1.48462, 1.47577, 1.47179, 1.46791, 1.46398, 1.45005, 1.44647, 1.44397, 1.44095, 1.43446, 1.43671, 1.44748, 1.45494, 1.45797, 1.44893, 1.43727, 1.43709, 1.41535, 1.40766, 1.39821, 1.38585, 1.37652, 1.38334, 1.36886, 1.36642, 1.36565, 1.35346, 1.35544, 1.35053, 1.34805, 1.34505, 1.33603, 1.33543, 1.33326, 1.32398, 1.32276, 1.31955, 1.31561, 1.31233, 1.31161, 1.30281, 1.30968, 1.30186, 1.30556, 1.31441, 1.50115, 1.49073, 1.2707, 1.29247, 1.27722, 1.27458, 1.27138, 1.26896, 
1.60363, 1.60023, 1.59408, 1.59044, 1.58187, 1.59113, 1.56859, 1.57176, 1.56622, 1.56893, 1.54766, 1.87958, 1.75102, 1.53571, 1.53052, 1.50991, 1.52985, 1.51107, 1.50999, 1.49817, 1.47918, 1.49192, 1.48506, 1.47893, 1.47544, 1.46536, 1.46074, 1.45403, 1.45002, 1.44093, 1.43771, 1.43762, 1.43535, 1.43683, 1.45784, 1.44306, 1.44061, 1.43738, 1.43336, 1.45096, 1.41654, 1.41982, 1.3889, 1.38548, 1.38098, 1.37538, 1.37029, 1.36702, 1.3644, 1.35715, 1.35535, 1.3533, 1.34772, 1.34383, 1.33776, 1.33336, 1.32936, 1.3266, 1.32119, 1.31977, 1.3138, 1.31209, 1.33314, 1.30759, 1.31245, 1.32254, 1.32789, 1.41352, 1.64986, 1.61727, 1.39587, 1.29899, 1.28316, 1.28198, 1.27745, 1.27267, 
1.59955, 1.59365, 1.59064, 1.5893, 1.57895, 1.57322, 1.57111, 1.56784, 1.55888, 1.56564, 1.54329, 1.90795, 2.02507, 1.53727, 1.54755, 1.5198, 1.51372, 1.50636, 1.50303, 1.49335, 1.48825, 1.48524, 1.48007, 1.47648, 1.47015, 1.46907, 1.45459, 1.45001, 1.44885, 1.44606, 1.43835, 1.43519, 1.43256, 1.435, 1.43741, 1.44304, 1.44005, 1.44227, 1.43837, 1.43646, 1.41308, 1.40382, 1.38825, 1.38325, 1.37443, 1.36884, 1.36583, 1.3653, 1.364, 1.35933, 1.35221, 1.34971, 1.34484, 1.34099, 1.33648, 1.33585, 1.3334, 1.32694, 1.32476, 1.3186, 1.31358, 1.31392, 1.31206, 1.30992, 1.29901, 1.29585, 1.30263, 1.33595, 1.61221, 1.50374, 1.50153, 1.47622, 1.28209, 1.27214, 1.27094, 1.2692, 
1.58517, 1.58213, 1.57704, 1.57781, 1.57988, 1.56218, 1.55819, 1.55692, 1.57122, 1.55328, 1.54105, 1.78553, 1.68005, 1.49337, 1.51328, 1.51548, 1.52011, 1.51601, 1.50264, 1.48849, 1.47907, 1.47569, 1.47343, 1.46121, 1.4605, 1.45485, 1.44785, 1.44302, 1.4401, 1.46859, 1.43255, 1.43661, 1.4281, 1.43727, 1.44488, 1.45453, 1.45352, 1.42495, 1.41973, 1.41746, 1.40587, 1.38603, 1.37873, 1.37083, 1.36456, 1.36273, 1.36151, 1.36569, 1.35351, 1.35285, 1.34672, 1.35057, 1.33413, 1.33254, 1.3299, 1.32473, 1.32271, 1.31578, 1.312, 1.30538, 1.30194, 1.30014, 1.29565, 1.29267, 1.28472, 1.28057, 1.29088, 1.26537, 1.49104, 1.72508, 1.40621, 1.32277, 1.26734, 1.27123, 1.26423, 1.2575, 
1.58931, 1.58466, 1.57865, 1.57668, 1.57439, 1.56499, 1.55846, 1.55415, 1.57201, 1.55096, 1.53764, 1.65151, 1.73818, 1.54761, 1.51471, 1.50394, 1.49992, 1.50744, 1.49395, 1.48989, 1.4849, 1.4767, 1.47135, 1.4709, 1.45701, 1.45483, 1.45155, 1.44873, 1.44505, 1.438, 1.4371, 1.42696, 1.42555, 1.43815, 1.43174, 1.44232, 1.44764, 1.42496, 1.43688, 1.42916, 1.40925, 1.3904, 1.37535, 1.36525, 1.36372, 1.36118, 1.35786, 1.3544, 1.35151, 1.35042, 1.34676, 1.33933, 1.3341, 1.32083, 1.31919, 1.32113, 1.31969, 1.31705, 1.31472, 1.31189, 1.31316, 1.30251, 1.30103, 1.29383, 1.29063, 1.2885, 1.30016, 1.3067, 1.5782, 1.48538, 1.28357, 1.27107, 1.26694, 1.2659, 1.2618, 1.25223, 
1.58991, 1.58172, 1.57267, 1.57434, 1.56293, 1.55534, 1.54933, 1.54731, 1.54016, 1.5429, 1.55059, 1.70628, 1.75118, 1.50193, 1.50865, 1.51614, 1.51815, 1.49979, 1.49024, 1.48182, 1.47149, 1.46819, 1.46504, 1.46264, 1.45137, 1.44635, 1.44095, 1.43805, 1.43359, 1.42956, 1.42162, 1.41984, 1.42281, 1.43337, 1.42433, 1.44, 1.44361, 1.4235, 1.41124, 1.4126, 1.39493, 1.38867, 1.37191, 1.36485, 1.35862, 1.36101, 1.35109, 1.35193, 1.3479, 1.34423, 1.3372, 1.33425, 1.32834, 1.33123, 1.32337, 1.3156, 1.31354, 1.31048, 1.30923, 1.30376, 1.30902, 1.29954, 1.31566, 1.31066, 1.30335, 1.30042, 1.28495, 1.24977, 1.76605, 1.79943, 1.49889, 1.27401, 1.26187, 1.25711, 1.26663, 1.24765, 
