1.61438, 1.61694, 1.60344, 1.60037, 1.58962, 1.59291, 1.58997, 1.58443, 1.60736, 1.60778, 1.6547, 1.69562, 1.5417, 1.5512, 1.5374, 1.54831, 1.56212, 1.51956, 1.52835, 1.5092, 1.50535, 1.49933, 1.49635, 1.49187, 1.4815, 1.47949, 1.47414, 1.46924, 1.45906, 1.45412, 1.4541, 1.46607, 1.45072, 1.45398, 1.53532, 1.77904, 1.70449, 1.41201, 1.42339, 1.41439, 1.41085, 1.40516, 1.40141, 1.39334, 1.39003, 1.38739, 1.37984, 1.37448, 1.36944, 1.36212, 1.35776, 1.3568, 1.35549, 1.35288, 1.35801, 1.34053, 1.33358, 1.3289, 1.33029, 1.32733, 1.31871, 1.31463, 1.31434, 1.32086, 1.33611, 1.36168, 1.35512, 1.34362, 1.37808, 1.30891, 1.30488, 1.29206, 1.27866, 1.27724, 1.27521, 1.27414, 
1.65545, 1.64316, 1.60729, 1.60927, 1.59948, 1.5948, 1.59322, 1.57291, 1.62048, 1.65863, 1.67316, 1.6874, 1.55543, 1.55162, 1.54393, 1.54739, 1.54969, 1.5332, 1.52673, 1.51206, 1.51213, 1.50037, 1.49627, 1.49257, 1.48794, 1.48397, 1.47787, 1.47349, 1.46746, 1.45942, 1.45795, 1.44934, 1.45352, 1.46497, 1.58973, 1.70413, 1.7314, 1.3979, 1.42985, 1.41465, 1.41404, 1.40243, 1.39859, 1.39273, 1.38657, 1.38417, 1.38077, 1.37429, 1.3713, 1.36791, 1.36214, 1.35765, 1.35529, 1.3505, 1.35029, 1.34547, 1.34234, 1.3358, 1.3369, 1.33106, 1.32608, 1.32422, 1.33236, 1.32709, 1.33478, 1.35993, 1.37781, 1.3542, 1.36185, 1.30465, 1.30675, 1.29489, 1.28226, 1.28172, 1.27738, 1.27435, 
1.66149, 1.66958, 1.64177, 1.60751, 1.60559, 1.60324, 1.60329, 1.60213, 1.63347, 1.68193, 1.70917, 1.651, 1.63266, 1.56512, 1.55825, 1.54329, 1.54439, 1.55195, 1.52408, 1.52671, 1.51869, 1.50805, 1.50134, 1.50157, 1.49293, 1.4901, 1.48594, 1.4805, 1.4729, 1.46561, 1.46414, 1.45888, 1.47765, 1.44521, 1.57227, 1.70689, 1.69883, 1.40279, 1.43744, 1.42917, 1.41614, 1.41026, 1.40704, 1.3989, 1.39573, 1.39354, 1.38888, 1.38474, 1.38406, 1.37642, 1.37152, 1.36842, 1.36027, 1.35856, 1.35226, 1.34998, 1.34677, 1.34488, 1.3536, 1.35904, 1.33945, 1.3343, 1.33749, 1.34351, 1.35009, 1.34568, 1.34798, 1.36981, 1.35442, 1.33613, 1.30917, 1.29771, 1.2999, 1.29432, 1.2818, 1.28425, 
1.65529, 1.67826, 1.62781, 1.62667, 1.62037, 1.61659, 1.61836, 1.59698, 1.62683, 1.66196, 1.69425, 1.68268, 1.54828, 1.56352, 1.55514, 1.54909, 1.54205, 1.54803, 1.5584, 1.52988, 1.52359, 1.54571, 1.50939, 1.50657, 1.50007, 1.49541, 1.48803, 1.48526, 1.48263, 1.47586, 1.47237, 1.47228, 1.46802, 1.46464, 1.5368, 1.74476, 1.74363, 1.45392, 1.44643, 1.44277, 1.43149, 1.43476, 1.41404, 1.4102, 1.40434, 1.40271, 1.40611, 1.3888, 1.38765, 1.38468, 1.38188, 1.37749, 1.37445, 1.36627, 1.36085, 1.35296, 1.3503, 1.35142, 1.35235, 1.3532, 1.34676, 1.3432, 1.3405, 1.35143, 1.34143, 1.35413, 1.36818, 1.38502, 1.38012, 1.33327, 1.32811, 1.31089, 1.29922, 1.2949, 1.2972, 1.29358, 
1.64315, 1.65232, 1.63178, 1.63442, 1.61919, 1.6133, 1.61694, 1.60738, 1.64466, 1.67174, 1.72768, 1.73827, 1.54432, 1.5857, 1.57127, 1.56052, 1.54699, 1.54988, 1.56071, 1.5341, 1.53059, 1.5259, 1.51574, 1.51114, 1.50532, 1.5009, 1.49492, 1.49131, 1.49133, 1.48596, 1.48979, 1.47327, 1.47255, 1.44193, 1.57557, 1.70535, 1.69667, 1.44712, 1.44936, 1.47846, 1.4331, 1.42727, 1.42146, 1.41945, 1.41239, 1.40549, 1.40369, 1.39811, 1.39212, 1.3911, 1.38847, 1.38737, 1.38093, 1.37129, 1.36205, 1.35779, 1.35382, 1.35057, 1.34948, 1.34352, 1.34357, 1.34134, 1.34328, 1.34409, 1.36065, 1.36558, 1.40642, 1.39084, 1.41317, 1.33783, 1.31775, 1.31403, 1.30817, 1.30354, 1.30627, 1.29706, 
1.65009, 1.64087, 1.65081, 1.65208, 1.63009, 1.62109, 1.6149, 1.59181, 1.65011, 1.6749, 1.75064, 1.67549, 1.56964, 1.57556, 1.56834, 1.55332, 1.54817, 1.54009, 1.55134, 1.53824, 1.53695, 1.5306, 1.52052, 1.5177, 1.51078, 1.50199, 1.4959, 1.48977, 1.48847, 1.48669, 1.48441, 1.47558, 1.47321, 1.46912, 1.57494, 1.70918, 1.70857, 1.48985, 1.44512, 1.44571, 1.43302, 1.42842, 1.42057, 1.41853, 1.41604, 1.41134, 1.40939, 1.40403, 1.39615, 1.39161, 1.39072, 1.39203, 1.39084, 1.38566, 1.37507, 1.36894, 1.36343, 1.35904, 1.35405, 1.35461, 1.35065, 1.34396, 1.34155, 1.34304, 1.34106, 1.35438, 1.38129, 1.39325, 1.40303, 1.33658, 1.32363, 1.32161, 1.31152, 1.30644, 1.29996, 1.29768, 
1.6511, 1.65085, 1.64946, 1.64715, 1.63655, 1.6243, 1.62244, 1.60631, 1.63781, 1.70766, 1.76592, 1.72772, 1.66571, 1.58152, 1.58279, 1.56763, 1.55885, 1.55582, 1.54756, 1.54377, 1.53737, 1.53056, 1.52868, 1.52348, 1.51515, 1.50773, 1.50316, 1.50018, 1.49471, 1.49135, 1.4791, 1.47677, 1.48904, 1.47534, 1.5107, 1.68077, 1.68905, 1.37707, 1.41997, 1.44763, 1.44133, 1.42931, 1.42107, 1.41743, 1.41122, 1.41198, 1.40643, 1.4022, 1.39693, 1.39457, 1.39179, 1.38903, 1.38867, 1.38365, 1.38111, 1.37953, 1.36771, 1.36497, 1.36561, 1.36384, 1.3593, 1.3546, 1.34704, 1.34561, 1.36034, 1.38138, 1.3934, 1.43047, 1.41051, 1.31701, 1.33418, 1.31831, 1.31266, 1.30675, 1.3196, 1.31186, 
1.65471, 1.64885, 1.64942, 1.64525, 1.65877, 1.63844, 1.62276, 1.62324, 1.60335, 1.67767, 1.7166, 1.74014, 1.66838, 1.58411, 1.57584, 1.57042, 1.56311, 1.55519, 1.54761, 1.55387, 1.55376, 1.5339, 1.5274, 1.52278, 1.51789, 1.51402, 1.50733, 1.49922, 1.49835, 1.49118, 1.49415, 1.48126, 1.48229, 1.47778, 1.5475, 1.66861, 1.68635, 1.58281, 1.41797, 1.44562, 1.43112, 1.42922, 1.42569, 1.42092, 1.41624, 1.41621, 1.41216, 1.40589, 1.40311, 1.39644, 1.39196, 1.3893, 1.38753, 1.38496, 1.38186, 1.37501, 1.37439, 1.36855, 1.36742, 1.36214, 1.36065, 1.35866, 1.35604, 1.36432, 1.35981, 1.36198, 1.39992, 1.44149, 1.44083, 1.42282, 1.3403, 1.33361, 1.31216, 1.31009, 1.30614, 1.30494, 
1.65873, 1.65176, 1.64394, 1.64394, 1.66639, 1.65453, 1.64141, 1.62951, 1.65387, 1.69708, 1.77836, 1.7381, 1.62442, 1.5928, 1.59524, 1.58566, 1.56866, 1.58192, 1.56472, 1.56196, 1.57258, 1.54455, 1.53427, 1.52448, 1.52249, 1.51523, 1.51117, 1.50526, 1.50079, 1.49605, 1.49314, 1.49583, 1.48762, 1.48693, 1.55652, 1.64742, 1.6823, 1.63331, 1.46147, 1.46151, 1.45515, 1.43985, 1.43544, 1.43025, 1.42374, 1.41965, 1.41737, 1.41375, 1.40983, 1.40617, 1.40248, 1.39932, 1.39508, 1.3915, 1.38765, 1.38175, 1.37615, 1.37424, 1.36742, 1.36478, 1.37126, 1.36174, 1.35801, 1.35874, 1.35163, 1.36792, 1.43343, 1.43419, 1.43792, 1.40597, 1.33597, 1.33382, 1.32611, 1.31792, 1.31284, 1.31001, 
1.66653, 1.66009, 1.66102, 1.64816, 1.64824, 1.67593, 1.64708, 1.63166, 1.65165, 1.68477, 1.78711, 1.75095, 1.62455, 1.57071, 1.6022, 1.57562, 1.56889, 1.56545, 1.56098, 1.56778, 1.57736, 1.55583, 1.5389, 1.53117, 1.5246, 1.52102, 1.51935, 1.51091, 1.50626, 1.50515, 1.49643, 1.49327, 1.49079, 1.47464, 1.5866, 1.65418, 1.66873, 1.57276, 1.43266, 1.46652, 1.47531, 1.47155, 1.43829, 1.43393, 1.42516, 1.42133, 1.42105, 1.41947, 1.41307, 1.41277, 1.40915, 1.40489, 1.4005, 1.39223, 1.38676, 1.3814, 1.37479, 1.37422, 1.36402, 1.3636, 1.35779, 1.35843, 1.35676, 1.36397, 1.36778, 1.38291, 1.45478, 1.44671, 1.45227, 1.40511, 1.31595, 1.32422, 1.32193, 1.31957, 1.31645, 1.31255, 
1.67187, 1.66708, 1.65584, 1.65261, 1.64664, 1.67047, 1.64069, 1.63732, 1.61721, 1.74904, 1.75872, 1.806, 1.61411, 1.60173, 1.59308, 1.57785, 1.57212, 1.56936, 1.56678, 1.55798, 1.59558, 1.57194, 1.54131, 1.53625, 1.53129, 1.52532, 1.52457, 1.51657, 1.51252, 1.50584, 1.51292, 1.49661, 1.50467, 1.47108, 1.57363, 1.63165, 1.67472, 1.54477, 1.46527, 1.46879, 1.46777, 1.45553, 1.45076, 1.44373, 1.4394, 1.42958, 1.4279, 1.42405, 1.41812, 1.41361, 1.41026, 1.40663, 1.4003, 1.39771, 1.39388, 1.38658, 1.37922, 1.37556, 1.37367, 1.37094, 1.36738, 1.36663, 1.36624, 1.37389, 1.37065, 1.3994, 1.45445, 1.4518, 1.46448, 1.41956, 1.33737, 1.32801, 1.32415, 1.32086, 1.31784, 1.31845, 
1.67022, 1.66544, 1.65653, 1.65187, 1.6455, 1.65936, 1.66814, 1.64255, 1.60444, 1.74216, 1.78378, 1.77983, 1.62396, 1.59971, 1.60011, 1.58467, 1.57869, 1.57297, 1.56799, 1.56239, 1.55844, 1.56274, 1.54219, 1.53866, 1.5345, 1.52912, 1.52692, 1.52051, 1.51258, 1.50741, 1.50189, 1.5018, 1.50007, 1.49297, 1.55865, 1.64471, 1.68175, 1.57152, 1.43962, 1.46811, 1.45805, 1.4605, 1.44442, 1.44268, 1.43951, 1.43487, 1.43397, 1.42837, 1.42262, 1.41982, 1.4173, 1.41063, 1.40795, 1.40446, 1.39718, 1.39206, 1.38542, 1.38413, 1.3856, 1.37827, 1.37332, 1.3712, 1.3716, 1.39273, 1.39213, 1.40637, 1.47768, 1.48559, 1.47613, 1.44645, 1.33927, 1.34177, 1.33066, 1.3281, 1.32567, 1.3262, 
1.67229, 1.66645, 1.66163, 1.64939, 1.65056, 1.65533, 1.65156, 1.62774, 1.60545, 1.71391, 1.82605, 1.82192, 1.63103, 1.62118, 1.59338, 1.5745, 1.58845, 1.56835, 1.56324, 1.55943, 1.55432, 1.5522, 1.55911, 1.55184, 1.53782, 1.52806, 1.52179, 1.51624, 1.50953, 1.50145, 1.49335, 1.49073, 1.49586, 1.47444, 1.50582, 1.67883, 1.68138, 1.62275, 1.44512, 1.46462, 1.45139, 1.44562, 1.4391, 1.43367, 1.43125, 1.42858, 1.45737, 1.42074, 1.41987, 1.41705, 1.41437, 1.40998, 1.40948, 1.40494, 1.40532, 1.39861, 1.39562, 1.38792, 1.3845, 1.38433, 1.37493, 1.37115, 1.38274, 1.37449, 1.39576, 1.38179, 1.44162, 1.47958, 1.47852, 1.43901, 1.35068, 1.35032, 1.34879, 1.33652, 1.33309, 1.32512, 
1.67929, 1.67496, 1.66842, 1.66098, 1.65833, 1.65399, 1.66192, 1.65904, 1.62517, 1.64493, 1.80738, 1.81285, 1.63762, 1.60545, 1.59977, 1.60047, 1.58573, 1.57777, 1.57278, 1.57172, 1.56019, 1.54872, 1.55237, 1.54545, 1.54064, 1.53389, 1.53124, 1.52293, 1.50685, 1.50587, 1.49872, 1.5055, 1.51221, 1.51242, 1.56084, 1.62734, 1.6509, 1.61646, 1.44743, 1.46772, 1.47119, 1.45209, 1.44459, 1.44135, 1.43677, 1.43001, 1.43088, 1.42059, 1.42267, 1.42424, 1.41524, 1.41097, 1.40876, 1.40505, 1.39716, 1.39192, 1.38953, 1.38837, 1.38327, 1.37906, 1.37523, 1.37193, 1.36749, 1.36517, 1.38204, 1.41289, 1.43912, 1.50382, 1.50394, 1.46685, 1.36062, 1.34766, 1.34495, 1.35141, 1.32961, 1.32589, 
1.67659, 1.66225, 1.65185, 1.65158, 1.65479, 1.65534, 1.64682, 1.64168, 1.63855, 1.71014, 1.84372, 1.83894, 1.67488, 1.6026, 1.59902, 1.59132, 1.57261, 1.55945, 1.56993, 1.55984, 1.54957, 1.55467, 1.56838, 1.56854, 1.54226, 1.53436, 1.52764, 1.52549, 1.52619, 1.50993, 1.51005, 1.50637, 1.50286, 1.50008, 1.55605, 1.63332, 1.66012, 1.61334, 1.4642, 1.47524, 1.4834, 1.46272, 1.4744, 1.45379, 1.44875, 1.44057, 1.42702, 1.42547, 1.43051, 1.42648, 1.41449, 1.40961, 1.41008, 1.40642, 1.40177, 1.41289, 1.38945, 1.38674, 1.38474, 1.39638, 1.37478, 1.3697, 1.37776, 1.38791, 1.3789, 1.34855, 1.49685, 1.52416, 1.51533, 1.43407, 1.33844, 1.35167, 1.33977, 1.34435, 1.33352, 1.32314, 
1.6854, 1.68922, 1.67651, 1.67587, 1.66649, 1.67179, 1.66252, 1.6391, 1.66273, 1.68667, 1.91764, 1.8841, 1.72695, 1.60887, 1.61042, 1.60914, 1.59601, 1.60602, 1.57778, 1.57361, 1.56599, 1.56543, 1.55911, 1.5656, 1.57911, 1.55478, 1.53378, 1.53298, 1.52496, 1.53215, 1.5168, 1.51942, 1.51548, 1.5121, 1.48288, 1.65086, 1.66133, 1.57813, 1.48938, 1.47306, 1.49445, 1.47172, 1.46346, 1.46417, 1.4455, 1.44273, 1.43263, 1.43489, 1.43574, 1.43254, 1.42286, 1.41081, 1.40418, 1.40285, 1.39898, 1.3953, 1.39161, 1.38918, 1.39199, 1.39301, 1.38785, 1.37672, 1.39207, 1.3703, 1.38435, 1.35311, 1.43702, 1.51626, 1.51053, 1.43789, 1.36822, 1.35553, 1.35106, 1.36542, 1.32849, 1.3241, 
1.66928, 1.66554, 1.65805, 1.65849, 1.66215, 1.64453, 1.63438, 1.64201, 1.59821, 1.67922, 1.79731, 1.83757, 1.70308, 1.61617, 1.59925, 1.59938, 1.5835, 1.56539, 1.56165, 1.55439, 1.55715, 1.55111, 1.54667, 1.55814, 1.55746, 1.53743, 1.51771, 1.51619, 1.51304, 1.51038, 1.50647, 1.49521, 1.49614, 1.50049, 1.52787, 1.60982, 1.63304, 1.61515, 1.49684, 1.46521, 1.46551, 1.47878, 1.45617, 1.43811, 1.4336, 1.42674, 1.42913, 1.42741, 1.42102, 1.41939, 1.41705, 1.40817, 1.40727, 1.39899, 1.39481, 1.38538, 1.38553, 1.38078, 1.37723, 1.37462, 1.37372, 1.37124, 1.36855, 1.37743, 1.36888, 1.35078, 1.44807, 1.50645, 1.51794, 1.49168, 1.33286, 1.3521, 1.33006, 1.3313, 1.32386, 1.32128, 
1.67529, 1.66838, 1.66233, 1.66614, 1.64576, 1.65607, 1.64036, 1.63415, 1.62147, 1.68316, 1.78681, 1.8558, 1.8038, 1.59352, 1.60371, 1.59129, 1.58238, 1.57832, 1.58648, 1.55995, 1.55096, 1.54749, 1.54732, 1.54152, 1.53783, 1.54406, 1.53061, 1.51956, 1.52096, 1.5027, 1.49936, 1.49383, 1.50332, 1.50312, 1.47402, 1.60766, 1.63699, 1.59336, 1.53255, 1.46332, 1.46922, 1.46569, 1.45032, 1.43471, 1.44127, 1.43317, 1.43046, 1.42349, 1.42241, 1.42274, 1.42725, 1.41013, 1.4064, 1.40201, 1.40401, 1.39644, 1.38646, 1.3796, 1.38609, 1.37847, 1.37161, 1.36862, 1.37444, 1.36899, 1.36715, 1.32188, 1.45165, 1.49613, 1.53664, 1.51341, 1.33822, 1.35506, 1.35077, 1.33298, 1.33408, 1.34384, 
1.66455, 1.67561, 1.64974, 1.64225, 1.63437, 1.65085, 1.61764, 1.62227, 1.58637, 1.64371, 1.7281, 1.85564, 1.79263, 1.59303, 1.58672, 1.58863, 1.56524, 1.56074, 1.55362, 1.54998, 1.54589, 1.53911, 1.5345, 1.52021, 1.51108, 1.54041, 1.52747, 1.52168, 1.49666, 1.49415, 1.48972, 1.48463, 1.493, 1.4969, 1.4556, 1.61768, 1.62942, 1.59307, 1.52693, 1.45164, 1.45034, 1.44156, 1.46729, 1.4265, 1.43186, 1.41596, 1.41285, 1.40495, 1.401, 1.39848, 1.39265, 1.38846, 1.38047, 1.37931, 1.37842, 1.37542, 1.37293, 1.36565, 1.36243, 1.35882, 1.35349, 1.34883, 1.34705, 1.34375, 1.3442, 1.33087, 1.45504, 1.47614, 1.52254, 1.49946, 1.32942, 1.32689, 1.32012, 1.3127, 1.30699, 1.30506, 
1.65682, 1.6449, 1.63896, 1.63169, 1.62698, 1.6216, 1.62191, 1.62626, 1.60039, 1.6953, 1.81394, 1.89627, 1.64568, 1.57882, 1.59223, 1.58024, 1.57905, 1.55595, 1.54758, 1.53759, 1.54207, 1.53752, 1.53011, 1.52546, 1.52079, 1.52754, 1.5364, 1.52035, 1.50354, 1.49866, 1.49603, 1.49187, 1.49219, 1.49974, 1.45811, 1.59106, 1.58912, 1.60898, 1.57853, 1.46135, 1.46827, 1.44753, 1.46461, 1.43283, 1.42979, 1.42117, 1.41615, 1.41236, 1.40734, 1.40195, 1.39812, 1.39649, 1.39357, 1.39018, 1.38655, 1.38165, 1.37657, 1.37438, 1.36738, 1.36378, 1.35947, 1.35879, 1.35085, 1.34914, 1.36115, 1.34846, 1.39984, 1.49661, 1.52657, 1.44495, 1.32167, 1.32526, 1.31762, 1.31191, 1.30915, 1.30738, 
1.66444, 1.65585, 1.66372, 1.64806, 1.64156, 1.63283, 1.62357, 1.62034, 1.62135, 1.68987, 1.82172, 1.88136, 1.76558, 1.58856, 1.58956, 1.57447, 1.56503, 1.558, 1.5526, 1.54664, 1.54501, 1.53796, 1.53272, 1.526, 1.52035, 1.51608, 1.52364, 1.5129, 1.5095, 1.49227, 1.48973, 1.48171, 1.48938, 1.48173, 1.46799, 1.53695, 1.59241, 1.5662, 1.54381, 1.4476, 1.44315, 1.43325, 1.43276, 1.45874, 1.42108, 1.41972, 1.41299, 1.41082, 1.40493, 1.3997, 1.39637, 1.39319, 1.39243, 1.38645, 1.38187, 1.37899, 1.3718, 1.36728, 1.36199, 1.35823, 1.35596, 1.35461, 1.35068, 1.35085, 1.35455, 1.33458, 1.44805, 1.54119, 1.53012, 1.42308, 1.35543, 1.32705, 1.31666, 1.31198, 1.31133, 1.30771, 
1.65994, 1.65594, 1.65159, 1.64421, 1.637, 1.64175, 1.62457, 1.63003, 1.62145, 1.67336, 1.69607, 1.87456, 1.63718, 1.57578, 1.58721, 1.5711, 1.56019, 1.55348, 1.55129, 1.54578, 1.54238, 1.53819, 1.53239, 1.53223, 1.52026, 1.51403, 1.51197, 1.52361, 1.49582, 1.50459, 1.48954, 1.48252, 1.48044, 1.48303, 1.50152, 1.55941, 1.58492, 1.57598, 1.50521, 1.46226, 1.46884, 1.44282, 1.44031, 1.44138, 1.44664, 1.41872, 1.41165, 1.40897, 1.40351, 1.39963, 1.39785, 1.39349, 1.38947, 1.38461, 1.38293, 1.3745, 1.36909, 1.3661, 1.36475, 1.36019, 1.35803, 1.35713, 1.3502, 1.34777, 1.34349, 1.3296, 1.42949, 1.46175, 1.5649, 1.50649, 1.32281, 1.33185, 1.32993, 1.32897, 1.32523, 1.31514, 
1.65921, 1.653, 1.64712, 1.63835, 1.63216, 1.64194, 1.63724, 1.636, 1.62101, 1.67293, 1.78627, 1.89935, 1.88561, 1.56935, 1.59025, 1.58995, 1.57224, 1.58253, 1.57622, 1.55035, 1.54464, 1.5407, 1.5366, 1.53295, 1.52375, 1.51673, 1.52654, 1.51418, 1.51306, 1.50969, 1.504, 1.4919, 1.49234, 1.49096, 1.48019, 1.56596, 1.63089, 1.57408, 1.53217, 1.45024, 1.46856, 1.44479, 1.43657, 1.43256, 1.43726, 1.42997, 1.41532, 1.40979, 1.40859, 1.40525, 1.40151, 1.3962, 1.39039, 1.38695, 1.3786, 1.37804, 1.3716, 1.36793, 1.3633, 1.35926, 1.35748, 1.35113, 1.3668, 1.34742, 1.34724, 1.35063, 1.42489, 1.45766, 1.58592, 1.55724, 1.36946, 1.34051, 1.33602, 1.33444, 1.32334, 1.31479, 
1.66403, 1.65323, 1.64729, 1.63803, 1.63206, 1.62739, 1.62417, 1.62093, 1.62803, 1.65455, 1.80474, 1.97633, 1.68705, 1.58178, 1.57645, 1.57311, 1.56613, 1.5582, 1.55472, 1.54932, 1.54193, 1.53637, 1.53374, 1.5284, 1.51711, 1.51455, 1.51187, 1.5047, 1.5201, 1.49952, 1.49526, 1.48787, 1.48157, 1.48978, 1.46779, 1.53437, 1.54732, 1.558, 1.50687, 1.47416, 1.45588, 1.44222, 1.43582, 1.44394, 1.43923, 1.43766, 1.41441, 1.41, 1.4066, 1.40439, 1.40284, 1.39717, 1.39316, 1.38849, 1.38459, 1.37858, 1.3743, 1.36962, 1.3579, 1.35395, 1.35299, 1.35162, 1.36004, 1.3525, 1.35166, 1.36238, 1.42696, 1.5343, 1.55414, 1.50283, 1.3065, 1.3305, 1.31666, 1.31326, 1.33937, 1.31259, 
1.65764, 1.65113, 1.64283, 1.63371, 1.63086, 1.62406, 1.62062, 1.61741, 1.61714, 1.64791, 1.77605, 1.86517, 1.64474, 1.59264, 1.58468, 1.57172, 1.56932, 1.55886, 1.54927, 1.5471, 1.53994, 1.53529, 1.53336, 1.52312, 1.51356, 1.51069, 1.5018, 1.49773, 1.51573, 1.51058, 1.4927, 1.4913, 1.49229, 1.49513, 1.4541, 1.59625, 1.58727, 1.54891, 1.5472, 1.43084, 1.45978, 1.44636, 1.43094, 1.42493, 1.42359, 1.41442, 1.40729, 1.40551, 1.40317, 1.40162, 1.39635, 1.39256, 1.39019, 1.38772, 1.38396, 1.38142, 1.37893, 1.37396, 1.36697, 1.36181, 1.3569, 1.35363, 1.35429, 1.349, 1.34902, 1.35018, 1.37989, 1.51868, 1.58097, 1.56766, 1.32773, 1.34135, 1.3188, 1.31543, 1.31311, 1.31077, 
1.65516, 1.65184, 1.64108, 1.63132, 1.62975, 1.62715, 1.62384, 1.62595, 1.62856, 1.59069, 1.77394, 1.90256, 1.86806, 1.58617, 1.58617, 1.58327, 1.56882, 1.55746, 1.55023, 1.54624, 1.54088, 1.53574, 1.53187, 1.52633, 1.52155, 1.51321, 1.50422, 1.50231, 1.49798, 1.52122, 1.51284, 1.48911, 1.48664, 1.4788, 1.45736, 1.56133, 1.56066, 1.53525, 1.51333, 1.43726, 1.45169, 1.45078, 1.45254, 1.43556, 1.4467, 1.43119, 1.41397, 1.40406, 1.40234, 1.39739, 1.39331, 1.38974, 1.38534, 1.38327, 1.37966, 1.37653, 1.37297, 1.36799, 1.36496, 1.3646, 1.36062, 1.35999, 1.3525, 1.35047, 1.35757, 1.35001, 1.42391, 1.5383, 1.586, 1.5816, 1.31617, 1.33637, 1.3297, 1.3142, 1.31252, 1.3081, 
1.65786, 1.65671, 1.64539, 1.63639, 1.63713, 1.62728, 1.61979, 1.62826, 1.61396, 1.58676, 1.68817, 1.93496, 1.82628, 1.59717, 1.57605, 1.57766, 1.56599, 1.55732, 1.5584, 1.54594, 1.53916, 1.53164, 1.52356, 1.51914, 1.51648, 1.5125, 1.50606, 1.50437, 1.49944, 1.50764, 1.51223, 1.49194, 1.48684, 1.48005, 1.45449, 1.4992, 1.54701, 1.5365, 1.53186, 1.41639, 1.45063, 1.44443, 1.4448, 1.45029, 1.48345, 1.44037, 1.41023, 1.40566, 1.40209, 1.39955, 1.39179, 1.38975, 1.39589, 1.38218, 1.37741, 1.37366, 1.36861, 1.36598, 1.36355, 1.36052, 1.35944, 1.35672, 1.35228, 1.34867, 1.34503, 1.35756, 1.31204, 1.48433, 1.59919, 1.58255, 1.31487, 1.32631, 1.31769, 1.31773, 1.31238, 1.31229, 
1.65693, 1.6526, 1.64437, 1.63883, 1.63364, 1.62996, 1.61745, 1.61257, 1.61061, 1.60574, 1.65751, 1.87759, 1.7917, 1.5538, 1.5879, 1.57378, 1.56903, 1.56111, 1.55043, 1.53896, 1.54041, 1.52814, 1.51606, 1.51068, 1.50647, 1.50463, 1.50187, 1.49983, 1.49686, 1.49308, 1.51431, 1.53744, 1.47929, 1.48165, 1.47514, 1.50839, 1.54264, 1.51248, 1.54575, 1.47572, 1.47244, 1.48367, 1.47672, 1.44468, 1.43215, 1.42123, 1.41287, 1.40782, 1.4031, 1.39701, 1.39242, 1.38524, 1.38345, 1.38078, 1.37616, 1.37075, 1.36869, 1.36441, 1.36146, 1.35767, 1.35473, 1.35035, 1.34714, 1.34252, 1.34108, 1.35708, 1.31319, 1.50012, 1.61502, 1.61505, 1.3647, 1.32838, 1.31512, 1.31285, 1.31413, 1.3046, 
1.64986, 1.64162, 1.6351, 1.63679, 1.63639, 1.62941, 1.62215, 1.61293, 1.61029, 1.59006, 1.7352, 1.95808, 1.96013, 1.55019, 1.60672, 1.57813, 1.5822, 1.57175, 1.55733, 1.54588, 1.54014, 1.53474, 1.52564, 1.51805, 1.50996, 1.50539, 1.50289, 1.49886, 1.4944, 1.50634, 1.49224, 1.49303, 1.53021, 1.51012, 1.48145, 1.52459, 1.52158, 1.47991, 1.53812, 1.47275, 1.46793, 1.46021, 1.43462, 1.42732, 1.42103, 1.42248, 1.41442, 1.40954, 1.40361, 1.39963, 1.39601, 1.39212, 1.39012, 1.38404, 1.38109, 1.37594, 1.37429, 1.37454, 1.36763, 1.36194, 1.36792, 1.35279, 1.34646, 1.34444, 1.34523, 1.3535, 1.32557, 1.48858, 1.60015, 1.64008, 1.30024, 1.33333, 1.32207, 1.31351, 1.31178, 1.30936, 
1.65215, 1.6467, 1.63983, 1.63665, 1.63282, 1.62346, 1.62737, 1.61008, 1.60795, 1.60832, 1.67816, 1.80323, 1.73225, 1.55041, 1.5654, 1.57794, 1.59354, 1.57186, 1.55552, 1.54265, 1.53396, 1.52758, 1.52449, 1.51859, 1.51375, 1.50795, 1.50346, 1.49554, 1.49177, 1.48567, 1.48324, 1.47795, 1.48133, 1.48954, 1.47275, 1.53307, 1.53915, 1.49633, 1.53018, 1.46455, 1.45466, 1.44411, 1.435, 1.42815, 1.42302, 1.41535, 1.41204, 1.40588, 1.40349, 1.40029, 1.39607, 1.39464, 1.38839, 1.38279, 1.37826, 1.37507, 1.36896, 1.36553, 1.36353, 1.35936, 1.35542, 1.35166, 1.35021, 1.34587, 1.34299, 1.34479, 1.34742, 1.5271, 1.61084, 1.65406, 1.29765, 1.32039, 1.31632, 1.31438, 1.3094, 1.30869, 
1.6503, 1.64162, 1.63328, 1.63032, 1.62436, 1.62071, 1.61439, 1.61461, 1.61284, 1.60344, 1.68827, 1.75952, 1.82292, 1.54232, 1.74343, 1.81064, 1.57753, 1.58692, 1.56568, 1.54259, 1.5387, 1.52877, 1.52301, 1.51909, 1.51493, 1.50779, 1.50087, 1.49512, 1.49087, 1.48699, 1.47853, 1.47519, 1.47186, 1.47814, 1.47145, 1.52402, 1.51814, 1.47885, 1.49147, 1.4885, 1.45902, 1.44822, 1.42695, 1.41993, 1.41435, 1.41241, 1.40617, 1.40645, 1.40421, 1.39914, 1.39167, 1.38769, 1.38257, 1.37866, 1.37758, 1.37103, 1.36884, 1.36231, 1.36061, 1.35149, 1.35016, 1.35017, 1.34461, 1.34103, 1.34015, 1.34664, 1.31958, 1.48501, 1.60757, 1.65161, 1.43696, 1.32773, 1.3201, 1.31336, 1.30553, 1.30327, 
1.64179, 1.63086, 1.62635, 1.621, 1.61684, 1.61142, 1.6043, 1.60011, 1.59699, 1.59576, 1.69574, 1.90094, 1.87215, 1.55577, 1.56786, 1.57782, 1.59002, 1.57184, 1.54537, 1.53637, 1.52343, 1.52049, 1.51582, 1.50781, 1.50531, 1.50273, 1.49614, 1.48666, 1.48305, 1.47366, 1.47162, 1.4687, 1.46576, 1.47873, 1.48576, 1.51248, 1.50676, 1.48787, 1.48575, 1.47979, 1.4374, 1.43675, 1.42827, 1.41595, 1.40907, 1.40557, 1.40441, 1.3995, 1.39632, 1.39027, 1.38185, 1.38071, 1.37457, 1.37613, 1.37459, 1.37065, 1.36455, 1.35516, 1.35717, 1.35473, 1.35063, 1.34999, 1.34214, 1.34043, 1.33689, 1.34108, 1.32053, 1.36384, 1.56572, 1.62097, 1.40967, 1.33171, 1.31244, 1.31432, 1.31269, 1.29725, 
1.63417, 1.62627, 1.6229, 1.61939, 1.61706, 1.61115, 1.60403, 1.59931, 1.59356, 1.60986, 1.67234, 1.75897, 1.74371, 1.54076, 1.56342, 1.55675, 1.56296, 1.5491, 1.53918, 1.53922, 1.52453, 1.52029, 1.51123, 1.50615, 1.4998, 1.49774, 1.50012, 1.48599, 1.47919, 1.47152, 1.46799, 1.46533, 1.46145, 1.46239, 1.46107, 1.53818, 1.50576, 1.49636, 1.49025, 1.47848, 1.44355, 1.42921, 1.43392, 1.41379, 1.40871, 1.40321, 1.39996, 1.39467, 1.38843, 1.38252, 1.37808, 1.37279, 1.37142, 1.37407, 1.37112, 1.36939, 1.36053, 1.3507, 1.34721, 1.34618, 1.34482, 1.34091, 1.33865, 1.34003, 1.32916, 1.33733, 1.32306, 1.46983, 1.56812, 1.54455, 1.29155, 1.31541, 1.3032, 1.30195, 1.30098, 1.29641, 
1.63716, 1.63068, 1.62069, 1.61985, 1.61535, 1.61316, 1.60441, 1.59664, 1.59812, 1.59256, 1.58479, 1.90171, 1.73725, 1.56169, 1.574, 1.56512, 1.56152, 1.5452, 1.55857, 1.53135, 1.52738, 1.52255, 1.51636, 1.50561, 1.50264, 1.49631, 1.4897, 1.48952, 1.48168, 1.4728, 1.4697, 1.46634, 1.4647, 1.46373, 1.47736, 1.50567, 1.53453, 1.48831, 1.47489, 1.50024, 1.43727, 1.4248, 1.41834, 1.41118, 1.40657, 1.4015, 1.39914, 1.39888, 1.39178, 1.38622, 1.38105, 1.37896, 1.37205, 1.36953, 1.36511, 1.35844, 1.35511, 1.34804, 1.34406, 1.3441, 1.34068, 1.33678, 1.33436, 1.33134, 1.32999, 1.32943, 1.31891, 1.46009, 1.50976, 1.70794, 1.27955, 1.31712, 1.32632, 1.3015, 1.30198, 1.29959, 
1.62845, 1.6215, 1.61694, 1.6102, 1.6073, 1.60132, 1.59495, 1.58908, 1.58277, 1.58146, 1.6505, 1.83535, 2.08201, 1.68309, 1.56241, 1.55317, 1.54854, 1.54382, 1.52518, 1.51865, 1.516, 1.51353, 1.51062, 1.50454, 1.49437, 1.49013, 1.48519, 1.48011, 1.47471, 1.46886, 1.46442, 1.46222, 1.4586, 1.4612, 1.4618, 1.50208, 1.48282, 1.4539, 1.46826, 1.48191, 1.42522, 1.41994, 1.40861, 1.40529, 1.40567, 1.4001, 1.39769, 1.38855, 1.38428, 1.38224, 1.37626, 1.37321, 1.36824, 1.36227, 1.35503, 1.34695, 1.34375, 1.34204, 1.33939, 1.33787, 1.34815, 1.33987, 1.33413, 1.32681, 1.32543, 1.3369, 1.32262, 1.46114, 1.52852, 1.72358, 1.28555, 1.29993, 1.2961, 1.31067, 1.2955, 1.29176, 
1.62496, 1.62689, 1.62337, 1.60874, 1.60209, 1.59529, 1.59262, 1.61094, 1.58312, 1.58652, 1.56647, 1.75837, 1.92792, 1.54778, 1.54963, 1.54287, 1.53807, 1.5284, 1.52597, 1.51409, 1.50808, 1.50287, 1.50201, 1.49629, 1.49217, 1.48525, 1.47908, 1.47483, 1.4685, 1.46923, 1.46144, 1.45143, 1.45457, 1.46022, 1.45413, 1.46837, 1.47814, 1.45744, 1.50208, 1.44326, 1.42683, 1.41409, 1.40022, 1.39598, 1.39471, 1.39131, 1.38892, 1.38457, 1.37756, 1.37064, 1.3665, 1.36381, 1.36232, 1.35844, 1.35409, 1.34493, 1.3377, 1.33529, 1.33094, 1.33415, 1.33647, 1.33258, 1.33696, 1.31998, 1.33667, 1.31455, 1.27326, 1.37599, 1.47036, 1.86894, 1.27108, 1.29937, 1.2919, 1.2928, 1.29789, 1.27951, 
1.62421, 1.61954, 1.61072, 1.60588, 1.59896, 1.58997, 1.58482, 1.58321, 1.59222, 1.57692, 1.59787, 1.80071, 2.19727, 1.53747, 1.54643, 1.53913, 1.53167, 1.5269, 1.55773, 1.51591, 1.50752, 1.50058, 1.49527, 1.49425, 1.48881, 1.48448, 1.47843, 1.47421, 1.46533, 1.46059, 1.45504, 1.45056, 1.44775, 1.44983, 1.45063, 1.46028, 1.46402, 1.46509, 1.45926, 1.46779, 1.44185, 1.42955, 1.40213, 1.41381, 1.39283, 1.39561, 1.38664, 1.38297, 1.37592, 1.36886, 1.36407, 1.35815, 1.35582, 1.35185, 1.34899, 1.34896, 1.34374, 1.33813, 1.3364, 1.33276, 1.32958, 1.3269, 1.32489, 1.32085, 1.32825, 1.31977, 1.32742, 1.36058, 1.5605, 1.63227, 1.51711, 1.31612, 1.32072, 1.29168, 1.28553, 1.28752, 
1.61471, 1.60504, 1.60128, 1.59494, 1.58889, 1.58475, 1.58562, 1.57961, 1.56859, 1.58269, 1.55931, 1.79053, 1.8829, 1.50815, 1.53785, 1.52861, 1.52094, 1.53651, 1.51096, 1.50654, 1.50083, 1.49379, 1.48955, 1.48272, 1.4787, 1.47087, 1.46929, 1.46103, 1.45752, 1.45434, 1.45739, 1.46447, 1.44736, 1.44096, 1.45562, 1.44939, 1.45962, 1.44625, 1.44678, 1.44362, 1.42673, 1.41447, 1.4, 1.38861, 1.38534, 1.38171, 1.38504, 1.37493, 1.36804, 1.36545, 1.36172, 1.35894, 1.35587, 1.35135, 1.34689, 1.34372, 1.33663, 1.33467, 1.331, 1.32347, 1.32304, 1.32109, 1.32018, 1.32588, 1.33032, 1.31235, 1.32597, 1.29474, 1.48123, 1.73142, 1.27814, 1.30584, 1.28782, 1.2829, 1.28268, 1.2795, 
1.59034, 1.58482, 1.58507, 1.58589, 1.57179, 1.56983, 1.56257, 1.55619, 1.55826, 1.56213, 1.54089, 1.66532, 2.07742, 1.49155, 1.52614, 1.52052, 1.49942, 1.4983, 1.50265, 1.49275, 1.48827, 1.48706, 1.48874, 1.47015, 1.46436, 1.46178, 1.46299, 1.45412, 1.44728, 1.43965, 1.4425, 1.43376, 1.42691, 1.4259, 1.4514, 1.43407, 1.44496, 1.4297, 1.427, 1.42403, 1.41231, 1.38854, 1.38617, 1.37767, 1.36432, 1.36238, 1.36793, 1.35597, 1.34681, 1.34729, 1.34023, 1.33772, 1.33752, 1.33132, 1.32219, 1.32266, 1.30866, 1.31592, 1.31483, 1.30599, 1.30968, 1.29845, 1.30545, 1.29295, 1.28781, 1.2841, 1.29326, 1.30946, 1.47159, 1.55433, 1.28214, 1.2694, 1.2736, 1.26622, 1.25541, 1.26042, 
1.60624, 1.6012, 1.59857, 1.59644, 1.58765, 1.58246, 1.57791, 1.57486, 1.56857, 1.57225, 1.5642, 1.63127, 1.77547, 1.5234, 1.55587, 1.52784, 1.53121, 1.5164, 1.52785, 1.50447, 1.49874, 1.49169, 1.48731, 1.48237, 1.47846, 1.47759, 1.46489, 1.45792, 1.45214, 1.45486, 1.45179, 1.44085, 1.43474, 1.44394, 1.45648, 1.45236, 1.45693, 1.45922, 1.44371, 1.45444, 1.42317, 1.42304, 1.40277, 1.396, 1.38468, 1.39174, 1.37804, 1.37073, 1.37905, 1.36031, 1.35691, 1.35409, 1.35067, 1.34315, 1.34181, 1.33731, 1.33422, 1.32958, 1.32437, 1.3237, 1.31921, 1.31521, 1.31543, 1.31309, 1.31184, 1.31347, 1.3121, 1.28554, 1.47213, 1.57183, 1.46568, 1.29912, 1.30465, 1.29312, 1.27987, 1.27502, 
1.60117, 1.59868, 1.59515, 1.59296, 1.58935, 1.57519, 1.56863, 1.5678, 1.56337, 1.55807, 1.55706, 1.60917, 1.96401, 1.52552, 1.53077, 1.5269, 1.52723, 1.51967, 1.50592, 1.49827, 1.48515, 1.485, 1.48243, 1.47911, 1.47278, 1.4687, 1.46847, 1.45195, 1.45051, 1.44783, 1.43991, 1.45498, 1.43517, 1.44161, 1.44128, 1.45412, 1.43563, 1.43391, 1.44422, 1.44152, 1.44428, 1.39882, 1.39596, 1.38353, 1.38081, 1.37184, 1.37093, 1.36572, 1.36231, 1.36142, 1.35529, 1.3523, 1.34681, 1.34107, 1.33896, 1.33752, 1.33543, 1.33291, 1.32425, 1.32284, 1.31672, 1.3144, 1.31251, 1.30854, 1.30245, 1.29929, 1.3165, 1.308, 1.50871, 1.77131, 1.50238, 1.48266, 1.36383, 1.28225, 1.27386, 1.2708, 
1.5967, 1.58611, 1.57941, 1.58049, 1.57263, 1.56711, 1.56309, 1.56204, 1.56527, 1.55977, 1.54867, 1.62914, 1.82652, 1.51704, 1.51907, 1.51591, 1.50697, 1.50289, 1.50029, 1.52093, 1.48387, 1.48025, 1.47617, 1.47121, 1.46124, 1.46147, 1.4526, 1.44577, 1.44452, 1.4424, 1.43685, 1.43926, 1.42903, 1.42997, 1.45161, 1.44971, 1.4421, 1.46266, 1.42082, 1.41335, 1.4226, 1.39769, 1.38418, 1.37451, 1.38318, 1.36486, 1.39781, 1.36418, 1.35534, 1.35231, 1.34726, 1.34714, 1.34033, 1.33625, 1.33302, 1.3278, 1.32991, 1.32245, 1.31481, 1.3095, 1.30464, 1.30543, 1.30165, 1.2957, 1.28789, 1.2833, 1.29563, 1.25558, 1.57214, 1.81097, 1.57069, 1.39122, 1.27852, 1.28088, 1.26431, 1.26233, 
1.59137, 1.58639, 1.58136, 1.57865, 1.5729, 1.56449, 1.56053, 1.56135, 1.55124, 1.56125, 1.55169, 1.6138, 1.6722, 1.51677, 1.51974, 1.50442, 1.50218, 1.5099, 1.5068, 1.49001, 1.48638, 1.47849, 1.4732, 1.47534, 1.45931, 1.45244, 1.45378, 1.44883, 1.44443, 1.46062, 1.43624, 1.43008, 1.42509, 1.42418, 1.42978, 1.44744, 1.44833, 1.42276, 1.41691, 1.42216, 1.41854, 1.40338, 1.37734, 1.36828, 1.36173, 1.3603, 1.3727, 1.35383, 1.35098, 1.35164, 1.34649, 1.34276, 1.33456, 1.32485, 1.31994, 1.31779, 1.31834, 1.3136, 1.31361, 1.31121, 1.30899, 1.3038, 1.3007, 1.29655, 1.29182, 1.2843, 1.2823, 1.29537, 1.35685, 1.58645, 1.49161, 1.27029, 1.26373, 1.26425, 1.26656, 1.25796, 
1.59, 1.58187, 1.57513, 1.57091, 1.56441, 1.55813, 1.55041, 1.54738, 1.54023, 1.54464, 1.55081, 1.71424, 1.68556, 1.52343, 1.50152, 1.51737, 1.50366, 1.50029, 1.49113, 1.48901, 1.47315, 1.46934, 1.4672, 1.464, 1.46197, 1.44635, 1.44137, 1.43857, 1.43359, 1.4305, 1.42701, 1.4204, 1.41954, 1.43433, 1.42375, 1.44004, 1.44388, 1.43993, 1.41587, 1.41127, 1.41896, 1.38894, 1.37431, 1.36549, 1.36214, 1.36028, 1.35174, 1.35942, 1.35145, 1.34469, 1.34579, 1.3352, 1.32973, 1.33563, 1.33094, 1.31612, 1.31464, 1.31352, 1.30879, 1.30544, 1.30262, 1.30094, 1.30573, 1.31524, 1.30355, 1.29983, 1.28445, 1.24977, 1.31868, 1.79944, 1.49887, 1.27435, 1.26356, 1.25804, 1.25739, 1.24652, 
