1.63779, 1.6365, 1.65053, 1.65923, 1.65075, 1.65258, 1.63096, 1.63368, 1.62159, 1.61784, 1.62592, 1.62328, 1.62166, 1.59501, 1.60101, 1.60884, 1.65776, 1.66287, 1.68676, 1.72449, 1.74828, 1.74657, 1.73405, 1.67911, 1.60522, 1.57116, 1.5826, 1.57531, 1.5693, 1.57674, 1.55971, 1.55457, 1.55317, 1.54845, 1.54577, 1.54354, 1.53791, 1.55094, 1.54668, 1.55157, 1.55236, 1.53846, 1.5501, 1.53334, 1.52745, 1.52577, 1.52263, 1.52133, 1.51917, 1.51676, 1.51389, 1.51103, 1.50644, 1.50339, 1.49911, 1.49736, 1.49575, 1.49279, 1.48946, 1.48821, 1.48792, 1.48637, 1.48725, 1.48519, 1.48797, 1.47783, 1.47557, 1.48197, 1.47349, 1.47399, 1.46101, 1.47803, 1.54772, 1.5781, 1.64617, 1.69245, 1.70988, 1.67301, 1.65574, 1.49953, 1.41671, 1.43026, 1.4459, 1.44734, 1.4377, 1.43451, 1.43154, 1.42777, 1.42664, 1.42566, 1.421, 1.41895, 1.41907, 1.41793, 1.41674, 1.41304, 1.41264, 1.41221, 1.40989, 1.40899, 1.40615, 1.40332, 1.40032, 1.39594, 1.39135, 1.39195, 1.39157, 1.392, 1.39253, 1.39188, 1.39285, 1.39158, 1.38961, 1.38637, 1.38897, 1.38897, 1.37723, 1.37254, 1.3715, 1.36783, 1.36555, 1.36418, 1.36104, 1.3593, 1.35842, 1.35771, 1.35688, 1.35671, 1.35372, 1.35377, 1.34904, 1.34571, 1.34599, 1.34307, 1.34044, 1.34118, 1.34475, 1.3514, 1.3391, 1.34823, 1.35507, 1.37563, 1.36998, 1.37721, 1.41414, 1.3951, 1.40273, 1.40344, 1.37359, 1.36281, 1.3066, 1.32497, 1.33314, 1.32747, 1.31583, 1.31279, 1.3109, 1.30955, 1.30233, 1.31191, 1.30071, 1.29907, 1.29847, 1.29599, 1.29389, 1.29618
1.64324, 1.64269, 1.64595, 1.64504, 1.64149, 1.64325, 1.64575, 1.62722, 1.62408, 1.62621, 1.61463, 1.61415, 1.61357, 1.62025, 1.59856, 1.6054, 1.64174, 1.65667, 1.6908, 1.7046, 1.78616, 1.72428, 1.72304, 1.67211, 1.63754, 1.5616, 1.56289, 1.58326, 1.58102, 1.56738, 1.56086, 1.55623, 1.55451, 1.54961, 1.54549, 1.54305, 1.54028, 1.53756, 1.54198, 1.56244, 1.55984, 1.53569, 1.53494, 1.53082, 1.52627, 1.52518, 1.52207, 1.52258, 1.52041, 1.51613, 1.51309, 1.50977, 1.50693, 1.50187, 1.50025, 1.50037, 1.49785, 1.49501, 1.49389, 1.4939, 1.48938, 1.48803, 1.48614, 1.48173, 1.48424, 1.47784, 1.47731, 1.47569, 1.47368, 1.47766, 1.46743, 1.47896, 1.50882, 1.54511, 1.63164, 1.64979, 1.68155, 1.62958, 1.60313, 1.55663, 1.43917, 1.42196, 1.44943, 1.44838, 1.44137, 1.43361, 1.43133, 1.42485, 1.43391, 1.42377, 1.42301, 1.41935, 1.41726, 1.41505, 1.41706, 1.4124, 1.41221, 1.41042, 1.40744, 1.40662, 1.4031, 1.39976, 1.39708, 1.39567, 1.39228, 1.38956, 1.39041, 1.39583, 1.39173, 1.39172, 1.39108, 1.38917, 1.38794, 1.38608, 1.38462, 1.38065, 1.37844, 1.37776, 1.37467, 1.37248, 1.36886, 1.36707, 1.36238, 1.36127, 1.36178, 1.36202, 1.36081, 1.36031, 1.35979, 1.35806, 1.35394, 1.35188, 1.35013, 1.34322, 1.34311, 1.35694, 1.34274, 1.34986, 1.36073, 1.34362, 1.34433, 1.37468, 1.38344, 1.39101, 1.39105, 1.41561, 1.45311, 1.40856, 1.40953, 1.36191, 1.30669, 1.31942, 1.33323, 1.33545, 1.32277, 1.31404, 1.3163, 1.31059, 1.3045, 1.3039, 1.30131, 1.3021, 1.29913, 1.30019, 1.29694, 1.29809
1.64918, 1.64751, 1.66618, 1.65708, 1.64851, 1.64673, 1.63654, 1.63038, 1.63465, 1.63031, 1.6261, 1.62693, 1.62649, 1.59682, 1.60212, 1.6698, 1.71068, 1.69032, 1.70322, 1.73135, 1.74911, 1.7696, 1.72859, 1.71588, 1.66477, 1.56018, 1.56757, 1.59172, 1.58577, 1.57595, 1.56475, 1.56289, 1.55869, 1.55776, 1.55157, 1.55473, 1.55345, 1.5427, 1.53166, 1.55631, 1.54701, 1.55421, 1.53456, 1.53328, 1.53077, 1.5284, 1.52679, 1.5248, 1.52222, 1.51995, 1.51628, 1.51392, 1.51149, 1.50764, 1.50577, 1.50462, 1.50334, 1.50582, 1.49792, 1.49465, 1.49341, 1.49149, 1.48842, 1.48855, 1.48918, 1.48446, 1.47582, 1.47677, 1.47689, 1.48148, 1.47231, 1.45696, 1.51348, 1.5958, 1.65462, 1.67655, 1.68805, 1.66006, 1.5651, 1.51912, 1.43013, 1.41958, 1.44482, 1.46243, 1.44079, 1.44801, 1.42954, 1.42861, 1.42759, 1.42457, 1.42243, 1.42384, 1.41686, 1.41601, 1.41694, 1.41154, 1.41066, 1.4093, 1.40777, 1.40608, 1.40476, 1.40467, 1.39824, 1.3973, 1.3961, 1.39235, 1.39138, 1.3988, 1.39476, 1.39111, 1.38923, 1.38877, 1.38879, 1.38677, 1.386, 1.38354, 1.38212, 1.3807, 1.37825, 1.37416, 1.37147, 1.36806, 1.36482, 1.36439, 1.36721, 1.36479, 1.36482, 1.36501, 1.36268, 1.36045, 1.35808, 1.35551, 1.3653, 1.34939, 1.34447, 1.34675, 1.34743, 1.3445, 1.34453, 1.33582, 1.35858, 1.37981, 1.46265, 1.39271, 1.39884, 1.41547, 1.41789, 1.41217, 1.40292, 1.34807, 1.31647, 1.32939, 1.33504, 1.32119, 1.31888, 1.31621, 1.31682, 1.3114, 1.30927, 1.31742, 1.30385, 1.30879, 1.30287, 1.29887, 1.29646, 1.29763
1.65123, 1.64713, 1.64779, 1.65018, 1.65122, 1.64893, 1.66144, 1.64541, 1.63092, 1.63078, 1.62339, 1.61481, 1.62939, 1.61597, 1.60285, 1.63941, 1.64048, 1.67327, 1.68838, 1.76549, 1.72911, 1.75463, 1.73501, 1.68628, 1.66827, 1.59674, 1.59562, 1.57859, 1.57675, 1.56869, 1.56515, 1.5653, 1.56133, 1.56823, 1.55479, 1.55163, 1.5546, 1.55001, 1.55042, 1.56507, 1.54477, 1.54181, 1.53477, 1.53383, 1.53853, 1.53264, 1.5271, 1.52472, 1.52294, 1.5204, 1.5179, 1.5167, 1.51459, 1.51084, 1.50882, 1.50631, 1.5053, 1.5036, 1.5009, 1.49813, 1.49419, 1.49104, 1.48856, 1.4861, 1.50342, 1.48282, 1.48175, 1.47802, 1.47756, 1.47644, 1.47795, 1.47167, 1.54199, 1.55576, 1.59078, 1.67843, 1.68498, 1.67632, 1.62239, 1.56799, 1.42169, 1.41657, 1.44746, 1.45556, 1.44664, 1.43711, 1.42943, 1.44794, 1.42697, 1.42561, 1.43605, 1.41979, 1.41746, 1.41898, 1.41293, 1.41414, 1.41228, 1.41241, 1.40914, 1.40853, 1.40515, 1.40343, 1.40086, 1.39985, 1.39842, 1.39464, 1.39239, 1.39219, 1.3913, 1.38933, 1.39426, 1.3885, 1.38832, 1.38501, 1.38497, 1.38192, 1.38108, 1.3797, 1.37706, 1.37229, 1.36991, 1.36757, 1.36736, 1.36494, 1.36706, 1.3656, 1.36473, 1.36498, 1.37494, 1.36226, 1.36395, 1.36093, 1.35826, 1.35624, 1.35043, 1.36017, 1.36643, 1.36117, 1.34281, 1.34432, 1.36678, 1.37362, 1.38443, 1.39259, 1.39298, 1.42519, 1.41786, 1.40803, 1.40951, 1.38332, 1.31631, 1.32304, 1.33267, 1.33783, 1.31595, 1.31632, 1.3233, 1.31012, 1.31032, 1.31042, 1.30732, 1.30594, 1.30242, 1.30551, 1.30146, 1.31329
1.65144, 1.64883, 1.64521, 1.64231, 1.6541, 1.65779, 1.65558, 1.65882, 1.64088, 1.63249, 1.61865, 1.63425, 1.62326, 1.6161, 1.59513, 1.62733, 1.6681, 1.68139, 1.7388, 1.70992, 1.71355, 1.71286, 1.71584, 1.69023, 1.63886, 1.57566, 1.57047, 1.58517, 1.58576, 1.57341, 1.57291, 1.57324, 1.56702, 1.56422, 1.55892, 1.55548, 1.55106, 1.5493, 1.54763, 1.54853, 1.56513, 1.55627, 1.53995, 1.53603, 1.53741, 1.52997, 1.52817, 1.52357, 1.5265, 1.52266, 1.51959, 1.51937, 1.53079, 1.51263, 1.50988, 1.50929, 1.50527, 1.50283, 1.49979, 1.49807, 1.49619, 1.49261, 1.48999, 1.49147, 1.48577, 1.48259, 1.48063, 1.48119, 1.48049, 1.48648, 1.46014, 1.49154, 1.5447, 1.56687, 1.62132, 1.6803, 1.68393, 1.67141, 1.65446, 1.55414, 1.43006, 1.42525, 1.45046, 1.45354, 1.45359, 1.43458, 1.43174, 1.42974, 1.43046, 1.42843, 1.42641, 1.42432, 1.42232, 1.41847, 1.41495, 1.41356, 1.41445, 1.41523, 1.41242, 1.41038, 1.40628, 1.40797, 1.40351, 1.40092, 1.39838, 1.39732, 1.39562, 1.39466, 1.39094, 1.39066, 1.39055, 1.39045, 1.3914, 1.39011, 1.39173, 1.38691, 1.38383, 1.3817, 1.37751, 1.3774, 1.37362, 1.37063, 1.37064, 1.36926, 1.3678, 1.36552, 1.3647, 1.36528, 1.36223, 1.36248, 1.36004, 1.3584, 1.36021, 1.36489, 1.35516, 1.35483, 1.35616, 1.35622, 1.35703, 1.35725, 1.35885, 1.39355, 1.391, 1.40644, 1.42501, 1.43334, 1.45017, 1.47339, 1.41673, 1.39951, 1.33461, 1.33748, 1.3334, 1.33751, 1.33134, 1.32162, 1.31621, 1.31663, 1.30788, 1.30538, 1.30604, 1.31374, 1.30612, 1.30298, 1.29988, 1.30128
1.6494, 1.65486, 1.64267, 1.64142, 1.63854, 1.64775, 1.66465, 1.66513, 1.64141, 1.64344, 1.6307, 1.64119, 1.63819, 1.62534, 1.61048, 1.6095, 1.637, 1.70022, 1.73088, 1.75318, 1.76731, 1.77059, 1.74566, 1.74498, 1.69701, 1.60672, 1.56454, 1.59364, 1.58991, 1.58047, 1.57553, 1.57473, 1.57222, 1.56994, 1.56562, 1.57127, 1.56066, 1.55312, 1.55597, 1.55844, 1.56057, 1.57999, 1.56471, 1.55138, 1.5379, 1.53262, 1.53076, 1.5246, 1.52175, 1.52179, 1.52083, 1.5187, 1.51728, 1.51701, 1.51553, 1.51158, 1.51052, 1.50599, 1.50833, 1.50157, 1.51648, 1.51326, 1.49066, 1.49137, 1.50312, 1.48861, 1.48553, 1.48796, 1.48448, 1.48117, 1.47756, 1.46612, 1.52341, 1.56019, 1.62457, 1.68331, 1.69611, 1.68726, 1.67472, 1.51778, 1.50815, 1.42988, 1.45731, 1.45844, 1.44965, 1.43989, 1.43684, 1.43458, 1.43311, 1.43163, 1.42913, 1.42691, 1.42595, 1.42287, 1.42164, 1.41943, 1.41738, 1.41731, 1.4171, 1.41583, 1.41334, 1.4095, 1.40887, 1.4063, 1.40482, 1.40171, 1.39962, 1.39815, 1.39644, 1.39643, 1.39393, 1.39244, 1.39069, 1.39199, 1.38936, 1.38668, 1.38587, 1.38387, 1.38068, 1.37639, 1.37762, 1.3742, 1.37077, 1.36984, 1.36904, 1.36638, 1.36641, 1.36864, 1.36485, 1.36489, 1.36261, 1.35936, 1.35843, 1.35957, 1.35883, 1.35714, 1.35807, 1.36437, 1.36532, 1.34685, 1.36058, 1.37276, 1.39169, 1.42349, 1.46204, 1.4412, 1.45186, 1.43511, 1.41895, 1.40588, 1.31891, 1.34193, 1.34438, 1.34298, 1.32285, 1.31865, 1.31615, 1.31106, 1.30872, 1.30847, 1.30627, 1.30557, 1.30502, 1.30257, 1.29994, 1.30111
1.65097, 1.64821, 1.65205, 1.64838, 1.64045, 1.64824, 1.65423, 1.65299, 1.65117, 1.64033, 1.64317, 1.64766, 1.63612, 1.63157, 1.61451, 1.62959, 1.67362, 1.70872, 1.74177, 1.75659, 1.79033, 1.78294, 1.76175, 1.74288, 1.67648, 1.56637, 1.59616, 1.6031, 1.60231, 1.58332, 1.57914, 1.57868, 1.58217, 1.58208, 1.56782, 1.5661, 1.57493, 1.5585, 1.5563, 1.55588, 1.56435, 1.57835, 1.5585, 1.55158, 1.54792, 1.55251, 1.54474, 1.55145, 1.52767, 1.52523, 1.525, 1.52277, 1.51783, 1.51705, 1.51522, 1.51218, 1.51021, 1.50679, 1.5043, 1.49992, 1.49884, 1.49775, 1.49355, 1.49355, 1.49027, 1.48966, 1.48878, 1.49254, 1.49219, 1.49295, 1.48698, 1.4616, 1.55436, 1.57225, 1.60548, 1.643, 1.66915, 1.67109, 1.65379, 1.59004, 1.50171, 1.42581, 1.45139, 1.463, 1.45727, 1.45026, 1.44433, 1.43995, 1.43745, 1.43561, 1.44326, 1.43004, 1.42866, 1.42602, 1.42326, 1.42123, 1.42358, 1.42015, 1.41806, 1.41896, 1.41684, 1.41462, 1.4132, 1.40955, 1.40838, 1.40753, 1.40342, 1.40199, 1.40096, 1.40065, 1.39872, 1.39614, 1.39403, 1.39228, 1.39137, 1.39014, 1.38781, 1.386, 1.38173, 1.38215, 1.37781, 1.37648, 1.37512, 1.37623, 1.37221, 1.37203, 1.37179, 1.37526, 1.36638, 1.36489, 1.36347, 1.36303, 1.36183, 1.3593, 1.35784, 1.36034, 1.36137, 1.37473, 1.37777, 1.351, 1.36911, 1.38464, 1.39849, 1.42328, 1.42429, 1.43962, 1.443, 1.44777, 1.41347, 1.37869, 1.35336, 1.34371, 1.33577, 1.33395, 1.3403, 1.32015, 1.32002, 1.31934, 1.32149, 1.31286, 1.31259, 1.3121, 1.30901, 1.30708, 1.30938, 1.30892
1.65606, 1.65277, 1.64817, 1.64653, 1.64469, 1.65784, 1.65285, 1.63942, 1.64805, 1.6473, 1.64826, 1.63695, 1.63747, 1.6341, 1.61727, 1.62772, 1.69767, 1.65849, 1.67514, 1.67529, 1.73788, 1.76587, 1.74414, 1.73774, 1.66797, 1.61823, 1.58739, 1.59938, 1.59429, 1.58326, 1.57989, 1.57573, 1.57381, 1.57004, 1.56791, 1.56756, 1.56391, 1.5618, 1.55892, 1.5577, 1.55578, 1.55663, 1.55931, 1.56491, 1.55468, 1.53703, 1.5337, 1.53132, 1.52991, 1.525, 1.52358, 1.51944, 1.51706, 1.51434, 1.51297, 1.51275, 1.5106, 1.50603, 1.50681, 1.50284, 1.52339, 1.50061, 1.49635, 1.49384, 1.49163, 1.49019, 1.48901, 1.48763, 1.49942, 1.48878, 1.48157, 1.45436, 1.47228, 1.5923, 1.63734, 1.65431, 1.6923, 1.69309, 1.68196, 1.61643, 1.49919, 1.44075, 1.46111, 1.46231, 1.46351, 1.45601, 1.45, 1.44741, 1.44149, 1.43955, 1.44285, 1.43313, 1.43071, 1.42876, 1.42515, 1.43025, 1.42119, 1.42004, 1.41945, 1.41888, 1.41797, 1.41576, 1.41713, 1.41126, 1.40997, 1.40899, 1.40824, 1.40761, 1.40496, 1.40274, 1.40214, 1.40145, 1.3985, 1.39352, 1.39148, 1.38871, 1.38771, 1.38531, 1.38045, 1.37973, 1.37743, 1.37479, 1.37322, 1.37175, 1.36913, 1.36895, 1.36684, 1.3652, 1.36296, 1.3626, 1.36166, 1.36112, 1.36031, 1.35876, 1.35528, 1.35697, 1.36444, 1.35859, 1.36334, 1.34962, 1.3751, 1.41659, 1.42583, 1.43188, 1.43004, 1.42761, 1.45431, 1.47549, 1.42679, 1.37812, 1.35073, 1.33482, 1.34468, 1.33719, 1.3309, 1.32723, 1.32216, 1.32059, 1.31669, 1.31755, 1.3158, 1.31267, 1.31211, 1.30922, 1.31036, 1.31226
1.65992, 1.65751, 1.6538, 1.65194, 1.64756, 1.64572, 1.64579, 1.66552, 1.6744, 1.65183, 1.63899, 1.64412, 1.6432, 1.64092, 1.61081, 1.64067, 1.64447, 1.69658, 1.71011, 1.73602, 1.73237, 1.75635, 1.76415, 1.70041, 1.69182, 1.61335, 1.56641, 1.59972, 1.59016, 1.60267, 1.57699, 1.57687, 1.57454, 1.56968, 1.56963, 1.56915, 1.57493, 1.58222, 1.56553, 1.55751, 1.5619, 1.55523, 1.56861, 1.57603, 1.54565, 1.55148, 1.54065, 1.53393, 1.52911, 1.52816, 1.5239, 1.52183, 1.51992, 1.51833, 1.51651, 1.51525, 1.51354, 1.51055, 1.50791, 1.50578, 1.50411, 1.50402, 1.49903, 1.49759, 1.49552, 1.49439, 1.49188, 1.48691, 1.48863, 1.48931, 1.50253, 1.45475, 1.51021, 1.56734, 1.63099, 1.67271, 1.67813, 1.6909, 1.64982, 1.57679, 1.49526, 1.46703, 1.44749, 1.46715, 1.47094, 1.45816, 1.45687, 1.4696, 1.44464, 1.44585, 1.43808, 1.43442, 1.43231, 1.43, 1.42636, 1.42434, 1.4227, 1.41823, 1.41989, 1.41946, 1.41644, 1.41705, 1.41579, 1.41294, 1.41189, 1.41007, 1.40836, 1.4055, 1.40511, 1.404, 1.40352, 1.40215, 1.40151, 1.39383, 1.38978, 1.38574, 1.38546, 1.38311, 1.38041, 1.37767, 1.37537, 1.37421, 1.37231, 1.36953, 1.36727, 1.36545, 1.36504, 1.36353, 1.36079, 1.36063, 1.36094, 1.36015, 1.35807, 1.35701, 1.35537, 1.35497, 1.37299, 1.36857, 1.36382, 1.34674, 1.37467, 1.39558, 1.42985, 1.44304, 1.44416, 1.44451, 1.45974, 1.44795, 1.4377, 1.40477, 1.35811, 1.31178, 1.35077, 1.33476, 1.33278, 1.33198, 1.32919, 1.31884, 1.31633, 1.3159, 1.31324, 1.31917, 1.31068, 1.30944, 1.3116, 1.32731
1.66219, 1.65853, 1.66248, 1.65567, 1.64946, 1.64751, 1.66028, 1.65049, 1.65282, 1.6694, 1.66548, 1.6425, 1.64095, 1.64187, 1.61672, 1.62796, 1.65817, 1.6649, 1.68213, 1.75549, 1.76248, 1.79175, 1.77328, 1.73065, 1.67643, 1.61601, 1.60259, 1.59701, 1.59914, 1.587, 1.57911, 1.57411, 1.58612, 1.58277, 1.56822, 1.56762, 1.5622, 1.56685, 1.55962, 1.56485, 1.55558, 1.56017, 1.58584, 1.58174, 1.55406, 1.55267, 1.54015, 1.54069, 1.53123, 1.5476, 1.52926, 1.52661, 1.53852, 1.52418, 1.52033, 1.51824, 1.51806, 1.51226, 1.50969, 1.50728, 1.50726, 1.52339, 1.50231, 1.49871, 1.49934, 1.49851, 1.49163, 1.48963, 1.50299, 1.49323, 1.48765, 1.46235, 1.54495, 1.5799, 1.60904, 1.65683, 1.67345, 1.68299, 1.66837, 1.5829, 1.54459, 1.45213, 1.46801, 1.47153, 1.47201, 1.46117, 1.46408, 1.46382, 1.44894, 1.44399, 1.44017, 1.43834, 1.43534, 1.45735, 1.43041, 1.42648, 1.42638, 1.42305, 1.42287, 1.4204, 1.42139, 1.42024, 1.41692, 1.41471, 1.41552, 1.41102, 1.41186, 1.40939, 1.40851, 1.40903, 1.4051, 1.40262, 1.40239, 1.39878, 1.39496, 1.39344, 1.3911, 1.38933, 1.38535, 1.3821, 1.37847, 1.37785, 1.37322, 1.37442, 1.3676, 1.36788, 1.36656, 1.36481, 1.36162, 1.36106, 1.36028, 1.36149, 1.36023, 1.3597, 1.36524, 1.36538, 1.36201, 1.36427, 1.36687, 1.34381, 1.36724, 1.40517, 1.4497, 1.43346, 1.44018, 1.49674, 1.44167, 1.44214, 1.43432, 1.40391, 1.37731, 1.31966, 1.34801, 1.34679, 1.33274, 1.32369, 1.32821, 1.32048, 1.33687, 1.31697, 1.31873, 1.32372, 1.31448, 1.31606, 1.31358, 1.32642
1.6677, 1.66129, 1.65772, 1.65383, 1.65262, 1.65753, 1.6538, 1.65428, 1.64878, 1.66953, 1.65073, 1.63687, 1.64747, 1.64912, 1.6161, 1.63, 1.63935, 1.72021, 1.74559, 1.77519, 1.79184, 1.80428, 1.7995, 1.80059, 1.65396, 1.59489, 1.58584, 1.59718, 1.59655, 1.58343, 1.58001, 1.57508, 1.57323, 1.57221, 1.5702, 1.56801, 1.57497, 1.56434, 1.56817, 1.55959, 1.56608, 1.57776, 1.57793, 1.56604, 1.59308, 1.54474, 1.55373, 1.53751, 1.54348, 1.53274, 1.53179, 1.52835, 1.52647, 1.52524, 1.54081, 1.52145, 1.52278, 1.5167, 1.51205, 1.50837, 1.50552, 1.50643, 1.53793, 1.50229, 1.49512, 1.49543, 1.51532, 1.50578, 1.49972, 1.50844, 1.49396, 1.46244, 1.50975, 1.56205, 1.59529, 1.67005, 1.68917, 1.68975, 1.70352, 1.5998, 1.50416, 1.44439, 1.44892, 1.4833, 1.47455, 1.48146, 1.45848, 1.45386, 1.4523, 1.44715, 1.44527, 1.44117, 1.44061, 1.43664, 1.43397, 1.43132, 1.42963, 1.42626, 1.42564, 1.42408, 1.43007, 1.42335, 1.42017, 1.41686, 1.41631, 1.41234, 1.41108, 1.4135, 1.4105, 1.40875, 1.40498, 1.4049, 1.40296, 1.40028, 1.39924, 1.39389, 1.39355, 1.39106, 1.38768, 1.38562, 1.38206, 1.37879, 1.37733, 1.37491, 1.37159, 1.3725, 1.36832, 1.36754, 1.3668, 1.36346, 1.36328, 1.3653, 1.3613, 1.36449, 1.36397, 1.36678, 1.37608, 1.37416, 1.3815, 1.35529, 1.38966, 1.41718, 1.49678, 1.44168, 1.47152, 1.47082, 1.45829, 1.44453, 1.43774, 1.39694, 1.35166, 1.31878, 1.36101, 1.34399, 1.32992, 1.32978, 1.32603, 1.32349, 1.32276, 1.3208, 1.34672, 1.31591, 1.31526, 1.3305, 1.31731, 1.31769
1.66564, 1.66264, 1.65867, 1.65905, 1.65238, 1.64903, 1.64687, 1.64533, 1.66163, 1.67966, 1.67013, 1.65015, 1.64993, 1.64236, 1.60921, 1.6175, 1.65246, 1.72983, 1.7754, 1.7691, 1.8491, 1.82022, 1.80672, 1.77928, 1.70082, 1.57899, 1.57524, 1.59587, 1.59712, 1.59133, 1.58389, 1.57873, 1.59114, 1.57311, 1.57185, 1.57073, 1.56878, 1.56734, 1.56598, 1.56078, 1.55934, 1.57359, 1.58913, 1.58061, 1.57113, 1.5653, 1.55158, 1.54179, 1.53797, 1.53648, 1.53285, 1.53228, 1.53075, 1.52767, 1.52447, 1.52333, 1.52013, 1.51841, 1.51647, 1.51548, 1.51207, 1.51681, 1.50642, 1.50339, 1.51313, 1.50436, 1.50494, 1.49602, 1.50378, 1.49934, 1.51071, 1.46433, 1.50756, 1.55133, 1.63348, 1.61317, 1.6073, 1.66897, 1.61812, 1.60083, 1.53455, 1.4469, 1.4587, 1.47156, 1.4755, 1.46618, 1.46298, 1.46487, 1.45625, 1.4557, 1.4522, 1.44916, 1.44576, 1.44142, 1.43959, 1.43654, 1.43053, 1.43069, 1.43065, 1.42937, 1.42631, 1.42619, 1.42383, 1.41884, 1.41832, 1.41621, 1.41372, 1.41288, 1.41118, 1.40999, 1.40876, 1.40521, 1.40178, 1.39974, 1.39658, 1.396, 1.39463, 1.39209, 1.3896, 1.38609, 1.38291, 1.38053, 1.38021, 1.37622, 1.37486, 1.37511, 1.3749, 1.37291, 1.37012, 1.36839, 1.36796, 1.37038, 1.36695, 1.36938, 1.36771, 1.36898, 1.38044, 1.37649, 1.37156, 1.34787, 1.40299, 1.41263, 1.44428, 1.46256, 1.45499, 1.4578, 1.46767, 1.46333, 1.45504, 1.43666, 1.36424, 1.32349, 1.3511, 1.34241, 1.34183, 1.32933, 1.32327, 1.32329, 1.33008, 1.32206, 1.32227, 1.31763, 1.31972, 1.33286, 1.31651, 1.31685
1.66602, 1.66196, 1.6594, 1.66114, 1.65799, 1.65127, 1.6564, 1.64737, 1.65258, 1.66152, 1.67153, 1.65936, 1.6481, 1.64113, 1.61658, 1.6347, 1.65509, 1.70251, 1.70687, 1.71717, 1.8573, 1.82246, 1.84202, 1.80666, 1.71263, 1.62764, 1.58891, 1.59923, 1.61812, 1.59622, 1.5863, 1.58616, 1.58221, 1.57955, 1.57824, 1.58291, 1.57238, 1.56905, 1.56798, 1.58271, 1.56857, 1.56096, 1.55985, 1.56492, 1.57513, 1.57052, 1.56175, 1.54366, 1.54998, 1.53941, 1.5403, 1.54404, 1.53413, 1.5362, 1.53051, 1.52803, 1.53689, 1.5234, 1.51776, 1.50761, 1.51222, 1.52306, 1.50659, 1.50784, 1.51355, 1.51327, 1.51641, 1.50025, 1.5106, 1.51359, 1.49901, 1.47003, 1.49958, 1.55846, 1.66759, 1.70617, 1.67361, 1.67261, 1.6557, 1.59266, 1.53673, 1.46247, 1.44815, 1.47911, 1.46562, 1.46962, 1.46545, 1.46153, 1.45412, 1.46418, 1.45137, 1.44942, 1.44804, 1.44452, 1.44303, 1.44, 1.43747, 1.43741, 1.43518, 1.43325, 1.43066, 1.42997, 1.42534, 1.42466, 1.42131, 1.4212, 1.4169, 1.41439, 1.41277, 1.41041, 1.31405, 1.40932, 1.4053, 1.40347, 1.40359, 1.40183, 1.39729, 1.39392, 1.3913, 1.38932, 1.38541, 1.38537, 1.38535, 1.37893, 1.3785, 1.37667, 1.37575, 1.37582, 1.3742, 1.37244, 1.37067, 1.37022, 1.37071, 1.3709, 1.37166, 1.37975, 1.38304, 1.37444, 1.3925, 1.3575, 1.40032, 1.45257, 1.46295, 1.48306, 1.46698, 1.46917, 1.46366, 1.44047, 1.44756, 1.42227, 1.36529, 1.31441, 1.34363, 1.34609, 1.3317, 1.33055, 1.32954, 1.32722, 1.33625, 1.34485, 1.32654, 1.32233, 1.32257, 1.32258, 1.32021, 1.32555
1.66352, 1.66178, 1.65783, 1.65517, 1.6522, 1.64887, 1.67167, 1.64623, 1.64492, 1.65548, 1.66211, 1.66499, 1.6482, 1.64296, 1.61907, 1.60397, 1.67281, 1.71765, 1.74778, 1.78379, 1.78612, 1.78514, 1.76919, 1.74615, 1.6801, 1.59263, 1.58662, 1.60939, 1.59725, 1.592, 1.58915, 1.58573, 1.58394, 1.57888, 1.57536, 1.57383, 1.57321, 1.56898, 1.56541, 1.56285, 1.56296, 1.56044, 1.55836, 1.55713, 1.56495, 1.56538, 1.55494, 1.54342, 1.5401, 1.53808, 1.53666, 1.53456, 1.52923, 1.52278, 1.52911, 1.5263, 1.52355, 1.52005, 1.51344, 1.51268, 1.5107, 1.51068, 1.50787, 1.5062, 1.50226, 1.50029, 1.49961, 1.4995, 1.49999, 1.50096, 1.49475, 1.47247, 1.49568, 1.55819, 1.61672, 1.64503, 1.6761, 1.68083, 1.67846, 1.57216, 1.53264, 1.43356, 1.44103, 1.46901, 1.46438, 1.46072, 1.45961, 1.46084, 1.45842, 1.45852, 1.44886, 1.44547, 1.44567, 1.44143, 1.43945, 1.43749, 1.43678, 1.43594, 1.43411, 1.43323, 1.43173, 1.42966, 1.42548, 1.42491, 1.42273, 1.41901, 1.41987, 1.41859, 1.41502, 1.41195, 1.41164, 1.41009, 1.40836, 1.45781, 1.40501, 1.40186, 1.40968, 1.40193, 1.42397, 1.39177, 1.38913, 1.38598, 1.38304, 1.38265, 1.38157, 1.38212, 1.37919, 1.37768, 1.37485, 1.37314, 1.37183, 1.37793, 1.37214, 1.37091, 1.37105, 1.37163, 1.39137, 1.37974, 1.39037, 1.35474, 1.39529, 1.40841, 1.49523, 1.46743, 1.45832, 1.46924, 1.47203, 1.4775, 1.46098, 1.4272, 1.3545, 1.329, 1.32361, 1.36068, 1.33603, 1.32939, 1.32994, 1.34574, 1.32781, 1.32904, 1.3273, 1.32655, 1.32422, 1.32413, 1.3251, 1.32252
1.66304, 1.66679, 1.6572, 1.65047, 1.65467, 1.64492, 1.64167, 1.64204, 1.64879, 1.64722, 1.66245, 1.68603, 1.65518, 1.6333, 1.62752, 1.60425, 1.68015, 1.69405, 1.71704, 1.76108, 1.81257, 1.81781, 1.82236, 1.77323, 1.70598, 1.59903, 1.57867, 1.59663, 1.60009, 1.58704, 1.58959, 1.58852, 1.57898, 1.57796, 1.57824, 1.57345, 1.56928, 1.56748, 1.56428, 1.56253, 1.56192, 1.55925, 1.55432, 1.56854, 1.56773, 1.56496, 1.56705, 1.55733, 1.53869, 1.53629, 1.53507, 1.53313, 1.53116, 1.53057, 1.52656, 1.52604, 1.52393, 1.51886, 1.51478, 1.51128, 1.50811, 1.50546, 1.50336, 1.49992, 1.49849, 1.49626, 1.49586, 1.49625, 1.50281, 1.50625, 1.49967, 1.46898, 1.52216, 1.55805, 1.61597, 1.64494, 1.66887, 1.67649, 1.67095, 1.58353, 1.57526, 1.48183, 1.44145, 1.4882, 1.46886, 1.46377, 1.46842, 1.46409, 1.44676, 1.44426, 1.44366, 1.44036, 1.43814, 1.4373, 1.43441, 1.43288, 1.43371, 1.4295, 1.42922, 1.42836, 1.42621, 1.42336, 1.41783, 1.42308, 1.42024, 1.41946, 1.42027, 1.41694, 1.41679, 1.41293, 1.41041, 1.41214, 1.40797, 1.40552, 1.40685, 1.40319, 1.39983, 1.39923, 1.39732, 1.39524, 1.3926, 1.39, 1.3896, 1.38586, 1.38238, 1.37986, 1.37833, 1.37802, 1.37566, 1.37506, 1.37427, 1.38141, 1.37218, 1.37093, 1.37281, 1.3819, 1.38117, 1.37293, 1.38151, 1.36892, 1.38337, 1.40949, 1.45845, 1.47251, 1.47698, 1.47142, 1.47654, 1.47491, 1.44665, 1.45028, 1.39918, 1.31549, 1.34062, 1.34108, 1.33465, 1.33418, 1.33359, 1.33263, 1.33159, 1.32821, 1.32678, 1.32952, 1.3265, 1.32481, 1.32273, 1.31975
1.66647, 1.66329, 1.66059, 1.65746, 1.65193, 1.64868, 1.64794, 1.67527, 1.64661, 1.64765, 1.65568, 1.65543, 1.64501, 1.63414, 1.61772, 1.62107, 1.65114, 1.69421, 1.75175, 1.76936, 1.80314, 1.8218, 1.80817, 1.77683, 1.67878, 1.62987, 1.57246, 1.61341, 1.61471, 1.60232, 1.58202, 1.59367, 1.5918, 1.59721, 1.58167, 1.57815, 1.57702, 1.5678, 1.56543, 1.56214, 1.55997, 1.56508, 1.55551, 1.55435, 1.55512, 1.56133, 1.56188, 1.56931, 1.54983, 1.54148, 1.53223, 1.53022, 1.53011, 1.54118, 1.53321, 1.52241, 1.5174, 1.51586, 1.51452, 1.51642, 1.50706, 1.5025, 1.52259, 1.4956, 1.49446, 1.49683, 1.49165, 1.49115, 1.49521, 1.50287, 1.5025, 1.45306, 1.48197, 1.5492, 1.62018, 1.66534, 1.68909, 1.69088, 1.71777, 1.61405, 1.50673, 1.46724, 1.45062, 1.45201, 1.47914, 1.46204, 1.45701, 1.45041, 1.45217, 1.45747, 1.45533, 1.43883, 1.43669, 1.43281, 1.43304, 1.43057, 1.43017, 1.42944, 1.42762, 1.42596, 1.42051, 1.4188, 1.41924, 1.41874, 1.41991, 1.4188, 1.42616, 1.41769, 1.41407, 1.41256, 1.40887, 1.40915, 1.40773, 1.40851, 1.4076, 1.40427, 1.40248, 1.40159, 1.39946, 1.39794, 1.39604, 1.39281, 1.38979, 1.39107, 1.38324, 1.38112, 1.38103, 1.39219, 1.37754, 1.37473, 1.37568, 1.39134, 1.37808, 1.37266, 1.37613, 1.36712, 1.37139, 1.37166, 1.37052, 1.36862, 1.38297, 1.38018, 1.46126, 1.45666, 1.47124, 1.47123, 1.48195, 1.47394, 1.47006, 1.45751, 1.39504, 1.32376, 1.34317, 1.34278, 1.35066, 1.33573, 1.35094, 1.33414, 1.33335, 1.33235, 1.32783, 1.32605, 1.32521, 1.32088, 1.35833, 1.31877
1.66576, 1.66435, 1.65968, 1.65695, 1.65189, 1.6477, 1.64582, 1.65284, 1.63937, 1.63802, 1.64794, 1.65515, 1.65943, 1.62343, 1.61614, 1.60336, 1.63028, 1.68878, 1.74697, 1.81767, 1.82159, 1.81705, 1.83041, 1.76108, 1.72378, 1.60735, 1.57963, 1.59345, 1.59777, 1.58441, 1.58089, 1.57908, 1.57491, 1.5729, 1.5723, 1.57141, 1.56716, 1.56265, 1.55939, 1.5588, 1.55493, 1.55369, 1.55076, 1.54867, 1.5434, 1.5422, 1.56239, 1.55392, 1.53678, 1.53041, 1.52959, 1.5281, 1.5349, 1.52964, 1.54158, 1.52446, 1.52426, 1.51633, 1.50945, 1.51282, 1.50166, 1.49722, 1.49173, 1.48837, 1.48945, 1.48817, 1.48927, 1.48795, 1.49891, 1.49193, 1.49079, 1.46884, 1.50343, 1.52107, 1.60984, 1.65093, 1.66541, 1.64695, 1.62717, 1.64512, 1.56355, 1.44867, 1.43744, 1.47336, 1.46121, 1.46147, 1.45891, 1.44781, 1.4451, 1.43855, 1.44437, 1.43691, 1.4336, 1.43272, 1.43082, 1.43132, 1.42926, 1.42814, 1.42514, 1.42227, 1.41929, 1.41759, 1.41748, 1.41994, 1.41891, 1.41811, 1.41686, 1.41301, 1.41177, 1.41, 1.40928, 1.40722, 1.40272, 1.40634, 1.40425, 1.40676, 1.39887, 1.39838, 1.39837, 1.39609, 1.39763, 1.39208, 1.39206, 1.38341, 1.38168, 1.37747, 1.37814, 1.37841, 1.37571, 1.37332, 1.37152, 1.37934, 1.3692, 1.36971, 1.37559, 1.37619, 1.3648, 1.37329, 1.36797, 1.33322, 1.37127, 1.38042, 1.43707, 1.46068, 1.4621, 1.47821, 1.49963, 1.51419, 1.48552, 1.45374, 1.42384, 1.30992, 1.35325, 1.35965, 1.34977, 1.33714, 1.33488, 1.33341, 1.33099, 1.33116, 1.32786, 1.32501, 1.32347, 1.31986, 1.32023, 1.31911
1.66861, 1.66532, 1.66418, 1.666, 1.6578, 1.65588, 1.65351, 1.65724, 1.64911, 1.6577, 1.64882, 1.66192, 1.67274, 1.65144, 1.63357, 1.60999, 1.63595, 1.66519, 1.73013, 1.77719, 1.81465, 1.82022, 1.81782, 1.80304, 1.73962, 1.65079, 1.61211, 1.61183, 1.61598, 1.59037, 1.5884, 1.58353, 1.58095, 1.5784, 1.57622, 1.57787, 1.57311, 1.5681, 1.56873, 1.56865, 1.56568, 1.56139, 1.55581, 1.55226, 1.549, 1.5509, 1.55741, 1.56419, 1.56192, 1.5404, 1.53322, 1.53514, 1.53407, 1.53206, 1.53256, 1.52956, 1.52533, 1.51728, 1.52016, 1.51107, 1.50441, 1.50003, 1.49657, 1.50012, 1.49614, 1.48973, 1.49039, 1.49237, 1.50304, 1.51266, 1.507, 1.47457, 1.48859, 1.54994, 1.65159, 1.64525, 1.65562, 1.60954, 1.66253, 1.63012, 1.56565, 1.47142, 1.43287, 1.46861, 1.46086, 1.47298, 1.46498, 1.45015, 1.4472, 1.44444, 1.44204, 1.44063, 1.43915, 1.43717, 1.43737, 1.43317, 1.43287, 1.43283, 1.42613, 1.42392, 1.42121, 1.42021, 1.42041, 1.41806, 1.42071, 1.42065, 1.41806, 1.41578, 1.41407, 1.4124, 1.40996, 1.40871, 1.40868, 1.4051, 1.40263, 1.40167, 1.39765, 1.39561, 1.39327, 1.39255, 1.38893, 1.3869, 1.38554, 1.38557, 1.38127, 1.37987, 1.37758, 1.37602, 1.37568, 1.37387, 1.37053, 1.37061, 1.37086, 1.36795, 1.36667, 1.36766, 1.36471, 1.36986, 1.38773, 1.36188, 1.37584, 1.44358, 1.46521, 1.47083, 1.48052, 1.49238, 1.5448, 1.48977, 1.48768, 1.45454, 1.3887, 1.3095, 1.35113, 1.36383, 1.35355, 1.34414, 1.33647, 1.33312, 1.3301, 1.32903, 1.33059, 1.32407, 1.32324, 1.32217, 1.32077, 1.32072
1.68128, 1.67595, 1.67487, 1.67259, 1.67106, 1.66652, 1.66517, 1.66353, 1.66129, 1.65858, 1.6557, 1.66578, 1.67497, 1.67407, 1.64838, 1.6076, 1.6179, 1.63604, 1.73086, 1.7791, 1.87958, 1.84493, 1.84107, 1.82629, 1.73078, 1.64053, 1.59991, 1.6097, 1.59599, 1.60297, 1.59654, 1.59635, 1.59328, 1.58551, 1.58522, 1.58194, 1.57938, 1.57754, 1.57762, 1.57773, 1.57108, 1.56853, 1.56201, 1.56294, 1.55539, 1.55287, 1.56084, 1.55178, 1.5682, 1.56138, 1.5481, 1.54464, 1.55234, 1.53616, 1.53282, 1.53242, 1.53112, 1.52939, 1.52192, 1.51796, 1.53465, 1.51397, 1.51289, 1.51151, 1.50727, 1.50399, 1.50541, 1.50358, 1.506, 1.51409, 1.52202, 1.51565, 1.4867, 1.54285, 1.59269, 1.62642, 1.63735, 1.6377, 1.63034, 1.61121, 1.54712, 1.48224, 1.45101, 1.46128, 1.48131, 1.4724, 1.47508, 1.46767, 1.46414, 1.45695, 1.46268, 1.44746, 1.44679, 1.44701, 1.44418, 1.44161, 1.43812, 1.43678, 1.43092, 1.42794, 1.42442, 1.42435, 1.42589, 1.43417, 1.42979, 1.43123, 1.42795, 1.42509, 1.41791, 1.41448, 1.41344, 1.41506, 1.41525, 1.41435, 1.41116, 1.40894, 1.40719, 1.3996, 1.39719, 1.39523, 1.39422, 1.3959, 1.39679, 1.39436, 1.39022, 1.38503, 1.38357, 1.38493, 1.38501, 1.37921, 1.37455, 1.37353, 1.38582, 1.37462, 1.37438, 1.37345, 1.36831, 1.382, 1.37431, 1.35383, 1.36247, 1.39829, 1.44055, 1.47236, 1.51996, 1.50671, 1.50722, 1.51005, 1.48897, 1.4546, 1.41307, 1.33655, 1.35825, 1.34937, 1.36025, 1.35403, 1.33702, 1.33468, 1.33357, 1.33765, 1.33963, 1.34061, 1.33295, 1.33114, 1.32477, 1.32312
1.67935, 1.67636, 1.66976, 1.66436, 1.66197, 1.68575, 1.66176, 1.65994, 1.66086, 1.67491, 1.66132, 1.66057, 1.65412, 1.64697, 1.64468, 1.61445, 1.6659, 1.67677, 1.68605, 1.76447, 1.8099, 1.84361, 1.8371, 1.8165, 1.73116, 1.64772, 1.59694, 1.61368, 1.60316, 1.59204, 1.59669, 1.60335, 1.58928, 1.59868, 1.57928, 1.57464, 1.57319, 1.58646, 1.57256, 1.57237, 1.56736, 1.56314, 1.5603, 1.56535, 1.56831, 1.55874, 1.5579, 1.55874, 1.57533, 1.57245, 1.549, 1.55154, 1.54703, 1.53062, 1.5299, 1.52944, 1.52872, 1.52713, 1.52319, 1.52099, 1.51894, 1.51721, 1.52971, 1.51996, 1.51527, 1.51077, 1.51434, 1.51009, 1.51676, 1.51347, 1.5106, 1.50385, 1.49111, 1.55608, 1.59269, 1.64043, 1.6611, 1.65826, 1.65248, 1.62671, 1.51722, 1.48881, 1.43824, 1.47037, 1.4718, 1.46633, 1.47416, 1.48615, 1.46721, 1.46712, 1.46272, 1.46873, 1.45602, 1.46698, 1.45235, 1.45144, 1.44674, 1.44165, 1.43657, 1.4318, 1.43041, 1.43059, 1.43374, 1.43526, 1.43638, 1.43341, 1.45253, 1.42396, 1.42251, 1.41995, 1.41774, 1.41703, 1.41681, 1.41382, 1.41287, 1.40922, 1.40865, 1.40492, 1.40442, 1.40121, 1.39955, 1.4202, 1.40602, 1.39596, 1.39274, 1.39216, 1.39971, 1.38467, 1.39702, 1.39316, 1.37971, 1.37835, 1.38674, 1.37511, 1.37422, 1.37875, 1.37555, 1.37729, 1.38412, 1.35516, 1.36502, 1.4826, 1.46127, 1.47652, 1.50951, 1.51456, 1.55888, 1.5143, 1.48737, 1.4358, 1.42014, 1.33863, 1.35116, 1.35849, 1.36638, 1.3536, 1.34027, 1.34021, 1.3399, 1.343, 1.34033, 1.3362, 1.33061, 1.34022, 1.32723, 1.32765
1.67508, 1.65501, 1.65096, 1.64619, 1.64524, 1.64359, 1.65844, 1.65395, 1.65493, 1.65653, 1.65262, 1.64189, 1.64253, 1.63476, 1.64761, 1.60683, 1.63724, 1.70574, 1.71718, 1.77955, 1.81852, 1.83912, 1.85962, 1.8276, 1.74205, 1.63832, 1.61563, 1.61216, 1.60444, 1.59151, 1.59053, 1.58852, 1.58443, 1.57476, 1.56048, 1.55604, 1.56139, 1.56835, 1.57121, 1.56794, 1.55879, 1.54975, 1.54401, 1.54469, 1.57128, 1.55078, 1.5476, 1.54898, 1.57274, 1.56113, 1.55499, 1.53464, 1.53162, 1.5295, 1.52831, 1.52923, 1.52815, 1.52756, 1.52471, 1.51488, 1.51319, 1.50086, 1.50212, 1.50569, 1.50749, 1.50559, 1.49839, 1.49537, 1.49777, 1.49931, 1.49923, 1.4636, 1.47581, 1.51669, 1.58343, 1.62395, 1.61674, 1.63205, 1.63771, 1.61581, 1.58257, 1.49962, 1.45956, 1.46107, 1.47954, 1.46993, 1.48577, 1.47666, 1.45383, 1.46445, 1.45546, 1.45789, 1.45334, 1.45359, 1.44721, 1.45166, 1.44668, 1.43704, 1.44093, 1.41925, 1.4155, 1.42181, 1.42469, 1.42956, 1.43037, 1.44156, 1.41911, 1.41155, 1.40355, 1.40189, 1.40086, 1.40237, 1.4065, 1.40635, 1.40293, 1.39999, 1.39838, 1.39855, 1.39812, 1.38833, 1.38429, 1.37951, 1.38223, 1.38849, 1.37836, 1.38144, 1.38067, 1.37807, 1.37657, 1.39229, 1.36752, 1.3848, 1.362, 1.37765, 1.36716, 1.36999, 1.36622, 1.37556, 1.37525, 1.37099, 1.36755, 1.40617, 1.44868, 1.50807, 1.52187, 1.49302, 1.4644, 1.50837, 1.5053, 1.45007, 1.4005, 1.33685, 1.34616, 1.3484, 1.34058, 1.3366, 1.34561, 1.33825, 1.3473, 1.33829, 1.34957, 1.332, 1.32167, 1.31431, 1.31242, 1.31212
1.67335, 1.6647, 1.65928, 1.65559, 1.6617, 1.654, 1.68189, 1.65865, 1.66032, 1.66077, 1.65291, 1.64682, 1.64725, 1.63541, 1.63333, 1.60137, 1.63037, 1.66594, 1.73411, 1.73288, 1.82585, 1.86487, 1.87223, 1.84388, 1.80288, 1.67146, 1.59347, 1.61038, 1.6172, 1.61132, 1.61056, 1.60334, 1.59349, 1.5786, 1.57508, 1.56674, 1.5651, 1.57132, 1.57139, 1.60899, 1.56256, 1.55521, 1.54902, 1.54694, 1.54586, 1.5448, 1.54417, 1.5447, 1.55769, 1.54498, 1.56857, 1.55055, 1.54041, 1.53599, 1.54064, 1.53422, 1.53048, 1.52958, 1.52726, 1.5229, 1.52056, 1.50938, 1.50763, 1.51536, 1.51263, 1.51059, 1.50525, 1.50252, 1.5016, 1.51566, 1.50374, 1.49608, 1.47236, 1.54013, 1.64149, 1.61412, 1.62942, 1.67226, 1.6493, 1.64831, 1.61365, 1.51475, 1.44483, 1.45815, 1.476, 1.4606, 1.46655, 1.47454, 1.46039, 1.45532, 1.46165, 1.45765, 1.45772, 1.45775, 1.45823, 1.43713, 1.43427, 1.43182, 1.42489, 1.4203, 1.41601, 1.4166, 1.42106, 1.43388, 1.4326, 1.4299, 1.42215, 1.43385, 1.4034, 1.40015, 1.39807, 1.39318, 1.39256, 1.39226, 1.39275, 1.38841, 1.38505, 1.38547, 1.38433, 1.37678, 1.37494, 1.37817, 1.37447, 1.37501, 1.3782, 1.38012, 1.38286, 1.38554, 1.38785, 1.38315, 1.36917, 1.3753, 1.3591, 1.35668, 1.35748, 1.35826, 1.36802, 1.3789, 1.37531, 1.34954, 1.3506, 1.39956, 1.46175, 1.47353, 1.52963, 1.50271, 1.52348, 1.52682, 1.48724, 1.42745, 1.35228, 1.33977, 1.36264, 1.34967, 1.3542, 1.34425, 1.34052, 1.33897, 1.33582, 1.32661, 1.32206, 1.31155, 1.31207, 1.31142, 1.30563, 1.3059
1.67789, 1.67786, 1.67037, 1.66911, 1.67646, 1.66512, 1.66358, 1.66251, 1.65989, 1.65874, 1.66406, 1.64568, 1.64111, 1.63329, 1.633, 1.62332, 1.6137, 1.70754, 1.73139, 1.77567, 1.86522, 1.88433, 1.89532, 1.88039, 1.76297, 1.66098, 1.59379, 1.62261, 1.61444, 1.61641, 1.61604, 1.60939, 1.61731, 1.59022, 1.59922, 1.58376, 1.57954, 1.57894, 1.57791, 1.57798, 1.57372, 1.5688, 1.56652, 1.5643, 1.56216, 1.57472, 1.5585, 1.55759, 1.564, 1.56966, 1.56533, 1.55885, 1.55551, 1.54555, 1.5407, 1.53567, 1.53596, 1.53069, 1.53388, 1.52715, 1.52696, 1.52514, 1.52157, 1.52016, 1.52016, 1.51483, 1.51655, 1.50925, 1.52236, 1.52152, 1.51354, 1.50188, 1.49858, 1.51497, 1.59361, 1.63185, 1.68014, 1.66624, 1.66141, 1.64369, 1.55879, 1.52936, 1.45877, 1.45508, 1.48892, 1.48556, 1.49019, 1.49614, 1.49237, 1.46771, 1.46444, 1.47428, 1.46904, 1.46865, 1.45074, 1.44691, 1.44402, 1.439, 1.4372, 1.43439, 1.43375, 1.43753, 1.43647, 1.43717, 1.43669, 1.43352, 1.43041, 1.42612, 1.42347, 1.41831, 1.42328, 1.41328, 1.41314, 1.40857, 1.40819, 1.40606, 1.40657, 1.40366, 1.40159, 1.39929, 1.40357, 1.39609, 1.39479, 1.39325, 1.39332, 1.39293, 1.3949, 1.39479, 1.39348, 1.3947, 1.38592, 1.39153, 1.38772, 1.37887, 1.37898, 1.37567, 1.38145, 1.37622, 1.38493, 1.38785, 1.36057, 1.41325, 1.43038, 1.45476, 1.48867, 1.55473, 1.54367, 1.53134, 1.49462, 1.47491, 1.4026, 1.33234, 1.35353, 1.37085, 1.35829, 1.35479, 1.35427, 1.34467, 1.33969, 1.34448, 1.33253, 1.33355, 1.33474, 1.33334, 1.32716, 1.3332
1.66897, 1.66602, 1.66384, 1.66182, 1.66012, 1.65885, 1.65503, 1.65127, 1.64915, 1.64543, 1.64379, 1.65215, 1.64419, 1.6461, 1.64495, 1.63051, 1.62774, 1.70116, 1.72423, 1.81468, 1.80714, 1.86053, 1.88301, 1.85518, 1.77971, 1.66871, 1.5859, 1.60949, 1.60254, 1.59721, 1.59407, 1.60223, 1.58658, 1.58976, 1.59662, 1.5752, 1.57314, 1.57249, 1.57308, 1.5699, 1.56697, 1.5657, 1.56305, 1.55972, 1.56174, 1.55417, 1.55178, 1.55045, 1.54803, 1.56142, 1.55453, 1.55407, 1.54853, 1.54359, 1.54205, 1.52739, 1.52368, 1.5226, 1.52011, 1.51989, 1.51823, 1.51579, 1.51698, 1.5134, 1.51511, 1.52706, 1.50539, 1.50171, 1.50918, 1.50899, 1.50302, 1.49903, 1.4766, 1.52607, 1.59073, 1.6246, 1.64369, 1.65134, 1.63296, 1.63137, 1.59456, 1.54484, 1.43173, 1.45055, 1.4713, 1.47079, 1.4748, 1.48969, 1.49245, 1.46807, 1.46393, 1.45798, 1.46196, 1.44426, 1.44085, 1.45729, 1.43642, 1.43511, 1.43536, 1.43461, 1.42991, 1.42855, 1.42987, 1.42686, 1.4271, 1.42649, 1.43089, 1.4174, 1.41958, 1.4488, 1.41786, 1.41595, 1.42278, 1.41249, 1.41057, 1.40905, 1.40673, 1.40295, 1.40018, 1.3967, 1.40596, 1.39437, 1.39203, 1.38821, 1.38779, 1.38635, 1.38449, 1.38464, 1.38314, 1.38152, 1.38847, 1.38026, 1.37817, 1.38729, 1.37639, 1.38132, 1.3907, 1.37893, 1.3781, 1.37855, 1.37178, 1.387, 1.43294, 1.44393, 1.47768, 1.5153, 1.51996, 1.51613, 1.48537, 1.46114, 1.38839, 1.3521, 1.36489, 1.36168, 1.34774, 1.35418, 1.34132, 1.33798, 1.33661, 1.33415, 1.33958, 1.32976, 1.33036, 1.32884, 1.32964, 1.34162
1.66565, 1.66714, 1.65867, 1.65798, 1.65923, 1.68652, 1.66172, 1.65254, 1.64566, 1.64055, 1.63729, 1.63386, 1.64787, 1.63479, 1.64355, 1.61984, 1.59872, 1.66613, 1.72678, 1.76981, 1.81033, 1.82784, 1.83716, 1.8207, 1.69669, 1.60863, 1.58578, 1.59872, 1.60075, 1.59857, 1.60003, 1.58847, 1.58685, 1.57488, 1.57132, 1.56756, 1.56406, 1.56109, 1.55475, 1.55328, 1.55504, 1.55731, 1.55841, 1.5574, 1.55124, 1.5438, 1.54655, 1.54737, 1.54463, 1.54404, 1.55706, 1.55794, 1.55257, 1.54038, 1.53414, 1.53084, 1.51726, 1.51622, 1.51371, 1.51281, 1.51111, 1.50971, 1.50687, 1.51058, 1.50859, 1.50006, 1.49836, 1.4942, 1.50618, 1.51519, 1.50286, 1.5065, 1.483, 1.52973, 1.58955, 1.59592, 1.62124, 1.62779, 1.61889, 1.61239, 1.56539, 1.53382, 1.48454, 1.45531, 1.47191, 1.46281, 1.46525, 1.47885, 1.47309, 1.47231, 1.45355, 1.43994, 1.44053, 1.43877, 1.4321, 1.4286, 1.42642, 1.42689, 1.4286, 1.43002, 1.42976, 1.42817, 1.42615, 1.42245, 1.42008, 1.41912, 1.41989, 1.41747, 1.41343, 1.40932, 1.40731, 1.40589, 1.40656, 1.40498, 1.39886, 1.39585, 1.39407, 1.38948, 1.38673, 1.38705, 1.38764, 1.38553, 1.38157, 1.37944, 1.37743, 1.37817, 1.37752, 1.37457, 1.37271, 1.37364, 1.37554, 1.37361, 1.37049, 1.3692, 1.36896, 1.36496, 1.37131, 1.37449, 1.37126, 1.36701, 1.34518, 1.44081, 1.43669, 1.45806, 1.48717, 1.50661, 1.51808, 1.51987, 1.49271, 1.45211, 1.40054, 1.32837, 1.34614, 1.35741, 1.35377, 1.35384, 1.32997, 1.33077, 1.33016, 1.32454, 1.32123, 1.33092, 1.32321, 1.32401, 1.3284, 1.32035
1.66035, 1.658, 1.65409, 1.65389, 1.65122, 1.64946, 1.64544, 1.64822, 1.64168, 1.63757, 1.63577, 1.63457, 1.63512, 1.63512, 1.64931, 1.63581, 1.61111, 1.636, 1.70754, 1.75605, 1.78848, 1.85366, 1.87644, 1.8482, 1.83383, 1.66144, 1.5649, 1.59499, 1.59568, 1.59567, 1.58048, 1.5785, 1.57292, 1.56971, 1.58542, 1.56589, 1.56202, 1.55933, 1.55402, 1.55154, 1.55398, 1.54678, 1.5466, 1.54475, 1.54827, 1.54119, 1.54168, 1.55529, 1.54401, 1.53789, 1.53764, 1.5374, 1.55232, 1.53154, 1.52634, 1.5163, 1.52002, 1.51254, 1.51356, 1.51013, 1.50632, 1.50675, 1.50073, 1.49667, 1.49401, 1.49229, 1.48878, 1.4872, 1.4922, 1.50933, 1.48986, 1.4803, 1.49362, 1.56781, 1.57167, 1.60506, 1.59848, 1.62502, 1.62111, 1.60392, 1.58121, 1.5266, 1.46734, 1.43414, 1.4614, 1.46407, 1.45355, 1.4756, 1.47977, 1.4789, 1.45889, 1.43812, 1.43179, 1.43594, 1.42825, 1.42668, 1.42477, 1.42546, 1.42639, 1.42684, 1.4258, 1.42438, 1.42162, 1.41891, 1.419, 1.41295, 1.41182, 1.40954, 1.40561, 1.40334, 1.40165, 1.40788, 1.40978, 1.40522, 1.39627, 1.39151, 1.3869, 1.38462, 1.38238, 1.38156, 1.3927, 1.37801, 1.37507, 1.37515, 1.37244, 1.37128, 1.37081, 1.36942, 1.38218, 1.36806, 1.37492, 1.36652, 1.37857, 1.36096, 1.35841, 1.37143, 1.3761, 1.37239, 1.36975, 1.35157, 1.33717, 1.37979, 1.42447, 1.39607, 1.47585, 1.50239, 1.52752, 1.54754, 1.55144, 1.48121, 1.43577, 1.34457, 1.34387, 1.3601, 1.34728, 1.33604, 1.32532, 1.33964, 1.32222, 1.32025, 1.32005, 1.32041, 1.3349, 1.31872, 1.31594, 1.31606
1.67264, 1.67006, 1.6654, 1.66858, 1.6597, 1.65658, 1.66671, 1.64728, 1.64998, 1.64969, 1.64853, 1.65455, 1.63515, 1.63544, 1.64061, 1.63081, 1.60938, 1.66537, 1.68693, 1.76113, 1.7636, 1.82592, 1.86579, 1.86114, 1.73736, 1.67231, 1.57899, 1.59198, 1.62036, 1.60979, 1.60338, 1.59636, 1.58514, 1.58813, 1.58685, 1.58486, 1.57216, 1.56862, 1.56538, 1.57884, 1.56123, 1.55853, 1.55299, 1.55269, 1.55084, 1.54747, 1.55414, 1.5606, 1.55148, 1.54093, 1.54861, 1.53839, 1.54514, 1.54911, 1.525, 1.52878, 1.52337, 1.53045, 1.51857, 1.51614, 1.51357, 1.51649, 1.50462, 1.51497, 1.49904, 1.50256, 1.51088, 1.50285, 1.5025, 1.495, 1.50219, 1.51623, 1.46739, 1.5099, 1.57517, 1.59356, 1.62661, 1.63466, 1.60993, 1.58532, 1.56342, 1.53955, 1.48985, 1.44527, 1.4688, 1.47146, 1.45933, 1.46113, 1.4645, 1.46193, 1.4579, 1.43639, 1.43584, 1.43509, 1.43948, 1.43376, 1.43297, 1.43226, 1.43171, 1.4309, 1.42784, 1.42529, 1.42454, 1.42193, 1.42231, 1.41795, 1.42099, 1.42396, 1.4123, 1.41131, 1.41623, 1.40937, 1.4084, 1.40766, 1.40174, 1.39792, 1.39495, 1.39118, 1.39062, 1.40276, 1.38527, 1.38233, 1.38202, 1.37846, 1.37778, 1.37539, 1.37708, 1.37605, 1.40357, 1.37469, 1.37142, 1.37145, 1.36757, 1.36837, 1.36763, 1.36134, 1.36147, 1.36854, 1.37547, 1.35736, 1.33636, 1.38973, 1.42299, 1.43036, 1.47302, 1.48499, 1.54148, 1.54718, 1.54279, 1.46895, 1.41624, 1.34713, 1.34782, 1.35011, 1.36666, 1.34635, 1.34971, 1.3506, 1.3464, 1.3269, 1.32356, 1.32453, 1.32253, 1.3205, 1.31955, 1.31846
1.66181, 1.65866, 1.65352, 1.65128, 1.64725, 1.64561, 1.64399, 1.63631, 1.63644, 1.63014, 1.62675, 1.6232, 1.62188, 1.61855, 1.61869, 1.61353, 1.6126, 1.62235, 1.69488, 1.74423, 1.78033, 1.83176, 1.8488, 1.83522, 1.79876, 1.68506, 1.57543, 1.57592, 1.58908, 1.58294, 1.57783, 1.57291, 1.57439, 1.56863, 1.5651, 1.56307, 1.56155, 1.58239, 1.55476, 1.55433, 1.54919, 1.54565, 1.54188, 1.54129, 1.53797, 1.53582, 1.53171, 1.53654, 1.52717, 1.52433, 1.52127, 1.52013, 1.53991, 1.54098, 1.52901, 1.52998, 1.52344, 1.52077, 1.52378, 1.50637, 1.49922, 1.4953, 1.49243, 1.49114, 1.49074, 1.48891, 1.48461, 1.48377, 1.48831, 1.4901, 1.48675, 1.4785, 1.46369, 1.49611, 1.53782, 1.59842, 1.62607, 1.64466, 1.60686, 1.60043, 1.57768, 1.53447, 1.45802, 1.42601, 1.46042, 1.46089, 1.45547, 1.45768, 1.45111, 1.49233, 1.45136, 1.42705, 1.4373, 1.43178, 1.43655, 1.4474, 1.42748, 1.43373, 1.42477, 1.47977, 1.44741, 1.41424, 1.41297, 1.40917, 1.41127, 1.41049, 1.44597, 1.40863, 1.40593, 1.40467, 1.40022, 1.39619, 1.39655, 1.39818, 1.39847, 1.39227, 1.39172, 1.38471, 1.38252, 1.3791, 1.37904, 1.37595, 1.375, 1.37388, 1.38247, 1.37048, 1.37054, 1.36758, 1.36848, 1.36442, 1.3647, 1.36067, 1.3582, 1.35842, 1.35785, 1.36127, 1.37218, 1.36092, 1.36183, 1.36471, 1.32029, 1.37475, 1.395, 1.41739, 1.34931, 1.49074, 1.53082, 1.55466, 1.54399, 1.49214, 1.38195, 1.36167, 1.34456, 1.34457, 1.34463, 1.34329, 1.32727, 1.32984, 1.32708, 1.32492, 1.32214, 1.32749, 1.31606, 1.31447, 1.31617, 1.31536
1.65796, 1.65491, 1.65211, 1.65806, 1.64827, 1.64352, 1.64013, 1.64057, 1.63115, 1.62668, 1.62069, 1.61757, 1.62705, 1.61301, 1.61264, 1.59616, 1.57509, 1.62697, 1.66205, 1.7033, 1.78908, 1.85606, 1.8753, 1.83978, 1.74356, 1.67991, 1.55746, 1.56539, 1.58918, 1.58875, 1.57498, 1.57862, 1.57271, 1.56684, 1.56296, 1.56038, 1.55958, 1.55725, 1.55512, 1.55432, 1.55275, 1.55135, 1.54904, 1.54429, 1.54224, 1.53717, 1.53359, 1.53215, 1.53846, 1.53423, 1.51996, 1.51311, 1.51637, 1.5447, 1.53386, 1.52413, 1.51004, 1.5138, 1.50586, 1.50318, 1.49524, 1.49425, 1.49342, 1.4907, 1.48845, 1.48768, 1.48343, 1.4992, 1.48174, 1.49418, 1.48786, 1.48608, 1.45331, 1.53077, 1.59831, 1.60697, 1.62901, 1.63399, 1.62432, 1.61327, 1.56337, 1.51252, 1.48228, 1.4337, 1.45194, 1.45562, 1.45451, 1.44947, 1.44732, 1.46468, 1.46122, 1.44899, 1.4342, 1.447, 1.42575, 1.42395, 1.42256, 1.41906, 1.41532, 1.41463, 1.41288, 1.40568, 1.405, 1.40262, 1.40142, 1.40132, 1.39872, 1.39651, 1.39523, 1.39332, 1.39565, 1.38523, 1.38202, 1.37999, 1.38454, 1.38019, 1.37867, 1.37746, 1.37836, 1.37569, 1.37375, 1.37175, 1.36897, 1.36446, 1.36456, 1.36277, 1.36127, 1.36015, 1.35718, 1.35514, 1.35612, 1.35303, 1.35114, 1.34913, 1.3472, 1.3469, 1.34444, 1.34772, 1.35193, 1.34382, 1.33697, 1.34696, 1.40628, 1.43151, 1.46059, 1.50183, 1.50006, 1.53683, 1.51421, 1.40561, 1.40624, 1.37472, 1.32283, 1.34634, 1.33037, 1.33267, 1.31767, 1.31067, 1.3134, 1.31136, 1.31204, 1.30612, 1.30584, 1.30388, 1.30606, 1.30265
1.6511, 1.64924, 1.64656, 1.64459, 1.6422, 1.64069, 1.63947, 1.63369, 1.63393, 1.6458, 1.65103, 1.61973, 1.61418, 1.61374, 1.63034, 1.59981, 1.5815, 1.64588, 1.62182, 1.722, 1.78656, 1.88881, 1.92016, 1.86383, 1.77117, 1.66191, 1.54582, 1.5924, 1.58234, 1.5793, 1.59062, 1.57169, 1.56784, 1.56459, 1.56227, 1.5603, 1.55701, 1.55473, 1.5522, 1.55197, 1.55017, 1.54757, 1.5449, 1.54102, 1.538, 1.53591, 1.53113, 1.52889, 1.52485, 1.52192, 1.51759, 1.51666, 1.53001, 1.52406, 1.52342, 1.52946, 1.50876, 1.51356, 1.50293, 1.50178, 1.49964, 1.49922, 1.49874, 1.49776, 1.49012, 1.48837, 1.49153, 1.48652, 1.48524, 1.48527, 1.49776, 1.50296, 1.4552, 1.4808, 1.55115, 1.57273, 1.62654, 1.63035, 1.61332, 1.60181, 1.59753, 1.56185, 1.483, 1.43359, 1.46818, 1.45209, 1.44846, 1.45102, 1.4533, 1.465, 1.45452, 1.4477, 1.43444, 1.42718, 1.42597, 1.41969, 1.43394, 1.42401, 1.41419, 1.41124, 1.40787, 1.40593, 1.40244, 1.40148, 1.40021, 1.398, 1.39605, 1.3942, 1.39222, 1.38994, 1.3885, 1.38666, 1.38406, 1.38216, 1.38279, 1.38163, 1.37968, 1.3796, 1.37608, 1.37408, 1.37075, 1.36923, 1.36723, 1.36438, 1.36229, 1.36229, 1.35752, 1.35817, 1.35656, 1.35394, 1.35053, 1.35147, 1.34802, 1.34544, 1.34417, 1.34333, 1.34161, 1.34364, 1.35078, 1.33809, 1.31472, 1.36671, 1.45492, 1.46547, 1.51063, 1.53434, 1.54352, 1.5375, 1.50555, 1.47869, 1.39722, 1.29389, 1.30602, 1.32445, 1.32431, 1.31641, 1.31227, 1.31248, 1.31081, 1.30897, 1.30868, 1.30501, 1.30407, 1.30158, 1.30326, 1.30115
1.64888, 1.64525, 1.64139, 1.63792, 1.63502, 1.63274, 1.63094, 1.64015, 1.62719, 1.62457, 1.62461, 1.62029, 1.61869, 1.61687, 1.62053, 1.60273, 1.58997, 1.64751, 1.70524, 1.74166, 1.82205, 1.85467, 1.91055, 1.87464, 1.76833, 1.68882, 1.56188, 1.58962, 1.58557, 1.59711, 1.57533, 1.58149, 1.56929, 1.56707, 1.56267, 1.55921, 1.55511, 1.55117, 1.54988, 1.54688, 1.5455, 1.54568, 1.54498, 1.54111, 1.54008, 1.541, 1.53265, 1.52926, 1.5264, 1.5237, 1.52127, 1.51936, 1.5193, 1.51772, 1.5365, 1.53426, 1.51883, 1.5096, 1.50627, 1.50539, 1.5037, 1.50181, 1.50024, 1.49877, 1.49819, 1.50949, 1.49296, 1.48785, 1.48689, 1.49659, 1.49752, 1.48726, 1.45532, 1.48625, 1.52114, 1.56031, 1.61276, 1.60726, 1.61665, 1.61345, 1.58347, 1.54933, 1.49093, 1.44414, 1.45701, 1.45748, 1.4594, 1.44849, 1.447, 1.45204, 1.46546, 1.47511, 1.45332, 1.43675, 1.42765, 1.43011, 1.42262, 1.41971, 1.41692, 1.41421, 1.41328, 1.41012, 1.40908, 1.40623, 1.40522, 1.40339, 1.40714, 1.39963, 1.40211, 1.3957, 1.39425, 1.39339, 1.3916, 1.39063, 1.38824, 1.38694, 1.38353, 1.38427, 1.38365, 1.38152, 1.37813, 1.37599, 1.37341, 1.36934, 1.36398, 1.36325, 1.36176, 1.36093, 1.36159, 1.36003, 1.35739, 1.35588, 1.35384, 1.35064, 1.34905, 1.34888, 1.34828, 1.34961, 1.34876, 1.35652, 1.37931, 1.36822, 1.42584, 1.4572, 1.46772, 1.49253, 1.51625, 1.51733, 1.49941, 1.46742, 1.41753, 1.3325, 1.32062, 1.32655, 1.33434, 1.31912, 1.31545, 1.3146, 1.31246, 1.30981, 1.30798, 1.30577, 1.30586, 1.30441, 1.3036, 1.30419
1.64579, 1.64285, 1.6471, 1.63628, 1.63538, 1.63234, 1.62771, 1.62476, 1.62364, 1.62136, 1.62669, 1.63695, 1.62315, 1.62375, 1.63403, 1.62616, 1.59421, 1.61317, 1.69277, 1.75865, 1.78553, 1.88608, 1.87278, 1.8793, 1.72512, 1.634, 1.56934, 1.58387, 1.58319, 1.582, 1.59586, 1.5699, 1.56374, 1.57796, 1.56501, 1.55719, 1.55156, 1.54738, 1.54582, 1.54216, 1.53771, 1.54047, 1.54322, 1.54201, 1.53771, 1.53366, 1.53057, 1.52862, 1.52573, 1.52106, 1.51932, 1.51818, 1.52361, 1.52294, 1.52618, 1.53571, 1.52361, 1.51334, 1.50934, 1.50076, 1.50001, 1.49874, 1.49701, 1.48978, 1.48953, 1.48892, 1.4867, 1.48334, 1.4862, 1.48472, 1.49553, 1.48574, 1.46041, 1.48438, 1.5125, 1.56499, 1.59636, 1.60587, 1.60097, 1.58995, 1.58581, 1.53317, 1.47943, 1.43476, 1.45853, 1.45049, 1.45457, 1.43935, 1.43965, 1.43744, 1.44514, 1.45438, 1.44325, 1.42656, 1.42392, 1.41996, 1.42736, 1.4153, 1.41301, 1.41226, 1.41288, 1.42002, 1.41199, 1.41079, 1.40614, 1.40179, 1.39826, 1.42027, 1.40151, 1.39789, 1.39639, 1.39526, 1.39445, 1.39253, 1.39111, 1.38996, 1.38588, 1.38551, 1.38456, 1.3828, 1.38201, 1.37792, 1.37587, 1.37173, 1.38137, 1.36832, 1.367, 1.36822, 1.3638, 1.36131, 1.3603, 1.35816, 1.35639, 1.35439, 1.36708, 1.35224, 1.35169, 1.36801, 1.35854, 1.36745, 1.3562, 1.35022, 1.41149, 1.46058, 1.47075, 1.48974, 1.53064, 1.53724, 1.55129, 1.4796, 1.45482, 1.32033, 1.30822, 1.32674, 1.32572, 1.31708, 1.32326, 1.31161, 1.31189, 1.30943, 1.31322, 1.30986, 1.30928, 1.30699, 1.30476, 1.30335
1.65108, 1.6482, 1.64434, 1.65388, 1.64781, 1.63913, 1.63769, 1.62972, 1.62672, 1.62835, 1.62129, 1.62052, 1.62109, 1.62678, 1.61803, 1.62697, 1.59706, 1.64521, 1.70963, 1.78894, 1.81747, 1.8465, 1.87867, 1.87997, 1.83745, 1.67782, 1.56026, 1.58475, 1.58307, 1.59616, 1.57389, 1.57233, 1.56689, 1.56795, 1.55749, 1.55576, 1.56014, 1.54981, 1.58235, 1.55014, 1.54185, 1.54162, 1.54166, 1.5423, 1.53858, 1.53647, 1.53348, 1.53719, 1.52549, 1.52419, 1.52259, 1.52981, 1.51683, 1.51422, 1.51286, 1.51699, 1.53315, 1.50664, 1.50313, 1.49957, 1.49813, 1.49672, 1.49396, 1.48704, 1.49883, 1.48483, 1.48402, 1.47982, 1.48933, 1.49214, 1.48171, 1.49887, 1.48186, 1.47872, 1.50228, 1.57997, 1.60095, 1.59296, 1.58137, 1.57494, 1.54791, 1.54001, 1.48102, 1.43102, 1.45915, 1.45499, 1.4464, 1.43536, 1.43239, 1.43226, 1.45435, 1.44449, 1.44667, 1.42274, 1.42304, 1.43057, 1.44366, 1.43478, 1.42857, 1.41212, 1.41306, 1.41193, 1.40913, 1.40797, 1.40534, 1.4039, 1.39838, 1.39959, 1.39789, 1.39812, 1.39835, 1.39474, 1.39197, 1.3916, 1.38991, 1.38955, 1.38567, 1.38288, 1.38431, 1.38294, 1.38171, 1.37599, 1.36972, 1.36859, 1.36712, 1.36314, 1.36589, 1.36374, 1.3615, 1.3618, 1.35655, 1.35469, 1.35482, 1.35329, 1.35377, 1.36041, 1.35045, 1.35946, 1.34982, 1.35337, 1.32989, 1.37655, 1.45871, 1.46139, 1.49994, 1.51397, 1.55162, 1.55184, 1.54185, 1.50035, 1.41754, 1.32774, 1.30674, 1.32941, 1.32812, 1.32643, 1.31394, 1.31242, 1.31344, 1.31188, 1.30951, 1.31412, 1.30889, 1.30543, 1.30466, 1.30863
1.65856, 1.65751, 1.65402, 1.65282, 1.66188, 1.64402, 1.64447, 1.65105, 1.63492, 1.63069, 1.62736, 1.624, 1.62215, 1.62042, 1.62014, 1.61695, 1.60069, 1.63475, 1.68637, 1.73369, 1.76854, 1.85425, 1.86185, 1.94898, 1.83575, 1.6743, 1.56888, 1.59198, 1.58577, 1.59616, 1.58712, 1.58189, 1.57018, 1.56582, 1.57008, 1.5592, 1.55601, 1.5527, 1.55143, 1.5498, 1.54672, 1.54693, 1.54406, 1.57162, 1.53836, 1.53653, 1.53338, 1.53033, 1.52853, 1.53665, 1.52261, 1.5211, 1.51731, 1.51522, 1.51859, 1.52036, 1.52375, 1.52304, 1.51008, 1.50191, 1.50048, 1.49612, 1.49215, 1.49224, 1.49078, 1.48588, 1.48535, 1.48303, 1.48263, 1.49564, 1.48908, 1.48456, 1.45372, 1.50198, 1.49834, 1.54793, 1.55769, 1.66501, 1.6606, 1.58542, 1.57282, 1.54893, 1.54372, 1.44996, 1.44795, 1.45013, 1.44204, 1.44468, 1.45476, 1.43289, 1.43564, 1.44727, 1.45085, 1.45088, 1.42982, 1.4204, 1.41878, 1.43798, 1.43302, 1.4137, 1.41136, 1.41051, 1.40895, 1.40681, 1.40595, 1.40229, 1.40018, 1.39925, 1.39915, 1.39432, 1.39303, 1.39153, 1.38925, 1.38887, 1.388, 1.39225, 1.38145, 1.3802, 1.37751, 1.37556, 1.37288, 1.37124, 1.36901, 1.36785, 1.36255, 1.36277, 1.36223, 1.36471, 1.35825, 1.35907, 1.35762, 1.35694, 1.35549, 1.35442, 1.35218, 1.35347, 1.3513, 1.37598, 1.36201, 1.36196, 1.35008, 1.39304, 1.39672, 1.44097, 1.47574, 1.49618, 1.53748, 1.5351, 1.52313, 1.46152, 1.4075, 1.32994, 1.33041, 1.34052, 1.33443, 1.33571, 1.31543, 1.31485, 1.31534, 1.3142, 1.31195, 1.312, 1.31063, 1.30855, 1.30948, 1.30576
1.65544, 1.65554, 1.65223, 1.65069, 1.64831, 1.64364, 1.6424, 1.63852, 1.63731, 1.64512, 1.62776, 1.62254, 1.62175, 1.63086, 1.63423, 1.63743, 1.59953, 1.59008, 1.6379, 1.71592, 1.76046, 1.82494, 1.86198, 1.88827, 1.79498, 1.71622, 1.56662, 1.5723, 1.58904, 1.58607, 1.57944, 1.57243, 1.5692, 1.57128, 1.57579, 1.5653, 1.55565, 1.55179, 1.54986, 1.54825, 1.54577, 1.54372, 1.54451, 1.54025, 1.53918, 1.53738, 1.53593, 1.53064, 1.52978, 1.52471, 1.52326, 1.52127, 1.51801, 1.51463, 1.5121, 1.51965, 1.51365, 1.52699, 1.52374, 1.50694, 1.49843, 1.49647, 1.50896, 1.49343, 1.48893, 1.48581, 1.48636, 1.48192, 1.48607, 1.48965, 1.49202, 1.47524, 1.44802, 1.46893, 1.50955, 1.50917, 1.56134, 1.58698, 1.60628, 1.60799, 1.58432, 1.51477, 1.48894, 1.42732, 1.46043, 1.46301, 1.44401, 1.43811, 1.44124, 1.43335, 1.44128, 1.44166, 1.4571, 1.44021, 1.43227, 1.42768, 1.42644, 1.41991, 1.41601, 1.41403, 1.4135, 1.41161, 1.4093, 1.4089, 1.40321, 1.40172, 1.40182, 1.39846, 1.39785, 1.39571, 1.39388, 1.39232, 1.39053, 1.39561, 1.39282, 1.38385, 1.39368, 1.37943, 1.37916, 1.3761, 1.37468, 1.37176, 1.36961, 1.36804, 1.36702, 1.3649, 1.36691, 1.36323, 1.36269, 1.36116, 1.36057, 1.35758, 1.35768, 1.36057, 1.35587, 1.35439, 1.35336, 1.34754, 1.36086, 1.3547, 1.34767, 1.37626, 1.40012, 1.42727, 1.45632, 1.5189, 1.58169, 1.56302, 1.53736, 1.53534, 1.45312, 1.3618, 1.33655, 1.33322, 1.33891, 1.32513, 1.34051, 1.32053, 1.32013, 1.31724, 1.31517, 1.31394, 1.3128, 1.31269, 1.33421, 1.30824
1.65636, 1.65474, 1.65315, 1.65034, 1.64864, 1.64398, 1.63871, 1.63654, 1.63385, 1.6374, 1.62773, 1.62507, 1.62314, 1.61818, 1.62804, 1.62341, 1.59165, 1.61277, 1.67435, 1.69028, 1.73914, 1.84031, 1.90005, 1.99621, 1.73159, 1.70662, 1.56675, 1.57907, 1.58389, 1.58398, 1.5721, 1.56642, 1.56266, 1.56122, 1.55747, 1.55563, 1.55205, 1.55135, 1.55261, 1.54931, 1.54589, 1.54458, 1.54268, 1.54014, 1.53714, 1.53746, 1.53382, 1.53071, 1.52706, 1.52553, 1.53693, 1.52116, 1.51704, 1.51538, 1.52279, 1.50872, 1.51005, 1.51668, 1.51985, 1.51534, 1.49552, 1.49328, 1.49299, 1.48949, 1.48789, 1.4864, 1.48436, 1.48266, 1.48186, 1.49561, 1.48542, 1.48108, 1.45056, 1.49975, 1.51086, 1.54721, 1.58615, 1.59111, 1.57931, 1.57747, 1.55855, 1.51493, 1.49779, 1.46205, 1.45529, 1.45229, 1.4609, 1.43808, 1.43427, 1.43306, 1.43734, 1.43164, 1.44334, 1.45038, 1.42667, 1.42941, 1.43261, 1.41476, 1.41264, 1.41238, 1.41066, 1.40935, 1.4063, 1.40523, 1.40362, 1.40291, 1.39922, 1.39869, 1.39742, 1.39742, 1.39504, 1.39329, 1.39073, 1.38802, 1.38442, 1.38434, 1.38397, 1.37804, 1.37785, 1.37437, 1.37134, 1.37097, 1.36748, 1.36773, 1.36704, 1.36398, 1.36223, 1.36146, 1.36033, 1.36047, 1.36, 1.35877, 1.36492, 1.35591, 1.35019, 1.35049, 1.34735, 1.34479, 1.3468, 1.3514, 1.32015, 1.35821, 1.42084, 1.43974, 1.49082, 1.52999, 1.55588, 1.54609, 1.53818, 1.51071, 1.45597, 1.32897, 1.3322, 1.33343, 1.33418, 1.3335, 1.32919, 1.32399, 1.32288, 1.31997, 1.31713, 1.31426, 1.31302, 1.31264, 1.30891, 1.30698
1.65462, 1.65072, 1.64759, 1.64627, 1.64282, 1.64055, 1.6377, 1.63389, 1.63076, 1.62995, 1.62819, 1.62581, 1.62256, 1.62098, 1.62782, 1.63126, 1.60208, 1.62002, 1.6689, 1.70653, 1.76675, 1.80966, 1.86813, 1.94443, 1.80139, 1.69274, 1.58198, 1.56819, 1.58621, 1.5813, 1.57501, 1.57035, 1.56927, 1.56431, 1.5617, 1.55895, 1.55778, 1.55981, 1.55367, 1.55295, 1.55105, 1.54844, 1.54581, 1.54225, 1.53803, 1.5369, 1.53471, 1.53288, 1.53011, 1.52844, 1.52671, 1.52335, 1.51888, 1.51993, 1.51361, 1.51718, 1.51093, 1.52634, 1.52131, 1.52678, 1.49861, 1.49801, 1.49737, 1.49365, 1.49184, 1.48991, 1.4882, 1.48606, 1.48532, 1.48446, 1.49292, 1.48947, 1.45689, 1.45792, 1.50401, 1.56244, 1.58318, 1.57077, 1.62416, 1.58822, 1.57227, 1.52321, 1.5027, 1.48183, 1.46093, 1.46165, 1.45099, 1.44756, 1.4373, 1.43481, 1.45089, 1.43201, 1.44025, 1.45577, 1.4548, 1.44015, 1.43663, 1.41817, 1.41354, 1.41229, 1.41114, 1.40862, 1.40681, 1.40552, 1.40532, 1.40517, 1.4019, 1.39998, 1.39919, 1.39752, 1.39516, 1.3932, 1.39142, 1.39027, 1.38682, 1.3848, 1.38312, 1.37966, 1.37763, 1.3757, 1.37158, 1.37098, 1.36806, 1.36715, 1.36534, 1.36466, 1.36327, 1.36064, 1.36022, 1.35891, 1.35795, 1.3563, 1.35556, 1.35356, 1.35155, 1.34829, 1.3448, 1.3445, 1.34504, 1.34908, 1.34393, 1.32309, 1.39937, 1.44397, 1.45206, 1.49184, 1.38343, 1.56457, 1.55854, 1.50976, 1.37861, 1.34445, 1.3293, 1.33532, 1.33157, 1.33753, 1.32721, 1.32479, 1.3232, 1.32334, 1.32768, 1.31655, 1.31425, 1.31253, 1.31229, 1.30849
1.66221, 1.6523, 1.65086, 1.64536, 1.64206, 1.64115, 1.63745, 1.63476, 1.63198, 1.62799, 1.63107, 1.62398, 1.6231, 1.6305, 1.62733, 1.62241, 1.63088, 1.62078, 1.67177, 1.70913, 1.7756, 1.80662, 1.87974, 1.90379, 1.86341, 1.71458, 1.55874, 1.58368, 1.58837, 1.59927, 1.57905, 1.60329, 1.57188, 1.5744, 1.56575, 1.56233, 1.57295, 1.55839, 1.56422, 1.55113, 1.54906, 1.54718, 1.54662, 1.54455, 1.54201, 1.53967, 1.53697, 1.5349, 1.53303, 1.52982, 1.52636, 1.52334, 1.53006, 1.5179, 1.51438, 1.51295, 1.51019, 1.51066, 1.52709, 1.51633, 1.51527, 1.50593, 1.50751, 1.50285, 1.50564, 1.49339, 1.49108, 1.49092, 1.48713, 1.49257, 1.4951, 1.4837, 1.45831, 1.51307, 1.55571, 1.54457, 1.60527, 1.6174, 1.58492, 1.56997, 1.56682, 1.52502, 1.49732, 1.46774, 1.44064, 1.45864, 1.4679, 1.45394, 1.45243, 1.43833, 1.43634, 1.43385, 1.43284, 1.43399, 1.44852, 1.44708, 1.43101, 1.41981, 1.41765, 1.41569, 1.41383, 1.41195, 1.40959, 1.40776, 1.40648, 1.40686, 1.40558, 1.40288, 1.40167, 1.3995, 1.39753, 1.39536, 1.39001, 1.38944, 1.38806, 1.38474, 1.38291, 1.38069, 1.37976, 1.37799, 1.37422, 1.37227, 1.37129, 1.36926, 1.3669, 1.36448, 1.36078, 1.36154, 1.36046, 1.35811, 1.35858, 1.357, 1.3548, 1.35501, 1.36201, 1.35081, 1.355, 1.34687, 1.36034, 1.35366, 1.35075, 1.32979, 1.39975, 1.43696, 1.46226, 1.48597, 1.56262, 1.59174, 1.58433, 1.443, 1.41401, 1.31549, 1.32429, 1.33651, 1.34648, 1.33745, 1.32994, 1.33398, 1.3299, 1.3287, 1.31873, 1.31966, 1.31624, 1.31493, 1.31239, 1.31077
1.65762, 1.65122, 1.65116, 1.64394, 1.64313, 1.64936, 1.63783, 1.63137, 1.629, 1.63392, 1.62189, 1.62136, 1.62052, 1.62037, 1.62114, 1.62686, 1.60939, 1.59665, 1.66582, 1.70985, 1.73751, 1.838, 1.88132, 1.91023, 1.78952, 1.68625, 1.56526, 1.56545, 1.58945, 1.57921, 1.57733, 1.5784, 1.5708, 1.56662, 1.56279, 1.5605, 1.55585, 1.57564, 1.55193, 1.5471, 1.54383, 1.54118, 1.54031, 1.54459, 1.53901, 1.53447, 1.53361, 1.53437, 1.53342, 1.52503, 1.52472, 1.52269, 1.5191, 1.51529, 1.51736, 1.52995, 1.50911, 1.50712, 1.52208, 1.52795, 1.51182, 1.49934, 1.49763, 1.49575, 1.4958, 1.49712, 1.49523, 1.50268, 1.48378, 1.49868, 1.5065, 1.48501, 1.45957, 1.46912, 1.53491, 1.52536, 1.59258, 1.593, 1.57826, 1.56154, 1.54619, 1.52786, 1.50483, 1.46442, 1.43549, 1.45687, 1.45179, 1.44615, 1.44032, 1.45196, 1.4405, 1.43314, 1.43279, 1.42945, 1.44665, 1.42837, 1.42599, 1.42249, 1.41581, 1.41306, 1.41087, 1.40975, 1.40771, 1.40637, 1.40574, 1.40647, 1.40506, 1.40363, 1.39924, 1.398, 1.39622, 1.39395, 1.39122, 1.38919, 1.38883, 1.387, 1.3857, 1.38273, 1.38088, 1.37956, 1.37784, 1.37268, 1.37101, 1.36955, 1.36691, 1.36175, 1.36014, 1.35844, 1.35775, 1.35623, 1.35515, 1.35457, 1.35491, 1.36441, 1.34891, 1.36117, 1.34916, 1.35795, 1.35668, 1.35093, 1.35809, 1.34307, 1.42404, 1.39344, 1.46249, 1.49211, 1.52187, 1.56197, 1.54989, 1.50986, 1.42975, 1.34386, 1.30172, 1.3363, 1.33788, 1.33038, 1.31604, 1.3159, 1.31546, 1.31361, 1.30966, 1.31044, 1.31228, 1.31243, 1.30733, 1.3083
1.65452, 1.64982, 1.64734, 1.64446, 1.64107, 1.63689, 1.63674, 1.63215, 1.62972, 1.62636, 1.62428, 1.63453, 1.63344, 1.61988, 1.62341, 1.62698, 1.5992, 1.6104, 1.67248, 1.74097, 1.79356, 1.86715, 1.96254, 2.00265, 1.90525, 1.74457, 1.56706, 1.58519, 1.59041, 1.57974, 1.57555, 1.57382, 1.56867, 1.56626, 1.56161, 1.56017, 1.55691, 1.55599, 1.55089, 1.54752, 1.54649, 1.54525, 1.54265, 1.54045, 1.53856, 1.53514, 1.53365, 1.53187, 1.53031, 1.5268, 1.52462, 1.52019, 1.52386, 1.51543, 1.51131, 1.51072, 1.50786, 1.50698, 1.51758, 1.54683, 1.52207, 1.5062, 1.49915, 1.49828, 1.49635, 1.49462, 1.48823, 1.48527, 1.4837, 1.48272, 1.49003, 1.48723, 1.45776, 1.46046, 1.51856, 1.52036, 1.55321, 1.55991, 1.55936, 1.56617, 1.54405, 1.50951, 1.49221, 1.44137, 1.44034, 1.45601, 1.45183, 1.44971, 1.44795, 1.44473, 1.43557, 1.43306, 1.43008, 1.42947, 1.43696, 1.45175, 1.43986, 1.41799, 1.41495, 1.41369, 1.40766, 1.40818, 1.40883, 1.40837, 1.40645, 1.40568, 1.40354, 1.40173, 1.40073, 1.39923, 1.39709, 1.39407, 1.39451, 1.39362, 1.38905, 1.38814, 1.38501, 1.38327, 1.38101, 1.37916, 1.37665, 1.37397, 1.3706, 1.36709, 1.36231, 1.35887, 1.35921, 1.35754, 1.35415, 1.3512, 1.35312, 1.35257, 1.35284, 1.35345, 1.35402, 1.35236, 1.34902, 1.34825, 1.34825, 1.35283, 1.3621, 1.33674, 1.36433, 1.4147, 1.48888, 1.53357, 1.61219, 1.62347, 1.59579, 1.48906, 1.42791, 1.35184, 1.321, 1.32743, 1.32878, 1.31711, 1.33532, 1.31589, 1.31466, 1.31314, 1.31426, 1.31322, 1.31282, 1.313, 1.31025, 1.30866
1.6543, 1.65166, 1.64725, 1.64408, 1.6406, 1.63783, 1.63418, 1.63025, 1.62868, 1.62847, 1.62325, 1.62439, 1.62113, 1.61892, 1.61963, 1.61967, 1.59056, 1.60732, 1.63791, 1.68682, 1.80108, 1.81619, 1.89288, 1.91134, 1.8608, 1.7072, 1.58032, 1.58635, 1.58825, 1.5956, 1.5908, 1.57102, 1.56793, 1.56563, 1.56151, 1.56066, 1.55823, 1.55381, 1.55094, 1.54824, 1.54716, 1.54161, 1.53891, 1.54012, 1.53705, 1.53293, 1.52987, 1.53003, 1.53775, 1.52408, 1.52044, 1.51921, 1.51643, 1.51316, 1.52013, 1.51042, 1.50773, 1.50653, 1.51425, 1.51064, 1.52372, 1.51841, 1.51133, 1.49599, 1.49351, 1.49241, 1.48693, 1.48431, 1.4825, 1.48298, 1.48608, 1.49359, 1.45209, 1.4644, 1.5283, 1.54687, 1.57192, 1.57321, 1.56567, 1.55425, 1.55203, 1.53431, 1.49427, 1.46084, 1.43768, 1.45414, 1.45832, 1.45084, 1.45402, 1.43371, 1.43223, 1.4295, 1.42781, 1.42532, 1.42213, 1.4553, 1.45428, 1.43031, 1.41374, 1.41341, 1.41063, 1.40926, 1.4075, 1.40767, 1.40527, 1.40521, 1.40546, 1.40279, 1.40196, 1.39901, 1.40005, 1.39635, 1.39483, 1.3931, 1.39118, 1.38863, 1.38561, 1.38401, 1.38218, 1.37926, 1.37726, 1.37475, 1.37168, 1.37098, 1.36417, 1.36178, 1.36247, 1.36092, 1.35347, 1.35352, 1.35203, 1.35189, 1.35282, 1.35201, 1.35466, 1.35827, 1.35164, 1.3583, 1.35253, 1.36003, 1.351, 1.35095, 1.39753, 1.4237, 1.46972, 1.50961, 1.5822, 1.59543, 1.60409, 1.54651, 1.43307, 1.36043, 1.3217, 1.3274, 1.3312, 1.31932, 1.3265, 1.31697, 1.31726, 1.31559, 1.31467, 1.31413, 1.3128, 1.31141, 1.30925, 1.30823
1.64948, 1.64746, 1.64513, 1.65136, 1.6414, 1.63372, 1.63123, 1.62718, 1.62469, 1.62373, 1.62074, 1.62069, 1.62062, 1.61944, 1.61826, 1.62751, 1.61425, 1.58157, 1.64679, 1.66573, 1.77647, 1.82782, 1.93481, 1.96446, 1.92455, 1.64128, 1.56337, 1.57929, 1.58805, 1.5851, 1.58218, 1.57123, 1.56639, 1.56532, 1.56257, 1.56042, 1.55979, 1.55609, 1.55268, 1.54873, 1.54787, 1.54163, 1.53865, 1.53854, 1.53716, 1.53241, 1.53008, 1.52882, 1.5268, 1.52026, 1.51809, 1.51477, 1.51252, 1.5127, 1.50568, 1.50347, 1.50196, 1.50011, 1.50132, 1.50882, 1.50651, 1.51897, 1.50904, 1.49405, 1.49952, 1.48858, 1.48572, 1.48875, 1.48139, 1.48294, 1.48281, 1.48482, 1.4789, 1.48296, 1.52169, 1.56758, 1.62056, 1.56595, 1.58292, 1.54032, 1.54842, 1.60176, 1.50239, 1.469, 1.43593, 1.46156, 1.46439, 1.45445, 1.44181, 1.43614, 1.43053, 1.429, 1.42849, 1.43318, 1.42292, 1.43436, 1.43855, 1.42974, 1.43257, 1.4098, 1.40919, 1.40836, 1.42405, 1.40468, 1.40489, 1.40429, 1.40307, 1.39908, 1.39717, 1.39562, 1.39446, 1.39142, 1.39102, 1.38984, 1.38657, 1.38553, 1.38682, 1.38476, 1.38324, 1.38182, 1.38127, 1.37785, 1.37409, 1.36982, 1.36754, 1.36707, 1.36167, 1.35929, 1.35734, 1.3572, 1.36351, 1.35475, 1.35459, 1.3536, 1.35297, 1.36076, 1.36812, 1.35094, 1.36368, 1.37146, 1.36721, 1.32994, 1.36388, 1.44757, 1.48577, 1.52057, 1.57396, 1.58249, 1.56867, 1.51556, 1.43022, 1.32349, 1.32401, 1.3402, 1.32802, 1.3219, 1.31915, 1.31902, 1.31367, 1.31595, 1.31562, 1.32981, 1.32691, 1.31026, 1.30864, 1.30662
1.65294, 1.64947, 1.64719, 1.64323, 1.64047, 1.6361, 1.63485, 1.63096, 1.62603, 1.62133, 1.62622, 1.62004, 1.61996, 1.61895, 1.61712, 1.61604, 1.62069, 1.60269, 1.60124, 1.68161, 1.73063, 1.82021, 1.86244, 2.06752, 2.07728, 1.73499, 1.54743, 1.58281, 1.58579, 1.57706, 1.57794, 1.56982, 1.56751, 1.56435, 1.56234, 1.55847, 1.55529, 1.55639, 1.54923, 1.54788, 1.55114, 1.54276, 1.54075, 1.53888, 1.53748, 1.53351, 1.53107, 1.53659, 1.52599, 1.52243, 1.52008, 1.51478, 1.51313, 1.51291, 1.5076, 1.50457, 1.50252, 1.50074, 1.50564, 1.51035, 1.50922, 1.52809, 1.5117, 1.49575, 1.49365, 1.49225, 1.50269, 1.48509, 1.49062, 1.49018, 1.49647, 1.48205, 1.46364, 1.46698, 1.51663, 1.54222, 1.57887, 1.57961, 1.56206, 1.5462, 1.54502, 1.53687, 1.50062, 1.45285, 1.4217, 1.46399, 1.46536, 1.44363, 1.43706, 1.43411, 1.43132, 1.42863, 1.42514, 1.42919, 1.42431, 1.42308, 1.43739, 1.41996, 1.4097, 1.41575, 1.40662, 1.40596, 1.40306, 1.40305, 1.40271, 1.4018, 1.39989, 1.39704, 1.39533, 1.39207, 1.38964, 1.38931, 1.38895, 1.38781, 1.38806, 1.38541, 1.38508, 1.38334, 1.38196, 1.38062, 1.37885, 1.3777, 1.3753, 1.37436, 1.37108, 1.36843, 1.367, 1.36381, 1.36284, 1.3721, 1.35712, 1.35372, 1.35404, 1.35406, 1.35357, 1.34801, 1.34764, 1.34849, 1.35312, 1.35433, 1.35648, 1.32777, 1.37944, 1.42346, 1.48933, 1.52454, 1.54533, 1.60759, 1.60621, 1.56707, 1.44893, 1.31266, 1.2873, 1.35372, 1.33497, 1.33298, 1.31853, 1.31761, 1.31581, 1.31285, 1.31433, 1.31327, 1.30979, 1.30731, 1.30577, 1.30493
1.65058, 1.65415, 1.65016, 1.64226, 1.63839, 1.63421, 1.63138, 1.63093, 1.62785, 1.62406, 1.62295, 1.62181, 1.6211, 1.61993, 1.61682, 1.61712, 1.62399, 1.59642, 1.63019, 1.70827, 1.71455, 1.77763, 1.8401, 1.97714, 1.97978, 1.82919, 1.53512, 1.57156, 1.58, 1.58838, 1.58234, 1.5783, 1.56494, 1.56598, 1.56224, 1.55792, 1.55586, 1.55342, 1.55056, 1.54728, 1.54538, 1.54348, 1.54214, 1.54032, 1.53721, 1.5352, 1.53254, 1.53038, 1.52893, 1.5258, 1.52104, 1.51976, 1.51639, 1.51235, 1.51578, 1.50613, 1.50319, 1.50048, 1.50008, 1.49848, 1.5057, 1.51099, 1.52348, 1.52368, 1.49528, 1.48979, 1.49275, 1.48759, 1.49325, 1.48869, 1.48152, 1.48887, 1.46409, 1.48965, 1.51299, 1.5202, 1.56773, 1.55374, 1.54289, 1.53987, 1.52776, 1.51643, 1.5002, 1.46583, 1.436, 1.45437, 1.45656, 1.44726, 1.4468, 1.43429, 1.43328, 1.44377, 1.44202, 1.4413, 1.42987, 1.42426, 1.42193, 1.43292, 1.4169, 1.40636, 1.41973, 1.40459, 1.40218, 1.40272, 1.40179, 1.40046, 1.3983, 1.39555, 1.39286, 1.39053, 1.38882, 1.38748, 1.38786, 1.38582, 1.38507, 1.38474, 1.38191, 1.38156, 1.37855, 1.37566, 1.37531, 1.3726, 1.37151, 1.36953, 1.36832, 1.36822, 1.37069, 1.36368, 1.36435, 1.36337, 1.36205, 1.36216, 1.35874, 1.35554, 1.35501, 1.35156, 1.35114, 1.34889, 1.34627, 1.36828, 1.35203, 1.3231, 1.36264, 1.40979, 1.45911, 1.50538, 1.53804, 1.55619, 1.58816, 1.50549, 1.42421, 1.34461, 1.32297, 1.33687, 1.32637, 1.33955, 1.32134, 1.31633, 1.316, 1.31409, 1.31243, 1.31068, 1.31787, 1.30858, 1.30829, 1.3033
1.65047, 1.64723, 1.63991, 1.63875, 1.6334, 1.62871, 1.63017, 1.63376, 1.62791, 1.62539, 1.63062, 1.62235, 1.62072, 1.61845, 1.61705, 1.61521, 1.62005, 1.59017, 1.62068, 1.6811, 1.75081, 1.80118, 1.85867, 1.93506, 1.87221, 1.78735, 1.56865, 1.57182, 1.58913, 1.57814, 1.58328, 1.56954, 1.56475, 1.56032, 1.55852, 1.5549, 1.55466, 1.55173, 1.549, 1.5478, 1.54556, 1.56165, 1.53983, 1.53821, 1.53651, 1.53501, 1.53293, 1.53115, 1.52626, 1.52449, 1.52176, 1.51915, 1.51657, 1.51596, 1.50985, 1.50581, 1.50355, 1.50243, 1.50011, 1.49885, 1.4956, 1.4956, 1.52216, 1.50791, 1.52886, 1.49194, 1.48939, 1.48658, 1.48246, 1.47805, 1.47839, 1.48484, 1.46958, 1.47511, 1.52726, 1.54385, 1.57039, 1.55913, 1.54782, 1.53378, 1.53658, 1.52889, 1.533, 1.44481, 1.43142, 1.45065, 1.45132, 1.45497, 1.45381, 1.43831, 1.44165, 1.43754, 1.43397, 1.42801, 1.42732, 1.44691, 1.45826, 1.43044, 1.42029, 1.41327, 1.40971, 1.40707, 1.41283, 1.40244, 1.4028, 1.40051, 1.39797, 1.39795, 1.39395, 1.39129, 1.38987, 1.38781, 1.3866, 1.38575, 1.38661, 1.38363, 1.38137, 1.38035, 1.3783, 1.37798, 1.37361, 1.3719, 1.36939, 1.36854, 1.36655, 1.36685, 1.36558, 1.36307, 1.36435, 1.36279, 1.36092, 1.36048, 1.35733, 1.35659, 1.35366, 1.35265, 1.34992, 1.35496, 1.34991, 1.37527, 1.36382, 1.35483, 1.39616, 1.43417, 1.45651, 1.52414, 1.57794, 1.60811, 1.60656, 1.57439, 1.45747, 1.30707, 1.29874, 1.33675, 1.32998, 1.33662, 1.33339, 1.33016, 1.32249, 1.31377, 1.30988, 1.30906, 1.30813, 1.3406, 1.30313, 1.30206
1.64983, 1.64488, 1.64137, 1.63795, 1.63365, 1.63108, 1.63054, 1.63033, 1.62813, 1.62625, 1.62146, 1.62066, 1.6203, 1.61691, 1.61425, 1.61363, 1.61989, 1.58541, 1.58686, 1.6932, 1.70234, 1.7945, 1.90153, 1.89047, 2.21121, 1.70649, 1.54599, 1.56308, 1.58433, 1.57658, 1.57062, 1.56654, 1.5622, 1.5609, 1.55824, 1.56217, 1.552, 1.54899, 1.55085, 1.5434, 1.54376, 1.54024, 1.54122, 1.53456, 1.53279, 1.52847, 1.52735, 1.52771, 1.52057, 1.51856, 1.51884, 1.51392, 1.51202, 1.51005, 1.50868, 1.50607, 1.50491, 1.50074, 1.49921, 1.49945, 1.49397, 1.50033, 1.51668, 1.51996, 1.52801, 1.49701, 1.48696, 1.48305, 1.48483, 1.47613, 1.47841, 1.48594, 1.46821, 1.47764, 1.51693, 1.55431, 1.56106, 1.56191, 1.56482, 1.52409, 1.51932, 1.50991, 1.49425, 1.46462, 1.44218, 1.42602, 1.45497, 1.44528, 1.44205, 1.44128, 1.43958, 1.43727, 1.43986, 1.4571, 1.45796, 1.45728, 1.45093, 1.41803, 1.41589, 1.41183, 1.40981, 1.40895, 1.406, 1.40388, 1.40182, 1.40047, 1.39679, 1.39715, 1.39349, 1.39193, 1.3901, 1.3885, 1.38711, 1.38664, 1.38435, 1.3826, 1.38071, 1.37778, 1.37737, 1.37427, 1.37141, 1.36976, 1.36734, 1.36707, 1.36414, 1.36295, 1.36128, 1.36218, 1.36057, 1.36081, 1.36035, 1.3585, 1.35653, 1.35297, 1.34982, 1.34802, 1.34648, 1.3436, 1.3438, 1.35111, 1.35338, 1.36815, 1.35486, 1.42706, 1.47549, 1.56733, 1.56994, 1.62305, 1.64106, 1.49227, 1.50991, 1.34709, 1.31286, 1.34016, 1.32455, 1.32699, 1.3167, 1.31754, 1.31611, 1.31347, 1.31201, 1.30936, 1.30697, 1.30549, 1.3041, 1.30517
1.65591, 1.65057, 1.67312, 1.64468, 1.63939, 1.63666, 1.6356, 1.633, 1.63625, 1.62683, 1.62145, 1.62152, 1.61861, 1.61654, 1.61575, 1.62717, 1.62418, 1.61131, 1.59642, 1.64776, 1.76605, 1.80663, 1.89053, 1.93237, 1.92656, 1.73399, 1.54853, 1.5687, 1.58672, 1.4539, 1.58258, 1.57778, 1.57187, 1.56354, 1.55931, 1.5626, 1.56232, 1.55261, 1.55068, 1.56496, 1.54489, 1.54156, 1.53749, 1.53524, 1.53297, 1.52872, 1.52509, 1.52012, 1.51956, 1.51605, 1.51493, 1.51381, 1.51026, 1.50897, 1.50749, 1.50634, 1.5057, 1.50659, 1.50419, 1.50214, 1.50672, 1.49995, 1.50586, 1.52271, 1.51358, 1.50384, 1.48771, 1.49025, 1.48876, 1.48167, 1.48702, 1.47812, 1.46246, 1.45492, 1.48305, 1.53329, 1.55156, 1.53289, 1.53081, 1.53004, 1.53857, 1.53776, 1.51806, 1.45931, 1.44073, 1.45254, 1.45888, 1.45179, 1.45061, 1.44526, 1.45512, 1.47148, 1.46247, 1.45471, 1.46639, 1.46294, 1.43555, 1.42481, 1.42759, 1.41133, 1.40842, 1.406, 1.40652, 1.40569, 1.40147, 1.40133, 1.39722, 1.39343, 1.39133, 1.38961, 1.39046, 1.38792, 1.38377, 1.38275, 1.38298, 1.38216, 1.37823, 1.37488, 1.3743, 1.37428, 1.3705, 1.36833, 1.36832, 1.36525, 1.36412, 1.3638, 1.3633, 1.36168, 1.36212, 1.35967, 1.36001, 1.35678, 1.35616, 1.35742, 1.35118, 1.34919, 1.34744, 1.34684, 1.35315, 1.35855, 1.35748, 1.31729, 1.32395, 1.41678, 1.46597, 1.49294, 1.56423, 1.59865, 1.59615, 1.52319, 1.44012, 1.31361, 1.30814, 1.32885, 1.32965, 1.33636, 1.32041, 1.31799, 1.31855, 1.31843, 1.31117, 1.3115, 1.31112, 1.30928, 1.307, 1.30825
1.65473, 1.65241, 1.65069, 1.64707, 1.64352, 1.64103, 1.63789, 1.63238, 1.6314, 1.62666, 1.628, 1.62671, 1.63066, 1.63445, 1.6116, 1.61264, 1.61656, 1.58538, 1.59058, 1.67559, 1.70012, 1.76868, 1.85106, 1.93809, 2.09675, 1.59713, 1.53771, 1.5896, 1.59708, 1.59282, 1.57699, 1.5773, 1.58249, 1.56515, 1.57495, 1.55746, 1.55493, 1.55228, 1.54935, 1.55203, 1.55306, 1.54044, 1.53627, 1.53647, 1.53014, 1.52706, 1.52401, 1.52092, 1.51668, 1.5171, 1.52107, 1.51381, 1.50925, 1.50803, 1.50758, 1.50668, 1.50543, 1.51004, 1.50334, 1.50905, 1.49953, 1.49838, 1.50994, 1.50561, 1.5356, 1.5361, 1.51724, 1.49205, 1.49816, 1.4989, 1.48255, 1.48477, 1.43861, 1.4686, 1.48236, 1.51733, 1.55113, 1.56006, 1.53022, 1.51825, 1.5342, 1.51855, 1.49341, 1.45759, 1.43326, 1.44637, 1.45156, 1.45797, 1.47145, 1.48546, 1.47929, 1.49146, 1.48297, 1.47287, 1.45965, 1.44029, 1.42682, 1.42569, 1.43004, 1.42735, 1.42464, 1.41037, 1.40748, 1.40548, 1.40359, 1.40006, 1.39802, 1.39541, 1.39197, 1.39103, 1.38904, 1.38815, 1.38573, 1.38454, 1.38431, 1.38101, 1.37953, 1.38015, 1.37606, 1.37454, 1.37403, 1.37124, 1.37088, 1.36877, 1.36714, 1.36536, 1.3635, 1.36373, 1.36096, 1.36254, 1.35928, 1.35717, 1.35635, 1.3525, 1.35214, 1.34739, 1.34915, 1.36446, 1.35449, 1.35, 1.35763, 1.34302, 1.36822, 1.39864, 1.44921, 1.509, 1.578, 1.589, 1.60313, 1.51676, 1.45155, 1.30421, 1.31931, 1.33999, 1.33527, 1.3298, 1.32984, 1.32021, 1.33948, 1.32694, 1.31617, 1.3135, 1.31239, 1.31019, 1.30566, 1.30524
1.65191, 1.64889, 1.64511, 1.64278, 1.64098, 1.63753, 1.63575, 1.63295, 1.63015, 1.62609, 1.62164, 1.62738, 1.61616, 1.61314, 1.60917, 1.61089, 1.61062, 1.62111, 1.62054, 1.65809, 1.76727, 1.82728, 1.85433, 1.94253, 1.85959, 1.65146, 1.54209, 1.55358, 1.59511, 1.58237, 1.57373, 1.57333, 1.57197, 1.57929, 1.56019, 1.562, 1.56153, 1.55068, 1.55183, 1.54291, 1.53821, 1.53994, 1.53675, 1.5314, 1.52972, 1.52592, 1.5311, 1.51513, 1.5136, 1.51048, 1.50925, 1.50633, 1.50421, 1.50647, 1.50421, 1.50394, 1.50181, 1.50093, 1.49926, 1.4987, 1.49588, 1.4937, 1.50182, 1.49382, 1.52582, 1.55806, 1.53894, 1.50353, 1.50923, 1.47912, 1.48833, 1.48246, 1.46531, 1.46501, 1.50699, 1.50715, 1.52451, 1.54113, 1.51327, 1.52073, 1.52503, 1.54697, 1.52763, 1.48935, 1.4479, 1.48906, 1.47546, 1.48606, 1.48524, 1.48595, 1.48902, 1.46139, 1.45611, 1.44417, 1.43942, 1.43718, 1.43162, 1.42521, 1.41554, 1.41314, 1.4105, 1.40938, 1.40712, 1.40553, 1.40189, 1.3993, 1.39748, 1.39528, 1.39261, 1.38851, 1.38585, 1.3852, 1.38437, 1.38208, 1.38139, 1.37767, 1.37708, 1.3755, 1.3713, 1.37107, 1.37092, 1.36711, 1.36703, 1.36512, 1.36381, 1.36318, 1.35992, 1.35927, 1.35842, 1.35702, 1.35419, 1.35099, 1.35076, 1.34867, 1.34807, 1.34532, 1.35422, 1.34366, 1.34049, 1.3409, 1.3576, 1.3541, 1.31549, 1.3924, 1.44407, 1.50068, 1.53825, 1.62033, 1.61443, 1.59067, 1.47543, 1.34761, 1.32602, 1.32787, 1.32947, 1.31765, 1.31527, 1.31274, 1.31415, 1.31332, 1.31039, 1.31005, 1.3055, 1.30515, 1.30505, 1.30259
1.64846, 1.64274, 1.64077, 1.63973, 1.63826, 1.63676, 1.64017, 1.63469, 1.63253, 1.62997, 1.62486, 1.63459, 1.61851, 1.61494, 1.61141, 1.60785, 1.60735, 1.60731, 1.59927, 1.64824, 1.72364, 1.74448, 1.84488, 1.86569, 1.97363, 1.82688, 1.57568, 1.58283, 1.59293, 1.59183, 1.58056, 1.58495, 1.58213, 1.5708, 1.5692, 1.56492, 1.56255, 1.5589, 1.57213, 1.54891, 1.54548, 1.54134, 1.53914, 1.53676, 1.53319, 1.52986, 1.52677, 1.53033, 1.52271, 1.51955, 1.51661, 1.51433, 1.51004, 1.50893, 1.50799, 1.50597, 1.5033, 1.50271, 1.50021, 1.49723, 1.49563, 1.49679, 1.49386, 1.49346, 1.4919, 1.53531, 1.5204, 1.54157, 1.53014, 1.48624, 1.475, 1.49444, 1.46225, 1.45564, 1.48667, 1.53161, 1.53717, 1.53457, 1.52141, 1.49258, 1.49271, 1.52616, 1.52199, 1.49664, 1.47264, 1.45758, 1.46062, 1.45407, 1.4549, 1.44389, 1.43977, 1.43444, 1.43369, 1.43163, 1.42743, 1.43022, 1.42617, 1.41956, 1.41653, 1.41301, 1.41122, 1.40975, 1.40892, 1.40583, 1.40321, 1.4005, 1.39959, 1.39792, 1.39537, 1.39223, 1.39085, 1.38783, 1.38668, 1.38533, 1.38398, 1.38202, 1.37885, 1.37834, 1.37963, 1.37474, 1.37538, 1.37399, 1.37348, 1.3706, 1.36713, 1.36653, 1.36559, 1.36062, 1.35919, 1.35735, 1.35618, 1.35441, 1.35153, 1.35169, 1.3544, 1.35445, 1.34368, 1.34271, 1.34307, 1.34299, 1.35017, 1.35541, 1.33803, 1.39597, 1.4544, 1.50314, 1.53994, 1.61705, 1.63337, 1.58867, 1.42365, 1.35004, 1.30507, 1.32972, 1.33491, 1.32745, 1.31608, 1.31534, 1.31413, 1.31337, 1.31036, 1.30958, 1.30896, 1.30663, 1.30637, 1.30235
1.64464, 1.63971, 1.63969, 1.63674, 1.63748, 1.63723, 1.63768, 1.635, 1.63311, 1.62834, 1.62494, 1.62109, 1.61826, 1.61596, 1.61166, 1.61113, 1.61258, 1.60541, 1.59978, 1.65739, 1.70238, 1.7993, 1.92717, 1.9999, 1.99363, 1.88454, 1.54683, 1.5791, 1.60365, 1.59234, 1.58462, 1.58657, 1.58888, 1.57508, 1.57882, 1.5747, 1.56224, 1.55903, 1.55434, 1.55055, 1.54847, 1.5552, 1.54082, 1.54089, 1.53478, 1.5317, 1.52785, 1.52615, 1.52334, 1.51979, 1.51575, 1.51263, 1.51051, 1.50633, 1.5048, 1.50542, 1.50257, 1.50155, 1.49868, 1.49234, 1.48993, 1.49207, 1.49395, 1.49193, 1.49233, 1.49949, 1.51605, 1.53151, 1.5242, 1.51628, 1.50758, 1.49147, 1.47936, 1.47415, 1.50014, 1.51138, 1.52082, 1.52401, 1.50075, 1.49449, 1.54918, 1.52643, 1.5056, 1.47577, 1.44759, 1.45889, 1.46868, 1.44856, 1.44236, 1.44, 1.45075, 1.43469, 1.42865, 1.42618, 1.4246, 1.42208, 1.41961, 1.41673, 1.41408, 1.41265, 1.41083, 1.41241, 1.40592, 1.40386, 1.40368, 1.39961, 1.39883, 1.39546, 1.39305, 1.39229, 1.39212, 1.39031, 1.38893, 1.38622, 1.38495, 1.38157, 1.37969, 1.37831, 1.37727, 1.37695, 1.37568, 1.37462, 1.37381, 1.37166, 1.36935, 1.36838, 1.36666, 1.36366, 1.36175, 1.35928, 1.35646, 1.36346, 1.35163, 1.35048, 1.35473, 1.3475, 1.34535, 1.34383, 1.35299, 1.35966, 1.35463, 1.3482, 1.34404, 1.39891, 1.44832, 1.51053, 1.54698, 1.62592, 1.63499, 1.59468, 1.48564, 1.36295, 1.31839, 1.34681, 1.33419, 1.33132, 1.33728, 1.32507, 1.31583, 1.31734, 1.31292, 1.30952, 1.31008, 1.31069, 1.31986, 1.30711
1.64585, 1.64393, 1.64239, 1.63994, 1.63897, 1.6404, 1.63975, 1.63551, 1.63424, 1.62996, 1.62572, 1.62224, 1.61904, 1.61506, 1.61153, 1.60712, 1.60697, 1.61731, 1.58307, 1.62694, 1.67024, 1.75366, 1.85497, 1.89568, 1.95523, 1.79942, 1.56142, 1.55256, 1.59114, 1.59001, 1.59948, 1.59336, 1.58566, 1.59489, 1.57892, 1.5695, 1.56061, 1.55746, 1.55174, 1.5486, 1.54498, 1.54265, 1.54002, 1.53526, 1.53267, 1.52906, 1.52585, 1.52526, 1.52068, 1.51914, 1.51644, 1.51099, 1.51052, 1.50711, 1.50531, 1.50236, 1.50193, 1.49877, 1.4991, 1.49733, 1.49336, 1.49966, 1.49235, 1.49028, 1.48724, 1.48653, 1.48658, 1.49902, 1.49521, 1.50525, 1.49761, 1.50356, 1.4764, 1.47091, 1.48651, 1.53675, 1.58246, 1.54024, 1.56307, 1.48153, 1.52369, 1.54824, 1.51851, 1.52061, 1.46135, 1.45455, 1.45762, 1.45073, 1.44049, 1.44934, 1.43452, 1.43023, 1.42719, 1.42621, 1.42996, 1.41769, 1.41552, 1.41252, 1.4111, 1.40855, 1.40969, 1.4103, 1.40619, 1.4042, 1.39893, 1.3979, 1.3971, 1.39762, 1.40008, 1.39324, 1.39223, 1.39167, 1.39116, 1.38444, 1.38241, 1.37887, 1.37868, 1.37665, 1.37391, 1.37704, 1.3814, 1.36808, 1.3672, 1.36821, 1.36799, 1.36548, 1.36464, 1.36408, 1.36096, 1.35783, 1.35464, 1.35249, 1.35076, 1.34947, 1.34659, 1.34682, 1.34395, 1.34249, 1.34379, 1.34651, 1.34782, 1.34745, 1.32017, 1.38523, 1.43632, 1.52296, 1.59293, 1.64516, 1.64429, 1.52744, 1.42003, 1.34748, 1.32929, 1.3313, 1.33335, 1.32173, 1.32401, 1.31564, 1.31334, 1.31325, 1.31223, 1.31061, 1.30891, 1.30884, 1.30855, 1.30884
1.64998, 1.64213, 1.6422, 1.6402, 1.63841, 1.63911, 1.63402, 1.63319, 1.62995, 1.6263, 1.62944, 1.6203, 1.61477, 1.61263, 1.61006, 1.60959, 1.60939, 1.60789, 1.59335, 1.65284, 1.65569, 1.79319, 1.85944, 1.96513, 1.81161, 1.76537, 1.54537, 1.57601, 1.57408, 1.58343, 1.58453, 1.57881, 1.59672, 1.58457, 1.58134, 1.56813, 1.5703, 1.55218, 1.55018, 1.54453, 1.54203, 1.5385, 1.53598, 1.53377, 1.53084, 1.52755, 1.5243, 1.52215, 1.51964, 1.51841, 1.51728, 1.51352, 1.50958, 1.50392, 1.50366, 1.50256, 1.49906, 1.49895, 1.49669, 1.49427, 1.49157, 1.48886, 1.48855, 1.48629, 1.4836, 1.48208, 1.48062, 1.47946, 1.47911, 1.48164, 1.47841, 1.48561, 1.48602, 1.48095, 1.48156, 1.51739, 1.54499, 1.53329, 1.50143, 1.47928, 1.50698, 1.53289, 1.51258, 1.49649, 1.45891, 1.45135, 1.46108, 1.45138, 1.44207, 1.43776, 1.43535, 1.43269, 1.43817, 1.42861, 1.42337, 1.42059, 1.4176, 1.41428, 1.41217, 1.41229, 1.41044, 1.40752, 1.40493, 1.40233, 1.40071, 1.4006, 1.39917, 1.39832, 1.39547, 1.39507, 1.39182, 1.39074, 1.38784, 1.38639, 1.38255, 1.38001, 1.37827, 1.37713, 1.3753, 1.37233, 1.37183, 1.36912, 1.36858, 1.36824, 1.3672, 1.36813, 1.36362, 1.36143, 1.35782, 1.3559, 1.35545, 1.3535, 1.35224, 1.34843, 1.34737, 1.35193, 1.34485, 1.34342, 1.34108, 1.35244, 1.34719, 1.34897, 1.31558, 1.37235, 1.4427, 1.48914, 1.52896, 1.63702, 1.64525, 1.64, 1.47594, 1.42397, 1.3085, 1.3321, 1.32677, 1.32292, 1.31654, 1.31971, 1.3121, 1.31336, 1.31074, 1.31133, 1.31104, 1.31075, 1.30935, 1.30855
1.64531, 1.64098, 1.63823, 1.63572, 1.63678, 1.634, 1.6302, 1.62762, 1.62493, 1.62381, 1.62069, 1.62327, 1.61981, 1.61126, 1.60688, 1.60821, 1.60651, 1.60568, 1.58297, 1.6332, 1.6902, 1.82006, 1.90814, 1.97255, 2.18461, 1.80125, 1.55241, 1.54658, 1.53825, 1.55557, 1.57136, 1.56484, 1.57192, 1.58196, 1.58251, 1.56937, 1.57602, 1.57432, 1.55796, 1.54773, 1.53915, 1.53361, 1.53343, 1.53985, 1.52951, 1.52813, 1.52547, 1.52345, 1.52126, 1.51975, 1.51373, 1.51247, 1.51016, 1.51404, 1.50192, 1.49936, 1.4994, 1.49597, 1.49524, 1.49342, 1.49183, 1.48894, 1.48695, 1.48496, 1.48169, 1.47978, 1.47777, 1.47601, 1.47549, 1.47454, 1.47906, 1.49231, 1.48146, 1.48481, 1.47395, 1.45985, 1.55509, 1.52574, 1.47789, 1.48693, 1.49255, 1.52347, 1.5663, 1.48452, 1.44858, 1.45814, 1.45885, 1.45401, 1.4403, 1.4411, 1.43408, 1.4303, 1.42692, 1.42413, 1.42344, 1.42159, 1.41717, 1.41498, 1.41059, 1.41028, 1.40924, 1.40951, 1.40997, 1.40599, 1.40377, 1.40171, 1.3989, 1.39735, 1.39489, 1.39323, 1.39217, 1.38939, 1.38532, 1.38447, 1.38229, 1.38119, 1.38003, 1.37966, 1.37677, 1.37566, 1.37819, 1.37081, 1.36866, 1.36798, 1.36502, 1.36361, 1.36157, 1.36024, 1.35833, 1.35827, 1.35695, 1.3559, 1.35172, 1.35193, 1.34812, 1.3471, 1.34478, 1.34453, 1.34458, 1.34504, 1.3652, 1.36078, 1.3225, 1.36898, 1.43999, 1.48589, 1.58231, 1.59278, 1.64088, 1.59403, 1.47439, 1.36348, 1.31981, 1.32821, 1.32795, 1.33239, 1.31713, 1.31671, 1.32648, 1.3207, 1.31059, 1.31744, 1.30977, 1.31048, 1.31008, 1.30897
1.64214, 1.63833, 1.641, 1.63319, 1.63076, 1.63061, 1.62624, 1.62367, 1.623, 1.62349, 1.62058, 1.63552, 1.61203, 1.60957, 1.61307, 1.61386, 1.60575, 1.61077, 1.59357, 1.62717, 1.68518, 1.7691, 1.87395, 1.96008, 1.95464, 1.79832, 1.53825, 1.52715, 1.57495, 1.6593, 1.68858, 1.68248, 1.631, 1.6198, 1.58643, 1.59634, 1.58705, 1.57939, 1.58307, 1.54503, 1.53865, 1.53686, 1.53399, 1.54512, 1.52763, 1.54468, 1.52314, 1.52281, 1.51927, 1.51768, 1.5157, 1.51319, 1.51036, 1.50646, 1.50367, 1.4991, 1.49981, 1.49642, 1.52037, 1.49398, 1.49264, 1.48838, 1.48471, 1.48821, 1.47941, 1.47779, 1.47449, 1.47214, 1.47171, 1.47328, 1.48862, 1.48825, 1.48488, 1.47536, 1.49675, 1.51303, 1.53024, 1.49891, 1.50286, 1.47338, 1.48471, 1.34352, 1.51712, 1.48127, 1.46758, 1.44379, 1.45222, 1.45275, 1.43805, 1.43467, 1.42882, 1.42732, 1.42341, 1.42238, 1.42638, 1.41574, 1.41361, 1.41283, 1.40915, 1.40865, 1.40744, 1.4078, 1.40767, 1.40559, 1.40361, 1.40994, 1.39922, 1.39489, 1.39166, 1.39069, 1.38992, 1.38758, 1.38632, 1.38288, 1.37953, 1.38017, 1.37818, 1.37642, 1.37363, 1.37286, 1.3705, 1.36983, 1.3656, 1.36287, 1.36092, 1.35881, 1.35773, 1.35555, 1.35293, 1.35036, 1.3498, 1.35042, 1.35087, 1.34986, 1.34568, 1.34524, 1.34105, 1.3406, 1.3404, 1.3406, 1.3428, 1.36286, 1.31245, 1.36404, 1.42039, 1.46182, 1.4827, 1.59386, 1.6793, 1.63014, 1.50432, 1.3847, 1.30466, 1.3271, 1.32774, 1.31786, 1.31433, 1.31564, 1.317, 1.31024, 1.30824, 1.30549, 1.30328, 1.30159, 1.30268, 1.30124
1.64384, 1.63696, 1.63582, 1.63444, 1.63185, 1.63049, 1.62678, 1.62458, 1.62274, 1.61846, 1.61573, 1.61317, 1.61332, 1.60561, 1.61331, 1.6064, 1.60466, 1.60689, 1.61045, 1.58865, 1.67508, 1.7414, 1.81358, 2.00698, 2.03805, 1.91557, 1.56126, 1.53648, 1.60475, 1.66742, 1.77922, 1.77668, 1.73884, 1.65281, 1.59462, 1.58708, 1.58557, 1.57139, 1.56048, 1.55719, 1.54577, 1.53705, 1.53362, 1.54641, 1.52807, 1.52522, 1.52362, 1.51953, 1.51973, 1.51709, 1.51396, 1.51222, 1.51088, 1.50653, 1.50453, 1.5015, 1.49847, 1.4947, 1.49346, 1.49167, 1.48958, 1.48837, 1.48657, 1.48321, 1.48156, 1.47876, 1.47666, 1.47433, 1.47126, 1.47185, 1.47533, 1.47843, 1.47869, 1.47146, 1.50221, 1.51977, 1.52299, 1.5092, 1.48817, 1.47186, 1.5, 1.49172, 1.51401, 1.51569, 1.46437, 1.45649, 1.44656, 1.44496, 1.43431, 1.42929, 1.42598, 1.42263, 1.41967, 1.41726, 1.41518, 1.41249, 1.41415, 1.40859, 1.40822, 1.40683, 1.40711, 1.40889, 1.4075, 1.40626, 1.40408, 1.40163, 1.39549, 1.39134, 1.39135, 1.39002, 1.38708, 1.38534, 1.38296, 1.38141, 1.37838, 1.37647, 1.37462, 1.3734, 1.37036, 1.36962, 1.3681, 1.36704, 1.36517, 1.36411, 1.36269, 1.36035, 1.35791, 1.35477, 1.35272, 1.35308, 1.37525, 1.35057, 1.35148, 1.35005, 1.34686, 1.34353, 1.34465, 1.34416, 1.34221, 1.34282, 1.35203, 1.35819, 1.32049, 1.36539, 1.42054, 1.483, 1.58057, 1.63294, 1.64933, 1.60294, 1.46471, 1.33418, 1.3298, 1.32839, 1.32947, 1.33298, 1.31635, 1.32992, 1.30897, 1.32419, 1.30843, 1.30594, 1.30452, 1.32651, 1.30221, 1.30244
1.64475, 1.63567, 1.63332, 1.63101, 1.62843, 1.62686, 1.62468, 1.62746, 1.61759, 1.61612, 1.61446, 1.6092, 1.60485, 1.60266, 1.60152, 1.60397, 1.60766, 1.59939, 1.5919, 1.59968, 1.68731, 1.79823, 1.88324, 1.92569, 2.01033, 1.70163, 1.56438, 1.56159, 1.57225, 1.58682, 1.61421, 1.63203, 1.59834, 1.56825, 1.57956, 1.58569, 1.56853, 1.56798, 1.56243, 1.54213, 1.53798, 1.53455, 1.5304, 1.5344, 1.52626, 1.52463, 1.52186, 1.51738, 1.52322, 1.51797, 1.51193, 1.5101, 1.50759, 1.50555, 1.49978, 1.49824, 1.49752, 1.50224, 1.49064, 1.48831, 1.4854, 1.48447, 1.48226, 1.47975, 1.47933, 1.4751, 1.47344, 1.49439, 1.47155, 1.47131, 1.47368, 1.48167, 1.46994, 1.47893, 1.54245, 1.51664, 1.50981, 1.52421, 1.48019, 1.46522, 1.48543, 1.5029, 1.50101, 1.47786, 1.46744, 1.45341, 1.44384, 1.45085, 1.43648, 1.42973, 1.42052, 1.41936, 1.41575, 1.41338, 1.42246, 1.41123, 1.41024, 1.40938, 1.40873, 1.40901, 1.40681, 1.40533, 1.40355, 1.39899, 1.39958, 1.39561, 1.39264, 1.39106, 1.39423, 1.38451, 1.38496, 1.38137, 1.3798, 1.37891, 1.37841, 1.37539, 1.37554, 1.37308, 1.37161, 1.36789, 1.36729, 1.36525, 1.36366, 1.36344, 1.3623, 1.35975, 1.35775, 1.35517, 1.35678, 1.35627, 1.35434, 1.3521, 1.35441, 1.34768, 1.3456, 1.34369, 1.34425, 1.36573, 1.34163, 1.33928, 1.35265, 1.34082, 1.3117, 1.34949, 1.36129, 1.48934, 1.54838, 1.60611, 1.72274, 1.72427, 1.50858, 1.3848, 1.31705, 1.34456, 1.34688, 1.33711, 1.31729, 1.32232, 1.31086, 1.32675, 1.30813, 1.30614, 1.30541, 1.32611, 1.30292, 1.29902
1.63421, 1.63014, 1.62807, 1.62599, 1.62262, 1.62047, 1.61792, 1.61681, 1.61315, 1.61089, 1.60933, 1.60999, 1.60295, 1.60034, 1.59844, 1.59582, 1.5944, 1.59544, 1.5932, 1.57107, 1.65016, 1.74471, 1.81281, 1.92467, 1.89128, 1.79927, 1.55077, 1.53865, 1.57174, 1.58141, 1.57821, 1.58621, 1.57304, 1.57916, 1.57319, 1.5671, 1.56498, 1.55136, 1.55473, 1.53562, 1.53021, 1.52897, 1.52437, 1.52137, 1.5194, 1.51908, 1.51338, 1.51112, 1.5105, 1.50703, 1.50575, 1.50564, 1.50518, 1.5026, 1.49895, 1.49719, 1.49502, 1.4908, 1.48527, 1.48297, 1.47792, 1.47763, 1.47444, 1.47165, 1.47162, 1.47002, 1.4686, 1.4661, 1.46455, 1.46406, 1.46469, 1.46924, 1.4681, 1.47659, 1.52672, 1.50818, 1.50595, 1.53744, 1.48563, 1.46136, 1.48631, 1.48193, 1.49972, 1.49352, 1.4477, 1.45037, 1.43762, 1.43772, 1.44521, 1.43065, 1.42162, 1.41875, 1.416, 1.41796, 1.41047, 1.40934, 1.40704, 1.40766, 1.40726, 1.40365, 1.4037, 1.39938, 1.40141, 1.39816, 1.39356, 1.38918, 1.38802, 1.38518, 1.3813, 1.3785, 1.37934, 1.37544, 1.37396, 1.37385, 1.37585, 1.37741, 1.37613, 1.37513, 1.37394, 1.36838, 1.36437, 1.36382, 1.36089, 1.35739, 1.35312, 1.35591, 1.35465, 1.3518, 1.35147, 1.35076, 1.35045, 1.34827, 1.35129, 1.34576, 1.34453, 1.34196, 1.33868, 1.33796, 1.33673, 1.33705, 1.34786, 1.358, 1.34417, 1.31737, 1.39923, 1.47574, 1.5074, 1.6198, 1.64128, 1.56455, 1.41899, 1.38182, 1.27448, 1.31628, 1.32503, 1.32306, 1.30943, 1.3078, 1.30582, 1.32201, 1.30435, 1.30095, 1.2962, 1.29745, 1.29779, 1.29524
1.62747, 1.62756, 1.6248, 1.62343, 1.62038, 1.61943, 1.6178, 1.61674, 1.61515, 1.61059, 1.60741, 1.60641, 1.60062, 1.59884, 1.5965, 1.59571, 1.59392, 1.59476, 1.59356, 1.5925, 1.67311, 1.66531, 1.83376, 1.89371, 2.17718, 1.74879, 1.63418, 1.5326, 1.56512, 1.56221, 1.56266, 1.56588, 1.56438, 1.56256, 1.5724, 1.55213, 1.54971, 1.54004, 1.53556, 1.53159, 1.53114, 1.52526, 1.52301, 1.52172, 1.51973, 1.51536, 1.51211, 1.51079, 1.50876, 1.50643, 1.50513, 1.50366, 1.50147, 1.49825, 1.497, 1.49482, 1.49232, 1.48788, 1.48472, 1.48167, 1.47816, 1.4741, 1.47216, 1.47073, 1.4705, 1.46849, 1.46696, 1.46432, 1.46287, 1.4618, 1.46786, 1.48595, 1.46447, 1.4818, 1.50452, 1.51748, 1.51454, 1.53102, 1.49826, 1.46824, 1.4836, 1.49473, 1.5065, 1.49673, 1.47171, 1.46328, 1.44283, 1.45405, 1.43966, 1.42896, 1.42617, 1.42195, 1.41788, 1.41554, 1.41322, 1.41215, 1.40718, 1.40397, 1.4009, 1.40026, 1.39943, 1.39684, 1.39613, 1.39217, 1.38986, 1.38601, 1.38419, 1.38137, 1.37985, 1.37715, 1.37563, 1.37382, 1.37404, 1.3751, 1.37423, 1.37395, 1.37485, 1.37367, 1.37257, 1.37743, 1.36562, 1.36345, 1.35987, 1.35676, 1.35383, 1.35001, 1.34504, 1.34865, 1.34871, 1.35003, 1.34913, 1.34707, 1.34335, 1.34369, 1.34329, 1.34003, 1.33784, 1.33547, 1.33317, 1.33238, 1.33267, 1.335, 1.34379, 1.34727, 1.41277, 1.46718, 1.56085, 1.58805, 1.70446, 1.70159, 1.4407, 1.34434, 1.28905, 1.3171, 1.31454, 1.30927, 1.306, 1.30509, 1.30153, 1.30096, 1.30136, 1.30055, 1.29919, 1.29696, 1.29513, 1.29135
1.62578, 1.62435, 1.62345, 1.62169, 1.62026, 1.6192, 1.62038, 1.61685, 1.61499, 1.61185, 1.61229, 1.60784, 1.60243, 1.59976, 1.5962, 1.59437, 1.59361, 1.59409, 1.58615, 1.58205, 1.62337, 1.71911, 1.75428, 1.84419, 2.19109, 1.67082, 1.57769, 1.54019, 1.56372, 1.56307, 1.55849, 1.55807, 1.55925, 1.55523, 1.55806, 1.54752, 1.55109, 1.54086, 1.53752, 1.54065, 1.53005, 1.52699, 1.52396, 1.52104, 1.52684, 1.51543, 1.51175, 1.51065, 1.50746, 1.50584, 1.50304, 1.50114, 1.49876, 1.49674, 1.49487, 1.49492, 1.49234, 1.48685, 1.4828, 1.47857, 1.47658, 1.48145, 1.472, 1.47081, 1.46817, 1.46685, 1.46506, 1.46335, 1.46191, 1.46342, 1.46282, 1.46406, 1.4613, 1.4856, 1.48102, 1.51467, 1.50741, 1.50507, 1.50001, 1.49297, 1.49641, 1.49139, 1.49648, 1.48385, 1.47193, 1.45847, 1.44429, 1.441, 1.43058, 1.42759, 1.42362, 1.41918, 1.41554, 1.41304, 1.40955, 1.40776, 1.40522, 1.40513, 1.40269, 1.40092, 1.39857, 1.39507, 1.3901, 1.39027, 1.38801, 1.38674, 1.38228, 1.38151, 1.37747, 1.37693, 1.37482, 1.37585, 1.37277, 1.37393, 1.37427, 1.37483, 1.37248, 1.37265, 1.37113, 1.36922, 1.36182, 1.36908, 1.35744, 1.35527, 1.35108, 1.35423, 1.34721, 1.34488, 1.34688, 1.345, 1.34385, 1.34357, 1.34275, 1.33986, 1.34004, 1.33654, 1.33281, 1.33234, 1.33336, 1.33078, 1.33076, 1.33655, 1.33581, 1.33374, 1.40889, 1.47749, 1.51944, 1.56893, 1.66153, 1.6813, 1.54468, 1.42835, 1.27155, 1.31219, 1.31367, 1.30959, 1.30491, 1.30311, 1.3023, 1.30302, 1.30039, 1.29979, 1.30523, 1.29645, 1.29351, 1.29244
1.62633, 1.62425, 1.6243, 1.6225, 1.61817, 1.61602, 1.61587, 1.61586, 1.61402, 1.60983, 1.60699, 1.60389, 1.60087, 1.59924, 1.59781, 1.59607, 1.59632, 1.59406, 1.60997, 1.56822, 1.63232, 1.73795, 1.76722, 1.79067, 1.74751, 1.70289, 1.55497, 1.51183, 1.561, 1.55898, 1.55498, 1.55439, 1.55832, 1.55075, 1.54878, 1.54769, 1.57556, 1.54068, 1.53671, 1.53434, 1.53071, 1.52925, 1.5271, 1.52293, 1.52091, 1.5157, 1.51058, 1.5066, 1.50499, 1.50281, 1.50209, 1.49977, 1.49775, 1.49541, 1.49317, 1.4912, 1.48854, 1.48658, 1.48441, 1.4825, 1.47661, 1.47443, 1.47164, 1.46966, 1.46857, 1.46674, 1.46496, 1.46274, 1.46075, 1.46116, 1.46279, 1.4748, 1.46945, 1.48268, 1.5045, 1.50196, 1.51666, 1.52339, 1.48167, 1.46904, 1.47405, 1.48264, 1.49854, 1.47866, 1.44373, 1.44295, 1.44157, 1.4394, 1.43308, 1.42421, 1.42711, 1.41934, 1.4139, 1.4102, 1.41106, 1.40838, 1.40897, 1.40366, 1.40038, 1.40035, 1.39957, 1.39774, 1.39411, 1.39112, 1.38862, 1.38839, 1.38811, 1.38533, 1.38069, 1.37947, 1.37866, 1.3756, 1.3743, 1.3747, 1.37415, 1.37818, 1.37365, 1.37086, 1.36767, 1.36867, 1.36666, 1.35915, 1.35399, 1.35431, 1.34905, 1.34645, 1.34974, 1.35887, 1.3454, 1.3462, 1.34542, 1.34621, 1.34327, 1.34108, 1.3399, 1.35015, 1.33305, 1.33104, 1.336, 1.32896, 1.33421, 1.3432, 1.32515, 1.3024, 1.36491, 1.43037, 1.49824, 1.59165, 1.65143, 1.64912, 1.4144, 1.40851, 1.27016, 1.30957, 1.3236, 1.31599, 1.30595, 1.3076, 1.30506, 1.30728, 1.30541, 1.32666, 1.30026, 1.29972, 1.29859, 1.29731
1.62433, 1.62179, 1.61979, 1.6217, 1.62005, 1.61859, 1.61668, 1.61458, 1.61311, 1.60947, 1.60717, 1.60383, 1.60208, 1.60739, 1.59387, 1.59208, 1.5923, 1.59265, 1.59097, 1.55838, 1.65151, 1.74224, 1.80598, 1.88504, 1.73696, 1.67933, 1.72342, 1.52678, 1.5563, 1.56215, 1.56941, 1.56498, 1.57399, 1.55413, 1.55817, 1.55503, 1.54688, 1.54262, 1.53786, 1.53526, 1.53368, 1.53772, 1.52682, 1.52542, 1.52076, 1.51807, 1.51424, 1.51084, 1.50569, 1.50385, 1.50372, 1.50326, 1.49978, 1.49562, 1.49224, 1.49166, 1.48891, 1.48616, 1.48267, 1.48038, 1.47765, 1.47426, 1.47308, 1.47089, 1.46958, 1.46914, 1.46564, 1.46458, 1.46374, 1.46319, 1.46936, 1.46588, 1.46454, 1.47264, 1.4824, 1.5115, 1.51941, 1.50922, 1.48207, 1.46456, 1.45774, 1.5168, 1.47981, 1.49198, 1.45646, 1.44109, 1.45168, 1.43284, 1.42625, 1.42299, 1.41917, 1.41306, 1.41001, 1.40926, 1.40829, 1.40604, 1.40375, 1.40343, 1.40191, 1.39969, 1.39757, 1.39594, 1.3928, 1.39218, 1.39127, 1.38895, 1.38544, 1.38206, 1.37992, 1.38026, 1.3779, 1.37659, 1.37237, 1.37317, 1.36981, 1.36924, 1.3677, 1.36294, 1.36389, 1.35826, 1.35597, 1.35356, 1.35066, 1.34759, 1.34756, 1.34629, 1.34511, 1.34423, 1.343, 1.34184, 1.34161, 1.33987, 1.33755, 1.33697, 1.33428, 1.33418, 1.33298, 1.32996, 1.32925, 1.32678, 1.33667, 1.35397, 1.34102, 1.29804, 1.3909, 1.44798, 1.53523, 1.57101, 1.71804, 1.66967, 1.62483, 1.36504, 1.28867, 1.30771, 1.31528, 1.30644, 1.31601, 1.30974, 1.31807, 1.30484, 1.30589, 1.30137, 1.30057, 1.29935, 1.29851, 1.29467
1.62788, 1.62377, 1.62228, 1.62017, 1.6185, 1.61666, 1.61486, 1.61432, 1.61291, 1.60935, 1.60611, 1.60357, 1.60689, 1.60334, 1.59538, 1.59326, 1.59157, 1.59359, 1.60265, 1.58353, 1.64131, 1.74559, 1.83842, 1.71725, 1.70293, 1.81636, 1.57251, 1.54664, 1.57558, 1.5753, 1.56862, 1.56046, 1.55704, 1.57873, 1.55164, 1.57136, 1.5558, 1.53907, 1.53389, 1.53288, 1.52755, 1.52681, 1.52583, 1.52374, 1.51977, 1.51746, 1.51653, 1.51406, 1.51296, 1.50608, 1.51606, 1.50278, 1.49927, 1.49876, 1.49622, 1.49314, 1.48995, 1.48825, 1.48457, 1.4856, 1.49894, 1.47676, 1.47451, 1.47351, 1.4709, 1.47029, 1.46794, 1.46568, 1.46516, 1.4655, 1.46584, 1.48341, 1.47124, 1.46775, 1.50877, 1.503, 1.49698, 1.49041, 1.48855, 1.45882, 1.4757, 1.47077, 1.48201, 1.46469, 1.45159, 1.43997, 1.44081, 1.43093, 1.43812, 1.42363, 1.4163, 1.41294, 1.41122, 1.41994, 1.41577, 1.40705, 1.40656, 1.40473, 1.40218, 1.40067, 1.39648, 1.39423, 1.39179, 1.39133, 1.38919, 1.38679, 1.385, 1.38269, 1.38128, 1.38052, 1.3815, 1.37687, 1.37497, 1.37189, 1.37349, 1.36767, 1.366, 1.36943, 1.36064, 1.35731, 1.3552, 1.35372, 1.34886, 1.34699, 1.3499, 1.34422, 1.34356, 1.34543, 1.34589, 1.34618, 1.3452, 1.3407, 1.34004, 1.33944, 1.33626, 1.33353, 1.3327, 1.333, 1.33059, 1.3298, 1.33243, 1.33053, 1.33067, 1.29994, 1.36205, 1.43504, 1.48853, 1.53332, 1.68935, 1.69944, 1.44739, 1.36112, 1.29428, 1.30927, 1.32854, 1.32736, 1.30191, 1.30812, 1.30438, 1.30501, 1.3101, 1.30082, 1.30179, 1.29731, 1.29651, 1.29331
1.62539, 1.62194, 1.61784, 1.61773, 1.61362, 1.61245, 1.61031, 1.61071, 1.60677, 1.60403, 1.61391, 1.59716, 1.59413, 1.59198, 1.58833, 1.58978, 1.5824, 1.5839, 1.58117, 1.57576, 1.62414, 1.67188, 1.77333, 1.84738, 2.11325, 1.92513, 1.57843, 1.53513, 1.56524, 1.56217, 1.55592, 1.55404, 1.55192, 1.5486, 1.5472, 1.54168, 1.53796, 1.53291, 1.52954, 1.52436, 1.52079, 1.51844, 1.51793, 1.51716, 1.51514, 1.51413, 1.51396, 1.51225, 1.50961, 1.50439, 1.50131, 1.49794, 1.49617, 1.49579, 1.49654, 1.49021, 1.48575, 1.48234, 1.48128, 1.47835, 1.47568, 1.47449, 1.47107, 1.46887, 1.46806, 1.4675, 1.46573, 1.46295, 1.46207, 1.4685, 1.47165, 1.47328, 1.48578, 1.46686, 1.49091, 1.50068, 1.48728, 1.48385, 1.48911, 1.464, 1.46466, 1.46887, 1.48231, 1.46083, 1.45883, 1.43467, 1.43645, 1.42451, 1.42183, 1.413, 1.40957, 1.40966, 1.40728, 1.4083, 1.40965, 1.40406, 1.40351, 1.40296, 1.39979, 1.39646, 1.39333, 1.39347, 1.39234, 1.38637, 1.38453, 1.38434, 1.38352, 1.38191, 1.37927, 1.37796, 1.37764, 1.37232, 1.37143, 1.36834, 1.36446, 1.36439, 1.35866, 1.35748, 1.35529, 1.35129, 1.34942, 1.34446, 1.34469, 1.34417, 1.34265, 1.34313, 1.34089, 1.34173, 1.34259, 1.34226, 1.34217, 1.33791, 1.33677, 1.33612, 1.33348, 1.33303, 1.32932, 1.3293, 1.32917, 1.32496, 1.32646, 1.33406, 1.3259, 1.29637, 1.3655, 1.39299, 1.49759, 1.5941, 1.70064, 1.87298, 1.45129, 1.40636, 1.26584, 1.30529, 1.31272, 1.30282, 1.31486, 1.31573, 1.29907, 1.30155, 1.31033, 1.2964, 1.29558, 1.29223, 1.28994, 1.28913
