1.61414, 1.61708, 1.60241, 1.59934, 1.59019, 1.59994, 1.59114, 1.59469, 1.6074, 1.63773, 1.68317, 1.66096, 1.53124, 1.55152, 1.53763, 1.55124, 1.53678, 1.52008, 1.50984, 1.50622, 1.50293, 1.49876, 1.49598, 1.4897, 1.48084, 1.47821, 1.47328, 1.46963, 1.45984, 1.45415, 1.45422, 1.44873, 1.45381, 1.45422, 1.5356, 1.7786, 1.70518, 1.41278, 1.42268, 1.41381, 1.41214, 1.403, 1.40121, 1.39316, 1.38841, 1.38139, 1.37665, 1.37368, 1.36584, 1.36208, 1.35751, 1.35659, 1.3545, 1.35195, 1.34058, 1.33958, 1.33226, 1.32903, 1.3308, 1.3194, 1.31749, 1.31475, 1.3154, 1.32232, 1.3236, 1.33528, 1.35514, 1.34386, 1.37825, 1.3163, 1.30539, 1.28501, 1.27802, 1.27494, 1.28433, 1.27473, 
1.66837, 1.63539, 1.61699, 1.60932, 1.60413, 1.60119, 1.60204, 1.59226, 1.63439, 1.65403, 1.7078, 1.71041, 1.55968, 1.5618, 1.55498, 1.54054, 1.54388, 1.5364, 1.52807, 1.52239, 1.51386, 1.50368, 1.49987, 1.49489, 1.49493, 1.49862, 1.48415, 1.48181, 1.4827, 1.46398, 1.4815, 1.45731, 1.47494, 1.43737, 1.57928, 1.70602, 1.5127, 1.42983, 1.43437, 1.41733, 1.41394, 1.40637, 1.40165, 1.39606, 1.39389, 1.39055, 1.38837, 1.37985, 1.3775, 1.3778, 1.36995, 1.3658, 1.35763, 1.35521, 1.35015, 1.34782, 1.34595, 1.3433, 1.34496, 1.34104, 1.33686, 1.33893, 1.34405, 1.33467, 1.33336, 1.39501, 1.34395, 1.36028, 1.3534, 1.31253, 1.30853, 1.30043, 1.28521, 1.28179, 1.28888, 1.28105, 
1.63529, 1.64852, 1.64734, 1.61765, 1.61223, 1.60991, 1.60934, 1.59448, 1.64868, 1.68969, 1.73409, 1.6618, 1.5862, 1.57188, 1.56513, 1.55019, 1.55032, 1.5539, 1.54657, 1.5266, 1.5251, 1.51665, 1.51187, 1.50765, 1.49942, 1.49695, 1.49083, 1.48921, 1.48619, 1.48225, 1.47852, 1.47116, 1.47372, 1.44318, 1.59261, 1.71664, 1.59497, 1.44061, 1.44899, 1.45823, 1.4314, 1.42369, 1.42297, 1.41541, 1.40907, 1.40332, 1.39976, 1.39368, 1.39252, 1.39189, 1.38896, 1.38119, 1.37667, 1.36675, 1.35803, 1.35509, 1.35125, 1.34924, 1.34759, 1.34438, 1.35446, 1.34147, 1.35002, 1.34169, 1.34278, 1.36466, 1.38426, 1.39108, 1.38209, 1.32038, 1.32958, 1.3175, 1.31265, 1.29818, 1.29792, 1.29792, 
1.64603, 1.64407, 1.65984, 1.64782, 1.63093, 1.61478, 1.6134, 1.59588, 1.65739, 1.70717, 1.74501, 1.73544, 1.56847, 1.57668, 1.56306, 1.55768, 1.54782, 1.54428, 1.54945, 1.55194, 1.53503, 1.52414, 1.51964, 1.51547, 1.50882, 1.49873, 1.49756, 1.49345, 1.48926, 1.48542, 1.49279, 1.49189, 1.48341, 1.43942, 1.6072, 1.67045, 1.65348, 1.41175, 1.44521, 1.44401, 1.44117, 1.42367, 1.41822, 1.41466, 1.41292, 1.40731, 1.40491, 1.40007, 1.39305, 1.39046, 1.39026, 1.38776, 1.38658, 1.38175, 1.38077, 1.37671, 1.36537, 1.36289, 1.36283, 1.36092, 1.36405, 1.34369, 1.35283, 1.36068, 1.34928, 1.38169, 1.39143, 1.47829, 1.40734, 1.36857, 1.32456, 1.32258, 1.31242, 1.32073, 1.30678, 1.30343, 
1.65581, 1.64302, 1.64181, 1.64854, 1.65696, 1.64074, 1.63321, 1.61679, 1.6612, 1.75783, 1.77503, 1.76293, 1.58189, 1.5916, 1.58309, 1.5751, 1.56779, 1.55624, 1.55259, 1.56603, 1.54734, 1.53955, 1.52431, 1.52275, 1.52022, 1.51301, 1.52114, 1.50517, 1.49872, 1.49202, 1.48998, 1.48588, 1.49672, 1.46251, 1.57329, 1.70079, 1.68589, 1.50392, 1.45782, 1.45013, 1.43755, 1.43917, 1.43, 1.42503, 1.42002, 1.41729, 1.41573, 1.41197, 1.40534, 1.40936, 1.39836, 1.3972, 1.39172, 1.38775, 1.38444, 1.37649, 1.37235, 1.36855, 1.36823, 1.37054, 1.37186, 1.35916, 1.35632, 1.3571, 1.34178, 1.40612, 1.42327, 1.44473, 1.4402, 1.32947, 1.34035, 1.32061, 1.33174, 1.31015, 1.30529, 1.30123, 
1.66548, 1.66063, 1.65435, 1.6475, 1.67006, 1.65685, 1.64834, 1.61066, 1.71405, 1.78793, 1.77136, 1.69859, 1.58002, 1.60964, 1.599, 1.57259, 1.56956, 1.56228, 1.55939, 1.55897, 1.56839, 1.55501, 1.53751, 1.53118, 1.52423, 1.52011, 1.51547, 1.50898, 1.50704, 1.503, 1.49686, 1.50645, 1.49498, 1.48682, 1.61105, 1.6754, 1.66188, 1.43681, 1.47199, 1.47796, 1.46255, 1.45103, 1.43896, 1.43029, 1.42788, 1.42415, 1.42251, 1.41971, 1.41331, 1.41073, 1.40834, 1.40499, 1.3996, 1.3931, 1.38844, 1.38159, 1.37722, 1.37157, 1.36574, 1.3619, 1.36316, 1.35889, 1.35796, 1.37579, 1.36175, 1.43086, 1.45517, 1.45752, 1.46022, 1.39948, 1.33617, 1.3276, 1.32795, 1.31709, 1.31646, 1.31546, 
1.66654, 1.66145, 1.651, 1.66488, 1.65157, 1.66255, 1.655, 1.62836, 1.68857, 1.77717, 1.79793, 1.75753, 1.58022, 1.59248, 1.58738, 1.58322, 1.57897, 1.57131, 1.56445, 1.56265, 1.56548, 1.57285, 1.54211, 1.53722, 1.53367, 1.52813, 1.52425, 1.51704, 1.50959, 1.5025, 1.49823, 1.49761, 1.49975, 1.49314, 1.5657, 1.67446, 1.68189, 1.49023, 1.42935, 1.46866, 1.45424, 1.44788, 1.4449, 1.44158, 1.43414, 1.43123, 1.42868, 1.42411, 1.42251, 1.41915, 1.41233, 1.41045, 1.40909, 1.4033, 1.40234, 1.39028, 1.38973, 1.3823, 1.38592, 1.3737, 1.37178, 1.36958, 1.36881, 1.37727, 1.365, 1.43399, 1.46647, 1.47596, 1.49609, 1.4328, 1.35127, 1.33042, 1.33016, 1.33214, 1.32928, 1.32378, 
1.67995, 1.67413, 1.66974, 1.67053, 1.65943, 1.66748, 1.66815, 1.64869, 1.61094, 1.76613, 1.80761, 1.83134, 1.57593, 1.60338, 1.59324, 1.59599, 1.58007, 1.58538, 1.57467, 1.57357, 1.55752, 1.55647, 1.56118, 1.54259, 1.55374, 1.53376, 1.5292, 1.51768, 1.51024, 1.50853, 1.50033, 1.50036, 1.52262, 1.49672, 1.58664, 1.64964, 1.60946, 1.58507, 1.44326, 1.46478, 1.47848, 1.45932, 1.44383, 1.44088, 1.43687, 1.43071, 1.42269, 1.41986, 1.42434, 1.42571, 1.41256, 1.41207, 1.41199, 1.40885, 1.39666, 1.39861, 1.39214, 1.38899, 1.37905, 1.38076, 1.37472, 1.37937, 1.37873, 1.36806, 1.39418, 1.42264, 1.50959, 1.52085, 1.49697, 1.46834, 1.34786, 1.35015, 1.34413, 1.33279, 1.33146, 1.32239, 
1.68197, 1.67502, 1.66828, 1.66917, 1.68168, 1.6517, 1.64199, 1.65401, 1.68356, 1.77259, 1.8966, 1.88732, 1.61404, 1.63277, 1.61659, 1.60998, 1.5859, 1.57923, 1.57713, 1.56967, 1.56194, 1.56169, 1.5564, 1.56907, 1.56379, 1.55146, 1.54542, 1.52725, 1.52355, 1.52761, 1.51494, 1.51787, 1.52227, 1.50651, 1.65188, 1.6519, 1.65912, 1.52466, 1.46084, 1.46819, 1.49739, 1.46974, 1.47777, 1.46454, 1.44869, 1.43476, 1.434, 1.43638, 1.43616, 1.4277, 1.41919, 1.40755, 1.3998, 1.39984, 1.39615, 1.38829, 1.38796, 1.38978, 1.38921, 1.39271, 1.39497, 1.37845, 1.37804, 1.38025, 1.38538, 1.3835, 1.45467, 1.50022, 1.49598, 1.44256, 1.36311, 1.35094, 1.35315, 1.34776, 1.32196, 1.32307, 
1.67307, 1.67446, 1.66592, 1.65703, 1.64745, 1.65014, 1.64181, 1.65118, 1.64217, 1.69531, 1.78557, 1.84445, 1.64426, 1.60728, 1.59276, 1.5842, 1.58196, 1.57242, 1.56373, 1.55538, 1.55157, 1.54573, 1.551, 1.54447, 1.5338, 1.5443, 1.52268, 1.51862, 1.51953, 1.50691, 1.50737, 1.50939, 1.50033, 1.46127, 1.52084, 1.62124, 1.62762, 1.59299, 1.45461, 1.46894, 1.47466, 1.46119, 1.437, 1.43257, 1.43237, 1.42933, 1.43054, 1.42505, 1.42527, 1.41546, 1.41074, 1.41012, 1.40845, 1.39849, 1.38984, 1.38825, 1.38066, 1.37741, 1.37414, 1.38556, 1.36896, 1.37377, 1.37504, 1.36725, 1.3681, 1.40522, 1.4851, 1.56166, 1.53577, 1.3965, 1.34994, 1.34927, 1.34156, 1.33763, 1.33, 1.32682, 
1.65602, 1.64477, 1.63749, 1.63384, 1.62669, 1.62338, 1.61936, 1.61677, 1.59365, 1.73101, 1.88048, 1.87726, 1.58205, 1.58596, 1.57516, 1.57099, 1.5681, 1.55501, 1.55086, 1.54579, 1.54404, 1.53967, 1.52999, 1.52261, 1.51923, 1.53734, 1.51735, 1.50553, 1.50227, 1.49805, 1.49517, 1.48822, 1.493, 1.4536, 1.48978, 1.55841, 1.61064, 1.57625, 1.50625, 1.45892, 1.45723, 1.44469, 1.47931, 1.43291, 1.4256, 1.42316, 1.41245, 1.40675, 1.40323, 1.39991, 1.39624, 1.39333, 1.38952, 1.38559, 1.38256, 1.38012, 1.37265, 1.36499, 1.36018, 1.36058, 1.35523, 1.3506, 1.34725, 1.3481, 1.34826, 1.38603, 1.4542, 1.52406, 1.51602, 1.41289, 1.30686, 1.32459, 1.31285, 1.30879, 1.30576, 1.30443, 
1.66148, 1.65688, 1.64977, 1.64232, 1.63868, 1.62731, 1.62248, 1.63092, 1.60051, 1.70673, 1.79438, 1.86481, 1.59148, 1.58551, 1.58553, 1.57166, 1.57682, 1.5525, 1.54849, 1.54456, 1.54039, 1.53751, 1.53093, 1.52378, 1.51985, 1.51327, 1.52793, 1.51624, 1.49865, 1.50154, 1.48592, 1.4859, 1.48852, 1.48197, 1.46896, 1.56115, 1.59211, 1.59215, 1.44548, 1.46105, 1.44335, 1.43363, 1.44433, 1.44165, 1.43013, 1.41624, 1.41969, 1.4091, 1.40691, 1.40079, 1.3959, 1.39312, 1.3887, 1.38458, 1.38082, 1.37575, 1.3706, 1.36742, 1.36268, 1.36353, 1.35937, 1.35703, 1.36038, 1.34758, 1.35363, 1.37805, 1.45505, 1.51737, 1.56186, 1.45247, 1.33299, 1.33423, 1.3438, 1.31716, 1.31283, 1.31163, 
1.65834, 1.65162, 1.64355, 1.63902, 1.63169, 1.62189, 1.62035, 1.62127, 1.62554, 1.70767, 1.82854, 1.88187, 1.56439, 1.58793, 1.58314, 1.56949, 1.56263, 1.56181, 1.55061, 1.54201, 1.53774, 1.53418, 1.53333, 1.52407, 1.51837, 1.51586, 1.50896, 1.50725, 1.52009, 1.4969, 1.49618, 1.4889, 1.49316, 1.48529, 1.46063, 1.49368, 1.57954, 1.54712, 1.46423, 1.43013, 1.45667, 1.43819, 1.43305, 1.43296, 1.42973, 1.4147, 1.41044, 1.40833, 1.40538, 1.41058, 1.39945, 1.39426, 1.39063, 1.38887, 1.38127, 1.37786, 1.3748, 1.38691, 1.36074, 1.3554, 1.35354, 1.35372, 1.34966, 1.36093, 1.3555, 1.33777, 1.43107, 1.53244, 1.56415, 1.48454, 1.33735, 1.34347, 1.31582, 1.31303, 1.30946, 1.31093, 
1.65491, 1.64776, 1.64207, 1.63573, 1.62925, 1.62431, 1.61961, 1.6171, 1.61483, 1.66233, 1.78604, 2.10826, 1.57217, 1.58344, 1.57254, 1.5687, 1.5616, 1.55494, 1.55559, 1.5438, 1.54093, 1.53228, 1.52967, 1.52094, 1.5133, 1.50903, 1.50159, 1.50004, 1.50346, 1.50602, 1.49047, 1.49316, 1.48622, 1.47657, 1.466, 1.58128, 1.57827, 1.54215, 1.47984, 1.45243, 1.44597, 1.43349, 1.43662, 1.42651, 1.43684, 1.42222, 1.41223, 1.4032, 1.40104, 1.39764, 1.39371, 1.38945, 1.38785, 1.3849, 1.38195, 1.37958, 1.37536, 1.37061, 1.36686, 1.36241, 1.35808, 1.35137, 1.34859, 1.34648, 1.35754, 1.34984, 1.4504, 1.4998, 1.61147, 1.44127, 1.3204, 1.33513, 1.31589, 1.31378, 1.3194, 1.30663, 
1.65514, 1.64902, 1.64352, 1.63795, 1.63361, 1.62508, 1.62001, 1.62635, 1.61633, 1.58657, 1.83136, 1.9372, 1.57693, 1.56138, 1.58268, 1.57695, 1.56095, 1.55895, 1.55109, 1.54415, 1.53489, 1.53233, 1.51928, 1.5156, 1.51021, 1.50723, 1.50424, 1.5034, 1.49965, 1.51716, 1.53562, 1.49192, 1.49851, 1.47875, 1.45476, 1.53781, 1.54758, 1.53384, 1.52059, 1.4509, 1.45813, 1.45442, 1.47445, 1.47501, 1.4274, 1.421, 1.41494, 1.40581, 1.40057, 1.39648, 1.38988, 1.38773, 1.38325, 1.38111, 1.37608, 1.37891, 1.36811, 1.36613, 1.3637, 1.361, 1.35853, 1.35492, 1.35008, 1.34535, 1.36466, 1.3318, 1.46511, 1.54743, 1.57918, 1.42987, 1.31584, 1.3276, 1.32509, 1.31379, 1.31035, 1.3084, 
1.64527, 1.64121, 1.63708, 1.63712, 1.63514, 1.62959, 1.6196, 1.61092, 1.61931, 1.58984, 1.71615, 1.97185, 1.59509, 1.60239, 1.59043, 1.57974, 1.57219, 1.56292, 1.55158, 1.54251, 1.53474, 1.52921, 1.5204, 1.51726, 1.5087, 1.50551, 1.50201, 1.49877, 1.49267, 1.49272, 1.49161, 1.51006, 1.5079, 1.51227, 1.47439, 1.52308, 1.50366, 1.48154, 1.52059, 1.46617, 1.45491, 1.43759, 1.43092, 1.43983, 1.41954, 1.41286, 1.41046, 1.40876, 1.40317, 1.39717, 1.3935, 1.39241, 1.38738, 1.38219, 1.37794, 1.37471, 1.37245, 1.37154, 1.36492, 1.36088, 1.35882, 1.35327, 1.34724, 1.35038, 1.35801, 1.33274, 1.44069, 1.53294, 1.63974, 1.50129, 1.30273, 1.3365, 1.3296, 1.31297, 1.31142, 1.30838, 
1.64479, 1.63792, 1.63093, 1.62807, 1.62376, 1.61727, 1.61338, 1.60604, 1.61247, 1.57537, 1.70669, 1.81534, 1.59502, 1.52687, 1.74826, 1.60535, 1.59213, 1.58188, 1.56577, 1.54128, 1.5334, 1.52489, 1.5222, 1.5168, 1.50828, 1.50355, 1.50201, 1.49288, 1.48913, 1.48348, 1.47768, 1.47205, 1.47886, 1.47602, 1.489, 1.52447, 1.49882, 1.47265, 1.48994, 1.45734, 1.45343, 1.44096, 1.42484, 1.41739, 1.41259, 1.40911, 1.40651, 1.40752, 1.40408, 1.39865, 1.38924, 1.38571, 1.38178, 1.378, 1.37493, 1.36863, 1.36725, 1.362, 1.35529, 1.35162, 1.35028, 1.34813, 1.34753, 1.33997, 1.33918, 1.35474, 1.38936, 1.43689, 1.65884, 1.65487, 1.32292, 1.33642, 1.31643, 1.30908, 1.30656, 1.30235, 
1.63046, 1.62418, 1.62308, 1.61858, 1.61406, 1.61132, 1.60916, 1.59631, 1.6027, 1.59045, 1.66948, 1.85181, 1.70331, 1.55443, 1.56212, 1.56689, 1.55173, 1.54821, 1.53415, 1.52888, 1.52139, 1.51435, 1.50928, 1.50667, 1.49953, 1.49707, 1.49223, 1.48389, 1.47419, 1.46971, 1.46695, 1.46451, 1.46211, 1.4774, 1.48701, 1.51138, 1.52688, 1.4814, 1.49027, 1.43757, 1.44716, 1.42756, 1.4206, 1.41642, 1.41016, 1.4042, 1.39891, 1.3934, 1.38825, 1.38474, 1.37901, 1.37538, 1.37112, 1.37356, 1.37145, 1.36586, 1.36406, 1.35451, 1.34777, 1.34683, 1.34414, 1.34169, 1.33992, 1.33366, 1.33166, 1.34472, 1.30849, 1.42487, 1.57259, 1.46965, 1.32898, 1.31435, 1.30394, 1.30295, 1.29978, 1.29878, 
1.63529, 1.62354, 1.6163, 1.61365, 1.60967, 1.60383, 1.60551, 1.59735, 1.58591, 1.58127, 1.68785, 1.74904, 1.70502, 1.5512, 1.57418, 1.55515, 1.555, 1.55793, 1.53267, 1.52403, 1.52253, 1.51667, 1.51611, 1.50688, 1.50403, 1.49348, 1.49171, 1.48204, 1.47723, 1.47163, 1.46895, 1.46395, 1.46315, 1.47561, 1.47243, 1.49035, 1.48419, 1.45705, 1.46839, 1.46847, 1.44098, 1.42016, 1.40936, 1.41064, 1.40676, 1.40429, 1.39951, 1.39003, 1.38697, 1.38407, 1.38099, 1.37589, 1.36836, 1.36489, 1.36397, 1.35109, 1.34721, 1.34351, 1.34737, 1.34266, 1.341, 1.34008, 1.35877, 1.34068, 1.34389, 1.32991, 1.34277, 1.42271, 1.70061, 1.6689, 1.32981, 1.30338, 1.30059, 1.29985, 1.30084, 1.29265, 
1.61886, 1.61748, 1.60881, 1.60705, 1.60256, 1.59594, 1.58696, 1.59615, 1.5903, 1.5869, 1.54755, 1.81365, 1.71373, 1.55256, 1.55205, 1.53507, 1.52886, 1.52397, 1.51817, 1.51271, 1.50883, 1.50244, 1.50215, 1.49205, 1.48646, 1.48273, 1.47458, 1.4698, 1.46571, 1.46793, 1.45412, 1.45474, 1.44692, 1.44804, 1.45422, 1.4773, 1.48276, 1.45113, 1.46399, 1.45225, 1.44446, 1.41672, 1.39897, 1.39588, 1.39388, 1.3872, 1.38081, 1.37961, 1.37535, 1.37071, 1.36556, 1.36026, 1.35684, 1.35498, 1.35198, 1.3449, 1.3397, 1.3355, 1.33427, 1.33215, 1.33173, 1.32944, 1.32575, 1.327, 1.31683, 1.32704, 1.31975, 1.44704, 1.69554, 1.40391, 1.30521, 1.31256, 1.29755, 1.31204, 1.28421, 1.28121, 
1.5941, 1.58816, 1.58532, 1.57835, 1.5846, 1.5813, 1.58029, 1.55498, 1.55186, 1.56486, 1.55694, 1.89393, 1.6935, 1.52041, 1.52119, 1.52457, 1.52159, 1.501, 1.49825, 1.49385, 1.48847, 1.48201, 1.47369, 1.46736, 1.4626, 1.45619, 1.45395, 1.44933, 1.44727, 1.44416, 1.44053, 1.42985, 1.43341, 1.44873, 1.43795, 1.44056, 1.44827, 1.43355, 1.45219, 1.42315, 1.39941, 1.39597, 1.38798, 1.39971, 1.37886, 1.37615, 1.37217, 1.36741, 1.35424, 1.35084, 1.3493, 1.3487, 1.3421, 1.33288, 1.33316, 1.32103, 1.32297, 1.326, 1.31618, 1.31231, 1.30705, 1.30835, 1.31236, 1.30325, 1.30142, 1.30544, 1.30823, 1.27756, 1.56552, 1.47925, 1.25669, 1.28135, 1.28832, 1.27464, 1.2707, 1.26735, 
1.60887, 1.60017, 1.59536, 1.59394, 1.58664, 1.59632, 1.57143, 1.5676, 1.56636, 1.56967, 1.54006, 1.86469, 1.79036, 1.5303, 1.53449, 1.51372, 1.51467, 1.51341, 1.50673, 1.49682, 1.48474, 1.48572, 1.48724, 1.49011, 1.47521, 1.47193, 1.4612, 1.45454, 1.46025, 1.44197, 1.44058, 1.43834, 1.43519, 1.43618, 1.44051, 1.4443, 1.44183, 1.44111, 1.44194, 1.4458, 1.42753, 1.41016, 1.3919, 1.38594, 1.38417, 1.37876, 1.37509, 1.36751, 1.36426, 1.35825, 1.35546, 1.35402, 1.34747, 1.34178, 1.33743, 1.33761, 1.33646, 1.33226, 1.32351, 1.32055, 1.3133, 1.31182, 1.32218, 1.32818, 1.31323, 1.32258, 1.31034, 1.35633, 1.66052, 1.61792, 1.30828, 1.29626, 1.29522, 1.29281, 1.29818, 1.2974, 
1.58635, 1.58343, 1.57634, 1.57922, 1.56779, 1.56122, 1.55955, 1.56824, 1.55422, 1.56089, 1.54043, 1.64076, 1.80372, 1.51668, 1.51453, 1.50656, 1.50705, 1.50169, 1.51212, 1.49028, 1.47963, 1.47591, 1.47328, 1.4654, 1.45947, 1.45508, 1.44928, 1.44345, 1.44111, 1.44311, 1.43425, 1.42942, 1.43039, 1.4364, 1.43973, 1.43695, 1.4307, 1.43092, 1.41107, 1.42987, 1.40571, 1.40935, 1.37764, 1.36963, 1.36715, 1.36468, 1.36112, 1.35883, 1.35683, 1.35008, 1.34627, 1.34227, 1.33465, 1.33123, 1.32708, 1.326, 1.32263, 1.31555, 1.30996, 1.30713, 1.30247, 1.31162, 1.29761, 1.29575, 1.28499, 1.28123, 1.28145, 1.2676, 1.47618, 1.723, 1.39602, 1.35503, 1.27823, 1.26025, 1.27529, 1.25783, 
1.58968, 1.58164, 1.57257, 1.57435, 1.56293, 1.55545, 1.54926, 1.54696, 1.54003, 1.54172, 1.55056, 1.70625, 1.72019, 1.50174, 1.50874, 1.51605, 1.51781, 1.49991, 1.49011, 1.48175, 1.47149, 1.46811, 1.46494, 1.46259, 1.45128, 1.44613, 1.44076, 1.438, 1.43363, 1.42941, 1.42308, 1.41996, 1.43407, 1.42084, 1.42417, 1.43993, 1.44339, 1.42343, 1.41128, 1.41257, 1.39493, 1.3887, 1.37197, 1.36487, 1.35845, 1.36102, 1.35108, 1.35203, 1.34779, 1.3441, 1.33708, 1.33421, 1.32822, 1.33121, 1.32324, 1.31552, 1.31349, 1.31028, 1.30917, 1.3037, 1.30907, 1.29942, 1.31552, 1.31037, 1.30312, 1.30028, 1.28473, 1.24968, 1.76631, 1.79936, 1.49881, 1.27408, 1.26162, 1.25697, 1.26677, 1.24756, 
