1.62431, 1.61798, 1.62039, 1.60691, 1.6054, 1.60307, 1.60107, 1.60106, 1.59837, 1.59275, 1.59204, 1.58861, 1.59605, 1.59168, 1.59124, 1.60249, 1.60133, 1.59373, 1.59427, 1.59277, 1.57153, 1.57912, 1.58143, 1.59966, 1.60486, 1.60899, 1.60773, 1.62243, 1.61972, 1.65761, 1.65525, 1.68812, 1.68641, 1.69289, 1.67459, 1.66237, 1.59495, 1.55871, 1.52904, 1.53217, 1.5651, 1.56088, 1.55141, 1.54774, 1.54181, 1.53903, 1.54487, 1.53883, 1.55083, 1.56412, 1.56238, 1.54814, 1.53698, 1.52824, 1.52707, 1.52275, 1.52903, 1.52421, 1.5302, 1.51115, 1.50968, 1.52371, 1.50738, 1.50767, 1.51337, 1.50488, 1.50212, 1.50118, 1.50101, 1.49954, 1.49912, 1.4988, 1.49655, 1.49508, 1.49207, 1.49217, 1.49032, 1.49654, 1.48425, 1.48245, 1.48152, 1.48109, 1.47786, 1.47724, 1.47513, 1.47259, 1.47276, 1.471, 1.46778, 1.4663, 1.46403, 1.46353, 1.45893, 1.4585, 1.45786, 1.45733, 1.46873, 1.45637, 1.45199, 1.45256, 1.45142, 1.45203, 1.46747, 1.45736, 1.46225, 1.45433, 1.45352, 1.42004, 1.44292, 1.48595, 1.51018, 1.53722, 1.58841, 1.68613, 1.74407, 1.80056, 1.79181, 1.77926, 1.6583, 1.60025, 1.48252, 1.41946, 1.40235, 1.41328, 1.43347, 1.42367, 1.42669, 1.43895, 1.41559, 1.41465, 1.41625, 1.42665, 1.41354, 1.41578, 1.40756, 1.41906, 1.40316, 1.40284, 1.40123, 1.40016, 1.39759, 1.39581, 1.39416, 1.39389, 1.39275, 1.39424, 1.39125, 1.38691, 1.39424, 1.3842, 1.38128, 1.38117, 1.37997, 1.37534, 1.37457, 1.37605, 1.37518, 1.37124, 1.37151, 1.37118, 1.36829, 1.36473, 1.36438, 1.36379, 1.36313, 1.36073, 1.36001, 1.36003, 1.35798, 1.35876, 1.35516, 1.35765, 1.35903, 1.3574, 1.35357, 1.35225, 1.35365, 1.36038, 1.36713, 1.34, 1.34145, 1.34381, 1.34549, 1.34181, 1.33824, 1.33504, 1.33733, 1.33228, 1.33599, 1.32936, 1.33344, 1.33056, 1.32788, 1.34337, 1.32698, 1.32297, 1.323, 1.32087, 1.3213, 1.31949, 1.32029, 1.31854, 1.3167, 1.31679, 1.3156, 1.3144, 1.31937, 1.33005, 1.32232, 1.32362, 1.32695, 1.33744, 1.33754, 1.34335, 1.3506, 1.35861, 1.33623, 1.33951, 1.38444, 1.34216, 1.36822, 1.34651, 1.34693, 1.3466, 1.34975, 1.3654, 1.37874, 1.33646, 1.3306, 1.3102, 1.33408, 1.32007, 1.3196, 1.32179, 1.29868, 1.2984, 1.29081, 1.28595, 1.28159, 1.28331, 1.28421, 1.28189, 1.28835, 1.27879, 1.28254, 1.27698, 1.28762, 1.27815, 1.29668, 1.3013, 1.27712, 1.27925, 1.29457, 1.2997, 1.30497, 1.30531, 
1.63055, 1.61611, 1.62047, 1.62299, 1.61287, 1.61589, 1.61305, 1.61046, 1.61334, 1.61083, 1.60569, 1.60278, 1.60081, 1.60695, 1.60603, 1.60361, 1.61795, 1.60814, 1.60026, 1.57961, 1.5823, 1.6556, 1.62386, 1.62543, 1.60786, 1.63384, 1.66552, 1.71381, 1.66376, 1.66912, 1.68893, 1.73093, 1.70236, 1.69715, 1.67623, 1.67548, 1.60755, 1.56982, 1.54428, 1.56188, 1.5682, 1.56914, 1.56842, 1.55373, 1.56881, 1.54604, 1.54041, 1.55137, 1.54045, 1.54636, 1.55181, 1.53888, 1.54836, 1.54918, 1.54395, 1.54336, 1.5351, 1.53439, 1.52678, 1.52015, 1.51754, 1.52727, 1.5193, 1.51598, 1.51432, 1.51138, 1.51047, 1.50887, 1.50872, 1.50659, 1.50418, 1.50333, 1.4982, 1.49779, 1.49621, 1.49491, 1.49368, 1.49291, 1.49213, 1.49157, 1.4913, 1.48887, 1.50408, 1.51011, 1.48545, 1.48311, 1.48271, 1.47898, 1.47962, 1.4769, 1.4747, 1.47265, 1.48497, 1.46598, 1.46911, 1.46564, 1.46438, 1.46026, 1.45957, 1.45928, 1.45748, 1.45633, 1.45634, 1.46748, 1.45761, 1.45976, 1.46563, 1.44363, 1.44788, 1.47551, 1.51695, 1.53175, 1.60306, 1.6447, 1.69657, 1.75896, 1.75168, 1.74622, 1.70706, 1.62064, 1.5353, 1.44697, 1.39922, 1.41621, 1.42744, 1.42969, 1.43081, 1.43476, 1.43442, 1.41863, 1.42591, 1.43002, 1.41432, 1.41037, 1.42302, 1.41712, 1.40601, 1.40281, 1.40252, 1.40066, 1.39922, 1.39713, 1.3936, 1.39207, 1.39296, 1.3939, 1.39081, 1.39215, 1.39104, 1.39073, 1.39347, 1.38927, 1.38815, 1.38711, 1.38676, 1.38454, 1.38074, 1.37875, 1.37811, 1.37828, 1.37698, 1.37547, 1.37767, 1.37445, 1.37105, 1.37004, 1.36892, 1.37323, 1.36435, 1.3636, 1.36327, 1.3613, 1.36278, 1.35898, 1.35844, 1.35703, 1.35379, 1.35421, 1.3556, 1.35075, 1.35136, 1.35125, 1.3492, 1.34818, 1.34558, 1.34474, 1.34369, 1.34392, 1.34301, 1.34401, 1.34221, 1.34321, 1.34132, 1.35171, 1.34292, 1.34059, 1.33847, 1.34401, 1.33824, 1.33936, 1.33457, 1.33006, 1.33222, 1.33158, 1.3345, 1.33103, 1.33367, 1.33295, 1.33641, 1.33505, 1.34497, 1.33453, 1.33202, 1.33859, 1.34313, 1.34862, 1.37388, 1.34718, 1.34676, 1.34858, 1.36814, 1.37319, 1.36229, 1.36683, 1.37457, 1.35551, 1.34803, 1.34385, 1.32781, 1.30936, 1.30628, 1.32062, 1.32061, 1.31062, 1.30661, 1.29994, 1.29954, 1.29921, 1.28639, 1.28571, 1.28816, 1.28191, 1.28424, 1.28087, 1.28567, 1.28105, 1.27968, 1.28071, 1.28103, 1.28185, 1.28462, 1.28163, 1.28793, 1.29084, 1.28571, 1.29559, 
1.67578, 1.67767, 1.67891, 1.63857, 1.62931, 1.62709, 1.6314, 1.62177, 1.62017, 1.61723, 1.61805, 1.62254, 1.60844, 1.6071, 1.62601, 1.61974, 1.61163, 1.62012, 1.61372, 1.58482, 1.57953, 1.61053, 1.62719, 1.64739, 1.65086, 1.64671, 1.65249, 1.6624, 1.67454, 1.67379, 1.70002, 1.70279, 1.64799, 1.67223, 1.61893, 1.60723, 1.57449, 1.55537, 1.54761, 1.56764, 1.56455, 1.56544, 1.57553, 1.57301, 1.56773, 1.55623, 1.55177, 1.55002, 1.54649, 1.54694, 1.5479, 1.57217, 1.55329, 1.55463, 1.56091, 1.55595, 1.55682, 1.55199, 1.54168, 1.54486, 1.54058, 1.52733, 1.53033, 1.53453, 1.52084, 1.52065, 1.51981, 1.5171, 1.51492, 1.53696, 1.51174, 1.54031, 1.50975, 1.50761, 1.50872, 1.50628, 1.50502, 1.50997, 1.50128, 1.50285, 1.49863, 1.49633, 1.4941, 1.49499, 1.49187, 1.49188, 1.49183, 1.48884, 1.48591, 1.48371, 1.49184, 1.48382, 1.48288, 1.48214, 1.48134, 1.48413, 1.49154, 1.49638, 1.47478, 1.47457, 1.47198, 1.47172, 1.47145, 1.47523, 1.47692, 1.49451, 1.46247, 1.44433, 1.46234, 1.47765, 1.50479, 1.52796, 1.57943, 1.60067, 1.67599, 1.73851, 1.73825, 1.7559, 1.70109, 1.62714, 1.5996, 1.5352, 1.44868, 1.42862, 1.45009, 1.44878, 1.44695, 1.44258, 1.4408, 1.43898, 1.43633, 1.43196, 1.43071, 1.42266, 1.43439, 1.42857, 1.42275, 1.43191, 1.41564, 1.41749, 1.4141, 1.4134, 1.41452, 1.41954, 1.41159, 1.41219, 1.40664, 1.40688, 1.40517, 1.40399, 1.4015, 1.39922, 1.39797, 1.39608, 1.39562, 1.39287, 1.39224, 1.39089, 1.39143, 1.39128, 1.38916, 1.38787, 1.38722, 1.38559, 1.3841, 1.38388, 1.38439, 1.40642, 1.37931, 1.38091, 1.37833, 1.37745, 1.374, 1.36931, 1.37106, 1.36611, 1.36723, 1.36349, 1.36201, 1.3591, 1.35672, 1.35579, 1.36201, 1.35216, 1.35113, 1.34843, 1.34891, 1.35175, 1.35208, 1.35266, 1.35619, 1.35346, 1.35437, 1.35435, 1.35446, 1.35426, 1.35249, 1.35139, 1.34914, 1.34804, 1.34785, 1.34556, 1.34555, 1.34497, 1.34327, 1.34289, 1.34166, 1.34275, 1.34366, 1.35371, 1.34709, 1.35995, 1.34405, 1.35776, 1.37512, 1.35708, 1.35489, 1.35876, 1.3659, 1.3676, 1.42522, 1.4339, 1.3796, 1.41776, 1.38317, 1.39265, 1.37063, 1.375, 1.33611, 1.31016, 1.31966, 1.32206, 1.33651, 1.32251, 1.31706, 1.32636, 1.30975, 1.31224, 1.32615, 1.3054, 1.29979, 1.30113, 1.29923, 1.31245, 1.29914, 1.30238, 1.30038, 1.299, 1.298, 1.29927, 1.295, 1.29255, 1.29277, 1.29887, 1.30295, 1.31146, 
1.63996, 1.64395, 1.62991, 1.64023, 1.64674, 1.63666, 1.63779, 1.63001, 1.62704, 1.64345, 1.63036, 1.61975, 1.62799, 1.62315, 1.62425, 1.61306, 1.62476, 1.6243, 1.60611, 1.60419, 1.58662, 1.59567, 1.64318, 1.66621, 1.63903, 1.63601, 1.65475, 1.65836, 1.70733, 1.71448, 1.74542, 1.74825, 1.79125, 1.74229, 1.69776, 1.70426, 1.66449, 1.58691, 1.55849, 1.58643, 1.57791, 1.58008, 1.58572, 1.56884, 1.5743, 1.56387, 1.5617, 1.55739, 1.55462, 1.55338, 1.55076, 1.54889, 1.54919, 1.54564, 1.54212, 1.54494, 1.56267, 1.55933, 1.56118, 1.55376, 1.53821, 1.54757, 1.53778, 1.54273, 1.55237, 1.5472, 1.53276, 1.53716, 1.52722, 1.52608, 1.52314, 1.52082, 1.51927, 1.51774, 1.51774, 1.5156, 1.51455, 1.51268, 1.51031, 1.50564, 1.5048, 1.50221, 1.49984, 1.49907, 1.49821, 1.49613, 1.49518, 1.49433, 1.49394, 1.49076, 1.48993, 1.48949, 1.48689, 1.48855, 1.48607, 1.48549, 1.49141, 1.48375, 1.48445, 1.49487, 1.48902, 1.4868, 1.47635, 1.47548, 1.48315, 1.48798, 1.47574, 1.45453, 1.43646, 1.4737, 1.51388, 1.54363, 1.59304, 1.63463, 1.68533, 1.72357, 1.72084, 1.72371, 1.70686, 1.67313, 1.61742, 1.52575, 1.4483, 1.43583, 1.43671, 1.45031, 1.4506, 1.44793, 1.46391, 1.45706, 1.4549, 1.43474, 1.45173, 1.44461, 1.42808, 1.42559, 1.42564, 1.42322, 1.44688, 1.42006, 1.42213, 1.42098, 1.42032, 1.41819, 1.41684, 1.41699, 1.41596, 1.41358, 1.41152, 1.41115, 1.41129, 1.41219, 1.40889, 1.40717, 1.40618, 1.40398, 1.40248, 1.39955, 1.39777, 1.39713, 1.39596, 1.3959, 1.39427, 1.39635, 1.3952, 1.39352, 1.39425, 1.39231, 1.39264, 1.39362, 1.39166, 1.39106, 1.38924, 1.38849, 1.38261, 1.38227, 1.37919, 1.37645, 1.37385, 1.3709, 1.3687, 1.3667, 1.36603, 1.36477, 1.3628, 1.36365, 1.3631, 1.36016, 1.3603, 1.36012, 1.35747, 1.35684, 1.3552, 1.35486, 1.35318, 1.35301, 1.35306, 1.36379, 1.35055, 1.35773, 1.35122, 1.34894, 1.34817, 1.34675, 1.34493, 1.34407, 1.35311, 1.34405, 1.34504, 1.3581, 1.35106, 1.34507, 1.35873, 1.35407, 1.34846, 1.35448, 1.37434, 1.37435, 1.37538, 1.39518, 1.38507, 1.38934, 1.39315, 1.39161, 1.46203, 1.39741, 1.39446, 1.43077, 1.3782, 1.34676, 1.3253, 1.31183, 1.33654, 1.32634, 1.32851, 1.33247, 1.32096, 1.31671, 1.3153, 1.31333, 1.31349, 1.31196, 1.30715, 1.30708, 1.30578, 1.30032, 1.30184, 1.30055, 1.30132, 1.30242, 1.29952, 1.3002, 1.30016, 1.30222, 1.29833, 1.30221, 
1.6539, 1.64923, 1.65042, 1.64849, 1.6546, 1.64879, 1.63835, 1.6519, 1.66526, 1.6373, 1.64965, 1.62792, 1.63713, 1.62381, 1.62774, 1.62073, 1.61505, 1.63084, 1.62625, 1.6067, 1.59301, 1.59804, 1.62109, 1.65061, 1.66832, 1.67623, 1.69426, 1.70517, 1.74865, 1.74789, 1.74784, 1.75457, 1.75754, 1.76003, 1.73159, 1.68365, 1.66189, 1.62713, 1.55911, 1.55102, 1.58917, 1.599, 1.57993, 1.57632, 1.5787, 1.58428, 1.56802, 1.56431, 1.56061, 1.5595, 1.5599, 1.56605, 1.5613, 1.55766, 1.54947, 1.54577, 1.54976, 1.55183, 1.54713, 1.54857, 1.55718, 1.55182, 1.54934, 1.53971, 1.55024, 1.53515, 1.53348, 1.53325, 1.5386, 1.53082, 1.52868, 1.52657, 1.52675, 1.52636, 1.52405, 1.52323, 1.51965, 1.51812, 1.51621, 1.51491, 1.51283, 1.51144, 1.50974, 1.50871, 1.50712, 1.50567, 1.5038, 1.50298, 1.50104, 1.49949, 1.49814, 1.49699, 1.50647, 1.49298, 1.49934, 1.49031, 1.48871, 1.48635, 1.4922, 1.48915, 1.48238, 1.47957, 1.47907, 1.47676, 1.49107, 1.47788, 1.48501, 1.46769, 1.45279, 1.47859, 1.50002, 1.5335, 1.56611, 1.60576, 1.6428, 1.67897, 1.69182, 1.70579, 1.67814, 1.63583, 1.34983, 1.53371, 1.46578, 1.4416, 1.4085, 1.42817, 1.45116, 1.4457, 1.46425, 1.45082, 1.43704, 1.4338, 1.43129, 1.43675, 1.42845, 1.4269, 1.44377, 1.42483, 1.42214, 1.41895, 1.41803, 1.41921, 1.41823, 1.4164, 1.41419, 1.4153, 1.41432, 1.41497, 1.41376, 1.41438, 1.41244, 1.4113, 1.40975, 1.40836, 1.40699, 1.40677, 1.40252, 1.40015, 1.40138, 1.39934, 1.39708, 1.39572, 1.39478, 1.39322, 1.39905, 1.39032, 1.38953, 1.39368, 1.39041, 1.38975, 1.38934, 1.38926, 1.38821, 1.38939, 1.38525, 1.38567, 1.38576, 1.39203, 1.38517, 1.38242, 1.38143, 1.3785, 1.37917, 1.37335, 1.37108, 1.36893, 1.36856, 1.36782, 1.36716, 1.36592, 1.36647, 1.36691, 1.36811, 1.36737, 1.36562, 1.36665, 1.36544, 1.36493, 1.36566, 1.36048, 1.36027, 1.35892, 1.35678, 1.35446, 1.35467, 1.37068, 1.34903, 1.35791, 1.35711, 1.36115, 1.36406, 1.34799, 1.35914, 1.33167, 1.34854, 1.36363, 1.47167, 1.38538, 1.38504, 1.40788, 1.39467, 1.40015, 1.40888, 1.41862, 1.42363, 1.48939, 1.41699, 1.43443, 1.37733, 1.35624, 1.33, 1.33927, 1.32674, 1.3283, 1.33979, 1.3324, 1.33635, 1.3197, 1.31897, 1.31323, 1.31285, 1.31338, 1.31749, 1.32692, 1.3101, 1.31207, 1.33118, 1.30667, 1.3045, 1.30513, 1.30326, 1.30472, 1.303, 1.30246, 1.30139, 1.29878, 
1.64877, 1.64848, 1.65455, 1.65423, 1.64112, 1.63956, 1.64765, 1.63421, 1.64455, 1.66204, 1.65065, 1.6524, 1.64442, 1.64719, 1.64558, 1.64036, 1.63062, 1.63199, 1.63331, 1.63032, 1.6225, 1.61337, 1.69594, 1.67592, 1.72722, 1.70702, 1.70549, 1.73822, 1.73195, 1.75956, 1.81196, 1.78604, 1.77959, 1.76827, 1.74537, 1.74442, 1.69934, 1.65, 1.57525, 1.57387, 1.58915, 1.59532, 1.60591, 1.59433, 1.58403, 1.59627, 1.58884, 1.57938, 1.57595, 1.57637, 1.57813, 1.56943, 1.57407, 1.5852, 1.56497, 1.56307, 1.56185, 1.55803, 1.55556, 1.55473, 1.55439, 1.5511, 1.55593, 1.57413, 1.57449, 1.57532, 1.5517, 1.54315, 1.53823, 1.54495, 1.53664, 1.53201, 1.53478, 1.53331, 1.54451, 1.53782, 1.52463, 1.52283, 1.52103, 1.51979, 1.51831, 1.51685, 1.51588, 1.51381, 1.51315, 1.5124, 1.50986, 1.50813, 1.50581, 1.50565, 1.50405, 1.50012, 1.5004, 1.49761, 1.4975, 1.49714, 1.49437, 1.49506, 1.49232, 1.49225, 1.49076, 1.48994, 1.48774, 1.48693, 1.48821, 1.48673, 1.49281, 1.4829, 1.47064, 1.45696, 1.48537, 1.51666, 1.57865, 1.60666, 1.63259, 1.67922, 1.6721, 1.68563, 1.67486, 1.66157, 1.64566, 1.60591, 1.53916, 1.47897, 1.42775, 1.43005, 1.46134, 1.46647, 1.45718, 1.47118, 1.45043, 1.4516, 1.44254, 1.44087, 1.43841, 1.44452, 1.4338, 1.43494, 1.43372, 1.43138, 1.42977, 1.42878, 1.42704, 1.42749, 1.42488, 1.42392, 1.42423, 1.42283, 1.42143, 1.41953, 1.42003, 1.41955, 1.43034, 1.41901, 1.42222, 1.41919, 1.41536, 1.41354, 1.41211, 1.40853, 1.40771, 1.40631, 1.41262, 1.40557, 1.40348, 1.40169, 1.402, 1.40497, 1.3995, 1.39825, 1.39635, 1.39801, 1.3954, 1.39496, 1.39333, 1.39267, 1.39121, 1.39217, 1.38835, 1.38783, 1.38612, 1.3889, 1.3828, 1.37991, 1.37891, 1.37833, 1.37599, 1.3756, 1.37957, 1.37802, 1.3737, 1.37904, 1.37394, 1.37809, 1.3706, 1.37168, 1.36825, 1.36883, 1.36936, 1.36605, 1.36605, 1.36514, 1.36617, 1.37546, 1.38545, 1.36046, 1.35969, 1.35887, 1.37426, 1.36031, 1.37071, 1.36842, 1.36055, 1.36369, 1.34888, 1.35182, 1.40907, 1.38823, 1.39561, 1.41824, 1.42265, 1.42461, 1.45342, 1.44238, 1.44761, 1.4478, 1.44358, 1.44758, 1.39965, 1.35415, 1.36424, 1.32331, 1.34502, 1.34331, 1.34509, 1.35007, 1.3277, 1.33005, 1.32877, 1.32687, 1.31748, 1.31758, 1.3184, 1.32348, 1.31573, 1.31203, 1.31292, 1.31204, 1.30896, 1.30663, 1.30978, 1.30989, 1.30914, 1.30983, 1.30707, 1.30942, 
1.66058, 1.661, 1.65822, 1.65805, 1.66551, 1.66036, 1.65197, 1.64827, 1.65248, 1.65864, 1.65595, 1.66821, 1.65582, 1.65958, 1.65857, 1.65049, 1.64453, 1.64103, 1.64552, 1.6423, 1.62028, 1.62055, 1.61789, 1.62796, 1.66724, 1.66856, 1.68153, 1.7142, 1.77691, 1.76054, 1.81972, 1.86219, 1.77712, 1.78408, 1.75262, 1.72341, 1.69591, 1.66536, 1.59448, 1.58495, 1.5916, 1.6086, 1.59432, 1.59931, 1.58996, 1.58723, 1.57906, 1.57435, 1.57342, 1.57193, 1.57335, 1.5701, 1.56984, 1.56775, 1.57119, 1.56427, 1.56483, 1.56231, 1.56096, 1.56013, 1.56145, 1.56101, 1.55712, 1.55634, 1.55438, 1.5853, 1.56518, 1.56556, 1.54931, 1.54731, 1.55951, 1.54449, 1.54153, 1.54047, 1.53362, 1.53125, 1.53031, 1.53021, 1.52714, 1.52579, 1.52289, 1.52243, 1.52298, 1.52062, 1.51912, 1.51842, 1.51678, 1.51421, 1.514, 1.51284, 1.50786, 1.50876, 1.50715, 1.50587, 1.51628, 1.5029, 1.51225, 1.49989, 1.49927, 1.49875, 1.49823, 1.49319, 1.50684, 1.50467, 1.49093, 1.50027, 1.50326, 1.49225, 1.47723, 1.51322, 1.51622, 1.55881, 1.57101, 1.60701, 1.63762, 1.65403, 1.66171, 1.68585, 1.6773, 1.66783, 1.62993, 1.58859, 1.57599, 1.51479, 1.45728, 1.44625, 1.46966, 1.47153, 1.47004, 1.47555, 1.48291, 1.47445, 1.46564, 1.45415, 1.45137, 1.46759, 1.44566, 1.44494, 1.45775, 1.43944, 1.44074, 1.43724, 1.43509, 1.4347, 1.43006, 1.43, 1.4296, 1.42646, 1.42513, 1.42501, 1.42403, 1.42377, 1.42305, 1.42251, 1.42296, 1.42351, 1.41835, 1.41826, 1.41759, 1.41437, 1.41527, 1.41376, 1.41423, 1.41212, 1.42351, 1.4201, 1.40939, 1.40923, 1.4081, 1.40542, 1.40429, 1.40243, 1.4019, 1.40186, 1.39784, 1.39561, 1.39649, 1.3931, 1.39155, 1.39028, 1.38921, 1.38634, 1.38498, 1.38266, 1.37984, 1.37984, 1.37774, 1.37482, 1.37448, 1.3732, 1.37195, 1.36894, 1.37089, 1.36891, 1.36771, 1.36666, 1.36452, 1.36166, 1.36225, 1.36396, 1.3616, 1.36112, 1.36298, 1.37527, 1.36203, 1.36152, 1.37135, 1.36316, 1.36819, 1.36468, 1.3717, 1.37268, 1.35405, 1.37606, 1.41937, 1.39991, 1.41644, 1.4212, 1.42336, 1.43433, 1.44403, 1.4893, 1.47392, 1.47107, 1.4827, 1.45406, 1.45711, 1.4369, 1.45555, 1.39205, 1.35054, 1.32621, 1.32007, 1.3473, 1.33867, 1.33721, 1.33995, 1.32699, 1.32642, 1.32882, 1.32382, 1.32428, 1.32411, 1.32105, 1.32824, 1.33462, 1.31885, 1.31916, 1.31693, 1.31581, 1.31765, 1.31583, 1.32094, 1.32417, 1.32376, 1.33486, 
1.6637, 1.66162, 1.65963, 1.65773, 1.65588, 1.66117, 1.65259, 1.65403, 1.65035, 1.66676, 1.6549, 1.64926, 1.65495, 1.66481, 1.68578, 1.6629, 1.65548, 1.62774, 1.64582, 1.63822, 1.64831, 1.60989, 1.64353, 1.65216, 1.67937, 1.69717, 1.71326, 1.74429, 1.7525, 1.76888, 1.85518, 1.80662, 1.80417, 1.80318, 1.77302, 1.70651, 1.68395, 1.62752, 1.61804, 1.58129, 1.60115, 1.60636, 1.6124, 1.60699, 1.59905, 1.59065, 1.58735, 1.5854, 1.58504, 1.60082, 1.58017, 1.57905, 1.57684, 1.57602, 1.57451, 1.57289, 1.57202, 1.57017, 1.5705, 1.56972, 1.5768, 1.56466, 1.563, 1.56155, 1.56474, 1.55938, 1.56864, 1.57502, 1.56837, 1.57494, 1.56122, 1.54548, 1.54153, 1.53992, 1.53963, 1.53843, 1.53791, 1.5366, 1.53562, 1.53443, 1.53359, 1.53179, 1.53085, 1.52916, 1.52825, 1.52688, 1.52431, 1.52281, 1.52431, 1.53671, 1.52284, 1.52616, 1.51364, 1.51257, 1.5111, 1.51016, 1.5074, 1.50699, 1.50593, 1.50645, 1.50315, 1.50364, 1.5026, 1.50105, 1.50247, 1.50302, 1.50368, 1.50548, 1.47436, 1.47143, 1.49117, 1.53338, 1.56979, 1.58359, 1.62002, 1.69264, 1.68914, 1.67935, 1.67688, 1.6729, 1.63515, 1.62729, 1.54405, 1.52236, 1.49507, 1.45142, 1.46792, 1.48259, 1.46814, 1.4623, 1.46273, 1.46789, 1.46871, 1.46483, 1.46938, 1.45992, 1.4522, 1.47277, 1.45138, 1.4509, 1.44943, 1.44775, 1.44736, 1.44407, 1.44185, 1.4411, 1.44237, 1.43955, 1.43791, 1.43669, 1.43616, 1.43531, 1.43491, 1.43297, 1.43106, 1.42985, 1.42706, 1.42611, 1.42538, 1.422, 1.42113, 1.421, 1.41942, 1.41871, 1.41699, 1.41573, 1.41506, 1.30877, 1.4125, 1.41216, 1.41163, 1.40976, 1.40749, 1.40666, 1.40655, 1.40377, 1.40529, 1.4, 1.39841, 1.39781, 1.4026, 1.39237, 1.39287, 1.38898, 1.38779, 1.38953, 1.38893, 1.38512, 1.39205, 1.38171, 1.38144, 1.37923, 1.38093, 1.37847, 1.37961, 1.37789, 1.37665, 1.37553, 1.37407, 1.37438, 1.37451, 1.37273, 1.37314, 1.37295, 1.37391, 1.37449, 1.37422, 1.38047, 1.37581, 1.3848, 1.38579, 1.37704, 1.4032, 1.36201, 1.35814, 1.41671, 1.40964, 1.44627, 1.49616, 1.45668, 1.45451, 1.44811, 1.46286, 1.47794, 1.47499, 1.47001, 1.45898, 1.44884, 1.43311, 1.42236, 1.39157, 1.36529, 1.34302, 1.34339, 1.35118, 1.35106, 1.34858, 1.3365, 1.34786, 1.33069, 1.33103, 1.33172, 1.3307, 1.33105, 1.32922, 1.32929, 1.33029, 1.33396, 1.32702, 1.32401, 1.3296, 1.32594, 1.32488, 1.32344, 1.32106, 1.32098, 
1.66553, 1.66411, 1.66283, 1.65998, 1.65669, 1.65531, 1.65306, 1.64876, 1.64706, 1.64536, 1.64373, 1.6414, 1.65729, 1.63798, 1.65132, 1.65156, 1.65867, 1.66148, 1.65786, 1.65044, 1.63752, 1.62051, 1.61191, 1.63057, 1.64703, 1.69932, 1.70362, 1.74517, 1.80996, 1.7797, 1.81733, 1.8171, 1.81617, 1.82555, 1.78365, 1.76297, 1.68868, 1.67223, 1.65421, 1.59646, 1.60876, 1.60618, 1.60555, 1.59057, 1.58658, 1.58394, 1.58063, 1.58786, 1.57628, 1.5762, 1.58265, 1.5893, 1.5862, 1.5731, 1.56891, 1.56739, 1.5656, 1.56275, 1.56053, 1.55966, 1.55719, 1.55838, 1.57111, 1.55477, 1.55433, 1.55052, 1.54885, 1.55296, 1.54498, 1.55208, 1.55596, 1.5679, 1.54834, 1.54529, 1.53512, 1.52952, 1.53008, 1.53626, 1.53763, 1.5423, 1.53105, 1.53007, 1.5372, 1.54106, 1.52678, 1.5205, 1.51865, 1.51675, 1.51466, 1.51233, 1.51694, 1.50521, 1.50157, 1.498, 1.4964, 1.49439, 1.49172, 1.49398, 1.49885, 1.50531, 1.49241, 1.49887, 1.49123, 1.50193, 1.48958, 1.4911, 1.49581, 1.49979, 1.47932, 1.48563, 1.48521, 1.50425, 1.52727, 1.58332, 1.61283, 1.65723, 1.66652, 1.6718, 1.62025, 1.60743, 1.61968, 1.62311, 1.58035, 1.52829, 1.50193, 1.43407, 1.4234, 1.46808, 1.4788, 1.4694, 1.46667, 1.45623, 1.45344, 1.45717, 1.45194, 1.44036, 1.44046, 1.447, 1.44545, 1.43983, 1.43677, 1.43505, 1.43464, 1.43374, 1.43285, 1.43167, 1.43705, 1.43109, 1.4306, 1.42969, 1.42891, 1.42656, 1.42542, 1.42316, 1.41978, 1.41916, 1.41903, 1.41894, 1.41934, 1.42117, 1.42103, 1.41932, 1.41827, 1.41823, 1.41954, 1.41328, 1.41501, 1.41285, 1.41263, 1.40896, 1.40883, 1.40764, 1.40425, 1.40538, 1.40589, 1.40584, 1.40341, 1.40336, 1.40265, 1.40589, 1.40325, 1.40273, 1.39969, 1.39648, 1.39482, 1.39398, 1.39523, 1.39049, 1.38722, 1.38652, 1.3882, 1.38124, 1.37945, 1.37998, 1.37945, 1.38478, 1.3775, 1.37827, 1.37751, 1.37448, 1.37332, 1.38201, 1.38184, 1.37332, 1.37065, 1.37003, 1.36764, 1.36556, 1.38625, 1.36698, 1.37537, 1.37087, 1.38546, 1.34351, 1.35298, 1.37028, 1.38413, 1.39444, 1.41187, 1.42408, 1.46087, 1.46397, 1.47551, 1.48407, 1.48763, 1.49851, 1.49103, 1.46989, 1.4558, 1.4536, 1.43437, 1.43669, 1.3404, 1.36461, 1.34065, 1.34409, 1.34093, 1.34372, 1.35043, 1.33773, 1.33504, 1.34358, 1.33751, 1.34737, 1.33242, 1.32833, 1.32904, 1.3273, 1.32752, 1.32341, 1.32271, 1.32059, 1.35707, 1.32037, 1.32616, 1.3178, 
1.67233, 1.66949, 1.66249, 1.66125, 1.66137, 1.65844, 1.6567, 1.68143, 1.65852, 1.66816, 1.66223, 1.65899, 1.66809, 1.67416, 1.65533, 1.65844, 1.65017, 1.65021, 1.65917, 1.65365, 1.65299, 1.63662, 1.61066, 1.62403, 1.6596, 1.67559, 1.69407, 1.69604, 1.71471, 1.76597, 1.79021, 1.83129, 1.83613, 1.83851, 1.82908, 1.80976, 1.74969, 1.71039, 1.62264, 1.603, 1.60439, 1.61043, 1.61327, 1.60019, 1.59436, 1.59288, 1.60331, 1.5935, 1.59984, 1.60405, 1.59656, 1.57719, 1.58155, 1.58334, 1.59008, 1.57168, 1.57242, 1.57427, 1.57254, 1.57101, 1.57105, 1.57192, 1.56286, 1.56408, 1.56107, 1.56285, 1.56527, 1.55746, 1.55773, 1.55508, 1.55847, 1.55592, 1.5686, 1.56656, 1.56914, 1.57464, 1.55732, 1.55588, 1.55576, 1.55803, 1.53809, 1.53147, 1.53977, 1.52818, 1.52943, 1.54423, 1.56477, 1.53135, 1.52633, 1.52382, 1.53316, 1.51932, 1.52915, 1.51594, 1.52633, 1.51431, 1.5242, 1.53167, 1.52902, 1.5226, 1.52149, 1.50731, 1.53399, 1.51522, 1.5073, 1.51679, 1.51686, 1.52439, 1.49964, 1.48856, 1.49929, 1.51589, 1.56857, 1.57793, 1.6175, 1.63858, 1.66171, 1.6617, 1.66279, 1.65292, 1.63823, 1.6282, 1.6006, 1.48926, 1.48476, 1.45778, 1.45212, 1.45117, 1.47842, 1.47114, 1.489, 1.47814, 1.49022, 1.4658, 1.46987, 1.47431, 1.46271, 1.47239, 1.45554, 1.46524, 1.46221, 1.46726, 1.47883, 1.45487, 1.45495, 1.45134, 1.45121, 1.44869, 1.44565, 1.44394, 1.43831, 1.4341, 1.4371, 1.43653, 1.4274, 1.438, 1.46191, 1.43304, 1.43533, 1.43677, 1.43472, 1.43152, 1.42844, 1.42743, 1.44435, 1.42158, 1.42042, 1.42247, 1.41695, 1.41713, 1.41781, 1.41724, 1.417, 1.4142, 1.41313, 1.41153, 1.40935, 1.40852, 1.40831, 1.40654, 1.40574, 1.4051, 1.4086, 1.40049, 1.39893, 1.39793, 1.3975, 1.39822, 1.39639, 1.3942, 1.40029, 1.39276, 1.3913, 1.38979, 1.39584, 1.39525, 1.38577, 1.40521, 1.38294, 1.38045, 1.37944, 1.38458, 1.3998, 1.39503, 1.38232, 1.37799, 1.38328, 1.376, 1.39201, 1.3856, 1.3786, 1.38627, 1.3845, 1.36597, 1.35775, 1.3582, 1.43495, 1.46534, 1.45786, 1.46753, 1.52044, 1.52125, 1.51086, 1.4824, 1.49242, 1.50911, 1.49867, 1.5163, 1.48891, 1.48429, 1.44945, 1.38622, 1.35069, 1.3485, 1.36541, 1.35438, 1.3545, 1.34794, 1.34997, 1.35742, 1.34428, 1.34178, 1.34264, 1.34782, 1.35778, 1.35057, 1.33616, 1.33393, 1.33282, 1.33101, 1.33121, 1.33438, 1.32709, 1.32657, 1.32593, 1.32638, 
1.68464, 1.69016, 1.67033, 1.6682, 1.6684, 1.67113, 1.66191, 1.69115, 1.65858, 1.65842, 1.65646, 1.65575, 1.66237, 1.65703, 1.65316, 1.64549, 1.65041, 1.64176, 1.64785, 1.63983, 1.63646, 1.62798, 1.66177, 1.6045, 1.64201, 1.65428, 1.71753, 1.71872, 1.77389, 1.78397, 1.84243, 1.84128, 1.86103, 1.86108, 1.86186, 1.83387, 1.78524, 1.68645, 1.62703, 1.60576, 1.60312, 1.61424, 1.61153, 1.6187, 1.61669, 1.60334, 1.61295, 1.60683, 1.60672, 1.60386, 1.58999, 1.58503, 1.59498, 1.58611, 1.57982, 1.60266, 1.58167, 1.57621, 1.58207, 1.57571, 1.57498, 1.57219, 1.57092, 1.56985, 1.56762, 1.56548, 1.56401, 1.56388, 1.56219, 1.55974, 1.57828, 1.57147, 1.57108, 1.55535, 1.56247, 1.55656, 1.56698, 1.56509, 1.55938, 1.55034, 1.56063, 1.54674, 1.55144, 1.54745, 1.54284, 1.52968, 1.5282, 1.53048, 1.5271, 1.54932, 1.52536, 1.52358, 1.53469, 1.52962, 1.5196, 1.51799, 1.53008, 1.52476, 1.5141, 1.51361, 1.51079, 1.51723, 1.51853, 1.52425, 1.50975, 1.51103, 1.52664, 1.51745, 1.51885, 1.50075, 1.48242, 1.51455, 1.56441, 1.60577, 1.60015, 1.61809, 1.63682, 1.6526, 1.66404, 1.67189, 1.62819, 1.61202, 1.59215, 1.58741, 1.5341, 1.48298, 1.45571, 1.44475, 1.45748, 1.4842, 1.47593, 1.47687, 1.49198, 1.48926, 1.49867, 1.49128, 1.48286, 1.46618, 1.46619, 1.4723, 1.46619, 1.46059, 1.46044, 1.45783, 1.4509, 1.44828, 1.45453, 1.46743, 1.45069, 1.45145, 1.43852, 1.43989, 1.43692, 1.43769, 1.43645, 1.43784, 1.43591, 1.45633, 1.43706, 1.44662, 1.43315, 1.43052, 1.429, 1.42603, 1.42432, 1.44932, 1.42424, 1.42647, 1.42216, 1.42132, 1.43286, 1.42654, 1.4162, 1.4161, 1.41426, 1.41526, 1.41311, 1.41029, 1.4097, 1.40964, 1.40822, 1.40572, 1.40285, 1.40976, 1.40096, 1.3991, 1.39908, 1.39843, 1.39898, 1.39529, 1.39501, 1.39406, 1.39337, 1.39245, 1.39343, 1.39281, 1.39159, 1.39009, 1.38905, 1.38713, 1.39457, 1.39448, 1.39344, 1.39318, 1.38046, 1.38112, 1.37981, 1.37989, 1.37923, 1.37936, 1.3853, 1.39237, 1.39576, 1.39478, 1.36753, 1.37418, 1.38023, 1.40224, 1.43662, 1.45656, 1.46312, 1.49487, 1.50444, 1.50989, 1.56707, 1.53852, 1.5414, 1.50977, 1.48936, 1.47287, 1.4867, 1.37769, 1.36892, 1.34254, 1.37809, 1.36831, 1.37444, 1.3547, 1.3509, 1.36141, 1.34619, 1.35736, 1.34482, 1.33844, 1.34797, 1.33671, 1.33628, 1.33522, 1.33657, 1.33689, 1.33457, 1.33352, 1.34058, 1.33316, 1.33242, 1.33725, 
1.66983, 1.66849, 1.6667, 1.66486, 1.6701, 1.65948, 1.65974, 1.66302, 1.65341, 1.66363, 1.64883, 1.64721, 1.65075, 1.64328, 1.65749, 1.64141, 1.6416, 1.63814, 1.63541, 1.63939, 1.63511, 1.64496, 1.63367, 1.60198, 1.62702, 1.64831, 1.65686, 1.68556, 1.72191, 1.76327, 1.79681, 1.82047, 1.85876, 1.86462, 1.88037, 1.83031, 1.76578, 1.71651, 1.6475, 1.58969, 1.58555, 1.60087, 1.60278, 1.61227, 1.6136, 1.60908, 1.60077, 1.58538, 1.58849, 1.58915, 1.57996, 1.5813, 1.59538, 1.57859, 1.58529, 1.57246, 1.57246, 1.56862, 1.56621, 1.57197, 1.56068, 1.5645, 1.56097, 1.57979, 1.56729, 1.55275, 1.55163, 1.55097, 1.54884, 1.5477, 1.55452, 1.54434, 1.54908, 1.5503, 1.53901, 1.53686, 1.53558, 1.54127, 1.55354, 1.54415, 1.54172, 1.54189, 1.53724, 1.53699, 1.54462, 1.53064, 1.53733, 1.52979, 1.52054, 1.51921, 1.53037, 1.51761, 1.52971, 1.51369, 1.51394, 1.50539, 1.51157, 1.50299, 1.49961, 1.52014, 1.49626, 1.5032, 1.49533, 1.49517, 1.50044, 1.50308, 1.50212, 1.49766, 1.50589, 1.47271, 1.46254, 1.47052, 1.55227, 1.56954, 1.59491, 1.59893, 1.63846, 1.62684, 1.63448, 1.61978, 1.60267, 1.58027, 1.57144, 1.55731, 1.52643, 1.46523, 1.46147, 1.43286, 1.46942, 1.46634, 1.46478, 1.4626, 1.45913, 1.45588, 1.46934, 1.46046, 1.47387, 1.46439, 1.46415, 1.44033, 1.43841, 1.43905, 1.43795, 1.45762, 1.44099, 1.43545, 1.43376, 1.43359, 1.43465, 1.43303, 1.4326, 1.43294, 1.43008, 1.42964, 1.42861, 1.42794, 1.4342, 1.42587, 1.42283, 1.42058, 1.42107, 1.42133, 1.41945, 1.41979, 1.41608, 1.41481, 1.41313, 1.41175, 1.41174, 1.41146, 1.41015, 1.41014, 1.41087, 1.409, 1.42731, 1.40521, 1.4131, 1.39891, 1.3957, 1.39438, 1.39219, 1.3921, 1.3903, 1.38905, 1.38805, 1.38662, 1.38441, 1.38267, 1.38057, 1.39012, 1.37985, 1.37776, 1.38164, 1.37784, 1.3784, 1.37754, 1.37746, 1.37596, 1.37479, 1.37421, 1.38586, 1.37126, 1.3814, 1.38244, 1.37928, 1.37863, 1.3711, 1.37326, 1.37664, 1.37204, 1.37338, 1.38531, 1.37858, 1.36888, 1.34848, 1.34397, 1.40017, 1.40094, 1.43745, 1.43648, 1.42962, 1.48008, 1.48524, 1.55224, 1.56883, 1.54036, 1.54891, 1.51672, 1.51545, 1.46899, 1.41458, 1.39582, 1.36173, 1.3229, 1.36117, 1.378, 1.35755, 1.34573, 1.35411, 1.34509, 1.34394, 1.34001, 1.3395, 1.3504, 1.32609, 1.32817, 1.32481, 1.32581, 1.32277, 1.34772, 1.32382, 1.32147, 1.35061, 1.34672, 1.32782, 1.32729, 
1.64897, 1.64762, 1.6466, 1.64434, 1.64209, 1.64123, 1.64057, 1.63754, 1.63611, 1.6331, 1.63138, 1.62851, 1.62687, 1.6384, 1.62359, 1.6227, 1.61828, 1.61667, 1.61369, 1.61294, 1.61638, 1.61988, 1.61551, 1.59, 1.59769, 1.61831, 1.7242, 1.70381, 1.72404, 1.73794, 1.7843, 1.81018, 1.90335, 1.87794, 1.87485, 1.85186, 1.83577, 1.73414, 1.64577, 1.60015, 1.5705, 1.58556, 1.58503, 1.58319, 1.58098, 1.5805, 1.57549, 1.57273, 1.57293, 1.56883, 1.56706, 1.56548, 1.56262, 1.56116, 1.55952, 1.55773, 1.55574, 1.55355, 1.55218, 1.55069, 1.55011, 1.5495, 1.54925, 1.54817, 1.54646, 1.54436, 1.54257, 1.53999, 1.53838, 1.53612, 1.5321, 1.53014, 1.52967, 1.52769, 1.52372, 1.53375, 1.51931, 1.51785, 1.51734, 1.51721, 1.53455, 1.51724, 1.52978, 1.52375, 1.52497, 1.52682, 1.51537, 1.50829, 1.5069, 1.50531, 1.50441, 1.50256, 1.50126, 1.50163, 1.49915, 1.49923, 1.49769, 1.49668, 1.49553, 1.49228, 1.49142, 1.49042, 1.48869, 1.48686, 1.50679, 1.48749, 1.49964, 1.48994, 1.48571, 1.47814, 1.45733, 1.47568, 1.48718, 1.50067, 1.54093, 1.57889, 1.59491, 1.62385, 1.62248, 1.60623, 1.59959, 1.62471, 1.61434, 1.57905, 1.53127, 1.51996, 1.47056, 1.4373, 1.43318, 1.45862, 1.4656, 1.455, 1.45177, 1.4483, 1.44584, 1.44554, 1.44542, 1.46785, 1.46075, 1.4622, 1.44696, 1.43033, 1.44082, 1.42982, 1.42777, 1.42705, 1.42515, 1.42443, 1.43606, 1.43415, 1.41386, 1.41246, 1.41251, 1.41383, 1.42733, 1.4119, 1.41008, 1.40581, 1.40476, 1.40182, 1.40019, 1.4009, 1.39841, 1.39762, 1.39676, 1.39525, 1.3943, 1.39226, 1.39191, 1.39022, 1.38936, 1.38797, 1.38787, 1.38752, 1.38483, 1.38469, 1.38203, 1.38108, 1.38057, 1.3796, 1.38048, 1.38131, 1.37705, 1.37551, 1.37439, 1.37064, 1.37184, 1.37035, 1.36937, 1.36697, 1.36468, 1.36194, 1.36158, 1.36049, 1.35949, 1.3582, 1.35828, 1.35634, 1.35556, 1.35516, 1.35398, 1.35422, 1.35129, 1.34906, 1.34676, 1.34583, 1.34618, 1.34452, 1.3469, 1.34401, 1.34418, 1.34624, 1.34592, 1.3437, 1.333, 1.31702, 1.38715, 1.38143, 1.42975, 1.49181, 1.49259, 1.49214, 1.51208, 1.53499, 1.54699, 1.53429, 1.53218, 1.52453, 1.49877, 1.47204, 1.41554, 1.35714, 1.30671, 1.2843, 1.3204, 1.32624, 1.32547, 1.32336, 1.31576, 1.31504, 1.3235, 1.31155, 1.3153, 1.31213, 1.31063, 1.30885, 1.30693, 1.30603, 1.30464, 1.30162, 1.301, 1.3027, 1.30603, 1.3035, 1.30407, 1.30203, 
1.65395, 1.65224, 1.65164, 1.65115, 1.65898, 1.64929, 1.65103, 1.6509, 1.64116, 1.63773, 1.63675, 1.6346, 1.63225, 1.6301, 1.62877, 1.64385, 1.63131, 1.62983, 1.62205, 1.62132, 1.62196, 1.62101, 1.62397, 1.59335, 1.59618, 1.58922, 1.64447, 1.6894, 1.70313, 1.76301, 1.81001, 1.83157, 1.85765, 1.88343, 1.91681, 1.88273, 1.83393, 1.72348, 1.61621, 1.57935, 1.55505, 1.5791, 1.58813, 1.58557, 1.58246, 1.58831, 1.57542, 1.5725, 1.57299, 1.5703, 1.5685, 1.56452, 1.56279, 1.56194, 1.55891, 1.55686, 1.55408, 1.55118, 1.55264, 1.54856, 1.54771, 1.54835, 1.5469, 1.54661, 1.54806, 1.54378, 1.54228, 1.54052, 1.53751, 1.53535, 1.53428, 1.53372, 1.53146, 1.52915, 1.52783, 1.52671, 1.54001, 1.5231, 1.52048, 1.5197, 1.5181, 1.51671, 1.51521, 1.52989, 1.5299, 1.52389, 1.52555, 1.52386, 1.51944, 1.50459, 1.5098, 1.50159, 1.50628, 1.50964, 1.49418, 1.49408, 1.49304, 1.49206, 1.49247, 1.48855, 1.48814, 1.48631, 1.48273, 1.50498, 1.48148, 1.48144, 1.49988, 1.48554, 1.48637, 1.47485, 1.47231, 1.4657, 1.48881, 1.49594, 1.53113, 1.52338, 1.56051, 1.57067, 1.58443, 1.59767, 1.56772, 1.58492, 1.57685, 1.56549, 1.54593, 1.53675, 1.49283, 1.43608, 1.42843, 1.44438, 1.45453, 1.45197, 1.45406, 1.442, 1.43861, 1.43993, 1.43375, 1.43369, 1.4338, 1.44235, 1.45472, 1.44718, 1.44263, 1.4381, 1.42645, 1.42485, 1.42066, 1.41991, 1.4194, 1.41707, 1.41547, 1.41584, 1.41471, 1.4134, 1.41383, 1.42693, 1.41261, 1.40837, 1.40594, 1.40608, 1.40499, 1.40208, 1.4055, 1.40075, 1.39946, 1.39847, 1.39791, 1.39783, 1.39574, 1.39448, 1.39321, 1.39236, 1.39203, 1.39186, 1.39106, 1.38782, 1.38785, 1.38478, 1.38418, 1.38446, 1.38146, 1.381, 1.37835, 1.37738, 1.37521, 1.37768, 1.3729, 1.37032, 1.3697, 1.36774, 1.36562, 1.36387, 1.36436, 1.36392, 1.36206, 1.36161, 1.3603, 1.36022, 1.3595, 1.35891, 1.35747, 1.35547, 1.35734, 1.35424, 1.35577, 1.38189, 1.36086, 1.35329, 1.35333, 1.3536, 1.35247, 1.35377, 1.35807, 1.35772, 1.35797, 1.33675, 1.33359, 1.37128, 1.39885, 1.41958, 1.48615, 1.46441, 1.49392, 1.54753, 1.53568, 1.54375, 1.53757, 1.52885, 1.50785, 1.4427, 1.41767, 1.38602, 1.34939, 1.28819, 1.32272, 1.33768, 1.33021, 1.36675, 1.32244, 1.31912, 1.31365, 1.31555, 1.31266, 1.3122, 1.31193, 1.31254, 1.31382, 1.31305, 1.31122, 1.30936, 1.30907, 1.30955, 1.30826, 1.30665, 1.30557, 1.30653, 
1.65418, 1.65082, 1.65003, 1.64742, 1.6459, 1.64358, 1.64214, 1.6414, 1.6385, 1.63504, 1.635, 1.63363, 1.63179, 1.63069, 1.63017, 1.62672, 1.62676, 1.62379, 1.62258, 1.62176, 1.62298, 1.62925, 1.62322, 1.63263, 1.60209, 1.59321, 1.62311, 1.6566, 1.67172, 1.70867, 1.73705, 1.76828, 1.81136, 1.86858, 1.92791, 1.94623, 1.89958, 1.8022, 1.70522, 1.58424, 1.56088, 1.56872, 1.58788, 1.59125, 1.58214, 1.58939, 1.57545, 1.57145, 1.57014, 1.56957, 1.56526, 1.57272, 1.5622, 1.56011, 1.55918, 1.55894, 1.55812, 1.55903, 1.55437, 1.55391, 1.5538, 1.55186, 1.55336, 1.54901, 1.54673, 1.5441, 1.54295, 1.53939, 1.53797, 1.53799, 1.5365, 1.53569, 1.55078, 1.53124, 1.52955, 1.52927, 1.52686, 1.52529, 1.52306, 1.51996, 1.51912, 1.51641, 1.51446, 1.51374, 1.5131, 1.51214, 1.51956, 1.525, 1.5224, 1.5211, 1.51584, 1.51642, 1.49957, 1.49943, 1.49823, 1.50857, 1.50267, 1.49428, 1.49253, 1.49191, 1.49062, 1.48962, 1.4877, 1.48726, 1.48643, 1.49344, 1.49946, 1.48669, 1.48532, 1.49204, 1.45821, 1.4575, 1.46182, 1.48102, 1.51939, 1.56238, 1.5749, 1.58051, 1.57134, 1.57832, 1.61679, 1.58836, 1.57413, 1.5755, 1.52604, 1.52335, 1.52592, 1.48759, 1.44007, 1.46328, 1.46171, 1.46132, 1.45198, 1.44806, 1.44089, 1.43809, 1.43683, 1.45084, 1.43531, 1.43288, 1.43284, 1.43982, 1.4539, 1.45803, 1.45792, 1.44285, 1.42443, 1.42307, 1.41954, 1.41767, 1.42356, 1.4138, 1.41342, 1.41278, 1.40987, 1.40958, 1.4086, 1.40702, 1.40653, 1.40644, 1.40657, 1.41224, 1.40246, 1.40158, 1.40136, 1.40075, 1.40068, 1.39862, 1.39717, 1.39577, 1.39462, 1.39345, 1.39191, 1.39132, 1.38879, 1.3883, 1.38658, 1.38438, 1.384, 1.38244, 1.38059, 1.37893, 1.37781, 1.37553, 1.37382, 1.3719, 1.37119, 1.36957, 1.36816, 1.36733, 1.36624, 1.36609, 1.36522, 1.36416, 1.36433, 1.36194, 1.36139, 1.36005, 1.3606, 1.36081, 1.35902, 1.35717, 1.35623, 1.35579, 1.35474, 1.35274, 1.35317, 1.35035, 1.34715, 1.34638, 1.34525, 1.3467, 1.35375, 1.35579, 1.35077, 1.35344, 1.32333, 1.37508, 1.40101, 1.40176, 1.44436, 1.45321, 1.49239, 1.54228, 1.38263, 1.38709, 1.56588, 1.5508, 1.54861, 1.50906, 1.47253, 1.36098, 1.34593, 1.30231, 1.32997, 1.34052, 1.33896, 1.33282, 1.33209, 1.32929, 1.32969, 1.32664, 1.32468, 1.32307, 1.32006, 1.32585, 1.33012, 1.32005, 1.31631, 1.31612, 1.31461, 1.31357, 1.31261, 1.31074, 1.31024, 1.30196, 
1.65414, 1.65185, 1.6499, 1.646, 1.64414, 1.6419, 1.64011, 1.63676, 1.63655, 1.63413, 1.63201, 1.63031, 1.62889, 1.629, 1.62745, 1.62517, 1.62334, 1.6236, 1.62332, 1.62209, 1.6461, 1.6269, 1.62107, 1.6178, 1.60699, 1.5919, 1.59934, 1.68283, 1.69622, 1.74903, 1.76566, 1.80597, 1.96378, 1.93936, 1.95685, 1.95248, 1.93456, 1.7679, 1.69055, 1.56852, 1.55238, 1.57181, 1.59246, 1.58233, 1.58943, 1.57707, 1.57582, 1.57339, 1.57174, 1.56866, 1.56708, 1.56424, 1.56227, 1.56244, 1.55995, 1.55771, 1.55702, 1.55448, 1.55241, 1.55018, 1.54887, 1.54859, 1.54592, 1.54466, 1.54418, 1.54219, 1.54055, 1.54017, 1.53874, 1.53531, 1.53529, 1.53423, 1.53061, 1.53017, 1.52881, 1.52616, 1.52375, 1.5209, 1.5193, 1.51616, 1.51548, 1.50725, 1.51958, 1.51118, 1.50935, 1.5095, 1.50768, 1.50665, 1.50661, 1.50723, 1.5173, 1.52784, 1.51989, 1.51319, 1.51899, 1.50031, 1.4986, 1.4979, 1.49633, 1.4944, 1.49168, 1.48929, 1.48794, 1.50511, 1.50006, 1.48378, 1.48164, 1.48789, 1.49262, 1.48897, 1.45679, 1.45941, 1.47478, 1.55063, 1.53997, 1.53769, 1.54113, 1.5484, 1.56186, 1.54937, 1.55531, 1.55869, 1.55239, 1.51832, 1.52066, 1.51994, 1.50352, 1.46426, 1.44583, 1.45729, 1.45105, 1.45471, 1.45148, 1.45475, 1.44999, 1.4386, 1.43758, 1.43415, 1.43403, 1.44289, 1.4334, 1.43437, 1.43196, 1.43068, 1.42722, 1.44121, 1.43779, 1.43873, 1.42178, 1.41777, 1.42397, 1.41476, 1.41423, 1.42061, 1.41142, 1.41025, 1.40913, 1.41158, 1.40834, 1.40781, 1.40678, 1.40568, 1.40541, 1.40565, 1.40495, 1.40471, 1.40072, 1.39984, 1.39915, 1.39815, 1.39705, 1.39512, 1.39543, 1.3937, 1.39108, 1.3915, 1.38974, 1.38902, 1.3867, 1.38564, 1.38442, 1.38176, 1.38022, 1.37977, 1.3783, 1.37704, 1.37439, 1.37218, 1.3713, 1.36553, 1.36374, 1.36261, 1.35959, 1.35941, 1.35984, 1.35728, 1.35656, 1.35535, 1.35583, 1.35576, 1.35436, 1.35342, 1.35362, 1.35321, 1.3537, 1.35447, 1.35516, 1.3535, 1.35336, 1.35314, 1.35723, 1.36403, 1.35324, 1.36005, 1.37184, 1.35439, 1.33267, 1.37538, 1.3537, 1.45997, 1.43669, 1.46839, 1.48935, 1.53589, 1.54753, 1.56258, 1.58301, 1.58199, 1.55083, 1.49818, 1.47502, 1.38805, 1.35441, 1.29242, 1.31567, 1.32969, 1.33044, 1.34012, 1.34061, 1.31867, 1.319, 1.31838, 1.31657, 1.31424, 1.32444, 1.32943, 1.31574, 1.31561, 1.31549, 1.31429, 1.313, 1.31357, 1.31167, 1.31212, 1.30802, 1.30608, 
1.65021, 1.64884, 1.64577, 1.64545, 1.64511, 1.65176, 1.63738, 1.63434, 1.63563, 1.63217, 1.63069, 1.63353, 1.62521, 1.62427, 1.62355, 1.62285, 1.6222, 1.62241, 1.63001, 1.62005, 1.62706, 1.63387, 1.62101, 1.6201, 1.61858, 1.6096, 1.62477, 1.63356, 1.66128, 1.72426, 1.74861, 1.81058, 1.85134, 1.88353, 1.94466, 2.08109, 2.22106, 1.85169, 1.72942, 1.63116, 1.5458, 1.57659, 1.58328, 1.59237, 1.58549, 1.58195, 1.58876, 1.58541, 1.56907, 1.56715, 1.56532, 1.56492, 1.56155, 1.55922, 1.56097, 1.55708, 1.55483, 1.55267, 1.55177, 1.56535, 1.54856, 1.54719, 1.54587, 1.54665, 1.54427, 1.5416, 1.54095, 1.53957, 1.53751, 1.5364, 1.53424, 1.53301, 1.53189, 1.52836, 1.5276, 1.52552, 1.52272, 1.52047, 1.51832, 1.51717, 1.51486, 1.52102, 1.51185, 1.50882, 1.50669, 1.50443, 1.50382, 1.50275, 1.50257, 1.50717, 1.5021, 1.49846, 1.50694, 1.51961, 1.5189, 1.51331, 1.51364, 1.50679, 1.49569, 1.50514, 1.49926, 1.49034, 1.48907, 1.48502, 1.48304, 1.48245, 1.4834, 1.48997, 1.48536, 1.50367, 1.47077, 1.47813, 1.47933, 1.50496, 1.53768, 1.57478, 1.57448, 1.5815, 1.58485, 1.58547, 1.55017, 1.55336, 1.59178, 1.5377, 1.53425, 1.52424, 1.50407, 1.45052, 1.45751, 1.44071, 1.4601, 1.45096, 1.44981, 1.4537, 1.45523, 1.4388, 1.43766, 1.4345, 1.43353, 1.43135, 1.43096, 1.43135, 1.43252, 1.43096, 1.43015, 1.43584, 1.42218, 1.43343, 1.4269, 1.45413, 1.44486, 1.41573, 1.42346, 1.42023, 1.40767, 1.40534, 1.41526, 1.40553, 1.40927, 1.40261, 1.40169, 1.40007, 1.39984, 1.39856, 1.39788, 1.39613, 1.39495, 1.39197, 1.39199, 1.38968, 1.38962, 1.38952, 1.38867, 1.38792, 1.38805, 1.38744, 1.38766, 1.38581, 1.38419, 1.38305, 1.38222, 1.38003, 1.37924, 1.37868, 1.37909, 1.37646, 1.37534, 1.37466, 1.37394, 1.37299, 1.37123, 1.37096, 1.36856, 1.36779, 1.36592, 1.36609, 1.36541, 1.36717, 1.36377, 1.36342, 1.36177, 1.36023, 1.36127, 1.35742, 1.35524, 1.35317, 1.3542, 1.35286, 1.3516, 1.35288, 1.34934, 1.34886, 1.35014, 1.36679, 1.35424, 1.35055, 1.34429, 1.34158, 1.37118, 1.38229, 1.42398, 1.45584, 1.46913, 1.53624, 1.55469, 1.5721, 1.56172, 1.57179, 1.51784, 1.46462, 1.43726, 1.37979, 1.31329, 1.3197, 1.32945, 1.34033, 1.33417, 1.33046, 1.33343, 1.34789, 1.3228, 1.31922, 1.31872, 1.31766, 1.31692, 1.31721, 1.31502, 1.31288, 1.31316, 1.31154, 1.30925, 1.30923, 1.3077, 1.3064, 1.30697, 1.30375, 
1.65387, 1.65231, 1.6526, 1.65452, 1.64548, 1.64097, 1.63925, 1.63713, 1.63583, 1.6354, 1.63382, 1.63245, 1.63653, 1.65441, 1.6304, 1.62388, 1.62271, 1.62086, 1.61919, 1.617, 1.61663, 1.61761, 1.61641, 1.61652, 1.6245, 1.5977, 1.58924, 1.62453, 1.65244, 1.75498, 1.74181, 1.79748, 1.85512, 1.84428, 1.95069, 1.9338, 1.92006, 1.81123, 1.73429, 1.60404, 1.5495, 1.56941, 1.58755, 1.5775, 1.45291, 1.58289, 1.58139, 1.57595, 1.58075, 1.57216, 1.56336, 1.56239, 1.56314, 1.56413, 1.55709, 1.57584, 1.55225, 1.55377, 1.55169, 1.55136, 1.54715, 1.55551, 1.54415, 1.54115, 1.53938, 1.53726, 1.53645, 1.53386, 1.53105, 1.53026, 1.52558, 1.52306, 1.52151, 1.52046, 1.51801, 1.51703, 1.51646, 1.51558, 1.51449, 1.51184, 1.51083, 1.5109, 1.5091, 1.50891, 1.50769, 1.50703, 1.50552, 1.50663, 1.50565, 1.50491, 1.52691, 1.50324, 1.50016, 1.49883, 1.49827, 1.50369, 1.50932, 1.5112, 1.53978, 1.51623, 1.49973, 1.48743, 1.48708, 1.49039, 1.4869, 1.48217, 1.49303, 1.48106, 1.48872, 1.48641, 1.47298, 1.45552, 1.45803, 1.48888, 1.51462, 1.5322, 1.55254, 1.55328, 1.52835, 1.54713, 1.5315, 1.53361, 1.53659, 1.53898, 1.54756, 1.53053, 1.51036, 1.46833, 1.45421, 1.41982, 1.44142, 1.45705, 1.45176, 1.45457, 1.44858, 1.43078, 1.45764, 1.44335, 1.45435, 1.46602, 1.46586, 1.46109, 1.45477, 1.46856, 1.47086, 1.46501, 1.45247, 1.43975, 1.41788, 1.42494, 1.42707, 1.41474, 1.41305, 1.40962, 1.409, 1.40876, 1.40911, 1.40731, 1.4072, 1.40994, 1.40255, 1.40166, 1.40092, 1.39831, 1.39673, 1.39468, 1.39201, 1.39078, 1.39193, 1.3914, 1.38998, 1.38838, 1.38589, 1.38441, 1.38459, 1.38477, 1.38303, 1.38115, 1.38081, 1.37919, 1.37527, 1.37655, 1.37486, 1.37377, 1.37152, 1.36968, 1.36995, 1.37, 1.36894, 1.36558, 1.3663, 1.36532, 1.36401, 1.36497, 1.36623, 1.36432, 1.36397, 1.36173, 1.36219, 1.36122, 1.35993, 1.35883, 1.35764, 1.35692, 1.35588, 1.3549, 1.35219, 1.35097, 1.34752, 1.35001, 1.34746, 1.3477, 1.35468, 1.35125, 1.36821, 1.34927, 1.35415, 1.3272, 1.32951, 1.35674, 1.41392, 1.4476, 1.49346, 1.4961, 1.53317, 1.57516, 1.57135, 1.59578, 1.53075, 1.51545, 1.44676, 1.38756, 1.30684, 1.31052, 1.31985, 1.32785, 1.34308, 1.32615, 1.33218, 1.322, 1.32175, 1.32129, 1.31889, 1.3198, 1.3191, 1.31654, 1.31432, 1.31685, 1.31212, 1.30933, 1.31055, 1.30709, 1.30869, 1.30726, 1.30569, 1.31037, 
1.64182, 1.63961, 1.63927, 1.63523, 1.63645, 1.63924, 1.63929, 1.64001, 1.64093, 1.63743, 1.63725, 1.63551, 1.63229, 1.63144, 1.62779, 1.6398, 1.62621, 1.62045, 1.61902, 1.61503, 1.62075, 1.61206, 1.60968, 1.62004, 1.60707, 1.6129, 1.56863, 1.61502, 1.63378, 1.6937, 1.73743, 1.76156, 1.7933, 1.83722, 1.85209, 1.97325, 1.97312, 1.96807, 1.73922, 1.56997, 1.58894, 1.59843, 1.59566, 1.58924, 1.59181, 1.58019, 1.58541, 1.59247, 1.58677, 1.58161, 1.5746, 1.57694, 1.57843, 1.58095, 1.5694, 1.56842, 1.56892, 1.55917, 1.56592, 1.55517, 1.55266, 1.56023, 1.54735, 1.56565, 1.5423, 1.54064, 1.53768, 1.53729, 1.53392, 1.53296, 1.52946, 1.52956, 1.53261, 1.5248, 1.52227, 1.52025, 1.51808, 1.51652, 1.51485, 1.51326, 1.51227, 1.5112, 1.50917, 1.50968, 1.50585, 1.50478, 1.50465, 1.50384, 1.50262, 1.50128, 1.49838, 1.49617, 1.49528, 1.50255, 1.50938, 1.49748, 1.51048, 1.51587, 1.4973, 1.50042, 1.52234, 1.52944, 1.53589, 1.53627, 1.53864, 1.51613, 1.49684, 1.48064, 1.48103, 1.45772, 1.45543, 1.46387, 1.47058, 1.47053, 1.5034, 1.51347, 1.53129, 1.53412, 1.5272, 1.52287, 1.49372, 1.48639, 1.48742, 1.50898, 1.52022, 1.5187, 1.50583, 1.4973, 1.4531, 1.45429, 1.47432, 1.46099, 1.45798, 1.45601, 1.44763, 1.4466, 1.4521, 1.44142, 1.44988, 1.43813, 1.43682, 1.43438, 1.43248, 1.4432, 1.44171, 1.42828, 1.42531, 1.42387, 1.42259, 1.43968, 1.43035, 1.41648, 1.41329, 1.41357, 1.42345, 1.41319, 1.40877, 1.40688, 1.40651, 1.40337, 1.40269, 1.40111, 1.39892, 1.39703, 1.39693, 1.39722, 1.39522, 1.39446, 1.3939, 1.39227, 1.39145, 1.38985, 1.38809, 1.38817, 1.3852, 1.38357, 1.38361, 1.38319, 1.38127, 1.37898, 1.37833, 1.37868, 1.37823, 1.37757, 1.37747, 1.37501, 1.37524, 1.37473, 1.37259, 1.3722, 1.37295, 1.37496, 1.36965, 1.36734, 1.36631, 1.36342, 1.36249, 1.36041, 1.35932, 1.3588, 1.35861, 1.35756, 1.3558, 1.353, 1.35332, 1.35172, 1.34852, 1.34768, 1.34631, 1.34466, 1.34473, 1.34287, 1.34489, 1.34409, 1.35473, 1.36077, 1.36129, 1.32891, 1.33649, 1.37423, 1.38951, 1.4677, 1.47818, 1.52607, 1.54647, 1.60654, 1.61891, 1.61984, 1.58188, 1.54401, 1.46157, 1.38962, 1.34954, 1.29494, 1.33652, 1.33704, 1.33055, 1.32804, 1.32635, 1.33074, 1.31756, 1.31764, 1.3161, 1.31609, 1.31375, 1.31394, 1.31264, 1.31217, 1.31179, 1.31002, 1.30885, 1.31084, 1.30973, 1.30704, 1.30548, 1.3049, 
1.64388, 1.63928, 1.63786, 1.63812, 1.63833, 1.63774, 1.63577, 1.63522, 1.63447, 1.63014, 1.62939, 1.62699, 1.62796, 1.62535, 1.62378, 1.63352, 1.62336, 1.62389, 1.61632, 1.61264, 1.61112, 1.60951, 1.60886, 1.61021, 1.60616, 1.60645, 1.60005, 1.59685, 1.61124, 1.64218, 1.67623, 1.74934, 1.8454, 1.87342, 1.89176, 2.04121, 2.17, 1.94684, 1.65256, 1.59368, 1.54981, 1.57992, 1.54943, 1.55512, 1.5491, 1.56099, 1.56454, 1.55193, 1.56693, 1.55843, 1.58656, 1.58252, 1.58476, 1.57085, 1.56894, 1.56626, 1.56018, 1.5594, 1.5557, 1.54923, 1.54097, 1.53732, 1.53705, 1.53461, 1.53487, 1.53486, 1.53378, 1.53763, 1.52831, 1.52819, 1.52661, 1.52495, 1.52373, 1.54776, 1.52169, 1.51938, 1.51615, 1.51494, 1.51481, 1.51296, 1.51055, 1.50763, 1.50511, 1.50193, 1.50204, 1.50266, 1.50189, 1.49939, 1.49854, 1.49499, 1.49556, 1.49379, 1.49184, 1.49041, 1.48851, 1.48814, 1.48634, 1.48512, 1.48388, 1.48144, 1.48005, 1.47923, 1.47789, 1.47779, 1.4929, 1.47892, 1.47661, 1.48464, 1.48211, 1.48339, 1.48478, 1.4796, 1.48542, 1.50623, 1.51345, 1.52444, 1.53376, 1.53783, 1.51706, 1.5453, 1.50613, 1.49355, 1.49332, 1.49205, 1.51614, 1.52548, 1.50696, 1.49604, 1.49689, 1.45029, 1.4489, 1.46227, 1.45538, 1.44846, 1.44552, 1.44089, 1.43889, 1.43761, 1.43616, 1.43332, 1.43175, 1.42919, 1.42792, 1.42622, 1.42588, 1.42414, 1.42194, 1.41955, 1.41822, 1.41731, 1.41471, 1.41333, 1.41309, 1.41388, 1.41248, 1.41109, 1.41037, 1.40752, 1.40511, 1.4039, 1.40307, 1.40272, 1.40082, 1.39926, 1.39854, 1.39847, 1.39725, 1.39546, 1.39344, 1.39394, 1.39163, 1.38931, 1.38837, 1.38783, 1.38647, 1.38498, 1.38414, 1.38249, 1.38295, 1.38059, 1.37856, 1.37622, 1.37521, 1.3748, 1.37435, 1.37191, 1.37101, 1.37005, 1.37046, 1.36751, 1.36551, 1.3647, 1.36451, 1.36332, 1.3605, 1.36125, 1.35917, 1.36019, 1.3588, 1.35748, 1.37449, 1.35668, 1.35471, 1.35212, 1.35225, 1.35006, 1.36514, 1.34796, 1.34709, 1.34715, 1.34639, 1.34678, 1.34552, 1.34512, 1.3452, 1.35305, 1.35096, 1.36028, 1.34445, 1.34273, 1.38174, 1.43223, 1.52136, 1.51378, 1.54742, 1.6002, 1.61737, 1.61021, 1.64615, 1.63504, 1.554, 1.43695, 1.34503, 1.30967, 1.32652, 1.33088, 1.34133, 1.33272, 1.32114, 1.31924, 1.31786, 1.31855, 1.314, 1.31315, 1.31421, 1.31334, 1.31296, 1.31044, 1.31218, 1.31512, 1.31139, 1.31661, 1.31289, 1.31088, 1.31047, 1.30813, 
1.63705, 1.63346, 1.63206, 1.63251, 1.63097, 1.6296, 1.62842, 1.6275, 1.62651, 1.62424, 1.62238, 1.62106, 1.61915, 1.61721, 1.61343, 1.61244, 1.60814, 1.60614, 1.60469, 1.60269, 1.60228, 1.60125, 1.60066, 1.59948, 1.61198, 1.60908, 1.61979, 1.58346, 1.59253, 1.64554, 1.66073, 1.70568, 1.82134, 1.86412, 1.91771, 1.92733, 2.02059, 1.73235, 1.70951, 1.57412, 1.5491, 1.53758, 1.57308, 1.55159, 1.6141, 1.59023, 1.59245, 1.58932, 1.59582, 1.59014, 1.57575, 1.58873, 1.58943, 1.57948, 1.58187, 1.58298, 1.56254, 1.55989, 1.56258, 1.5541, 1.54705, 1.55748, 1.53437, 1.53984, 1.5308, 1.52779, 1.5268, 1.52522, 1.52422, 1.52228, 1.52097, 1.52308, 1.51762, 1.51631, 1.51428, 1.51596, 1.51099, 1.50993, 1.51084, 1.53302, 1.50837, 1.50587, 1.50149, 1.50015, 1.49842, 1.49693, 1.49781, 1.49474, 1.49231, 1.4896, 1.48934, 1.48842, 1.48608, 1.48661, 1.48364, 1.48281, 1.48175, 1.48136, 1.47876, 1.47688, 1.47673, 1.47404, 1.47321, 1.47318, 1.48158, 1.47104, 1.4815, 1.48906, 1.49462, 1.48169, 1.47874, 1.46791, 1.48784, 1.54327, 1.5434, 1.53802, 1.51191, 1.5346, 1.52354, 1.48428, 1.47514, 1.468, 1.4655, 1.49632, 1.49502, 1.48981, 1.50666, 1.47465, 1.48279, 1.46149, 1.44113, 1.45224, 1.44236, 1.44309, 1.45054, 1.43333, 1.4293, 1.42655, 1.42274, 1.4202, 1.41924, 1.41642, 1.41719, 1.41481, 1.43144, 1.41294, 1.41346, 1.41213, 1.41146, 1.41095, 1.41074, 1.42484, 1.40911, 1.40811, 1.407, 1.40589, 1.40421, 1.40468, 1.40013, 1.40142, 1.39879, 1.39805, 1.39493, 1.39165, 1.39247, 1.38982, 1.39466, 1.38894, 1.38577, 1.38484, 1.38207, 1.3821, 1.38101, 1.38004, 1.38089, 1.37792, 1.37727, 1.37552, 1.37603, 1.37496, 1.37465, 1.37249, 1.37069, 1.36972, 1.36967, 1.36781, 1.36673, 1.36509, 1.38035, 1.36464, 1.36249, 1.36149, 1.36164, 1.35994, 1.35808, 1.35944, 1.35739, 1.35733, 1.35694, 1.35441, 1.35427, 1.35359, 1.37555, 1.35096, 1.34983, 1.34745, 1.34675, 1.34505, 1.34541, 1.34656, 1.35661, 1.34571, 1.34273, 1.34255, 1.34057, 1.36035, 1.34545, 1.35813, 1.35537, 1.33611, 1.3749, 1.3887, 1.44714, 1.49152, 1.52733, 1.55947, 1.60972, 1.69371, 1.70966, 1.61057, 1.51283, 1.45587, 1.39233, 1.29664, 1.30163, 1.33877, 1.32925, 1.33126, 1.33201, 1.31923, 1.32035, 1.3267, 1.33807, 1.31067, 1.31903, 1.30915, 1.30786, 1.30923, 1.3082, 1.30624, 1.30485, 1.30332, 1.30501, 1.30142, 1.30304, 1.30476, 
1.62839, 1.62918, 1.63022, 1.62493, 1.62416, 1.62357, 1.62265, 1.62658, 1.62114, 1.61983, 1.61847, 1.61696, 1.61546, 1.61442, 1.61291, 1.60954, 1.60717, 1.60583, 1.60791, 1.60306, 1.60643, 1.59927, 1.59698, 1.60611, 1.5957, 1.59616, 1.59689, 1.59621, 1.5619, 1.58399, 1.62959, 1.68019, 1.78224, 1.78655, 1.79673, 1.79848, 1.7643, 1.76382, 1.81278, 1.59478, 1.54156, 1.53588, 1.53414, 1.56687, 1.56858, 1.57457, 1.55914, 1.55913, 1.5569, 1.56523, 1.55605, 1.56078, 1.55138, 1.55263, 1.55566, 1.5575, 1.54432, 1.54206, 1.54004, 1.53744, 1.53538, 1.53394, 1.58182, 1.53121, 1.52801, 1.52641, 1.52468, 1.52313, 1.52167, 1.51722, 1.51508, 1.51268, 1.51649, 1.51093, 1.50902, 1.50697, 1.50516, 1.50314, 1.50245, 1.50128, 1.49932, 1.49762, 1.49545, 1.49523, 1.49346, 1.49174, 1.49172, 1.48966, 1.48843, 1.4854, 1.483, 1.48073, 1.47842, 1.47816, 1.47509, 1.47451, 1.47511, 1.47173, 1.47203, 1.47056, 1.46721, 1.46714, 1.46507, 1.46421, 1.46344, 1.46353, 1.46367, 1.46534, 1.4655, 1.46967, 1.46568, 1.4596, 1.46573, 1.48964, 1.48975, 1.50089, 1.53832, 1.51361, 1.50055, 1.51869, 1.49914, 1.47021, 1.47358, 1.48945, 1.4941, 1.48187, 1.4826, 1.50642, 1.49845, 1.48493, 1.46575, 1.45127, 1.45966, 1.44763, 1.45002, 1.43658, 1.43045, 1.42673, 1.42323, 1.43743, 1.42003, 1.4182, 1.4157, 1.41529, 1.41198, 1.41206, 1.40959, 1.40886, 1.40814, 1.41157, 1.41671, 1.40282, 1.40209, 1.40289, 1.39994, 1.3993, 1.39774, 1.39488, 1.39247, 1.39041, 1.38986, 1.38887, 1.38685, 1.38673, 1.3847, 1.38293, 1.38091, 1.38019, 1.37899, 1.37834, 1.37788, 1.37567, 1.37285, 1.37379, 1.37461, 1.37484, 1.37574, 1.37468, 1.37437, 1.37367, 1.37252, 1.36916, 1.37123, 1.36703, 1.36463, 1.36226, 1.36066, 1.35798, 1.35552, 1.35368, 1.35148, 1.35116, 1.34987, 1.35008, 1.35015, 1.34825, 1.34735, 1.34851, 1.34715, 1.346, 1.34471, 1.34374, 1.34345, 1.34334, 1.34456, 1.34153, 1.33946, 1.33925, 1.33555, 1.33406, 1.3354, 1.33315, 1.33256, 1.3312, 1.33295, 1.33155, 1.3502, 1.33387, 1.33717, 1.29631, 1.32963, 1.37285, 1.41915, 1.45822, 1.52503, 1.55698, 1.60023, 1.65751, 1.6768, 1.66713, 1.54095, 1.41995, 1.34641, 1.28524, 1.30979, 1.31735, 1.31944, 1.31641, 1.31918, 1.31739, 1.30491, 1.30545, 1.30518, 1.30611, 1.30687, 1.30535, 1.30555, 1.3024, 1.30161, 1.30018, 1.30015, 1.2998, 1.29862, 1.29767, 1.29709, 1.29682, 
1.62704, 1.6248, 1.62081, 1.61904, 1.6164, 1.61741, 1.61443, 1.61478, 1.61251, 1.61378, 1.61204, 1.60774, 1.60721, 1.60607, 1.60309, 1.60275, 1.59971, 1.59751, 1.60041, 1.59253, 1.59174, 1.58951, 1.59632, 1.58553, 1.58562, 1.58556, 1.58554, 1.58984, 1.58005, 1.56889, 1.63149, 1.67601, 1.69603, 1.80997, 1.90043, 2.00122, 2.09672, 2.10157, 1.81807, 1.57857, 1.55143, 1.53375, 1.55338, 1.56736, 1.57514, 1.56893, 1.55993, 1.55682, 1.55459, 1.55236, 1.552, 1.55735, 1.54816, 1.54868, 1.54577, 1.55484, 1.55438, 1.53485, 1.53327, 1.52852, 1.52795, 1.52586, 1.52226, 1.52247, 1.52153, 1.51969, 1.51933, 1.51695, 1.51648, 1.51615, 1.51534, 1.51576, 1.51429, 1.51201, 1.51103, 1.50618, 1.50434, 1.50259, 1.50185, 1.50091, 1.49907, 1.49718, 1.49659, 1.49576, 1.49432, 1.48915, 1.48717, 1.4849, 1.48427, 1.48336, 1.48051, 1.47841, 1.48548, 1.47749, 1.47435, 1.47318, 1.47137, 1.47058, 1.46923, 1.46994, 1.46937, 1.46781, 1.48054, 1.46481, 1.46564, 1.46388, 1.46469, 1.46387, 1.46746, 1.46705, 1.48926, 1.4731, 1.46933, 1.49633, 1.47845, 1.50479, 1.49337, 1.49137, 1.48706, 1.47943, 1.47616, 1.4567, 1.45608, 1.45941, 1.49971, 1.50275, 1.46679, 1.46431, 1.46939, 1.46492, 1.45482, 1.4338, 1.43766, 1.42938, 1.4229, 1.42116, 1.41745, 1.41341, 1.41231, 1.41094, 1.41035, 1.40906, 1.4092, 1.40846, 1.40969, 1.4071, 1.40675, 1.43088, 1.41616, 1.40238, 1.40289, 1.40219, 1.39863, 1.39797, 1.39572, 1.39838, 1.39263, 1.39137, 1.38899, 1.38729, 1.38618, 1.38588, 1.38455, 1.38436, 1.38185, 1.38187, 1.38083, 1.37913, 1.37822, 1.37712, 1.37715, 1.37334, 1.37247, 1.37107, 1.36899, 1.36388, 1.36633, 1.3637, 1.36123, 1.36087, 1.35793, 1.35755, 1.35718, 1.35185, 1.35684, 1.3503, 1.34783, 1.34703, 1.34649, 1.3442, 1.34439, 1.34208, 1.34323, 1.34372, 1.34402, 1.34267, 1.34282, 1.34271, 1.3445, 1.34645, 1.34626, 1.36829, 1.33858, 1.3435, 1.33848, 1.35848, 1.33474, 1.3355, 1.34158, 1.33746, 1.34102, 1.32982, 1.33036, 1.34403, 1.33392, 1.32767, 1.34049, 1.32979, 1.32679, 1.29585, 1.3086, 1.33006, 1.38535, 1.44684, 1.4765, 1.49907, 1.59839, 1.63258, 1.69648, 1.59845, 1.5285, 1.45404, 1.34406, 1.26738, 1.29525, 1.30885, 1.30843, 1.30454, 1.3126, 1.30451, 1.31657, 1.31589, 1.30351, 1.30188, 1.30162, 1.30187, 1.30161, 1.30056, 1.29633, 1.30168, 1.29637, 1.31253, 1.29304, 1.29823, 1.2924, 1.29265, 
1.61974, 1.61757, 1.61455, 1.61342, 1.61286, 1.60817, 1.60621, 1.60523, 1.60292, 1.6026, 1.60901, 1.59818, 1.6046, 1.59641, 1.59387, 1.59158, 1.59056, 1.58985, 1.58937, 1.5879, 1.58556, 1.58304, 1.58313, 1.5849, 1.57802, 1.60002, 1.5896, 1.5897, 1.56727, 1.56607, 1.58409, 1.61737, 1.64537, 1.70015, 1.86822, 1.90268, 1.96824, 1.92164, 1.75496, 1.67153, 1.52295, 1.53176, 1.56027, 1.56235, 1.55348, 1.5545, 1.56397, 1.55193, 1.53948, 1.53747, 1.53686, 1.53595, 1.53265, 1.53125, 1.52667, 1.52502, 1.52143, 1.5202, 1.52004, 1.51935, 1.51651, 1.51614, 1.51469, 1.51084, 1.50985, 1.50752, 1.50651, 1.50529, 1.50345, 1.50261, 1.50228, 1.50066, 1.49746, 1.52381, 1.49594, 1.49394, 1.49305, 1.49151, 1.49023, 1.48892, 1.49598, 1.48363, 1.49722, 1.4799, 1.47843, 1.47744, 1.47529, 1.47333, 1.47256, 1.47244, 1.4725, 1.46793, 1.4671, 1.4653, 1.46388, 1.46425, 1.46128, 1.45982, 1.45881, 1.45735, 1.45434, 1.45201, 1.45072, 1.45095, 1.45037, 1.45034, 1.45502, 1.45766, 1.45157, 1.4521, 1.47169, 1.4556, 1.46305, 1.46166, 1.44729, 1.48662, 1.48567, 1.49131, 1.46552, 1.47534, 1.45512, 1.46638, 1.47539, 1.45738, 1.47128, 1.46868, 1.46503, 1.46174, 1.46383, 1.45772, 1.44765, 1.43459, 1.4542, 1.42464, 1.42978, 1.41857, 1.41115, 1.4067, 1.40354, 1.39904, 1.39926, 1.39899, 1.39613, 1.3977, 1.39453, 1.39492, 1.39584, 1.39454, 1.39179, 1.38989, 1.38819, 1.3863, 1.38598, 1.38791, 1.38415, 1.38261, 1.3811, 1.37956, 1.37994, 1.37707, 1.37845, 1.37572, 1.37712, 1.37307, 1.37116, 1.36837, 1.36805, 1.36477, 1.36374, 1.36398, 1.36508, 1.3623, 1.3614, 1.36045, 1.36222, 1.35959, 1.35922, 1.35912, 1.35814, 1.35534, 1.35321, 1.34987, 1.34867, 1.34728, 1.34507, 1.34298, 1.33759, 1.33763, 1.33717, 1.33497, 1.33902, 1.33371, 1.33573, 1.33649, 1.3368, 1.33576, 1.33686, 1.33624, 1.33532, 1.33641, 1.33328, 1.33991, 1.33169, 1.34292, 1.33077, 1.33105, 1.32834, 1.32645, 1.32562, 1.3252, 1.323, 1.32238, 1.32069, 1.31976, 1.31681, 1.3199, 1.32025, 1.32085, 1.32054, 1.30839, 1.27871, 1.29878, 1.34071, 1.4063, 1.47826, 1.5234, 1.56841, 1.60055, 1.65689, 1.6515, 1.51919, 1.41527, 1.35722, 1.28628, 1.28027, 1.30923, 1.3322, 1.30548, 1.29842, 1.29873, 1.29643, 1.29516, 1.29478, 1.29434, 1.28966, 1.29123, 1.28929, 1.29904, 1.28611, 1.28228, 1.28518, 1.28218, 1.28373, 1.28495, 1.28396, 1.28323, 
1.60927, 1.60125, 1.60297, 1.6026, 1.60586, 1.6068, 1.59686, 1.59522, 1.59346, 1.59297, 1.59513, 1.59005, 1.58678, 1.58654, 1.58383, 1.58234, 1.60032, 1.59047, 1.57963, 1.58855, 1.57794, 1.57488, 1.57472, 1.57671, 1.57328, 1.59043, 1.58606, 1.57862, 1.5702, 1.57185, 1.57644, 1.59946, 1.6722, 1.78579, 1.83177, 2.01588, 1.85955, 1.98361, 1.88802, 1.61618, 1.52936, 1.51725, 1.5225, 1.53894, 1.54087, 1.56242, 1.53486, 1.53297, 1.53062, 1.52828, 1.5307, 1.52502, 1.52569, 1.52008, 1.5272, 1.52006, 1.51722, 1.51665, 1.51426, 1.52688, 1.51856, 1.51074, 1.51214, 1.50707, 1.50625, 1.50335, 1.50085, 1.4973, 1.49773, 1.49853, 1.49717, 1.49365, 1.49272, 1.49106, 1.4888, 1.48788, 1.48671, 1.48279, 1.48267, 1.4831, 1.4934, 1.48446, 1.47495, 1.47339, 1.47204, 1.46923, 1.46808, 1.46704, 1.46563, 1.46466, 1.47118, 1.46138, 1.4593, 1.46047, 1.45855, 1.45807, 1.45719, 1.45583, 1.45424, 1.46164, 1.46132, 1.45868, 1.448, 1.45288, 1.45351, 1.44332, 1.44286, 1.44301, 1.45235, 1.46074, 1.45693, 1.45097, 1.44982, 1.46178, 1.464, 1.45109, 1.46111, 1.47071, 1.45976, 1.45887, 1.45409, 1.45497, 1.47227, 1.45838, 1.45807, 1.46281, 1.45736, 1.45134, 1.4597, 1.45881, 1.45392, 1.43781, 1.43139, 1.42094, 1.4249, 1.42738, 1.4126, 1.42576, 1.39949, 1.3935, 1.39367, 1.39236, 1.40573, 1.38996, 1.40201, 1.3951, 1.39635, 1.39912, 1.38658, 1.38673, 1.38579, 1.38549, 1.39135, 1.38726, 1.38188, 1.37951, 1.37907, 1.37832, 1.37376, 1.37228, 1.37631, 1.37039, 1.37047, 1.36713, 1.36705, 1.36434, 1.36324, 1.36383, 1.36466, 1.36433, 1.36175, 1.36315, 1.3603, 1.35943, 1.35774, 1.35449, 1.41167, 1.35353, 1.35252, 1.34994, 1.34847, 1.34796, 1.34551, 1.34687, 1.34296, 1.34133, 1.34134, 1.34089, 1.34067, 1.33984, 1.33788, 1.33561, 1.35038, 1.33355, 1.33236, 1.33052, 1.33061, 1.32822, 1.32809, 1.33313, 1.3272, 1.32607, 1.3258, 1.32498, 1.34864, 1.34644, 1.33051, 1.34794, 1.32232, 1.31959, 1.32272, 1.32081, 1.32678, 1.31557, 1.32755, 1.33328, 1.32972, 1.32965, 1.33029, 1.31932, 1.31371, 1.2962, 1.33362, 1.37034, 1.48138, 1.44336, 1.53055, 1.5334, 1.71559, 1.73178, 1.48421, 1.4327, 1.39619, 1.27734, 1.28981, 1.30829, 1.30059, 1.29679, 1.29815, 1.29241, 1.2979, 1.29021, 1.29131, 1.28895, 1.29215, 1.2856, 1.28857, 1.29615, 1.29894, 1.28963, 1.30996, 1.28463, 1.29143, 1.27802, 1.27992, 1.27865, 
1.59846, 1.59911, 1.59743, 1.6066, 1.59949, 1.59893, 1.59686, 1.59688, 1.60399, 1.5963, 1.58279, 1.5815, 1.59146, 1.5825, 1.58214, 1.57601, 1.57778, 1.57359, 1.57068, 1.57549, 1.56803, 1.57879, 1.56837, 1.56908, 1.57126, 1.57159, 1.57264, 1.5762, 1.5663, 1.57222, 1.52475, 1.58911, 1.6472, 1.64586, 1.9279, 2.00694, 2.04397, 2.06671, 1.81689, 1.75433, 1.51394, 1.50196, 1.52383, 1.53886, 1.53811, 1.53202, 1.5305, 1.54058, 1.53409, 1.53122, 1.52064, 1.51516, 1.51036, 1.51181, 1.50881, 1.51049, 1.51085, 1.5095, 1.51079, 1.50889, 1.5197, 1.50327, 1.50953, 1.50084, 1.5063, 1.49634, 1.49425, 1.49398, 1.49489, 1.49212, 1.49075, 1.49043, 1.48908, 1.50866, 1.48089, 1.47888, 1.47755, 1.47784, 1.47598, 1.47257, 1.47507, 1.47496, 1.47353, 1.47148, 1.46977, 1.4694, 1.46604, 1.46547, 1.46174, 1.46065, 1.45865, 1.45294, 1.45251, 1.44873, 1.46056, 1.44532, 1.44436, 1.44091, 1.4435, 1.44255, 1.44162, 1.44147, 1.43894, 1.4379, 1.43462, 1.44961, 1.42826, 1.42774, 1.43016, 1.43936, 1.43487, 1.45168, 1.437, 1.44328, 1.45489, 1.44335, 1.46136, 1.45849, 1.44227, 1.46418, 1.45461, 1.45218, 1.45773, 1.43999, 1.44141, 1.46114, 1.45058, 1.45074, 1.44046, 1.43945, 1.46096, 1.4125, 1.42919, 1.40603, 1.40321, 1.4089, 1.41804, 1.41235, 1.39825, 1.39408, 1.39363, 1.38911, 1.38666, 1.38854, 1.38222, 1.39587, 1.40327, 1.38209, 1.3742, 1.37409, 1.37527, 1.37539, 1.37222, 1.36818, 1.36629, 1.36328, 1.36744, 1.36188, 1.36148, 1.36379, 1.36668, 1.36226, 1.35647, 1.35414, 1.35548, 1.35305, 1.3523, 1.3607, 1.34978, 1.3507, 1.3511, 1.35037, 1.3475, 1.34828, 1.34722, 1.34685, 1.34299, 1.34094, 1.33735, 1.33406, 1.33296, 1.33359, 1.33564, 1.3433, 1.33279, 1.32853, 1.32468, 1.32638, 1.32181, 1.33113, 1.33068, 1.32051, 1.31881, 1.31926, 1.31711, 1.31769, 1.31741, 1.31755, 1.31683, 1.3134, 1.30859, 1.30747, 1.306, 1.34012, 1.31333, 1.31288, 1.31392, 1.31005, 1.30577, 1.30192, 1.30933, 1.30973, 1.30355, 1.29852, 1.31913, 1.29565, 1.30188, 1.31027, 1.30869, 1.31908, 1.32293, 1.27541, 1.28236, 1.35967, 1.42727, 1.47965, 1.49594, 1.54676, 1.45856, 1.46913, 1.47254, 1.50998, 1.40295, 1.28524, 1.25486, 1.27575, 1.29075, 1.28383, 1.28353, 1.27857, 1.28817, 1.27445, 1.2736, 1.27155, 1.26688, 1.26457, 1.27623, 1.26807, 1.269, 1.27185, 1.26806, 1.26848, 1.26322, 1.25736, 1.25324, 1.25148, 
1.5989, 1.59732, 1.59807, 1.59639, 1.59826, 1.59604, 1.59579, 1.59559, 1.59077, 1.58833, 1.58335, 1.58034, 1.58553, 1.57494, 1.57115, 1.57407, 1.57677, 1.58439, 1.56984, 1.56841, 1.56835, 1.56712, 1.57701, 1.56247, 1.56167, 1.56852, 1.56165, 1.56214, 1.58594, 1.55734, 1.55414, 1.55708, 1.58387, 1.63352, 1.73065, 1.81379, 1.97653, 2.03748, 2.00816, 1.8143, 1.53987, 1.51963, 1.52694, 1.54003, 1.53517, 1.53208, 1.53084, 1.52411, 1.52332, 1.52091, 1.51484, 1.52329, 1.52352, 1.52784, 1.51597, 1.51024, 1.51105, 1.507, 1.50445, 1.50302, 1.50188, 1.4998, 1.49508, 1.48908, 1.48458, 1.48215, 1.48181, 1.4856, 1.48513, 1.4856, 1.48646, 1.48471, 1.4839, 1.48345, 1.48145, 1.48136, 1.47919, 1.47962, 1.47528, 1.47463, 1.47212, 1.47063, 1.46829, 1.46614, 1.46415, 1.46097, 1.45886, 1.45838, 1.45336, 1.45233, 1.45162, 1.46551, 1.45209, 1.45699, 1.46503, 1.45423, 1.44509, 1.44164, 1.44033, 1.43985, 1.43871, 1.43711, 1.43969, 1.44882, 1.43652, 1.43522, 1.43574, 1.43644, 1.43739, 1.44785, 1.44219, 1.46435, 1.45752, 1.44096, 1.44057, 1.44127, 1.43955, 1.44026, 1.44499, 1.44604, 1.44241, 1.44186, 1.43654, 1.45048, 1.44119, 1.43352, 1.44045, 1.45172, 1.4472, 1.43009, 1.42321, 1.4407, 1.42389, 1.4334, 1.41244, 1.40965, 1.40141, 1.42307, 1.39686, 1.39037, 1.38776, 1.3866, 1.38411, 1.38388, 1.38137, 1.3829, 1.3791, 1.38882, 1.37577, 1.37407, 1.37356, 1.37385, 1.37106, 1.37142, 1.36892, 1.36866, 1.40655, 1.36611, 1.36499, 1.36418, 1.3637, 1.36455, 1.36442, 1.36311, 1.36049, 1.35761, 1.35747, 1.35742, 1.35672, 1.35499, 1.35235, 1.35058, 1.35107, 1.34815, 1.34727, 1.34609, 1.34405, 1.35219, 1.34081, 1.33937, 1.3387, 1.33691, 1.33701, 1.33422, 1.33644, 1.33354, 1.33619, 1.33371, 1.3292, 1.32927, 1.32814, 1.32714, 1.32631, 1.32661, 1.31965, 1.32039, 1.32252, 1.32099, 1.32052, 1.31767, 1.31745, 1.31717, 1.31571, 1.31593, 1.31707, 1.3153, 1.31294, 1.31309, 1.31205, 1.30993, 1.31211, 1.31713, 1.30524, 1.30609, 1.30381, 1.30474, 1.30383, 1.30944, 1.30136, 1.31941, 1.30628, 1.32293, 1.27986, 1.28997, 1.37083, 1.40305, 1.47108, 1.55425, 1.61652, 1.7283, 1.71655, 1.50637, 1.50342, 1.50667, 1.48842, 1.48986, 1.48503, 1.47981, 1.38945, 1.28478, 1.28196, 1.29148, 1.27874, 1.28547, 1.27835, 1.27785, 1.28467, 1.28162, 1.2751, 1.27709, 1.27195, 1.27762, 1.26935, 1.27209, 1.27532, 1.27504, 
1.5856, 1.58411, 1.58267, 1.5829, 1.57915, 1.57914, 1.58566, 1.58595, 1.57641, 1.57196, 1.56897, 1.56542, 1.56507, 1.56457, 1.56553, 1.56135, 1.55806, 1.55648, 1.55563, 1.56126, 1.55604, 1.58097, 1.56156, 1.55211, 1.55168, 1.56488, 1.55735, 1.55173, 1.5511, 1.55829, 1.52161, 1.52818, 1.58343, 1.60077, 1.70043, 1.61514, 1.60292, 1.69966, 1.91913, 1.80042, 1.56041, 1.50613, 1.50999, 1.51206, 1.52007, 1.51984, 1.50513, 1.50518, 1.50904, 1.50367, 1.50282, 1.51369, 1.50257, 1.51719, 1.51542, 1.51032, 1.5003, 1.50524, 1.49673, 1.506, 1.49614, 1.49311, 1.48977, 1.49288, 1.48481, 1.48209, 1.47983, 1.47868, 1.47896, 1.47578, 1.4746, 1.47356, 1.4709, 1.46953, 1.46571, 1.46284, 1.46037, 1.45892, 1.45588, 1.45472, 1.45541, 1.45412, 1.45288, 1.49228, 1.45034, 1.4491, 1.44801, 1.44556, 1.44494, 1.44321, 1.44433, 1.44133, 1.44074, 1.43937, 1.44011, 1.43801, 1.43732, 1.43663, 1.4367, 1.44311, 1.43148, 1.4507, 1.44873, 1.44649, 1.42842, 1.42819, 1.4272, 1.4452, 1.438, 1.45131, 1.44077, 1.43464, 1.44621, 1.44107, 1.44143, 1.44109, 1.44333, 1.43808, 1.43473, 1.44676, 1.44055, 1.45464, 1.42075, 1.41787, 1.42346, 1.43346, 1.43361, 1.41626, 1.42708, 1.41888, 1.40841, 1.40983, 1.40015, 1.41259, 1.39649, 1.40843, 1.38474, 1.38853, 1.39623, 1.39831, 1.36956, 1.36987, 1.37549, 1.36492, 1.36454, 1.36908, 1.36183, 1.36169, 1.36274, 1.36173, 1.36465, 1.36065, 1.35997, 1.36036, 1.35839, 1.35837, 1.35877, 1.35425, 1.35504, 1.35517, 1.35205, 1.35354, 1.35764, 1.34763, 1.36008, 1.34807, 1.34755, 1.34389, 1.34272, 1.34116, 1.3397, 1.33971, 1.33479, 1.33256, 1.33145, 1.33145, 1.33144, 1.33631, 1.32841, 1.33612, 1.32775, 1.32721, 1.32696, 1.33607, 1.32683, 1.32684, 1.3243, 1.32245, 1.31995, 1.32613, 1.32015, 1.31635, 1.34022, 1.31866, 1.31253, 1.30681, 1.30854, 1.30605, 1.309, 1.30358, 1.3053, 1.3033, 1.30351, 1.30352, 1.3034, 1.30615, 1.30037, 1.29908, 1.30639, 1.28993, 1.29286, 1.2884, 1.28673, 1.28666, 1.28871, 1.29194, 1.28352, 1.28751, 1.28235, 1.28504, 1.28673, 1.2884, 1.26618, 1.25416, 1.33838, 1.40551, 1.45804, 1.57527, 1.62878, 1.62002, 1.58146, 1.51871, 1.52835, 1.42614, 1.35504, 1.32337, 1.28623, 1.26882, 1.27959, 1.26611, 1.26547, 1.26541, 1.26252, 1.2615, 1.26024, 1.25766, 1.25708, 1.26036, 1.26114, 1.26075, 1.26052, 1.2544, 1.25922, 1.25366, 1.25752, 1.25314, 
1.5837, 1.58088, 1.58554, 1.61309, 1.5812, 1.57404, 1.57528, 1.56961, 1.56993, 1.56671, 1.56635, 1.60332, 1.56123, 1.5545, 1.55491, 1.55149, 1.56883, 1.56477, 1.55169, 1.55055, 1.54672, 1.55475, 1.54833, 1.54829, 1.54089, 1.54449, 1.54855, 1.54379, 1.54484, 1.55019, 1.53765, 1.53697, 1.54466, 1.5847, 1.68094, 1.71397, 1.68871, 1.68542, 1.72103, 1.76102, 1.52439, 1.52093, 1.48594, 1.50314, 1.5064, 1.50198, 1.50901, 1.51926, 1.51405, 1.50389, 1.5039, 1.51348, 1.51048, 1.50268, 1.50104, 1.4988, 1.49646, 1.49565, 1.49217, 1.48913, 1.48588, 1.48311, 1.47884, 1.47875, 1.47646, 1.479, 1.4716, 1.47192, 1.4722, 1.48194, 1.49137, 1.46745, 1.46545, 1.46574, 1.46204, 1.46076, 1.45999, 1.45616, 1.45678, 1.45258, 1.45091, 1.448, 1.44698, 1.44545, 1.44452, 1.44366, 1.44114, 1.44118, 1.43841, 1.43975, 1.43635, 1.43901, 1.4347, 1.43462, 1.43422, 1.43203, 1.43193, 1.43214, 1.42764, 1.42313, 1.42277, 1.4482, 1.42083, 1.4303, 1.41871, 1.42395, 1.43598, 1.42385, 1.4205, 1.42252, 1.42363, 1.42547, 1.4332, 1.43307, 1.43695, 1.43727, 1.43065, 1.44407, 1.43475, 1.43413, 1.43739, 1.4298, 1.42645, 1.4301, 1.41739, 1.42429, 1.41676, 1.41984, 1.41282, 1.4232, 1.4213, 1.42056, 1.3985, 1.39061, 1.39379, 1.38874, 1.38376, 1.38871, 1.38438, 1.37257, 1.36878, 1.3687, 1.37444, 1.36677, 1.37155, 1.37546, 1.3607, 1.36974, 1.36478, 1.37841, 1.36567, 1.35461, 1.35427, 1.35092, 1.35903, 1.35874, 1.35732, 1.35309, 1.35314, 1.35381, 1.34866, 1.34784, 1.3467, 1.34544, 1.34502, 1.34264, 1.34827, 1.34034, 1.33781, 1.33667, 1.33623, 1.33414, 1.33409, 1.33109, 1.32827, 1.33484, 1.34085, 1.34134, 1.34951, 1.32631, 1.33766, 1.32083, 1.32048, 1.31719, 1.31759, 1.3157, 1.31919, 1.313, 1.33301, 1.31205, 1.31301, 1.31047, 1.31223, 1.30897, 1.30924, 1.30621, 1.30513, 1.31491, 1.33779, 1.30413, 1.30367, 1.30183, 1.30341, 1.30313, 1.30292, 1.31051, 1.29943, 1.30253, 1.29541, 1.3124, 1.30296, 1.29384, 1.30526, 1.30608, 1.30203, 1.29899, 1.29209, 1.29239, 1.28877, 1.30231, 1.28634, 1.29503, 1.29355, 1.25202, 1.34388, 1.31989, 1.44337, 1.7762, 1.78531, 1.8, 1.80016, 1.59782, 1.50002, 1.34069, 1.31294, 1.2891, 1.26614, 1.27089, 1.27256, 1.26437, 1.28096, 1.26796, 1.27623, 1.25993, 1.25667, 1.2634, 1.25407, 1.25433, 1.25784, 1.24938, 1.24969, 1.24687, 1.25008, 1.2457, 1.24705, 1.24721, 
