1.61363, 1.616, 1.60902, 1.60419, 1.6028, 1.59963, 1.59833, 1.59965, 1.588, 1.58943, 1.59092, 1.60959, 1.58595, 1.57237, 1.59519, 1.60637, 1.60678, 1.62029, 1.65434, 1.65497, 1.6935, 1.67264, 1.66347, 1.59148, 1.53023, 1.56148, 1.5504, 1.53919, 1.54486, 1.55222, 1.55235, 1.56745, 1.5365, 1.52743, 1.52315, 1.51384, 1.51073, 1.50829, 1.50716, 1.50545, 1.50278, 1.5, 1.49804, 1.49827, 1.49496, 1.49238, 1.48964, 1.48377, 1.482, 1.48035, 1.47688, 1.47418, 1.47171, 1.47033, 1.46567, 1.46392, 1.45763, 1.45798, 1.46783, 1.45432, 1.45252, 1.45197, 1.45761, 1.46083, 1.45044, 1.41815, 1.46603, 1.53618, 1.66285, 1.76853, 1.7926, 1.70572, 1.60015, 1.41956, 1.41189, 1.42354, 1.42424, 1.41551, 1.41427, 1.42684, 1.41381, 1.40556, 1.402, 1.40179, 1.39858, 1.39486, 1.39347, 1.39033, 1.39132, 1.38881, 1.38168, 1.3806, 1.37627, 1.37553, 1.37606, 1.37052, 1.37038, 1.3644, 1.36278, 1.36076, 1.35903, 1.35853, 1.35458, 1.35527, 1.35737, 1.35163, 1.35214, 1.35636, 1.33993, 1.34246, 1.34358, 1.3365, 1.33389, 1.33089, 1.32888, 1.33124, 1.33079, 1.32535, 1.32038, 1.3205, 1.31925, 1.31486, 1.31569, 1.31401, 1.31411, 1.32116, 1.32262, 1.33661, 1.32397, 1.35087, 1.36132, 1.33577, 1.35583, 1.33272, 1.34446, 1.34743, 1.38604, 1.32965, 1.30869, 1.30913, 1.31372, 1.30212, 1.28681, 1.28152, 1.28059, 1.27962, 1.27864, 1.27482, 1.27632, 1.27506, 1.29867, 1.27924, 1.29948, 
1.62665, 1.61062, 1.61337, 1.60775, 1.60579, 1.60276, 1.59916, 1.59611, 1.59325, 1.60339, 1.59512, 1.60601, 1.5968, 1.58563, 1.61343, 1.63469, 1.62128, 1.65134, 1.64821, 1.66528, 1.67091, 1.62658, 1.60183, 1.52454, 1.54437, 1.56196, 1.54819, 1.54265, 1.53952, 1.54603, 1.54046, 1.56143, 1.53156, 1.52356, 1.51741, 1.51577, 1.51631, 1.51186, 1.50896, 1.50858, 1.50607, 1.50325, 1.50347, 1.49919, 1.49382, 1.49037, 1.4875, 1.48636, 1.48284, 1.48132, 1.47687, 1.47618, 1.47485, 1.47224, 1.471, 1.46677, 1.46372, 1.45889, 1.45743, 1.45745, 1.45519, 1.45498, 1.44765, 1.45729, 1.47085, 1.4246, 1.44167, 1.52102, 1.5696, 1.71118, 1.7275, 1.70834, 1.55273, 1.4233, 1.39776, 1.42638, 1.41827, 1.41535, 1.41394, 1.4098, 1.41147, 1.40491, 1.40264, 1.39949, 1.39446, 1.3927, 1.38856, 1.38734, 1.38725, 1.38558, 1.38465, 1.38186, 1.37839, 1.37622, 1.37363, 1.37291, 1.37035, 1.36729, 1.36783, 1.36183, 1.36015, 1.36134, 1.35923, 1.35493, 1.35643, 1.35146, 1.34943, 1.35145, 1.35018, 1.34642, 1.3432, 1.34114, 1.33696, 1.33695, 1.33641, 1.33337, 1.33277, 1.33, 1.32812, 1.32602, 1.32398, 1.32352, 1.31917, 1.31881, 1.32676, 1.32985, 1.32808, 1.32887, 1.34174, 1.32901, 1.37153, 1.34636, 1.40653, 1.37053, 1.35967, 1.35378, 1.35299, 1.32964, 1.32439, 1.30251, 1.29604, 1.28951, 1.28864, 1.28601, 1.2815, 1.27728, 1.27429, 1.27415, 1.27509, 1.27551, 1.2774, 1.27426, 1.26868, 
1.66767, 1.66891, 1.63716, 1.61566, 1.60956, 1.60555, 1.60244, 1.61045, 1.59459, 1.59282, 1.6005, 1.59747, 1.57484, 1.58522, 1.62092, 1.6448, 1.63779, 1.63058, 1.64653, 1.67282, 1.7309, 1.66599, 1.61003, 1.55878, 1.55308, 1.56105, 1.54952, 1.54513, 1.53845, 1.54093, 1.54122, 1.54218, 1.5646, 1.54133, 1.53015, 1.52107, 1.51882, 1.51074, 1.50706, 1.50698, 1.50568, 1.50416, 1.5021, 1.49845, 1.50325, 1.49631, 1.49113, 1.49024, 1.48594, 1.48401, 1.4803, 1.47941, 1.47648, 1.47473, 1.47225, 1.47092, 1.46242, 1.46755, 1.45813, 1.45744, 1.4538, 1.45315, 1.45132, 1.45136, 1.44479, 1.44709, 1.43784, 1.53102, 1.60195, 1.63429, 1.73063, 1.68289, 1.6019, 1.46386, 1.40687, 1.42749, 1.42116, 1.4195, 1.41241, 1.41163, 1.40988, 1.40905, 1.39962, 1.39913, 1.39671, 1.39409, 1.38497, 1.38482, 1.38834, 1.38511, 1.38404, 1.38442, 1.3815, 1.37848, 1.37646, 1.37442, 1.37231, 1.37065, 1.36954, 1.3689, 1.36351, 1.36209, 1.35828, 1.35544, 1.35429, 1.35463, 1.35215, 1.35163, 1.34908, 1.3481, 1.34562, 1.3433, 1.34, 1.34024, 1.33987, 1.33994, 1.34088, 1.33806, 1.33617, 1.33635, 1.33149, 1.33064, 1.33018, 1.32704, 1.32642, 1.32928, 1.33252, 1.32841, 1.33236, 1.35782, 1.36488, 1.34838, 1.37432, 1.35048, 1.3544, 1.35071, 1.35311, 1.33339, 1.30595, 1.30211, 1.29811, 1.30761, 1.29141, 1.28441, 1.27812, 1.27817, 1.27588, 1.27529, 1.27928, 1.27706, 1.27753, 1.27579, 1.27854, 
1.66582, 1.65813, 1.63461, 1.62037, 1.61908, 1.60911, 1.60721, 1.60551, 1.61313, 1.60261, 1.60257, 1.60165, 1.59486, 1.59825, 1.65239, 1.65227, 1.64442, 1.65476, 1.65573, 1.69696, 1.70603, 1.68602, 1.59932, 1.56167, 1.55139, 1.5784, 1.56195, 1.55531, 1.55737, 1.54175, 1.54141, 1.54677, 1.55715, 1.55756, 1.53671, 1.53044, 1.52698, 1.53099, 1.52163, 1.51427, 1.51122, 1.51631, 1.50531, 1.50388, 1.51015, 1.49769, 1.49574, 1.4948, 1.49177, 1.48693, 1.48662, 1.48409, 1.48285, 1.48155, 1.47702, 1.48327, 1.48401, 1.46496, 1.46507, 1.47124, 1.46855, 1.45995, 1.45841, 1.46571, 1.47446, 1.43816, 1.45519, 1.52227, 1.60739, 1.65893, 1.70419, 1.69974, 1.54805, 1.51306, 1.4308, 1.43162, 1.438, 1.43415, 1.4211, 1.41772, 1.41315, 1.40975, 1.40621, 1.40526, 1.40313, 1.399, 1.39781, 1.39422, 1.39514, 1.3946, 1.39839, 1.39112, 1.38768, 1.38621, 1.38122, 1.37933, 1.37846, 1.37535, 1.37413, 1.37384, 1.36999, 1.37102, 1.36558, 1.36355, 1.36202, 1.35714, 1.35538, 1.35316, 1.34988, 1.34902, 1.34983, 1.35051, 1.34462, 1.34556, 1.34476, 1.34459, 1.34603, 1.34203, 1.3437, 1.34685, 1.33996, 1.33611, 1.33335, 1.33148, 1.33349, 1.34164, 1.3375, 1.34149, 1.33589, 1.33678, 1.34301, 1.35245, 1.34518, 1.36578, 1.36427, 1.36901, 1.3539, 1.33638, 1.29561, 1.30902, 1.30904, 1.31718, 1.30132, 1.29031, 1.29107, 1.28612, 1.28352, 1.28206, 1.2925, 1.28231, 1.28282, 1.28442, 1.28268, 
1.67788, 1.65875, 1.65826, 1.64804, 1.61706, 1.61334, 1.60842, 1.60787, 1.60599, 1.61281, 1.61909, 1.6174, 1.60827, 1.62029, 1.60293, 1.62979, 1.64387, 1.67188, 1.68494, 1.69019, 1.7043, 1.66526, 1.6656, 1.60953, 1.56562, 1.57612, 1.57526, 1.55721, 1.54904, 1.54639, 1.55389, 1.53901, 1.54106, 1.56475, 1.55217, 1.53349, 1.53634, 1.5243, 1.52234, 1.51509, 1.51375, 1.50942, 1.50576, 1.50334, 1.50027, 1.49728, 1.4978, 1.49547, 1.49424, 1.4927, 1.48844, 1.48819, 1.48675, 1.48347, 1.47962, 1.48031, 1.47327, 1.47066, 1.46966, 1.46782, 1.46634, 1.46666, 1.46477, 1.47445, 1.46561, 1.44652, 1.45438, 1.52037, 1.59286, 1.63683, 1.70977, 1.71733, 1.61202, 1.49873, 1.4157, 1.45043, 1.44393, 1.43469, 1.43136, 1.4261, 1.4244, 1.41718, 1.4341, 1.4107, 1.40773, 1.40547, 1.4024, 1.39932, 1.39751, 1.39403, 1.39276, 1.39206, 1.39065, 1.38862, 1.38684, 1.38404, 1.38454, 1.38248, 1.38532, 1.38134, 1.37591, 1.37614, 1.37245, 1.37247, 1.36432, 1.36183, 1.36001, 1.35656, 1.3534, 1.35275, 1.34805, 1.34824, 1.34711, 1.34766, 1.36124, 1.3515, 1.35117, 1.35158, 1.34976, 1.34809, 1.34388, 1.34046, 1.33866, 1.33778, 1.3358, 1.33958, 1.33951, 1.33858, 1.33459, 1.34294, 1.34868, 1.39232, 1.38489, 1.36804, 1.38656, 1.37457, 1.35182, 1.34054, 1.32919, 1.31261, 1.31435, 1.30881, 1.30541, 1.2991, 1.29427, 1.29246, 1.29861, 1.28989, 1.2899, 1.2885, 1.28556, 1.28435, 1.28185, 
1.65241, 1.66457, 1.66792, 1.63765, 1.62051, 1.62817, 1.6166, 1.61367, 1.60778, 1.6089, 1.6077, 1.61007, 1.6071, 1.61944, 1.62541, 1.64068, 1.65528, 1.68565, 1.68568, 1.68673, 1.68268, 1.64066, 1.61096, 1.57518, 1.56129, 1.57233, 1.56539, 1.55527, 1.55414, 1.54748, 1.54487, 1.54353, 1.55118, 1.55542, 1.5417, 1.5414, 1.53259, 1.5338, 1.52385, 1.52292, 1.51924, 1.5179, 1.51566, 1.51163, 1.50966, 1.50674, 1.51338, 1.50165, 1.50004, 1.49711, 1.50228, 1.49191, 1.49058, 1.49007, 1.50033, 1.48292, 1.48204, 1.48046, 1.4986, 1.47651, 1.4732, 1.47007, 1.47252, 1.47506, 1.46729, 1.44369, 1.46472, 1.53287, 1.60448, 1.68217, 1.74355, 1.73454, 1.67263, 1.56483, 1.43262, 1.44759, 1.4539, 1.4418, 1.45094, 1.43371, 1.42904, 1.43455, 1.42255, 1.43794, 1.41466, 1.4111, 1.41228, 1.41024, 1.40902, 1.40624, 1.40363, 1.3996, 1.39788, 1.39173, 1.39172, 1.39044, 1.39, 1.3864, 1.38441, 1.38351, 1.38211, 1.38104, 1.37835, 1.37739, 1.373, 1.36791, 1.36531, 1.36064, 1.36232, 1.35488, 1.35235, 1.35326, 1.34804, 1.34904, 1.3537, 1.35139, 1.35133, 1.35103, 1.35079, 1.35099, 1.34978, 1.34523, 1.34983, 1.3407, 1.34052, 1.35004, 1.34673, 1.35886, 1.34144, 1.36444, 1.3603, 1.37051, 1.3669, 1.43686, 1.44667, 1.3773, 1.38109, 1.37472, 1.33024, 1.34006, 1.33074, 1.31518, 1.31427, 1.30459, 1.30231, 1.30122, 1.29659, 1.30469, 1.29844, 1.29932, 1.29854, 1.29869, 1.29929, 
1.6334, 1.65203, 1.65442, 1.63796, 1.63431, 1.62586, 1.61778, 1.61376, 1.61065, 1.6087, 1.60751, 1.62289, 1.61988, 1.59387, 1.64127, 1.6405, 1.67841, 1.73426, 1.72271, 1.76703, 1.72095, 1.67334, 1.6364, 1.57184, 1.57272, 1.58921, 1.58622, 1.55979, 1.56237, 1.55348, 1.55359, 1.54384, 1.55127, 1.55525, 1.55468, 1.55387, 1.53181, 1.53718, 1.52785, 1.52748, 1.52809, 1.52168, 1.51736, 1.51543, 1.51252, 1.51031, 1.50874, 1.5023, 1.50162, 1.49906, 1.49513, 1.49351, 1.4917, 1.49151, 1.4893, 1.48909, 1.48721, 1.48605, 1.48397, 1.48079, 1.48864, 1.47494, 1.47918, 1.48817, 1.47464, 1.44748, 1.46669, 1.52314, 1.61381, 1.67532, 1.71302, 1.70086, 1.61757, 1.53029, 1.42802, 1.44502, 1.47, 1.44428, 1.43566, 1.431, 1.42823, 1.44279, 1.42344, 1.42206, 1.41629, 1.41366, 1.41112, 1.41177, 1.41159, 1.40605, 1.40571, 1.40298, 1.40182, 1.39842, 1.39474, 1.39608, 1.39048, 1.39071, 1.38888, 1.38892, 1.38719, 1.38577, 1.38349, 1.38157, 1.37347, 1.3708, 1.36983, 1.36353, 1.361, 1.35827, 1.35722, 1.35306, 1.35149, 1.35082, 1.3495, 1.34975, 1.34742, 1.34714, 1.34489, 1.34237, 1.34209, 1.34363, 1.343, 1.35069, 1.35023, 1.3434, 1.34374, 1.34883, 1.35657, 1.35833, 1.35766, 1.3616, 1.39194, 1.42075, 1.39194, 1.40987, 1.37639, 1.3594, 1.33956, 1.31379, 1.31983, 1.32961, 1.31886, 1.31014, 1.30662, 1.30259, 1.30045, 1.29604, 1.29983, 1.29882, 1.29777, 1.30195, 1.30228, 
1.64154, 1.65108, 1.64468, 1.65245, 1.65206, 1.62127, 1.63292, 1.62109, 1.62395, 1.62316, 1.61711, 1.6233, 1.61471, 1.59716, 1.60069, 1.67565, 1.65274, 1.66365, 1.7348, 1.73128, 1.73469, 1.69946, 1.67288, 1.60874, 1.57944, 1.58135, 1.57184, 1.5656, 1.5722, 1.55901, 1.55212, 1.54769, 1.54979, 1.54509, 1.56171, 1.54418, 1.55572, 1.55088, 1.53842, 1.53499, 1.53152, 1.52803, 1.52408, 1.51958, 1.51645, 1.51384, 1.51119, 1.5102, 1.50486, 1.50402, 1.49783, 1.4965, 1.49461, 1.493, 1.49302, 1.49517, 1.4875, 1.48509, 1.48233, 1.49941, 1.47767, 1.47531, 1.49594, 1.48654, 1.47511, 1.45101, 1.48457, 1.54164, 1.61596, 1.69634, 1.71892, 1.71504, 1.69597, 1.55896, 1.44759, 1.43594, 1.45343, 1.45023, 1.4501, 1.43326, 1.43116, 1.42953, 1.42359, 1.42296, 1.41933, 1.41811, 1.41781, 1.41545, 1.41473, 1.41287, 1.41089, 1.41009, 1.40806, 1.40529, 1.40028, 1.39811, 1.39573, 1.39515, 1.3951, 1.3942, 1.39233, 1.39291, 1.38858, 1.38715, 1.38465, 1.3791, 1.37515, 1.37137, 1.36679, 1.36437, 1.36306, 1.36092, 1.35796, 1.35978, 1.35412, 1.35307, 1.35156, 1.3488, 1.34816, 1.34756, 1.34837, 1.34703, 1.34564, 1.3465, 1.34126, 1.34465, 1.34647, 1.35454, 1.33819, 1.35428, 1.3873, 1.37778, 1.40247, 1.39159, 1.3951, 1.40255, 1.39565, 1.33401, 1.33238, 1.33234, 1.33043, 1.32216, 1.32976, 1.32325, 1.31107, 1.30686, 1.31303, 1.31545, 1.29918, 1.29547, 1.29807, 1.31022, 1.30079, 
1.64073, 1.63568, 1.64249, 1.63693, 1.65854, 1.65497, 1.64202, 1.62437, 1.63369, 1.6205, 1.61843, 1.62244, 1.60885, 1.59966, 1.60918, 1.65843, 1.65835, 1.68888, 1.72752, 1.75285, 1.75001, 1.71428, 1.67917, 1.58955, 1.58993, 1.57594, 1.57898, 1.56572, 1.56008, 1.55545, 1.55022, 1.54737, 1.54406, 1.5452, 1.54078, 1.55193, 1.56235, 1.55198, 1.53814, 1.53703, 1.533, 1.52767, 1.52661, 1.52286, 1.52178, 1.51936, 1.51659, 1.51264, 1.50924, 1.50488, 1.50054, 1.49771, 1.49593, 1.49398, 1.49024, 1.48907, 1.48679, 1.48598, 1.48416, 1.4824, 1.48016, 1.47673, 1.47321, 1.473, 1.47423, 1.44518, 1.49774, 1.52369, 1.55762, 1.64742, 1.70765, 1.70472, 1.67226, 1.49929, 1.45441, 1.44061, 1.44551, 1.44119, 1.44411, 1.43489, 1.42894, 1.43047, 1.42426, 1.42047, 1.41995, 1.4192, 1.41867, 1.41655, 1.41257, 1.4121, 1.41223, 1.41187, 1.40736, 1.40411, 1.402, 1.39748, 1.39441, 1.39086, 1.39182, 1.39199, 1.39183, 1.39499, 1.39487, 1.39144, 1.38844, 1.38588, 1.37986, 1.37833, 1.37574, 1.37149, 1.36961, 1.3682, 1.37095, 1.36155, 1.3608, 1.3576, 1.35491, 1.35569, 1.35416, 1.3539, 1.34918, 1.35027, 1.34509, 1.34432, 1.34019, 1.34915, 1.34702, 1.34342, 1.33913, 1.35826, 1.35803, 1.39296, 1.37437, 1.39892, 1.39544, 1.40377, 1.39661, 1.37956, 1.33227, 1.30665, 1.32865, 1.3281, 1.32705, 1.31378, 1.31069, 1.30866, 1.30381, 1.30187, 1.3138, 1.29612, 1.29682, 1.29634, 1.29405, 
1.64579, 1.64571, 1.64528, 1.64838, 1.674, 1.66411, 1.66182, 1.63435, 1.62281, 1.61902, 1.61925, 1.61584, 1.62267, 1.6088, 1.62035, 1.66476, 1.69007, 1.69901, 1.71363, 1.71191, 1.72988, 1.73826, 1.73812, 1.59917, 1.56456, 1.58076, 1.57751, 1.5751, 1.56756, 1.55876, 1.55518, 1.55111, 1.54769, 1.5515, 1.53877, 1.53612, 1.54503, 1.56102, 1.55545, 1.53825, 1.53047, 1.5287, 1.52569, 1.52323, 1.51931, 1.51794, 1.51447, 1.51188, 1.50886, 1.50249, 1.50299, 1.49921, 1.50027, 1.49476, 1.49212, 1.49023, 1.49026, 1.48737, 1.48672, 1.4807, 1.47785, 1.48448, 1.47566, 1.47739, 1.47272, 1.44166, 1.48313, 1.55162, 1.61251, 1.64431, 1.66877, 1.66878, 1.65059, 1.54004, 1.4619, 1.4162, 1.4541, 1.45344, 1.45453, 1.43584, 1.42801, 1.42546, 1.42784, 1.44042, 1.41951, 1.41647, 1.41577, 1.41348, 1.41169, 1.41118, 1.4103, 1.40643, 1.40326, 1.40594, 1.39571, 1.39616, 1.39491, 1.39342, 1.3902, 1.39027, 1.39227, 1.39127, 1.38961, 1.38742, 1.38731, 1.3856, 1.38399, 1.38203, 1.38247, 1.37772, 1.37535, 1.36946, 1.3672, 1.3644, 1.3642, 1.36532, 1.36426, 1.36231, 1.36223, 1.36098, 1.3568, 1.36471, 1.35175, 1.34548, 1.34349, 1.3405, 1.35813, 1.34703, 1.33057, 1.35456, 1.38312, 1.37868, 1.42226, 1.38835, 1.41178, 1.41521, 1.41093, 1.39615, 1.3388, 1.31974, 1.33427, 1.32967, 1.32392, 1.31626, 1.31006, 1.31185, 1.30617, 1.30612, 1.30366, 1.30695, 1.30058, 1.29714, 1.29499, 
1.66616, 1.65838, 1.65394, 1.64797, 1.64396, 1.64408, 1.65753, 1.63962, 1.63023, 1.62362, 1.64043, 1.61475, 1.61147, 1.61009, 1.62661, 1.63057, 1.68322, 1.70478, 1.7231, 1.731, 1.748, 1.71363, 1.69039, 1.61113, 1.55817, 1.58562, 1.57926, 1.57153, 1.579, 1.56283, 1.55864, 1.56408, 1.56164, 1.55437, 1.54659, 1.55037, 1.54569, 1.5585, 1.537, 1.54031, 1.53996, 1.54291, 1.52841, 1.52632, 1.52733, 1.52323, 1.5218, 1.51467, 1.5128, 1.51209, 1.5087, 1.50656, 1.50426, 1.50229, 1.49969, 1.49718, 1.49295, 1.48879, 1.48697, 1.48617, 1.4834, 1.4845, 1.47739, 1.47815, 1.47677, 1.46803, 1.45885, 1.51411, 1.60247, 1.6579, 1.68914, 1.68015, 1.64344, 1.54109, 1.50392, 1.42671, 1.45819, 1.45489, 1.43834, 1.43022, 1.42863, 1.42679, 1.42474, 1.423, 1.42037, 1.41607, 1.4158, 1.41339, 1.41248, 1.41207, 1.4116, 1.41858, 1.40604, 1.40282, 1.40063, 1.39923, 1.3992, 1.39637, 1.39199, 1.39093, 1.38957, 1.39084, 1.3885, 1.38938, 1.38556, 1.3861, 1.38463, 1.38217, 1.38027, 1.37625, 1.37552, 1.36803, 1.36751, 1.36637, 1.36583, 1.36533, 1.36591, 1.36382, 1.3639, 1.36193, 1.36044, 1.36106, 1.35452, 1.35586, 1.35453, 1.35545, 1.3646, 1.35292, 1.34166, 1.34712, 1.37154, 1.3692, 1.3955, 1.39516, 1.41592, 1.41961, 1.4068, 1.38871, 1.37103, 1.3054, 1.3308, 1.33497, 1.32307, 1.31685, 1.31289, 1.3158, 1.33071, 1.31168, 1.3067, 1.30465, 1.30368, 1.303, 1.29727, 
1.65017, 1.64776, 1.64688, 1.64261, 1.65165, 1.64738, 1.65108, 1.63475, 1.63374, 1.62469, 1.61957, 1.61945, 1.61718, 1.61459, 1.59901, 1.66297, 1.67648, 1.67384, 1.71136, 1.71722, 1.7105, 1.709, 1.67238, 1.62795, 1.57549, 1.59645, 1.58267, 1.57584, 1.57265, 1.5711, 1.56703, 1.56416, 1.55831, 1.55587, 1.55192, 1.54872, 1.55171, 1.55413, 1.56076, 1.54759, 1.53511, 1.53251, 1.52974, 1.52603, 1.52456, 1.52279, 1.52183, 1.51968, 1.51715, 1.51266, 1.51153, 1.50944, 1.50585, 1.50248, 1.50079, 1.49814, 1.49545, 1.49218, 1.49006, 1.48714, 1.48219, 1.4826, 1.48172, 1.48157, 1.48045, 1.4545, 1.49841, 1.52821, 1.5762, 1.64092, 1.67673, 1.68172, 1.66776, 1.54853, 1.50884, 1.41431, 1.44422, 1.45339, 1.43509, 1.44343, 1.43096, 1.4296, 1.42885, 1.42867, 1.42582, 1.42311, 1.41931, 1.41525, 1.41954, 1.41634, 1.41361, 1.41248, 1.40972, 1.40702, 1.40509, 1.40273, 1.40143, 1.399, 1.39471, 1.39384, 1.39282, 1.39255, 1.38974, 1.39035, 1.39205, 1.38594, 1.38546, 1.38683, 1.38279, 1.38088, 1.37467, 1.37249, 1.37074, 1.37061, 1.36886, 1.36845, 1.36336, 1.36519, 1.36515, 1.36152, 1.36004, 1.35742, 1.35904, 1.35901, 1.35658, 1.35477, 1.36457, 1.36123, 1.33979, 1.36454, 1.37058, 1.38449, 1.41288, 1.42748, 1.44132, 1.4478, 1.45675, 1.4226, 1.38872, 1.3124, 1.33378, 1.33409, 1.33544, 1.33403, 1.31114, 1.30954, 1.30711, 1.31194, 1.31636, 1.30328, 1.30273, 1.30227, 1.30067, 
1.65769, 1.64565, 1.64551, 1.64365, 1.65516, 1.63897, 1.6483, 1.65801, 1.63503, 1.63616, 1.64037, 1.64182, 1.63319, 1.60245, 1.66588, 1.66446, 1.74025, 1.7354, 1.76799, 1.77999, 1.78328, 1.7546, 1.73458, 1.62459, 1.56592, 1.60375, 1.59657, 1.58475, 1.57855, 1.57704, 1.57452, 1.56995, 1.56565, 1.56213, 1.56401, 1.56109, 1.55311, 1.56843, 1.55286, 1.56388, 1.54378, 1.54426, 1.54197, 1.54164, 1.53835, 1.52596, 1.53347, 1.52438, 1.51918, 1.51617, 1.51343, 1.51276, 1.51256, 1.50883, 1.50579, 1.50231, 1.50032, 1.49579, 1.50885, 1.49259, 1.49144, 1.48835, 1.48658, 1.4868, 1.49859, 1.49704, 1.47627, 1.54783, 1.59837, 1.63973, 1.69269, 1.68658, 1.68132, 1.60219, 1.53431, 1.42646, 1.44832, 1.45405, 1.45013, 1.44278, 1.4413, 1.43708, 1.43532, 1.43199, 1.42952, 1.42619, 1.42659, 1.40908, 1.4217, 1.41975, 1.42371, 1.41769, 1.41721, 1.41569, 1.41194, 1.41003, 1.40603, 1.40615, 1.40205, 1.41077, 1.40062, 1.39675, 1.39373, 1.392, 1.39225, 1.38975, 1.38874, 1.38935, 1.3878, 1.38204, 1.37903, 1.37663, 1.37518, 1.37337, 1.37269, 1.38232, 1.3806, 1.3668, 1.37643, 1.36506, 1.36285, 1.36425, 1.37656, 1.36812, 1.35848, 1.36166, 1.36731, 1.35736, 1.3568, 1.3552, 1.40184, 1.394, 1.44024, 1.44364, 1.44449, 1.44174, 1.44393, 1.42928, 1.37002, 1.32775, 1.3436, 1.34053, 1.33778, 1.34371, 1.31706, 1.33098, 1.3129, 1.31243, 1.30621, 1.30953, 1.30513, 1.30443, 1.30677, 
1.65609, 1.65426, 1.64837, 1.64508, 1.64447, 1.65022, 1.6583, 1.63702, 1.64786, 1.63889, 1.64883, 1.63735, 1.63804, 1.6168, 1.62567, 1.6991, 1.65923, 1.67498, 1.67554, 1.76193, 1.76235, 1.7391, 1.69896, 1.61738, 1.57463, 1.59658, 1.59369, 1.59011, 1.58118, 1.57525, 1.57285, 1.57112, 1.56744, 1.56665, 1.56338, 1.56003, 1.55765, 1.55707, 1.55753, 1.56717, 1.56493, 1.55761, 1.53697, 1.53415, 1.52975, 1.52748, 1.52395, 1.53427, 1.51835, 1.51395, 1.5145, 1.51265, 1.50992, 1.50585, 1.50468, 1.50319, 1.52296, 1.49879, 1.49541, 1.49278, 1.49034, 1.49037, 1.48839, 1.50024, 1.48877, 1.49648, 1.48943, 1.48563, 1.56744, 1.66548, 1.68829, 1.69292, 1.68409, 1.61077, 1.52938, 1.44122, 1.46194, 1.47119, 1.45875, 1.45268, 1.44943, 1.44566, 1.4399, 1.44237, 1.43409, 1.43058, 1.42906, 1.42436, 1.42434, 1.42146, 1.4199, 1.41943, 1.42075, 1.41751, 1.41554, 1.41246, 1.41022, 1.40999, 1.40832, 1.40683, 1.4045, 1.40259, 1.40204, 1.39946, 1.3971, 1.39164, 1.39043, 1.38577, 1.38525, 1.38199, 1.37876, 1.37676, 1.37512, 1.37362, 1.37248, 1.3688, 1.36698, 1.36484, 1.36482, 1.36329, 1.36174, 1.36107, 1.36043, 1.35833, 1.36067, 1.35533, 1.35912, 1.35949, 1.36947, 1.35035, 1.41388, 1.40003, 1.43353, 1.4269, 1.42768, 1.45503, 1.44074, 1.43412, 1.37829, 1.33446, 1.33583, 1.33684, 1.33035, 1.33641, 1.32239, 1.31939, 1.31666, 1.31879, 1.31559, 1.31149, 1.31584, 1.32263, 1.30967, 
1.66307, 1.65917, 1.65571, 1.65355, 1.67525, 1.65079, 1.64559, 1.65446, 1.67964, 1.65608, 1.65707, 1.64104, 1.64092, 1.63716, 1.63485, 1.6313, 1.66427, 1.72767, 1.63575, 1.7691, 1.75279, 1.74314, 1.70714, 1.62118, 1.57561, 1.60906, 1.59609, 1.58988, 1.57942, 1.57913, 1.57638, 1.5718, 1.57167, 1.56666, 1.56945, 1.56066, 1.5664, 1.56575, 1.57173, 1.56006, 1.56701, 1.55175, 1.54209, 1.5384, 1.53662, 1.53235, 1.52812, 1.52461, 1.52157, 1.52058, 1.519, 1.51721, 1.51383, 1.51128, 1.50835, 1.50776, 1.50404, 1.5055, 1.4979, 1.49692, 1.49465, 1.4918, 1.48888, 1.48888, 1.49089, 1.48122, 1.47062, 1.54083, 1.57979, 1.63698, 1.65537, 1.68357, 1.6482, 1.6127, 1.51848, 1.42532, 1.46652, 1.46512, 1.46449, 1.46675, 1.45233, 1.46779, 1.45108, 1.43994, 1.43661, 1.43455, 1.43381, 1.42676, 1.42571, 1.42402, 1.42084, 1.4194, 1.41911, 1.41936, 1.41655, 1.4137, 1.41232, 1.41046, 1.40948, 1.40775, 1.40692, 1.40543, 1.40249, 1.40162, 1.39889, 1.39284, 1.39337, 1.39026, 1.38478, 1.38107, 1.38064, 1.37597, 1.37503, 1.37157, 1.3683, 1.36669, 1.36692, 1.36354, 1.36157, 1.35989, 1.35894, 1.36473, 1.35709, 1.35991, 1.35546, 1.35927, 1.36839, 1.37834, 1.33328, 1.34999, 1.38847, 1.38802, 1.43342, 1.44107, 1.44148, 1.45506, 1.4572, 1.4173, 1.38169, 1.31864, 1.33778, 1.34323, 1.34216, 1.33297, 1.31771, 1.31904, 1.31835, 1.33654, 1.34039, 1.31319, 1.31978, 1.31088, 1.31169, 
1.6615, 1.69735, 1.65773, 1.65386, 1.65189, 1.66578, 1.64781, 1.6498, 1.6711, 1.65991, 1.63825, 1.64452, 1.65056, 1.63813, 1.61254, 1.63159, 1.73711, 1.77255, 1.76112, 1.84461, 1.80756, 1.77536, 1.69619, 1.6177, 1.58852, 1.60236, 1.59431, 1.5865, 1.57811, 1.57774, 1.57285, 1.57074, 1.56899, 1.5666, 1.56416, 1.56062, 1.56434, 1.55702, 1.57377, 1.57166, 1.59592, 1.59706, 1.55397, 1.54505, 1.53979, 1.53347, 1.54052, 1.52997, 1.5256, 1.52363, 1.5227, 1.52, 1.51583, 1.51335, 1.51018, 1.507, 1.50572, 1.50528, 1.51416, 1.49835, 1.49498, 1.50258, 1.49947, 1.49682, 1.5043, 1.49401, 1.47195, 1.51497, 1.55439, 1.67262, 1.66472, 1.68374, 1.68243, 1.6245, 1.53035, 1.43265, 1.44409, 1.4716, 1.46658, 1.46122, 1.46419, 1.4507, 1.4583, 1.45887, 1.44184, 1.43851, 1.43546, 1.43178, 1.43019, 1.42837, 1.42448, 1.42368, 1.42236, 1.42292, 1.41877, 1.41781, 1.41456, 1.41381, 1.41021, 1.40965, 1.40836, 1.40786, 1.4061, 1.40505, 1.39979, 1.39731, 1.39748, 1.39513, 1.39172, 1.38568, 1.38387, 1.38123, 1.37909, 1.37555, 1.37391, 1.37093, 1.36822, 1.36778, 1.36258, 1.36067, 1.36244, 1.3676, 1.36222, 1.36036, 1.38838, 1.3741, 1.36445, 1.36583, 1.37126, 1.37278, 1.41272, 1.45902, 1.44164, 1.45533, 1.45191, 1.45593, 1.44251, 1.41183, 1.40322, 1.36185, 1.32743, 1.34361, 1.33612, 1.3325, 1.32994, 1.34318, 1.31966, 1.316, 1.31533, 1.313, 1.31545, 1.32609, 1.31586, 
1.6681, 1.66484, 1.67279, 1.65738, 1.65172, 1.65716, 1.64584, 1.64496, 1.66318, 1.66969, 1.67149, 1.64113, 1.64081, 1.62402, 1.6143, 1.61793, 1.6732, 1.79661, 1.77149, 1.87618, 1.80247, 1.80247, 1.79471, 1.6474, 1.57144, 1.59755, 1.59444, 1.59502, 1.59299, 1.57942, 1.58227, 1.57342, 1.57253, 1.57013, 1.56842, 1.56497, 1.5716, 1.56064, 1.5662, 1.58598, 1.59314, 1.57122, 1.56669, 1.55153, 1.53998, 1.54774, 1.53476, 1.53213, 1.53314, 1.5292, 1.52587, 1.52303, 1.52087, 1.51762, 1.51725, 1.51355, 1.51014, 1.50773, 1.5057, 1.50308, 1.49774, 1.50305, 1.4975, 1.50429, 1.50681, 1.50655, 1.46731, 1.51537, 1.5592, 1.60622, 1.62286, 1.65578, 1.63518, 1.61336, 1.53382, 1.47927, 1.44259, 1.47085, 1.46662, 1.46319, 1.46168, 1.45804, 1.45644, 1.45339, 1.45007, 1.4456, 1.44234, 1.44064, 1.43478, 1.43143, 1.43132, 1.43048, 1.42794, 1.42752, 1.42486, 1.42107, 1.41885, 1.41924, 1.41575, 1.41098, 1.41035, 1.41002, 1.4069, 1.40392, 1.40144, 1.40007, 1.39931, 1.39607, 1.39205, 1.38999, 1.38644, 1.38238, 1.38103, 1.3785, 1.37193, 1.37417, 1.37397, 1.37164, 1.36946, 1.36747, 1.36703, 1.36722, 1.36743, 1.36667, 1.37475, 1.38073, 1.37217, 1.38226, 1.37804, 1.35023, 1.4105, 1.44416, 1.48645, 1.45517, 1.45709, 1.46452, 1.46376, 1.44672, 1.43657, 1.33281, 1.33022, 1.34436, 1.33104, 1.32934, 1.32609, 1.32298, 1.32337, 1.3207, 1.32225, 1.319, 1.31671, 1.31533, 1.31711, 
1.66524, 1.66222, 1.66096, 1.65541, 1.66158, 1.65081, 1.6494, 1.66072, 1.65474, 1.66639, 1.66247, 1.6382, 1.64429, 1.64609, 1.64082, 1.67844, 1.69623, 1.75553, 1.76804, 1.80423, 1.80458, 1.78684, 1.70538, 1.61666, 1.58027, 1.60199, 1.61047, 1.59503, 1.58616, 1.58893, 1.5842, 1.57866, 1.57618, 1.57427, 1.57191, 1.56882, 1.57145, 1.57592, 1.56094, 1.55898, 1.55881, 1.57431, 1.55514, 1.54766, 1.54026, 1.53841, 1.53673, 1.53416, 1.53342, 1.53154, 1.52936, 1.52709, 1.52455, 1.52118, 1.53588, 1.52306, 1.51191, 1.5105, 1.50655, 1.50561, 1.50331, 1.50245, 1.5009, 1.50049, 1.50642, 1.50658, 1.47159, 1.53278, 1.5683, 1.62999, 1.68905, 1.6779, 1.6753, 1.63414, 1.53366, 1.45068, 1.46721, 1.48091, 1.46864, 1.46185, 1.47473, 1.47169, 1.45749, 1.45159, 1.44956, 1.44689, 1.44734, 1.44199, 1.44061, 1.43803, 1.43567, 1.43482, 1.43236, 1.42948, 1.42691, 1.42613, 1.42337, 1.41946, 1.41761, 1.41571, 1.41364, 1.41279, 1.41066, 1.40924, 1.41298, 1.40374, 1.40274, 1.39847, 1.39587, 1.39127, 1.39147, 1.3879, 1.38812, 1.38372, 1.37967, 1.38082, 1.37796, 1.38186, 1.37686, 1.37374, 1.37309, 1.37164, 1.37103, 1.37388, 1.38059, 1.37959, 1.38494, 1.38906, 1.36063, 1.3848, 1.41624, 1.44386, 1.45432, 1.44912, 1.47919, 1.47432, 1.45749, 1.42651, 1.41992, 1.3821, 1.34158, 1.34835, 1.34747, 1.34808, 1.32809, 1.33077, 1.32983, 1.32799, 1.33148, 1.32532, 1.32309, 1.32471, 1.32302, 
1.66259, 1.67289, 1.65883, 1.6545, 1.64803, 1.6464, 1.64456, 1.65684, 1.64004, 1.66853, 1.66322, 1.65593, 1.62824, 1.62874, 1.60913, 1.67296, 1.70134, 1.71786, 1.80227, 1.80722, 1.8158, 1.77742, 1.7628, 1.63163, 1.59939, 1.60596, 1.61089, 1.59304, 1.58605, 1.58563, 1.57939, 1.57839, 1.57368, 1.5774, 1.56937, 1.56656, 1.56344, 1.56008, 1.56043, 1.57463, 1.55786, 1.56455, 1.55911, 1.57444, 1.54129, 1.53786, 1.53656, 1.53457, 1.53284, 1.53124, 1.52956, 1.5279, 1.52256, 1.5304, 1.51341, 1.50998, 1.50723, 1.50426, 1.50251, 1.49963, 1.49858, 1.4957, 1.49562, 1.49642, 1.49693, 1.494, 1.46948, 1.50429, 1.61558, 1.63979, 1.65832, 1.70363, 1.67894, 1.63967, 1.55829, 1.50184, 1.45714, 1.47803, 1.46954, 1.45636, 1.46122, 1.44989, 1.45603, 1.44555, 1.44364, 1.4385, 1.43775, 1.43505, 1.4367, 1.43305, 1.43019, 1.43005, 1.4269, 1.42326, 1.42505, 1.42252, 1.42117, 1.41968, 1.42107, 1.41608, 1.4163, 1.41102, 1.41063, 1.41171, 1.40601, 1.40566, 1.40314, 1.3994, 1.40354, 1.39695, 1.39334, 1.39238, 1.39131, 1.38866, 1.38519, 1.38245, 1.38071, 1.37822, 1.37613, 1.37429, 1.37483, 1.37527, 1.37226, 1.37037, 1.38481, 1.36859, 1.38068, 1.37115, 1.37365, 1.38891, 1.40285, 1.44756, 1.47514, 1.46867, 1.47294, 1.47662, 1.47872, 1.43868, 1.40992, 1.41342, 1.33621, 1.34107, 1.33685, 1.33717, 1.33273, 1.32974, 1.33307, 1.34113, 1.32796, 1.33023, 1.32546, 1.32574, 1.32102, 
1.66672, 1.66645, 1.66113, 1.65671, 1.65292, 1.65024, 1.64941, 1.64367, 1.64741, 1.6546, 1.64915, 1.65183, 1.6509, 1.62749, 1.61814, 1.64687, 1.69263, 1.71669, 1.75608, 1.82659, 1.82255, 1.80167, 1.71202, 1.65199, 1.57964, 1.60966, 1.59663, 1.59504, 1.59983, 1.5831, 1.58203, 1.57571, 1.57242, 1.56902, 1.56556, 1.56234, 1.5626, 1.56077, 1.55799, 1.57139, 1.55292, 1.57112, 1.56104, 1.56112, 1.56542, 1.54501, 1.53162, 1.52984, 1.52956, 1.52971, 1.5289, 1.524, 1.51833, 1.51691, 1.51532, 1.51222, 1.5034, 1.50188, 1.50325, 1.49406, 1.50646, 1.49164, 1.50275, 1.49265, 1.49635, 1.4922, 1.47443, 1.49152, 1.57174, 1.61305, 1.67793, 1.68426, 1.67979, 1.62237, 1.55938, 1.45788, 1.44683, 1.46466, 1.46548, 1.45984, 1.45057, 1.44564, 1.44978, 1.43887, 1.43859, 1.43405, 1.43274, 1.43727, 1.43243, 1.4299, 1.42735, 1.42729, 1.4304, 1.42041, 1.4192, 1.41912, 1.42069, 1.41785, 1.41755, 1.41469, 1.41435, 1.41287, 1.40905, 1.40772, 1.40608, 1.40644, 1.40507, 1.40393, 1.40878, 1.39922, 1.39747, 1.39547, 1.39294, 1.38671, 1.38817, 1.38308, 1.38039, 1.37858, 1.37819, 1.37677, 1.3782, 1.37097, 1.37032, 1.38261, 1.37001, 1.36652, 1.37965, 1.37017, 1.37735, 1.369, 1.38204, 1.39694, 1.44374, 1.45336, 1.48128, 1.48239, 1.4742, 1.48799, 1.44063, 1.38421, 1.33982, 1.34916, 1.33656, 1.34364, 1.33711, 1.34428, 1.33301, 1.33112, 1.34, 1.32407, 1.32248, 1.31963, 1.34815, 
1.6687, 1.66542, 1.6623, 1.66048, 1.65616, 1.65254, 1.64869, 1.66108, 1.65465, 1.64202, 1.64835, 1.65368, 1.6643, 1.64234, 1.62175, 1.62685, 1.64382, 1.71383, 1.76005, 1.80715, 1.8186, 1.80849, 1.77025, 1.69622, 1.57579, 1.61778, 1.60292, 1.58736, 1.58268, 1.57851, 1.57802, 1.57623, 1.5749, 1.57128, 1.57502, 1.56408, 1.56358, 1.56143, 1.55949, 1.55267, 1.55035, 1.54558, 1.54912, 1.56407, 1.55455, 1.53751, 1.53133, 1.53003, 1.53073, 1.53228, 1.53744, 1.5269, 1.52232, 1.51694, 1.50953, 1.51663, 1.50096, 1.49349, 1.50645, 1.48623, 1.49287, 1.49, 1.50745, 1.49012, 1.51615, 1.50208, 1.46569, 1.4998, 1.59339, 1.64353, 1.66711, 1.61411, 1.60998, 1.62653, 1.61614, 1.46064, 1.42424, 1.4714, 1.45854, 1.45881, 1.45178, 1.4516, 1.45302, 1.44057, 1.43773, 1.43659, 1.43662, 1.43322, 1.43111, 1.42976, 1.42568, 1.42487, 1.42189, 1.41892, 1.41695, 1.41665, 1.41906, 1.4174, 1.41711, 1.42979, 1.41288, 1.41188, 1.40745, 1.40631, 1.40471, 1.40313, 1.40136, 1.39733, 1.39519, 1.39455, 1.39215, 1.3882, 1.38686, 1.3842, 1.37871, 1.37776, 1.37719, 1.37398, 1.37483, 1.3716, 1.3709, 1.37057, 1.36888, 1.36825, 1.36619, 1.36433, 1.36761, 1.36616, 1.36533, 1.36057, 1.44087, 1.42054, 1.46954, 1.4755, 1.50284, 1.49383, 1.50304, 1.46833, 1.44036, 1.35784, 1.31305, 1.34349, 1.34262, 1.33704, 1.33548, 1.33106, 1.32882, 1.32703, 1.32513, 1.32265, 1.31958, 1.31758, 1.31932, 
1.68218, 1.67853, 1.67509, 1.67204, 1.67071, 1.6661, 1.66513, 1.66331, 1.66141, 1.65589, 1.66291, 1.65889, 1.67393, 1.66219, 1.62062, 1.61761, 1.63734, 1.73157, 1.76857, 1.89411, 1.84954, 1.84806, 1.7841, 1.64311, 1.60616, 1.60924, 1.61631, 1.59623, 1.59634, 1.59564, 1.59841, 1.58784, 1.58303, 1.58059, 1.57862, 1.57718, 1.57784, 1.57385, 1.57035, 1.56112, 1.56239, 1.55783, 1.554, 1.55547, 1.55122, 1.56136, 1.56073, 1.56169, 1.55053, 1.53764, 1.53217, 1.5322, 1.5309, 1.52926, 1.52309, 1.51703, 1.52392, 1.51365, 1.51255, 1.51211, 1.50538, 1.50439, 1.50489, 1.50617, 1.51626, 1.52003, 1.50214, 1.55036, 1.57126, 1.60293, 1.63426, 1.63795, 1.63035, 1.62848, 1.61251, 1.48157, 1.45371, 1.47438, 1.48014, 1.47281, 1.46766, 1.46845, 1.45699, 1.46468, 1.44812, 1.44711, 1.44675, 1.44427, 1.44157, 1.43717, 1.43466, 1.43022, 1.42603, 1.42409, 1.42576, 1.42617, 1.42976, 1.43117, 1.42963, 1.4247, 1.41763, 1.41464, 1.41465, 1.41582, 1.4149, 1.41299, 1.42096, 1.40723, 1.40186, 1.39713, 1.39564, 1.39395, 1.39474, 1.39674, 1.4031, 1.38961, 1.38478, 1.3836, 1.38575, 1.38136, 1.37651, 1.3745, 1.37471, 1.37469, 1.37458, 1.37347, 1.37741, 1.38142, 1.38498, 1.34496, 1.37119, 1.39945, 1.4654, 1.53811, 1.50879, 1.50659, 1.50326, 1.46544, 1.45433, 1.38244, 1.35341, 1.35854, 1.36059, 1.34901, 1.34426, 1.33382, 1.33461, 1.33727, 1.33769, 1.33638, 1.33337, 1.32677, 1.32407, 
1.68126, 1.67079, 1.65756, 1.65557, 1.6547, 1.6826, 1.65243, 1.65569, 1.6578, 1.65521, 1.65222, 1.64705, 1.6563, 1.64821, 1.61613, 1.66651, 1.69078, 1.70937, 1.77473, 1.82111, 1.84608, 1.83636, 1.79606, 1.6581, 1.60287, 1.60174, 1.61559, 1.6025, 1.59349, 1.59561, 1.5842, 1.57282, 1.56531, 1.56305, 1.56827, 1.57029, 1.56976, 1.56522, 1.57134, 1.55352, 1.55401, 1.55631, 1.55581, 1.57289, 1.56442, 1.57888, 1.55838, 1.55401, 1.54463, 1.52942, 1.52728, 1.53274, 1.54126, 1.5266, 1.5224, 1.53477, 1.51335, 1.5109, 1.52062, 1.51114, 1.51523, 1.50667, 1.50628, 1.50345, 1.51023, 1.51718, 1.46976, 1.51083, 1.56754, 1.62765, 1.66097, 1.67238, 1.67122, 1.60087, 1.58391, 1.51275, 1.45112, 1.44386, 1.4742, 1.47128, 1.50377, 1.46427, 1.46475, 1.4635, 1.45444, 1.45378, 1.45413, 1.45002, 1.44991, 1.45428, 1.44289, 1.43375, 1.42631, 1.42442, 1.42575, 1.43063, 1.43336, 1.43016, 1.42752, 1.41984, 1.41582, 1.41314, 1.41432, 1.41428, 1.41171, 1.4098, 1.4074, 1.40508, 1.40243, 1.40424, 1.41282, 1.39433, 1.3921, 1.39161, 1.39234, 1.38852, 1.38585, 1.38515, 1.38578, 1.37779, 1.39912, 1.37234, 1.3752, 1.37797, 1.38047, 1.37206, 1.37391, 1.37809, 1.37834, 1.36713, 1.4085, 1.45435, 1.48253, 1.49166, 1.52064, 1.48497, 1.54012, 1.55128, 1.46539, 1.38785, 1.33979, 1.34597, 1.34732, 1.3549, 1.35388, 1.34118, 1.33817, 1.33812, 1.34393, 1.33127, 1.33874, 1.32473, 1.32727, 
1.67481, 1.66569, 1.66525, 1.65455, 1.66175, 1.65073, 1.66178, 1.65747, 1.65746, 1.65316, 1.64907, 1.63712, 1.62977, 1.64769, 1.60557, 1.62835, 1.66871, 1.73202, 1.75496, 1.81719, 1.89165, 1.8681, 1.83294, 1.72871, 1.58629, 1.59565, 1.60919, 1.60218, 1.61746, 1.59627, 1.58952, 1.57152, 1.5624, 1.55943, 1.57115, 1.57019, 1.56954, 1.56849, 1.57179, 1.57138, 1.54502, 1.54586, 1.54428, 1.54228, 1.55146, 1.54754, 1.56127, 1.55058, 1.54453, 1.53375, 1.53474, 1.53301, 1.53065, 1.52943, 1.52393, 1.52364, 1.52944, 1.50994, 1.52382, 1.51062, 1.50965, 1.49993, 1.49657, 1.49642, 1.50248, 1.49865, 1.46909, 1.47135, 1.53369, 1.60606, 1.61047, 1.64008, 1.64473, 1.67297, 1.57862, 1.50222, 1.43711, 1.44082, 1.47172, 1.46759, 1.48402, 1.47208, 1.46208, 1.45411, 1.45536, 1.4555, 1.45314, 1.44342, 1.43418, 1.43376, 1.42813, 1.42652, 1.41647, 1.41362, 1.41573, 1.42958, 1.43143, 1.42736, 1.41981, 1.40993, 1.39953, 1.39673, 1.39274, 1.39356, 1.39343, 1.39272, 1.39205, 1.38601, 1.38557, 1.38631, 1.38034, 1.37435, 1.37208, 1.37285, 1.37277, 1.3756, 1.3791, 1.38211, 1.38409, 1.37813, 1.37085, 1.36457, 1.35871, 1.35569, 1.35715, 1.3571, 1.36004, 1.36928, 1.37823, 1.34578, 1.40002, 1.48443, 1.47262, 1.50441, 1.50695, 1.52428, 1.52682, 1.51734, 1.45623, 1.39248, 1.33891, 1.36195, 1.35075, 1.3545, 1.33889, 1.33871, 1.35076, 1.32878, 1.31613, 1.31115, 1.30842, 1.3094, 1.30544, 
1.67515, 1.67498, 1.67164, 1.67486, 1.66753, 1.66408, 1.66481, 1.6614, 1.66388, 1.67534, 1.65478, 1.648, 1.64824, 1.63834, 1.61986, 1.62355, 1.67635, 1.75496, 1.81076, 1.85812, 1.88576, 1.88352, 1.8241, 1.69093, 1.60984, 1.62927, 1.61402, 1.6193, 1.6088, 1.60168, 1.61678, 1.60955, 1.59073, 1.59277, 1.57929, 1.57805, 1.57757, 1.57471, 1.57111, 1.56823, 1.57282, 1.58242, 1.56079, 1.55872, 1.56895, 1.55599, 1.56978, 1.57444, 1.55421, 1.55127, 1.54324, 1.53571, 1.531, 1.52969, 1.52672, 1.52681, 1.54805, 1.55112, 1.52098, 1.52449, 1.51468, 1.52247, 1.5159, 1.51371, 1.51341, 1.52596, 1.51436, 1.50673, 1.56812, 1.612, 1.6626, 1.66278, 1.66893, 1.64059, 1.6, 1.55655, 1.45454, 1.481, 1.48478, 1.47038, 1.49499, 1.49862, 1.48136, 1.48496, 1.47118, 1.46722, 1.45406, 1.45168, 1.44707, 1.44204, 1.4388, 1.4369, 1.4357, 1.43637, 1.43639, 1.43615, 1.43393, 1.43421, 1.42958, 1.42631, 1.42368, 1.42152, 1.41757, 1.4135, 1.4106, 1.42317, 1.41234, 1.40926, 1.40594, 1.40469, 1.39934, 1.39822, 1.39968, 1.39831, 1.3981, 1.39466, 1.40681, 1.39426, 1.39404, 1.39125, 1.38676, 1.38533, 1.39081, 1.37993, 1.37877, 1.37582, 1.39264, 1.38166, 1.38586, 1.36896, 1.40375, 1.42897, 1.45945, 1.47579, 1.51716, 1.51702, 1.59381, 1.45263, 1.45702, 1.39278, 1.34272, 1.35482, 1.35894, 1.34708, 1.3476, 1.35795, 1.33783, 1.36012, 1.339, 1.33653, 1.33647, 1.33121, 1.33124, 
1.66667, 1.66489, 1.66318, 1.66091, 1.66008, 1.65722, 1.6571, 1.65379, 1.64567, 1.64351, 1.65127, 1.63639, 1.63847, 1.6339, 1.61633, 1.60572, 1.67663, 1.73665, 1.76829, 1.78934, 1.85668, 1.85084, 1.84025, 1.72767, 1.6315, 1.60747, 1.6032, 1.60853, 1.59335, 1.59879, 1.58137, 1.58886, 1.57206, 1.56824, 1.56827, 1.6, 1.58203, 1.56084, 1.56235, 1.56086, 1.55614, 1.55252, 1.55091, 1.54879, 1.54769, 1.54593, 1.55055, 1.556, 1.54418, 1.53356, 1.52756, 1.53402, 1.51973, 1.51787, 1.51745, 1.51495, 1.51401, 1.51126, 1.51185, 1.51026, 1.50689, 1.50678, 1.50015, 1.50139, 1.50057, 1.50191, 1.50059, 1.5129, 1.53894, 1.58161, 1.62652, 1.63596, 1.63174, 1.61846, 1.5853, 1.54768, 1.47874, 1.46832, 1.46421, 1.47387, 1.46032, 1.47908, 1.46828, 1.4521, 1.45743, 1.44108, 1.44334, 1.43528, 1.42933, 1.42817, 1.42928, 1.4303, 1.42998, 1.42956, 1.42758, 1.42555, 1.42286, 1.42153, 1.42218, 1.41932, 1.41554, 1.41876, 1.41031, 1.41064, 1.40974, 1.40427, 1.40352, 1.412, 1.39854, 1.39495, 1.39211, 1.39034, 1.38651, 1.38442, 1.3797, 1.37981, 1.37865, 1.37874, 1.37751, 1.37755, 1.37742, 1.38151, 1.37337, 1.37233, 1.37154, 1.37426, 1.36921, 1.37116, 1.37113, 1.34872, 1.38751, 1.43516, 1.44068, 1.48325, 1.50129, 1.51077, 1.51138, 1.48842, 1.45405, 1.37181, 1.35849, 1.35007, 1.36395, 1.34761, 1.34331, 1.34079, 1.32815, 1.32964, 1.3437, 1.32487, 1.32488, 1.32494, 1.32582, 
1.66063, 1.65727, 1.65358, 1.6527, 1.65033, 1.64946, 1.6448, 1.64791, 1.64321, 1.64447, 1.63621, 1.63446, 1.63537, 1.63461, 1.62715, 1.59331, 1.63427, 1.70797, 1.76762, 1.78835, 1.84909, 1.87635, 1.80353, 1.71602, 1.56404, 1.59558, 1.5969, 1.58372, 1.58015, 1.57774, 1.57289, 1.56986, 1.5672, 1.56492, 1.57448, 1.55552, 1.55102, 1.55019, 1.54798, 1.54584, 1.54429, 1.54187, 1.54044, 1.54234, 1.55276, 1.53977, 1.53381, 1.53055, 1.54691, 1.5303, 1.52373, 1.52443, 1.52003, 1.51276, 1.51181, 1.52053, 1.50593, 1.50178, 1.50128, 1.49685, 1.49206, 1.49083, 1.48874, 1.48668, 1.48757, 1.5054, 1.47039, 1.49589, 1.54798, 1.57858, 1.58627, 1.62475, 1.62283, 1.59194, 1.5799, 1.54242, 1.46597, 1.46456, 1.45714, 1.46485, 1.45436, 1.46735, 1.46379, 1.45846, 1.44098, 1.43465, 1.44118, 1.4282, 1.44014, 1.42543, 1.4258, 1.42601, 1.42651, 1.42598, 1.4235, 1.4203, 1.41658, 1.41364, 1.41174, 1.40926, 1.40613, 1.40316, 1.4028, 1.40872, 1.40778, 1.39605, 1.3909, 1.38809, 1.38626, 1.38432, 1.38189, 1.37955, 1.37897, 1.37307, 1.37263, 1.37122, 1.37168, 1.37047, 1.37572, 1.36766, 1.37007, 1.36467, 1.36298, 1.36095, 1.36073, 1.37723, 1.36123, 1.37803, 1.37841, 1.34428, 1.38441, 1.3805, 1.42969, 1.46938, 1.5198, 1.528, 1.54799, 1.55165, 1.48488, 1.433, 1.32262, 1.36015, 1.34734, 1.35784, 1.32441, 1.32579, 1.32325, 1.33489, 1.31866, 1.31911, 1.31793, 1.31842, 1.31683, 
1.67045, 1.66799, 1.66813, 1.66177, 1.68205, 1.65549, 1.66873, 1.65745, 1.65552, 1.64467, 1.6416, 1.63167, 1.63456, 1.62978, 1.63478, 1.60089, 1.6617, 1.68782, 1.74744, 1.81966, 1.86326, 1.86912, 1.81726, 1.68447, 1.58623, 1.59336, 1.61069, 1.59577, 1.59553, 1.5836, 1.58026, 1.59558, 1.58162, 1.57213, 1.57114, 1.56698, 1.58457, 1.55717, 1.55427, 1.55055, 1.55019, 1.54763, 1.54399, 1.53997, 1.55116, 1.53873, 1.54381, 1.53073, 1.54527, 1.53906, 1.54019, 1.53414, 1.52363, 1.52767, 1.51705, 1.51539, 1.51671, 1.50465, 1.50099, 1.50061, 1.50359, 1.49603, 1.49239, 1.50258, 1.51105, 1.50224, 1.50591, 1.48176, 1.50978, 1.59274, 1.59739, 1.6406, 1.64072, 1.61236, 1.57348, 1.53742, 1.48657, 1.45132, 1.47209, 1.4649, 1.45796, 1.45814, 1.45884, 1.46442, 1.44027, 1.44471, 1.43358, 1.44062, 1.43597, 1.4331, 1.43261, 1.43003, 1.42616, 1.4241, 1.42334, 1.41937, 1.41987, 1.41909, 1.42429, 1.41348, 1.41197, 1.41227, 1.41634, 1.40785, 1.40664, 1.40412, 1.41144, 1.39716, 1.39331, 1.39583, 1.38799, 1.38462, 1.38475, 1.38188, 1.37921, 1.37892, 1.3873, 1.37669, 1.37541, 1.37986, 1.37187, 1.36924, 1.368, 1.3807, 1.36769, 1.36299, 1.36923, 1.36754, 1.36601, 1.35205, 1.33547, 1.39713, 1.43348, 1.47645, 1.50619, 1.52389, 1.54497, 1.52642, 1.46479, 1.38956, 1.34189, 1.34767, 1.34815, 1.34505, 1.35132, 1.34614, 1.33341, 1.33372, 1.32545, 1.32224, 1.32148, 1.32252, 1.32715, 
1.65859, 1.65462, 1.65136, 1.64847, 1.64586, 1.64427, 1.64006, 1.63718, 1.63428, 1.62759, 1.63374, 1.61672, 1.62014, 1.61914, 1.60691, 1.58751, 1.6343, 1.68619, 1.76705, 1.80757, 1.88313, 1.87247, 1.84772, 1.74424, 1.56201, 1.58518, 1.58051, 1.57497, 1.58454, 1.57129, 1.57094, 1.56661, 1.56334, 1.56039, 1.58225, 1.55735, 1.55396, 1.55377, 1.55071, 1.54832, 1.54567, 1.54191, 1.53838, 1.53104, 1.54781, 1.52604, 1.52036, 1.53291, 1.52057, 1.5339, 1.53209, 1.51285, 1.51906, 1.50629, 1.50161, 1.49968, 1.49634, 1.49412, 1.4915, 1.48902, 1.48585, 1.48246, 1.4822, 1.48859, 1.48241, 1.4922, 1.45198, 1.46809, 1.53328, 1.56498, 1.62627, 1.62593, 1.62073, 1.62081, 1.58915, 1.50776, 1.46059, 1.4339, 1.46049, 1.46297, 1.46461, 1.45032, 1.45172, 1.45991, 1.45105, 1.4343, 1.4264, 1.42961, 1.42318, 1.42075, 1.41798, 1.41497, 1.41389, 1.42114, 1.40887, 1.40496, 1.40145, 1.40078, 1.40066, 1.39785, 1.40989, 1.39135, 1.39143, 1.38787, 1.38434, 1.38302, 1.38097, 1.37801, 1.37761, 1.37713, 1.37514, 1.37263, 1.37167, 1.3694, 1.36561, 1.36419, 1.36342, 1.3615, 1.35914, 1.35756, 1.35469, 1.35429, 1.35176, 1.34851, 1.34709, 1.34678, 1.34711, 1.34732, 1.35158, 1.31554, 1.34942, 1.37893, 1.40125, 1.44782, 1.50457, 1.50632, 1.54437, 1.52635, 1.46955, 1.39317, 1.30888, 1.3368, 1.32678, 1.32348, 1.31749, 1.31577, 1.31256, 1.31225, 1.30959, 1.30615, 1.30487, 1.30386, 1.3009, 
1.65454, 1.6488, 1.64694, 1.64409, 1.64214, 1.64007, 1.63566, 1.64187, 1.63088, 1.62541, 1.62267, 1.63172, 1.61441, 1.62589, 1.62334, 1.57879, 1.64587, 1.67905, 1.73929, 1.80409, 1.8788, 1.86579, 1.85965, 1.76938, 1.61325, 1.57931, 1.58308, 1.58523, 1.5756, 1.57169, 1.56838, 1.5631, 1.56179, 1.55761, 1.55491, 1.55316, 1.55216, 1.55142, 1.54761, 1.54647, 1.54343, 1.53832, 1.53313, 1.53107, 1.52729, 1.52335, 1.52061, 1.52318, 1.51727, 1.51889, 1.52578, 1.51665, 1.51438, 1.50904, 1.50355, 1.50065, 1.49964, 1.49916, 1.49825, 1.5039, 1.48867, 1.48954, 1.48563, 1.48526, 1.50316, 1.49608, 1.47806, 1.4665, 1.5054, 1.56161, 1.58546, 1.63463, 1.61666, 1.59008, 1.59615, 1.56156, 1.50349, 1.43282, 1.46163, 1.46633, 1.44799, 1.45081, 1.45162, 1.46429, 1.44687, 1.4374, 1.42957, 1.42588, 1.42358, 1.41752, 1.41925, 1.41289, 1.40985, 1.40648, 1.40341, 1.40201, 1.40216, 1.39834, 1.39585, 1.39381, 1.3913, 1.38911, 1.38791, 1.38777, 1.38358, 1.38501, 1.3805, 1.37964, 1.37793, 1.3759, 1.37407, 1.37189, 1.36989, 1.3677, 1.36385, 1.36069, 1.36202, 1.35682, 1.35618, 1.35468, 1.35283, 1.34898, 1.34765, 1.34479, 1.34384, 1.3424, 1.34404, 1.34349, 1.35152, 1.3541, 1.3615, 1.40694, 1.47113, 1.50102, 1.53546, 1.54262, 1.5358, 1.51816, 1.48536, 1.39161, 1.30723, 1.32784, 1.32388, 1.32316, 1.31049, 1.31225, 1.30977, 1.30653, 1.30528, 1.30164, 1.3011, 1.30129, 1.30398, 
1.64886, 1.64506, 1.64132, 1.63711, 1.63519, 1.63101, 1.65421, 1.62708, 1.62604, 1.63063, 1.62282, 1.62249, 1.62058, 1.62752, 1.61926, 1.59533, 1.64022, 1.67904, 1.75422, 1.81255, 1.85846, 1.89681, 1.85252, 1.6397, 1.59069, 1.55872, 1.58561, 1.58399, 1.5785, 1.57338, 1.56721, 1.57471, 1.55883, 1.55762, 1.5526, 1.54955, 1.54178, 1.53764, 1.54091, 1.5438, 1.54296, 1.54443, 1.53524, 1.55233, 1.52973, 1.53052, 1.53378, 1.52255, 1.52608, 1.51733, 1.52051, 1.53643, 1.52415, 1.5088, 1.50912, 1.50708, 1.50278, 1.50077, 1.50012, 1.49855, 1.49576, 1.49332, 1.48816, 1.48713, 1.49156, 1.48829, 1.48525, 1.45801, 1.49176, 1.53342, 1.5968, 1.6133, 1.61574, 1.59709, 1.58993, 1.53103, 1.49028, 1.44273, 1.45216, 1.45886, 1.45033, 1.46113, 1.44566, 1.46176, 1.46181, 1.44194, 1.42931, 1.44147, 1.43419, 1.42253, 1.43799, 1.41748, 1.41582, 1.41281, 1.41102, 1.40887, 1.40745, 1.40508, 1.40096, 1.40172, 1.39904, 1.39793, 1.39745, 1.39484, 1.39381, 1.39226, 1.38853, 1.388, 1.38608, 1.38509, 1.38145, 1.38006, 1.3759, 1.37458, 1.37583, 1.36828, 1.36574, 1.36417, 1.36277, 1.36154, 1.35882, 1.35605, 1.35468, 1.35478, 1.35183, 1.35048, 1.35091, 1.35164, 1.37848, 1.34126, 1.34925, 1.36388, 1.46021, 1.46755, 1.52657, 1.52665, 1.52606, 1.48867, 1.4637, 1.41712, 1.33937, 1.33633, 1.32356, 1.32979, 1.31711, 1.31412, 1.31334, 1.31243, 1.31054, 1.30708, 1.30849, 1.30716, 1.30605, 
1.65121, 1.64994, 1.64427, 1.64165, 1.64467, 1.64346, 1.63177, 1.62714, 1.62669, 1.62615, 1.62063, 1.62119, 1.63612, 1.61676, 1.62381, 1.59994, 1.65421, 1.6892, 1.73753, 1.82989, 1.8718, 1.87695, 1.8107, 1.74238, 1.65167, 1.58435, 1.58249, 1.58483, 1.57305, 1.57071, 1.5665, 1.56203, 1.5588, 1.5539, 1.55073, 1.5537, 1.54791, 1.54052, 1.54043, 1.54386, 1.5423, 1.5396, 1.53561, 1.52987, 1.52725, 1.52536, 1.52294, 1.5199, 1.51889, 1.51643, 1.51329, 1.53246, 1.52378, 1.51616, 1.501, 1.49966, 1.49924, 1.49496, 1.48852, 1.48795, 1.48554, 1.49161, 1.48154, 1.48233, 1.50618, 1.48821, 1.48212, 1.45743, 1.49236, 1.5284, 1.62681, 1.59755, 1.58986, 1.57971, 1.55629, 1.51089, 1.4798, 1.42686, 1.46096, 1.44708, 1.43923, 1.43463, 1.43151, 1.43978, 1.44855, 1.45743, 1.42859, 1.42293, 1.42118, 1.43615, 1.42754, 1.41632, 1.41289, 1.41369, 1.41475, 1.40919, 1.40667, 1.4072, 1.39845, 1.39908, 1.40192, 1.40236, 1.39541, 1.39444, 1.39229, 1.39194, 1.39005, 1.3863, 1.38484, 1.38172, 1.37835, 1.37558, 1.37673, 1.37172, 1.36968, 1.3641, 1.36278, 1.36289, 1.36251, 1.36052, 1.3708, 1.37445, 1.3558, 1.3548, 1.3546, 1.35796, 1.34827, 1.36061, 1.36072, 1.3411, 1.36382, 1.43754, 1.46148, 1.47195, 1.49983, 1.54129, 1.54738, 1.60999, 1.43824, 1.38984, 1.3092, 1.32973, 1.34042, 1.32028, 1.32277, 1.31257, 1.31109, 1.31157, 1.30852, 1.31001, 1.30864, 1.30647, 1.30399, 
1.66077, 1.65792, 1.65446, 1.65865, 1.65266, 1.6455, 1.66657, 1.64987, 1.65538, 1.63695, 1.62786, 1.62443, 1.62134, 1.61865, 1.61931, 1.59561, 1.60921, 1.68399, 1.73081, 1.80419, 1.85565, 1.94066, 1.80658, 1.71406, 1.59738, 1.57949, 1.59565, 1.58969, 1.57785, 1.57561, 1.56917, 1.58986, 1.55978, 1.55716, 1.57428, 1.55198, 1.5509, 1.54936, 1.54842, 1.5446, 1.54199, 1.5408, 1.53523, 1.53219, 1.52899, 1.5268, 1.52394, 1.54064, 1.52064, 1.52238, 1.51694, 1.502, 1.51695, 1.53696, 1.51062, 1.50103, 1.49781, 1.50271, 1.49182, 1.49065, 1.49912, 1.48517, 1.48432, 1.48209, 1.49178, 1.4966, 1.50165, 1.45417, 1.50257, 1.54318, 1.59592, 1.60964, 1.61005, 1.58502, 1.57588, 1.55776, 1.47434, 1.44322, 1.46143, 1.45511, 1.46213, 1.43473, 1.4375, 1.43347, 1.43661, 1.46056, 1.44978, 1.42735, 1.42303, 1.41801, 1.42776, 1.41455, 1.41218, 1.41023, 1.4093, 1.40832, 1.4051, 1.40276, 1.39935, 1.39884, 1.39809, 1.39456, 1.39356, 1.39243, 1.38957, 1.38847, 1.38498, 1.38452, 1.38123, 1.37821, 1.37577, 1.37381, 1.37121, 1.36871, 1.36844, 1.36439, 1.36316, 1.36196, 1.35893, 1.35992, 1.36002, 1.36364, 1.36567, 1.35364, 1.35935, 1.35484, 1.35061, 1.35914, 1.35442, 1.3709, 1.33518, 1.40789, 1.43604, 1.49607, 1.50269, 1.54898, 1.5417, 1.5407, 1.39791, 1.41032, 1.30524, 1.33182, 1.33634, 1.33083, 1.3195, 1.31844, 1.31441, 1.33143, 1.3137, 1.31099, 1.30956, 1.31647, 1.30663, 
1.65791, 1.6549, 1.65073, 1.65077, 1.64909, 1.6444, 1.63833, 1.63697, 1.63188, 1.63018, 1.62975, 1.62357, 1.6199, 1.61874, 1.63007, 1.60706, 1.62305, 1.67947, 1.72597, 1.78288, 1.83829, 1.87321, 1.89772, 1.72173, 1.66437, 1.55708, 1.5973, 1.58154, 1.57475, 1.5716, 1.56448, 1.56631, 1.56954, 1.554, 1.55188, 1.55159, 1.54902, 1.54774, 1.5447, 1.54344, 1.53994, 1.53872, 1.53684, 1.53389, 1.53086, 1.52701, 1.52172, 1.51974, 1.51711, 1.51433, 1.51926, 1.51014, 1.52788, 1.52485, 1.51413, 1.49775, 1.49394, 1.49209, 1.49195, 1.49588, 1.48878, 1.48338, 1.4811, 1.48815, 1.48182, 1.49839, 1.47411, 1.44936, 1.51268, 1.55175, 1.55181, 1.59231, 1.59555, 1.58938, 1.53304, 1.50229, 1.4874, 1.46194, 1.44617, 1.45782, 1.44961, 1.43568, 1.43302, 1.43353, 1.43435, 1.4432, 1.4374, 1.43065, 1.43271, 1.43572, 1.41385, 1.41238, 1.40914, 1.40899, 1.40709, 1.40586, 1.40452, 1.40324, 1.39914, 1.39648, 1.39498, 1.39394, 1.39469, 1.39524, 1.38938, 1.38628, 1.38517, 1.38164, 1.37872, 1.37665, 1.37792, 1.37588, 1.37105, 1.36836, 1.36736, 1.36702, 1.36554, 1.36374, 1.36082, 1.36009, 1.35866, 1.35712, 1.35678, 1.36208, 1.35347, 1.36791, 1.35947, 1.35749, 1.35175, 1.36468, 1.33326, 1.42412, 1.43336, 1.49163, 1.52253, 1.54611, 1.55119, 1.52607, 1.49637, 1.43088, 1.32488, 1.34365, 1.34718, 1.33625, 1.33462, 1.34275, 1.32124, 1.32276, 1.32261, 1.32393, 1.31637, 1.31033, 1.30829, 
1.65569, 1.65417, 1.64907, 1.64556, 1.64206, 1.64047, 1.63762, 1.63361, 1.6312, 1.6285, 1.62618, 1.62316, 1.62082, 1.61992, 1.63047, 1.60183, 1.59301, 1.66881, 1.70757, 1.76673, 1.80832, 1.92122, 1.94577, 1.80139, 1.58219, 1.56685, 1.58739, 1.58054, 1.57471, 1.56948, 1.56558, 1.56739, 1.56034, 1.55764, 1.56039, 1.55607, 1.5533, 1.55094, 1.54845, 1.54653, 1.54217, 1.53709, 1.53657, 1.53524, 1.53237, 1.52879, 1.52681, 1.52313, 1.5195, 1.51662, 1.51346, 1.51309, 1.51073, 1.52364, 1.52078, 1.50756, 1.49907, 1.4972, 1.50018, 1.49273, 1.49119, 1.48908, 1.48667, 1.48558, 1.48449, 1.48558, 1.48296, 1.45693, 1.47487, 1.52115, 1.57441, 1.57116, 1.57833, 1.58644, 1.57268, 1.5231, 1.50298, 1.43866, 1.46119, 1.46257, 1.45455, 1.44019, 1.43936, 1.4341, 1.43184, 1.43192, 1.45404, 1.45433, 1.43947, 1.41978, 1.42323, 1.41275, 1.41193, 1.4089, 1.40708, 1.40556, 1.4056, 1.40522, 1.40137, 1.39991, 1.39907, 1.39612, 1.3943, 1.39255, 1.3899, 1.38781, 1.38532, 1.38298, 1.38119, 1.37809, 1.37584, 1.37151, 1.37065, 1.36776, 1.36558, 1.3656, 1.36449, 1.36173, 1.36075, 1.35866, 1.35821, 1.35662, 1.35538, 1.35366, 1.35104, 1.35036, 1.34618, 1.34435, 1.35409, 1.35056, 1.32314, 1.37119, 1.41966, 1.48449, 1.49223, 1.38341, 1.56466, 1.54823, 1.50809, 1.35374, 1.32705, 1.34356, 1.35401, 1.33095, 1.32702, 1.32674, 1.32233, 1.31766, 1.32601, 1.31487, 1.31323, 1.31233, 1.31051, 
1.65573, 1.65197, 1.65152, 1.64619, 1.642, 1.63747, 1.63517, 1.63114, 1.62972, 1.63394, 1.6452, 1.62128, 1.62226, 1.62844, 1.63019, 1.62178, 1.61705, 1.67626, 1.7064, 1.78886, 1.85849, 1.89104, 1.89046, 1.79718, 1.62416, 1.58196, 1.59572, 1.59281, 1.58453, 1.58532, 1.58498, 1.58584, 1.59032, 1.56823, 1.55554, 1.55168, 1.54799, 1.54667, 1.54648, 1.54568, 1.54167, 1.54216, 1.53871, 1.53789, 1.53537, 1.53112, 1.52792, 1.52468, 1.52667, 1.51859, 1.51463, 1.51336, 1.52385, 1.52565, 1.51278, 1.5185, 1.50447, 1.51715, 1.50327, 1.50597, 1.49285, 1.49041, 1.48673, 1.48614, 1.48646, 1.48904, 1.49162, 1.47378, 1.51817, 1.5272, 1.56574, 1.59989, 1.58145, 1.57646, 1.56826, 1.5315, 1.46705, 1.42984, 1.45285, 1.45739, 1.46436, 1.44967, 1.44029, 1.4372, 1.43387, 1.43257, 1.43838, 1.44157, 1.44061, 1.4374, 1.41982, 1.41698, 1.41443, 1.41262, 1.40963, 1.40788, 1.40606, 1.40764, 1.40391, 1.40396, 1.40018, 1.39715, 1.39543, 1.39157, 1.39073, 1.38842, 1.3848, 1.38206, 1.38107, 1.38082, 1.3782, 1.37413, 1.37248, 1.37044, 1.37045, 1.36518, 1.36253, 1.36051, 1.36005, 1.3594, 1.35716, 1.35413, 1.35335, 1.3533, 1.35142, 1.35059, 1.34868, 1.34703, 1.34904, 1.35021, 1.32436, 1.35744, 1.39934, 1.46034, 1.50014, 1.54739, 1.56428, 1.49749, 1.47108, 1.4309, 1.31204, 1.33916, 1.33798, 1.32676, 1.32605, 1.32362, 1.31858, 1.32851, 1.31482, 1.32358, 1.31284, 1.31007, 1.30935, 
1.66525, 1.65197, 1.6493, 1.64615, 1.64204, 1.63766, 1.63498, 1.63015, 1.62967, 1.62409, 1.63173, 1.62353, 1.62972, 1.61957, 1.62397, 1.61646, 1.5957, 1.63517, 1.71793, 1.79049, 1.87305, 1.92404, 1.96005, 1.84449, 1.67469, 1.56964, 1.58601, 1.5829, 1.57508, 1.57326, 1.56877, 1.56571, 1.56238, 1.55856, 1.55514, 1.55155, 1.54864, 1.54817, 1.54256, 1.54123, 1.53993, 1.53901, 1.53632, 1.53183, 1.53156, 1.53052, 1.52337, 1.51992, 1.51737, 1.51451, 1.51271, 1.5097, 1.51121, 1.50586, 1.51957, 1.53154, 1.5263, 1.50726, 1.49692, 1.50339, 1.49502, 1.49271, 1.48747, 1.4836, 1.48317, 1.48584, 1.48073, 1.46347, 1.46409, 1.51365, 1.54864, 1.58091, 1.55815, 1.57111, 1.55166, 1.52324, 1.49609, 1.46241, 1.44194, 1.45452, 1.44739, 1.44107, 1.43834, 1.43685, 1.43339, 1.43128, 1.43006, 1.43343, 1.44786, 1.43695, 1.42997, 1.41727, 1.41378, 1.40975, 1.40955, 1.41007, 1.40768, 1.40734, 1.4041, 1.40077, 1.39932, 1.39905, 1.39824, 1.39317, 1.39153, 1.38822, 1.38712, 1.38498, 1.38344, 1.38099, 1.37833, 1.37501, 1.37093, 1.36848, 1.36623, 1.36091, 1.35866, 1.35532, 1.3533, 1.35262, 1.3538, 1.35327, 1.35306, 1.34957, 1.3478, 1.34757, 1.34691, 1.35364, 1.35363, 1.35133, 1.34744, 1.37864, 1.42505, 1.46803, 1.58841, 1.57887, 1.60982, 1.63996, 1.57553, 1.41383, 1.31659, 1.3351, 1.32717, 1.33335, 1.31674, 1.31618, 1.31558, 1.31561, 1.31538, 1.3114, 1.31327, 1.31344, 1.30562, 
1.65515, 1.65673, 1.6473, 1.64464, 1.64147, 1.63533, 1.63403, 1.63002, 1.6278, 1.6255, 1.62289, 1.64567, 1.61956, 1.61724, 1.61976, 1.6203, 1.58204, 1.66497, 1.70324, 1.77847, 1.87963, 1.90712, 1.9903, 1.81338, 1.6817, 1.566, 1.58694, 1.59633, 1.57835, 1.58699, 1.56726, 1.56243, 1.56066, 1.55896, 1.55926, 1.55741, 1.54976, 1.54686, 1.54726, 1.53952, 1.53849, 1.53541, 1.53645, 1.52972, 1.52732, 1.52442, 1.52269, 1.51932, 1.51832, 1.51453, 1.5101, 1.50824, 1.50844, 1.50586, 1.50419, 1.50067, 1.52306, 1.51911, 1.4962, 1.49425, 1.4926, 1.48959, 1.48431, 1.48553, 1.49563, 1.48598, 1.47244, 1.46796, 1.48514, 1.55331, 1.55056, 1.57208, 1.57292, 1.55365, 1.5454, 1.53346, 1.48043, 1.50923, 1.44889, 1.45239, 1.46035, 1.44423, 1.44016, 1.43273, 1.42941, 1.42686, 1.42371, 1.43734, 1.44774, 1.45045, 1.44715, 1.43761, 1.41189, 1.40959, 1.40823, 1.40635, 1.40533, 1.40421, 1.40425, 1.40369, 1.40142, 1.39836, 1.39753, 1.39575, 1.39448, 1.39179, 1.38879, 1.38616, 1.38479, 1.38206, 1.37991, 1.37785, 1.37568, 1.36955, 1.36777, 1.36399, 1.36394, 1.36182, 1.35705, 1.35207, 1.35321, 1.35198, 1.3513, 1.35251, 1.35149, 1.35268, 1.35135, 1.35088, 1.37141, 1.35417, 1.34109, 1.38119, 1.41967, 1.45565, 1.51715, 1.59567, 1.61636, 1.60876, 1.55852, 1.44473, 1.3202, 1.3275, 1.35137, 1.32343, 1.33242, 1.31981, 1.31922, 1.33002, 1.31427, 1.3141, 1.31083, 1.30952, 1.30972, 
1.6519, 1.64949, 1.6452, 1.6414, 1.63921, 1.63672, 1.63042, 1.627, 1.62506, 1.62222, 1.62165, 1.62018, 1.61792, 1.61688, 1.61616, 1.61839, 1.59236, 1.62283, 1.65605, 1.71444, 1.83812, 1.86829, 1.8755, 1.81063, 1.59536, 1.56599, 1.58475, 1.58833, 1.57251, 1.56941, 1.56632, 1.57221, 1.56159, 1.55775, 1.55749, 1.55989, 1.54768, 1.54502, 1.54207, 1.53964, 1.53764, 1.53604, 1.53542, 1.52985, 1.52678, 1.5236, 1.52235, 1.51598, 1.51339, 1.51202, 1.50676, 1.50208, 1.49937, 1.49794, 1.49891, 1.50556, 1.51259, 1.51559, 1.50618, 1.49301, 1.50068, 1.48883, 1.48869, 1.48117, 1.48134, 1.48956, 1.48522, 1.454, 1.47179, 1.54301, 1.59279, 1.5857, 1.5688, 1.54733, 1.54829, 1.53711, 1.51597, 1.45079, 1.43148, 1.45365, 1.45915, 1.44294, 1.44695, 1.43183, 1.42876, 1.42499, 1.42469, 1.42252, 1.42424, 1.43013, 1.40241, 1.40638, 1.41963, 1.40667, 1.40595, 1.41215, 1.40708, 1.40391, 1.40057, 1.39832, 1.39553, 1.39283, 1.39192, 1.392, 1.39054, 1.38827, 1.38682, 1.38497, 1.38359, 1.3831, 1.38158, 1.3789, 1.37622, 1.3743, 1.37304, 1.36888, 1.36528, 1.36291, 1.36084, 1.3604, 1.35606, 1.35375, 1.35295, 1.35247, 1.3545, 1.35044, 1.34785, 1.34865, 1.35203, 1.35155, 1.33738, 1.34283, 1.38108, 1.44088, 1.52066, 1.56752, 1.58255, 1.57476, 1.5329, 1.41605, 1.29902, 1.32711, 1.34307, 1.3225, 1.31934, 1.3193, 1.31455, 1.31597, 1.31591, 1.3122, 1.31086, 1.30887, 1.30577, 
1.652, 1.64938, 1.64599, 1.6482, 1.64553, 1.64333, 1.63241, 1.63403, 1.62497, 1.62313, 1.62171, 1.62166, 1.62166, 1.61784, 1.62249, 1.61845, 1.60939, 1.64666, 1.70267, 1.72491, 1.83929, 1.93521, 1.99144, 1.89144, 1.65343, 1.55368, 1.58331, 1.57867, 1.57463, 1.57869, 1.57069, 1.56727, 1.56071, 1.55748, 1.55562, 1.56515, 1.54765, 1.5459, 1.54325, 1.54243, 1.54093, 1.53714, 1.53492, 1.53323, 1.52986, 1.52556, 1.5227, 1.51953, 1.51663, 1.51282, 1.51606, 1.50559, 1.51303, 1.50071, 1.50017, 1.50405, 1.49713, 1.51303, 1.52581, 1.50843, 1.49247, 1.49074, 1.49577, 1.48864, 1.48053, 1.48231, 1.4822, 1.47978, 1.49026, 1.52481, 1.53517, 1.57552, 1.55085, 1.54158, 1.53553, 1.51761, 1.48472, 1.46566, 1.44337, 1.44955, 1.45075, 1.44028, 1.44099, 1.44043, 1.43668, 1.43225, 1.44334, 1.43275, 1.42661, 1.42383, 1.43447, 1.42425, 1.40742, 1.40673, 1.40292, 1.40953, 1.40177, 1.40001, 1.39759, 1.39663, 1.39398, 1.39142, 1.38918, 1.38754, 1.38601, 1.38546, 1.38523, 1.38318, 1.38092, 1.37773, 1.37901, 1.37559, 1.37421, 1.37183, 1.3703, 1.36804, 1.36736, 1.36455, 1.36453, 1.36463, 1.36272, 1.36032, 1.35775, 1.356, 1.35201, 1.35235, 1.35138, 1.35713, 1.34773, 1.35214, 1.33785, 1.35529, 1.40925, 1.48833, 1.48443, 1.54315, 1.55824, 1.54621, 1.5028, 1.33725, 1.31734, 1.34363, 1.33276, 1.3437, 1.3199, 1.3168, 1.31612, 1.3155, 1.31095, 1.31133, 1.31028, 1.30866, 1.30675, 
1.65238, 1.64798, 1.6401, 1.63778, 1.63283, 1.62899, 1.62785, 1.62875, 1.62609, 1.62512, 1.6231, 1.62212, 1.6178, 1.6161, 1.61496, 1.61524, 1.61302, 1.6083, 1.69232, 1.75157, 1.84226, 1.91331, 1.91327, 1.79864, 1.65767, 1.54068, 1.58081, 1.57846, 1.5688, 1.57896, 1.57202, 1.57746, 1.56121, 1.55466, 1.55188, 1.54857, 1.54762, 1.54409, 1.54143, 1.53898, 1.53772, 1.53508, 1.53153, 1.53124, 1.52792, 1.52454, 1.52323, 1.51918, 1.51643, 1.51264, 1.50957, 1.5089, 1.50405, 1.50692, 1.50029, 1.49807, 1.49636, 1.51265, 1.52447, 1.52383, 1.52348, 1.49644, 1.4853, 1.47922, 1.48065, 1.47991, 1.48031, 1.46901, 1.47976, 1.52267, 1.6107, 1.57129, 1.56112, 1.53094, 1.53002, 1.52407, 1.52598, 1.46146, 1.43666, 1.44531, 1.45146, 1.4407, 1.4387, 1.44744, 1.43726, 1.44402, 1.4404, 1.43697, 1.44757, 1.44575, 1.43376, 1.4155, 1.42014, 1.40894, 1.41679, 1.40433, 1.40329, 1.40193, 1.39837, 1.39612, 1.39247, 1.40177, 1.39121, 1.38714, 1.38628, 1.3862, 1.38473, 1.38202, 1.37861, 1.3775, 1.37584, 1.37393, 1.37169, 1.36896, 1.36722, 1.36456, 1.36472, 1.36439, 1.36429, 1.36376, 1.36262, 1.35756, 1.35656, 1.35663, 1.35279, 1.35028, 1.3466, 1.34579, 1.35364, 1.35094, 1.36476, 1.37009, 1.41725, 1.45123, 1.53241, 1.58895, 1.59877, 1.61023, 1.58057, 1.40252, 1.31168, 1.32137, 1.33717, 1.33327, 1.34053, 1.31894, 1.31622, 1.31095, 1.31003, 1.31035, 1.30717, 1.30622, 1.31533, 
1.65471, 1.65166, 1.64746, 1.64465, 1.63786, 1.63531, 1.63397, 1.63085, 1.62726, 1.62267, 1.62077, 1.6205, 1.61754, 1.61346, 1.62127, 1.61918, 1.62035, 1.64701, 1.69619, 1.75673, 1.86419, 1.91233, 1.9218, 1.80333, 1.60848, 1.59249, 1.58232, 1.57677, 1.57475, 1.58529, 1.56382, 1.56182, 1.55847, 1.55579, 1.55906, 1.5514, 1.54841, 1.54704, 1.54423, 1.54053, 1.53617, 1.53292, 1.52705, 1.52488, 1.52123, 1.51858, 1.51748, 1.5156, 1.51352, 1.50954, 1.5086, 1.507, 1.5056, 1.50379, 1.50309, 1.49962, 1.50282, 1.50934, 1.51232, 1.52407, 1.4998, 1.4887, 1.48898, 1.48417, 1.48369, 1.49154, 1.48543, 1.45494, 1.51681, 1.51148, 1.55902, 1.55054, 1.54594, 1.53751, 1.53416, 1.52813, 1.5239, 1.44554, 1.42812, 1.45426, 1.4518, 1.44543, 1.45006, 1.43304, 1.46994, 1.45816, 1.46712, 1.49925, 1.46219, 1.43092, 1.42225, 1.41551, 1.40927, 1.40791, 1.40666, 1.4042, 1.4004, 1.39898, 1.39745, 1.3949, 1.39231, 1.39113, 1.38893, 1.39604, 1.38525, 1.38472, 1.38253, 1.37963, 1.37722, 1.37477, 1.38509, 1.37065, 1.36858, 1.36684, 1.366, 1.3649, 1.36241, 1.36111, 1.36014, 1.36048, 1.35788, 1.35712, 1.35664, 1.35492, 1.35257, 1.37135, 1.34691, 1.34487, 1.34571, 1.35535, 1.36458, 1.34295, 1.37081, 1.44371, 1.49722, 1.56471, 1.60982, 1.61835, 1.50689, 1.43098, 1.30267, 1.34082, 1.33846, 1.3189, 1.33563, 1.31938, 1.31685, 1.32369, 1.31351, 1.31182, 1.309, 1.30718, 1.30524, 
1.65303, 1.65202, 1.65087, 1.64714, 1.64262, 1.64034, 1.63587, 1.63173, 1.62871, 1.62761, 1.63488, 1.63358, 1.61669, 1.61073, 1.63125, 1.6221, 1.61323, 1.5817, 1.68671, 1.74083, 1.82542, 1.85026, 2.08411, 1.67301, 1.57819, 1.54448, 1.58154, 1.5856, 1.58278, 1.57825, 1.57771, 1.57297, 1.55962, 1.55827, 1.55318, 1.55158, 1.54944, 1.545, 1.55137, 1.53684, 1.53417, 1.53102, 1.52556, 1.52192, 1.52032, 1.51659, 1.51132, 1.51293, 1.51097, 1.50821, 1.50679, 1.50654, 1.506, 1.51045, 1.50359, 1.49949, 1.49749, 1.50328, 1.50943, 1.51239, 1.55434, 1.52213, 1.49118, 1.4964, 1.49552, 1.48329, 1.47744, 1.43878, 1.48146, 1.4965, 1.52356, 1.55186, 1.53056, 1.51751, 1.53288, 1.5341, 1.49295, 1.44865, 1.42466, 1.4622, 1.45806, 1.47263, 1.47672, 1.48039, 1.49228, 1.48271, 1.4701, 1.45806, 1.42965, 1.42724, 1.43398, 1.42731, 1.4205, 1.41216, 1.4085, 1.40603, 1.43083, 1.40173, 1.39766, 1.39542, 1.39427, 1.39167, 1.38871, 1.3864, 1.38562, 1.38463, 1.38172, 1.37998, 1.37762, 1.3756, 1.3755, 1.37254, 1.37089, 1.36798, 1.37123, 1.36584, 1.36655, 1.36358, 1.36202, 1.36159, 1.35914, 1.3571, 1.35562, 1.35191, 1.35185, 1.3584, 1.34945, 1.34532, 1.34777, 1.36112, 1.35309, 1.33037, 1.40056, 1.43975, 1.46309, 1.57119, 1.58129, 1.61036, 1.48883, 1.41308, 1.30026, 1.32703, 1.33817, 1.33101, 1.3217, 1.3197, 1.33756, 1.32101, 1.3144, 1.31305, 1.31036, 1.30642, 1.30522, 
1.65078, 1.64848, 1.6461, 1.64179, 1.64039, 1.6386, 1.63552, 1.63342, 1.63011, 1.62675, 1.62369, 1.61902, 1.61495, 1.61091, 1.60962, 1.6302, 1.60658, 1.62069, 1.67087, 1.7176, 1.79529, 1.84097, 1.86767, 1.7071, 1.63125, 1.56153, 1.5849, 1.57808, 1.57668, 1.57205, 1.58295, 1.56879, 1.56166, 1.56828, 1.55398, 1.55257, 1.54426, 1.54524, 1.54027, 1.53716, 1.53337, 1.52997, 1.52508, 1.52057, 1.51756, 1.51397, 1.5176, 1.51124, 1.50861, 1.50717, 1.50522, 1.50255, 1.50027, 1.50074, 1.49885, 1.49873, 1.49519, 1.49353, 1.50331, 1.50312, 1.53781, 1.52598, 1.50804, 1.51268, 1.47826, 1.49293, 1.47597, 1.45795, 1.45982, 1.52603, 1.53864, 1.54362, 1.54524, 1.5144, 1.50418, 1.52509, 1.4989, 1.51046, 1.45837, 1.46809, 1.4703, 1.4645, 1.45199, 1.45396, 1.44749, 1.44467, 1.43745, 1.43448, 1.42747, 1.42279, 1.41877, 1.415, 1.41288, 1.41025, 1.40635, 1.40548, 1.40423, 1.40081, 1.39847, 1.3968, 1.39517, 1.38855, 1.38562, 1.38356, 1.38241, 1.38178, 1.38013, 1.37866, 1.37625, 1.37687, 1.37432, 1.37418, 1.36918, 1.36829, 1.36755, 1.36551, 1.36195, 1.36026, 1.35875, 1.35738, 1.35423, 1.35442, 1.3507, 1.35012, 1.34736, 1.34476, 1.34195, 1.34031, 1.34061, 1.35134, 1.34696, 1.34284, 1.38934, 1.44068, 1.52071, 1.55727, 1.61465, 1.62395, 1.57555, 1.43424, 1.31199, 1.32352, 1.34981, 1.33009, 1.31581, 1.313, 1.31345, 1.31185, 1.30997, 1.30813, 1.30413, 1.30165, 1.30204, 
1.6454, 1.64191, 1.63749, 1.6355, 1.63698, 1.63875, 1.63816, 1.63603, 1.63505, 1.62889, 1.63359, 1.61895, 1.64064, 1.61317, 1.61034, 1.61092, 1.60181, 1.5754, 1.62092, 1.75294, 1.79743, 1.99002, 1.99613, 1.96494, 1.57898, 1.58514, 1.5951, 1.59548, 1.58965, 1.58652, 1.58292, 1.58603, 1.57538, 1.57369, 1.58669, 1.56813, 1.55478, 1.55178, 1.54411, 1.54181, 1.56445, 1.53459, 1.53137, 1.52847, 1.52538, 1.52138, 1.51953, 1.52364, 1.51205, 1.50871, 1.50679, 1.5061, 1.50345, 1.50231, 1.49786, 1.49258, 1.50053, 1.51309, 1.50272, 1.50648, 1.49953, 1.53078, 1.54063, 1.55138, 1.51675, 1.49546, 1.46775, 1.47098, 1.47476, 1.49928, 1.52927, 1.52655, 1.50462, 1.50237, 1.53751, 1.53309, 1.50585, 1.48136, 1.45181, 1.45277, 1.45508, 1.45214, 1.45057, 1.45781, 1.4353, 1.44455, 1.43343, 1.42516, 1.42529, 1.42633, 1.42711, 1.41371, 1.41135, 1.41106, 1.40704, 1.40518, 1.40226, 1.4015, 1.39787, 1.39476, 1.39293, 1.39202, 1.3903, 1.3886, 1.38796, 1.38633, 1.38231, 1.38111, 1.37805, 1.37586, 1.37612, 1.37435, 1.37399, 1.37185, 1.37099, 1.37813, 1.36769, 1.3652, 1.36236, 1.35994, 1.3571, 1.35589, 1.3533, 1.3523, 1.34811, 1.36379, 1.35127, 1.34634, 1.35615, 1.35798, 1.35209, 1.31797, 1.38592, 1.45768, 1.50825, 1.53864, 1.61656, 1.62386, 1.5572, 1.39903, 1.31257, 1.32143, 1.33349, 1.32772, 1.32087, 1.31571, 1.3144, 1.31341, 1.31043, 1.31373, 1.31178, 1.30855, 1.30671, 
1.64757, 1.64386, 1.64327, 1.64048, 1.6389, 1.64024, 1.63801, 1.63441, 1.63177, 1.62707, 1.62346, 1.62074, 1.61803, 1.6137, 1.61008, 1.60956, 1.61086, 1.59154, 1.62456, 1.71463, 1.81527, 1.88515, 1.9518, 1.77366, 1.55153, 1.56566, 1.58986, 1.59159, 1.58028, 1.59349, 1.58932, 1.58281, 1.56912, 1.57357, 1.57287, 1.55217, 1.54773, 1.5449, 1.54209, 1.53917, 1.5342, 1.53118, 1.53035, 1.52415, 1.52086, 1.52106, 1.51629, 1.51382, 1.51127, 1.50734, 1.50499, 1.50288, 1.50159, 1.49987, 1.49835, 1.49573, 1.49324, 1.49363, 1.4893, 1.48682, 1.48577, 1.49932, 1.48653, 1.50612, 1.50105, 1.50559, 1.51095, 1.47679, 1.46862, 1.51742, 1.53651, 1.58133, 1.52853, 1.48149, 1.50191, 1.53363, 1.51434, 1.52834, 1.45676, 1.45227, 1.45394, 1.44789, 1.43824, 1.43682, 1.43334, 1.42963, 1.42673, 1.42353, 1.4186, 1.41563, 1.41317, 1.41105, 1.40895, 1.40834, 1.40543, 1.40463, 1.39913, 1.39772, 1.39674, 1.39641, 1.39526, 1.39154, 1.39094, 1.38919, 1.38773, 1.38369, 1.37866, 1.37802, 1.37653, 1.37496, 1.37402, 1.37281, 1.37121, 1.36742, 1.36786, 1.36717, 1.36612, 1.36374, 1.36222, 1.35935, 1.35552, 1.35385, 1.35098, 1.34818, 1.3461, 1.34764, 1.34398, 1.3438, 1.34322, 1.35749, 1.36134, 1.32661, 1.37833, 1.44143, 1.52643, 1.56417, 1.67198, 1.65452, 1.56812, 1.4591, 1.31696, 1.32113, 1.32344, 1.32472, 1.31934, 1.3142, 1.314, 1.31161, 1.30971, 1.31188, 1.30869, 1.30836, 1.30817, 
1.64575, 1.6418, 1.63849, 1.6387, 1.63777, 1.63576, 1.63268, 1.63267, 1.62714, 1.62451, 1.61915, 1.61749, 1.61265, 1.61083, 1.60859, 1.6078, 1.60777, 1.59348, 1.66523, 1.7063, 1.80813, 1.88956, 2.036, 1.80726, 1.57893, 1.56562, 1.56654, 1.56133, 1.5588, 1.56077, 1.5709, 1.58159, 1.58581, 1.56808, 1.56249, 1.56251, 1.55409, 1.53856, 1.53476, 1.53504, 1.53357, 1.52985, 1.52704, 1.52331, 1.52103, 1.52039, 1.51572, 1.51446, 1.51275, 1.50863, 1.50378, 1.50227, 1.49961, 1.49775, 1.49551, 1.49305, 1.48985, 1.4887, 1.4853, 1.48378, 1.48115, 1.47938, 1.47789, 1.47614, 1.48365, 1.49196, 1.48158, 1.48525, 1.49949, 1.52268, 1.53039, 1.53505, 1.53, 1.4914, 1.48748, 1.52781, 1.50715, 1.47274, 1.45214, 1.45542, 1.45681, 1.44759, 1.43849, 1.4367, 1.433, 1.42977, 1.42729, 1.42279, 1.42159, 1.41807, 1.41492, 1.41537, 1.4121, 1.40959, 1.40769, 1.40555, 1.40153, 1.40199, 1.39984, 1.39622, 1.39528, 1.39421, 1.3902, 1.38949, 1.38721, 1.38484, 1.3827, 1.38074, 1.3778, 1.37463, 1.37404, 1.37277, 1.36916, 1.36708, 1.36734, 1.3719, 1.36322, 1.36058, 1.35777, 1.35559, 1.35626, 1.35532, 1.37513, 1.3498, 1.34782, 1.36797, 1.34489, 1.34446, 1.34779, 1.34453, 1.34865, 1.34074, 1.38642, 1.43502, 1.51303, 1.56837, 1.60788, 1.64452, 1.61972, 1.46506, 1.30298, 1.32153, 1.33158, 1.32511, 1.31729, 1.31694, 1.31399, 1.31169, 1.31065, 1.31154, 1.31055, 1.31062, 1.30929, 
1.6438, 1.63921, 1.63768, 1.63439, 1.63131, 1.62997, 1.62587, 1.62404, 1.62361, 1.62208, 1.62706, 1.63059, 1.61111, 1.61207, 1.61484, 1.60452, 1.61019, 1.59285, 1.62729, 1.73251, 1.76882, 1.87392, 1.97676, 1.79854, 1.5576, 1.52705, 1.58438, 1.61346, 1.68936, 1.65099, 1.63179, 1.60801, 1.58743, 1.58925, 1.56876, 1.57251, 1.55401, 1.54314, 1.53699, 1.53464, 1.54572, 1.528, 1.52635, 1.52393, 1.5225, 1.519, 1.51609, 1.51476, 1.51087, 1.50684, 1.5044, 1.49948, 1.49983, 1.50145, 1.4938, 1.49401, 1.52308, 1.48843, 1.48317, 1.48065, 1.47928, 1.47473, 1.47356, 1.47222, 1.47333, 1.48886, 1.48025, 1.47554, 1.47539, 1.5245, 1.52381, 1.49913, 1.51941, 1.50325, 1.49223, 1.34293, 1.49683, 1.48213, 1.46076, 1.45117, 1.45342, 1.44336, 1.43649, 1.43043, 1.42753, 1.42417, 1.42204, 1.42111, 1.42356, 1.41211, 1.41219, 1.40949, 1.40799, 1.40714, 1.40699, 1.40592, 1.4031, 1.3999, 1.39789, 1.39506, 1.39195, 1.39118, 1.38907, 1.38647, 1.38431, 1.38192, 1.38001, 1.3789, 1.38005, 1.37574, 1.37319, 1.37034, 1.36963, 1.36476, 1.36071, 1.36061, 1.35784, 1.35749, 1.35375, 1.35058, 1.34984, 1.35114, 1.35137, 1.34753, 1.34563, 1.34138, 1.34197, 1.34038, 1.33958, 1.34019, 1.35062, 1.33758, 1.35442, 1.42299, 1.48852, 1.53778, 1.57873, 1.72165, 1.62931, 1.45621, 1.33685, 1.32544, 1.33703, 1.32363, 1.31562, 1.31542, 1.31697, 1.3109, 1.31068, 1.32341, 1.30329, 1.3009, 1.30337, 
1.64126, 1.63879, 1.65062, 1.63428, 1.63193, 1.62927, 1.62664, 1.62366, 1.62042, 1.61642, 1.61455, 1.60917, 1.60704, 1.61692, 1.6065, 1.61424, 1.60381, 1.59557, 1.6132, 1.67559, 1.72231, 1.78302, 1.99816, 1.94858, 1.75453, 1.56131, 1.54186, 1.64779, 1.70585, 1.71399, 1.67877, 1.61005, 1.59626, 1.58284, 1.57046, 1.56068, 1.56407, 1.54459, 1.53751, 1.53402, 1.53163, 1.5271, 1.52331, 1.52003, 1.51845, 1.51728, 1.51679, 1.51566, 1.50827, 1.50694, 1.50415, 1.50161, 1.49869, 1.49527, 1.49231, 1.51323, 1.48674, 1.48669, 1.48483, 1.48151, 1.48022, 1.47606, 1.47514, 1.47226, 1.47406, 1.478, 1.48404, 1.47617, 1.48207, 1.49837, 1.56506, 1.52116, 1.53037, 1.47347, 1.47792, 1.51321, 1.49729, 1.48961, 1.45734, 1.44796, 1.4559, 1.43827, 1.44044, 1.42769, 1.42321, 1.41958, 1.41596, 1.41404, 1.41265, 1.41052, 1.4087, 1.40795, 1.40924, 1.40864, 1.40683, 1.40524, 1.40404, 1.39979, 1.39615, 1.39279, 1.39015, 1.38718, 1.38565, 1.38207, 1.38103, 1.37926, 1.37658, 1.37568, 1.37446, 1.3712, 1.36861, 1.36769, 1.36589, 1.3646, 1.36332, 1.3621, 1.35953, 1.35587, 1.35356, 1.35389, 1.35516, 1.35348, 1.3499, 1.34831, 1.34677, 1.34987, 1.35192, 1.34435, 1.34723, 1.36979, 1.34653, 1.33317, 1.3506, 1.42746, 1.47982, 1.57277, 1.62113, 1.61273, 1.49413, 1.46371, 1.30597, 1.33539, 1.32643, 1.32851, 1.32376, 1.32771, 1.30971, 1.32223, 1.31171, 1.30532, 1.3023, 1.30237, 1.30033, 
1.63422, 1.63053, 1.6287, 1.62551, 1.62197, 1.62044, 1.61806, 1.61692, 1.61237, 1.61165, 1.60839, 1.60414, 1.60163, 1.59919, 1.59912, 1.59593, 1.59537, 1.60651, 1.59718, 1.69613, 1.79589, 1.90025, 2.00352, 1.77877, 1.57397, 1.54921, 1.56889, 1.56819, 1.59046, 1.57507, 1.59574, 1.58202, 1.5713, 1.57142, 1.56222, 1.5516, 1.54501, 1.53022, 1.54366, 1.52981, 1.5229, 1.51978, 1.51775, 1.51441, 1.5127, 1.50963, 1.50516, 1.50544, 1.50576, 1.50232, 1.4996, 1.49687, 1.49409, 1.48893, 1.48559, 1.483, 1.47692, 1.47476, 1.47271, 1.47145, 1.47014, 1.46953, 1.46698, 1.46597, 1.47065, 1.4792, 1.47976, 1.48622, 1.47098, 1.51026, 1.51551, 1.52364, 1.48956, 1.51085, 1.46732, 1.48619, 1.51581, 1.49572, 1.45762, 1.43799, 1.43815, 1.43857, 1.427, 1.4247, 1.41962, 1.41721, 1.41617, 1.40929, 1.40852, 1.40618, 1.40482, 1.40605, 1.40642, 1.40122, 1.39874, 1.39807, 1.39515, 1.39154, 1.38593, 1.38451, 1.38148, 1.38135, 1.38016, 1.37906, 1.37531, 1.37693, 1.37641, 1.37577, 1.38236, 1.37376, 1.37085, 1.36403, 1.36397, 1.36209, 1.35453, 1.35778, 1.35786, 1.35583, 1.35114, 1.35144, 1.35093, 1.34827, 1.34975, 1.34492, 1.34228, 1.35014, 1.33937, 1.33729, 1.33647, 1.34699, 1.34145, 1.30693, 1.32618, 1.35312, 1.45444, 1.53777, 1.61929, 1.62529, 1.58595, 1.4673, 1.306, 1.3299, 1.34041, 1.31507, 1.31206, 1.32931, 1.30773, 1.33392, 1.30332, 1.30603, 1.30175, 1.33018, 1.29967, 
1.63021, 1.62702, 1.62712, 1.62265, 1.62059, 1.61863, 1.61961, 1.6166, 1.61236, 1.61052, 1.60732, 1.60344, 1.5992, 1.59621, 1.60637, 1.59718, 1.5933, 1.59541, 1.58619, 1.65933, 1.72885, 1.87538, 1.90686, 1.94425, 1.55727, 1.5295, 1.57009, 1.56294, 1.56412, 1.56697, 1.5718, 1.5597, 1.56375, 1.55829, 1.54929, 1.53698, 1.53475, 1.53012, 1.52569, 1.52418, 1.52114, 1.51893, 1.51633, 1.51237, 1.51137, 1.50794, 1.50506, 1.50389, 1.50158, 1.49945, 1.49699, 1.49638, 1.49109, 1.48716, 1.48374, 1.47827, 1.47591, 1.47192, 1.47079, 1.46947, 1.4691, 1.46743, 1.46568, 1.46243, 1.46141, 1.47522, 1.46697, 1.46525, 1.48601, 1.55455, 1.51367, 1.51526, 1.50681, 1.46536, 1.46538, 1.50391, 1.51544, 1.49213, 1.47313, 1.43726, 1.44988, 1.43824, 1.43011, 1.42504, 1.42266, 1.42887, 1.41426, 1.41359, 1.41035, 1.4074, 1.40416, 1.40126, 1.40132, 1.39886, 1.39542, 1.39245, 1.39088, 1.38694, 1.38412, 1.3808, 1.3777, 1.37748, 1.37557, 1.3742, 1.37326, 1.37506, 1.37393, 1.3746, 1.37371, 1.37327, 1.37125, 1.36732, 1.36484, 1.35938, 1.35293, 1.35087, 1.35079, 1.34658, 1.34714, 1.34988, 1.34893, 1.3468, 1.34362, 1.34428, 1.34264, 1.34067, 1.33806, 1.33646, 1.3344, 1.33272, 1.34001, 1.3448, 1.33849, 1.3793, 1.47934, 1.57284, 1.66167, 1.70426, 1.66807, 1.43417, 1.31228, 1.31494, 1.32766, 1.31024, 1.31423, 1.30449, 1.30418, 1.30226, 1.30131, 1.30092, 1.29675, 1.29839, 1.29413, 
1.62884, 1.62699, 1.63025, 1.62337, 1.62195, 1.62242, 1.61954, 1.61702, 1.61386, 1.61282, 1.60718, 1.60454, 1.60918, 1.60655, 1.5968, 1.59591, 1.59641, 1.59557, 1.57532, 1.66873, 1.78215, 1.79305, 1.75641, 1.7626, 1.62727, 1.53385, 1.54778, 1.56858, 1.55779, 1.57271, 1.56453, 1.55385, 1.56494, 1.54755, 1.54372, 1.54044, 1.53742, 1.53818, 1.53364, 1.52754, 1.52357, 1.52185, 1.51994, 1.51297, 1.51069, 1.50715, 1.5048, 1.50191, 1.50016, 1.49696, 1.49468, 1.49211, 1.48993, 1.48812, 1.48384, 1.48002, 1.47638, 1.47802, 1.47304, 1.47035, 1.46863, 1.46875, 1.46355, 1.46175, 1.46185, 1.46464, 1.47429, 1.45855, 1.48496, 1.48818, 1.50621, 1.50593, 1.51737, 1.46916, 1.48823, 1.48962, 1.48086, 1.50439, 1.46835, 1.45238, 1.44725, 1.44554, 1.43057, 1.43224, 1.42131, 1.41804, 1.41351, 1.41127, 1.41035, 1.40782, 1.40968, 1.40209, 1.40137, 1.39924, 1.39642, 1.39218, 1.38983, 1.38769, 1.38708, 1.38297, 1.38056, 1.37828, 1.37644, 1.37428, 1.3719, 1.37356, 1.37464, 1.37212, 1.37188, 1.36895, 1.3692, 1.36224, 1.36019, 1.35555, 1.35135, 1.34914, 1.34895, 1.34881, 1.34692, 1.34669, 1.34622, 1.34387, 1.34206, 1.34135, 1.33823, 1.33673, 1.33343, 1.33312, 1.33028, 1.33049, 1.34393, 1.33317, 1.31763, 1.37718, 1.40171, 1.52608, 1.59933, 1.67383, 1.66772, 1.45754, 1.2868, 1.30814, 1.31994, 1.3173, 1.305, 1.30556, 1.3049, 1.30571, 1.30287, 1.29939, 1.29784, 1.29838, 1.29637, 
1.62814, 1.62101, 1.62045, 1.62009, 1.61999, 1.6181, 1.61553, 1.61519, 1.61084, 1.60894, 1.60472, 1.60386, 1.60081, 1.59601, 1.59268, 1.5966, 1.60002, 1.59491, 1.55827, 1.64601, 1.723, 1.88372, 1.91046, 1.72661, 1.62674, 1.52126, 1.56466, 1.56938, 1.56566, 1.56394, 1.55499, 1.55198, 1.5468, 1.55335, 1.54669, 1.54111, 1.53519, 1.53146, 1.5287, 1.5252, 1.52274, 1.52097, 1.51685, 1.51306, 1.50625, 1.50309, 1.50224, 1.50201, 1.49897, 1.49477, 1.49186, 1.49133, 1.48924, 1.48643, 1.48205, 1.47969, 1.47719, 1.4725, 1.47095, 1.47141, 1.46655, 1.46539, 1.46291, 1.46101, 1.46121, 1.46238, 1.4714, 1.47383, 1.48491, 1.48776, 1.50298, 1.53591, 1.48839, 1.48171, 1.45881, 1.4666, 1.49623, 1.49387, 1.47117, 1.45261, 1.4473, 1.43959, 1.43289, 1.41885, 1.4142, 1.41094, 1.40872, 1.40782, 1.41226, 1.40511, 1.40255, 1.40057, 1.39883, 1.39739, 1.39603, 1.39265, 1.39793, 1.38797, 1.38532, 1.38282, 1.3814, 1.37962, 1.3751, 1.37329, 1.38255, 1.37114, 1.37031, 1.37018, 1.36497, 1.36138, 1.36025, 1.35666, 1.3576, 1.35108, 1.34909, 1.3463, 1.34505, 1.34494, 1.3446, 1.3438, 1.34203, 1.34042, 1.33904, 1.33755, 1.33382, 1.33607, 1.33087, 1.33711, 1.32723, 1.32728, 1.33213, 1.32991, 1.31932, 1.35833, 1.46895, 1.51209, 1.55804, 1.84479, 1.63342, 1.46528, 1.2994, 1.30571, 1.30943, 1.30628, 1.30761, 1.32429, 1.30533, 1.30377, 1.30359, 1.30042, 1.29959, 1.29979, 1.29552, 
1.62956, 1.6247, 1.62016, 1.61823, 1.6166, 1.61587, 1.61418, 1.61269, 1.6098, 1.60734, 1.60406, 1.60141, 1.5958, 1.59384, 1.59238, 1.59051, 1.59112, 1.59669, 1.55952, 1.61312, 1.72751, 1.79487, 1.76135, 1.76139, 1.61972, 1.5304, 1.56243, 1.57338, 1.56787, 1.55821, 1.56176, 1.55786, 1.55068, 1.5602, 1.53877, 1.55106, 1.54894, 1.52856, 1.5439, 1.52464, 1.52282, 1.51883, 1.5167, 1.51471, 1.51521, 1.50983, 1.5057, 1.50406, 1.50473, 1.50264, 1.49477, 1.49238, 1.50578, 1.48653, 1.48504, 1.48138, 1.47698, 1.47833, 1.47321, 1.4714, 1.46952, 1.47009, 1.46596, 1.46483, 1.46442, 1.46481, 1.47465, 1.46843, 1.46958, 1.52015, 1.49158, 1.48903, 1.50707, 1.46866, 1.45737, 1.50198, 1.47625, 1.47289, 1.46806, 1.43617, 1.44455, 1.42735, 1.42208, 1.41428, 1.41184, 1.41133, 1.41188, 1.40858, 1.40707, 1.40524, 1.40392, 1.40168, 1.39682, 1.39693, 1.39374, 1.38994, 1.38863, 1.3863, 1.38371, 1.38488, 1.38019, 1.42046, 1.37741, 1.37388, 1.37286, 1.37094, 1.36577, 1.36336, 1.36181, 1.36182, 1.35445, 1.35413, 1.35141, 1.34845, 1.34482, 1.3449, 1.34295, 1.3422, 1.34355, 1.34222, 1.35554, 1.35036, 1.33937, 1.33684, 1.33708, 1.33479, 1.33267, 1.33004, 1.33101, 1.3299, 1.33096, 1.33944, 1.31466, 1.27979, 1.40382, 1.54133, 1.55164, 1.69873, 1.53021, 1.40541, 1.26652, 1.29483, 1.30988, 1.31352, 1.31, 1.30601, 1.30561, 1.30339, 1.30147, 1.30017, 1.32339, 1.30463, 1.29359, 
1.622, 1.62013, 1.61602, 1.6136, 1.61083, 1.60893, 1.608, 1.60458, 1.60197, 1.59866, 1.59693, 1.59331, 1.58951, 1.58576, 1.58854, 1.57934, 1.57885, 1.57821, 1.56591, 1.63494, 1.74678, 1.77827, 1.84134, 2.13886, 1.62467, 1.54861, 1.56115, 1.56144, 1.56033, 1.56208, 1.54779, 1.54162, 1.53944, 1.53309, 1.52838, 1.52459, 1.52206, 1.51767, 1.51498, 1.51491, 1.52327, 1.51286, 1.51144, 1.50931, 1.50678, 1.50452, 1.50059, 1.49495, 1.49169, 1.48942, 1.48778, 1.48335, 1.48182, 1.47968, 1.47613, 1.47487, 1.47249, 1.46867, 1.4648, 1.46264, 1.46279, 1.46163, 1.45874, 1.45806, 1.45689, 1.4581, 1.45929, 1.47003, 1.46303, 1.47979, 1.49618, 1.48528, 1.47033, 1.45715, 1.46147, 1.48569, 1.4854, 1.47911, 1.46562, 1.4377, 1.42267, 1.42021, 1.42032, 1.409, 1.40598, 1.40959, 1.4022, 1.40155, 1.39897, 1.39925, 1.39842, 1.39528, 1.39281, 1.3893, 1.38626, 1.38386, 1.38261, 1.3817, 1.37814, 1.37784, 1.37472, 1.3731, 1.37028, 1.36759, 1.36522, 1.36241, 1.35862, 1.35504, 1.35225, 1.34893, 1.34773, 1.34517, 1.34305, 1.34243, 1.34015, 1.3382, 1.33946, 1.33757, 1.33968, 1.33767, 1.33753, 1.33636, 1.33328, 1.33268, 1.33104, 1.32627, 1.3243, 1.32367, 1.32275, 1.32249, 1.32161, 1.3369, 1.32882, 1.31392, 1.37283, 1.50783, 1.60039, 1.69237, 1.68974, 1.42557, 1.28486, 1.29201, 1.30576, 1.3064, 1.3058, 1.29746, 1.29588, 1.29551, 1.30258, 1.29421, 1.2911, 1.2883, 1.28455, 
1.62127, 1.61837, 1.62025, 1.61447, 1.60955, 1.608, 1.60391, 1.59965, 1.60022, 1.59363, 1.59382, 1.59171, 1.58684, 1.58189, 1.57795, 1.57509, 1.57323, 1.57428, 1.57351, 1.62535, 1.65806, 1.81007, 1.92418, 1.94416, 1.62246, 1.55047, 1.55417, 1.55188, 1.54849, 1.54401, 1.54055, 1.53499, 1.53212, 1.52637, 1.52155, 1.518, 1.51462, 1.51203, 1.50927, 1.50572, 1.50368, 1.50367, 1.50401, 1.50137, 1.49891, 1.49909, 1.49555, 1.49319, 1.48961, 1.48679, 1.48248, 1.48191, 1.47956, 1.47742, 1.4734, 1.46987, 1.46543, 1.46137, 1.46089, 1.45933, 1.4581, 1.45348, 1.4508, 1.44923, 1.44826, 1.45104, 1.4536, 1.46962, 1.45775, 1.46875, 1.48568, 1.47208, 1.48122, 1.46211, 1.46082, 1.46851, 1.48568, 1.47067, 1.46795, 1.44398, 1.42479, 1.41792, 1.41067, 1.40667, 1.401, 1.39913, 1.39793, 1.39586, 1.39584, 1.39232, 1.39134, 1.3893, 1.38737, 1.38528, 1.37978, 1.37642, 1.37457, 1.37405, 1.36833, 1.36664, 1.36604, 1.36436, 1.36435, 1.36866, 1.36155, 1.35841, 1.3636, 1.35127, 1.35153, 1.34727, 1.35096, 1.34347, 1.33953, 1.33709, 1.33634, 1.33182, 1.33089, 1.33488, 1.33657, 1.33627, 1.33306, 1.33207, 1.32755, 1.32632, 1.32984, 1.3239, 1.32175, 1.31836, 1.31565, 1.31301, 1.31257, 1.32132, 1.29166, 1.35009, 1.41274, 1.47953, 1.59579, 1.66022, 1.6136, 1.46043, 1.26125, 1.26382, 1.29752, 1.30269, 1.28956, 1.29618, 1.29196, 1.28843, 1.28586, 1.28196, 1.2838, 1.28044, 1.27655, 
1.61708, 1.61518, 1.61386, 1.6101, 1.60727, 1.60991, 1.60087, 1.59893, 1.59654, 1.59382, 1.58951, 1.60207, 1.58611, 1.58327, 1.57963, 1.58987, 1.57508, 1.57603, 1.57961, 1.58367, 1.63375, 1.80026, 1.873, 1.91901, 1.66082, 1.52338, 1.55464, 1.56228, 1.56245, 1.55363, 1.53662, 1.53426, 1.53048, 1.52633, 1.52121, 1.51837, 1.51629, 1.51545, 1.51208, 1.50757, 1.50573, 1.50346, 1.49982, 1.49757, 1.49685, 1.49354, 1.49131, 1.48952, 1.48551, 1.48251, 1.47966, 1.47455, 1.47413, 1.47232, 1.47033, 1.46843, 1.46417, 1.4622, 1.46249, 1.45781, 1.45642, 1.45414, 1.44884, 1.44744, 1.46198, 1.44887, 1.45481, 1.45273, 1.45104, 1.46676, 1.47383, 1.4639, 1.47728, 1.46821, 1.45987, 1.4593, 1.46135, 1.46836, 1.4623, 1.43201, 1.43345, 1.42305, 1.42771, 1.41928, 1.40893, 1.4162, 1.39482, 1.39379, 1.39402, 1.39284, 1.38814, 1.38532, 1.38159, 1.38075, 1.37905, 1.3765, 1.37538, 1.375, 1.37239, 1.36826, 1.37439, 1.36148, 1.3625, 1.36049, 1.35978, 1.35687, 1.35582, 1.35464, 1.35223, 1.34934, 1.34722, 1.34319, 1.3404, 1.35872, 1.33425, 1.33491, 1.33626, 1.33645, 1.33672, 1.33678, 1.33333, 1.32999, 1.33019, 1.32827, 1.33761, 1.32508, 1.32145, 1.31985, 1.33354, 1.33611, 1.33063, 1.31998, 1.31568, 1.30978, 1.40254, 1.46378, 1.53606, 1.66585, 1.68252, 1.35575, 1.28233, 1.29545, 1.30153, 1.29854, 1.29573, 1.29433, 1.29108, 1.28968, 1.28636, 1.28674, 1.2834, 1.28444, 1.28253, 
1.61895, 1.61463, 1.61291, 1.60914, 1.60673, 1.60423, 1.60105, 1.59889, 1.59346, 1.58984, 1.5858, 1.59273, 1.58482, 1.5829, 1.5849, 1.59149, 1.59115, 1.59681, 1.58955, 1.6, 1.70865, 1.74242, 1.83934, 2.18635, 1.78198, 1.52747, 1.54822, 1.54998, 1.54769, 1.5385, 1.5351, 1.53354, 1.5321, 1.529, 1.52688, 1.5315, 1.52301, 1.51506, 1.51094, 1.50878, 1.50546, 1.5019, 1.50636, 1.49714, 1.49571, 1.49402, 1.49196, 1.48986, 1.4884, 1.48593, 1.48244, 1.47945, 1.4756, 1.47391, 1.4704, 1.46725, 1.46586, 1.46104, 1.45963, 1.45674, 1.4542, 1.45123, 1.44865, 1.44925, 1.44706, 1.448, 1.45031, 1.45073, 1.46522, 1.45337, 1.45132, 1.46457, 1.46786, 1.46991, 1.4515, 1.46825, 1.46593, 1.45558, 1.45421, 1.4314, 1.42683, 1.42111, 1.42049, 1.40832, 1.40184, 1.39649, 1.39651, 1.39344, 1.39269, 1.39858, 1.38907, 1.39827, 1.38647, 1.38212, 1.38208, 1.3775, 1.37437, 1.37081, 1.36901, 1.36687, 1.36331, 1.36046, 1.35881, 1.35948, 1.35612, 1.35401, 1.35411, 1.35363, 1.34988, 1.34953, 1.34642, 1.34439, 1.34304, 1.34053, 1.33945, 1.33943, 1.33688, 1.33331, 1.33244, 1.33085, 1.33027, 1.3282, 1.32827, 1.32569, 1.32407, 1.32304, 1.32199, 1.32038, 1.32062, 1.31955, 1.32267, 1.34034, 1.32025, 1.34372, 1.40911, 1.49697, 1.56855, 1.80378, 1.7853, 1.49832, 1.4294, 1.28752, 1.31078, 1.30677, 1.30378, 1.29644, 1.28903, 1.28865, 1.30267, 1.28628, 1.28672, 1.28382, 1.2826, 
1.61429, 1.61086, 1.60794, 1.60398, 1.60115, 1.60162, 1.59566, 1.60675, 1.59, 1.58688, 1.58336, 1.58198, 1.582, 1.5792, 1.58954, 1.59344, 1.58585, 1.59156, 1.59141, 1.58911, 1.66891, 1.75345, 1.97439, 1.9769, 1.6545, 1.52842, 1.54862, 1.54809, 1.53875, 1.54121, 1.53802, 1.52923, 1.53986, 1.52325, 1.51979, 1.51841, 1.53177, 1.51315, 1.5111, 1.50588, 1.50213, 1.50005, 1.49743, 1.49568, 1.49277, 1.49076, 1.49015, 1.48639, 1.4839, 1.48024, 1.4758, 1.47456, 1.47112, 1.46907, 1.46646, 1.46429, 1.46099, 1.45875, 1.45751, 1.46546, 1.45328, 1.47269, 1.45749, 1.446, 1.45103, 1.4448, 1.44864, 1.46323, 1.46135, 1.45374, 1.48854, 1.46504, 1.48127, 1.4849, 1.45512, 1.44696, 1.46855, 1.46432, 1.45541, 1.44738, 1.42351, 1.41648, 1.41883, 1.40431, 1.39278, 1.39101, 1.40302, 1.38926, 1.39562, 1.38843, 1.3865, 1.38599, 1.38442, 1.38128, 1.37984, 1.37473, 1.40338, 1.36922, 1.36875, 1.36577, 1.36458, 1.36339, 1.3624, 1.36053, 1.35846, 1.35559, 1.35459, 1.35166, 1.35123, 1.34939, 1.35448, 1.34512, 1.34424, 1.34261, 1.33996, 1.33673, 1.33611, 1.33231, 1.32968, 1.3277, 1.32755, 1.32595, 1.32511, 1.32658, 1.34778, 1.32212, 1.33011, 1.32191, 1.32601, 1.32195, 1.32259, 1.33948, 1.3223, 1.31377, 1.36552, 1.38139, 1.49033, 1.6199, 1.55416, 1.37792, 1.28406, 1.27885, 1.303, 1.30858, 1.29224, 1.28984, 1.28959, 1.28947, 1.28599, 1.2863, 1.28431, 1.31299, 1.28322, 
1.5951, 1.58976, 1.58852, 1.58751, 1.587, 1.58197, 1.57931, 1.58214, 1.57206, 1.57503, 1.58171, 1.5638, 1.57871, 1.55776, 1.56535, 1.55776, 1.57061, 1.56431, 1.55109, 1.55903, 1.68021, 1.76507, 1.89309, 1.90013, 1.60727, 1.50973, 1.514, 1.5281, 1.52759, 1.52556, 1.51661, 1.51134, 1.53002, 1.52376, 1.50347, 1.50482, 1.50167, 1.49816, 1.49602, 1.49412, 1.53095, 1.48658, 1.48239, 1.48214, 1.47636, 1.47206, 1.46966, 1.46636, 1.46591, 1.46126, 1.46075, 1.45649, 1.45466, 1.45358, 1.45187, 1.45105, 1.44913, 1.44769, 1.4455, 1.46434, 1.43884, 1.43413, 1.43406, 1.43195, 1.43907, 1.43449, 1.44355, 1.44059, 1.45181, 1.43963, 1.4446, 1.46806, 1.46868, 1.45647, 1.44124, 1.45139, 1.45368, 1.44535, 1.45117, 1.40543, 1.41527, 1.39955, 1.40918, 1.39176, 1.39709, 1.38216, 1.37764, 1.37522, 1.39579, 1.3758, 1.38169, 1.37833, 1.37759, 1.37206, 1.36669, 1.36292, 1.36769, 1.3573, 1.35481, 1.35501, 1.35439, 1.35231, 1.35289, 1.34784, 1.34514, 1.35161, 1.3393, 1.33729, 1.33067, 1.32981, 1.3271, 1.32677, 1.33122, 1.32653, 1.32645, 1.32608, 1.32267, 1.31535, 1.31484, 1.3127, 1.3121, 1.31098, 1.31463, 1.34362, 1.32908, 1.31011, 1.31631, 1.30754, 1.30359, 1.30641, 1.30542, 1.31625, 1.30692, 1.28431, 1.34013, 1.44298, 1.54356, 1.62308, 1.43711, 1.44401, 1.34446, 1.29234, 1.30269, 1.28902, 1.28501, 1.28241, 1.27746, 1.28471, 1.2739, 1.27606, 1.27535, 1.26715, 1.26204, 
1.58783, 1.58565, 1.58601, 1.58303, 1.61, 1.57908, 1.57897, 1.56911, 1.56453, 1.56154, 1.55819, 1.57203, 1.56361, 1.56886, 1.56175, 1.55806, 1.55633, 1.57137, 1.53812, 1.55731, 1.57221, 1.71033, 1.85484, 2.09294, 1.64138, 1.53021, 1.50932, 1.52613, 1.52246, 1.52662, 1.52015, 1.49836, 1.49868, 1.4956, 1.50035, 1.49909, 1.49338, 1.49188, 1.48948, 1.48696, 1.48691, 1.48604, 1.48556, 1.48521, 1.47482, 1.47031, 1.47151, 1.46363, 1.4586, 1.46031, 1.46474, 1.46227, 1.45685, 1.45384, 1.45002, 1.44756, 1.44039, 1.43753, 1.43848, 1.43506, 1.43395, 1.43427, 1.43948, 1.41938, 1.41936, 1.42118, 1.427, 1.44253, 1.44071, 1.43316, 1.43489, 1.4375, 1.46512, 1.44404, 1.43002, 1.42392, 1.41802, 1.43263, 1.42461, 1.41244, 1.40488, 1.40576, 1.40488, 1.39692, 1.39972, 1.37557, 1.39304, 1.36625, 1.36235, 1.36259, 1.36592, 1.36865, 1.36619, 1.35877, 1.34985, 1.34721, 1.34825, 1.35235, 1.34179, 1.34094, 1.33981, 1.33608, 1.33479, 1.33652, 1.33402, 1.3318, 1.33032, 1.32474, 1.32072, 1.31951, 1.32084, 1.31724, 1.30924, 1.31025, 1.3141, 1.31593, 1.30693, 1.3053, 1.31288, 1.3051, 1.30368, 1.2963, 1.29873, 1.30229, 1.30308, 1.3025, 1.29213, 1.29144, 1.28786, 1.28471, 1.28219, 1.28571, 1.2933, 1.29156, 1.30647, 1.46745, 1.47961, 1.56204, 1.55159, 1.51022, 1.27728, 1.25454, 1.27247, 1.27481, 1.27552, 1.27086, 1.27485, 1.25663, 1.25751, 1.25751, 1.25827, 1.252, 1.24773, 
1.60355, 1.60969, 1.6008, 1.60515, 1.6007, 1.59746, 1.59241, 1.58913, 1.60794, 1.58174, 1.57875, 1.57813, 1.57205, 1.57085, 1.56975, 1.56904, 1.56809, 1.57193, 1.56819, 1.53048, 1.5828, 1.71887, 1.9462, 1.75137, 1.84512, 1.50708, 1.54651, 1.53632, 1.5349, 1.53868, 1.52106, 1.52256, 1.51481, 1.51454, 1.5126, 1.5096, 1.50788, 1.52767, 1.50999, 1.50344, 1.4954, 1.49372, 1.49272, 1.48943, 1.4893, 1.48494, 1.49726, 1.47796, 1.47725, 1.47502, 1.4725, 1.46952, 1.46683, 1.46511, 1.46543, 1.45755, 1.4647, 1.45051, 1.44856, 1.4442, 1.44397, 1.44171, 1.43947, 1.43888, 1.43339, 1.44814, 1.43563, 1.44669, 1.44758, 1.46378, 1.44425, 1.45741, 1.4649, 1.45329, 1.4443, 1.44769, 1.43749, 1.4304, 1.43655, 1.42413, 1.41894, 1.4167, 1.41082, 1.4086, 1.39696, 1.39118, 1.38814, 1.38504, 1.38119, 1.37829, 1.37774, 1.37653, 1.37131, 1.37047, 1.37112, 1.36768, 1.36731, 1.36377, 1.35848, 1.35464, 1.35618, 1.35092, 1.35453, 1.35177, 1.35013, 1.35014, 1.34677, 1.34328, 1.33787, 1.33812, 1.33505, 1.33399, 1.32764, 1.33129, 1.33871, 1.32537, 1.32281, 1.32206, 1.32344, 1.31933, 1.31723, 1.31359, 1.3134, 1.31443, 1.31525, 1.3103, 1.30535, 1.30648, 1.31698, 1.30303, 1.30195, 1.30882, 1.30552, 1.30437, 1.34693, 1.39339, 1.51357, 1.49607, 1.48373, 1.47624, 1.2993, 1.27382, 1.29809, 1.29366, 1.28162, 1.28367, 1.27558, 1.28232, 1.27188, 1.27113, 1.2714, 1.2704, 1.26924, 
1.60383, 1.6009, 1.59731, 1.59607, 1.59328, 1.59302, 1.59651, 1.58507, 1.58198, 1.5806, 1.57964, 1.5725, 1.56908, 1.5794, 1.56803, 1.58624, 1.5666, 1.57239, 1.56062, 1.54141, 1.66041, 1.8056, 1.89654, 2.00291, 1.7935, 1.51047, 1.54056, 1.53526, 1.52399, 1.51607, 1.5168, 1.5179, 1.51589, 1.51459, 1.51581, 1.50891, 1.50591, 1.50154, 1.50401, 1.48775, 1.48554, 1.49212, 1.48825, 1.48644, 1.48573, 1.48438, 1.48312, 1.47866, 1.47661, 1.48327, 1.4699, 1.46545, 1.45973, 1.45681, 1.45502, 1.45424, 1.45721, 1.44739, 1.44343, 1.44363, 1.44112, 1.44052, 1.43705, 1.43497, 1.436, 1.43661, 1.44998, 1.44841, 1.44715, 1.45168, 1.43976, 1.46161, 1.45234, 1.45109, 1.44001, 1.43654, 1.43295, 1.43831, 1.43649, 1.42084, 1.42612, 1.42275, 1.40636, 1.39916, 1.40076, 1.39038, 1.38803, 1.3864, 1.38379, 1.38207, 1.37938, 1.3776, 1.37276, 1.38205, 1.36859, 1.36735, 1.36551, 1.36218, 1.36071, 1.35707, 1.35779, 1.35654, 1.36142, 1.352, 1.34653, 1.3451, 1.34994, 1.34083, 1.33823, 1.33711, 1.33659, 1.33786, 1.34501, 1.33237, 1.32903, 1.32805, 1.3235, 1.32722, 1.3231, 1.32154, 1.31657, 1.31637, 1.31471, 1.31655, 1.33012, 1.3131, 1.323, 1.3275, 1.31028, 1.30719, 1.30584, 1.31542, 1.31163, 1.30608, 1.3299, 1.36931, 1.46809, 1.67349, 1.62047, 1.53314, 1.32297, 1.29028, 1.30227, 1.29806, 1.28906, 1.28377, 1.28242, 1.29182, 1.27927, 1.29898, 1.27913, 1.27373, 1.27151, 
1.6002, 1.5987, 1.59698, 1.59598, 1.59625, 1.59262, 1.58725, 1.58417, 1.57843, 1.5814, 1.56672, 1.568, 1.58645, 1.56639, 1.56504, 1.56207, 1.57172, 1.56103, 1.55987, 1.55379, 1.56996, 1.72436, 1.97413, 2.03143, 1.63539, 1.52728, 1.55084, 1.53111, 1.52633, 1.51412, 1.51646, 1.52092, 1.51434, 1.52356, 1.50899, 1.50709, 1.51298, 1.49876, 1.4933, 1.48055, 1.48022, 1.48358, 1.48388, 1.48455, 1.48274, 1.48221, 1.47956, 1.47691, 1.47334, 1.4692, 1.46678, 1.46343, 1.45672, 1.45426, 1.45038, 1.45013, 1.4488, 1.44683, 1.44233, 1.44265, 1.4397, 1.4381, 1.43812, 1.43551, 1.43419, 1.45189, 1.44345, 1.44012, 1.45145, 1.45157, 1.44835, 1.44167, 1.44122, 1.44127, 1.43613, 1.43692, 1.45093, 1.44485, 1.42307, 1.43662, 1.41678, 1.42586, 1.40334, 1.39169, 1.38885, 1.38535, 1.38246, 1.38097, 1.37967, 1.37692, 1.37264, 1.37184, 1.37787, 1.36858, 1.36516, 1.36493, 1.36418, 1.36246, 1.3618, 1.35778, 1.35698, 1.35672, 1.3522, 1.35003, 1.34841, 1.346, 1.34252, 1.33913, 1.33738, 1.33619, 1.33675, 1.33654, 1.33328, 1.33615, 1.3302, 1.3267, 1.32275, 1.32059, 1.31896, 1.31737, 1.31938, 1.31619, 1.31533, 1.31494, 1.3157, 1.30948, 1.30706, 1.31023, 1.30377, 1.30251, 1.30933, 1.30543, 1.30911, 1.29449, 1.31413, 1.38888, 1.49935, 1.54921, 1.72094, 1.50986, 1.50783, 1.49908, 1.49848, 1.46236, 1.29326, 1.29889, 1.27976, 1.28676, 1.28898, 1.29526, 1.29797, 1.27444, 1.29015, 
1.59794, 1.59543, 1.58247, 1.59344, 1.58968, 1.59061, 1.58621, 1.58047, 1.57557, 1.57242, 1.57038, 1.56905, 1.56896, 1.568, 1.56382, 1.56578, 1.5685, 1.56821, 1.55388, 1.55523, 1.58812, 1.72516, 1.85574, 1.90643, 1.75307, 1.51379, 1.54394, 1.54035, 1.52481, 1.52395, 1.51757, 1.51385, 1.51147, 1.50718, 1.52961, 1.52341, 1.4969, 1.52706, 1.49904, 1.49236, 1.48869, 1.48509, 1.48198, 1.47917, 1.47712, 1.47561, 1.4742, 1.47145, 1.46962, 1.46807, 1.46512, 1.45781, 1.45439, 1.45104, 1.45049, 1.44802, 1.44916, 1.44641, 1.44332, 1.43898, 1.43716, 1.43765, 1.43504, 1.4348, 1.43377, 1.43458, 1.44384, 1.43681, 1.43725, 1.43806, 1.46503, 1.4407, 1.44037, 1.44109, 1.44118, 1.42779, 1.44035, 1.42744, 1.43177, 1.41726, 1.41133, 1.40993, 1.40894, 1.40021, 1.38549, 1.38668, 1.38311, 1.37851, 1.37416, 1.37098, 1.36776, 1.36784, 1.36508, 1.36523, 1.36168, 1.36265, 1.3594, 1.35693, 1.35797, 1.35316, 1.35124, 1.3511, 1.35017, 1.34729, 1.34686, 1.34405, 1.34355, 1.33982, 1.33519, 1.33917, 1.33769, 1.33827, 1.33979, 1.33068, 1.33029, 1.32555, 1.32594, 1.3206, 1.31671, 1.31635, 1.31377, 1.31215, 1.31189, 1.31158, 1.31035, 1.33028, 1.3084, 1.3096, 1.3027, 1.29922, 1.29919, 1.30027, 1.2953, 1.2977, 1.29868, 1.38907, 1.44337, 1.62161, 1.87912, 1.50165, 1.50935, 1.4725, 1.45356, 1.33924, 1.3193, 1.27321, 1.27179, 1.27513, 1.27267, 1.27164, 1.27052, 1.26786, 1.26502, 
1.58517, 1.58251, 1.58026, 1.57665, 1.57702, 1.57578, 1.57525, 1.56896, 1.56859, 1.5622, 1.56115, 1.56288, 1.56072, 1.57763, 1.56764, 1.56335, 1.56254, 1.56457, 1.56243, 1.54032, 1.57879, 1.77281, 1.9103, 0.00375549, 1.85535, 1.52413, 1.51205, 1.51538, 1.51133, 1.50711, 1.52771, 1.52368, 1.51608, 1.52392, 1.50741, 1.49923, 1.49555, 1.5096, 1.48793, 1.48393, 1.48139, 1.48104, 1.47633, 1.47503, 1.47501, 1.46923, 1.46297, 1.46089, 1.45885, 1.45787, 1.45417, 1.45217, 1.4477, 1.44772, 1.44542, 1.44355, 1.44363, 1.44311, 1.46762, 1.45307, 1.43388, 1.44448, 1.4295, 1.43665, 1.434, 1.43548, 1.44115, 1.44527, 1.45325, 1.44766, 1.43672, 1.43434, 1.43509, 1.43217, 1.43361, 1.41768, 1.41883, 1.4155, 1.43333, 1.43681, 1.41, 1.39684, 1.39208, 1.38865, 1.37633, 1.38164, 1.37157, 1.37616, 1.36675, 1.36546, 1.36544, 1.36416, 1.36302, 1.36068, 1.35879, 1.35605, 1.38205, 1.35221, 1.35157, 1.34976, 1.34838, 1.34476, 1.3428, 1.34155, 1.3397, 1.33599, 1.33547, 1.33436, 1.32925, 1.32844, 1.32659, 1.32839, 1.32616, 1.32087, 1.31711, 1.31538, 1.31271, 1.30924, 1.30806, 1.30235, 1.3048, 1.30403, 1.302, 1.30025, 1.29902, 1.29815, 1.29305, 1.28936, 1.28856, 1.28513, 1.28654, 1.29215, 1.29814, 1.28243, 1.2584, 1.36378, 1.47598, 1.60641, 1.74874, 1.59717, 1.50261, 1.39012, 1.38225, 1.32743, 1.27786, 1.26443, 1.26276, 1.26612, 1.27154, 1.26783, 1.25962, 1.25771, 1.26041, 
1.5875, 1.5852, 1.58191, 1.58286, 1.57974, 1.57628, 1.57468, 1.5724, 1.56569, 1.56187, 1.5613, 1.56357, 1.55966, 1.57969, 1.56503, 1.5589, 1.54543, 1.5451, 1.54406, 1.5383, 1.51681, 1.66155, 1.59832, 1.68958, 1.76673, 1.50921, 1.48259, 1.52418, 1.50565, 1.50563, 1.50237, 1.50119, 1.49932, 1.50818, 1.49893, 1.49693, 1.49532, 1.4923, 1.48896, 1.48524, 1.48296, 1.47927, 1.47459, 1.4719, 1.47543, 1.46405, 1.46171, 1.45862, 1.45345, 1.44984, 1.45209, 1.45047, 1.44721, 1.44474, 1.44387, 1.44208, 1.43809, 1.43651, 1.43798, 1.4348, 1.43777, 1.42863, 1.4268, 1.42568, 1.42479, 1.44487, 1.43077, 1.4505, 1.4333, 1.45005, 1.43646, 1.43288, 1.4329, 1.43133, 1.4197, 1.41617, 1.41781, 1.41902, 1.43309, 1.41331, 1.40329, 1.40233, 1.38844, 1.39208, 1.37251, 1.37012, 1.36484, 1.37078, 1.3599, 1.35978, 1.35821, 1.35737, 1.35852, 1.35486, 1.3546, 1.35229, 1.35225, 1.35186, 1.3495, 1.34654, 1.34342, 1.34057, 1.3438, 1.33555, 1.33036, 1.32569, 1.32635, 1.32348, 1.3211, 1.32275, 1.31622, 1.32284, 1.3208, 1.31946, 1.32353, 1.31681, 1.31525, 1.30985, 1.30814, 1.30689, 1.30522, 1.30478, 1.30207, 1.30332, 1.30146, 1.2993, 1.29474, 1.29141, 1.28825, 1.29381, 1.28462, 1.28517, 1.28494, 1.28651, 1.27821, 1.31778, 1.4263, 1.52718, 1.52943, 1.49497, 1.49795, 1.33702, 1.27817, 1.27688, 1.27398, 1.2643, 1.29354, 1.26729, 1.26033, 1.26054, 1.25684, 1.25636, 1.25095, 
1.58666, 1.58546, 1.58381, 1.58096, 1.5789, 1.57695, 1.57473, 1.57084, 1.56615, 1.56625, 1.58632, 1.55921, 1.57267, 1.56176, 1.55239, 1.55422, 1.5476, 1.56368, 1.55441, 1.55751, 1.61398, 1.68013, 1.72052, 1.71047, 1.7509, 1.61612, 1.5056, 1.51598, 1.51068, 1.50765, 1.50747, 1.50339, 1.5133, 1.52686, 1.49957, 1.49643, 1.49358, 1.49053, 1.48887, 1.48942, 1.48497, 1.48107, 1.47926, 1.47628, 1.47299, 1.4696, 1.4793, 1.46424, 1.46054, 1.45904, 1.4718, 1.45587, 1.45559, 1.45157, 1.44814, 1.44546, 1.44524, 1.44231, 1.44287, 1.43822, 1.43494, 1.43735, 1.45052, 1.43249, 1.42618, 1.42618, 1.42735, 1.42966, 1.43053, 1.45144, 1.4334, 1.44778, 1.44184, 1.42881, 1.43284, 1.43538, 1.417, 1.41942, 1.42679, 1.40628, 1.40209, 1.39789, 1.38548, 1.38642, 1.37362, 1.36766, 1.36537, 1.36549, 1.36525, 1.36624, 1.36291, 1.36044, 1.36152, 1.37176, 1.35711, 1.35589, 1.35565, 1.35433, 1.35131, 1.34967, 1.34517, 1.34411, 1.34168, 1.34022, 1.33278, 1.33372, 1.32629, 1.32317, 1.33216, 1.32212, 1.32569, 1.32276, 1.32296, 1.31973, 1.31859, 1.31678, 1.31516, 1.313, 1.31398, 1.31207, 1.31535, 1.30893, 1.30813, 1.33778, 1.31647, 1.30908, 1.31421, 1.29995, 1.29841, 1.29577, 1.29749, 1.29217, 1.2985, 1.30856, 1.25369, 1.31308, 1.38102, 1.55492, 1.61305, 1.53366, 1.35763, 1.23691, 1.29172, 1.28113, 1.27434, 1.27425, 1.27133, 1.26701, 1.2634, 1.2641, 1.25616, 1.25352, 1.25362, 
1.58238, 1.58221, 1.57883, 1.58207, 1.57311, 1.56921, 1.5677, 1.56621, 1.56068, 1.55351, 1.57197, 1.55202, 1.54924, 1.54741, 1.54142, 1.54016, 1.5472, 1.53818, 1.549, 1.5375, 1.54394, 1.68076, 1.70049, 1.68633, 1.75156, 1.52383, 1.50087, 1.50524, 1.50932, 1.51863, 1.50325, 1.50279, 1.50633, 1.49948, 1.49569, 1.49287, 1.48907, 1.48238, 1.47638, 1.47503, 1.47083, 1.47093, 1.48131, 1.49098, 1.4633, 1.46384, 1.45949, 1.45545, 1.4499, 1.4463, 1.44523, 1.44264, 1.44069, 1.43891, 1.43805, 1.43536, 1.43306, 1.43385, 1.43048, 1.42842, 1.42422, 1.42148, 1.41932, 1.41864, 1.42999, 1.434, 1.42049, 1.42326, 1.43406, 1.43379, 1.43938, 1.4341, 1.43368, 1.4298, 1.42745, 1.41665, 1.42992, 1.41131, 1.42654, 1.41878, 1.38868, 1.39897, 1.38865, 1.38224, 1.37917, 1.36788, 1.36526, 1.3645, 1.35922, 1.35539, 1.37756, 1.35314, 1.3508, 1.36088, 1.3496, 1.35348, 1.35054, 1.34661, 1.34521, 1.34329, 1.3451, 1.3373, 1.33496, 1.33381, 1.33067, 1.33156, 1.33496, 1.33038, 1.32521, 1.31931, 1.31607, 1.31538, 1.31712, 1.31156, 1.31145, 1.31147, 1.31111, 1.31251, 1.3046, 1.33707, 1.30227, 1.30194, 1.3006, 1.30364, 1.30572, 1.29387, 1.31199, 1.29301, 1.30528, 1.29938, 1.29987, 1.29273, 1.28494, 1.2866, 1.25031, 1.31916, 1.44019, 1.78279, 1.7997, 1.57246, 1.49914, 1.31075, 1.26671, 1.27473, 1.26139, 1.26191, 1.26473, 1.25642, 1.26372, 1.25729, 1.24743, 1.24517, 1.24358, 
