1.62432, 1.61794, 1.62116, 1.60671, 1.60439, 1.60262, 1.60082, 1.59989, 1.59383, 1.59262, 1.58896, 1.59586, 1.59134, 1.58721, 1.6025, 1.59092, 1.59263, 1.58674, 1.57072, 1.58903, 1.58041, 1.59901, 1.6072, 1.60834, 1.60708, 1.61992, 1.62014, 1.65524, 1.65633, 1.68708, 1.69387, 1.67492, 1.66305, 1.59347, 1.54422, 1.52964, 1.56645, 1.5609, 1.55085, 1.54807, 1.54047, 1.54357, 1.53787, 1.53895, 1.55115, 1.56432, 1.54901, 1.53624, 1.52782, 1.52052, 1.52424, 1.51365, 1.51501, 1.51077, 1.51053, 1.50772, 1.50695, 1.50706, 1.50471, 1.50368, 1.50194, 1.50033, 1.49901, 1.49908, 1.49845, 1.49619, 1.49451, 1.49174, 1.49222, 1.49457, 1.48384, 1.48289, 1.48143, 1.48101, 1.47731, 1.47728, 1.47494, 1.47213, 1.47135, 1.46938, 1.46634, 1.46331, 1.46267, 1.45852, 1.45957, 1.45765, 1.45425, 1.46882, 1.45178, 1.45496, 1.45248, 1.45137, 1.46691, 1.4576, 1.46217, 1.45044, 1.46117, 1.42002, 1.44039, 1.49798, 1.53674, 1.64827, 1.68629, 1.76841, 1.77911, 1.78522, 1.70645, 1.65695, 1.53056, 1.41909, 1.40177, 1.41336, 1.42489, 1.42373, 1.42832, 1.41605, 1.41353, 1.41299, 1.42686, 1.41312, 1.40734, 1.40907, 1.40357, 1.40249, 1.40184, 1.39974, 1.3972, 1.39551, 1.39369, 1.39321, 1.39186, 1.39184, 1.39127, 1.38689, 1.38478, 1.38139, 1.37998, 1.37973, 1.3762, 1.37437, 1.37476, 1.37533, 1.37123, 1.37046, 1.37033, 1.36436, 1.36418, 1.36337, 1.3617, 1.36069, 1.35926, 1.35784, 1.35686, 1.35419, 1.35737, 1.35903, 1.35248, 1.35228, 1.35143, 1.35304, 1.35761, 1.34, 1.34112, 1.34325, 1.34471, 1.34084, 1.33584, 1.3351, 1.33238, 1.33419, 1.32921, 1.32965, 1.33055, 1.33281, 1.32636, 1.32577, 1.32992, 1.32107, 1.32163, 1.31915, 1.31967, 1.31711, 1.31655, 1.31583, 1.3152, 1.31372, 1.33021, 1.32057, 1.32288, 1.32748, 1.33743, 1.33697, 1.32741, 1.35016, 1.33958, 1.33912, 1.33835, 1.36073, 1.35682, 1.34642, 1.34578, 1.34537, 1.3791, 1.37886, 1.33661, 1.32999, 1.33591, 1.31052, 1.32013, 1.31799, 1.30273, 1.29879, 1.2929, 1.28618, 1.28121, 1.28147, 1.28384, 1.28161, 1.28561, 1.27951, 1.27571, 1.27865, 1.28831, 1.27695, 1.27741, 1.27674, 1.28492, 1.29295, 1.30523, 1.30209, 
1.66825, 1.64508, 1.63671, 1.60883, 1.60986, 1.60723, 1.60664, 1.60445, 1.60035, 1.59732, 1.5967, 1.5968, 1.59295, 1.6095, 1.59482, 1.60677, 1.5997, 1.58221, 1.57997, 1.58763, 1.61521, 1.62266, 1.66112, 1.63423, 1.63022, 1.63377, 1.64706, 1.68011, 1.68529, 1.69305, 1.6661, 1.70839, 1.62655, 1.5405, 1.53047, 1.56258, 1.56544, 1.56088, 1.54787, 1.54458, 1.54164, 1.53962, 1.53817, 1.53592, 1.5383, 1.5405, 1.546, 1.55589, 1.55096, 1.51982, 1.52686, 1.52353, 1.52595, 1.52919, 1.51655, 1.51022, 1.50869, 1.51636, 1.50893, 1.50595, 1.50484, 1.50324, 1.5023, 1.49814, 1.49899, 1.49665, 1.49728, 1.49355, 1.49374, 1.48923, 1.48898, 1.48762, 1.48482, 1.48275, 1.48124, 1.48112, 1.4784, 1.47619, 1.47623, 1.48319, 1.47246, 1.46979, 1.46794, 1.46218, 1.46049, 1.46332, 1.47414, 1.46875, 1.46729, 1.4536, 1.45322, 1.45319, 1.45064, 1.44974, 1.44907, 1.45399, 1.43887, 1.4468, 1.44755, 1.49267, 1.52437, 1.57934, 1.62316, 1.67538, 1.71304, 1.72892, 1.6716, 1.6048, 1.53137, 1.43768, 1.3891, 1.40756, 1.42736, 1.42831, 1.42079, 1.42449, 1.41105, 1.41262, 1.41299, 1.41142, 1.41082, 1.40631, 1.40295, 1.40124, 1.39935, 1.39708, 1.3957, 1.39107, 1.38905, 1.38526, 1.38688, 1.38825, 1.3867, 1.38484, 1.38472, 1.38393, 1.38435, 1.38006, 1.38167, 1.37657, 1.37747, 1.37586, 1.37457, 1.37364, 1.37471, 1.36966, 1.3712, 1.36843, 1.36657, 1.36559, 1.36167, 1.35897, 1.35979, 1.35746, 1.35722, 1.35573, 1.35533, 1.35414, 1.35172, 1.35387, 1.35373, 1.35294, 1.35083, 1.34699, 1.34961, 1.34541, 1.34439, 1.34062, 1.34078, 1.33874, 1.34044, 1.33777, 1.34247, 1.34107, 1.34008, 1.34088, 1.33527, 1.33676, 1.34002, 1.33304, 1.32795, 1.327, 1.32621, 1.32729, 1.33313, 1.32621, 1.34726, 1.33699, 1.33007, 1.35321, 1.32684, 1.33059, 1.33408, 1.35462, 1.35067, 1.38918, 1.37467, 1.3654, 1.36317, 1.34412, 1.35215, 1.36416, 1.36208, 1.37496, 1.34099, 1.35811, 1.31851, 1.31158, 1.32491, 1.30354, 1.30211, 1.29293, 1.29222, 1.29025, 1.2851, 1.2822, 1.28112, 1.28092, 1.29109, 1.27563, 1.27717, 1.27858, 1.27995, 1.27938, 1.28096, 1.27976, 1.30795, 1.28262, 1.30827, 1.31044, 
1.65297, 1.65398, 1.63428, 1.63474, 1.61977, 1.61436, 1.62391, 1.61826, 1.60625, 1.60611, 1.60427, 1.60275, 1.60504, 1.611, 1.61119, 1.60951, 1.61717, 1.59529, 1.60265, 1.61, 1.66336, 1.63417, 1.63109, 1.64002, 1.67871, 1.67456, 1.67971, 1.68797, 1.70964, 1.71517, 1.73356, 1.67788, 1.66298, 1.59095, 1.57516, 1.55383, 1.5682, 1.56048, 1.56277, 1.5649, 1.5545, 1.54938, 1.54882, 1.54493, 1.54189, 1.54055, 1.54128, 1.53828, 1.55086, 1.54706, 1.56797, 1.54425, 1.52716, 1.52361, 1.52659, 1.51826, 1.51746, 1.52381, 1.51651, 1.51646, 1.51236, 1.51363, 1.51337, 1.50749, 1.50518, 1.50566, 1.50063, 1.49828, 1.49731, 1.49713, 1.4924, 1.4947, 1.49165, 1.49056, 1.48791, 1.48748, 1.48896, 1.4861, 1.48534, 1.48321, 1.48129, 1.47841, 1.47503, 1.47133, 1.47052, 1.46664, 1.46598, 1.46665, 1.46429, 1.47119, 1.46476, 1.46427, 1.46319, 1.4671, 1.47152, 1.47019, 1.45803, 1.42658, 1.47125, 1.49453, 1.54193, 1.57708, 1.64453, 1.69009, 1.72718, 1.73071, 1.73383, 1.62267, 1.50474, 1.47931, 1.43112, 1.43362, 1.44542, 1.45353, 1.44134, 1.43392, 1.4291, 1.42669, 1.42205, 1.41793, 1.41711, 1.41485, 1.41397, 1.40892, 1.41201, 1.40777, 1.40707, 1.40521, 1.40423, 1.40173, 1.39895, 1.39784, 1.3969, 1.43104, 1.39279, 1.39842, 1.40503, 1.39108, 1.38943, 1.40019, 1.38497, 1.38231, 1.38291, 1.38229, 1.38115, 1.37896, 1.37944, 1.37767, 1.37437, 1.37546, 1.37377, 1.37284, 1.37042, 1.36986, 1.36785, 1.36552, 1.36492, 1.36221, 1.35779, 1.35595, 1.35475, 1.35205, 1.35222, 1.35065, 1.3494, 1.34806, 1.34775, 1.34658, 1.34885, 1.34816, 1.34765, 1.3469, 1.34903, 1.34761, 1.34707, 1.3449, 1.34475, 1.3504, 1.34686, 1.34673, 1.34654, 1.33747, 1.33838, 1.33775, 1.33469, 1.33422, 1.33495, 1.33781, 1.35181, 1.34148, 1.33782, 1.336, 1.33607, 1.3799, 1.34322, 1.36943, 1.35239, 1.34783, 1.36536, 1.36814, 1.35359, 1.39806, 1.36854, 1.36432, 1.37651, 1.35789, 1.34277, 1.30463, 1.33181, 1.31236, 1.30315, 1.30633, 1.30114, 1.29959, 1.29282, 1.29308, 1.29284, 1.31174, 1.28806, 1.2861, 1.28833, 1.29219, 1.28726, 1.28723, 1.29873, 1.29464, 1.2855, 1.28305, 1.28446, 1.28187, 
1.65678, 1.65105, 1.64194, 1.6689, 1.66081, 1.63895, 1.62071, 1.62608, 1.62328, 1.61257, 1.61988, 1.61012, 1.60738, 1.608, 1.61964, 1.6369, 1.61124, 1.61457, 1.61301, 1.58905, 1.61298, 1.6259, 1.66564, 1.66417, 1.662, 1.6547, 1.69677, 1.68734, 1.69876, 1.70012, 1.69648, 1.66653, 1.71056, 1.60026, 1.55887, 1.56798, 1.56642, 1.58141, 1.56851, 1.56982, 1.56685, 1.55786, 1.55336, 1.55469, 1.54688, 1.5476, 1.54517, 1.55101, 1.54036, 1.53845, 1.5397, 1.54061, 1.53963, 1.5364, 1.53717, 1.52791, 1.52637, 1.5243, 1.52385, 1.52552, 1.5209, 1.51907, 1.51513, 1.51351, 1.51212, 1.51007, 1.50781, 1.50981, 1.5067, 1.50451, 1.50236, 1.50082, 1.51326, 1.49758, 1.49543, 1.49556, 1.49301, 1.49143, 1.48975, 1.48714, 1.48793, 1.48464, 1.48569, 1.4855, 1.48244, 1.48105, 1.47931, 1.49882, 1.47839, 1.49213, 1.47196, 1.4859, 1.47945, 1.47761, 1.47876, 1.48062, 1.44806, 1.43885, 1.45552, 1.52762, 1.52974, 1.58527, 1.65983, 1.69896, 1.73309, 1.73417, 1.73711, 1.64858, 1.59473, 1.48472, 1.45233, 1.43706, 1.44817, 1.45821, 1.45203, 1.4514, 1.45393, 1.43685, 1.43267, 1.43055, 1.42847, 1.42849, 1.42518, 1.42278, 1.41916, 1.41697, 1.43553, 1.41334, 1.41332, 1.41302, 1.41255, 1.41901, 1.40915, 1.40897, 1.40699, 1.40448, 1.40119, 1.40092, 1.39768, 1.39579, 1.39556, 1.39347, 1.39189, 1.39268, 1.39066, 1.38802, 1.38704, 1.38841, 1.38714, 1.38556, 1.38531, 1.38557, 1.3816, 1.37887, 1.38044, 1.3769, 1.37294, 1.37236, 1.36939, 1.36434, 1.36206, 1.35865, 1.35677, 1.35716, 1.35746, 1.35104, 1.35114, 1.35052, 1.35153, 1.35051, 1.35068, 1.35707, 1.35129, 1.35179, 1.35133, 1.35011, 1.35088, 1.34967, 1.34732, 1.35134, 1.34418, 1.34468, 1.34354, 1.34222, 1.34168, 1.34149, 1.35081, 1.3439, 1.34226, 1.35406, 1.34473, 1.3423, 1.33812, 1.35853, 1.37988, 1.36374, 1.37357, 1.36745, 1.38787, 1.37507, 1.37952, 1.38256, 1.41381, 1.42454, 1.38347, 1.34313, 1.33601, 1.31318, 1.32111, 1.32951, 1.32962, 1.32265, 1.31706, 1.31054, 1.30947, 1.32026, 1.33022, 1.30426, 1.30132, 1.30203, 1.29983, 1.29983, 1.30022, 1.29898, 1.29884, 1.29744, 1.29908, 1.29822, 1.29662, 1.31625, 
1.63326, 1.63792, 1.63326, 1.63089, 1.63279, 1.6454, 1.63758, 1.645, 1.62756, 1.62142, 1.62047, 1.61764, 1.61745, 1.61448, 1.61891, 1.61779, 1.62071, 1.62065, 1.58709, 1.58968, 1.5898, 1.63151, 1.6418, 1.65072, 1.66092, 1.66356, 1.71351, 1.73923, 1.78891, 1.74469, 1.7421, 1.72559, 1.70572, 1.61259, 1.56513, 1.56649, 1.57918, 1.58125, 1.58243, 1.58264, 1.58492, 1.56457, 1.56116, 1.55661, 1.55687, 1.55137, 1.55486, 1.54701, 1.55024, 1.55112, 1.55995, 1.56584, 1.55461, 1.55322, 1.55246, 1.54113, 1.53822, 1.53878, 1.53526, 1.53211, 1.53101, 1.54177, 1.52858, 1.53951, 1.52025, 1.52272, 1.51688, 1.51707, 1.51229, 1.51244, 1.5106, 1.50677, 1.50362, 1.50213, 1.50009, 1.4996, 1.49668, 1.49556, 1.49306, 1.49235, 1.51731, 1.49008, 1.49004, 1.49546, 1.487, 1.48548, 1.48589, 1.4822, 1.48236, 1.4878, 1.48063, 1.48906, 1.48569, 1.48656, 1.48001, 1.47812, 1.46849, 1.44145, 1.46517, 1.47462, 1.54393, 1.59273, 1.64405, 1.69499, 1.72097, 1.72003, 1.71751, 1.68386, 1.65166, 1.56073, 1.48945, 1.41381, 1.44683, 1.44744, 1.4482, 1.45537, 1.44172, 1.45251, 1.459, 1.44054, 1.43094, 1.42736, 1.42627, 1.42541, 1.45138, 1.41985, 1.41882, 1.41928, 1.41943, 1.41999, 1.41584, 1.41651, 1.41229, 1.41309, 1.41182, 1.41017, 1.40943, 1.40782, 1.40677, 1.40454, 1.40138, 1.40006, 1.39805, 1.39546, 1.39645, 1.39553, 1.39458, 1.39487, 1.39422, 1.39392, 1.39477, 1.39318, 1.39145, 1.39067, 1.38893, 1.38838, 1.38601, 1.3823, 1.37964, 1.37596, 1.3738, 1.36714, 1.37368, 1.36565, 1.36541, 1.36365, 1.36478, 1.35846, 1.36018, 1.36001, 1.35689, 1.35704, 1.35435, 1.35332, 1.352, 1.35172, 1.35112, 1.3493, 1.35141, 1.35016, 1.35192, 1.34853, 1.35066, 1.34587, 1.34163, 1.34072, 1.34523, 1.36071, 1.3535, 1.36005, 1.34794, 1.35161, 1.34473, 1.34972, 1.379, 1.37231, 1.38183, 1.3845, 1.39221, 1.38972, 1.39206, 1.39092, 1.42914, 1.39466, 1.39851, 1.3587, 1.33661, 1.31387, 1.33771, 1.33656, 1.32649, 1.32301, 1.32483, 1.32595, 1.32406, 1.31234, 1.31021, 1.31625, 1.31582, 1.30376, 1.32288, 1.3015, 1.3001, 1.29688, 1.30211, 1.30072, 1.30252, 1.30091, 1.29922, 1.3108, 
1.64683, 1.64564, 1.64476, 1.647, 1.65802, 1.66473, 1.67511, 1.64825, 1.64596, 1.63498, 1.62696, 1.6241, 1.62008, 1.61607, 1.61478, 1.61683, 1.61669, 1.61237, 1.607, 1.60751, 1.59726, 1.63058, 1.63985, 1.65853, 1.70357, 1.69845, 1.70846, 1.71244, 1.71192, 1.72431, 1.75905, 1.75384, 1.72365, 1.64408, 1.5862, 1.55745, 1.56615, 1.59, 1.57666, 1.58509, 1.57593, 1.56582, 1.56392, 1.5578, 1.55514, 1.5551, 1.55, 1.54824, 1.55317, 1.55032, 1.54046, 1.53794, 1.55601, 1.54684, 1.55326, 1.5585, 1.5453, 1.54647, 1.54071, 1.53905, 1.54357, 1.53685, 1.52544, 1.52473, 1.52282, 1.52386, 1.51982, 1.51696, 1.51587, 1.51219, 1.51087, 1.50788, 1.50443, 1.50304, 1.52553, 1.50016, 1.50192, 1.49926, 1.49788, 1.49408, 1.49524, 1.49141, 1.48982, 1.49077, 1.48942, 1.48809, 1.48653, 1.48299, 1.48068, 1.48025, 1.49668, 1.4867, 1.47821, 1.47377, 1.48175, 1.48937, 1.47834, 1.44114, 1.45657, 1.49588, 1.54394, 1.5638, 1.61529, 1.64444, 1.66902, 1.66759, 1.66778, 1.6452, 1.59578, 1.54173, 1.4851, 1.41916, 1.42148, 1.45383, 1.44385, 1.45544, 1.43723, 1.44603, 1.45033, 1.4282, 1.43131, 1.42486, 1.42484, 1.42344, 1.42281, 1.42094, 1.41988, 1.41799, 1.41659, 1.41637, 1.41526, 1.4132, 1.40963, 1.41305, 1.41056, 1.40899, 1.40739, 1.40435, 1.4064, 1.4037, 1.40039, 1.39813, 1.39618, 1.39609, 1.39555, 1.39331, 1.39173, 1.39486, 1.39142, 1.39218, 1.39116, 1.38963, 1.39954, 1.40929, 1.38813, 1.38928, 1.38598, 1.38667, 1.38475, 1.38292, 1.38322, 1.38188, 1.37903, 1.38147, 1.3759, 1.37262, 1.37139, 1.3691, 1.36748, 1.39608, 1.36424, 1.36431, 1.36556, 1.36452, 1.36397, 1.36439, 1.36218, 1.36358, 1.36245, 1.3643, 1.35734, 1.35493, 1.35187, 1.34889, 1.34488, 1.34386, 1.34345, 1.34745, 1.35756, 1.34406, 1.34054, 1.3677, 1.33069, 1.35149, 1.38334, 1.38581, 1.37609, 1.38625, 1.39987, 1.38906, 1.41405, 1.41152, 1.46744, 1.4124, 1.40356, 1.40919, 1.35516, 1.30403, 1.34785, 1.33953, 1.33575, 1.32283, 1.32096, 1.31897, 1.31685, 1.31224, 1.31272, 1.31071, 1.31218, 1.30829, 1.30748, 1.30493, 1.30256, 1.32458, 1.30271, 1.30013, 1.29785, 1.29634, 1.29454, 1.29851, 
1.65121, 1.64886, 1.64508, 1.64351, 1.64384, 1.65813, 1.65421, 1.65798, 1.66682, 1.64804, 1.63523, 1.63312, 1.63009, 1.62159, 1.61775, 1.62085, 1.62698, 1.61796, 1.59284, 1.61725, 1.6313, 1.62716, 1.65437, 1.67875, 1.69204, 1.70523, 1.73123, 1.74476, 1.74403, 1.71954, 1.70638, 1.68332, 1.64832, 1.63088, 1.57605, 1.55452, 1.59255, 1.58092, 1.58297, 1.57743, 1.5894, 1.57161, 1.56967, 1.57228, 1.56589, 1.56231, 1.5599, 1.5577, 1.55615, 1.55194, 1.54928, 1.55534, 1.55008, 1.54486, 1.54437, 1.56293, 1.56788, 1.55577, 1.54206, 1.53721, 1.53473, 1.53316, 1.53147, 1.52979, 1.52778, 1.52451, 1.5239, 1.52243, 1.52117, 1.52111, 1.51814, 1.52063, 1.51457, 1.51259, 1.51146, 1.51143, 1.50973, 1.50697, 1.50498, 1.50311, 1.50203, 1.50091, 1.49627, 1.49598, 1.49298, 1.49117, 1.48837, 1.48817, 1.48672, 1.48498, 1.48179, 1.48124, 1.48031, 1.4815, 1.48162, 1.48105, 1.47941, 1.47181, 1.46528, 1.53412, 1.51743, 1.59287, 1.64842, 1.64711, 1.67681, 1.68901, 1.69331, 1.66904, 1.59278, 1.52954, 1.51916, 1.43751, 1.42812, 1.43969, 1.44428, 1.45166, 1.43854, 1.44274, 1.43135, 1.43852, 1.43068, 1.43004, 1.42949, 1.43671, 1.42735, 1.42578, 1.42379, 1.42286, 1.41999, 1.45141, 1.41529, 1.41569, 1.41471, 1.41241, 1.41301, 1.41323, 1.41167, 1.41021, 1.41125, 1.4069, 1.40453, 1.40054, 1.40198, 1.39979, 1.39917, 1.39782, 1.39567, 1.395, 1.39511, 1.39296, 1.3913, 1.39224, 1.39219, 1.39202, 1.39092, 1.3909, 1.39189, 1.38771, 1.3888, 1.3882, 1.38558, 1.3841, 1.38136, 1.37736, 1.37453, 1.37388, 1.37417, 1.37336, 1.37074, 1.36984, 1.3696, 1.36996, 1.36797, 1.36678, 1.36686, 1.36655, 1.36306, 1.36379, 1.36241, 1.36042, 1.36081, 1.35817, 1.35952, 1.36012, 1.35749, 1.35746, 1.35728, 1.35898, 1.35383, 1.36196, 1.34893, 1.33835, 1.33972, 1.35923, 1.35771, 1.37824, 1.41742, 1.42478, 1.41906, 1.43098, 1.43426, 1.43421, 1.45337, 1.4515, 1.44113, 1.41616, 1.3827, 1.34497, 1.32383, 1.33798, 1.34131, 1.33743, 1.32906, 1.32509, 1.31886, 1.31777, 1.31284, 1.31215, 1.30826, 1.31033, 1.31609, 1.30704, 1.30567, 1.30514, 1.30523, 1.30975, 1.30085, 1.29971, 1.3071, 1.29905, 
1.651, 1.65031, 1.64851, 1.64538, 1.64189, 1.64117, 1.64243, 1.64253, 1.65143, 1.6507, 1.66937, 1.65692, 1.63869, 1.64181, 1.64648, 1.63466, 1.65212, 1.63862, 1.61309, 1.61728, 1.63428, 1.64643, 1.68811, 1.70058, 1.74738, 1.7891, 1.76602, 1.75482, 1.77355, 1.78891, 1.76877, 1.74762, 1.7722, 1.65823, 1.62298, 1.57281, 1.58506, 1.59333, 1.59364, 1.59836, 1.60329, 1.59616, 1.57895, 1.57841, 1.57837, 1.57428, 1.56844, 1.56825, 1.56583, 1.56508, 1.56576, 1.56108, 1.55866, 1.55636, 1.5555, 1.563, 1.56741, 1.56171, 1.56162, 1.56202, 1.5559, 1.54123, 1.53761, 1.53389, 1.53397, 1.53043, 1.52926, 1.53407, 1.52505, 1.52367, 1.52248, 1.52042, 1.51824, 1.5151, 1.51585, 1.51521, 1.5123, 1.51031, 1.50827, 1.50557, 1.50401, 1.50205, 1.50041, 1.49927, 1.49716, 1.50237, 1.49066, 1.49452, 1.49294, 1.4913, 1.49708, 1.49227, 1.49198, 1.48844, 1.48702, 1.48731, 1.48671, 1.4825, 1.46375, 1.4896, 1.53212, 1.55365, 1.61329, 1.64715, 1.63935, 1.67032, 1.67598, 1.68335, 1.65846, 1.6182, 1.56811, 1.48487, 1.42106, 1.4389, 1.45885, 1.45596, 1.46823, 1.45131, 1.44819, 1.44775, 1.44212, 1.44191, 1.44506, 1.43756, 1.43613, 1.43387, 1.432, 1.42981, 1.42791, 1.42589, 1.42689, 1.42258, 1.4228, 1.42084, 1.4213, 1.419, 1.41924, 1.42991, 1.41847, 1.41749, 1.41517, 1.4139, 1.41242, 1.41091, 1.40922, 1.40772, 1.40626, 1.40419, 1.40475, 1.40559, 1.40175, 1.40185, 1.39852, 1.39772, 1.39664, 1.39633, 1.39557, 1.39278, 1.39231, 1.38986, 1.39079, 1.38702, 1.38737, 1.38417, 1.3813, 1.3821, 1.37802, 1.37754, 1.37928, 1.37593, 1.37458, 1.38147, 1.37076, 1.36984, 1.36782, 1.36805, 1.36782, 1.36643, 1.36514, 1.36477, 1.36481, 1.36372, 1.36351, 1.36242, 1.36242, 1.35806, 1.35856, 1.36002, 1.36751, 1.36827, 1.35891, 1.35772, 1.34018, 1.35266, 1.3706, 1.38064, 1.42037, 1.4081, 1.42016, 1.42545, 1.43266, 1.43393, 1.43736, 1.43815, 1.4548, 1.4367, 1.39539, 1.36095, 1.33146, 1.33371, 1.33795, 1.34035, 1.34723, 1.33396, 1.33962, 1.32727, 1.32501, 1.32222, 1.31903, 1.31852, 1.31711, 1.31566, 1.31418, 1.31319, 1.31098, 1.31021, 1.31925, 1.30827, 1.3122, 1.31951, 
1.6776, 1.65771, 1.65782, 1.656, 1.65549, 1.65177, 1.64889, 1.64938, 1.65113, 1.65128, 1.65909, 1.65624, 1.66873, 1.65045, 1.63757, 1.64366, 1.64101, 1.64511, 1.63559, 1.61777, 1.61015, 1.6301, 1.65792, 1.68609, 1.66398, 1.72832, 1.74165, 1.83795, 1.82543, 1.7763, 1.76111, 1.79098, 1.7286, 1.67509, 1.63788, 1.57557, 1.57338, 1.5938, 1.60725, 1.5986, 1.59931, 1.58369, 1.57859, 1.57404, 1.57259, 1.56988, 1.57469, 1.58208, 1.56501, 1.56585, 1.56383, 1.56187, 1.5668, 1.56173, 1.57483, 1.55798, 1.5688, 1.55771, 1.57751, 1.5864, 1.56172, 1.55428, 1.55869, 1.54736, 1.53822, 1.53547, 1.5327, 1.53133, 1.53275, 1.5297, 1.52728, 1.52466, 1.52367, 1.52302, 1.52172, 1.5209, 1.51947, 1.51701, 1.51688, 1.51304, 1.5131, 1.50788, 1.51334, 1.50566, 1.50451, 1.50985, 1.50119, 1.51004, 1.49848, 1.4985, 1.49589, 1.49255, 1.48991, 1.50568, 1.48987, 1.50216, 1.49399, 1.46875, 1.4673, 1.49924, 1.53044, 1.58507, 1.6546, 1.65696, 1.6523, 1.66002, 1.66884, 1.70011, 1.6588, 1.59273, 1.53063, 1.49469, 1.43436, 1.4617, 1.46666, 1.47479, 1.46581, 1.47382, 1.46576, 1.46128, 1.45118, 1.45507, 1.46751, 1.45339, 1.44123, 1.44116, 1.43827, 1.43598, 1.43368, 1.4326, 1.43118, 1.42826, 1.42649, 1.42423, 1.4231, 1.4233, 1.42258, 1.4219, 1.42387, 1.42105, 1.41937, 1.41804, 1.41529, 1.41283, 1.41349, 1.41304, 1.41899, 1.41189, 1.41263, 1.40935, 1.40953, 1.40649, 1.40625, 1.40466, 1.40218, 1.40004, 1.39822, 1.39445, 1.39438, 1.39249, 1.38973, 1.38827, 1.38655, 1.38708, 1.38421, 1.38219, 1.38075, 1.37831, 1.37549, 1.37399, 1.37152, 1.36907, 1.36958, 1.36857, 1.36571, 1.36688, 1.3639, 1.36156, 1.36137, 1.36177, 1.35937, 1.36038, 1.37499, 1.35746, 1.35797, 1.37595, 1.36208, 1.35953, 1.36505, 1.36997, 1.38284, 1.36503, 1.34721, 1.35222, 1.40125, 1.42027, 1.39893, 1.46545, 1.44305, 1.4387, 1.45043, 1.45557, 1.44825, 1.45639, 1.41386, 1.40382, 1.39492, 1.35187, 1.35356, 1.32644, 1.3351, 1.34466, 1.3413, 1.32764, 1.32585, 1.32563, 1.32298, 1.32257, 1.32283, 1.33035, 1.31942, 1.3185, 1.31693, 1.31644, 1.31622, 1.31878, 1.31441, 1.32313, 1.32221, 1.32098, 
1.66523, 1.66499, 1.6628, 1.66054, 1.65874, 1.65417, 1.66483, 1.65139, 1.64794, 1.65469, 1.65975, 1.66928, 1.6721, 1.66835, 1.66524, 1.65138, 1.65228, 1.63858, 1.63445, 1.62499, 1.6232, 1.62313, 1.63475, 1.67477, 1.71054, 1.76451, 1.76815, 1.7966, 1.86251, 1.80966, 1.81757, 1.79928, 1.79539, 1.70571, 1.64365, 1.57176, 1.58457, 1.59693, 1.60967, 1.59846, 1.5889, 1.58598, 1.5827, 1.58866, 1.5787, 1.58278, 1.5745, 1.57494, 1.57329, 1.5723, 1.57068, 1.5665, 1.56479, 1.57114, 1.56286, 1.56169, 1.55995, 1.58103, 1.58258, 1.59562, 1.57288, 1.58258, 1.57402, 1.5586, 1.55113, 1.54926, 1.54164, 1.54664, 1.54744, 1.53414, 1.53325, 1.53228, 1.53006, 1.52939, 1.52801, 1.52612, 1.52456, 1.52339, 1.52058, 1.5199, 1.52002, 1.51729, 1.52033, 1.51277, 1.50981, 1.50884, 1.50681, 1.50549, 1.5053, 1.50246, 1.50003, 1.50533, 1.51807, 1.50433, 1.49394, 1.49714, 1.49964, 1.4791, 1.4678, 1.50317, 1.53427, 1.56437, 1.60781, 1.61616, 1.62662, 1.65381, 1.65537, 1.67289, 1.63121, 1.59283, 1.55081, 1.51788, 1.47825, 1.45811, 1.4689, 1.47509, 1.4654, 1.46421, 1.46397, 1.46416, 1.4621, 1.45788, 1.45782, 1.457, 1.45511, 1.45161, 1.44965, 1.44747, 1.44504, 1.44136, 1.43905, 1.43486, 1.43518, 1.43359, 1.43385, 1.43321, 1.42979, 1.42957, 1.43035, 1.4279, 1.42735, 1.42413, 1.42141, 1.42193, 1.41977, 1.41805, 1.41755, 1.41765, 1.41631, 1.41201, 1.41226, 1.40954, 1.40937, 1.40726, 1.40489, 1.40241, 1.40152, 1.40175, 1.40035, 1.40071, 1.39701, 1.39365, 1.3937, 1.38976, 1.38801, 1.38715, 1.38469, 1.38223, 1.38308, 1.37909, 1.37818, 1.37806, 1.37594, 1.3756, 1.37515, 1.37534, 1.37104, 1.36983, 1.37015, 1.36751, 1.36722, 1.36701, 1.36846, 1.36701, 1.36612, 1.36786, 1.36909, 1.37066, 1.38, 1.37563, 1.38526, 1.39228, 1.36193, 1.35282, 1.39905, 1.42078, 1.45132, 1.45447, 1.44522, 1.4576, 1.45602, 1.4645, 1.46571, 1.46808, 1.53114, 1.45386, 1.448, 1.40372, 1.34905, 1.34258, 1.33626, 1.33182, 1.34706, 1.3415, 1.33028, 1.32751, 1.33716, 1.32975, 1.32451, 1.32609, 1.32313, 1.32257, 1.32115, 1.32073, 1.32244, 1.3274, 1.31818, 1.31879, 1.31959, 1.31911, 
1.66225, 1.66063, 1.66764, 1.66382, 1.65163, 1.64941, 1.66204, 1.64539, 1.6452, 1.64619, 1.65516, 1.65602, 1.65768, 1.67349, 1.67731, 1.65579, 1.65449, 1.64165, 1.64069, 1.6158, 1.60713, 1.65723, 1.69682, 1.69949, 1.72801, 1.74594, 1.75484, 1.79691, 1.80677, 1.80573, 1.80808, 1.8126, 1.76902, 1.72186, 1.66189, 1.58101, 1.58699, 1.60587, 1.59606, 1.59043, 1.59398, 1.58795, 1.58501, 1.58496, 1.58261, 1.58097, 1.57951, 1.57592, 1.57597, 1.59705, 1.57114, 1.57115, 1.56565, 1.56524, 1.56357, 1.56277, 1.56112, 1.55975, 1.56551, 1.55956, 1.55981, 1.55785, 1.57907, 1.56038, 1.56169, 1.54508, 1.54148, 1.54504, 1.53733, 1.53657, 1.5357, 1.53358, 1.53317, 1.53136, 1.53029, 1.52915, 1.52661, 1.52456, 1.52143, 1.51922, 1.51624, 1.51327, 1.50994, 1.50885, 1.50695, 1.50652, 1.50214, 1.50203, 1.50147, 1.49938, 1.49835, 1.49717, 1.49681, 1.49752, 1.49772, 1.49907, 1.50999, 1.49658, 1.48055, 1.49698, 1.49586, 1.57186, 1.58945, 1.63422, 1.66038, 1.67139, 1.68209, 1.70748, 1.64957, 1.59909, 1.5818, 1.52081, 1.44265, 1.42814, 1.4631, 1.47523, 1.48121, 1.45617, 1.46501, 1.46429, 1.45368, 1.45425, 1.44984, 1.44629, 1.44538, 1.44448, 1.4419, 1.44036, 1.43976, 1.44084, 1.43634, 1.43683, 1.4384, 1.43315, 1.43095, 1.42993, 1.43076, 1.42948, 1.42911, 1.42676, 1.42554, 1.42334, 1.42502, 1.42387, 1.42123, 1.42256, 1.41975, 1.41918, 1.41754, 1.41564, 1.41441, 1.41364, 1.41246, 1.41283, 1.41085, 1.40895, 1.40733, 1.40594, 1.40593, 1.40384, 1.40156, 1.40889, 1.39916, 1.39756, 1.39467, 1.39356, 1.39074, 1.3919, 1.39139, 1.38981, 1.38618, 1.3861, 1.38319, 1.38201, 1.37949, 1.37662, 1.37588, 1.39257, 1.3758, 1.37509, 1.40556, 1.37335, 1.37321, 1.37075, 1.3706, 1.37066, 1.37096, 1.37486, 1.37886, 1.38592, 1.3884, 1.38071, 1.34698, 1.35744, 1.36905, 1.42717, 1.45708, 1.46147, 1.48643, 1.47234, 1.47241, 1.47328, 1.48351, 1.47993, 1.46396, 1.45046, 1.42234, 1.38142, 1.37434, 1.32322, 1.3377, 1.35669, 1.35395, 1.3351, 1.34042, 1.33134, 1.33001, 1.33263, 1.33367, 1.33089, 1.33043, 1.32913, 1.33025, 1.3296, 1.32663, 1.32639, 1.32621, 1.32422, 1.32332, 1.31977, 
1.66632, 1.66211, 1.66002, 1.65984, 1.65734, 1.65435, 1.65274, 1.64762, 1.64505, 1.64595, 1.64175, 1.65548, 1.63804, 1.63888, 1.66092, 1.65842, 1.65687, 1.66493, 1.6227, 1.6172, 1.62719, 1.62815, 1.63123, 1.69283, 1.70614, 1.75466, 1.82898, 1.82113, 1.82023, 1.82248, 1.82527, 1.79941, 1.77306, 1.67533, 1.67416, 1.6058, 1.58091, 1.59678, 1.59633, 1.58792, 1.58856, 1.58868, 1.57904, 1.58652, 1.57555, 1.57425, 1.5745, 1.57288, 1.57975, 1.56829, 1.56573, 1.56412, 1.56122, 1.56028, 1.55909, 1.5582, 1.55508, 1.55296, 1.55197, 1.54948, 1.54538, 1.54368, 1.57136, 1.54467, 1.55419, 1.5613, 1.54102, 1.53428, 1.52871, 1.52773, 1.52881, 1.52869, 1.52966, 1.53032, 1.53053, 1.52914, 1.53044, 1.51943, 1.5173, 1.51254, 1.51078, 1.50759, 1.51221, 1.51002, 1.49639, 1.49303, 1.4892, 1.4896, 1.50576, 1.50002, 1.48779, 1.49645, 1.48804, 1.48933, 1.48982, 1.50228, 1.50249, 1.50635, 1.46952, 1.48347, 1.5131, 1.52735, 1.605, 1.63355, 1.6536, 1.66474, 1.66563, 1.61269, 1.6585, 1.59444, 1.58876, 1.52337, 1.47624, 1.44724, 1.48072, 1.46112, 1.46526, 1.45078, 1.46132, 1.45523, 1.45688, 1.45185, 1.45078, 1.447, 1.43731, 1.43667, 1.43653, 1.43423, 1.43323, 1.43295, 1.43106, 1.43284, 1.4324, 1.42982, 1.42886, 1.42635, 1.42401, 1.42344, 1.42004, 1.41896, 1.41687, 1.41678, 1.41673, 1.41848, 1.41955, 1.41693, 1.41744, 1.41451, 1.41919, 1.41306, 1.41054, 1.40978, 1.40846, 1.40768, 1.40582, 1.40377, 1.4038, 1.40395, 1.40396, 1.4011, 1.40938, 1.39921, 1.39824, 1.39692, 1.39512, 1.39405, 1.39158, 1.391, 1.38839, 1.38643, 1.38594, 1.3819, 1.37991, 1.37837, 1.37672, 1.37587, 1.37563, 1.37652, 1.37495, 1.37397, 1.38545, 1.37233, 1.37929, 1.37864, 1.36932, 1.37372, 1.36501, 1.36479, 1.36847, 1.384, 1.37348, 1.37128, 1.35061, 1.37047, 1.38842, 1.42665, 1.46952, 1.50499, 1.50376, 1.46571, 1.50536, 1.51029, 1.50804, 1.50884, 1.51005, 1.46926, 1.46227, 1.41722, 1.41942, 1.31501, 1.32587, 1.35644, 1.34813, 1.34199, 1.33678, 1.33711, 1.33392, 1.3446, 1.34042, 1.34778, 1.33044, 1.32667, 1.32606, 1.32539, 1.32464, 1.32367, 1.31849, 1.32114, 1.31855, 1.3161, 
1.67892, 1.67471, 1.66918, 1.6681, 1.66931, 1.6689, 1.68208, 1.66614, 1.68718, 1.66293, 1.67202, 1.66868, 1.66112, 1.67395, 1.65662, 1.66151, 1.65664, 1.6671, 1.64921, 1.65207, 1.60904, 1.61727, 1.64123, 1.67202, 1.71251, 1.75544, 1.75553, 1.80277, 1.84137, 1.83893, 1.82779, 1.82739, 1.76804, 1.74349, 1.69279, 1.61714, 1.5899, 1.60455, 1.60084, 1.60699, 1.59497, 1.59562, 1.60391, 1.60181, 1.60026, 1.58942, 1.59922, 1.58278, 1.58325, 1.57717, 1.58474, 1.5774, 1.57779, 1.5771, 1.57569, 1.57296, 1.5754, 1.56432, 1.5784, 1.5637, 1.57125, 1.55827, 1.55803, 1.55808, 1.55835, 1.56933, 1.56222, 1.56969, 1.55775, 1.54938, 1.54786, 1.54656, 1.54169, 1.54072, 1.53128, 1.52968, 1.52939, 1.53214, 1.53148, 1.52925, 1.52624, 1.5225, 1.52672, 1.5241, 1.52543, 1.5194, 1.51565, 1.51689, 1.52223, 1.51211, 1.51083, 1.51042, 1.51805, 1.50911, 1.5171, 1.52196, 1.5223, 1.51611, 1.5126, 1.48293, 1.51938, 1.56372, 1.58954, 1.62033, 1.63415, 1.65149, 1.6491, 1.6459, 1.65083, 1.61869, 1.59289, 1.57649, 1.50268, 1.46423, 1.44352, 1.47277, 1.46455, 1.47934, 1.4894, 1.48572, 1.47562, 1.46963, 1.46301, 1.46643, 1.46151, 1.46443, 1.45465, 1.4537, 1.45237, 1.47211, 1.45194, 1.45001, 1.4651, 1.44913, 1.44274, 1.43895, 1.43677, 1.43468, 1.43167, 1.4304, 1.43201, 1.43273, 1.43395, 1.43546, 1.43608, 1.4349, 1.43132, 1.42797, 1.42572, 1.43769, 1.4224, 1.42248, 1.41993, 1.42554, 1.41955, 1.41889, 1.41689, 1.41431, 1.41555, 1.41219, 1.412, 1.40771, 1.40661, 1.40476, 1.40233, 1.40497, 1.40136, 1.40023, 1.39978, 1.39872, 1.39829, 1.39591, 1.39371, 1.39148, 1.39025, 1.38926, 1.38934, 1.38675, 1.38422, 1.38136, 1.37848, 1.388, 1.37732, 1.37931, 1.37845, 1.37844, 1.37816, 1.38201, 1.38925, 1.40203, 1.38449, 1.37596, 1.37554, 1.36368, 1.40988, 1.40976, 1.45399, 1.47804, 1.49364, 1.53194, 1.52007, 1.52096, 1.51824, 1.53328, 1.51882, 1.4932, 1.47635, 1.458, 1.3937, 1.33329, 1.34464, 1.35985, 1.35144, 1.3553, 1.35546, 1.35221, 1.34051, 1.35017, 1.34075, 1.34056, 1.33988, 1.34115, 1.33991, 1.33723, 1.3334, 1.33266, 1.33727, 1.34411, 1.32662, 1.32794, 
1.67529, 1.66647, 1.66158, 1.66504, 1.66858, 1.65809, 1.68333, 1.65785, 1.68073, 1.66089, 1.66178, 1.66012, 1.67151, 1.65351, 1.66141, 1.63982, 1.64742, 1.64809, 1.62885, 1.63416, 1.64202, 1.62148, 1.62754, 1.66901, 1.69117, 1.71623, 1.76478, 1.76479, 1.83895, 1.86571, 1.87787, 1.85855, 1.85085, 1.77213, 1.66453, 1.61663, 1.61365, 1.61347, 1.61631, 1.6107, 1.60925, 1.60722, 1.60248, 1.59807, 1.59293, 1.60407, 1.59558, 1.57374, 1.57669, 1.58293, 1.57097, 1.58853, 1.5753, 1.57465, 1.5723, 1.56843, 1.56321, 1.55907, 1.55839, 1.56565, 1.56579, 1.54962, 1.55827, 1.55301, 1.54787, 1.54737, 1.5594, 1.54926, 1.56796, 1.57198, 1.55363, 1.54109, 1.54639, 1.53746, 1.53719, 1.53775, 1.53494, 1.53258, 1.53105, 1.52912, 1.52703, 1.5232, 1.52309, 1.52691, 1.51225, 1.53372, 1.5129, 1.52104, 1.51601, 1.51424, 1.51069, 1.50802, 1.51673, 1.50967, 1.50197, 1.51473, 1.50607, 1.50926, 1.50839, 1.48051, 1.53588, 1.52672, 1.62658, 1.67581, 1.62444, 1.63691, 1.63833, 1.65697, 1.6446, 1.64395, 1.63494, 1.54512, 1.49569, 1.45085, 1.4438, 1.46395, 1.47147, 1.46267, 1.47572, 1.47578, 1.49152, 1.479, 1.46761, 1.45844, 1.46036, 1.45982, 1.46197, 1.45812, 1.45647, 1.45118, 1.44317, 1.43734, 1.43669, 1.43429, 1.43068, 1.42974, 1.42487, 1.42127, 1.42682, 1.41868, 1.42145, 1.42359, 1.43798, 1.43382, 1.43289, 1.43112, 1.42539, 1.42247, 1.41288, 1.41007, 1.40486, 1.40405, 1.399, 1.39639, 1.3949, 1.39454, 1.39505, 1.39446, 1.39153, 1.38992, 1.3871, 1.38568, 1.38625, 1.38849, 1.38242, 1.37951, 1.37677, 1.37553, 1.37463, 1.37746, 1.37987, 1.3827, 1.38322, 1.44473, 1.38558, 1.3892, 1.3888, 1.38939, 1.38835, 1.38232, 1.37813, 1.36684, 1.37521, 1.3619, 1.36103, 1.36119, 1.35952, 1.359, 1.37176, 1.36633, 1.37992, 1.37801, 1.38281, 1.34911, 1.35503, 1.40385, 1.49082, 1.4545, 1.47118, 1.47319, 1.49627, 1.56255, 1.5184, 1.54088, 1.54459, 1.46568, 1.42705, 1.39114, 1.35137, 1.29674, 1.29828, 1.35139, 1.35386, 1.36023, 1.34889, 1.34356, 1.33931, 1.33925, 1.33982, 1.33359, 1.32717, 1.33434, 1.31729, 1.31474, 1.31412, 1.32297, 1.31541, 1.31222, 1.31506, 1.30961, 
1.66471, 1.66271, 1.66328, 1.66782, 1.65907, 1.65854, 1.6599, 1.65807, 1.65734, 1.65477, 1.65967, 1.64669, 1.64401, 1.66855, 1.63791, 1.64685, 1.64137, 1.64211, 1.63685, 1.64523, 1.62466, 1.61006, 1.63008, 1.67847, 1.72051, 1.7369, 1.75232, 1.79466, 1.83486, 1.85504, 1.85568, 1.87924, 1.78205, 1.70784, 1.67882, 1.63176, 1.58153, 1.60374, 1.60414, 1.60221, 1.59774, 1.59425, 1.59007, 1.58617, 1.58231, 1.58478, 1.57544, 1.58904, 1.5691, 1.56766, 1.56536, 1.56422, 1.56392, 1.5743, 1.55906, 1.56054, 1.56161, 1.56115, 1.56067, 1.55731, 1.55543, 1.55188, 1.55184, 1.56692, 1.54881, 1.54849, 1.54724, 1.54862, 1.55836, 1.54958, 1.56158, 1.56207, 1.54598, 1.53747, 1.52792, 1.52456, 1.52143, 1.52009, 1.51872, 1.51939, 1.51953, 1.52314, 1.53492, 1.51552, 1.51284, 1.51211, 1.51087, 1.51126, 1.51016, 1.50832, 1.50473, 1.50762, 1.50695, 1.51074, 1.50012, 1.51634, 1.51799, 1.5022, 1.50512, 1.47264, 1.47675, 1.53901, 1.57765, 1.57579, 1.61255, 1.63161, 1.6366, 1.63362, 1.64115, 1.614, 1.59324, 1.54669, 1.53724, 1.47817, 1.44651, 1.45056, 1.47068, 1.47196, 1.46162, 1.45909, 1.48293, 1.48754, 1.47677, 1.46241, 1.45668, 1.45883, 1.44227, 1.44224, 1.44086, 1.44785, 1.43551, 1.43057, 1.4284, 1.42799, 1.42955, 1.42938, 1.43098, 1.43084, 1.43074, 1.42957, 1.42893, 1.42616, 1.42563, 1.42379, 1.42273, 1.42226, 1.42249, 1.42301, 1.41887, 1.42591, 1.41465, 1.41497, 1.41236, 1.41176, 1.41125, 1.40974, 1.41262, 1.40651, 1.40253, 1.4021, 1.40226, 1.39992, 1.39589, 1.3952, 1.39218, 1.39145, 1.38939, 1.38945, 1.38757, 1.38488, 1.38451, 1.38109, 1.38022, 1.38027, 1.3797, 1.37912, 1.38513, 1.37777, 1.37763, 1.37789, 1.37701, 1.382, 1.37457, 1.38725, 1.37322, 1.37207, 1.37223, 1.36933, 1.37113, 1.37141, 1.37275, 1.38208, 1.37298, 1.35093, 1.36068, 1.43622, 1.43904, 1.44035, 1.4551, 1.48176, 1.48671, 1.5104, 1.51216, 1.51237, 1.5119, 1.48688, 1.46987, 1.4529, 1.36793, 1.35811, 1.33358, 1.35105, 1.36093, 1.3488, 1.34189, 1.3473, 1.33428, 1.33301, 1.32923, 1.32903, 1.32564, 1.32622, 1.34476, 1.32331, 1.32568, 1.32594, 1.32593, 1.3264, 1.32495, 1.32272, 
1.66897, 1.66891, 1.66812, 1.66452, 1.66079, 1.66455, 1.6654, 1.65347, 1.67588, 1.64906, 1.64589, 1.65246, 1.65125, 1.64048, 1.64026, 1.64805, 1.63432, 1.63433, 1.63972, 1.64538, 1.62859, 1.61314, 1.62694, 1.65371, 1.66865, 1.68906, 1.73891, 1.75883, 1.82629, 1.82792, 1.88958, 1.9602, 1.82019, 1.72065, 1.68194, 1.624, 1.57884, 1.59265, 1.60956, 1.60634, 1.60009, 1.59526, 1.60292, 1.58336, 1.58288, 1.59543, 1.58534, 1.58902, 1.57895, 1.57419, 1.57958, 1.58987, 1.58451, 1.57943, 1.56257, 1.56182, 1.55816, 1.55549, 1.55234, 1.551, 1.55422, 1.54832, 1.54405, 1.5432, 1.5417, 1.54717, 1.53807, 1.54397, 1.53732, 1.55139, 1.5413, 1.54096, 1.548, 1.54342, 1.54162, 1.53117, 1.53026, 1.53095, 1.53388, 1.53452, 1.52202, 1.5295, 1.51469, 1.51357, 1.51016, 1.51371, 1.52334, 1.50626, 1.50101, 1.49853, 1.50296, 1.49969, 1.50789, 1.50153, 1.50623, 1.50252, 1.50963, 1.50195, 1.50557, 1.46237, 1.47431, 1.50585, 1.5584, 1.57533, 1.60074, 1.63687, 1.70111, 1.63771, 1.61084, 1.58538, 1.56542, 1.54829, 1.51308, 1.47271, 1.44758, 1.44027, 1.46449, 1.47877, 1.46654, 1.45887, 1.45956, 1.47241, 1.45882, 1.46626, 1.45068, 1.45128, 1.44383, 1.44638, 1.43752, 1.44145, 1.43792, 1.43588, 1.43629, 1.4347, 1.43372, 1.43261, 1.43171, 1.43051, 1.42896, 1.42982, 1.426, 1.42436, 1.42275, 1.43502, 1.42167, 1.41978, 1.41888, 1.42158, 1.43699, 1.4141, 1.4122, 1.41171, 1.41016, 1.40905, 1.40918, 1.40809, 1.40732, 1.4034, 1.40093, 1.39891, 1.39506, 1.39405, 1.39193, 1.39126, 1.39077, 1.39942, 1.38633, 1.39244, 1.3824, 1.38114, 1.38115, 1.38568, 1.386, 1.37691, 1.37818, 1.37842, 1.37672, 1.37551, 1.38121, 1.38465, 1.37072, 1.37203, 1.36876, 1.38508, 1.36715, 1.37202, 1.36552, 1.3618, 1.36803, 1.37474, 1.3778, 1.37051, 1.35174, 1.32667, 1.33483, 1.39115, 1.402, 1.41051, 1.46524, 1.46758, 1.47733, 1.49161, 1.5267, 1.53165, 1.55489, 1.51698, 1.49252, 1.45057, 1.38515, 1.36225, 1.35907, 1.35411, 1.36169, 1.35717, 1.34407, 1.34495, 1.34187, 1.34476, 1.33654, 1.34143, 1.33083, 1.34072, 1.34423, 1.34371, 1.32366, 1.32229, 1.32306, 1.32067, 1.31889, 1.31937, 
1.65635, 1.65403, 1.65222, 1.65092, 1.64822, 1.65357, 1.67272, 1.64122, 1.63844, 1.63803, 1.64044, 1.63863, 1.63724, 1.62088, 1.6182, 1.62375, 1.6272, 1.61376, 1.6185, 1.6132, 1.60997, 1.59288, 1.56858, 1.59439, 1.62016, 1.63555, 1.70192, 1.77496, 1.81107, 1.8421, 1.85106, 1.8485, 1.83497, 1.75474, 1.66632, 1.61378, 1.55907, 1.58597, 1.58984, 1.58239, 1.58709, 1.57634, 1.57336, 1.57143, 1.56974, 1.57438, 1.56368, 1.57576, 1.56065, 1.56845, 1.55785, 1.55475, 1.55247, 1.55119, 1.55039, 1.54779, 1.54783, 1.5461, 1.54573, 1.54353, 1.54073, 1.53949, 1.53762, 1.53287, 1.5304, 1.52952, 1.52708, 1.52995, 1.5329, 1.52578, 1.5113, 1.51239, 1.53432, 1.53457, 1.53083, 1.53015, 1.51938, 1.51088, 1.53697, 1.51836, 1.51694, 1.53073, 1.50675, 1.49741, 1.49783, 1.49759, 1.49557, 1.49452, 1.49165, 1.49535, 1.48881, 1.48876, 1.49284, 1.48902, 1.48261, 1.48524, 1.48663, 1.4939, 1.49295, 1.45712, 1.45963, 1.51027, 1.5246, 1.6343, 1.65509, 1.63089, 1.64381, 1.63473, 1.62715, 1.60982, 1.58395, 1.54386, 1.50636, 1.54009, 1.44917, 1.43343, 1.44252, 1.45399, 1.45572, 1.4603, 1.4414, 1.44123, 1.45265, 1.45747, 1.45854, 1.45756, 1.44067, 1.4258, 1.42704, 1.42503, 1.42894, 1.41957, 1.41926, 1.4189, 1.41862, 1.41622, 1.41491, 1.4129, 1.40994, 1.40834, 1.40511, 1.40492, 1.4014, 1.40147, 1.39906, 1.39817, 1.39697, 1.39594, 1.39433, 1.39287, 1.39239, 1.38862, 1.38666, 1.38352, 1.38332, 1.38201, 1.38108, 1.38075, 1.38255, 1.38207, 1.37975, 1.38018, 1.37953, 1.37876, 1.37795, 1.38866, 1.37297, 1.37276, 1.36945, 1.36984, 1.36589, 1.36508, 1.36422, 1.36336, 1.364, 1.36047, 1.35959, 1.35887, 1.35675, 1.35438, 1.35382, 1.35121, 1.35097, 1.35103, 1.34898, 1.34802, 1.34709, 1.34632, 1.35088, 1.34357, 1.34399, 1.34949, 1.35042, 1.31999, 1.34141, 1.39238, 1.41692, 1.42706, 1.49146, 1.53776, 1.48679, 1.48824, 1.50623, 1.53299, 1.53153, 1.5127, 1.49446, 1.4678, 1.38806, 1.34041, 1.30853, 1.32299, 1.33711, 1.33709, 1.31757, 1.31602, 1.31349, 1.31235, 1.31185, 1.30847, 1.31201, 1.30755, 1.30795, 1.30669, 1.31369, 1.30381, 1.3053, 1.30457, 1.30628, 1.30069, 
1.64525, 1.6443, 1.63871, 1.63636, 1.63789, 1.63656, 1.64133, 1.65613, 1.62833, 1.6258, 1.6251, 1.635, 1.62177, 1.62201, 1.62467, 1.63076, 1.62354, 1.62857, 1.63078, 1.62396, 1.62942, 1.61678, 1.59448, 1.63023, 1.64808, 1.69532, 1.73858, 1.78228, 1.82014, 1.86545, 1.87172, 1.86713, 1.82045, 1.72608, 1.69086, 1.61723, 1.57192, 1.57646, 1.58852, 1.58199, 1.57957, 1.59628, 1.57558, 1.56841, 1.56569, 1.56912, 1.56138, 1.56651, 1.55905, 1.55518, 1.5521, 1.56959, 1.54605, 1.54603, 1.54217, 1.53712, 1.53969, 1.54078, 1.54489, 1.54319, 1.54061, 1.53768, 1.53504, 1.53159, 1.53044, 1.52744, 1.52569, 1.52379, 1.52106, 1.51949, 1.51787, 1.5256, 1.51945, 1.5199, 1.52371, 1.53741, 1.53492, 1.51954, 1.53112, 1.50555, 1.50255, 1.50163, 1.5017, 1.4992, 1.49945, 1.49687, 1.49745, 1.49002, 1.49136, 1.48914, 1.48782, 1.48794, 1.48554, 1.48388, 1.49474, 1.48494, 1.49875, 1.49444, 1.48519, 1.46719, 1.46106, 1.49045, 1.51028, 1.52361, 1.56768, 1.59415, 1.60571, 1.59857, 1.59886, 1.59086, 1.58726, 1.56386, 1.51372, 1.48858, 1.46317, 1.4347, 1.44567, 1.45069, 1.45067, 1.44548, 1.44028, 1.44074, 1.44788, 1.43745, 1.44504, 1.4514, 1.45553, 1.451, 1.42582, 1.42693, 1.42486, 1.421, 1.42004, 1.42323, 1.41463, 1.41361, 1.41282, 1.41319, 1.41348, 1.4135, 1.41654, 1.41309, 1.41187, 1.40855, 1.40713, 1.40508, 1.40008, 1.40076, 1.42296, 1.40396, 1.39844, 1.39782, 1.39664, 1.3958, 1.39653, 1.39489, 1.3937, 1.39205, 1.3898, 1.39184, 1.38562, 1.38858, 1.38651, 1.3852, 1.38522, 1.38386, 1.38276, 1.37957, 1.37745, 1.37926, 1.37214, 1.37129, 1.38202, 1.36824, 1.36768, 1.3665, 1.365, 1.36517, 1.36282, 1.36153, 1.36076, 1.37798, 1.35892, 1.35873, 1.35578, 1.35416, 1.35355, 1.35191, 1.35096, 1.35373, 1.35401, 1.35829, 1.37105, 1.3677, 1.33931, 1.35174, 1.38634, 1.44982, 1.46156, 1.46007, 1.47599, 1.49273, 1.53768, 1.5393, 1.55594, 1.55064, 1.48891, 1.45711, 1.36908, 1.3358, 1.30885, 1.32998, 1.32372, 1.32217, 1.31814, 1.31691, 1.31447, 1.31385, 1.31294, 1.31107, 1.31052, 1.31065, 1.31116, 1.31089, 1.31004, 1.30889, 1.30693, 1.30509, 1.30457, 1.30549, 
1.65835, 1.66006, 1.65704, 1.65392, 1.65076, 1.65195, 1.64835, 1.64437, 1.64159, 1.64099, 1.63785, 1.63496, 1.63469, 1.63844, 1.63046, 1.62748, 1.62535, 1.63177, 1.62814, 1.62761, 1.62985, 1.61866, 1.59623, 1.62158, 1.63164, 1.6785, 1.72108, 1.77096, 1.78948, 1.84891, 1.86219, 1.86913, 1.83439, 1.80207, 1.73033, 1.61898, 1.57456, 1.56868, 1.58687, 1.59416, 1.5858, 1.58182, 1.57573, 1.57275, 1.5707, 1.56724, 1.56493, 1.5619, 1.56076, 1.55885, 1.55721, 1.55645, 1.55551, 1.55426, 1.55122, 1.55063, 1.54913, 1.54701, 1.54451, 1.55046, 1.54081, 1.53943, 1.53763, 1.5365, 1.53425, 1.53436, 1.53029, 1.52738, 1.52726, 1.52317, 1.52144, 1.51973, 1.52027, 1.51889, 1.51674, 1.514, 1.51123, 1.52096, 1.51403, 1.523, 1.51902, 1.51059, 1.5002, 1.49985, 1.49681, 1.49351, 1.51203, 1.4987, 1.48915, 1.48949, 1.48615, 1.48551, 1.48768, 1.48294, 1.48207, 1.49097, 1.49231, 1.48814, 1.48483, 1.45193, 1.4537, 1.46195, 1.49947, 1.55154, 1.55254, 1.58577, 1.60508, 1.60714, 1.60151, 1.5894, 1.57338, 1.56123, 1.55902, 1.52435, 1.44874, 1.43583, 1.45193, 1.45417, 1.45616, 1.45682, 1.43843, 1.43707, 1.43524, 1.43358, 1.43559, 1.44023, 1.44402, 1.45308, 1.45022, 1.44351, 1.43771, 1.42407, 1.4212, 1.41943, 1.42346, 1.41709, 1.41548, 1.41372, 1.41249, 1.41137, 1.41043, 1.40892, 1.40734, 1.41283, 1.40545, 1.40323, 1.40151, 1.40104, 1.39863, 1.39611, 1.3949, 1.39522, 1.39386, 1.39165, 1.39145, 1.39059, 1.39004, 1.4039, 1.38594, 1.38563, 1.38381, 1.38127, 1.38081, 1.37844, 1.3773, 1.37514, 1.37415, 1.37246, 1.37095, 1.3698, 1.36787, 1.36734, 1.36566, 1.36393, 1.36388, 1.3624, 1.36087, 1.35876, 1.35981, 1.36029, 1.3582, 1.35756, 1.35684, 1.35596, 1.354, 1.35358, 1.36629, 1.3521, 1.3515, 1.35776, 1.35246, 1.36796, 1.36883, 1.34336, 1.32709, 1.35414, 1.39535, 1.44188, 1.43806, 1.51737, 1.50981, 1.53061, 1.56331, 1.56052, 1.56472, 1.54099, 1.54424, 1.40429, 1.36091, 1.30991, 1.30403, 1.33301, 1.3407, 1.34049, 1.32756, 1.32418, 1.32752, 1.32658, 1.31571, 1.31775, 1.31537, 1.31462, 1.31398, 1.31236, 1.3118, 1.31002, 1.30958, 1.3081, 1.30605, 1.30642, 
1.65419, 1.6521, 1.64972, 1.64749, 1.64586, 1.64314, 1.64167, 1.64056, 1.63792, 1.63451, 1.63369, 1.63109, 1.63061, 1.62985, 1.62623, 1.62668, 1.62298, 1.62157, 1.62177, 1.61973, 1.62251, 1.63255, 1.60206, 1.59297, 1.65225, 1.66954, 1.69788, 1.73594, 1.76768, 1.80923, 1.86868, 1.92109, 1.94686, 1.80218, 1.70417, 1.5839, 1.58045, 1.56804, 1.58732, 1.59048, 1.58156, 1.57484, 1.57317, 1.56898, 1.58138, 1.56492, 1.57148, 1.56181, 1.55983, 1.5584, 1.56055, 1.55827, 1.55433, 1.55375, 1.5533, 1.55172, 1.55421, 1.54826, 1.54598, 1.54348, 1.5416, 1.53785, 1.53746, 1.53565, 1.53549, 1.55013, 1.53072, 1.52939, 1.52802, 1.52674, 1.52295, 1.5206, 1.51885, 1.51638, 1.51438, 1.51459, 1.51337, 1.51142, 1.5201, 1.52172, 1.52226, 1.52801, 1.50951, 1.49901, 1.49892, 1.49775, 1.50601, 1.49475, 1.49245, 1.49191, 1.49023, 1.48957, 1.48717, 1.48706, 1.48612, 1.49308, 1.49198, 1.48542, 1.49326, 1.45799, 1.45671, 1.46127, 1.48126, 1.51961, 1.56988, 1.58423, 1.57138, 1.57838, 1.62406, 1.58811, 1.57321, 1.56283, 1.52405, 1.53376, 1.48136, 1.44037, 1.44073, 1.46203, 1.46213, 1.45165, 1.44713, 1.4404, 1.43732, 1.4358, 1.44097, 1.43327, 1.43277, 1.43347, 1.45399, 1.44442, 1.4558, 1.44272, 1.42325, 1.42022, 1.41915, 1.41551, 1.41334, 1.41289, 1.41223, 1.40939, 1.4085, 1.40734, 1.40582, 1.40581, 1.40593, 1.40593, 1.40235, 1.40186, 1.40071, 1.39993, 1.39998, 1.39733, 1.3965, 1.39468, 1.39503, 1.39151, 1.39044, 1.38818, 1.38686, 1.38525, 1.38338, 1.38253, 1.37951, 1.37881, 1.37758, 1.37437, 1.37204, 1.37819, 1.37025, 1.36829, 1.36709, 1.36608, 1.36553, 1.36561, 1.36399, 1.36211, 1.36086, 1.36025, 1.36012, 1.35969, 1.35774, 1.35686, 1.35673, 1.35482, 1.35372, 1.35198, 1.35024, 1.34876, 1.3461, 1.34524, 1.3463, 1.35407, 1.35661, 1.35076, 1.32309, 1.33084, 1.37297, 1.40087, 1.44471, 1.4521, 1.49231, 1.38183, 1.38743, 1.38631, 1.56492, 1.55033, 1.50944, 1.47145, 1.36062, 1.34556, 1.32978, 1.34311, 1.33589, 1.3325, 1.33244, 1.32823, 1.3291, 1.32645, 1.32317, 1.32295, 1.3191, 1.32847, 1.32663, 1.31695, 1.31519, 1.31422, 1.31248, 1.31223, 1.3092, 1.31037, 
1.65255, 1.64833, 1.64758, 1.64844, 1.64589, 1.6441, 1.64198, 1.63729, 1.63583, 1.63234, 1.6302, 1.62836, 1.62687, 1.62492, 1.62384, 1.62072, 1.62023, 1.62011, 1.62205, 1.62043, 1.62093, 1.61798, 1.59604, 1.60273, 1.60996, 1.65829, 1.69175, 1.73238, 1.76223, 1.82089, 1.89634, 1.92758, 1.99386, 1.85516, 1.74316, 1.64081, 1.57452, 1.56762, 1.59563, 1.5893, 1.57961, 1.57548, 1.57289, 1.58176, 1.56849, 1.56835, 1.56371, 1.56314, 1.55926, 1.55806, 1.55813, 1.55516, 1.55444, 1.5515, 1.54798, 1.54439, 1.5432, 1.54327, 1.54002, 1.53955, 1.53772, 1.5384, 1.5354, 1.53319, 1.53286, 1.53369, 1.53338, 1.52662, 1.52459, 1.52296, 1.52059, 1.52051, 1.51837, 1.52475, 1.51615, 1.51447, 1.5135, 1.51389, 1.53055, 1.50782, 1.50528, 1.5315, 1.5479, 1.52088, 1.52226, 1.49973, 1.49722, 1.49652, 1.49522, 1.49279, 1.49911, 1.49093, 1.48956, 1.48571, 1.48936, 1.48675, 1.48741, 1.48381, 1.4887, 1.48252, 1.4628, 1.46679, 1.50511, 1.49517, 1.5032, 1.57712, 1.58856, 1.57825, 1.55699, 1.55783, 1.55403, 1.54758, 1.5336, 1.49808, 1.43977, 1.43996, 1.4196, 1.45223, 1.4517, 1.45369, 1.45543, 1.44437, 1.44263, 1.43881, 1.43664, 1.43477, 1.43397, 1.43295, 1.43054, 1.42927, 1.44477, 1.44715, 1.43595, 1.43079, 1.41658, 1.41571, 1.41332, 1.41967, 1.40992, 1.40863, 1.40875, 1.40803, 1.40682, 1.40619, 1.4054, 1.40612, 1.40719, 1.40338, 1.40179, 1.40069, 1.39952, 1.39908, 1.39771, 1.40207, 1.39391, 1.402, 1.38998, 1.3885, 1.38615, 1.38672, 1.3844, 1.3841, 1.38342, 1.38184, 1.38061, 1.37815, 1.37811, 1.3761, 1.37318, 1.37159, 1.36766, 1.36735, 1.3654, 1.36179, 1.36029, 1.35913, 1.35803, 1.35527, 1.35279, 1.35187, 1.35283, 1.35522, 1.35568, 1.35557, 1.35196, 1.35014, 1.34975, 1.34887, 1.35752, 1.34575, 1.3477, 1.36019, 1.35826, 1.34849, 1.3268, 1.33638, 1.38517, 1.39996, 1.41448, 1.44883, 1.52026, 1.5477, 1.54024, 1.59536, 1.60546, 1.6138, 1.56341, 1.51039, 1.35292, 1.34109, 1.30401, 1.34374, 1.32836, 1.33456, 1.32632, 1.32421, 1.33413, 1.31492, 1.31552, 1.32569, 1.33702, 1.31009, 1.31101, 1.31181, 1.31127, 1.313, 1.31475, 1.30713, 1.30861, 1.30906, 
1.65033, 1.64789, 1.64573, 1.64584, 1.65115, 1.64229, 1.63506, 1.63372, 1.63169, 1.63733, 1.6274, 1.62542, 1.62377, 1.6209, 1.62165, 1.6219, 1.62091, 1.62147, 1.62046, 1.62681, 1.64023, 1.61958, 1.62433, 1.58263, 1.61795, 1.67802, 1.68873, 1.77595, 1.78589, 1.79662, 1.9361, 1.96785, 1.97853, 1.90134, 1.64274, 1.62816, 1.5653, 1.57736, 1.58435, 1.58549, 1.58852, 1.58246, 1.57886, 1.57174, 1.57561, 1.56589, 1.56911, 1.56214, 1.56058, 1.5595, 1.55926, 1.55669, 1.55306, 1.55201, 1.55014, 1.54827, 1.54269, 1.54121, 1.53899, 1.53904, 1.53838, 1.53745, 1.53279, 1.5313, 1.53724, 1.53037, 1.52762, 1.52467, 1.52002, 1.51798, 1.51602, 1.51373, 1.51274, 1.51231, 1.51119, 1.50587, 1.50429, 1.50322, 1.50314, 1.50189, 1.503, 1.50088, 1.51454, 1.51117, 1.52107, 1.50902, 1.52262, 1.50614, 1.49237, 1.4915, 1.48818, 1.4865, 1.49165, 1.48353, 1.48181, 1.48333, 1.49114, 1.48899, 1.48506, 1.47822, 1.47478, 1.47486, 1.54114, 1.52326, 1.59368, 1.58371, 1.55157, 1.56705, 1.58292, 1.53976, 1.54756, 1.54859, 1.51974, 1.55591, 1.5024, 1.46424, 1.41759, 1.44171, 1.46191, 1.46858, 1.45937, 1.45123, 1.45942, 1.43449, 1.43239, 1.43084, 1.4293, 1.42782, 1.42698, 1.42476, 1.43333, 1.43507, 1.45321, 1.44804, 1.43535, 1.43619, 1.43302, 1.41031, 1.40825, 1.4071, 1.42243, 1.40561, 1.40486, 1.4061, 1.40528, 1.40459, 1.40358, 1.40186, 1.39909, 1.3984, 1.39801, 1.39823, 1.39504, 1.39319, 1.39211, 1.39062, 1.39092, 1.38827, 1.38734, 1.38669, 1.38563, 1.38638, 1.38539, 1.38498, 1.38424, 1.38232, 1.38032, 1.37803, 1.37474, 1.37235, 1.37047, 1.36888, 1.36526, 1.36465, 1.36397, 1.35946, 1.35881, 1.35871, 1.35726, 1.35722, 1.35702, 1.35599, 1.35548, 1.35488, 1.35467, 1.35354, 1.35563, 1.35302, 1.35353, 1.35345, 1.36357, 1.37143, 1.36977, 1.37189, 1.34045, 1.33002, 1.37176, 1.44755, 1.44664, 1.46636, 1.52376, 1.53333, 1.55748, 1.59282, 1.59221, 1.56497, 1.51648, 1.45845, 1.39152, 1.32243, 1.3203, 1.3278, 1.33075, 1.33607, 1.32266, 1.32024, 1.31904, 1.31933, 1.32045, 1.31689, 1.31472, 1.31732, 1.32443, 1.31329, 1.33082, 1.31305, 1.31229, 1.3089, 1.30678, 1.30737, 
1.64967, 1.64874, 1.64571, 1.64323, 1.64, 1.63823, 1.63499, 1.63327, 1.63042, 1.63105, 1.62938, 1.66337, 1.62562, 1.62432, 1.62298, 1.62346, 1.62437, 1.62684, 1.6311, 1.61862, 1.61774, 1.61735, 1.61555, 1.59641, 1.59511, 1.63737, 1.70793, 1.71437, 1.8051, 1.83344, 1.85223, 1.89932, 1.94429, 1.8899, 1.8203, 1.66161, 1.55415, 1.56388, 1.58879, 1.57895, 1.58778, 1.57881, 1.5853, 1.57307, 1.56784, 1.56831, 1.56253, 1.56117, 1.55808, 1.55674, 1.55532, 1.55356, 1.55363, 1.55029, 1.54815, 1.54662, 1.54524, 1.54412, 1.54294, 1.54215, 1.53976, 1.53775, 1.53605, 1.53379, 1.53262, 1.53018, 1.52951, 1.52684, 1.52477, 1.52303, 1.52049, 1.51887, 1.51669, 1.51429, 1.5114, 1.50894, 1.50598, 1.5045, 1.50414, 1.50092, 1.49984, 1.49854, 1.5064, 1.50953, 1.5102, 1.52658, 1.51737, 1.51649, 1.50864, 1.4915, 1.49169, 1.48868, 1.48655, 1.48663, 1.47973, 1.4889, 1.4908, 1.48566, 1.4776, 1.46257, 1.4719, 1.49971, 1.50898, 1.53467, 1.53781, 1.54434, 1.54469, 1.54459, 1.56475, 1.53478, 1.53331, 1.5041, 1.53726, 1.51512, 1.48244, 1.43405, 1.4363, 1.44092, 1.45183, 1.46167, 1.44459, 1.44951, 1.44388, 1.43652, 1.44697, 1.44808, 1.43626, 1.43806, 1.43889, 1.44063, 1.43037, 1.42018, 1.4305, 1.43168, 1.42666, 1.4198, 1.41339, 1.40971, 1.40943, 1.40604, 1.40499, 1.40389, 1.40288, 1.40427, 1.40113, 1.40003, 1.40003, 1.39816, 1.39589, 1.39518, 1.39269, 1.39205, 1.38974, 1.38842, 1.38767, 1.38681, 1.38571, 1.38641, 1.38482, 1.38329, 1.3835, 1.38173, 1.38019, 1.37846, 1.3778, 1.37541, 1.37373, 1.37278, 1.37255, 1.37181, 1.37134, 1.36868, 1.36779, 1.36776, 1.36681, 1.36651, 1.36555, 1.36517, 1.36445, 1.36203, 1.36362, 1.3624, 1.36128, 1.3577, 1.35481, 1.35419, 1.35372, 1.35376, 1.35314, 1.35051, 1.36158, 1.35324, 1.35953, 1.36592, 1.35564, 1.3237, 1.35797, 1.42706, 1.44229, 1.46027, 1.49549, 1.55504, 1.55818, 1.56435, 1.57597, 1.571, 1.5012, 1.52799, 1.41005, 1.30921, 1.33336, 1.32949, 1.33784, 1.34074, 1.3361, 1.32033, 1.31864, 1.31757, 1.31623, 1.31655, 1.31629, 1.31479, 1.31238, 1.31179, 1.31061, 1.31011, 1.30767, 1.3076, 1.30586, 1.31917, 
1.6531, 1.65253, 1.65112, 1.64653, 1.64425, 1.64008, 1.63681, 1.63676, 1.63559, 1.64069, 1.65551, 1.63047, 1.6267, 1.623, 1.62116, 1.62096, 1.62136, 1.61719, 1.61439, 1.62779, 1.62429, 1.61591, 1.61992, 1.61732, 1.58897, 1.59581, 1.68983, 1.73066, 1.79999, 1.83384, 1.86612, 1.90614, 1.93467, 1.92798, 1.82638, 1.63295, 1.55011, 1.57247, 1.58944, 1.57932, 1.58635, 1.57533, 1.58319, 1.56896, 1.56544, 1.56543, 1.56276, 1.55935, 1.55797, 1.55645, 1.55479, 1.56167, 1.55104, 1.55793, 1.54789, 1.54689, 1.54425, 1.5436, 1.53853, 1.53724, 1.53456, 1.53188, 1.53218, 1.52688, 1.52452, 1.52545, 1.52069, 1.51886, 1.51703, 1.51606, 1.51692, 1.51457, 1.51129, 1.51019, 1.50999, 1.50771, 1.5074, 1.50684, 1.50566, 1.5054, 1.50448, 1.50363, 1.50069, 1.49895, 1.50021, 1.49297, 1.50629, 1.51057, 1.52699, 1.50522, 1.50931, 1.48704, 1.49218, 1.49463, 1.49556, 1.48174, 1.48232, 1.48438, 1.48045, 1.46937, 1.45455, 1.45586, 1.50528, 1.51472, 1.54323, 1.55013, 1.5479, 1.53691, 1.52361, 1.52753, 1.53715, 1.53653, 1.53427, 1.53108, 1.5112, 1.48206, 1.41813, 1.43771, 1.4512, 1.46367, 1.44701, 1.44412, 1.45149, 1.43987, 1.44772, 1.4444, 1.45982, 1.45074, 1.46414, 1.4688, 1.48395, 1.45432, 1.44647, 1.43295, 1.42087, 1.41984, 1.41287, 1.41902, 1.41646, 1.40779, 1.40705, 1.40642, 1.40711, 1.40262, 1.40267, 1.4009, 1.4016, 1.39787, 1.39502, 1.39287, 1.39265, 1.39156, 1.39049, 1.39027, 1.38706, 1.38513, 1.38436, 1.38492, 1.38348, 1.38205, 1.38056, 1.37752, 1.37552, 1.37512, 1.37454, 1.3727, 1.37112, 1.36908, 1.3687, 1.36815, 1.36684, 1.36571, 1.3654, 1.36401, 1.36389, 1.36304, 1.36394, 1.36138, 1.36204, 1.36009, 1.3605, 1.35732, 1.35656, 1.35608, 1.35486, 1.35362, 1.35138, 1.35066, 1.36505, 1.34918, 1.35426, 1.34729, 1.35068, 1.35111, 1.36102, 1.3395, 1.31925, 1.35753, 1.41895, 1.45877, 1.48105, 1.52652, 1.56253, 1.59863, 1.59369, 1.57532, 1.53008, 1.47395, 1.40511, 1.3156, 1.30948, 1.33335, 1.32766, 1.32691, 1.32292, 1.33124, 1.32096, 1.31892, 1.31834, 1.31844, 1.31663, 1.31509, 1.31363, 1.31215, 1.3096, 1.30916, 1.30863, 1.30859, 1.30668, 1.30607, 
1.6782, 1.64843, 1.64745, 1.64731, 1.64268, 1.64094, 1.63976, 1.63819, 1.63639, 1.63403, 1.63135, 1.63069, 1.62768, 1.62507, 1.62154, 1.61947, 1.61703, 1.61563, 1.61258, 1.61141, 1.6166, 1.61291, 1.61171, 1.61095, 1.5997, 1.61593, 1.63435, 1.68467, 1.72047, 1.75899, 1.83031, 1.86187, 1.86229, 1.79596, 1.6893, 1.60366, 1.568, 1.5893, 1.58604, 1.59387, 1.58695, 1.59174, 1.57691, 1.57261, 1.57107, 1.56818, 1.56606, 1.56255, 1.56057, 1.55786, 1.55446, 1.55364, 1.55414, 1.54465, 1.54179, 1.54735, 1.54042, 1.53901, 1.53538, 1.53371, 1.53183, 1.52947, 1.52622, 1.52473, 1.52633, 1.5232, 1.51742, 1.52426, 1.51061, 1.51335, 1.50935, 1.50885, 1.50927, 1.50862, 1.50602, 1.50291, 1.50316, 1.5025, 1.50139, 1.50118, 1.50022, 1.49874, 1.49937, 1.49634, 1.49556, 1.4928, 1.4921, 1.49832, 1.5025, 1.53544, 1.53775, 1.52661, 1.5125, 1.51225, 1.51368, 1.47298, 1.48401, 1.4785, 1.49262, 1.46922, 1.4609, 1.46216, 1.50969, 1.53352, 1.52654, 1.54722, 1.54351, 1.54108, 1.50931, 1.50289, 1.50624, 1.54002, 1.52455, 1.52823, 1.48418, 1.50009, 1.4559, 1.46031, 1.46417, 1.48701, 1.47653, 1.4651, 1.47136, 1.46183, 1.4691, 1.46825, 1.45335, 1.4483, 1.45095, 1.44352, 1.43415, 1.42803, 1.43634, 1.43045, 1.41936, 1.41845, 1.41651, 1.41445, 1.4122, 1.41002, 1.40861, 1.40789, 1.40512, 1.40247, 1.40232, 1.40087, 1.39927, 1.39802, 1.39703, 1.39585, 1.39213, 1.3886, 1.38689, 1.3856, 1.38371, 1.38219, 1.38472, 1.38311, 1.38205, 1.38129, 1.38123, 1.3785, 1.37651, 1.37538, 1.37512, 1.37614, 1.3737, 1.37092, 1.37043, 1.36912, 1.36942, 1.36884, 1.364, 1.36396, 1.36376, 1.3606, 1.36053, 1.36, 1.35724, 1.35528, 1.35494, 1.35375, 1.35358, 1.35122, 1.34902, 1.34848, 1.34785, 1.34457, 1.34429, 1.34294, 1.3411, 1.34278, 1.35865, 1.35141, 1.36038, 1.34639, 1.35034, 1.37886, 1.42786, 1.424, 1.48815, 1.55508, 1.59017, 1.60265, 1.62332, 1.62059, 1.65124, 1.49552, 1.38994, 1.29784, 1.31268, 1.33269, 1.32622, 1.32685, 1.3367, 1.31762, 1.31634, 1.31579, 1.31475, 1.3143, 1.31288, 1.31264, 1.3092, 1.30845, 1.30587, 1.30546, 1.30506, 1.30392, 1.30312, 1.30025, 
1.64438, 1.64313, 1.64126, 1.64231, 1.64018, 1.63995, 1.6399, 1.64322, 1.63913, 1.63921, 1.63509, 1.65754, 1.64037, 1.62765, 1.6255, 1.62184, 1.62487, 1.61861, 1.62019, 1.61084, 1.6126, 1.60795, 1.6085, 1.6099, 1.57133, 1.58915, 1.63034, 1.6929, 1.71983, 1.7976, 1.83906, 1.90458, 1.96471, 1.96845, 1.77368, 1.66854, 1.55846, 1.56566, 1.60296, 1.59045, 1.59505, 1.60189, 1.5836, 1.58638, 1.58492, 1.58043, 1.57935, 1.58744, 1.56979, 1.58204, 1.56344, 1.5576, 1.5535, 1.55115, 1.54973, 1.5473, 1.54533, 1.55333, 1.53852, 1.53667, 1.53407, 1.53229, 1.52971, 1.52814, 1.52519, 1.52311, 1.52131, 1.52045, 1.51779, 1.51529, 1.51215, 1.51172, 1.51078, 1.50853, 1.50703, 1.50528, 1.50414, 1.50262, 1.50184, 1.49991, 1.50003, 1.49672, 1.49594, 1.4931, 1.49379, 1.496, 1.4929, 1.4919, 1.48842, 1.48907, 1.48834, 1.49173, 1.49373, 1.49295, 1.4965, 1.5064, 1.51471, 1.51291, 1.49821, 1.49308, 1.4751, 1.47226, 1.48401, 1.51991, 1.54373, 1.54461, 1.54712, 1.53343, 1.48611, 1.48339, 1.50946, 1.49838, 1.51575, 1.51715, 1.49889, 1.47904, 1.45201, 1.46203, 1.46089, 1.45172, 1.44909, 1.44735, 1.43908, 1.43737, 1.43492, 1.43238, 1.43075, 1.42782, 1.42646, 1.42489, 1.4221, 1.42026, 1.41715, 1.41553, 1.41334, 1.41112, 1.41009, 1.41277, 1.41142, 1.41052, 1.40884, 1.40589, 1.40227, 1.40099, 1.39971, 1.39893, 1.39843, 1.39717, 1.39632, 1.39581, 1.39504, 1.3947, 1.39467, 1.39313, 1.39233, 1.39151, 1.38819, 1.38479, 1.38205, 1.38047, 1.37826, 1.37902, 1.37828, 1.37715, 1.3768, 1.37615, 1.37109, 1.37056, 1.37107, 1.37158, 1.37147, 1.36975, 1.36865, 1.36685, 1.36562, 1.36426, 1.36238, 1.3617, 1.3588, 1.35564, 1.35445, 1.35412, 1.35328, 1.35034, 1.35009, 1.36062, 1.34822, 1.34738, 1.34462, 1.34972, 1.34555, 1.34296, 1.35044, 1.36425, 1.35134, 1.35063, 1.32927, 1.31685, 1.41608, 1.44834, 1.50234, 1.505, 1.58487, 1.63808, 1.58551, 1.64118, 1.62969, 1.49193, 1.41717, 1.35113, 1.30439, 1.32647, 1.33108, 1.32563, 1.32323, 1.31974, 1.31697, 1.31352, 1.31466, 1.31625, 1.31147, 1.31227, 1.31165, 1.31288, 1.31218, 1.31728, 1.30969, 1.30921, 1.30996, 1.3086, 
1.64229, 1.64397, 1.63882, 1.63654, 1.63525, 1.63559, 1.63314, 1.63288, 1.62883, 1.62615, 1.62352, 1.62228, 1.62282, 1.62262, 1.61961, 1.61735, 1.6211, 1.61293, 1.61055, 1.60694, 1.60602, 1.60635, 1.6055, 1.60415, 1.59823, 1.58963, 1.62284, 1.64588, 1.75856, 1.79641, 1.84775, 1.91001, 1.92863, 1.98071, 1.86638, 1.63909, 1.55722, 1.54104, 1.54373, 1.5549, 1.57491, 1.59689, 1.58053, 1.55978, 1.56211, 1.585, 1.58091, 1.58181, 1.58709, 1.57223, 1.57291, 1.56768, 1.55398, 1.55146, 1.54037, 1.54089, 1.53498, 1.53311, 1.53329, 1.54484, 1.53171, 1.53083, 1.52696, 1.52673, 1.52562, 1.52275, 1.52166, 1.52084, 1.51689, 1.51522, 1.51281, 1.51275, 1.51093, 1.5059, 1.50366, 1.50182, 1.50038, 1.50036, 1.49846, 1.49569, 1.49472, 1.49348, 1.49284, 1.49162, 1.51474, 1.48815, 1.48613, 1.48366, 1.48183, 1.4805, 1.4781, 1.47738, 1.4764, 1.47527, 1.47517, 1.48213, 1.47662, 1.48081, 1.48862, 1.47761, 1.47449, 1.48528, 1.51854, 1.51413, 1.53385, 1.53118, 1.41525, 1.50609, 1.5058, 1.47609, 1.48273, 1.50118, 1.50951, 1.50776, 1.50171, 1.50685, 1.47093, 1.45789, 1.45963, 1.45504, 1.44606, 1.46336, 1.43757, 1.43548, 1.45112, 1.43134, 1.4303, 1.42747, 1.4259, 1.42225, 1.42191, 1.423, 1.41815, 1.4171, 1.41518, 1.41167, 1.40988, 1.40851, 1.40739, 1.40829, 1.40937, 1.40824, 1.4085, 1.40534, 1.40328, 1.40182, 1.39958, 1.39804, 1.39729, 1.39774, 1.39474, 1.3945, 1.39179, 1.389, 1.38615, 1.38503, 1.385, 1.3846, 1.38119, 1.38259, 1.38127, 1.38202, 1.37899, 1.37817, 1.37437, 1.3727, 1.36911, 1.37131, 1.37105, 1.36964, 1.37074, 1.36714, 1.36681, 1.36462, 1.36232, 1.36106, 1.35898, 1.35754, 1.35506, 1.37078, 1.3535, 1.35472, 1.35347, 1.35196, 1.35296, 1.35932, 1.35807, 1.34736, 1.3449, 1.34434, 1.34375, 1.34368, 1.34148, 1.34317, 1.34633, 1.35224, 1.32991, 1.32081, 1.37068, 1.37993, 1.44352, 1.49901, 1.53401, 1.5578, 1.62472, 1.62819, 1.56476, 1.48267, 1.39534, 1.32558, 1.3039, 1.33163, 1.33021, 1.33022, 1.33751, 1.33758, 1.31905, 1.31599, 1.31468, 1.31238, 1.3114, 1.31083, 1.31268, 1.30964, 1.31212, 1.3088, 1.31045, 1.30966, 1.30947, 1.30864, 
1.64082, 1.63605, 1.63439, 1.63953, 1.63383, 1.63075, 1.62964, 1.62691, 1.62482, 1.62453, 1.62142, 1.62357, 1.61589, 1.61552, 1.61301, 1.61153, 1.60676, 1.60464, 1.60467, 1.60528, 1.60385, 1.60442, 1.61405, 1.61691, 1.59283, 1.58021, 1.5971, 1.65879, 1.71361, 1.7824, 1.83183, 1.92348, 1.97415, 1.97393, 1.89985, 1.655, 1.54475, 1.5583, 1.56231, 1.53632, 1.5893, 1.62622, 1.66888, 1.66839, 1.61201, 1.6106, 1.58581, 1.59684, 1.58671, 1.57655, 1.56652, 1.56243, 1.55478, 1.55647, 1.54496, 1.54067, 1.53781, 1.53199, 1.53082, 1.52892, 1.52747, 1.52484, 1.52381, 1.52103, 1.51981, 1.51829, 1.51963, 1.52417, 1.51396, 1.513, 1.51202, 1.51109, 1.50961, 1.50648, 1.50427, 1.50114, 1.49872, 1.49796, 1.49626, 1.4933, 1.49211, 1.49039, 1.48863, 1.48805, 1.48559, 1.48525, 1.48471, 1.48247, 1.48104, 1.47863, 1.47756, 1.47625, 1.47449, 1.48173, 1.47243, 1.47257, 1.47882, 1.47477, 1.4783, 1.47905, 1.46268, 1.47813, 1.50047, 1.50218, 1.54934, 1.50986, 1.5261, 1.5131, 1.48107, 1.48195, 1.47259, 1.4962, 1.48423, 1.50401, 1.48539, 1.48945, 1.46139, 1.43296, 1.46075, 1.44498, 1.44161, 1.44869, 1.44165, 1.43712, 1.42507, 1.42167, 1.41931, 1.41908, 1.41658, 1.41405, 1.41451, 1.4182, 1.42363, 1.40401, 1.40807, 1.40782, 1.40933, 1.40913, 1.40931, 1.40864, 1.40655, 1.4049, 1.40272, 1.40203, 1.40074, 1.3987, 1.39697, 1.39388, 1.39336, 1.39261, 1.38972, 1.38704, 1.38538, 1.38297, 1.38331, 1.38163, 1.38086, 1.37892, 1.37768, 1.37674, 1.37597, 1.37503, 1.37393, 1.37134, 1.37053, 1.36987, 1.36851, 1.36708, 1.36609, 1.36438, 1.36415, 1.36252, 1.36061, 1.36221, 1.35936, 1.35801, 1.35681, 1.35673, 1.35714, 1.35676, 1.35653, 1.35377, 1.35365, 1.35716, 1.34959, 1.34931, 1.34754, 1.34492, 1.34689, 1.35901, 1.351, 1.34314, 1.34376, 1.35038, 1.34285, 1.34464, 1.33908, 1.33324, 1.3747, 1.37445, 1.46735, 1.4647, 1.56113, 1.59344, 1.64423, 1.75064, 1.63034, 1.50705, 1.45249, 1.37792, 1.31302, 1.31842, 1.32798, 1.34036, 1.32743, 1.32397, 1.31522, 1.32391, 1.31412, 1.30976, 1.31302, 1.30761, 1.30851, 1.30917, 1.30714, 1.30677, 1.3038, 1.30509, 1.30251, 1.30085, 
1.62863, 1.62687, 1.6265, 1.62471, 1.62386, 1.62194, 1.62051, 1.61895, 1.61917, 1.61773, 1.61661, 1.61353, 1.61072, 1.60898, 1.60788, 1.61599, 1.60315, 1.60111, 1.5993, 1.59685, 1.59586, 1.59524, 1.59568, 1.59762, 1.59888, 1.58654, 1.59032, 1.66772, 1.67353, 1.71237, 1.78765, 1.84541, 1.87204, 1.9412, 1.73694, 1.68279, 1.54733, 1.53701, 1.55812, 1.56526, 1.56441, 1.5625, 1.56628, 1.56819, 1.57238, 1.56113, 1.55875, 1.58071, 1.55134, 1.5613, 1.54632, 1.54435, 1.53824, 1.53521, 1.53238, 1.53353, 1.52796, 1.53499, 1.52554, 1.52194, 1.52229, 1.51885, 1.51626, 1.51376, 1.5124, 1.5109, 1.5091, 1.50827, 1.50546, 1.50493, 1.50308, 1.50146, 1.50087, 1.49855, 1.49721, 1.49596, 1.49456, 1.4936, 1.49065, 1.48673, 1.48434, 1.48083, 1.47839, 1.47691, 1.47426, 1.47322, 1.47157, 1.47061, 1.46934, 1.46971, 1.46886, 1.46819, 1.46656, 1.46494, 1.46426, 1.46303, 1.46544, 1.46722, 1.46752, 1.466, 1.47461, 1.47191, 1.48477, 1.50888, 1.51329, 1.51556, 1.51993, 1.50068, 1.50278, 1.46852, 1.47698, 1.49009, 1.48119, 1.47756, 1.50927, 1.47904, 1.47048, 1.4538, 1.4455, 1.44736, 1.44103, 1.43643, 1.43435, 1.42959, 1.42628, 1.42438, 1.42113, 1.41947, 1.41733, 1.41646, 1.41368, 1.41236, 1.41128, 1.40832, 1.40666, 1.40338, 1.40256, 1.40146, 1.40122, 1.39885, 1.39754, 1.39604, 1.39269, 1.39206, 1.39078, 1.38876, 1.38565, 1.38349, 1.3814, 1.38081, 1.37816, 1.37757, 1.37663, 1.37434, 1.37382, 1.37368, 1.37274, 1.37545, 1.37624, 1.3747, 1.37431, 1.37457, 1.37295, 1.373, 1.37146, 1.37101, 1.36752, 1.36501, 1.36076, 1.35757, 1.35645, 1.35384, 1.3505, 1.35108, 1.34841, 1.34741, 1.34726, 1.34939, 1.34871, 1.34815, 1.34766, 1.34626, 1.34466, 1.34466, 1.3432, 1.34331, 1.34141, 1.3543, 1.33932, 1.33675, 1.33554, 1.33336, 1.33378, 1.33993, 1.3319, 1.33655, 1.33785, 1.31185, 1.36585, 1.40649, 1.46147, 1.48559, 1.58174, 1.59694, 1.65936, 1.71338, 1.70491, 1.61112, 1.43096, 1.37274, 1.29565, 1.31589, 1.31433, 1.33651, 1.3171, 1.31191, 1.30698, 1.30559, 1.30379, 1.30482, 1.30273, 1.30213, 1.30214, 1.30095, 1.29916, 1.29877, 1.2972, 1.29518, 1.29498, 1.29466, 
1.62302, 1.62202, 1.62116, 1.61921, 1.62114, 1.6203, 1.61817, 1.61697, 1.61673, 1.61674, 1.61349, 1.6119, 1.60974, 1.60693, 1.60657, 1.60397, 1.60255, 1.59964, 1.59689, 1.59616, 1.59381, 1.59359, 1.59289, 1.59987, 1.60223, 1.59258, 1.58316, 1.63609, 1.66327, 1.73305, 1.80566, 1.89052, 1.91407, 1.73345, 1.69915, 1.65401, 1.59319, 1.52721, 1.54482, 1.56121, 1.56665, 1.55919, 1.57553, 1.55581, 1.56836, 1.5534, 1.55287, 1.54908, 1.54792, 1.54431, 1.54424, 1.54743, 1.54754, 1.5503, 1.53526, 1.53164, 1.52851, 1.52855, 1.52485, 1.52241, 1.52073, 1.51907, 1.51763, 1.51487, 1.51142, 1.50911, 1.50472, 1.50388, 1.50247, 1.50355, 1.50149, 1.50212, 1.49815, 1.4956, 1.49484, 1.49243, 1.49057, 1.48976, 1.48797, 1.48636, 1.48512, 1.48277, 1.48026, 1.47814, 1.47585, 1.47446, 1.47204, 1.47083, 1.46885, 1.4677, 1.4677, 1.46616, 1.4639, 1.46275, 1.46093, 1.46037, 1.46109, 1.46267, 1.46511, 1.46993, 1.46289, 1.46538, 1.49158, 1.51048, 1.49799, 1.50435, 1.49458, 1.48854, 1.48663, 1.46506, 1.46128, 1.47659, 1.4803, 1.47893, 1.49147, 1.49444, 1.48244, 1.44379, 1.43868, 1.4477, 1.44984, 1.44172, 1.43524, 1.42318, 1.4201, 1.4157, 1.41467, 1.4127, 1.41102, 1.40791, 1.41095, 1.41957, 1.40617, 1.40554, 1.40515, 1.40211, 1.40265, 1.40107, 1.39932, 1.39834, 1.39975, 1.39284, 1.39537, 1.39327, 1.39015, 1.38825, 1.3877, 1.38498, 1.38345, 1.382, 1.38005, 1.37957, 1.37848, 1.37689, 1.37799, 1.37585, 1.37434, 1.37389, 1.37076, 1.37093, 1.36969, 1.36834, 1.36719, 1.36397, 1.36391, 1.36062, 1.35823, 1.3571, 1.35353, 1.35135, 1.35217, 1.35737, 1.3466, 1.3463, 1.34677, 1.34528, 1.34469, 1.34594, 1.34413, 1.34376, 1.34392, 1.34079, 1.34034, 1.33975, 1.33852, 1.33868, 1.33474, 1.33428, 1.34144, 1.35325, 1.34076, 1.32989, 1.32794, 1.32929, 1.32974, 1.33656, 1.32782, 1.32754, 1.3106, 1.36009, 1.42438, 1.43397, 1.51147, 1.5989, 1.64504, 1.84431, 1.68314, 1.64888, 1.41625, 1.35359, 1.29892, 1.29614, 1.31077, 1.30932, 1.30892, 1.30692, 1.30614, 1.30726, 1.30655, 1.30514, 1.30367, 1.30533, 1.31212, 1.30994, 1.29966, 1.29865, 1.30131, 1.29955, 1.29646, 1.29427, 
1.62294, 1.62128, 1.61843, 1.61794, 1.61352, 1.61291, 1.61204, 1.61296, 1.61003, 1.60944, 1.6066, 1.60458, 1.60153, 1.60206, 1.59902, 1.59804, 1.59393, 1.59253, 1.59051, 1.58851, 1.58844, 1.58386, 1.58326, 1.58137, 1.58167, 1.5898, 1.56085, 1.6028, 1.61937, 1.72011, 1.78999, 1.83603, 1.86875, 2.07561, 1.72287, 1.71772, 1.57446, 1.55573, 1.56138, 1.5639, 1.56309, 1.55698, 1.55462, 1.5522, 1.55955, 1.54931, 1.55376, 1.54325, 1.54014, 1.53642, 1.55287, 1.5579, 1.53273, 1.52655, 1.52391, 1.52156, 1.51808, 1.51842, 1.51788, 1.51682, 1.51584, 1.51577, 1.51431, 1.51261, 1.51324, 1.50992, 1.50914, 1.50502, 1.50361, 1.49863, 1.49748, 1.49505, 1.49278, 1.49213, 1.49144, 1.48992, 1.48826, 1.48513, 1.48407, 1.48211, 1.48538, 1.47692, 1.47682, 1.47493, 1.47736, 1.47289, 1.46812, 1.46615, 1.46629, 1.46673, 1.46704, 1.46435, 1.46475, 1.46117, 1.46042, 1.46113, 1.46089, 1.475, 1.46236, 1.46272, 1.47272, 1.46861, 1.49253, 1.49587, 1.52265, 1.49165, 1.48518, 1.48958, 1.46497, 1.46447, 1.44935, 1.46385, 1.46369, 1.48101, 1.48198, 1.47871, 1.45371, 1.44388, 1.42703, 1.42933, 1.42631, 1.42225, 1.43308, 1.41561, 1.41043, 1.40885, 1.40747, 1.40698, 1.40685, 1.40544, 1.40396, 1.42105, 1.40223, 1.40161, 1.40173, 1.39984, 1.39839, 1.3961, 1.40356, 1.39174, 1.39133, 1.3899, 1.38954, 1.38546, 1.38653, 1.3843, 1.38404, 1.3814, 1.38013, 1.38166, 1.37803, 1.37524, 1.37367, 1.37109, 1.3699, 1.36932, 1.36861, 1.36498, 1.36207, 1.36133, 1.35777, 1.3569, 1.35521, 1.36138, 1.35013, 1.34806, 1.34873, 1.34626, 1.34452, 1.34326, 1.34306, 1.34251, 1.34223, 1.34168, 1.34283, 1.34129, 1.3547, 1.3428, 1.34041, 1.34192, 1.35372, 1.37182, 1.34055, 1.33647, 1.33464, 1.33622, 1.33316, 1.33249, 1.32784, 1.32924, 1.32966, 1.32803, 1.32817, 1.327, 1.32589, 1.3424, 1.32718, 1.34827, 1.29642, 1.32579, 1.37067, 1.4621, 1.52709, 1.55082, 1.59179, 1.77623, 1.86986, 1.52179, 1.42285, 1.38876, 1.26343, 1.29905, 1.30315, 1.30916, 1.30985, 1.30221, 1.30997, 1.31041, 1.29997, 1.31293, 1.29678, 1.31202, 1.30644, 1.29584, 1.29448, 1.29451, 1.29266, 1.29124, 1.28598, 1.28779, 
1.62817, 1.61673, 1.61575, 1.61642, 1.61368, 1.61213, 1.60804, 1.60559, 1.60924, 1.60068, 1.60066, 1.61223, 1.59445, 1.59733, 1.59381, 1.5929, 1.60726, 1.58924, 1.58879, 1.58579, 1.58165, 1.5792, 1.57919, 1.57872, 1.5891, 1.5772, 1.56222, 1.55257, 1.63484, 1.68876, 1.76707, 1.90105, 1.93417, 1.93373, 1.99975, 1.75866, 1.55172, 1.5434, 1.55068, 1.5561, 1.56209, 1.54866, 1.54469, 1.5418, 1.54021, 1.53853, 1.5358, 1.53549, 1.53069, 1.52794, 1.52394, 1.52212, 1.5203, 1.51806, 1.51638, 1.51264, 1.51107, 1.50873, 1.50678, 1.506, 1.50555, 1.50562, 1.50495, 1.50365, 1.50253, 1.49945, 1.4989, 1.49853, 1.49545, 1.4958, 1.49379, 1.49289, 1.48821, 1.48729, 1.48382, 1.48347, 1.47973, 1.47959, 1.47654, 1.47515, 1.47238, 1.47151, 1.47, 1.4678, 1.46687, 1.46514, 1.46371, 1.46114, 1.45971, 1.45745, 1.45651, 1.45418, 1.45292, 1.45218, 1.45028, 1.45517, 1.45699, 1.452, 1.45605, 1.45523, 1.46448, 1.46063, 1.45515, 1.46243, 1.48258, 1.4669, 1.46854, 1.46565, 1.4833, 1.48584, 1.47495, 1.47106, 1.46231, 1.47267, 1.47463, 1.49872, 1.4594, 1.4434, 1.44341, 1.43321, 1.43041, 1.43026, 1.41306, 1.40586, 1.40357, 1.40074, 1.39831, 1.39696, 1.39762, 1.40255, 1.39654, 1.39685, 1.39516, 1.39278, 1.39374, 1.41022, 1.38933, 1.38938, 1.38785, 1.38516, 1.38449, 1.38183, 1.38563, 1.37775, 1.3756, 1.37475, 1.3734, 1.37166, 1.36844, 1.36744, 1.36972, 1.36742, 1.38798, 1.36722, 1.36482, 1.36388, 1.36227, 1.36086, 1.36044, 1.35944, 1.3564, 1.35405, 1.35408, 1.34798, 1.34743, 1.34406, 1.34278, 1.33784, 1.34004, 1.33973, 1.33947, 1.3362, 1.33596, 1.33427, 1.334, 1.34717, 1.33404, 1.34481, 1.33458, 1.33609, 1.36795, 1.34366, 1.33052, 1.33934, 1.33105, 1.33607, 1.32513, 1.324, 1.34094, 1.32092, 1.31867, 1.32517, 1.31611, 1.31631, 1.31551, 1.32234, 1.32946, 1.31271, 1.29683, 1.3336, 1.35513, 1.41945, 1.54889, 1.57252, 1.69684, 1.72177, 1.69986, 1.66479, 1.37006, 1.34385, 1.26493, 1.29564, 1.29804, 1.30437, 1.31667, 1.29332, 1.29608, 1.30198, 1.29486, 1.29219, 1.30573, 1.29183, 1.28706, 1.28606, 1.28136, 1.28469, 1.27936, 1.27829, 1.28166, 1.28872, 
1.62375, 1.615, 1.61368, 1.61305, 1.61, 1.60775, 1.60783, 1.6031, 1.60065, 1.60094, 1.59566, 1.59316, 1.59087, 1.59023, 1.58585, 1.58656, 1.60244, 1.58339, 1.58629, 1.58457, 1.58271, 1.58952, 1.58141, 1.58552, 1.58752, 1.58827, 1.58355, 1.55341, 1.61704, 1.64493, 1.85159, 1.87343, 2.02384, 2.01917, 1.9922, 1.78631, 1.54346, 1.54389, 1.55187, 1.54976, 1.54861, 1.55092, 1.54248, 1.53919, 1.53828, 1.53779, 1.53483, 1.54452, 1.53141, 1.53657, 1.52738, 1.52627, 1.53687, 1.52738, 1.51741, 1.51649, 1.51252, 1.51051, 1.50773, 1.5069, 1.50573, 1.50172, 1.499, 1.50025, 1.49977, 1.50156, 1.49862, 1.49493, 1.4962, 1.49192, 1.49347, 1.49004, 1.48847, 1.4856, 1.48438, 1.48102, 1.47887, 1.47592, 1.47484, 1.4727, 1.47131, 1.46937, 1.46734, 1.48876, 1.46411, 1.4613, 1.45956, 1.45812, 1.45632, 1.45566, 1.45446, 1.45171, 1.45073, 1.44794, 1.44852, 1.4484, 1.44991, 1.46407, 1.46495, 1.45237, 1.45355, 1.47058, 1.46079, 1.45445, 1.48372, 1.46763, 1.46453, 1.49525, 1.47918, 1.47546, 1.45189, 1.44998, 1.45659, 1.45113, 1.46879, 1.46449, 1.46139, 1.45608, 1.43459, 1.42773, 1.43475, 1.43001, 1.42104, 1.41653, 1.40548, 1.39917, 1.39696, 1.39622, 1.39454, 1.40423, 1.3945, 1.3926, 1.39161, 1.399, 1.38932, 1.38825, 1.38711, 1.38786, 1.38459, 1.39242, 1.38211, 1.37913, 1.39296, 1.37502, 1.37238, 1.37155, 1.36902, 1.36753, 1.36491, 1.36407, 1.36404, 1.36148, 1.35939, 1.359, 1.35827, 1.35839, 1.35706, 1.35551, 1.35568, 1.35423, 1.35276, 1.35093, 1.35299, 1.34921, 1.34961, 1.34738, 1.34617, 1.34487, 1.3436, 1.34358, 1.34296, 1.3416, 1.34028, 1.34066, 1.33864, 1.33628, 1.33577, 1.33428, 1.33424, 1.33388, 1.33107, 1.33376, 1.32817, 1.32942, 1.32713, 1.32544, 1.32485, 1.32222, 1.32263, 1.3231, 1.32306, 1.32142, 1.32244, 1.33099, 1.32611, 1.32649, 1.34077, 1.33117, 1.313, 1.2856, 1.37486, 1.41745, 1.47962, 1.47904, 1.68524, 1.74165, 1.76623, 1.56624, 1.58646, 1.40866, 1.26371, 1.29574, 1.30601, 1.30589, 1.30305, 1.30605, 1.29575, 1.29483, 1.29159, 1.29046, 1.29156, 1.28988, 1.28933, 1.29521, 1.28833, 1.28696, 1.28848, 1.28405, 1.28188, 1.28212, 
1.59173, 1.58952, 1.58846, 1.586, 1.58695, 1.58681, 1.58154, 1.58025, 1.57818, 1.58435, 1.5797, 1.58696, 1.57183, 1.56812, 1.56504, 1.57859, 1.56103, 1.55756, 1.55731, 1.55626, 1.55463, 1.55774, 1.5553, 1.56628, 1.56889, 1.55539, 1.54818, 1.55804, 1.569, 1.61768, 1.69772, 1.75268, 1.89561, 1.93855, 1.93072, 1.69552, 1.52733, 1.50867, 1.51387, 1.52629, 1.53253, 1.52789, 1.52174, 1.51765, 1.51662, 1.51394, 1.51122, 1.52063, 1.51187, 1.52583, 1.51976, 1.50528, 1.50158, 1.50064, 1.5146, 1.4977, 1.49585, 1.50351, 1.49309, 1.51781, 1.48872, 1.48742, 1.48135, 1.48252, 1.47942, 1.47684, 1.47569, 1.48186, 1.4695, 1.46807, 1.46647, 1.46543, 1.46205, 1.46079, 1.4603, 1.48548, 1.45452, 1.4543, 1.45388, 1.45349, 1.45194, 1.45232, 1.45069, 1.44985, 1.44838, 1.44657, 1.44605, 1.46481, 1.45891, 1.43993, 1.43477, 1.43347, 1.43295, 1.43088, 1.43248, 1.4375, 1.44044, 1.43635, 1.43756, 1.45488, 1.45348, 1.44078, 1.43945, 1.44096, 1.44761, 1.46807, 1.4486, 1.46776, 1.46968, 1.43719, 1.44039, 1.44625, 1.45135, 1.46598, 1.46707, 1.44514, 1.43291, 1.42508, 1.41637, 1.41229, 1.40964, 1.40546, 1.43065, 1.39231, 1.39209, 1.39546, 1.39502, 1.38252, 1.3779, 1.39242, 1.37483, 1.37452, 1.37761, 1.37729, 1.38418, 1.37842, 1.3775, 1.37806, 1.37586, 1.3712, 1.37935, 1.36678, 1.36423, 1.36727, 1.36145, 1.35565, 1.3542, 1.35538, 1.35565, 1.35367, 1.35244, 1.35392, 1.35085, 1.3501, 1.34751, 1.34617, 1.34447, 1.34961, 1.3391, 1.33923, 1.33561, 1.34664, 1.32953, 1.32939, 1.32784, 1.32947, 1.32564, 1.35419, 1.32666, 1.32616, 1.32717, 1.32714, 1.3267, 1.32424, 1.3203, 1.31603, 1.31516, 1.31304, 1.31487, 1.31011, 1.31152, 1.31202, 1.31195, 1.3152, 1.34047, 1.31548, 1.31092, 1.31275, 1.31608, 1.31834, 1.30857, 1.31129, 1.31023, 1.30678, 1.30918, 1.3127, 1.30559, 1.31773, 1.30634, 1.28195, 1.32869, 1.36714, 1.43771, 1.52142, 1.54324, 1.62418, 1.77598, 1.42588, 1.40208, 1.32281, 1.25563, 1.28461, 1.28807, 1.29624, 1.2885, 1.28796, 1.29222, 1.28206, 1.28633, 1.27681, 1.28478, 1.28507, 1.27311, 1.2821, 1.27119, 1.27878, 1.26538, 1.27006, 1.26441, 1.2639, 
1.60112, 1.60081, 1.59997, 1.60012, 1.60144, 1.59901, 1.59928, 1.59651, 1.59881, 1.58582, 1.58917, 1.58685, 1.57975, 1.59315, 1.57799, 1.57681, 1.57225, 1.57708, 1.58689, 1.56883, 1.56801, 1.56804, 1.56574, 1.56786, 1.5678, 1.56863, 1.5708, 1.56513, 1.5815, 1.63071, 1.79242, 1.8688, 1.92401, 2.00398, 1.96533, 1.78006, 1.56449, 1.5114, 1.53534, 1.53716, 1.54392, 1.53382, 1.53083, 1.53387, 1.5389, 1.52029, 1.51464, 1.53394, 1.51662, 1.52698, 1.51116, 1.5102, 1.51071, 1.50747, 1.5086, 1.5046, 1.50301, 1.50262, 1.50268, 1.49559, 1.49575, 1.49481, 1.49238, 1.49147, 1.49025, 1.48862, 1.48534, 1.48377, 1.47901, 1.47801, 1.47665, 1.47871, 1.47451, 1.47636, 1.47445, 1.47175, 1.46938, 1.4684, 1.46777, 1.46402, 1.46094, 1.45985, 1.45668, 1.45247, 1.45043, 1.45081, 1.44554, 1.44552, 1.44329, 1.44363, 1.44352, 1.44263, 1.43995, 1.43934, 1.43727, 1.44339, 1.43022, 1.43141, 1.43642, 1.43919, 1.44438, 1.43875, 1.44156, 1.44704, 1.44795, 1.45483, 1.45203, 1.45989, 1.46787, 1.46151, 1.44109, 1.44334, 1.45432, 1.44123, 1.44043, 1.43371, 1.4385, 1.44327, 1.41262, 1.40922, 1.42225, 1.40686, 1.42021, 1.40333, 1.39848, 1.39658, 1.39814, 1.39206, 1.38826, 1.3866, 1.38266, 1.37768, 1.37823, 1.38095, 1.39492, 1.37789, 1.37595, 1.37202, 1.3847, 1.36758, 1.36795, 1.36609, 1.36691, 1.36657, 1.36482, 1.36179, 1.35775, 1.35628, 1.35494, 1.35526, 1.35341, 1.35142, 1.37193, 1.35092, 1.35096, 1.35029, 1.35143, 1.34795, 1.3473, 1.34509, 1.34354, 1.33892, 1.3374, 1.33327, 1.33482, 1.33635, 1.33351, 1.32898, 1.33344, 1.32439, 1.32333, 1.32426, 1.32002, 1.32045, 1.32634, 1.32081, 1.32035, 1.31973, 1.31871, 1.31625, 1.31223, 1.30999, 1.3195, 1.31551, 1.31266, 1.31888, 1.31083, 1.30905, 1.3073, 1.31184, 1.30301, 1.30149, 1.30011, 1.30267, 1.3113, 1.31659, 1.30335, 1.30751, 1.31633, 1.27771, 1.28457, 1.36698, 1.44012, 1.51569, 1.51779, 1.54196, 1.50287, 1.44955, 1.48972, 1.30937, 1.26807, 1.27513, 1.28047, 1.28498, 1.28195, 1.27876, 1.27994, 1.2893, 1.29526, 1.29218, 1.28547, 1.26747, 1.28594, 1.27141, 1.27196, 1.27274, 1.26818, 1.26604, 1.26167, 1.25585, 
1.60022, 1.60514, 1.59645, 1.59675, 1.59463, 1.59613, 1.59242, 1.59062, 1.58686, 1.58362, 1.57871, 1.58453, 1.57192, 1.57097, 1.57781, 1.56788, 1.56932, 1.57208, 1.56591, 1.56609, 1.58075, 1.56386, 1.56286, 1.56856, 1.56772, 1.55971, 1.55666, 1.55574, 1.55391, 1.64363, 1.65278, 1.76275, 1.79557, 2.05795, 2.12534, 2.12797, 1.63835, 1.517, 1.51579, 1.53378, 1.53081, 1.53709, 1.52676, 1.51327, 1.5065, 1.52031, 1.51309, 1.51642, 1.51257, 1.51273, 1.51046, 1.50887, 1.50624, 1.50301, 1.52456, 1.49892, 1.48878, 1.49101, 1.47572, 1.47513, 1.4793, 1.48245, 1.48496, 1.48545, 1.48597, 1.4845, 1.4831, 1.48299, 1.48011, 1.47864, 1.47642, 1.47488, 1.47227, 1.46949, 1.46794, 1.46561, 1.4626, 1.46021, 1.45728, 1.45674, 1.45384, 1.45124, 1.45008, 1.44773, 1.44788, 1.44761, 1.44474, 1.44214, 1.43987, 1.44355, 1.43962, 1.44046, 1.46054, 1.43771, 1.43454, 1.43592, 1.4438, 1.43848, 1.44372, 1.44377, 1.44747, 1.44815, 1.45479, 1.46071, 1.45064, 1.44342, 1.44031, 1.43654, 1.43684, 1.44459, 1.42807, 1.44068, 1.42939, 1.43299, 1.43472, 1.44187, 1.44829, 1.44729, 1.4551, 1.41467, 1.42194, 1.40617, 1.4098, 1.40573, 1.39285, 1.39041, 1.38782, 1.38467, 1.38443, 1.39612, 1.38088, 1.38079, 1.3793, 1.37884, 1.37577, 1.37565, 1.37308, 1.37161, 1.40053, 1.37738, 1.36763, 1.36776, 1.36565, 1.36519, 1.36447, 1.36192, 1.36043, 1.35931, 1.35752, 1.36117, 1.35637, 1.35629, 1.35609, 1.35154, 1.35011, 1.34987, 1.34907, 1.34691, 1.34404, 1.34104, 1.33993, 1.33942, 1.33744, 1.33803, 1.33568, 1.33449, 1.33251, 1.33023, 1.32889, 1.33056, 1.32693, 1.3255, 1.32289, 1.32339, 1.32326, 1.32057, 1.32901, 1.31954, 1.31891, 1.31935, 1.31642, 1.31538, 1.31483, 1.31503, 1.31276, 1.31366, 1.31232, 1.31162, 1.31287, 1.30863, 1.30848, 1.30844, 1.30757, 1.30579, 1.30421, 1.31731, 1.30359, 1.31866, 1.31379, 1.30882, 1.30304, 1.35361, 1.40997, 1.50443, 1.60842, 1.60978, 1.57176, 1.63687, 1.52557, 1.51213, 1.51004, 1.51699, 1.50034, 1.46381, 1.3433, 1.29816, 1.28546, 1.28401, 1.28291, 1.2947, 1.28465, 1.28442, 1.27604, 1.27637, 1.27482, 1.27455, 1.27157, 1.26817, 1.27085, 1.26848, 
1.58815, 1.58561, 1.58143, 1.58166, 1.58447, 1.58633, 1.58552, 1.58519, 1.58045, 1.57658, 1.58141, 1.57142, 1.57865, 1.56821, 1.56678, 1.56757, 1.5754, 1.56706, 1.57203, 1.56301, 1.56097, 1.57891, 1.56968, 1.57455, 1.56683, 1.56076, 1.5509, 1.55118, 1.52137, 1.6309, 1.62693, 1.74495, 1.71679, 1.81719, 2.17952, 1.75103, 1.73884, 1.52262, 1.51682, 1.53277, 1.52615, 1.52714, 1.51386, 1.52123, 1.51261, 1.51259, 1.51211, 1.509, 1.52352, 1.50969, 1.50251, 1.50706, 1.50566, 1.49708, 1.4965, 1.5029, 1.49345, 1.49059, 1.48957, 1.48631, 1.48474, 1.48235, 1.4816, 1.47971, 1.47804, 1.47634, 1.47415, 1.47439, 1.47105, 1.47073, 1.47795, 1.46609, 1.46525, 1.46409, 1.46138, 1.45954, 1.45516, 1.45296, 1.45585, 1.45074, 1.45005, 1.44914, 1.44718, 1.4457, 1.44465, 1.44447, 1.44309, 1.4403, 1.43877, 1.43702, 1.43489, 1.43367, 1.4325, 1.4329, 1.43264, 1.43203, 1.43145, 1.43257, 1.43467, 1.43567, 1.43664, 1.45452, 1.44009, 1.46528, 1.44211, 1.44303, 1.44032, 1.4401, 1.43772, 1.44394, 1.44031, 1.42999, 1.43036, 1.44439, 1.42388, 1.43303, 1.44334, 1.43287, 1.4343, 1.40716, 1.4073, 1.40395, 1.40891, 1.3956, 1.39037, 1.38486, 1.38433, 1.38343, 1.3824, 1.37848, 1.37764, 1.37305, 1.37104, 1.37797, 1.36888, 1.36879, 1.36752, 1.37932, 1.36384, 1.3617, 1.36131, 1.36107, 1.35793, 1.35916, 1.35717, 1.36392, 1.35441, 1.35175, 1.35054, 1.35017, 1.3502, 1.35409, 1.34755, 1.34507, 1.34419, 1.34848, 1.34175, 1.34179, 1.33908, 1.33779, 1.33435, 1.33243, 1.33339, 1.33442, 1.33399, 1.33409, 1.34043, 1.33628, 1.33355, 1.32946, 1.32755, 1.32681, 1.32284, 1.32234, 1.3301, 1.32032, 1.31598, 1.31204, 1.3117, 1.30877, 1.31, 1.30951, 1.31135, 1.30827, 1.30715, 1.30832, 1.31065, 1.30594, 1.30248, 1.30152, 1.3024, 1.29628, 1.29422, 1.29237, 1.29528, 1.30028, 1.29211, 1.29321, 1.29126, 1.32222, 1.30209, 1.32599, 1.4236, 1.54427, 1.52107, 1.61679, 1.72509, 1.96565, 1.51656, 1.49107, 1.45818, 1.41827, 1.41544, 1.41107, 1.3468, 1.30679, 1.29952, 1.27245, 1.27307, 1.27821, 1.26815, 1.26913, 1.26754, 1.27265, 1.27092, 1.27042, 1.26774, 1.26725, 1.26191, 1.25967, 
1.5853, 1.58555, 1.5838, 1.58261, 1.58182, 1.58051, 1.57949, 1.57661, 1.57511, 1.57345, 1.56877, 1.56886, 1.56211, 1.56189, 1.5608, 1.56826, 1.57532, 1.56459, 1.55278, 1.55768, 1.56656, 1.54856, 1.54882, 1.54771, 1.54419, 1.5439, 1.55011, 1.55258, 1.53035, 1.60402, 1.58196, 1.70024, 1.62564, 1.74365, 1.6969, 1.77293, 1.70707, 1.50423, 1.51037, 1.53358, 1.51981, 1.51872, 1.51213, 1.50604, 1.50339, 1.50165, 1.50183, 1.50067, 1.49909, 1.50006, 1.49919, 1.49875, 1.4968, 1.49472, 1.49346, 1.49171, 1.49135, 1.48977, 1.48683, 1.48381, 1.48251, 1.47956, 1.47673, 1.47562, 1.47176, 1.47088, 1.4665, 1.46596, 1.46268, 1.46204, 1.45936, 1.45786, 1.46222, 1.45159, 1.45369, 1.45083, 1.45097, 1.45004, 1.44939, 1.44672, 1.4462, 1.4435, 1.4435, 1.44142, 1.44769, 1.44074, 1.45737, 1.45769, 1.43669, 1.44064, 1.43197, 1.4288, 1.4274, 1.4268, 1.42598, 1.42547, 1.42369, 1.42713, 1.43751, 1.43443, 1.43949, 1.44609, 1.44116, 1.4457, 1.43911, 1.4436, 1.43556, 1.45388, 1.44633, 1.42445, 1.43672, 1.42336, 1.41681, 1.42992, 1.42979, 1.41662, 1.42777, 1.4297, 1.41728, 1.40973, 1.41882, 1.38991, 1.41275, 1.38496, 1.38996, 1.37472, 1.37134, 1.36733, 1.3657, 1.36257, 1.36263, 1.36084, 1.36009, 1.35919, 1.35972, 1.36817, 1.36076, 1.35699, 1.3585, 1.35724, 1.35597, 1.35452, 1.35212, 1.35347, 1.35207, 1.35338, 1.35346, 1.34847, 1.34841, 1.34795, 1.34395, 1.34173, 1.33989, 1.33783, 1.33482, 1.33392, 1.33391, 1.32674, 1.3236, 1.32435, 1.32358, 1.322, 1.32103, 1.32202, 1.31948, 1.32307, 1.32005, 1.32158, 1.32037, 1.31933, 1.32318, 1.31812, 1.31682, 1.31456, 1.31525, 1.31517, 1.31198, 1.31032, 1.30911, 1.30786, 1.30681, 1.30733, 1.3037, 1.30341, 1.30326, 1.30054, 1.30173, 1.2981, 1.29797, 1.29723, 1.2928, 1.29227, 1.28861, 1.28897, 1.28753, 1.28678, 1.2849, 1.29273, 1.28727, 1.29924, 1.27781, 1.29281, 1.34815, 1.36463, 1.50287, 1.56908, 1.51603, 1.52479, 1.48759, 1.48911, 1.32906, 1.28892, 1.26836, 1.27144, 1.2698, 1.26732, 1.26215, 1.26686, 1.27178, 1.26771, 1.2661, 1.27211, 1.29271, 1.26069, 1.25681, 1.25416, 1.27464, 1.2681, 1.25161, 1.25018, 
1.58243, 1.58292, 1.58486, 1.57854, 1.58178, 1.57408, 1.57244, 1.5693, 1.56783, 1.5657, 1.56265, 1.5584, 1.55445, 1.55429, 1.55105, 1.55224, 1.55109, 1.56129, 1.55025, 1.54511, 1.55136, 1.54129, 1.54149, 1.53827, 1.54512, 1.53816, 1.54364, 1.53573, 1.50965, 1.5442, 1.58381, 1.72, 1.70129, 1.68863, 1.68682, 1.75108, 1.73544, 1.52162, 1.49215, 1.50303, 1.5074, 1.50888, 1.51645, 1.51891, 1.53361, 1.50353, 1.5031, 1.51173, 1.50177, 1.49948, 1.4971, 1.49415, 1.49211, 1.48977, 1.4882, 1.48294, 1.47889, 1.47693, 1.47463, 1.47789, 1.47055, 1.47497, 1.46871, 1.49103, 1.46622, 1.46426, 1.46523, 1.46123, 1.46027, 1.46409, 1.45532, 1.45147, 1.44931, 1.44667, 1.46939, 1.44472, 1.4431, 1.44352, 1.44006, 1.44026, 1.43801, 1.4349, 1.43754, 1.43357, 1.43593, 1.44003, 1.43026, 1.43048, 1.43249, 1.4263, 1.42232, 1.42137, 1.42193, 1.41805, 1.41944, 1.4243, 1.4355, 1.42396, 1.42986, 1.42165, 1.42482, 1.42386, 1.42683, 1.44739, 1.43788, 1.44074, 1.4361, 1.43473, 1.44976, 1.42987, 1.44161, 1.41926, 1.41653, 1.43103, 1.41943, 1.413, 1.41251, 1.42661, 1.41829, 1.39658, 1.38973, 1.40413, 1.38819, 1.38658, 1.38219, 1.37291, 1.3704, 1.36753, 1.36661, 1.36446, 1.37152, 1.36053, 1.36151, 1.36437, 1.35736, 1.36051, 1.35401, 1.35347, 1.35018, 1.35826, 1.35005, 1.361, 1.35371, 1.35184, 1.34742, 1.34713, 1.3463, 1.34525, 1.34377, 1.3436, 1.34417, 1.3382, 1.33634, 1.33531, 1.34055, 1.33306, 1.3299, 1.32738, 1.33077, 1.34323, 1.33231, 1.32378, 1.3374, 1.3195, 1.31995, 1.31712, 1.31558, 1.3157, 1.31165, 1.31413, 1.31193, 1.31318, 1.31167, 1.31115, 1.30947, 1.30696, 1.30535, 1.30505, 1.30229, 1.30883, 1.30329, 1.30157, 1.30178, 1.30138, 1.30133, 1.2995, 1.30192, 1.31792, 1.31217, 1.2948, 1.30908, 1.29533, 1.30521, 1.29919, 1.2998, 1.29169, 1.29816, 1.28654, 1.28632, 1.29499, 1.29295, 1.25158, 1.31943, 1.43764, 1.50421, 1.77448, 1.80051, 1.79969, 1.59583, 1.5001, 1.31264, 1.2879, 1.28932, 1.27037, 1.27361, 1.27117, 1.26852, 1.26219, 1.26807, 1.2576, 1.25585, 1.26489, 1.25333, 1.25747, 1.24906, 1.24742, 1.24686, 1.25043, 1.2444, 1.2454, 
