1.62478, 1.61812, 1.61961, 1.61627, 1.60304, 1.60023, 1.60057, 1.59391, 1.59612, 1.58701, 1.59157, 1.58833, 1.59135, 1.5909, 1.5927, 1.57004, 1.57855, 1.59584, 1.60022, 1.60823, 1.60669, 1.61914, 1.65778, 1.65308, 1.68066, 1.68678, 1.65946, 1.59493, 1.54392, 1.52936, 1.56646, 1.56062, 1.54936, 1.54405, 1.54321, 1.53804, 1.55089, 1.56256, 1.56111, 1.53658, 1.52766, 1.52434, 1.52645, 1.52395, 1.51076, 1.50983, 1.52129, 1.50755, 1.50587, 1.50359, 1.50146, 1.4997, 1.49906, 1.49799, 1.49687, 1.49363, 1.49193, 1.48995, 1.49558, 1.48263, 1.48118, 1.47893, 1.47689, 1.47462, 1.47502, 1.51688, 1.46835, 1.46385, 1.47655, 1.45819, 1.45825, 1.45719, 1.46824, 1.45461, 1.4527, 1.45117, 1.45047, 1.45739, 1.46182, 1.45133, 1.45391, 1.4418, 1.4862, 1.53665, 1.5965, 1.7066, 1.76802, 1.78115, 1.70609, 1.65685, 1.53159, 1.41927, 1.41029, 1.4245, 1.42354, 1.43866, 1.41506, 1.41332, 1.42709, 1.42342, 1.40782, 1.4189, 1.40242, 1.40146, 1.39952, 1.39644, 1.39418, 1.3926, 1.39183, 1.39051, 1.38985, 1.38454, 1.38133, 1.38052, 1.37965, 1.3745, 1.37363, 1.37511, 1.3705, 1.37, 1.36748, 1.36476, 1.36318, 1.36169, 1.35997, 1.35895, 1.35608, 1.35473, 1.3562, 1.37461, 1.35208, 1.35309, 1.35204, 1.35726, 1.33944, 1.34212, 1.34405, 1.34169, 1.33524, 1.33719, 1.33164, 1.32947, 1.32919, 1.33025, 1.32564, 1.32639, 1.32642, 1.32091, 1.32123, 1.31902, 1.31929, 1.31515, 1.31569, 1.31473, 1.31384, 1.32961, 1.32257, 1.32535, 1.33718, 1.32371, 1.34088, 1.33449, 1.33956, 1.33552, 1.35698, 1.36797, 1.36705, 1.34534, 1.3631, 1.37815, 1.33553, 1.33205, 1.30881, 1.31962, 1.30389, 1.29692, 1.29256, 1.28621, 1.29197, 1.27987, 1.28196, 1.28576, 1.29164, 1.27504, 1.27829, 1.27573, 1.27834, 1.27716, 1.29486, 1.29241, 1.29937, 
1.6683, 1.64504, 1.61774, 1.60754, 1.60781, 1.60539, 1.60369, 1.59847, 1.59597, 1.59755, 1.59544, 1.60981, 1.59736, 1.6058, 1.59776, 1.57862, 1.58557, 1.61818, 1.6217, 1.63391, 1.63024, 1.67196, 1.64729, 1.67242, 1.693, 1.68376, 1.70768, 1.58501, 1.53016, 1.5521, 1.56489, 1.56022, 1.54598, 1.54249, 1.53996, 1.53811, 1.53539, 1.53957, 1.54786, 1.55504, 1.55052, 1.51949, 1.5264, 1.52376, 1.53017, 1.5174, 1.50966, 1.51841, 1.50936, 1.50656, 1.50427, 1.50384, 1.49972, 1.4976, 1.49599, 1.49678, 1.49271, 1.49234, 1.48874, 1.48658, 1.48324, 1.48163, 1.48074, 1.48077, 1.47583, 1.47506, 1.48903, 1.47044, 1.4686, 1.4621, 1.46039, 1.46192, 1.46913, 1.46759, 1.45375, 1.45297, 1.45186, 1.44975, 1.46116, 1.45345, 1.4384, 1.43808, 1.45948, 1.52578, 1.56504, 1.62277, 1.67543, 1.71514, 1.6987, 1.60435, 1.55215, 1.43733, 1.39593, 1.42709, 1.42751, 1.41963, 1.42436, 1.41147, 1.41269, 1.41122, 1.41258, 1.42345, 1.40049, 1.39958, 1.39706, 1.39436, 1.39031, 1.38544, 1.38631, 1.38736, 1.38643, 1.38443, 1.38443, 1.38474, 1.3801, 1.38095, 1.37651, 1.37549, 1.37421, 1.37318, 1.37451, 1.37027, 1.3709, 1.36571, 1.36488, 1.36076, 1.35885, 1.35692, 1.35669, 1.35629, 1.35474, 1.35361, 1.34986, 1.35331, 1.35266, 1.34733, 1.34739, 1.3451, 1.34394, 1.33972, 1.33973, 1.33778, 1.3474, 1.34139, 1.34072, 1.33998, 1.33967, 1.33526, 1.34015, 1.35151, 1.32739, 1.32598, 1.32656, 1.33346, 1.32437, 1.33538, 1.32988, 1.3376, 1.32647, 1.33233, 1.37202, 1.3512, 1.38861, 1.35842, 1.36451, 1.34305, 1.3516, 1.3577, 1.36424, 1.37462, 1.35831, 1.3196, 1.30914, 1.32607, 1.30291, 1.29322, 1.29244, 1.29061, 1.28455, 1.28152, 1.27881, 1.28269, 1.27539, 1.27645, 1.27899, 1.27831, 1.27978, 1.27924, 1.28145, 1.28859, 1.31069, 
1.65767, 1.64971, 1.64179, 1.62497, 1.6138, 1.61581, 1.61782, 1.60499, 1.6044, 1.60344, 1.60496, 1.61104, 1.61662, 1.63351, 1.60689, 1.60191, 1.61736, 1.64058, 1.62966, 1.63411, 1.67899, 1.69631, 1.6797, 1.70899, 1.71667, 1.73322, 1.67649, 1.63954, 1.57377, 1.55379, 1.56585, 1.56062, 1.56584, 1.57239, 1.54937, 1.54912, 1.54378, 1.54095, 1.54083, 1.54485, 1.5368, 1.54672, 1.56812, 1.52937, 1.52377, 1.5259, 1.51735, 1.52941, 1.52261, 1.52235, 1.51152, 1.51282, 1.51219, 1.50664, 1.50037, 1.50019, 1.49757, 1.497, 1.49214, 1.49343, 1.49063, 1.4899, 1.48898, 1.48769, 1.48605, 1.48466, 1.4814, 1.47978, 1.47539, 1.47157, 1.46933, 1.47293, 1.46784, 1.46403, 1.46459, 1.46393, 1.46167, 1.46295, 1.47123, 1.46094, 1.45544, 1.43397, 1.46971, 1.5194, 1.5764, 1.65143, 1.6896, 1.72811, 1.7324, 1.62262, 1.5044, 1.47877, 1.42079, 1.44158, 1.45344, 1.43327, 1.43025, 1.42805, 1.42139, 1.41738, 1.41477, 1.41371, 1.41985, 1.40834, 1.40709, 1.40574, 1.40381, 1.40156, 1.39758, 1.39736, 1.39599, 1.39559, 1.39285, 1.40539, 1.39117, 1.38874, 1.38528, 1.38441, 1.38226, 1.38177, 1.37907, 1.3781, 1.37775, 1.37537, 1.37449, 1.37269, 1.37047, 1.36989, 1.36792, 1.36371, 1.36492, 1.36122, 1.35586, 1.35381, 1.35181, 1.35171, 1.34817, 1.34874, 1.34703, 1.34617, 1.34807, 1.34633, 1.34719, 1.3479, 1.3468, 1.34641, 1.34425, 1.34408, 1.34568, 1.34682, 1.34773, 1.33654, 1.33512, 1.33652, 1.33448, 1.34752, 1.33763, 1.33859, 1.33668, 1.33372, 1.33906, 1.35051, 1.34119, 1.35079, 1.3469, 1.36622, 1.35344, 1.36356, 1.37055, 1.37599, 1.37921, 1.34261, 1.30259, 1.3313, 1.31019, 1.30344, 1.30063, 1.29857, 1.29222, 1.2927, 1.29135, 1.28594, 1.28529, 1.28805, 1.2884, 1.28567, 1.29097, 1.29396, 1.29643, 1.2833, 1.28306, 
1.65683, 1.64371, 1.64117, 1.66852, 1.66108, 1.62094, 1.62062, 1.61482, 1.6113, 1.60974, 1.60801, 1.60743, 1.61907, 1.61, 1.61291, 1.61317, 1.58993, 1.61176, 1.64823, 1.665, 1.66164, 1.6615, 1.68706, 1.69623, 1.70091, 1.69597, 1.66594, 1.66149, 1.55953, 1.5647, 1.56624, 1.57917, 1.56646, 1.56841, 1.57864, 1.55293, 1.55395, 1.54672, 1.54468, 1.54844, 1.54009, 1.53776, 1.54654, 1.55174, 1.53667, 1.54531, 1.52691, 1.52473, 1.5239, 1.5235, 1.52025, 1.51862, 1.51364, 1.51201, 1.5111, 1.50734, 1.50764, 1.505, 1.50271, 1.49976, 1.51232, 1.49532, 1.49372, 1.49331, 1.49143, 1.48866, 1.48783, 1.48512, 1.48853, 1.48483, 1.48184, 1.48061, 1.47856, 1.47703, 1.49199, 1.47126, 1.46949, 1.47047, 1.47608, 1.47995, 1.44884, 1.43742, 1.50583, 1.54824, 1.58485, 1.67256, 1.73183, 1.73345, 1.7415, 1.64859, 1.56115, 1.45709, 1.43668, 1.45238, 1.44779, 1.45322, 1.44799, 1.43686, 1.4405, 1.4301, 1.42801, 1.42496, 1.42356, 1.41989, 1.41635, 1.41312, 1.41219, 1.41296, 1.41154, 1.4103, 1.40989, 1.40686, 1.40382, 1.40148, 1.39937, 1.39644, 1.39582, 1.39367, 1.39092, 1.39151, 1.39035, 1.38741, 1.38721, 1.3859, 1.39626, 1.38461, 1.40202, 1.37913, 1.38064, 1.37807, 1.37121, 1.37034, 1.36495, 1.36138, 1.35866, 1.35727, 1.35624, 1.3503, 1.35011, 1.35119, 1.34824, 1.34876, 1.35052, 1.35065, 1.35133, 1.35017, 1.34899, 1.34862, 1.34761, 1.35125, 1.34362, 1.35483, 1.3429, 1.34015, 1.34086, 1.35028, 1.34317, 1.35123, 1.34332, 1.33679, 1.35071, 1.37884, 1.37042, 1.37262, 1.36483, 1.36983, 1.37546, 1.38156, 1.41311, 1.39848, 1.34351, 1.35003, 1.31203, 1.31552, 1.3294, 1.33748, 1.32503, 1.32577, 1.30799, 1.32075, 1.30404, 1.30223, 1.30073, 1.2986, 1.29989, 1.29981, 1.29786, 1.29648, 1.29844, 1.29588, 1.30037, 
1.63752, 1.63757, 1.63108, 1.63332, 1.64551, 1.6392, 1.64528, 1.6341, 1.62042, 1.62583, 1.61594, 1.6139, 1.61477, 1.61746, 1.61844, 1.58641, 1.58855, 1.62293, 1.63059, 1.64999, 1.66962, 1.66257, 1.7196, 1.74074, 1.73579, 1.74199, 1.72677, 1.65778, 1.61354, 1.56493, 1.57842, 1.58204, 1.59252, 1.57456, 1.56273, 1.5614, 1.55566, 1.5513, 1.55801, 1.54691, 1.54865, 1.55063, 1.5588, 1.55268, 1.55492, 1.53647, 1.53939, 1.53686, 1.53507, 1.53102, 1.53832, 1.54129, 1.52714, 1.52004, 1.51838, 1.51594, 1.51426, 1.51257, 1.5112, 1.50683, 1.50198, 1.50066, 1.4992, 1.49748, 1.49507, 1.49307, 1.49259, 1.50886, 1.48974, 1.49011, 1.48621, 1.48488, 1.4889, 1.48229, 1.48043, 1.47946, 1.48262, 1.47629, 1.47621, 1.47832, 1.44685, 1.44731, 1.473, 1.56553, 1.62092, 1.64282, 1.72038, 1.72139, 1.71816, 1.6841, 1.62451, 1.49781, 1.41384, 1.43613, 1.44726, 1.44826, 1.44739, 1.45396, 1.45775, 1.44064, 1.42984, 1.42616, 1.42442, 1.42329, 1.42042, 1.41858, 1.41907, 1.41982, 1.41471, 1.41581, 1.41174, 1.4121, 1.41054, 1.40885, 1.40776, 1.40596, 1.40357, 1.40154, 1.39872, 1.39536, 1.39592, 1.39361, 1.39403, 1.39321, 1.39315, 1.3924, 1.39131, 1.39002, 1.38873, 1.38739, 1.38368, 1.37948, 1.37656, 1.37245, 1.36594, 1.37121, 1.36461, 1.36355, 1.3634, 1.35883, 1.35951, 1.35671, 1.35562, 1.35442, 1.35315, 1.35225, 1.35048, 1.34808, 1.35096, 1.3492, 1.34771, 1.34984, 1.35045, 1.34055, 1.3404, 1.36024, 1.34811, 1.35774, 1.3481, 1.35721, 1.3459, 1.39912, 1.37232, 1.38118, 1.38539, 1.39145, 1.3905, 1.39094, 1.44496, 1.39576, 1.35767, 1.36355, 1.31377, 1.33665, 1.33017, 1.32494, 1.32377, 1.32327, 1.31329, 1.31069, 1.31632, 1.31574, 1.30291, 1.30953, 1.30058, 1.29707, 1.30192, 1.30001, 1.30094, 1.30141, 1.31191, 
1.6454, 1.64486, 1.6458, 1.66108, 1.66481, 1.65367, 1.64772, 1.66273, 1.63513, 1.62393, 1.62069, 1.61493, 1.61703, 1.62634, 1.6139, 1.60684, 1.60708, 1.63662, 1.63805, 1.65819, 1.70371, 1.69792, 1.70961, 1.71139, 1.72467, 1.75875, 1.752, 1.65894, 1.60656, 1.55733, 1.57673, 1.57889, 1.58491, 1.57585, 1.56418, 1.56484, 1.55606, 1.55445, 1.55084, 1.54754, 1.55308, 1.55015, 1.53871, 1.55478, 1.54522, 1.55414, 1.55775, 1.54516, 1.53886, 1.53722, 1.54318, 1.52578, 1.52425, 1.52319, 1.52288, 1.51924, 1.51646, 1.51373, 1.51076, 1.50887, 1.50415, 1.50182, 1.49991, 1.50198, 1.49897, 1.49741, 1.49457, 1.49192, 1.48893, 1.48887, 1.48808, 1.48628, 1.48623, 1.48125, 1.48108, 1.47735, 1.48597, 1.47358, 1.474, 1.48929, 1.47705, 1.44062, 1.49079, 1.52722, 1.59254, 1.61474, 1.66765, 1.6672, 1.6738, 1.64465, 1.59579, 1.48515, 1.44302, 1.41998, 1.45374, 1.45777, 1.44465, 1.43583, 1.44736, 1.4276, 1.43334, 1.43329, 1.42319, 1.42265, 1.4203, 1.41919, 1.41717, 1.416, 1.41482, 1.41285, 1.41236, 1.41186, 1.41029, 1.40738, 1.41023, 1.4038, 1.40462, 1.3976, 1.39716, 1.39551, 1.39388, 1.39069, 1.39234, 1.39134, 1.39138, 1.38999, 1.39275, 1.38867, 1.38767, 1.3888, 1.38593, 1.38465, 1.38237, 1.3828, 1.38172, 1.37911, 1.37808, 1.3741, 1.37143, 1.36812, 1.36556, 1.36497, 1.3642, 1.36475, 1.36399, 1.36296, 1.36298, 1.36402, 1.36212, 1.35913, 1.35519, 1.35222, 1.34815, 1.34464, 1.34394, 1.34328, 1.34051, 1.34509, 1.34748, 1.36252, 1.351, 1.35085, 1.3843, 1.37563, 1.38658, 1.39771, 1.41434, 1.40996, 1.46734, 1.41078, 1.40313, 1.35726, 1.30352, 1.31314, 1.32911, 1.3242, 1.32262, 1.31867, 1.31581, 1.31171, 1.31159, 1.31013, 1.30746, 1.30722, 1.30429, 1.30132, 1.29571, 1.30023, 1.29695, 1.29363, 1.29579, 
1.65051, 1.64869, 1.65053, 1.64223, 1.65865, 1.65291, 1.6572, 1.66919, 1.64751, 1.63375, 1.62973, 1.62091, 1.61725, 1.62452, 1.62429, 1.58529, 1.59806, 1.637, 1.6526, 1.67561, 1.69172, 1.70568, 1.73076, 1.73111, 1.74159, 1.72335, 1.68962, 1.64822, 1.62997, 1.57714, 1.5859, 1.5815, 1.58118, 1.5747, 1.57176, 1.56959, 1.56619, 1.56537, 1.56102, 1.55869, 1.55611, 1.55076, 1.54837, 1.54605, 1.55391, 1.55859, 1.56132, 1.55486, 1.54114, 1.53657, 1.53383, 1.53248, 1.5297, 1.52926, 1.52488, 1.5229, 1.52215, 1.52, 1.52024, 1.52261, 1.51372, 1.51241, 1.51086, 1.5099, 1.50675, 1.50415, 1.5019, 1.50162, 1.49759, 1.49597, 1.49287, 1.4904, 1.488, 1.48763, 1.48483, 1.48111, 1.48101, 1.48071, 1.48144, 1.48078, 1.48192, 1.46202, 1.49475, 1.51652, 1.59297, 1.64785, 1.65596, 1.68862, 1.69279, 1.66927, 1.56832, 1.52021, 1.43724, 1.41892, 1.44053, 1.45152, 1.44705, 1.44047, 1.43075, 1.43794, 1.42933, 1.42942, 1.43124, 1.42661, 1.42528, 1.42317, 1.42248, 1.41955, 1.41371, 1.41545, 1.41369, 1.4122, 1.41287, 1.41131, 1.41079, 1.40706, 1.40539, 1.40435, 1.40154, 1.39942, 1.3987, 1.39739, 1.39508, 1.39461, 1.39216, 1.39126, 1.39174, 1.39127, 1.39057, 1.39027, 1.39218, 1.38817, 1.38763, 1.38516, 1.38404, 1.37816, 1.37423, 1.37353, 1.37341, 1.3721, 1.37044, 1.36974, 1.37044, 1.3672, 1.36635, 1.36622, 1.36285, 1.36366, 1.36182, 1.35981, 1.36079, 1.35858, 1.35954, 1.35711, 1.35747, 1.35428, 1.36079, 1.36162, 1.34832, 1.34786, 1.33897, 1.35687, 1.3755, 1.41616, 1.42579, 1.42248, 1.43307, 1.43452, 1.45218, 1.44202, 1.42254, 1.40574, 1.35344, 1.30959, 1.35816, 1.3366, 1.32786, 1.32405, 1.31761, 1.31611, 1.31143, 1.30891, 1.30982, 1.30653, 1.30578, 1.3056, 1.30519, 1.30332, 1.29981, 1.29936, 1.29846, 
1.65144, 1.65, 1.6502, 1.65847, 1.6417, 1.64139, 1.64187, 1.65828, 1.6691, 1.65852, 1.65522, 1.64141, 1.64729, 1.63425, 1.63796, 1.62492, 1.61715, 1.63516, 1.68566, 1.70193, 1.74339, 1.74833, 1.75358, 1.77276, 1.77849, 1.76814, 1.7474, 1.69668, 1.63667, 1.58381, 1.58493, 1.59269, 1.59986, 1.59248, 1.59673, 1.57905, 1.57911, 1.57854, 1.57445, 1.56752, 1.57241, 1.58155, 1.5721, 1.56424, 1.55647, 1.5555, 1.5608, 1.56847, 1.56057, 1.56204, 1.55302, 1.5484, 1.5373, 1.53316, 1.53378, 1.52773, 1.53463, 1.52481, 1.52241, 1.51993, 1.51896, 1.51456, 1.51362, 1.51269, 1.51015, 1.50784, 1.50397, 1.50457, 1.50061, 1.4984, 1.50099, 1.49558, 1.49587, 1.4922, 1.49058, 1.4894, 1.49143, 1.48639, 1.4866, 1.48903, 1.50309, 1.46077, 1.47115, 1.53107, 1.55293, 1.61304, 1.64575, 1.66991, 1.6913, 1.67146, 1.61812, 1.59767, 1.53032, 1.42033, 1.43823, 1.4649, 1.45563, 1.46596, 1.4546, 1.44706, 1.44286, 1.43938, 1.44229, 1.43646, 1.43306, 1.43114, 1.42971, 1.42646, 1.42438, 1.42206, 1.42265, 1.42034, 1.41987, 1.41891, 1.4301, 1.41773, 1.41493, 1.41361, 1.41171, 1.41038, 1.40754, 1.40643, 1.40352, 1.40494, 1.4416, 1.40159, 1.3989, 1.39694, 1.39632, 1.39596, 1.39302, 1.39204, 1.39004, 1.38946, 1.38692, 1.38545, 1.38192, 1.38153, 1.37803, 1.37749, 1.37754, 1.37512, 1.37315, 1.36973, 1.36882, 1.36694, 1.36618, 1.36451, 1.36501, 1.36386, 1.36448, 1.36365, 1.36203, 1.3592, 1.35708, 1.35873, 1.36077, 1.36491, 1.35859, 1.35785, 1.34022, 1.36222, 1.37227, 1.42108, 1.40746, 1.4203, 1.42635, 1.43347, 1.43657, 1.43752, 1.43705, 1.39305, 1.36065, 1.33175, 1.33356, 1.33805, 1.33927, 1.33319, 1.35066, 1.32764, 1.32057, 1.31869, 1.31719, 1.31559, 1.31384, 1.31363, 1.31127, 1.30938, 1.30757, 1.30745, 1.32606, 
1.67685, 1.65749, 1.66814, 1.6579, 1.65203, 1.64905, 1.66125, 1.65125, 1.65094, 1.66997, 1.66912, 1.65028, 1.63684, 1.64219, 1.64764, 1.63484, 1.61756, 1.61, 1.65763, 1.6582, 1.66353, 1.78468, 1.74212, 1.82479, 1.80979, 1.76045, 1.78966, 1.71847, 1.67591, 1.57446, 1.57273, 1.60501, 1.599, 1.58566, 1.59144, 1.57687, 1.57317, 1.57194, 1.56971, 1.57602, 1.56547, 1.57128, 1.56296, 1.56703, 1.56958, 1.57466, 1.5578, 1.56945, 1.55856, 1.57982, 1.56324, 1.55473, 1.54992, 1.53851, 1.53598, 1.53176, 1.53138, 1.5318, 1.52762, 1.52638, 1.52305, 1.52216, 1.52123, 1.51964, 1.51644, 1.51437, 1.51305, 1.51297, 1.50641, 1.51311, 1.50384, 1.5003, 1.51053, 1.49895, 1.49819, 1.49573, 1.49006, 1.50188, 1.50531, 1.49956, 1.49705, 1.46611, 1.46559, 1.5283, 1.58452, 1.65515, 1.65084, 1.65844, 1.66763, 1.66555, 1.62046, 1.59232, 1.53002, 1.43377, 1.46116, 1.47273, 1.46606, 1.47319, 1.46524, 1.46098, 1.45264, 1.45026, 1.45249, 1.44131, 1.44065, 1.44031, 1.43471, 1.433, 1.43007, 1.42806, 1.42474, 1.42312, 1.42291, 1.42208, 1.4373, 1.42272, 1.41979, 1.41759, 1.41503, 1.41299, 1.41256, 1.41286, 1.41295, 1.41247, 1.40902, 1.40757, 1.40574, 1.40411, 1.40208, 1.39902, 1.39724, 1.39367, 1.39223, 1.38929, 1.38716, 1.38571, 1.38451, 1.38169, 1.3809, 1.37771, 1.37428, 1.37138, 1.36858, 1.36845, 1.36609, 1.36549, 1.36429, 1.3612, 1.36098, 1.35958, 1.35889, 1.3589, 1.35796, 1.35749, 1.37584, 1.36141, 1.36419, 1.36744, 1.38288, 1.36454, 1.34835, 1.39888, 1.41928, 1.39914, 1.46532, 1.47182, 1.44944, 1.45479, 1.45813, 1.44043, 1.41481, 1.39531, 1.35193, 1.35281, 1.33472, 1.34675, 1.34326, 1.33748, 1.32577, 1.33348, 1.32246, 1.3238, 1.32952, 1.31911, 1.31896, 1.31628, 1.31677, 1.31825, 1.3145, 1.32063, 1.31936, 
1.66494, 1.66355, 1.66024, 1.65727, 1.65384, 1.65186, 1.65072, 1.64775, 1.65438, 1.65915, 1.66958, 1.66837, 1.65132, 1.6508, 1.65218, 1.63492, 1.6253, 1.6233, 1.63285, 1.67434, 1.65314, 1.76451, 1.76966, 1.79772, 1.81779, 1.8174, 1.79617, 1.7373, 1.69923, 1.57118, 1.584, 1.59712, 1.60739, 1.58957, 1.58541, 1.59797, 1.5846, 1.5916, 1.57452, 1.57408, 1.57271, 1.57059, 1.56835, 1.56496, 1.5702, 1.56237, 1.56016, 1.57939, 1.5823, 1.58148, 1.57443, 1.57379, 1.56097, 1.54944, 1.54909, 1.54103, 1.54607, 1.5352, 1.53304, 1.55033, 1.52918, 1.52799, 1.52603, 1.52419, 1.52519, 1.52136, 1.51904, 1.51753, 1.51983, 1.51089, 1.50921, 1.50819, 1.50513, 1.50423, 1.50091, 1.50015, 1.49726, 1.50464, 1.50547, 1.5064, 1.49929, 1.47643, 1.46829, 1.53287, 1.56403, 1.61037, 1.63489, 1.62753, 1.65457, 1.67283, 1.63314, 1.57964, 1.52697, 1.44731, 1.45793, 1.4889, 1.46464, 1.46466, 1.46358, 1.46427, 1.45956, 1.45746, 1.45674, 1.4543, 1.45089, 1.44955, 1.44645, 1.44308, 1.43921, 1.43386, 1.43502, 1.43307, 1.43316, 1.43209, 1.42973, 1.42964, 1.42751, 1.42437, 1.4213, 1.42017, 1.41892, 1.41598, 1.41962, 1.41471, 1.40952, 1.41066, 1.40911, 1.40758, 1.40397, 1.40167, 1.40174, 1.40053, 1.39966, 1.39633, 1.39321, 1.39198, 1.3881, 1.38613, 1.38421, 1.38269, 1.38202, 1.37839, 1.37716, 1.37526, 1.37542, 1.37448, 1.36905, 1.36982, 1.36805, 1.36679, 1.36699, 1.36781, 1.3674, 1.36637, 1.36762, 1.36915, 1.37026, 1.37512, 1.38553, 1.39237, 1.35019, 1.39955, 1.42583, 1.45096, 1.45359, 1.46117, 1.45539, 1.45691, 1.46652, 1.47469, 1.49719, 1.42976, 1.39306, 1.35051, 1.34312, 1.33564, 1.34733, 1.34426, 1.34335, 1.32637, 1.32401, 1.32721, 1.32575, 1.32314, 1.32052, 1.3211, 1.32046, 1.3266, 1.31799, 1.31918, 1.31956, 
1.66232, 1.65996, 1.66708, 1.65247, 1.64943, 1.66182, 1.64464, 1.64518, 1.64234, 1.65622, 1.6553, 1.66295, 1.66612, 1.65373, 1.65373, 1.64049, 1.6158, 1.63154, 1.65863, 1.69056, 1.72795, 1.74541, 1.80082, 1.80662, 1.80531, 1.80632, 1.81329, 1.76842, 1.66371, 1.58017, 1.5864, 1.59636, 1.59751, 1.59168, 1.58692, 1.58507, 1.58442, 1.58989, 1.58007, 1.57789, 1.57595, 1.57101, 1.57062, 1.56624, 1.56444, 1.56293, 1.5614, 1.55909, 1.56533, 1.56152, 1.5635, 1.56904, 1.57587, 1.56014, 1.54499, 1.55756, 1.53761, 1.53621, 1.5361, 1.53286, 1.53303, 1.53094, 1.5282, 1.52676, 1.5243, 1.52052, 1.51779, 1.51403, 1.51255, 1.50865, 1.50745, 1.52263, 1.50094, 1.50212, 1.49922, 1.49731, 1.49638, 1.49658, 1.4966, 1.49855, 1.49684, 1.49227, 1.49869, 1.49566, 1.57004, 1.63264, 1.65277, 1.67112, 1.68204, 1.70815, 1.64925, 1.58121, 1.51833, 1.48997, 1.42763, 1.48597, 1.4753, 1.47502, 1.45897, 1.46386, 1.45386, 1.45178, 1.44769, 1.4448, 1.44379, 1.44098, 1.43978, 1.43989, 1.43509, 1.43658, 1.43458, 1.43051, 1.43082, 1.42995, 1.42933, 1.42852, 1.42597, 1.42283, 1.42475, 1.42303, 1.42076, 1.42014, 1.41932, 1.41704, 1.41464, 1.41303, 1.41266, 1.41208, 1.41039, 1.40718, 1.4063, 1.40568, 1.40367, 1.40133, 1.40862, 1.39672, 1.39571, 1.39296, 1.39033, 1.39025, 1.38929, 1.38803, 1.38497, 1.38262, 1.3801, 1.37826, 1.37599, 1.37471, 1.3751, 1.37485, 1.37217, 1.37332, 1.37046, 1.37028, 1.37018, 1.38308, 1.37451, 1.37906, 1.3806, 1.38078, 1.3579, 1.36818, 1.43862, 1.45687, 1.47875, 1.47518, 1.47144, 1.47297, 1.4831, 1.47732, 1.45933, 1.42271, 1.38138, 1.32272, 1.35087, 1.34481, 1.34035, 1.3341, 1.33137, 1.32962, 1.33085, 1.33256, 1.32991, 1.32985, 1.32943, 1.32945, 1.32579, 1.32567, 1.32562, 1.32397, 1.31941, 
1.6662, 1.6619, 1.66003, 1.65757, 1.65408, 1.65449, 1.64717, 1.645, 1.6445, 1.64105, 1.6589, 1.6403, 1.66115, 1.65774, 1.66495, 1.64535, 1.61486, 1.62775, 1.63072, 1.6929, 1.69389, 1.75417, 1.82922, 1.81975, 1.82181, 1.82542, 1.7931, 1.72956, 1.67537, 1.60496, 1.58055, 1.60213, 1.6036, 1.58615, 1.58205, 1.57874, 1.58566, 1.57486, 1.57429, 1.57319, 1.58248, 1.56762, 1.56537, 1.5626, 1.56019, 1.55908, 1.55746, 1.55498, 1.55159, 1.54875, 1.54431, 1.54653, 1.54801, 1.54861, 1.55115, 1.54087, 1.53503, 1.52764, 1.52742, 1.52819, 1.52957, 1.52985, 1.5284, 1.52922, 1.51977, 1.51679, 1.51217, 1.50906, 1.5061, 1.49975, 1.49541, 1.4919, 1.48873, 1.50539, 1.49987, 1.48773, 1.49575, 1.48878, 1.48977, 1.50182, 1.5032, 1.50556, 1.47008, 1.50676, 1.54767, 1.63161, 1.64437, 1.66213, 1.66497, 1.60249, 1.63271, 1.59231, 1.52229, 1.4797, 1.44625, 1.46745, 1.47918, 1.4584, 1.4608, 1.45532, 1.45352, 1.45, 1.4456, 1.43723, 1.43644, 1.43466, 1.4335, 1.43275, 1.43245, 1.43163, 1.43021, 1.4293, 1.42607, 1.4238, 1.42165, 1.41898, 1.41571, 1.41644, 1.41465, 1.41809, 1.41781, 1.41664, 1.41509, 1.41972, 1.41202, 1.40972, 1.40824, 1.4096, 1.40558, 1.40339, 1.40449, 1.40362, 1.40195, 1.40971, 1.39866, 1.3976, 1.39493, 1.3934, 1.39177, 1.39032, 1.38674, 1.38826, 1.38304, 1.37934, 1.37776, 1.37639, 1.37522, 1.37555, 1.37461, 1.37008, 1.37163, 1.37889, 1.37795, 1.36837, 1.3723, 1.36431, 1.37673, 1.37111, 1.37575, 1.36809, 1.36211, 1.38816, 1.40891, 1.47243, 1.504, 1.46587, 1.50381, 1.51038, 1.5073, 1.51092, 1.46796, 1.47174, 1.41703, 1.41954, 1.31439, 1.35727, 1.35461, 1.34117, 1.3362, 1.33575, 1.3325, 1.34009, 1.34777, 1.32897, 1.32562, 1.32603, 1.32433, 1.32513, 1.32007, 1.31994, 1.31712, 
1.67833, 1.67659, 1.66824, 1.66772, 1.66844, 1.66693, 1.66569, 1.67207, 1.67236, 1.66804, 1.6613, 1.67253, 1.65835, 1.65549, 1.66634, 1.6492, 1.64358, 1.6168, 1.62718, 1.65501, 1.71984, 1.7544, 1.76955, 1.82804, 1.84005, 1.82741, 1.82674, 1.76796, 1.69253, 1.62659, 1.58985, 1.6054, 1.60636, 1.60559, 1.5955, 1.6032, 1.60108, 1.59243, 1.58879, 1.58293, 1.58438, 1.57802, 1.58509, 1.57691, 1.57688, 1.57513, 1.572, 1.56635, 1.5636, 1.56215, 1.55848, 1.55786, 1.55744, 1.55802, 1.55756, 1.56239, 1.56906, 1.54869, 1.54826, 1.54729, 1.54791, 1.54025, 1.52989, 1.52872, 1.53031, 1.53057, 1.5284, 1.52405, 1.52084, 1.52387, 1.52673, 1.52712, 1.51707, 1.51589, 1.51167, 1.51011, 1.50962, 1.51673, 1.51704, 1.51126, 1.52233, 1.51343, 1.48223, 1.51752, 1.56304, 1.58983, 1.62098, 1.64823, 1.64926, 1.64582, 1.63279, 1.61974, 1.57675, 1.51075, 1.44414, 1.45405, 1.48127, 1.46501, 1.47544, 1.48636, 1.47266, 1.46765, 1.46345, 1.4681, 1.46339, 1.45523, 1.45241, 1.45399, 1.45131, 1.45024, 1.46463, 1.45315, 1.44065, 1.43578, 1.43476, 1.43044, 1.4372, 1.43242, 1.43338, 1.4354, 1.43568, 1.43309, 1.4287, 1.42564, 1.437, 1.42196, 1.42112, 1.41722, 1.4194, 1.41808, 1.41552, 1.41428, 1.41291, 1.41255, 1.4069, 1.40589, 1.40195, 1.40405, 1.40088, 1.3994, 1.39957, 1.3979, 1.39626, 1.39296, 1.39151, 1.38875, 1.38859, 1.388, 1.38388, 1.38079, 1.37834, 1.37748, 1.37939, 1.37785, 1.37783, 1.37875, 1.37373, 1.40163, 1.38447, 1.37495, 1.36296, 1.40905, 1.40997, 1.46844, 1.47268, 1.52106, 1.53139, 1.52073, 1.518, 1.51724, 1.48458, 1.48641, 1.45832, 1.39382, 1.33278, 1.35746, 1.35895, 1.35437, 1.35636, 1.34038, 1.3488, 1.34024, 1.33978, 1.34012, 1.34137, 1.33757, 1.33364, 1.34013, 1.33758, 1.32793, 1.32667, 
1.67508, 1.66641, 1.66082, 1.6661, 1.65838, 1.68235, 1.67202, 1.67993, 1.66068, 1.6657, 1.67298, 1.65295, 1.64914, 1.63814, 1.6479, 1.65117, 1.63438, 1.609, 1.62601, 1.66817, 1.68978, 1.71393, 1.76463, 1.83076, 1.86487, 1.87827, 1.85686, 1.87624, 1.66586, 1.66082, 1.60053, 1.61238, 1.61601, 1.60804, 1.60607, 1.60168, 1.59903, 1.58953, 1.59525, 1.57332, 1.57629, 1.58304, 1.58567, 1.58874, 1.57498, 1.57176, 1.56907, 1.5598, 1.55854, 1.55179, 1.54917, 1.54942, 1.55723, 1.5502, 1.54733, 1.54841, 1.55037, 1.56206, 1.55407, 1.54162, 1.54467, 1.55053, 1.53694, 1.53478, 1.53225, 1.53051, 1.52794, 1.52611, 1.52377, 1.55172, 1.51196, 1.51129, 1.5207, 1.51577, 1.51353, 1.51135, 1.50961, 1.50267, 1.5023, 1.51688, 1.51638, 1.50908, 1.48148, 1.47709, 1.52703, 1.62967, 1.65451, 1.63596, 1.63746, 1.65669, 1.6439, 1.63322, 1.5442, 1.51329, 1.45032, 1.4506, 1.47775, 1.4632, 1.45296, 1.4758, 1.49006, 1.46532, 1.46703, 1.45894, 1.45918, 1.46411, 1.45689, 1.45154, 1.44335, 1.43669, 1.4358, 1.43106, 1.43007, 1.42493, 1.4274, 1.45523, 1.41897, 1.42292, 1.4377, 1.4334, 1.43176, 1.4276, 1.42403, 1.41304, 1.40908, 1.4037, 1.40031, 1.39718, 1.39494, 1.39492, 1.39457, 1.39238, 1.38986, 1.38637, 1.38544, 1.38634, 1.38496, 1.37976, 1.37628, 1.37502, 1.37585, 1.382, 1.38599, 1.38329, 1.39227, 1.38484, 1.38828, 1.38962, 1.38887, 1.37836, 1.36711, 1.36531, 1.36118, 1.36111, 1.35927, 1.36778, 1.36455, 1.36948, 1.3807, 1.37856, 1.34797, 1.35408, 1.40862, 1.45782, 1.46113, 1.47255, 1.48627, 1.56241, 1.5178, 1.53115, 1.46462, 1.42611, 1.40296, 1.35087, 1.29757, 1.35216, 1.35352, 1.35836, 1.34818, 1.34402, 1.33858, 1.34227, 1.33274, 1.32667, 1.31747, 1.31565, 1.32038, 1.31693, 1.31257, 1.31027, 1.30961, 
1.66592, 1.66271, 1.66313, 1.65992, 1.65878, 1.65856, 1.65784, 1.65648, 1.65475, 1.64859, 1.64423, 1.66797, 1.63725, 1.64479, 1.64185, 1.63687, 1.6444, 1.62618, 1.62985, 1.66541, 1.70797, 1.73678, 1.77054, 1.85172, 1.84107, 1.85452, 1.87893, 1.78197, 1.7081, 1.63206, 1.57716, 1.60185, 1.60362, 1.59767, 1.59398, 1.58953, 1.58637, 1.58141, 1.57592, 1.57279, 1.5686, 1.56724, 1.56477, 1.56364, 1.58778, 1.55883, 1.56056, 1.5688, 1.56104, 1.55731, 1.5543, 1.55159, 1.54907, 1.54931, 1.54897, 1.54709, 1.55048, 1.55898, 1.55205, 1.56234, 1.54539, 1.53711, 1.52623, 1.53435, 1.51995, 1.51811, 1.52, 1.5181, 1.53429, 1.515, 1.51259, 1.51201, 1.51109, 1.51016, 1.50796, 1.51213, 1.49968, 1.50768, 1.49892, 1.50208, 1.50138, 1.5087, 1.47201, 1.48948, 1.53893, 1.57533, 1.60974, 1.63039, 1.63756, 1.63377, 1.61937, 1.60227, 1.57082, 1.54611, 1.48525, 1.44911, 1.45903, 1.47168, 1.47361, 1.459, 1.48344, 1.47358, 1.47681, 1.45754, 1.45846, 1.44169, 1.44037, 1.43955, 1.44301, 1.429, 1.42757, 1.42921, 1.42917, 1.4298, 1.43034, 1.43028, 1.42896, 1.42745, 1.42561, 1.42324, 1.42144, 1.4222, 1.42229, 1.41903, 1.41452, 1.41374, 1.41242, 1.41038, 1.4106, 1.40975, 1.40755, 1.40273, 1.40143, 1.41388, 1.39924, 1.39491, 1.39251, 1.39121, 1.38889, 1.38796, 1.38639, 1.38451, 1.38108, 1.37974, 1.38038, 1.37874, 1.37813, 1.3779, 1.37714, 1.37735, 1.3754, 1.37453, 1.38657, 1.37288, 1.3709, 1.37083, 1.36815, 1.37092, 1.37241, 1.37654, 1.37216, 1.35929, 1.40025, 1.43987, 1.44071, 1.47465, 1.4859, 1.51028, 1.5118, 1.51226, 1.48677, 1.46866, 1.46059, 1.3554, 1.3188, 1.34817, 1.36177, 1.34749, 1.35414, 1.34439, 1.33331, 1.33048, 1.32885, 1.32554, 1.32397, 1.32272, 1.32435, 1.32605, 1.32509, 1.32377, 1.32369, 
1.66863, 1.66837, 1.6657, 1.66167, 1.65972, 1.6647, 1.66154, 1.64909, 1.64679, 1.656, 1.65146, 1.6393, 1.63922, 1.64685, 1.63371, 1.6407, 1.64522, 1.6284, 1.61272, 1.6526, 1.66823, 1.68907, 1.75842, 1.80677, 1.82675, 1.8889, 1.89193, 1.8034, 1.69394, 1.64563, 1.5788, 1.60647, 1.61254, 1.59992, 1.59375, 1.60244, 1.58324, 1.59476, 1.58476, 1.57596, 1.57712, 1.57744, 1.58846, 1.57235, 1.57987, 1.5644, 1.56124, 1.55625, 1.552, 1.55056, 1.55403, 1.5632, 1.54404, 1.54172, 1.53902, 1.53778, 1.53874, 1.54863, 1.54087, 1.54078, 1.5476, 1.54145, 1.53451, 1.52733, 1.52983, 1.53298, 1.52061, 1.5273, 1.51426, 1.52695, 1.50976, 1.50377, 1.50862, 1.50068, 1.49764, 1.50236, 1.49806, 1.49498, 1.50526, 1.50231, 1.49697, 1.5031, 1.46204, 1.4754, 1.50567, 1.59383, 1.59746, 1.63658, 1.64016, 1.63755, 1.60992, 1.60177, 1.56371, 1.51268, 1.47208, 1.43119, 1.46374, 1.47843, 1.47121, 1.45854, 1.45864, 1.46569, 1.46565, 1.45057, 1.44342, 1.44358, 1.43504, 1.43923, 1.43973, 1.4351, 1.4334, 1.43676, 1.43233, 1.4309, 1.42958, 1.43092, 1.42673, 1.4246, 1.42243, 1.42076, 1.43623, 1.41766, 1.42058, 1.43635, 1.41349, 1.4118, 1.41142, 1.40895, 1.40809, 1.40715, 1.40849, 1.40209, 1.39843, 1.39497, 1.39467, 1.39132, 1.38999, 1.39904, 1.38585, 1.3822, 1.38184, 1.37998, 1.38494, 1.38584, 1.37679, 1.37776, 1.37639, 1.37502, 1.40983, 1.37875, 1.37063, 1.3688, 1.36589, 1.38186, 1.37778, 1.36942, 1.36154, 1.36861, 1.37745, 1.36706, 1.34795, 1.33579, 1.38995, 1.40195, 1.43188, 1.46451, 1.47689, 1.50048, 1.52773, 1.53062, 1.53355, 1.50862, 1.45057, 1.38263, 1.35989, 1.35638, 1.3623, 1.35645, 1.34352, 1.34358, 1.34717, 1.34446, 1.34029, 1.33225, 1.32473, 1.33384, 1.32433, 1.32209, 1.32008, 1.32201, 1.31805, 
1.66034, 1.65414, 1.65154, 1.64858, 1.64931, 1.67185, 1.64059, 1.63749, 1.63916, 1.63989, 1.6367, 1.62041, 1.61967, 1.61579, 1.61406, 1.6186, 1.62396, 1.60933, 1.56821, 1.59361, 1.61338, 1.6355, 1.70181, 1.77364, 1.83398, 1.85084, 1.84753, 1.81333, 1.75171, 1.61364, 1.55933, 1.58856, 1.58917, 1.58039, 1.58067, 1.57303, 1.58254, 1.56901, 1.5644, 1.56268, 1.56023, 1.5607, 1.55704, 1.55419, 1.55076, 1.54939, 1.54716, 1.54689, 1.54526, 1.54346, 1.54045, 1.53773, 1.53377, 1.53045, 1.52912, 1.52653, 1.52997, 1.52269, 1.52024, 1.5115, 1.53484, 1.53779, 1.52839, 1.53023, 1.51086, 1.5277, 1.51728, 1.50738, 1.50669, 1.4968, 1.49738, 1.50245, 1.49436, 1.49176, 1.49554, 1.48823, 1.4931, 1.48989, 1.4791, 1.48435, 1.48684, 1.4928, 1.47096, 1.46554, 1.50948, 1.53917, 1.64708, 1.63013, 1.64082, 1.6345, 1.62513, 1.6072, 1.56409, 1.53099, 1.54859, 1.44818, 1.43416, 1.44563, 1.45557, 1.46194, 1.44062, 1.44068, 1.45068, 1.45729, 1.45668, 1.44852, 1.42616, 1.42435, 1.43114, 1.4191, 1.41874, 1.41791, 1.41584, 1.4148, 1.41247, 1.40889, 1.40613, 1.40427, 1.4011, 1.40034, 1.39845, 1.39749, 1.39646, 1.39356, 1.39216, 1.39189, 1.38783, 1.38354, 1.38257, 1.38115, 1.38073, 1.37935, 1.38354, 1.37946, 1.37975, 1.37837, 1.37757, 1.37784, 1.37226, 1.3717, 1.36802, 1.36572, 1.36496, 1.36405, 1.36358, 1.36201, 1.35939, 1.35823, 1.35606, 1.3537, 1.35191, 1.35049, 1.3501, 1.34875, 1.34701, 1.3465, 1.34406, 1.34374, 1.34362, 1.35038, 1.35073, 1.34118, 1.4123, 1.41681, 1.42631, 1.4919, 1.48551, 1.4791, 1.50564, 1.53203, 1.52348, 1.49264, 1.4681, 1.38782, 1.33816, 1.32038, 1.33699, 1.33876, 1.31842, 1.31531, 1.31157, 1.31383, 1.30839, 1.3129, 1.319, 1.30568, 1.31188, 1.30304, 1.30347, 1.30846, 1.30574, 
1.64483, 1.64435, 1.63821, 1.63593, 1.6352, 1.64417, 1.62861, 1.62798, 1.62449, 1.62657, 1.6215, 1.62184, 1.62974, 1.62319, 1.62948, 1.63005, 1.62197, 1.62727, 1.61016, 1.61523, 1.6466, 1.69538, 1.74321, 1.80273, 1.86541, 1.87078, 1.86635, 1.82086, 1.71809, 1.61764, 1.56258, 1.58388, 1.59555, 1.57845, 1.58203, 1.58173, 1.56797, 1.56323, 1.56282, 1.56475, 1.55825, 1.55238, 1.54935, 1.5475, 1.54543, 1.54134, 1.53669, 1.53967, 1.54558, 1.54264, 1.54017, 1.53647, 1.53321, 1.53018, 1.52762, 1.52502, 1.52308, 1.51986, 1.51766, 1.52049, 1.51953, 1.52073, 1.52662, 1.53411, 1.54326, 1.53102, 1.50459, 1.50169, 1.50042, 1.49913, 1.49814, 1.49631, 1.50154, 1.49025, 1.48865, 1.48714, 1.48669, 1.4837, 1.49238, 1.48486, 1.49713, 1.48989, 1.4666, 1.46016, 1.48984, 1.52668, 1.52323, 1.57023, 1.60625, 1.5974, 1.60298, 1.58945, 1.58247, 1.54138, 1.48127, 1.43956, 1.43486, 1.45799, 1.44968, 1.44478, 1.43988, 1.4442, 1.44516, 1.44488, 1.45064, 1.45529, 1.44826, 1.4379, 1.42471, 1.42059, 1.42923, 1.41425, 1.41298, 1.41307, 1.4129, 1.41382, 1.41686, 1.41322, 1.41173, 1.40783, 1.40579, 1.40096, 1.39878, 1.42256, 1.40251, 1.39704, 1.39804, 1.39514, 1.39606, 1.39456, 1.39252, 1.39147, 1.38847, 1.38689, 1.38681, 1.38586, 1.38483, 1.38362, 1.38212, 1.37809, 1.37807, 1.38003, 1.37138, 1.36811, 1.36725, 1.3655, 1.3646, 1.36443, 1.36202, 1.36113, 1.3601, 1.37897, 1.35792, 1.35492, 1.35249, 1.35243, 1.35042, 1.35734, 1.35371, 1.35769, 1.36171, 1.33802, 1.35116, 1.3863, 1.42259, 1.46052, 1.4747, 1.49254, 1.52031, 1.53802, 1.55061, 1.50219, 1.45786, 1.36708, 1.33457, 1.31177, 1.32424, 1.32076, 1.31749, 1.31662, 1.31288, 1.31318, 1.3101, 1.3101, 1.31174, 1.31015, 1.30942, 1.30822, 1.30604, 1.30446, 1.30526, 
1.6581, 1.65859, 1.65417, 1.65329, 1.65152, 1.64766, 1.64347, 1.6413, 1.63831, 1.63572, 1.63368, 1.63853, 1.62883, 1.62657, 1.63068, 1.63004, 1.62744, 1.61825, 1.61803, 1.61171, 1.63194, 1.67463, 1.72093, 1.78887, 1.8476, 1.85226, 1.86798, 1.82785, 1.79732, 1.61855, 1.56947, 1.57531, 1.59539, 1.58573, 1.58146, 1.57559, 1.57158, 1.56883, 1.56551, 1.56151, 1.56079, 1.55769, 1.55612, 1.55755, 1.56303, 1.55156, 1.55039, 1.547, 1.5461, 1.54412, 1.54027, 1.53728, 1.53698, 1.53355, 1.53411, 1.53055, 1.52678, 1.52463, 1.52159, 1.51946, 1.51922, 1.51464, 1.51541, 1.51366, 1.52057, 1.51467, 1.52372, 1.51089, 1.49987, 1.49971, 1.49929, 1.49266, 1.49205, 1.48918, 1.4893, 1.48542, 1.48711, 1.48257, 1.48174, 1.4911, 1.49228, 1.48283, 1.48563, 1.45242, 1.46028, 1.50602, 1.55197, 1.55988, 1.59397, 1.60687, 1.58937, 1.58932, 1.5857, 1.56045, 1.52474, 1.44846, 1.43363, 1.45422, 1.44833, 1.45644, 1.43784, 1.43501, 1.43337, 1.43354, 1.43886, 1.44236, 1.4531, 1.45017, 1.43813, 1.42475, 1.41995, 1.42433, 1.41678, 1.4149, 1.41302, 1.41195, 1.4097, 1.40883, 1.40739, 1.40432, 1.40528, 1.40174, 1.40021, 1.40013, 1.39611, 1.39413, 1.39376, 1.39266, 1.39125, 1.38961, 1.39007, 1.38653, 1.38604, 1.38312, 1.38117, 1.38003, 1.378, 1.37491, 1.37247, 1.37127, 1.36952, 1.36809, 1.36667, 1.36457, 1.36379, 1.36255, 1.36065, 1.35825, 1.35916, 1.35924, 1.3576, 1.3569, 1.35592, 1.35343, 1.35344, 1.35219, 1.35092, 1.35743, 1.35137, 1.36747, 1.37045, 1.33599, 1.35389, 1.40386, 1.44157, 1.46299, 1.51828, 1.53009, 1.56298, 1.55939, 1.55797, 1.54044, 1.40332, 1.36831, 1.30841, 1.33083, 1.33265, 1.33244, 1.3298, 1.32597, 1.31671, 1.327, 1.33036, 1.31465, 1.32321, 1.31713, 1.30984, 1.32426, 1.30857, 1.30765, 1.3066, 
1.65416, 1.65085, 1.65087, 1.64771, 1.6436, 1.6411, 1.64022, 1.63704, 1.63415, 1.6309, 1.63752, 1.62934, 1.62663, 1.62332, 1.62163, 1.62036, 1.62756, 1.6316, 1.60242, 1.59004, 1.6516, 1.66925, 1.70829, 1.76668, 1.80937, 1.83048, 1.92113, 1.94962, 1.80144, 1.69272, 1.58016, 1.56817, 1.58751, 1.58204, 1.57474, 1.57262, 1.56889, 1.57154, 1.56518, 1.56144, 1.55935, 1.55751, 1.56169, 1.55593, 1.55362, 1.55294, 1.55089, 1.54867, 1.54628, 1.54375, 1.54092, 1.53705, 1.53668, 1.53608, 1.53283, 1.53016, 1.52892, 1.5273, 1.52299, 1.52336, 1.51822, 1.51483, 1.51347, 1.52419, 1.51096, 1.52636, 1.52215, 1.52658, 1.51604, 1.49872, 1.49816, 1.49708, 1.49936, 1.49339, 1.4915, 1.48957, 1.48835, 1.48642, 1.48575, 1.48546, 1.4999, 1.48525, 1.47117, 1.45712, 1.50139, 1.4953, 1.52029, 1.57327, 1.57198, 1.57794, 1.62461, 1.58649, 1.57494, 1.52162, 1.53318, 1.4817, 1.43931, 1.46186, 1.46411, 1.45274, 1.44744, 1.43992, 1.43543, 1.45111, 1.43398, 1.43249, 1.43754, 1.45168, 1.45539, 1.44277, 1.42286, 1.41924, 1.41642, 1.41295, 1.41246, 1.41098, 1.40892, 1.40712, 1.40563, 1.40514, 1.40573, 1.40191, 1.40128, 1.40001, 1.3999, 1.39834, 1.39647, 1.39338, 1.39402, 1.39086, 1.38966, 1.38693, 1.38498, 1.38331, 1.3824, 1.37826, 1.37765, 1.3749, 1.37172, 1.3709, 1.3688, 1.36666, 1.36554, 1.36489, 1.36389, 1.36366, 1.36091, 1.35993, 1.35897, 1.35913, 1.35663, 1.35647, 1.35478, 1.35365, 1.35225, 1.35028, 1.34561, 1.34458, 1.34585, 1.35234, 1.35453, 1.36834, 1.32235, 1.39936, 1.41637, 1.444, 1.4921, 1.38151, 1.38661, 1.56465, 1.56126, 1.51051, 1.44788, 1.34436, 1.32652, 1.34482, 1.33759, 1.33208, 1.33103, 1.32772, 1.32696, 1.32365, 1.3257, 1.32551, 1.32787, 1.32003, 1.3152, 1.31425, 1.31261, 1.31154, 1.30979, 
1.6545, 1.65824, 1.64764, 1.64565, 1.64457, 1.64143, 1.63717, 1.63432, 1.63008, 1.6295, 1.62682, 1.62488, 1.62639, 1.61991, 1.6201, 1.62227, 1.62001, 1.62595, 1.61808, 1.60266, 1.60883, 1.65908, 1.72883, 1.75216, 1.8107, 1.89583, 1.93756, 1.85484, 1.82999, 1.64031, 1.56184, 1.57875, 1.5888, 1.59601, 1.57534, 1.57266, 1.58321, 1.56828, 1.5673, 1.58248, 1.55914, 1.55876, 1.55575, 1.55431, 1.55115, 1.54795, 1.54359, 1.54288, 1.54, 1.53886, 1.53743, 1.5392, 1.53519, 1.53277, 1.53214, 1.5333, 1.52555, 1.5233, 1.52063, 1.52019, 1.51762, 1.52425, 1.51434, 1.51345, 1.51348, 1.51073, 1.50674, 1.50415, 1.53381, 1.51367, 1.50721, 1.49862, 1.49632, 1.49514, 1.49322, 1.49258, 1.49259, 1.48564, 1.48658, 1.48661, 1.48584, 1.48525, 1.47628, 1.46832, 1.46619, 1.50719, 1.49468, 1.57618, 1.58828, 1.57787, 1.55689, 1.56037, 1.56045, 1.53253, 1.48919, 1.4395, 1.44796, 1.44343, 1.46116, 1.45345, 1.45474, 1.4419, 1.43838, 1.43641, 1.43426, 1.43292, 1.43096, 1.43829, 1.44418, 1.44683, 1.43356, 1.41704, 1.41565, 1.41277, 1.41446, 1.40913, 1.40769, 1.40822, 1.40638, 1.40519, 1.40505, 1.40629, 1.40295, 1.40188, 1.40041, 1.39851, 1.42952, 1.39613, 1.39438, 1.38998, 1.38943, 1.38808, 1.38654, 1.38435, 1.38371, 1.38211, 1.38062, 1.3778, 1.37751, 1.37277, 1.37234, 1.36879, 1.36579, 1.36481, 1.36117, 1.36009, 1.35869, 1.35504, 1.35103, 1.35158, 1.35263, 1.35517, 1.35471, 1.35027, 1.35004, 1.34877, 1.3516, 1.34571, 1.3616, 1.35741, 1.36111, 1.32702, 1.33653, 1.3848, 1.39932, 1.44516, 1.47744, 1.54747, 1.54026, 1.60156, 1.60545, 1.57535, 1.51973, 1.3513, 1.28779, 1.31154, 1.32726, 1.33748, 1.32947, 1.32629, 1.31474, 1.31482, 1.31582, 1.31447, 1.30919, 1.31133, 1.31073, 1.31272, 1.31352, 1.30627, 1.30884, 
1.65005, 1.64739, 1.64568, 1.64442, 1.64244, 1.6345, 1.63368, 1.63141, 1.63541, 1.6267, 1.62384, 1.62067, 1.62131, 1.6208, 1.62056, 1.6214, 1.62744, 1.6202, 1.61905, 1.58935, 1.6168, 1.67665, 1.73261, 1.77551, 1.82768, 1.93576, 1.9662, 1.90101, 1.778, 1.64182, 1.56584, 1.5794, 1.58263, 1.58613, 1.58187, 1.57875, 1.57206, 1.56568, 1.56716, 1.56165, 1.55961, 1.55885, 1.557, 1.55411, 1.5518, 1.54933, 1.54601, 1.54214, 1.53972, 1.53839, 1.53782, 1.53524, 1.5313, 1.53007, 1.52879, 1.5276, 1.52109, 1.51976, 1.5162, 1.51447, 1.51226, 1.51208, 1.50561, 1.50499, 1.50271, 1.50214, 1.5026, 1.50081, 1.51703, 1.51251, 1.51979, 1.50408, 1.50499, 1.49218, 1.49089, 1.48694, 1.48595, 1.49934, 1.48153, 1.48276, 1.49038, 1.48945, 1.48359, 1.47452, 1.47456, 1.52058, 1.55489, 1.61324, 1.62009, 1.56711, 1.56501, 1.57898, 1.54738, 1.51937, 1.48467, 1.47863, 1.43661, 1.44077, 1.46264, 1.4684, 1.4581, 1.45017, 1.43441, 1.43208, 1.43058, 1.42833, 1.42671, 1.4249, 1.43288, 1.43478, 1.44342, 1.44691, 1.43768, 1.43161, 1.40949, 1.40788, 1.40672, 1.40591, 1.40483, 1.40583, 1.40428, 1.40311, 1.40229, 1.3986, 1.39841, 1.39652, 1.395, 1.39311, 1.39138, 1.39035, 1.3891, 1.38784, 1.38587, 1.38528, 1.3853, 1.38485, 1.38404, 1.38267, 1.38003, 1.37845, 1.3741, 1.3708, 1.36873, 1.36466, 1.36496, 1.36219, 1.35836, 1.35839, 1.35662, 1.35663, 1.35592, 1.35422, 1.3536, 1.35391, 1.3546, 1.3551, 1.35224, 1.35138, 1.36312, 1.37016, 1.3727, 1.35508, 1.32968, 1.36383, 1.44647, 1.44712, 1.51806, 1.54435, 1.57645, 1.59337, 1.56396, 1.51562, 1.45866, 1.38297, 1.29286, 1.3294, 1.33971, 1.33633, 1.3226, 1.31923, 1.3175, 1.32003, 1.31674, 1.31424, 1.3296, 1.32473, 1.31302, 1.31235, 1.31059, 1.30732, 1.30646, 
1.64908, 1.6484, 1.64596, 1.64194, 1.63875, 1.63445, 1.63281, 1.6299, 1.6282, 1.62845, 1.625, 1.62409, 1.62266, 1.62333, 1.62207, 1.62759, 1.61842, 1.62308, 1.62373, 1.59675, 1.59407, 1.6375, 1.70921, 1.77452, 1.82431, 1.89703, 1.92672, 1.92685, 1.81986, 1.66198, 1.55397, 1.57459, 1.58738, 1.57772, 1.576, 1.5862, 1.57023, 1.5663, 1.56287, 1.56143, 1.55769, 1.55605, 1.55342, 1.5533, 1.55078, 1.54787, 1.54537, 1.54379, 1.54284, 1.54143, 1.53967, 1.536, 1.53461, 1.5326, 1.52989, 1.52885, 1.52598, 1.52309, 1.52106, 1.51811, 1.51601, 1.51371, 1.50962, 1.50754, 1.50381, 1.50311, 1.49993, 1.49889, 1.50474, 1.50878, 1.50948, 1.53715, 1.52546, 1.5093, 1.49839, 1.49051, 1.48716, 1.49271, 1.48495, 1.4892, 1.48878, 1.48827, 1.46215, 1.46299, 1.49971, 1.50855, 1.53471, 1.5434, 1.54668, 1.54263, 1.53764, 1.5331, 1.52433, 1.53687, 1.52795, 1.46589, 1.43124, 1.43895, 1.45315, 1.46166, 1.45744, 1.4462, 1.4543, 1.44766, 1.44808, 1.43572, 1.44024, 1.43962, 1.43093, 1.41959, 1.43047, 1.42927, 1.41768, 1.41093, 1.41998, 1.40778, 1.40522, 1.40319, 1.40316, 1.40294, 1.40003, 1.39906, 1.39885, 1.39617, 1.39395, 1.39198, 1.38959, 1.38779, 1.3876, 1.38632, 1.38504, 1.38447, 1.38338, 1.38303, 1.38204, 1.37893, 1.37748, 1.37499, 1.37353, 1.37294, 1.37166, 1.37035, 1.36822, 1.3673, 1.36873, 1.36644, 1.36559, 1.36411, 1.36379, 1.36177, 1.36361, 1.36119, 1.3576, 1.3545, 1.35382, 1.35329, 1.35251, 1.35041, 1.36102, 1.35175, 1.35869, 1.35469, 1.32286, 1.35914, 1.42621, 1.44245, 1.48623, 1.55493, 1.55799, 1.58166, 1.57547, 1.55828, 1.52647, 1.41, 1.33674, 1.33036, 1.33733, 1.33283, 1.33499, 1.3217, 1.31629, 1.31579, 1.31543, 1.31513, 1.31205, 1.31269, 1.30973, 1.30916, 1.30595, 1.30369, 1.30594, 
1.65368, 1.65103, 1.64853, 1.64485, 1.6401, 1.63694, 1.6355, 1.63573, 1.6334, 1.63046, 1.62714, 1.62187, 1.62095, 1.62022, 1.618, 1.61526, 1.62014, 1.62647, 1.61465, 1.61835, 1.58886, 1.64633, 1.68925, 1.74029, 1.83379, 1.86455, 1.95479, 1.93437, 1.82543, 1.70719, 1.54971, 1.57304, 1.57754, 1.58732, 1.58592, 1.58457, 1.56872, 1.57217, 1.56224, 1.59259, 1.55743, 1.55529, 1.55472, 1.55102, 1.55811, 1.54728, 1.54528, 1.54195, 1.53845, 1.5366, 1.53362, 1.53119, 1.52797, 1.52582, 1.52547, 1.52, 1.51785, 1.51611, 1.51595, 1.51465, 1.51098, 1.50961, 1.50768, 1.50722, 1.5062, 1.50543, 1.50826, 1.50375, 1.50105, 1.49898, 1.50267, 1.4993, 1.50635, 1.51434, 1.5051, 1.50932, 1.50014, 1.48906, 1.49412, 1.49063, 1.48161, 1.48528, 1.4691, 1.4543, 1.45412, 1.50598, 1.54291, 1.55132, 1.54833, 1.54319, 1.52358, 1.53498, 1.53676, 1.53448, 1.54138, 1.51101, 1.47375, 1.43663, 1.4503, 1.46254, 1.44498, 1.44342, 1.43788, 1.44672, 1.45255, 1.45144, 1.46128, 1.46017, 1.48096, 1.45466, 1.44449, 1.44086, 1.41915, 1.4129, 1.41923, 1.41678, 1.4068, 1.40579, 1.42038, 1.40273, 1.40265, 1.3994, 1.39733, 1.3947, 1.39221, 1.39174, 1.39074, 1.38942, 1.3859, 1.38445, 1.38335, 1.38274, 1.38277, 1.38022, 1.37724, 1.37448, 1.37428, 1.37371, 1.37124, 1.369, 1.36821, 1.36739, 1.36563, 1.36474, 1.36341, 1.36321, 1.36361, 1.36211, 1.36124, 1.35996, 1.35762, 1.35683, 1.35572, 1.35475, 1.35256, 1.35041, 1.34759, 1.34805, 1.35398, 1.35395, 1.34951, 1.35476, 1.3407, 1.31926, 1.39309, 1.43503, 1.48142, 1.52591, 1.56309, 1.5927, 1.59859, 1.55606, 1.47268, 1.39656, 1.31075, 1.33247, 1.32585, 1.32662, 1.33032, 1.3309, 1.32003, 1.31721, 1.31667, 1.31563, 1.31411, 1.31263, 1.31162, 1.30834, 1.30815, 1.30646, 1.30559, 
1.65063, 1.64751, 1.64577, 1.64424, 1.6414, 1.63988, 1.63786, 1.63505, 1.63195, 1.63052, 1.62659, 1.62442, 1.62121, 1.6175, 1.61625, 1.61255, 1.61093, 1.6154, 1.61098, 1.61124, 1.60961, 1.61551, 1.634, 1.7273, 1.75871, 1.82997, 1.86219, 1.8516, 1.69009, 1.60302, 1.56778, 1.5714, 1.58402, 1.58688, 1.58409, 1.57658, 1.57225, 1.56916, 1.56684, 1.58237, 1.56011, 1.55612, 1.55368, 1.553, 1.54437, 1.541, 1.54571, 1.53904, 1.53512, 1.53367, 1.53148, 1.52795, 1.52523, 1.52455, 1.52129, 1.52336, 1.51092, 1.51132, 1.51183, 1.50816, 1.50824, 1.50922, 1.50386, 1.50251, 1.50203, 1.50078, 1.50072, 1.49861, 1.49911, 1.4958, 1.49472, 1.49234, 1.49316, 1.51037, 1.51712, 1.5459, 1.52587, 1.52978, 1.51223, 1.47288, 1.49096, 1.49267, 1.48216, 1.45982, 1.46151, 1.50713, 1.52679, 1.54745, 1.54557, 1.54077, 1.50883, 1.50263, 1.50573, 1.52401, 1.53292, 1.47972, 1.4562, 1.4583, 1.46314, 1.46865, 1.47557, 1.46509, 1.46075, 1.46808, 1.46819, 1.45355, 1.44617, 1.4372, 1.43325, 1.4282, 1.42449, 1.42113, 1.41843, 1.41626, 1.41389, 1.41098, 1.40894, 1.40653, 1.40482, 1.40288, 1.40053, 1.4003, 1.39799, 1.39699, 1.395, 1.3909, 1.38663, 1.38524, 1.38331, 1.38156, 1.38337, 1.38231, 1.38109, 1.38026, 1.37783, 1.37553, 1.37488, 1.37489, 1.37394, 1.37054, 1.37033, 1.36851, 1.36717, 1.36405, 1.36363, 1.3638, 1.36001, 1.35935, 1.35658, 1.35553, 1.35426, 1.35305, 1.35046, 1.34877, 1.34916, 1.34547, 1.34403, 1.34169, 1.34758, 1.34133, 1.35126, 1.34828, 1.34696, 1.35017, 1.38079, 1.42243, 1.47325, 1.55491, 1.5893, 1.67133, 1.62175, 1.6048, 1.49491, 1.38921, 1.29714, 1.31927, 1.333, 1.32804, 1.34341, 1.31645, 1.31585, 1.31441, 1.31383, 1.31214, 1.31388, 1.30859, 1.30562, 1.30497, 1.30338, 1.30323, 1.30171, 
1.6441, 1.64241, 1.64209, 1.6404, 1.63929, 1.64038, 1.64147, 1.6389, 1.63566, 1.633, 1.63441, 1.62705, 1.62537, 1.6212, 1.61819, 1.61951, 1.61027, 1.61374, 1.61402, 1.60826, 1.5708, 1.59265, 1.64982, 1.7039, 1.79657, 1.83857, 1.90401, 1.96451, 1.96873, 1.66293, 1.55824, 1.5897, 1.59031, 1.5858, 1.5995, 1.58369, 1.58622, 1.58131, 1.57943, 1.58705, 1.56961, 1.57565, 1.55843, 1.55425, 1.55126, 1.54868, 1.54585, 1.54483, 1.53933, 1.53639, 1.5339, 1.53112, 1.52846, 1.52635, 1.52281, 1.52052, 1.52, 1.51553, 1.51205, 1.51155, 1.51022, 1.50765, 1.50559, 1.50327, 1.50234, 1.50087, 1.4995, 1.4992, 1.49621, 1.49281, 1.49379, 1.49464, 1.49273, 1.48928, 1.48864, 1.48809, 1.49228, 1.49348, 1.5068, 1.50827, 1.51345, 1.51274, 1.49375, 1.48515, 1.47203, 1.48343, 1.53133, 1.54481, 1.54687, 1.53803, 1.48644, 1.48906, 1.49821, 1.5508, 1.51646, 1.49852, 1.48069, 1.45131, 1.46101, 1.45114, 1.44882, 1.44128, 1.43728, 1.43587, 1.43157, 1.43, 1.42715, 1.42491, 1.42175, 1.42093, 1.41602, 1.41509, 1.4119, 1.40961, 1.41066, 1.4108, 1.41007, 1.40585, 1.40206, 1.40027, 1.3989, 1.39709, 1.39819, 1.39579, 1.39524, 1.39464, 1.39431, 1.39398, 1.39187, 1.39127, 1.38483, 1.38468, 1.38039, 1.37765, 1.37802, 1.38079, 1.37739, 1.37581, 1.37119, 1.37084, 1.37076, 1.37096, 1.36929, 1.36821, 1.36581, 1.36432, 1.36376, 1.36056, 1.3582, 1.3544, 1.35444, 1.35348, 1.35029, 1.34896, 1.34836, 1.34691, 1.34456, 1.34349, 1.34565, 1.34313, 1.35785, 1.35217, 1.36529, 1.32775, 1.3154, 1.41646, 1.50062, 1.50242, 1.59435, 1.59646, 1.58552, 1.63981, 1.49255, 1.37124, 1.33431, 1.30941, 1.34078, 1.33426, 1.32369, 1.31799, 1.31332, 1.31268, 1.31557, 1.31072, 1.3118, 1.31189, 1.30945, 1.30798, 1.30931, 1.30943, 1.30831, 
1.64242, 1.64234, 1.63774, 1.63483, 1.63499, 1.63471, 1.63233, 1.62793, 1.62409, 1.62324, 1.62204, 1.62195, 1.61788, 1.6172, 1.61273, 1.61177, 1.60686, 1.60616, 1.60613, 1.60466, 1.60007, 1.58905, 1.64443, 1.72085, 1.79583, 1.81194, 1.90947, 1.97895, 1.96712, 1.63889, 1.55731, 1.54074, 1.54385, 1.57542, 1.58954, 1.58105, 1.56027, 1.57571, 1.58315, 1.59889, 1.58645, 1.57216, 1.57254, 1.55475, 1.55073, 1.53914, 1.53487, 1.53411, 1.53206, 1.53679, 1.53087, 1.53331, 1.52673, 1.52486, 1.53345, 1.52158, 1.51819, 1.51463, 1.51352, 1.51231, 1.50961, 1.50548, 1.50215, 1.5001, 1.49986, 1.49817, 1.4948, 1.49426, 1.49252, 1.49114, 1.49027, 1.4872, 1.48391, 1.48201, 1.48017, 1.4776, 1.47598, 1.47521, 1.47456, 1.48188, 1.48064, 1.48116, 1.47673, 1.47575, 1.48521, 1.51587, 1.52183, 1.53371, 1.52883, 1.50576, 1.47614, 1.47613, 1.50098, 1.5094, 1.52004, 1.50058, 1.50597, 1.45684, 1.4594, 1.4544, 1.44493, 1.45879, 1.43611, 1.45039, 1.43066, 1.42943, 1.42573, 1.42304, 1.42171, 1.42152, 1.41788, 1.41571, 1.41117, 1.40979, 1.40738, 1.40786, 1.40732, 1.40899, 1.40715, 1.40484, 1.40194, 1.39993, 1.39829, 1.39657, 1.40171, 1.39323, 1.39215, 1.39194, 1.3856, 1.38451, 1.38437, 1.39176, 1.38109, 1.38095, 1.3789, 1.37897, 1.3769, 1.37207, 1.36884, 1.37094, 1.36981, 1.36799, 1.36585, 1.36393, 1.36331, 1.36088, 1.35857, 1.35735, 1.35447, 1.35346, 1.3544, 1.35346, 1.35081, 1.35278, 1.35762, 1.34485, 1.34511, 1.34393, 1.34405, 1.34194, 1.34238, 1.34439, 1.34554, 1.32818, 1.35135, 1.37846, 1.42003, 1.49835, 1.53346, 1.55729, 1.62858, 1.56525, 1.51467, 1.39436, 1.32595, 1.30446, 1.32967, 1.33059, 1.3375, 1.33481, 1.31619, 1.31119, 1.31166, 1.31048, 1.31327, 1.31041, 1.31084, 1.30877, 1.30995, 1.30905, 1.30879, 
1.63983, 1.63571, 1.63651, 1.63401, 1.63108, 1.62861, 1.62642, 1.62513, 1.62265, 1.62126, 1.62367, 1.61531, 1.61101, 1.61561, 1.60413, 1.6042, 1.60557, 1.621, 1.61663, 1.61997, 1.61337, 1.57957, 1.59686, 1.68304, 1.77109, 1.83158, 1.92933, 1.97248, 1.89991, 1.76824, 1.54406, 1.55967, 1.53106, 1.5891, 1.62647, 1.66832, 1.61147, 1.61005, 1.59562, 1.58505, 1.58633, 1.57993, 1.57115, 1.55528, 1.56048, 1.5442, 1.53855, 1.53249, 1.53067, 1.5289, 1.52659, 1.52397, 1.52292, 1.51917, 1.51707, 1.51904, 1.52364, 1.51265, 1.51204, 1.51052, 1.51228, 1.50553, 1.50169, 1.49975, 1.49732, 1.49557, 1.49257, 1.49018, 1.49625, 1.48758, 1.48498, 1.48521, 1.48251, 1.48098, 1.47866, 1.47602, 1.47582, 1.47305, 1.47228, 1.47181, 1.48626, 1.49204, 1.47693, 1.47859, 1.4779, 1.5015, 1.50182, 1.50902, 1.5103, 1.53384, 1.47868, 1.48171, 1.49506, 1.48422, 1.50424, 1.4879, 1.49056, 1.45812, 1.44709, 1.4444, 1.44847, 1.44215, 1.43086, 1.42473, 1.42086, 1.41873, 1.41715, 1.41444, 1.41409, 1.41644, 1.43354, 1.40371, 1.4074, 1.4089, 1.40869, 1.40843, 1.40676, 1.40479, 1.4022, 1.40181, 1.3999, 1.39703, 1.39401, 1.3927, 1.3923, 1.39196, 1.38605, 1.38278, 1.38274, 1.38107, 1.37953, 1.37798, 1.3764, 1.3753, 1.3744, 1.37255, 1.37066, 1.3687, 1.36807, 1.36744, 1.36471, 1.36385, 1.36239, 1.36018, 1.36049, 1.35801, 1.35679, 1.35659, 1.35692, 1.35619, 1.35485, 1.35275, 1.35658, 1.34935, 1.34757, 1.34489, 1.34498, 1.3609, 1.35034, 1.34355, 1.34189, 1.35045, 1.34421, 1.33818, 1.33367, 1.37442, 1.43557, 1.46452, 1.56053, 1.60168, 1.70722, 1.74998, 1.57629, 1.45254, 1.33007, 1.31206, 1.32773, 1.34024, 1.32416, 1.3237, 1.31293, 1.31646, 1.30928, 1.31642, 1.30735, 1.30912, 1.30836, 1.30583, 1.3038, 1.29972, 1.29934, 
1.62933, 1.62655, 1.62592, 1.6249, 1.62271, 1.62022, 1.61846, 1.61836, 1.6167, 1.61404, 1.60992, 1.60865, 1.60781, 1.60568, 1.60136, 1.59858, 1.59658, 1.59549, 1.59414, 1.59613, 1.59827, 1.58307, 1.62363, 1.66918, 1.71246, 1.78639, 1.84466, 1.95297, 1.88402, 1.68217, 1.54765, 1.5354, 1.5709, 1.56402, 1.5619, 1.56552, 1.56818, 1.57228, 1.55976, 1.5796, 1.55068, 1.54725, 1.55051, 1.53834, 1.53506, 1.53178, 1.53042, 1.53658, 1.52614, 1.52167, 1.52117, 1.51784, 1.51579, 1.5127, 1.51037, 1.50872, 1.50903, 1.5051, 1.50258, 1.50074, 1.49996, 1.49746, 1.49568, 1.49409, 1.4933, 1.49001, 1.48514, 1.48226, 1.47865, 1.47636, 1.47416, 1.47166, 1.47056, 1.49239, 1.4692, 1.46785, 1.46756, 1.46518, 1.46268, 1.46285, 1.46516, 1.4672, 1.46663, 1.46485, 1.46114, 1.50934, 1.53411, 1.5138, 1.51111, 1.49675, 1.49793, 1.46833, 1.47578, 1.49009, 1.47695, 1.47761, 1.47192, 1.45158, 1.44805, 1.44671, 1.43944, 1.43535, 1.43073, 1.42623, 1.4235, 1.41986, 1.41781, 1.41638, 1.41361, 1.41091, 1.41088, 1.40685, 1.40408, 1.40223, 1.4008, 1.39921, 1.397, 1.39526, 1.39227, 1.39129, 1.3895, 1.38584, 1.38371, 1.38145, 1.37926, 1.37749, 1.3764, 1.37625, 1.37298, 1.37263, 1.37508, 1.37529, 1.37489, 1.37423, 1.37466, 1.37244, 1.37175, 1.37032, 1.36682, 1.36423, 1.35948, 1.35589, 1.35378, 1.35027, 1.34891, 1.34691, 1.34669, 1.34791, 1.34801, 1.34752, 1.34691, 1.34514, 1.34288, 1.3427, 1.34303, 1.33775, 1.33918, 1.33617, 1.33395, 1.33327, 1.33278, 1.33178, 1.33685, 1.3372, 1.32322, 1.38766, 1.45431, 1.48491, 1.57525, 1.59647, 1.69594, 1.71394, 1.61109, 1.43055, 1.3241, 1.31586, 1.31389, 1.31775, 1.31532, 1.30598, 1.30652, 1.30484, 1.30337, 1.30196, 1.30142, 1.3018, 1.29854, 1.29767, 1.29586, 1.29455, 1.2951, 
1.62322, 1.62672, 1.6206, 1.62019, 1.61992, 1.61814, 1.61663, 1.61547, 1.61286, 1.61285, 1.60983, 1.60633, 1.60521, 1.60331, 1.59967, 1.59672, 1.59587, 1.59321, 1.59311, 1.59921, 1.60237, 1.59052, 1.58294, 1.66275, 1.734, 1.79418, 1.89044, 1.7365, 1.73123, 1.65312, 1.61118, 1.5273, 1.54455, 1.5682, 1.55988, 1.57565, 1.55549, 1.55396, 1.5662, 1.54897, 1.54779, 1.54391, 1.54176, 1.54503, 1.54801, 1.53464, 1.53085, 1.52838, 1.52709, 1.52245, 1.52084, 1.51789, 1.51697, 1.5122, 1.50875, 1.504, 1.5029, 1.5035, 1.50152, 1.50009, 1.49768, 1.4948, 1.49185, 1.49143, 1.48936, 1.48711, 1.48543, 1.48472, 1.48241, 1.4784, 1.4747, 1.47266, 1.47077, 1.46925, 1.46753, 1.46615, 1.46405, 1.4636, 1.46115, 1.46034, 1.46082, 1.4624, 1.4655, 1.46185, 1.46484, 1.48892, 1.49886, 1.50365, 1.49453, 1.48842, 1.47542, 1.46421, 1.46786, 1.4791, 1.47871, 1.49027, 1.49279, 1.44349, 1.4391, 1.44735, 1.43391, 1.43469, 1.42349, 1.42077, 1.41525, 1.41419, 1.41197, 1.40852, 1.41281, 1.4192, 1.40563, 1.40398, 1.40165, 1.40199, 1.40134, 1.39867, 1.39792, 1.39438, 1.39494, 1.39182, 1.3901, 1.38815, 1.38514, 1.38336, 1.38163, 1.37931, 1.37827, 1.37719, 1.37509, 1.37519, 1.3742, 1.37088, 1.37039, 1.36922, 1.36684, 1.36607, 1.36301, 1.36043, 1.35773, 1.35427, 1.35223, 1.35024, 1.35001, 1.34618, 1.34617, 1.34662, 1.34458, 1.3448, 1.34349, 1.34283, 1.34333, 1.34028, 1.33968, 1.33832, 1.33665, 1.3399, 1.3334, 1.34164, 1.3401, 1.32934, 1.32761, 1.32978, 1.3361, 1.32834, 1.29698, 1.36054, 1.41398, 1.43352, 1.51102, 1.59695, 1.67147, 1.84366, 1.64851, 1.43501, 1.32479, 1.29855, 1.31042, 1.30935, 1.30876, 1.30573, 1.30589, 1.30664, 1.30513, 1.30539, 1.30522, 1.31036, 1.30854, 1.29835, 1.30109, 1.29798, 1.29365, 
1.62271, 1.62062, 1.61791, 1.61367, 1.61355, 1.61175, 1.61363, 1.60912, 1.60813, 1.60457, 1.60135, 1.60132, 1.59875, 1.59652, 1.59268, 1.59231, 1.58741, 1.58434, 1.58236, 1.58177, 1.58175, 1.57927, 1.56114, 1.61816, 1.67731, 1.71975, 1.83631, 2.09046, 2.07521, 1.72266, 1.57272, 1.55903, 1.56214, 1.56516, 1.57285, 1.55425, 1.55109, 1.55897, 1.54879, 1.54727, 1.5399, 1.54389, 1.5345, 1.53005, 1.53339, 1.52332, 1.51801, 1.51803, 1.51769, 1.51734, 1.51556, 1.51469, 1.51255, 1.51351, 1.50979, 1.50896, 1.50432, 1.5027, 1.49772, 1.4949, 1.4925, 1.49134, 1.49, 1.48824, 1.48498, 1.48335, 1.48135, 1.47667, 1.47684, 1.47491, 1.47767, 1.46956, 1.46691, 1.46558, 1.46639, 1.46624, 1.46426, 1.46943, 1.46104, 1.46079, 1.46124, 1.46164, 1.46216, 1.46441, 1.49544, 1.49179, 1.49737, 1.51056, 1.48485, 1.47936, 1.46415, 1.46414, 1.45862, 1.46273, 1.48021, 1.48162, 1.4672, 1.45156, 1.42674, 1.42815, 1.42342, 1.42197, 1.41577, 1.41, 1.40873, 1.40705, 1.40642, 1.40583, 1.40375, 1.4213, 1.40218, 1.40098, 1.39974, 1.3983, 1.39553, 1.39299, 1.39128, 1.38961, 1.3891, 1.38504, 1.38456, 1.38421, 1.3821, 1.38087, 1.3794, 1.37579, 1.37522, 1.37105, 1.36969, 1.36895, 1.36549, 1.36453, 1.36415, 1.35732, 1.35639, 1.35388, 1.36013, 1.34965, 1.34784, 1.34514, 1.34357, 1.34314, 1.34147, 1.34193, 1.34067, 1.34173, 1.34088, 1.34726, 1.34079, 1.35984, 1.35401, 1.33823, 1.33637, 1.33376, 1.33303, 1.33318, 1.32785, 1.3297, 1.33026, 1.32696, 1.33737, 1.32556, 1.34099, 1.32738, 1.31987, 1.32541, 1.37441, 1.45302, 1.52706, 1.59073, 1.59358, 1.87025, 1.52119, 1.42322, 1.37905, 1.27413, 1.30178, 1.30746, 1.30275, 1.30133, 1.32334, 1.30021, 1.31246, 1.29959, 1.30638, 1.2945, 1.29531, 1.29445, 1.28815, 1.28989, 1.29066, 
1.61939, 1.61649, 1.62426, 1.61538, 1.6115, 1.60747, 1.6055, 1.60369, 1.59997, 1.5974, 1.59801, 1.6133, 1.59336, 1.59094, 1.58872, 1.58755, 1.58621, 1.58283, 1.57841, 1.57798, 1.59031, 1.57786, 1.56143, 1.63924, 1.68909, 1.76647, 1.90033, 1.93327, 2.05756, 1.7656, 1.5232, 1.54482, 1.55457, 1.57813, 1.56874, 1.54379, 1.54142, 1.54632, 1.5373, 1.53515, 1.53033, 1.52759, 1.52237, 1.52029, 1.51763, 1.51573, 1.512, 1.50975, 1.50689, 1.50623, 1.5064, 1.50464, 1.50402, 1.5025, 1.49925, 1.4985, 1.49675, 1.49489, 1.49647, 1.49336, 1.48798, 1.48585, 1.48357, 1.47979, 1.47699, 1.47536, 1.47393, 1.47137, 1.47018, 1.46778, 1.46596, 1.4644, 1.46266, 1.45991, 1.45744, 1.45513, 1.45356, 1.45141, 1.45066, 1.45368, 1.45722, 1.45137, 1.45505, 1.46359, 1.46044, 1.44797, 1.46223, 1.46767, 1.49196, 1.46539, 1.48417, 1.47504, 1.47284, 1.46055, 1.47886, 1.4744, 1.4681, 1.45728, 1.44369, 1.43316, 1.42207, 1.42018, 1.40601, 1.40357, 1.40006, 1.39777, 1.397, 1.39602, 1.39641, 1.39561, 1.39477, 1.39256, 1.39227, 1.38903, 1.38864, 1.38664, 1.38491, 1.38176, 1.38539, 1.37756, 1.3747, 1.37427, 1.3709, 1.36916, 1.36834, 1.36764, 1.38792, 1.36605, 1.36418, 1.36232, 1.36232, 1.36014, 1.35938, 1.35549, 1.35475, 1.34799, 1.34922, 1.34431, 1.34246, 1.33837, 1.33966, 1.33783, 1.33511, 1.33466, 1.33356, 1.33132, 1.33301, 1.33448, 1.33438, 1.33641, 1.36734, 1.33149, 1.3309, 1.35118, 1.32641, 1.32636, 1.32455, 1.32929, 1.31798, 1.3232, 1.3187, 1.31581, 1.31623, 1.33049, 1.29711, 1.29897, 1.35675, 1.41827, 1.5481, 1.62499, 1.7229, 1.69986, 1.70333, 1.37115, 1.27851, 1.26429, 1.29564, 1.30243, 1.31577, 1.2927, 1.29043, 1.29464, 1.29228, 1.29819, 1.28857, 1.2853, 1.28174, 1.28496, 1.29898, 1.28476, 1.28837, 
1.62223, 1.61719, 1.61279, 1.61082, 1.60933, 1.60594, 1.60274, 1.59997, 1.59977, 1.59405, 1.59146, 1.61715, 1.58554, 1.61033, 1.58293, 1.58512, 1.58357, 1.58201, 1.59006, 1.57977, 1.58818, 1.58951, 1.58338, 1.57911, 1.64446, 1.85122, 1.86215, 2.01924, 2.01649, 1.78517, 1.54276, 1.51799, 1.55738, 1.54905, 1.55103, 1.55802, 1.53852, 1.53764, 1.53447, 1.5329, 1.53185, 1.53108, 1.52677, 1.5251, 1.5279, 1.51701, 1.51481, 1.51108, 1.50983, 1.50677, 1.50435, 1.5006, 1.49951, 1.49941, 1.50063, 1.49798, 1.49471, 1.49882, 1.49226, 1.48923, 1.48691, 1.48486, 1.48141, 1.47896, 1.47592, 1.47466, 1.47156, 1.46943, 1.46707, 1.467, 1.46306, 1.4595, 1.45849, 1.45598, 1.45491, 1.45389, 1.45075, 1.44824, 1.44772, 1.44802, 1.44798, 1.45578, 1.45211, 1.4537, 1.45494, 1.46571, 1.4538, 1.47134, 1.46218, 1.46698, 1.46455, 1.47528, 1.44687, 1.45449, 1.45032, 1.46181, 1.46226, 1.45315, 1.43502, 1.45066, 1.43045, 1.41856, 1.41212, 1.40509, 1.39874, 1.39619, 1.39507, 1.39444, 1.39425, 1.392, 1.391, 1.39873, 1.38839, 1.38825, 1.38521, 1.38411, 1.38219, 1.37873, 1.3773, 1.37421, 1.37195, 1.3696, 1.36925, 1.3643, 1.36247, 1.36162, 1.36168, 1.3581, 1.35787, 1.35739, 1.35509, 1.35517, 1.35401, 1.35345, 1.35395, 1.3502, 1.34855, 1.34756, 1.34636, 1.34454, 1.34357, 1.34209, 1.34123, 1.34017, 1.3394, 1.33685, 1.33624, 1.33397, 1.33313, 1.33287, 1.33135, 1.32833, 1.3289, 1.32662, 1.32531, 1.32222, 1.32193, 1.3233, 1.32339, 1.32504, 1.32198, 1.32721, 1.32623, 1.3369, 1.33284, 1.28385, 1.3315, 1.41707, 1.47839, 1.57835, 1.68459, 1.7653, 1.74477, 1.39016, 1.38073, 1.27099, 1.30429, 1.30502, 1.31279, 1.30551, 1.29503, 1.29119, 1.29061, 1.29128, 1.2894, 1.29518, 1.28782, 1.28894, 1.28466, 1.28364, 1.28136, 
1.59178, 1.58873, 1.58702, 1.58622, 1.58615, 1.58033, 1.57987, 1.57755, 1.58293, 1.58016, 1.5749, 1.56726, 1.56311, 1.58111, 1.55902, 1.55726, 1.55549, 1.55442, 1.55679, 1.55371, 1.56729, 1.56173, 1.54811, 1.56869, 1.62259, 1.72818, 1.75248, 1.89511, 1.9396, 1.69487, 1.5268, 1.5071, 1.52095, 1.53323, 1.52706, 1.52067, 1.51601, 1.5156, 1.51153, 1.50964, 1.51036, 1.52643, 1.50953, 1.50464, 1.50006, 1.51558, 1.496, 1.49542, 1.49252, 1.49204, 1.48799, 1.48376, 1.48114, 1.48034, 1.47677, 1.4747, 1.48077, 1.46814, 1.46629, 1.46504, 1.4612, 1.46027, 1.48491, 1.46635, 1.4535, 1.45325, 1.45218, 1.4515, 1.4506, 1.44912, 1.44745, 1.44561, 1.45127, 1.44227, 1.44838, 1.4344, 1.43347, 1.43099, 1.43117, 1.43651, 1.43972, 1.43657, 1.44374, 1.44711, 1.44, 1.43858, 1.44148, 1.44484, 1.44815, 1.46766, 1.44676, 1.46471, 1.43947, 1.4531, 1.46524, 1.44579, 1.44177, 1.42612, 1.41672, 1.40705, 1.41874, 1.40418, 1.39229, 1.38472, 1.39268, 1.39751, 1.38365, 1.39196, 1.37461, 1.37424, 1.37562, 1.37792, 1.38229, 1.37748, 1.37782, 1.37201, 1.36804, 1.36504, 1.36254, 1.36084, 1.36056, 1.3547, 1.35433, 1.35452, 1.35394, 1.35229, 1.35029, 1.34972, 1.34718, 1.34506, 1.34258, 1.33886, 1.33757, 1.33572, 1.33311, 1.3289, 1.32767, 1.32911, 1.32523, 1.33195, 1.334, 1.32629, 1.32672, 1.326, 1.32908, 1.31824, 1.31494, 1.31327, 1.31409, 1.31122, 1.31654, 1.31205, 1.31413, 1.33126, 1.31063, 1.31143, 1.31653, 1.30547, 1.30852, 1.30218, 1.31641, 1.32056, 1.32306, 1.3294, 1.30616, 1.29913, 1.27948, 1.36656, 1.43731, 1.54078, 1.62383, 1.77627, 1.42519, 1.40145, 1.32298, 1.2608, 1.2827, 1.28864, 1.28246, 1.28392, 1.28065, 1.28601, 1.2763, 1.2845, 1.27181, 1.27504, 1.28063, 1.27848, 1.27064, 1.26527, 1.26365, 
1.60287, 1.60072, 1.59965, 1.60023, 1.59944, 1.59764, 1.59613, 1.62376, 1.58587, 1.58336, 1.57918, 1.59323, 1.57628, 1.57616, 1.5755, 1.57276, 1.56857, 1.56787, 1.56794, 1.56643, 1.56721, 1.56883, 1.56653, 1.57116, 1.57515, 1.80142, 1.86812, 2.00412, 2.02074, 1.87061, 1.54349, 1.49537, 1.53559, 1.53788, 1.53362, 1.53031, 1.53413, 1.55516, 1.52589, 1.51273, 1.51653, 1.5256, 1.5106, 1.50986, 1.50726, 1.5041, 1.50449, 1.50219, 1.50109, 1.50337, 1.4952, 1.49361, 1.49168, 1.4902, 1.48783, 1.48519, 1.48297, 1.48947, 1.47706, 1.47614, 1.48286, 1.47479, 1.47324, 1.4706, 1.4676, 1.46718, 1.46267, 1.45999, 1.45643, 1.45201, 1.44999, 1.44552, 1.44513, 1.44369, 1.44314, 1.44176, 1.44106, 1.43909, 1.43777, 1.44312, 1.43074, 1.43742, 1.43611, 1.44265, 1.44863, 1.44752, 1.44655, 1.46395, 1.45442, 1.44973, 1.46753, 1.44492, 1.44025, 1.44509, 1.43998, 1.44104, 1.43394, 1.44052, 1.43422, 1.40872, 1.41982, 1.40643, 1.41912, 1.39903, 1.39588, 1.40621, 1.38836, 1.38589, 1.4032, 1.37768, 1.38045, 1.37798, 1.38357, 1.37563, 1.37206, 1.36838, 1.36754, 1.3662, 1.36563, 1.36635, 1.36435, 1.36014, 1.35589, 1.35422, 1.35482, 1.35177, 1.3506, 1.35029, 1.35081, 1.3499, 1.3488, 1.34602, 1.34467, 1.34069, 1.33776, 1.33471, 1.33618, 1.33503, 1.33417, 1.32745, 1.32385, 1.32284, 1.32349, 1.31931, 1.31743, 1.3268, 1.31979, 1.31986, 1.31793, 1.31361, 1.31193, 1.31888, 1.31235, 1.31229, 1.31248, 1.30927, 1.30625, 1.3103, 1.30499, 1.30053, 1.30347, 1.30936, 1.31843, 1.30378, 1.31267, 1.29594, 1.28513, 1.36546, 1.44015, 1.50887, 1.5405, 1.54088, 1.45351, 1.48932, 1.30845, 1.25917, 1.27823, 1.28223, 1.28122, 1.28117, 1.27793, 1.29546, 1.29208, 1.28529, 1.28754, 1.27167, 1.2702, 1.27271, 1.26754, 1.26315, 1.25347, 
1.59979, 1.60373, 1.59729, 1.59525, 1.59422, 1.59249, 1.59014, 1.58704, 1.58113, 1.57715, 1.58194, 1.57022, 1.57603, 1.5674, 1.57171, 1.58163, 1.56559, 1.56497, 1.56496, 1.56841, 1.56754, 1.57005, 1.55579, 1.55479, 1.60904, 1.65203, 1.763, 1.79551, 2.12449, 2.12724, 1.63747, 1.50266, 1.53552, 1.53101, 1.53018, 1.52078, 1.51319, 1.50696, 1.51132, 1.51485, 1.51294, 1.51148, 1.50958, 1.50648, 1.50382, 1.51048, 1.49913, 1.48858, 1.47692, 1.47438, 1.4791, 1.48338, 1.48509, 1.48515, 1.48383, 1.48292, 1.48302, 1.48513, 1.47622, 1.47433, 1.4713, 1.46952, 1.46727, 1.47108, 1.4602, 1.45725, 1.45456, 1.45267, 1.45454, 1.44736, 1.44825, 1.44725, 1.44429, 1.4397, 1.44007, 1.43942, 1.44098, 1.43766, 1.43464, 1.43523, 1.45058, 1.44022, 1.44327, 1.4608, 1.44839, 1.4548, 1.46123, 1.45132, 1.44218, 1.43591, 1.43734, 1.43289, 1.43941, 1.43051, 1.43304, 1.43447, 1.44383, 1.44834, 1.44829, 1.4143, 1.41982, 1.40935, 1.40579, 1.39974, 1.3894, 1.3876, 1.38414, 1.38449, 1.38021, 1.37951, 1.3789, 1.37647, 1.3756, 1.37297, 1.37077, 1.40036, 1.40986, 1.36849, 1.36526, 1.36408, 1.3637, 1.36024, 1.35841, 1.35757, 1.35581, 1.35591, 1.35608, 1.35698, 1.34969, 1.34925, 1.34816, 1.34445, 1.34162, 1.33973, 1.33803, 1.33769, 1.33564, 1.33458, 1.33241, 1.32979, 1.32928, 1.32693, 1.32496, 1.32234, 1.32248, 1.3215, 1.31939, 1.32066, 1.31776, 1.31653, 1.31562, 1.3143, 1.31508, 1.31256, 1.3124, 1.31097, 1.3125, 1.308, 1.30843, 1.30753, 1.30558, 1.30325, 1.31934, 1.30314, 1.31897, 1.31163, 1.2846, 1.33465, 1.45424, 1.51859, 1.59632, 1.57197, 1.63614, 1.5247, 1.51049, 1.52955, 1.50028, 1.4628, 1.3015, 1.29836, 1.28446, 1.30626, 1.29196, 1.302, 1.28776, 1.27571, 1.27868, 1.27462, 1.27206, 1.26696, 1.26743, 
1.58797, 1.58476, 1.58096, 1.58281, 1.58704, 1.58523, 1.58523, 1.58257, 1.57613, 1.57937, 1.57192, 1.56784, 1.56733, 1.5676, 1.5672, 1.57112, 1.56278, 1.56016, 1.57871, 1.57206, 1.55456, 1.5679, 1.55124, 1.55268, 1.57214, 1.62636, 1.71691, 1.81659, 2.1794, 1.75428, 1.73828, 1.49847, 1.53368, 1.53953, 1.53387, 1.51386, 1.52315, 1.51218, 1.51338, 1.50937, 1.50887, 1.51191, 1.50095, 1.50486, 1.49698, 1.49599, 1.49598, 1.49265, 1.48991, 1.48625, 1.4845, 1.4818, 1.48039, 1.47874, 1.47701, 1.47412, 1.47211, 1.47066, 1.47143, 1.46554, 1.46442, 1.46187, 1.46055, 1.45579, 1.45322, 1.45479, 1.4514, 1.44859, 1.44806, 1.44589, 1.44368, 1.4433, 1.443, 1.43968, 1.43681, 1.43423, 1.43329, 1.43269, 1.43259, 1.43164, 1.43158, 1.43241, 1.43511, 1.43527, 1.45502, 1.43981, 1.4651, 1.44128, 1.44335, 1.43974, 1.43514, 1.44283, 1.4388, 1.42428, 1.45019, 1.42495, 1.43063, 1.43256, 1.42244, 1.40675, 1.4066, 1.40924, 1.39616, 1.39017, 1.3843, 1.3844, 1.38278, 1.39025, 1.39947, 1.37263, 1.37135, 1.39281, 1.37006, 1.36744, 1.37668, 1.36184, 1.36091, 1.36139, 1.35784, 1.35737, 1.35708, 1.35464, 1.3524, 1.35039, 1.3504, 1.34781, 1.34624, 1.34519, 1.34374, 1.3421, 1.34081, 1.33999, 1.3366, 1.33447, 1.33265, 1.33346, 1.33341, 1.33355, 1.34003, 1.33426, 1.32997, 1.32771, 1.32607, 1.32284, 1.32303, 1.3177, 1.3163, 1.31051, 1.31122, 1.30978, 1.30944, 1.30972, 1.30761, 1.3072, 1.30901, 1.30671, 1.30241, 1.30126, 1.30197, 1.2951, 1.29288, 1.29521, 1.29918, 1.29128, 1.29146, 1.29137, 1.30261, 1.32525, 1.40284, 1.54354, 1.6163, 1.7253, 1.93057, 1.51787, 1.47558, 1.44769, 1.42622, 1.41071, 1.36873, 1.30585, 1.27263, 1.27667, 1.26781, 1.26755, 1.26587, 1.27106, 1.2689, 1.27098, 1.26776, 1.26092, 1.26141, 
1.58553, 1.5853, 1.58353, 1.58195, 1.58057, 1.58001, 1.57627, 1.57455, 1.57158, 1.56874, 1.56244, 1.56909, 1.5607, 1.56781, 1.56456, 1.5525, 1.55803, 1.55406, 1.54808, 1.55351, 1.54431, 1.54396, 1.54459, 1.52478, 1.54064, 1.58196, 1.6231, 1.63771, 1.70539, 1.77303, 1.75113, 1.50095, 1.51059, 1.51609, 1.5187, 1.511, 1.50444, 1.50207, 1.50226, 1.49988, 1.49877, 1.49949, 1.49905, 1.49733, 1.4943, 1.49337, 1.49108, 1.49025, 1.48737, 1.48554, 1.48253, 1.47855, 1.47594, 1.47321, 1.47016, 1.46617, 1.46466, 1.46244, 1.46074, 1.46031, 1.45226, 1.45209, 1.45091, 1.45087, 1.44954, 1.44887, 1.45312, 1.44342, 1.44393, 1.44148, 1.44114, 1.43998, 1.46502, 1.43656, 1.4399, 1.43148, 1.42763, 1.42677, 1.42637, 1.42484, 1.42328, 1.43689, 1.44502, 1.43399, 1.44679, 1.44324, 1.43758, 1.45363, 1.43978, 1.43774, 1.44458, 1.43547, 1.44406, 1.41683, 1.42985, 1.41564, 1.43418, 1.41716, 1.41634, 1.40912, 1.39657, 1.38995, 1.38345, 1.38824, 1.37452, 1.37102, 1.36719, 1.36386, 1.36187, 1.35995, 1.35956, 1.3582, 1.36664, 1.36107, 1.35685, 1.35815, 1.35584, 1.35371, 1.35272, 1.35322, 1.35297, 1.3519, 1.35323, 1.34756, 1.34436, 1.34253, 1.33949, 1.33766, 1.33478, 1.33441, 1.32639, 1.32317, 1.3242, 1.32299, 1.32035, 1.32077, 1.31978, 1.3226, 1.31935, 1.32074, 1.3196, 1.31718, 1.31689, 1.31694, 1.31352, 1.31449, 1.31047, 1.3116, 1.30862, 1.30624, 1.30691, 1.30417, 1.30372, 1.30278, 1.29983, 1.29857, 1.29417, 1.29782, 1.29179, 1.28898, 1.28834, 1.28726, 1.28676, 1.28461, 1.28518, 1.28739, 1.27801, 1.27777, 1.3145, 1.46465, 1.57, 1.54064, 1.52367, 1.48532, 1.4964, 1.32885, 1.27879, 1.27193, 1.26921, 1.26123, 1.26456, 1.2677, 1.26736, 1.27092, 1.27146, 1.2886, 1.25658, 1.2548, 1.26098, 1.25033, 1.25068, 
1.58276, 1.58214, 1.57903, 1.5815, 1.57361, 1.57431, 1.56916, 1.57051, 1.56346, 1.55954, 1.55478, 1.55397, 1.568, 1.56484, 1.5514, 1.56452, 1.54433, 1.55043, 1.54015, 1.54777, 1.5463, 1.53695, 1.5459, 1.53763, 1.54313, 1.58354, 1.70444, 1.68587, 1.68603, 1.75073, 1.75844, 1.52255, 1.50208, 1.50831, 1.50078, 1.50678, 1.5198, 1.50337, 1.50229, 1.50592, 1.5016, 1.49898, 1.50208, 1.49349, 1.4904, 1.48714, 1.4818, 1.47798, 1.47549, 1.47798, 1.47025, 1.47428, 1.46768, 1.49135, 1.4644, 1.4638, 1.47127, 1.46087, 1.45469, 1.45205, 1.44991, 1.44653, 1.44495, 1.44224, 1.44297, 1.43979, 1.4385, 1.43743, 1.43513, 1.43359, 1.43353, 1.43751, 1.43055, 1.42995, 1.42622, 1.42166, 1.42016, 1.41772, 1.41672, 1.42325, 1.4343, 1.42, 1.42127, 1.4233, 1.43395, 1.42761, 1.4354, 1.4401, 1.43432, 1.43411, 1.4471, 1.42917, 1.42884, 1.41671, 1.42895, 1.41818, 1.41185, 1.40582, 1.41881, 1.396, 1.39522, 1.38905, 1.38368, 1.37933, 1.37206, 1.36896, 1.36783, 1.36514, 1.37033, 1.36021, 1.36312, 1.35587, 1.37837, 1.35383, 1.35186, 1.34978, 1.35744, 1.34989, 1.35308, 1.35094, 1.34695, 1.34547, 1.34616, 1.34323, 1.34554, 1.33758, 1.33675, 1.33465, 1.33446, 1.33208, 1.32946, 1.32837, 1.34008, 1.33102, 1.32445, 1.33676, 1.32007, 1.31661, 1.31467, 1.31565, 1.31083, 1.34703, 1.31182, 1.31138, 1.3099, 1.3095, 1.30545, 1.30406, 1.33758, 1.30463, 1.30228, 1.30138, 1.30102, 1.30509, 1.29948, 1.30165, 1.31202, 1.3133, 1.31964, 1.30455, 1.29942, 1.29955, 1.29213, 1.2933, 1.28529, 1.28637, 1.29308, 1.25019, 1.3196, 1.44014, 1.77482, 1.7998, 1.79955, 1.59512, 1.49893, 1.31144, 1.28743, 1.26877, 1.26208, 1.26697, 1.26417, 1.26862, 1.25715, 1.25698, 1.25286, 1.25533, 1.26743, 1.24745, 1.25033, 1.24465, 1.24382, 
