1.61466, 1.61668, 1.62094, 1.61644, 1.6032, 1.60157, 1.60023, 1.59414, 1.59578, 1.597, 1.58989, 1.58853, 1.59191, 1.59051, 1.5922, 1.56917, 1.57183, 1.57934, 1.59856, 1.60757, 1.60654, 1.62056, 1.61847, 1.65646, 1.68789, 1.70385, 1.6734, 1.6617, 1.59346, 1.54341, 1.53103, 1.55374, 1.54977, 1.54186, 1.53791, 1.54348, 1.53854, 1.5508, 1.56154, 1.54843, 1.53621, 1.52629, 1.52447, 1.5228, 1.5291, 1.51008, 1.52113, 1.50671, 1.50707, 1.50423, 1.5008, 1.49996, 1.4994, 1.49826, 1.49744, 1.49349, 1.49214, 1.4916, 1.49532, 1.48279, 1.48123, 1.48083, 1.47681, 1.47493, 1.47796, 1.47184, 1.46923, 1.46457, 1.46299, 1.46354, 1.45776, 1.45761, 1.46777, 1.45543, 1.45159, 1.45208, 1.45069, 1.46643, 1.4591, 1.45224, 1.46128, 1.42004, 1.45562, 1.49721, 1.53655, 1.70005, 1.75812, 1.78191, 1.78147, 1.65709, 1.53645, 1.41907, 1.40908, 1.4246, 1.4236, 1.42572, 1.41531, 1.41408, 1.41189, 1.41227, 1.4154, 1.40703, 1.40299, 1.40175, 1.40004, 1.39674, 1.39479, 1.39257, 1.39175, 1.39128, 1.39049, 1.38551, 1.38253, 1.3802, 1.3793, 1.37504, 1.37316, 1.37541, 1.3704, 1.37112, 1.36851, 1.36451, 1.3628, 1.3637, 1.36061, 1.35901, 1.35676, 1.35464, 1.35638, 1.37456, 1.35263, 1.35302, 1.35223, 1.35147, 1.34041, 1.33951, 1.34312, 1.34341, 1.33812, 1.33484, 1.33149, 1.33092, 1.32903, 1.33045, 1.32562, 1.32579, 1.32628, 1.33019, 1.32104, 1.31894, 1.3192, 1.31367, 1.31632, 1.31448, 1.31374, 1.32006, 1.32141, 1.32329, 1.33795, 1.33691, 1.34011, 1.34097, 1.33457, 1.33889, 1.36718, 1.3931, 1.35659, 1.34459, 1.34882, 1.37764, 1.33669, 1.33033, 1.30887, 1.31969, 1.30676, 1.30949, 1.29264, 1.28806, 1.28408, 1.28107, 1.28443, 1.27995, 1.29121, 1.27508, 1.27795, 1.27551, 1.27739, 1.2971, 1.27701, 1.29267, 1.30557, 
1.65584, 1.65206, 1.62391, 1.61597, 1.60867, 1.61066, 1.6053, 1.60022, 1.60076, 1.59825, 1.59552, 1.59361, 1.60132, 1.59599, 1.59315, 1.57859, 1.58281, 1.6073, 1.63139, 1.63925, 1.64761, 1.62961, 1.64871, 1.69284, 1.72152, 1.71983, 1.65292, 1.64516, 1.5626, 1.55407, 1.55816, 1.5546, 1.55016, 1.55412, 1.53897, 1.53713, 1.54093, 1.54983, 1.54822, 1.55208, 1.54787, 1.54323, 1.52316, 1.52051, 1.52708, 1.51484, 1.51042, 1.52742, 1.53478, 1.50551, 1.50636, 1.50572, 1.50524, 1.49966, 1.49928, 1.49532, 1.49517, 1.48944, 1.49018, 1.49098, 1.48588, 1.48412, 1.49004, 1.48914, 1.47942, 1.47772, 1.4894, 1.47366, 1.46913, 1.46587, 1.46298, 1.46482, 1.45805, 1.46052, 1.45562, 1.45545, 1.45319, 1.46124, 1.45157, 1.44898, 1.44312, 1.44741, 1.44045, 1.51028, 1.55049, 1.58872, 1.64717, 1.72358, 1.72976, 1.67653, 1.60264, 1.4678, 1.41874, 1.40997, 1.42543, 1.42229, 1.41926, 1.41378, 1.41305, 1.41012, 1.41048, 1.41224, 1.4025, 1.40012, 1.39989, 1.39416, 1.39254, 1.38573, 1.38532, 1.38793, 1.38925, 1.38742, 1.38403, 1.3845, 1.38349, 1.38295, 1.38036, 1.37558, 1.37455, 1.37443, 1.37228, 1.37392, 1.37068, 1.36871, 1.36562, 1.36408, 1.36087, 1.36008, 1.35781, 1.35584, 1.3551, 1.35564, 1.35237, 1.35089, 1.35097, 1.34815, 1.34734, 1.34575, 1.3461, 1.34112, 1.34074, 1.33982, 1.33987, 1.34117, 1.33945, 1.33975, 1.33857, 1.33622, 1.33436, 1.33346, 1.33014, 1.32983, 1.33024, 1.32951, 1.32746, 1.32798, 1.32971, 1.36089, 1.33381, 1.33279, 1.33936, 1.34652, 1.35984, 1.35817, 1.37916, 1.37728, 1.36597, 1.35668, 1.37603, 1.36185, 1.34845, 1.32573, 1.31287, 1.30726, 1.30108, 1.29753, 1.29701, 1.28857, 1.29579, 1.28455, 1.27725, 1.27861, 1.27546, 1.27561, 1.27679, 1.27771, 1.27631, 1.27834, 1.27805, 1.28156, 1.28361, 
1.64411, 1.65847, 1.65524, 1.64942, 1.61913, 1.61538, 1.61325, 1.61044, 1.6199, 1.60596, 1.60492, 1.61936, 1.6206, 1.60951, 1.6143, 1.62723, 1.59897, 1.60324, 1.64628, 1.63742, 1.67852, 1.70013, 1.68408, 1.68919, 1.69301, 1.6927, 1.66895, 1.64542, 1.59124, 1.54295, 1.56722, 1.56304, 1.56495, 1.5579, 1.55718, 1.56197, 1.54989, 1.5447, 1.54804, 1.5432, 1.55792, 1.56202, 1.54156, 1.54497, 1.52851, 1.52458, 1.5246, 1.53713, 1.51665, 1.5163, 1.51303, 1.5103, 1.50831, 1.5065, 1.50609, 1.50251, 1.50068, 1.49759, 1.49863, 1.49485, 1.49291, 1.49051, 1.4901, 1.48824, 1.48723, 1.48562, 1.48428, 1.48001, 1.47862, 1.4774, 1.47271, 1.4728, 1.47146, 1.4709, 1.46798, 1.46885, 1.46764, 1.4655, 1.47893, 1.46876, 1.46342, 1.4439, 1.46577, 1.49899, 1.54743, 1.63376, 1.67858, 1.74794, 1.71816, 1.67262, 1.55844, 1.53427, 1.41062, 1.44325, 1.4432, 1.44379, 1.44742, 1.44742, 1.44156, 1.42686, 1.4233, 1.42008, 1.41679, 1.41317, 1.41101, 1.40649, 1.40502, 1.43031, 1.40323, 1.39992, 1.3966, 1.39539, 1.39376, 1.39877, 1.39272, 1.3929, 1.38911, 1.38644, 1.38664, 1.38514, 1.38595, 1.38487, 1.3823, 1.38305, 1.37803, 1.37758, 1.37708, 1.37434, 1.37162, 1.36582, 1.36702, 1.36417, 1.3609, 1.35869, 1.35558, 1.35085, 1.35273, 1.35217, 1.354, 1.35078, 1.34895, 1.34809, 1.35038, 1.35413, 1.34993, 1.35239, 1.35272, 1.35184, 1.34929, 1.34893, 1.34669, 1.34406, 1.33997, 1.33977, 1.33647, 1.333, 1.33859, 1.34448, 1.3366, 1.33037, 1.33322, 1.34416, 1.35756, 1.39702, 1.39388, 1.36837, 1.38526, 1.38468, 1.40222, 1.37532, 1.35292, 1.34393, 1.32969, 1.32137, 1.31794, 1.31534, 1.30349, 1.29871, 1.29777, 1.29475, 1.29273, 1.29231, 1.28936, 1.31314, 1.29182, 1.29185, 1.29072, 1.28727, 1.30609, 1.28322, 1.28483, 
1.64333, 1.64366, 1.64167, 1.66984, 1.64371, 1.63896, 1.62275, 1.62051, 1.61802, 1.61677, 1.61136, 1.61147, 1.61009, 1.61133, 1.61355, 1.60088, 1.58915, 1.63831, 1.64769, 1.65097, 1.66455, 1.70613, 1.68575, 1.72701, 1.7145, 1.70718, 1.70973, 1.66871, 1.62265, 1.57021, 1.56201, 1.57245, 1.57926, 1.56356, 1.5683, 1.55801, 1.55249, 1.54815, 1.54706, 1.54524, 1.55048, 1.55812, 1.55706, 1.5636, 1.56017, 1.5512, 1.53164, 1.53009, 1.53069, 1.52973, 1.52647, 1.5227, 1.52021, 1.51783, 1.51533, 1.51338, 1.51105, 1.50928, 1.5045, 1.50563, 1.50189, 1.49906, 1.49704, 1.49512, 1.49417, 1.49161, 1.49114, 1.49204, 1.49118, 1.49136, 1.48855, 1.48622, 1.48524, 1.4826, 1.4816, 1.47572, 1.47602, 1.4719, 1.4713, 1.48831, 1.46698, 1.44453, 1.45465, 1.53378, 1.55781, 1.6355, 1.68333, 1.71754, 1.70339, 1.65064, 1.5964, 1.52557, 1.45286, 1.43121, 1.45687, 1.45734, 1.44719, 1.44165, 1.44475, 1.43001, 1.42964, 1.42808, 1.42441, 1.42461, 1.42132, 1.41872, 1.41567, 1.41358, 1.41561, 1.41042, 1.40893, 1.40549, 1.40494, 1.40406, 1.4035, 1.40063, 1.3979, 1.39627, 1.39415, 1.39454, 1.39332, 1.39213, 1.39121, 1.39245, 1.39043, 1.388, 1.38539, 1.38439, 1.38194, 1.37906, 1.37539, 1.37109, 1.36956, 1.36535, 1.36454, 1.36114, 1.35956, 1.3569, 1.35595, 1.35379, 1.35335, 1.34956, 1.3511, 1.34867, 1.34996, 1.34706, 1.3445, 1.34406, 1.34384, 1.34415, 1.34315, 1.34457, 1.34304, 1.34381, 1.34193, 1.34396, 1.34624, 1.34642, 1.34337, 1.35041, 1.37584, 1.37228, 1.37102, 1.37417, 1.37299, 1.43788, 1.38744, 1.38579, 1.41054, 1.40983, 1.35795, 1.35434, 1.33282, 1.32095, 1.33469, 1.33432, 1.31737, 1.31733, 1.31323, 1.3079, 1.30905, 1.30269, 1.30961, 1.29719, 1.2958, 1.31404, 1.32379, 1.30012, 1.30191, 1.30185, 1.30123, 
1.64198, 1.64013, 1.63835, 1.64294, 1.63775, 1.64009, 1.65102, 1.63409, 1.62768, 1.62508, 1.62277, 1.61622, 1.61336, 1.6182, 1.61605, 1.61687, 1.59703, 1.62414, 1.64336, 1.65284, 1.72798, 1.695, 1.72514, 1.74125, 1.74422, 1.72585, 1.69556, 1.66111, 1.62331, 1.58211, 1.5748, 1.5793, 1.58206, 1.57829, 1.57499, 1.55887, 1.55638, 1.55155, 1.55135, 1.54697, 1.54489, 1.54324, 1.53846, 1.53944, 1.54852, 1.56593, 1.54876, 1.53787, 1.53794, 1.53494, 1.52961, 1.53812, 1.52601, 1.52417, 1.52195, 1.52126, 1.52002, 1.51687, 1.51013, 1.50909, 1.5055, 1.50543, 1.50019, 1.49957, 1.49733, 1.49699, 1.49352, 1.49117, 1.51262, 1.48904, 1.48609, 1.48574, 1.48369, 1.48218, 1.48092, 1.48646, 1.47575, 1.47468, 1.47373, 1.47528, 1.48817, 1.45381, 1.45451, 1.52997, 1.56234, 1.62363, 1.66811, 1.70021, 1.69381, 1.66632, 1.57477, 1.52429, 1.41709, 1.40845, 1.45095, 1.46799, 1.44033, 1.43698, 1.43535, 1.43276, 1.45773, 1.42501, 1.43685, 1.42413, 1.42253, 1.41906, 1.41928, 1.41842, 1.41769, 1.42406, 1.41364, 1.41192, 1.41206, 1.41023, 1.40863, 1.40807, 1.40522, 1.40186, 1.39874, 1.3932, 1.39407, 1.39316, 1.39186, 1.39324, 1.3914, 1.39187, 1.39307, 1.39278, 1.3911, 1.39108, 1.38935, 1.38511, 1.382, 1.38029, 1.37641, 1.37471, 1.37354, 1.37148, 1.36879, 1.36665, 1.36411, 1.36024, 1.36185, 1.36041, 1.36076, 1.35781, 1.36035, 1.35875, 1.35598, 1.35411, 1.35194, 1.35043, 1.34777, 1.34365, 1.34261, 1.34031, 1.34703, 1.34444, 1.36051, 1.34497, 1.34415, 1.34952, 1.3748, 1.37074, 1.3809, 1.38667, 1.38502, 1.4063, 1.40613, 1.42232, 1.38482, 1.36043, 1.33961, 1.31063, 1.32369, 1.3326, 1.33885, 1.31588, 1.31361, 1.31366, 1.31243, 1.3057, 1.30613, 1.30234, 1.29947, 1.2982, 1.29927, 1.29925, 1.30073, 1.2928, 1.29384, 
1.6531, 1.66182, 1.64695, 1.64367, 1.66611, 1.64989, 1.65239, 1.66512, 1.64537, 1.63062, 1.63174, 1.62375, 1.61534, 1.61389, 1.62016, 1.60524, 1.59489, 1.61063, 1.65174, 1.66889, 1.68214, 1.72859, 1.78543, 1.74051, 1.74597, 1.75891, 1.71696, 1.67495, 1.60968, 1.59343, 1.55838, 1.58599, 1.59658, 1.57275, 1.56987, 1.56763, 1.56472, 1.56241, 1.56083, 1.55725, 1.55355, 1.55002, 1.55022, 1.54715, 1.55035, 1.54483, 1.55722, 1.55459, 1.55048, 1.54541, 1.5334, 1.53178, 1.52846, 1.52733, 1.5334, 1.53239, 1.5272, 1.52018, 1.51862, 1.51582, 1.51291, 1.51063, 1.51132, 1.50864, 1.50609, 1.50465, 1.50313, 1.50013, 1.49874, 1.49677, 1.49329, 1.4923, 1.48809, 1.48714, 1.48532, 1.48141, 1.47621, 1.47794, 1.47859, 1.48513, 1.47556, 1.46884, 1.46035, 1.49651, 1.5615, 1.6188, 1.6581, 1.68571, 1.67816, 1.64575, 1.62496, 1.53638, 1.46793, 1.41995, 1.43643, 1.45084, 1.45339, 1.44481, 1.43845, 1.43025, 1.42805, 1.43619, 1.42743, 1.42568, 1.4239, 1.41985, 1.41934, 1.4162, 1.41553, 1.41344, 1.4134, 1.4133, 1.41178, 1.41014, 1.41034, 1.41014, 1.40423, 1.40267, 1.40056, 1.39939, 1.39677, 1.39596, 1.39308, 1.3902, 1.39235, 1.39225, 1.39053, 1.38888, 1.39023, 1.38801, 1.38859, 1.38624, 1.3837, 1.38612, 1.38262, 1.37804, 1.37764, 1.37368, 1.37391, 1.36988, 1.36896, 1.37065, 1.36766, 1.36525, 1.36441, 1.36413, 1.36296, 1.3637, 1.36105, 1.36116, 1.35938, 1.36762, 1.36489, 1.35723, 1.35376, 1.35341, 1.35829, 1.36481, 1.35631, 1.34363, 1.3369, 1.35061, 1.37081, 1.37478, 1.39136, 1.3921, 1.42102, 1.42605, 1.43261, 1.42218, 1.41761, 1.39345, 1.34314, 1.33593, 1.32723, 1.32991, 1.32933, 1.32666, 1.31721, 1.3186, 1.33037, 1.32051, 1.35364, 1.32001, 1.3034, 1.3112, 1.30536, 1.30517, 1.30216, 1.30001, 1.29921, 
1.65054, 1.65116, 1.64599, 1.64382, 1.64156, 1.63876, 1.64821, 1.64747, 1.65881, 1.66535, 1.64557, 1.64284, 1.63145, 1.63461, 1.6352, 1.63505, 1.61348, 1.62441, 1.68279, 1.7045, 1.70272, 1.74165, 1.78238, 1.79415, 1.78322, 1.8007, 1.76319, 1.74737, 1.6645, 1.61985, 1.56758, 1.5933, 1.60283, 1.59926, 1.5846, 1.59275, 1.57733, 1.57491, 1.57076, 1.57065, 1.566, 1.56287, 1.5747, 1.56726, 1.56532, 1.55457, 1.57022, 1.57165, 1.57509, 1.56071, 1.54454, 1.54867, 1.54228, 1.55511, 1.53618, 1.53767, 1.5282, 1.52663, 1.5237, 1.52277, 1.51856, 1.51673, 1.51442, 1.51272, 1.51049, 1.51112, 1.50589, 1.50327, 1.50039, 1.4995, 1.49862, 1.50299, 1.4935, 1.49169, 1.49063, 1.48954, 1.48817, 1.48892, 1.48447, 1.49517, 1.48655, 1.48734, 1.48146, 1.55794, 1.55849, 1.58643, 1.61745, 1.65132, 1.67558, 1.67902, 1.65559, 1.57523, 1.53717, 1.45148, 1.43284, 1.45504, 1.46178, 1.45872, 1.44748, 1.44541, 1.4423, 1.43798, 1.43751, 1.4353, 1.43703, 1.42974, 1.42939, 1.42731, 1.42364, 1.42316, 1.42258, 1.41978, 1.419, 1.41983, 1.41958, 1.41711, 1.41526, 1.4151, 1.41354, 1.41119, 1.40893, 1.41216, 1.4023, 1.40267, 1.40167, 1.4005, 1.40857, 1.40277, 1.39745, 1.39508, 1.39473, 1.39197, 1.39031, 1.38763, 1.40653, 1.38436, 1.38229, 1.3822, 1.37753, 1.37667, 1.3763, 1.37436, 1.37464, 1.37343, 1.37128, 1.37257, 1.36693, 1.36739, 1.36765, 1.36748, 1.36419, 1.36284, 1.36047, 1.36357, 1.36022, 1.35866, 1.36344, 1.36096, 1.36011, 1.37022, 1.34092, 1.36814, 1.37475, 1.39463, 1.41674, 1.41903, 1.42438, 1.43974, 1.43985, 1.43968, 1.44961, 1.4051, 1.39892, 1.30899, 1.34334, 1.34462, 1.34807, 1.33071, 1.32638, 1.33253, 1.32229, 1.3172, 1.31734, 1.31625, 1.31229, 1.31984, 1.31151, 1.30713, 1.30809, 1.31019, 1.30739, 
1.6621, 1.65948, 1.65797, 1.65541, 1.65388, 1.65161, 1.65514, 1.64783, 1.65026, 1.65151, 1.66524, 1.66718, 1.65086, 1.64254, 1.64095, 1.63468, 1.6185, 1.60653, 1.63687, 1.65909, 1.66663, 1.70947, 1.73165, 1.76881, 1.80277, 1.77249, 1.74864, 1.72409, 1.67975, 1.61618, 1.57718, 1.59721, 1.59035, 1.59941, 1.58257, 1.57786, 1.574, 1.58565, 1.58501, 1.58007, 1.56809, 1.56522, 1.56246, 1.56212, 1.56106, 1.55803, 1.56546, 1.57195, 1.55251, 1.58476, 1.57247, 1.56534, 1.55379, 1.53995, 1.53568, 1.54061, 1.5572, 1.53189, 1.52856, 1.52522, 1.52479, 1.52346, 1.523, 1.51996, 1.51757, 1.51726, 1.51191, 1.50962, 1.5102, 1.50625, 1.50596, 1.50229, 1.52169, 1.51337, 1.49911, 1.49737, 1.49239, 1.49038, 1.49861, 1.48969, 1.49166, 1.45484, 1.46207, 1.5438, 1.55559, 1.61135, 1.63763, 1.65484, 1.67431, 1.67849, 1.64973, 1.5904, 1.55779, 1.48942, 1.4352, 1.46793, 1.47239, 1.47215, 1.46905, 1.4656, 1.46139, 1.45085, 1.44608, 1.44098, 1.44077, 1.43713, 1.43698, 1.43325, 1.43018, 1.45578, 1.42757, 1.42471, 1.42302, 1.42271, 1.42057, 1.42211, 1.41995, 1.41978, 1.41616, 1.42277, 1.4134, 1.42275, 1.41229, 1.40977, 1.40963, 1.40836, 1.40703, 1.40416, 1.40224, 1.40139, 1.39896, 1.39346, 1.39393, 1.38954, 1.39129, 1.38787, 1.38405, 1.3828, 1.37874, 1.38185, 1.37452, 1.37224, 1.37157, 1.36862, 1.36797, 1.36606, 1.36281, 1.3633, 1.361, 1.36056, 1.36004, 1.35974, 1.3815, 1.35989, 1.35858, 1.35838, 1.35901, 1.37092, 1.3678, 1.36052, 1.34625, 1.3695, 1.36712, 1.40158, 1.43321, 1.43321, 1.45485, 1.49643, 1.44195, 1.44407, 1.43971, 1.4348, 1.39322, 1.35096, 1.33238, 1.34499, 1.35023, 1.32931, 1.32769, 1.32648, 1.32468, 1.32282, 1.33726, 1.31855, 1.31679, 1.31961, 1.3231, 1.3138, 1.31607, 1.31613, 1.3263, 
1.66609, 1.66427, 1.66244, 1.65844, 1.66379, 1.65287, 1.659, 1.64815, 1.65067, 1.64702, 1.66769, 1.68166, 1.66173, 1.64071, 1.66489, 1.65479, 1.62509, 1.62266, 1.6506, 1.6556, 1.67389, 1.71728, 1.75858, 1.80451, 1.82299, 1.81815, 1.7947, 1.73264, 1.69029, 1.60676, 1.59007, 1.59965, 1.60284, 1.59971, 1.59564, 1.58477, 1.5826, 1.58137, 1.58581, 1.59185, 1.58749, 1.58525, 1.57129, 1.56743, 1.57241, 1.56443, 1.56314, 1.5698, 1.55951, 1.56747, 1.56146, 1.56618, 1.56338, 1.55369, 1.54637, 1.54245, 1.53978, 1.53726, 1.5368, 1.53484, 1.53398, 1.53218, 1.52964, 1.52901, 1.52652, 1.52387, 1.52071, 1.51968, 1.51713, 1.50763, 1.51113, 1.50751, 1.50941, 1.51288, 1.50576, 1.50312, 1.5054, 1.50934, 1.51681, 1.50899, 1.51302, 1.49842, 1.47775, 1.50399, 1.54549, 1.6027, 1.65375, 1.68706, 1.66347, 1.65866, 1.67155, 1.58524, 1.5373, 1.48712, 1.44949, 1.48699, 1.47587, 1.46798, 1.46464, 1.46763, 1.46539, 1.4661, 1.45808, 1.45358, 1.45161, 1.45066, 1.44805, 1.44695, 1.4428, 1.44053, 1.43993, 1.43798, 1.43612, 1.4352, 1.43331, 1.43098, 1.43061, 1.42683, 1.42358, 1.42386, 1.4211, 1.42099, 1.41758, 1.41546, 1.41264, 1.41065, 1.41057, 1.40965, 1.41065, 1.32647, 1.32868, 1.40515, 1.40433, 1.39962, 1.3974, 1.3944, 1.39106, 1.38953, 1.38762, 1.38553, 1.38281, 1.37979, 1.3815, 1.37584, 1.37644, 1.38162, 1.3718, 1.3756, 1.37381, 1.36919, 1.36872, 1.36907, 1.37028, 1.37066, 1.369, 1.37451, 1.37097, 1.37304, 1.38986, 1.3807, 1.34752, 1.39278, 1.39148, 1.45511, 1.4694, 1.46086, 1.46019, 1.47578, 1.45795, 1.45996, 1.42705, 1.42571, 1.38761, 1.37612, 1.33294, 1.33419, 1.33597, 1.33247, 1.33935, 1.32652, 1.3285, 1.32919, 1.32734, 1.32634, 1.32372, 1.32089, 1.32359, 1.32641, 1.32424, 1.32657, 1.31893, 
1.68933, 1.66131, 1.66022, 1.658, 1.65872, 1.65125, 1.65407, 1.65899, 1.65606, 1.64739, 1.64029, 1.65204, 1.65811, 1.66055, 1.66155, 1.64564, 1.63676, 1.60613, 1.62087, 1.6728, 1.71664, 1.75716, 1.77648, 1.79355, 1.82397, 1.83893, 1.77858, 1.72325, 1.73294, 1.61014, 1.57854, 1.60968, 1.59978, 1.59022, 1.58588, 1.58352, 1.58228, 1.5892, 1.59593, 1.58406, 1.57291, 1.5693, 1.56752, 1.58028, 1.57104, 1.56195, 1.55992, 1.559, 1.56441, 1.56158, 1.55753, 1.58225, 1.56564, 1.57219, 1.56198, 1.54069, 1.54063, 1.5341, 1.54238, 1.53054, 1.53869, 1.53011, 1.52715, 1.53762, 1.52054, 1.51645, 1.51859, 1.51363, 1.51729, 1.51922, 1.50571, 1.50311, 1.50644, 1.50559, 1.49643, 1.49471, 1.49991, 1.49267, 1.49935, 1.49354, 1.4995, 1.49509, 1.46577, 1.48464, 1.58663, 1.60745, 1.6509, 1.6832, 1.68699, 1.6899, 1.68582, 1.63727, 1.57291, 1.49281, 1.44749, 1.46107, 1.47922, 1.47168, 1.45484, 1.46748, 1.45823, 1.4673, 1.45134, 1.44195, 1.45462, 1.44029, 1.43616, 1.43523, 1.43332, 1.43182, 1.43273, 1.43694, 1.43026, 1.42606, 1.42443, 1.4231, 1.42191, 1.4214, 1.42232, 1.43647, 1.41878, 1.41965, 1.42623, 1.4161, 1.41605, 1.41448, 1.41867, 1.40936, 1.40895, 1.40787, 1.40632, 1.40621, 1.40367, 1.40852, 1.40853, 1.39893, 1.39774, 1.39959, 1.39664, 1.39284, 1.40251, 1.3877, 1.38855, 1.38327, 1.37972, 1.3804, 1.37772, 1.37823, 1.37641, 1.37554, 1.37338, 1.37547, 1.38104, 1.37075, 1.37537, 1.36811, 1.37683, 1.37866, 1.3807, 1.3698, 1.3604, 1.35055, 1.37006, 1.44401, 1.44594, 1.47559, 1.48013, 1.44538, 1.47512, 1.4844, 1.48165, 1.46172, 1.4163, 1.35483, 1.3328, 1.34, 1.34545, 1.33962, 1.34016, 1.33627, 1.33346, 1.33443, 1.33282, 1.34498, 1.32729, 1.32623, 1.32602, 1.32575, 1.32649, 1.31918, 1.31917, 
1.67614, 1.68102, 1.67251, 1.67081, 1.66774, 1.66416, 1.66256, 1.66146, 1.65913, 1.65779, 1.6557, 1.66297, 1.66452, 1.66148, 1.67419, 1.6542, 1.66422, 1.60738, 1.6319, 1.625, 1.62659, 1.74368, 1.78611, 1.8203, 1.81102, 1.84173, 1.81983, 1.81479, 1.72289, 1.64456, 1.5878, 1.60991, 1.60548, 1.59918, 1.59338, 1.59263, 1.59166, 1.58457, 1.58019, 1.58053, 1.57984, 1.57705, 1.57437, 1.57249, 1.57374, 1.57465, 1.57125, 1.57446, 1.56444, 1.55931, 1.55837, 1.55972, 1.54873, 1.55536, 1.55744, 1.56853, 1.55203, 1.551, 1.54101, 1.54005, 1.5386, 1.53489, 1.53364, 1.53302, 1.53072, 1.52721, 1.5228, 1.51889, 1.51211, 1.5094, 1.50886, 1.50885, 1.50651, 1.51222, 1.50177, 1.51064, 1.49307, 1.49589, 1.50134, 1.50793, 1.51061, 1.50742, 1.48487, 1.50995, 1.53994, 1.6022, 1.62805, 1.64343, 1.65809, 1.65453, 1.62503, 1.61558, 1.59573, 1.50391, 1.4408, 1.44434, 1.46001, 1.46432, 1.4882, 1.47874, 1.47383, 1.45393, 1.4524, 1.44822, 1.44612, 1.44479, 1.44401, 1.44192, 1.4395, 1.43751, 1.4365, 1.43341, 1.43009, 1.43037, 1.42589, 1.42603, 1.42165, 1.42069, 1.42243, 1.42364, 1.42512, 1.4258, 1.42288, 1.42325, 1.4165, 1.41369, 1.41323, 1.41094, 1.4097, 1.41857, 1.41075, 1.40818, 1.4051, 1.40329, 1.39732, 1.39593, 1.3951, 1.39309, 1.39178, 1.3898, 1.39103, 1.39085, 1.39036, 1.38595, 1.38138, 1.38, 1.38068, 1.38035, 1.37946, 1.37483, 1.38229, 1.37462, 1.3713, 1.37097, 1.37196, 1.36951, 1.36636, 1.36677, 1.37753, 1.36481, 1.36446, 1.3393, 1.39759, 1.48544, 1.43769, 1.46866, 1.49158, 1.506, 1.51657, 1.49794, 1.48551, 1.46869, 1.48222, 1.40369, 1.34627, 1.36178, 1.35269, 1.35408, 1.34091, 1.33711, 1.34708, 1.35067, 1.33047, 1.333, 1.33334, 1.33058, 1.33052, 1.32498, 1.32338, 1.35374, 1.32324, 
1.66935, 1.65985, 1.65553, 1.6484, 1.64992, 1.64454, 1.64438, 1.65199, 1.64614, 1.65435, 1.6556, 1.65421, 1.64911, 1.63507, 1.63437, 1.64492, 1.63341, 1.62591, 1.60174, 1.66761, 1.68761, 1.74052, 1.78024, 1.81269, 1.83399, 1.84031, 1.83158, 1.80421, 1.70704, 1.63159, 1.58352, 1.60482, 1.606, 1.61873, 1.60326, 1.59365, 1.59853, 1.59785, 1.57333, 1.56754, 1.55769, 1.55744, 1.56104, 1.56893, 1.57024, 1.57051, 1.56271, 1.55356, 1.54436, 1.54198, 1.54321, 1.54811, 1.56189, 1.54705, 1.5426, 1.55435, 1.55721, 1.56628, 1.54208, 1.54337, 1.55159, 1.52928, 1.54364, 1.53055, 1.52842, 1.54492, 1.52733, 1.5236, 1.51799, 1.50699, 1.50452, 1.49921, 1.50223, 1.50767, 1.50826, 1.50504, 1.49701, 1.50332, 1.49965, 1.49998, 1.49882, 1.49532, 1.48229, 1.48179, 1.50704, 1.55946, 1.59689, 1.62853, 1.6321, 1.64237, 1.63818, 1.61276, 1.60265, 1.52386, 1.46985, 1.44795, 1.46522, 1.47128, 1.4592, 1.48724, 1.47167, 1.47243, 1.46977, 1.45182, 1.44997, 1.4517, 1.45367, 1.45385, 1.45217, 1.44001, 1.43926, 1.43814, 1.43444, 1.42381, 1.41828, 1.41388, 1.41233, 1.41472, 1.4279, 1.42937, 1.43031, 1.42887, 1.41718, 1.41146, 1.40883, 1.40024, 1.39533, 1.39485, 1.3998, 1.40004, 1.40036, 1.41041, 1.39825, 1.39587, 1.39338, 1.39277, 1.3916, 1.39286, 1.37845, 1.37579, 1.3772, 1.37482, 1.37439, 1.37597, 1.38087, 1.37892, 1.37778, 1.38039, 1.37538, 1.37037, 1.36464, 1.3617, 1.35795, 1.36024, 1.36109, 1.36256, 1.36839, 1.36424, 1.37187, 1.37339, 1.34991, 1.37648, 1.40783, 1.39864, 1.47619, 1.47826, 1.48896, 1.50035, 1.49837, 1.49739, 1.49247, 1.44351, 1.44042, 1.40593, 1.31853, 1.35805, 1.35187, 1.35981, 1.33892, 1.33742, 1.33742, 1.33948, 1.33622, 1.32969, 1.34096, 1.31783, 1.31246, 1.30842, 1.30715, 1.30922, 1.30619, 
1.66621, 1.66544, 1.66412, 1.65995, 1.6614, 1.65924, 1.65759, 1.65755, 1.65395, 1.66253, 1.64656, 1.64445, 1.64077, 1.64557, 1.65009, 1.64494, 1.64553, 1.64776, 1.62487, 1.63804, 1.70292, 1.73176, 1.77156, 1.80895, 1.84156, 1.85128, 1.88216, 1.83636, 1.71062, 1.66192, 1.58218, 1.60205, 1.60388, 1.60078, 1.59651, 1.59289, 1.59741, 1.59447, 1.59944, 1.57919, 1.59019, 1.57204, 1.57199, 1.57376, 1.56782, 1.56622, 1.56608, 1.5652, 1.56364, 1.56211, 1.55765, 1.55448, 1.55404, 1.55174, 1.55078, 1.54788, 1.5459, 1.55563, 1.56787, 1.55438, 1.54102, 1.5405, 1.54373, 1.52702, 1.52479, 1.53033, 1.52088, 1.51991, 1.5193, 1.51951, 1.51495, 1.51358, 1.51298, 1.51207, 1.50928, 1.50679, 1.50354, 1.50449, 1.50258, 1.51718, 1.50242, 1.50288, 1.49809, 1.48627, 1.52789, 1.57842, 1.60002, 1.62377, 1.64094, 1.64036, 1.6232, 1.62804, 1.59886, 1.52685, 1.4966, 1.4521, 1.46912, 1.46736, 1.46997, 1.46766, 1.4867, 1.48019, 1.48181, 1.46337, 1.46151, 1.44818, 1.44548, 1.44341, 1.44028, 1.43836, 1.43361, 1.45089, 1.43279, 1.43317, 1.43056, 1.43067, 1.43028, 1.43308, 1.42839, 1.42626, 1.42411, 1.42216, 1.4299, 1.41863, 1.42628, 1.41748, 1.42057, 1.41552, 1.44471, 1.41302, 1.41205, 1.41841, 1.40992, 1.41356, 1.40245, 1.40521, 1.3996, 1.39795, 1.41832, 1.39262, 1.38894, 1.39041, 1.38848, 1.38527, 1.38488, 1.38365, 1.38334, 1.39619, 1.37967, 1.37869, 1.37773, 1.3922, 1.37617, 1.37545, 1.38929, 1.37479, 1.37484, 1.37194, 1.38512, 1.37453, 1.37956, 1.36017, 1.36822, 1.39328, 1.45788, 1.45742, 1.52032, 1.51285, 1.51155, 1.51354, 1.50922, 1.48627, 1.47509, 1.386, 1.34349, 1.35301, 1.35916, 1.35422, 1.34825, 1.35771, 1.34723, 1.33297, 1.34116, 1.33673, 1.33692, 1.34798, 1.34367, 1.34098, 1.34754, 1.33728, 1.32566, 
1.6714, 1.66909, 1.67527, 1.66269, 1.65944, 1.67531, 1.65497, 1.65832, 1.64759, 1.64775, 1.65155, 1.64319, 1.65024, 1.65386, 1.63524, 1.64094, 1.64041, 1.64351, 1.61716, 1.63879, 1.65939, 1.68807, 1.72307, 1.76443, 1.8262, 1.86133, 1.89065, 1.81419, 1.71252, 1.67242, 1.57861, 1.59191, 1.61606, 1.61074, 1.60978, 1.58903, 1.58398, 1.58565, 1.5823, 1.60085, 1.58612, 1.57854, 1.57172, 1.57018, 1.5858, 1.56198, 1.56194, 1.5576, 1.5534, 1.55225, 1.55039, 1.55095, 1.54758, 1.54759, 1.56133, 1.53842, 1.53818, 1.5402, 1.53894, 1.5395, 1.54249, 1.54924, 1.52775, 1.5303, 1.53314, 1.52309, 1.53148, 1.5184, 1.5169, 1.51434, 1.5175, 1.50972, 1.50689, 1.50111, 1.49912, 1.50177, 1.49575, 1.50252, 1.49306, 1.49566, 1.50388, 1.49571, 1.48854, 1.46186, 1.46915, 1.57271, 1.58624, 1.60696, 1.62758, 1.63497, 1.6125, 1.60228, 1.56416, 1.54186, 1.50204, 1.44681, 1.47001, 1.47507, 1.4714, 1.46185, 1.45941, 1.46399, 1.46348, 1.45903, 1.44027, 1.45007, 1.43741, 1.43444, 1.43662, 1.44729, 1.43412, 1.43333, 1.44089, 1.432, 1.44063, 1.42958, 1.42625, 1.42411, 1.42262, 1.42127, 1.41936, 1.45766, 1.42596, 1.4233, 1.41338, 1.41243, 1.42301, 1.41912, 1.40874, 1.40897, 1.40694, 1.40255, 1.39896, 1.39648, 1.39567, 1.39165, 1.39072, 1.38877, 1.38521, 1.39166, 1.38218, 1.38396, 1.38469, 1.38988, 1.37612, 1.37717, 1.37662, 1.37562, 1.37351, 1.40956, 1.37122, 1.37227, 1.3758, 1.36702, 1.38867, 1.36421, 1.36279, 1.3749, 1.37878, 1.3756, 1.35416, 1.33337, 1.38437, 1.40623, 1.42517, 1.44905, 1.47417, 1.48418, 1.54292, 1.53565, 1.54702, 1.54413, 1.47901, 1.41602, 1.35873, 1.35657, 1.35634, 1.35376, 1.34985, 1.34743, 1.34032, 1.33603, 1.34747, 1.32677, 1.32955, 1.34875, 1.33473, 1.32211, 1.34343, 1.32081, 1.33614, 
1.65373, 1.65157, 1.65018, 1.64722, 1.64574, 1.64552, 1.6403, 1.63666, 1.63493, 1.63104, 1.62764, 1.62522, 1.62338, 1.62354, 1.62829, 1.61255, 1.613, 1.61377, 1.5918, 1.59106, 1.69449, 1.631, 1.72075, 1.78497, 1.82522, 1.84344, 1.85762, 1.81809, 1.77221, 1.7237, 1.55472, 1.57494, 1.58457, 1.58369, 1.59217, 1.58374, 1.5733, 1.56921, 1.56522, 1.56318, 1.56072, 1.56782, 1.55763, 1.5555, 1.55458, 1.55103, 1.55136, 1.54703, 1.54547, 1.54401, 1.54082, 1.53738, 1.53345, 1.53092, 1.53716, 1.52631, 1.5551, 1.51923, 1.5171, 1.51349, 1.52247, 1.53539, 1.52705, 1.52062, 1.51666, 1.51328, 1.50588, 1.50323, 1.50213, 1.50244, 1.49716, 1.49706, 1.49466, 1.49546, 1.49209, 1.48854, 1.48531, 1.48815, 1.48605, 1.48566, 1.49125, 1.48726, 1.47513, 1.45643, 1.50798, 1.53595, 1.57178, 1.60956, 1.63732, 1.66114, 1.6181, 1.59891, 1.60189, 1.54346, 1.50906, 1.4777, 1.43586, 1.45714, 1.45154, 1.44946, 1.44193, 1.44106, 1.45418, 1.46488, 1.46509, 1.44761, 1.42621, 1.42622, 1.42465, 1.42108, 1.43373, 1.41891, 1.41592, 1.41421, 1.41225, 1.40994, 1.40692, 1.4053, 1.40169, 1.40021, 1.40018, 1.39823, 1.39576, 1.39445, 1.393, 1.39092, 1.38892, 1.3876, 1.38505, 1.3844, 1.38136, 1.38091, 1.38125, 1.3807, 1.38209, 1.38089, 1.37949, 1.37515, 1.3741, 1.37104, 1.36855, 1.36713, 1.36473, 1.36457, 1.36226, 1.37121, 1.35777, 1.358, 1.35718, 1.35518, 1.35387, 1.35078, 1.34857, 1.34861, 1.34697, 1.34442, 1.3424, 1.34184, 1.34224, 1.34694, 1.34542, 1.31977, 1.37584, 1.40533, 1.44225, 1.48, 1.54714, 1.53309, 1.53868, 1.53334, 1.53218, 1.50443, 1.50968, 1.34477, 1.30646, 1.3119, 1.32386, 1.32574, 1.31841, 1.31611, 1.31288, 1.31312, 1.30925, 1.30846, 1.30597, 1.30692, 1.30253, 1.30195, 1.30391, 1.30536, 1.30176, 
1.64853, 1.64691, 1.64564, 1.648, 1.64449, 1.6415, 1.63804, 1.63016, 1.62692, 1.62518, 1.62812, 1.6273, 1.62117, 1.6211, 1.62183, 1.62197, 1.6269, 1.61926, 1.60673, 1.59717, 1.64083, 1.67587, 1.72563, 1.80784, 1.84761, 1.86933, 1.87269, 1.86508, 1.81362, 1.66904, 1.6138, 1.56128, 1.58509, 1.59113, 1.58518, 1.57304, 1.56854, 1.56656, 1.56226, 1.56261, 1.55551, 1.55768, 1.55269, 1.56796, 1.54699, 1.54931, 1.54033, 1.54271, 1.54391, 1.54366, 1.5419, 1.53971, 1.53664, 1.52997, 1.52795, 1.52674, 1.52487, 1.52406, 1.52064, 1.51962, 1.5162, 1.52488, 1.50948, 1.51338, 1.52671, 1.51454, 1.52078, 1.50337, 1.49946, 1.49923, 1.49722, 1.49628, 1.49101, 1.4902, 1.48821, 1.48705, 1.48491, 1.48353, 1.47974, 1.4829, 1.48888, 1.4912, 1.49009, 1.45707, 1.46385, 1.5126, 1.55389, 1.59889, 1.5924, 1.60218, 1.63082, 1.58334, 1.58135, 1.53863, 1.53797, 1.47657, 1.44042, 1.45139, 1.44749, 1.44638, 1.43646, 1.43321, 1.43271, 1.43265, 1.45119, 1.45856, 1.45155, 1.42331, 1.43398, 1.42256, 1.42092, 1.41888, 1.41848, 1.41465, 1.41368, 1.41387, 1.41518, 1.41373, 1.41033, 1.40895, 1.46361, 1.40303, 1.39959, 1.40097, 1.39903, 1.39866, 1.39669, 1.39462, 1.3955, 1.3947, 1.39451, 1.39258, 1.39126, 1.38825, 1.39003, 1.38344, 1.38093, 1.37905, 1.37847, 1.37656, 1.37508, 1.37265, 1.36948, 1.36733, 1.36585, 1.36312, 1.36388, 1.3632, 1.36109, 1.35832, 1.36066, 1.35493, 1.35511, 1.35784, 1.35452, 1.36002, 1.3541, 1.34919, 1.34857, 1.3654, 1.3664, 1.33082, 1.34681, 1.40936, 1.4634, 1.46464, 1.47085, 1.50313, 1.53598, 1.54151, 1.53698, 1.5147, 1.4712, 1.39493, 1.34314, 1.30026, 1.32717, 1.33271, 1.31993, 1.31314, 1.314, 1.31275, 1.31186, 1.31179, 1.31019, 1.30863, 1.30916, 1.30985, 1.30667, 1.30499, 1.30371, 
1.65876, 1.65453, 1.65279, 1.65075, 1.65091, 1.64843, 1.64254, 1.63802, 1.63794, 1.63418, 1.63082, 1.65127, 1.62703, 1.63035, 1.64335, 1.61962, 1.64764, 1.61998, 1.62304, 1.59139, 1.64141, 1.67875, 1.72443, 1.76529, 1.81436, 1.87311, 1.86269, 1.89806, 1.775, 1.72394, 1.60733, 1.55703, 1.59931, 1.58508, 1.58712, 1.5781, 1.5665, 1.56458, 1.56534, 1.55971, 1.55746, 1.55429, 1.55211, 1.5519, 1.57338, 1.54936, 1.54766, 1.54564, 1.54386, 1.54207, 1.5401, 1.53875, 1.5373, 1.5352, 1.5318, 1.52791, 1.52665, 1.52228, 1.52055, 1.51958, 1.51706, 1.51487, 1.51812, 1.51951, 1.51067, 1.52783, 1.52614, 1.53431, 1.49759, 1.50582, 1.49329, 1.49219, 1.49969, 1.48942, 1.48901, 1.49552, 1.48442, 1.48222, 1.48014, 1.48964, 1.48669, 1.49862, 1.49196, 1.44877, 1.47447, 1.51121, 1.5299, 1.55131, 1.58912, 1.5937, 1.61955, 1.58878, 1.5478, 1.53201, 1.48994, 1.48927, 1.45494, 1.45578, 1.45493, 1.4614, 1.44745, 1.43656, 1.43435, 1.45164, 1.43486, 1.43435, 1.43678, 1.44728, 1.44462, 1.42767, 1.43343, 1.42525, 1.41447, 1.41271, 1.40929, 1.40882, 1.41044, 1.40722, 1.40654, 1.40514, 1.40428, 1.40485, 1.39874, 1.39734, 1.39699, 1.39461, 1.3947, 1.39481, 1.39467, 1.3892, 1.38819, 1.38682, 1.38513, 1.38219, 1.38122, 1.37827, 1.37743, 1.37867, 1.3765, 1.3723, 1.37079, 1.36798, 1.36736, 1.36813, 1.36639, 1.36525, 1.3635, 1.36191, 1.36128, 1.36007, 1.3586, 1.35813, 1.35709, 1.35787, 1.35739, 1.35287, 1.36865, 1.35101, 1.35506, 1.35329, 1.35017, 1.33451, 1.31943, 1.37135, 1.4147, 1.45346, 1.48819, 1.51638, 1.54315, 1.55194, 1.54387, 1.52718, 1.46488, 1.42891, 1.32276, 1.32233, 1.33305, 1.34556, 1.33646, 1.33468, 1.33693, 1.32275, 1.32187, 1.31983, 1.32326, 1.32085, 1.31625, 1.32685, 1.31215, 1.3096, 1.31045, 
1.65424, 1.6519, 1.64897, 1.6471, 1.64437, 1.64251, 1.6373, 1.63424, 1.63248, 1.63043, 1.63082, 1.63513, 1.62459, 1.62162, 1.62733, 1.62334, 1.62831, 1.63164, 1.6197, 1.59934, 1.60932, 1.67641, 1.71412, 1.75346, 1.78865, 1.88162, 1.90387, 1.89613, 1.84786, 1.71282, 1.5634, 1.57593, 1.59623, 1.59277, 1.58234, 1.58838, 1.57636, 1.57382, 1.56545, 1.57423, 1.57535, 1.5605, 1.55563, 1.55227, 1.54955, 1.54735, 1.54706, 1.54644, 1.54593, 1.54384, 1.54164, 1.54153, 1.54007, 1.53746, 1.53837, 1.53483, 1.53074, 1.52751, 1.52602, 1.52364, 1.52731, 1.52725, 1.51488, 1.5137, 1.51097, 1.51565, 1.52683, 1.5132, 1.52067, 1.53107, 1.50418, 1.50238, 1.50605, 1.5092, 1.4951, 1.49226, 1.49148, 1.48759, 1.49159, 1.48536, 1.48621, 1.48279, 1.49233, 1.45372, 1.46102, 1.52973, 1.55751, 1.56495, 1.59365, 1.61408, 1.57963, 1.57536, 1.56174, 1.53139, 1.51302, 1.46761, 1.45714, 1.43693, 1.45784, 1.45662, 1.45579, 1.45136, 1.44025, 1.43822, 1.43542, 1.43332, 1.4312, 1.43831, 1.43973, 1.44894, 1.43997, 1.43122, 1.42073, 1.41781, 1.41549, 1.41419, 1.41187, 1.41052, 1.40878, 1.40662, 1.4056, 1.40611, 1.40516, 1.40282, 1.40136, 1.39917, 1.39751, 1.39612, 1.39285, 1.39048, 1.39041, 1.38782, 1.38519, 1.38241, 1.38195, 1.38198, 1.38084, 1.37726, 1.37536, 1.37393, 1.37207, 1.37059, 1.37024, 1.36645, 1.36331, 1.36313, 1.35941, 1.3606, 1.35945, 1.35885, 1.35455, 1.35486, 1.35375, 1.35373, 1.35372, 1.35052, 1.34874, 1.34815, 1.35645, 1.34943, 1.36103, 1.34702, 1.32576, 1.37173, 1.39932, 1.43754, 1.47475, 1.49793, 1.55094, 1.56304, 1.55024, 1.53324, 1.44344, 1.40068, 1.34072, 1.31989, 1.32966, 1.33719, 1.33418, 1.33711, 1.32721, 1.32625, 1.32543, 1.31713, 1.31694, 1.31547, 1.3161, 1.31249, 1.31379, 1.30932, 1.31087, 
1.65505, 1.64834, 1.6462, 1.64426, 1.64304, 1.64025, 1.63522, 1.63386, 1.63148, 1.62769, 1.62884, 1.62503, 1.62404, 1.62483, 1.62041, 1.62349, 1.62545, 1.61732, 1.62417, 1.59685, 1.61602, 1.67496, 1.70337, 1.76922, 1.84139, 1.87057, 1.92654, 1.9727, 1.86993, 1.81436, 1.56132, 1.55605, 1.59723, 1.58646, 1.58491, 1.57745, 1.57093, 1.57499, 1.56431, 1.56154, 1.55951, 1.55862, 1.55825, 1.56449, 1.55198, 1.54926, 1.54741, 1.54338, 1.54107, 1.53822, 1.53834, 1.54451, 1.53234, 1.53001, 1.52802, 1.52712, 1.52476, 1.52302, 1.5198, 1.51814, 1.51588, 1.51317, 1.51115, 1.50963, 1.50615, 1.50677, 1.50596, 1.50678, 1.51069, 1.51959, 1.51274, 1.50996, 1.50215, 1.49476, 1.49627, 1.4931, 1.49614, 1.49343, 1.48819, 1.48346, 1.48841, 1.4958, 1.50115, 1.45544, 1.4754, 1.50959, 1.55093, 1.56493, 1.57195, 1.56798, 1.56815, 1.55013, 1.54831, 1.53858, 1.51787, 1.49237, 1.45392, 1.42341, 1.45198, 1.4649, 1.4553, 1.44484, 1.43637, 1.43308, 1.43203, 1.42862, 1.4336, 1.42467, 1.42354, 1.46557, 1.45727, 1.45835, 1.44517, 1.43429, 1.42596, 1.41116, 1.40867, 1.40738, 1.40532, 1.40551, 1.40522, 1.40465, 1.4031, 1.40389, 1.40195, 1.39904, 1.39696, 1.39739, 1.396, 1.39337, 1.39416, 1.3922, 1.38983, 1.38814, 1.385, 1.38315, 1.3819, 1.37923, 1.37804, 1.37751, 1.3754, 1.37258, 1.36829, 1.36526, 1.36209, 1.36197, 1.36342, 1.35752, 1.35415, 1.35358, 1.35377, 1.35219, 1.3529, 1.35443, 1.3531, 1.35363, 1.35237, 1.35177, 1.35227, 1.35248, 1.35349, 1.35205, 1.33806, 1.36779, 1.41427, 1.44371, 1.48295, 1.54179, 1.59002, 1.59922, 1.61417, 1.5692, 1.5821, 1.41705, 1.3313, 1.29246, 1.33284, 1.33294, 1.34048, 1.32659, 1.32992, 1.31987, 1.32101, 1.32467, 1.31727, 1.3167, 1.31587, 1.311, 1.30985, 1.30771, 1.30904, 
1.65471, 1.64771, 1.64587, 1.64267, 1.64054, 1.66737, 1.64444, 1.63282, 1.64071, 1.63469, 1.62485, 1.62314, 1.62185, 1.62167, 1.62771, 1.61937, 1.61717, 1.61638, 1.61731, 1.61828, 1.58283, 1.63804, 1.69422, 1.71942, 1.76551, 1.86967, 1.93023, 1.95131, 1.91109, 1.7587, 1.5556, 1.56948, 1.58858, 1.58558, 1.58126, 1.57331, 1.572, 1.56727, 1.56517, 1.56266, 1.55959, 1.55746, 1.55553, 1.55289, 1.55045, 1.54919, 1.5467, 1.54441, 1.54413, 1.54207, 1.53913, 1.53721, 1.53541, 1.53307, 1.53108, 1.52929, 1.52648, 1.5265, 1.52169, 1.51886, 1.51634, 1.51383, 1.51072, 1.50916, 1.50445, 1.5028, 1.50037, 1.49987, 1.49874, 1.50636, 1.51081, 1.53013, 1.50939, 1.51337, 1.50243, 1.48979, 1.49572, 1.48614, 1.4874, 1.48132, 1.48943, 1.49521, 1.47265, 1.45861, 1.49718, 1.4959, 1.5198, 1.52414, 1.56996, 1.54892, 1.54021, 1.54019, 1.53447, 1.51533, 1.50304, 1.4786, 1.46897, 1.4418, 1.45213, 1.44966, 1.44408, 1.44846, 1.44458, 1.44324, 1.43357, 1.43329, 1.44195, 1.45067, 1.44173, 1.42213, 1.42739, 1.43774, 1.42941, 1.43327, 1.41533, 1.40999, 1.40314, 1.40378, 1.40248, 1.40193, 1.40183, 1.40042, 1.40462, 1.39664, 1.39495, 1.39141, 1.39142, 1.38796, 1.38773, 1.38715, 1.38733, 1.38492, 1.38493, 1.38332, 1.38266, 1.37971, 1.37859, 1.37616, 1.37468, 1.37466, 1.37237, 1.36935, 1.36939, 1.36802, 1.36744, 1.36618, 1.36477, 1.36344, 1.36384, 1.36383, 1.36345, 1.36224, 1.36056, 1.36063, 1.35352, 1.35311, 1.35172, 1.35113, 1.35057, 1.34846, 1.36863, 1.35206, 1.33631, 1.34832, 1.35979, 1.4187, 1.46116, 1.49581, 1.54016, 1.55488, 1.55566, 1.5815, 1.55371, 1.41278, 1.32302, 1.31362, 1.32918, 1.32985, 1.32741, 1.32704, 1.31906, 1.31834, 1.31452, 1.31384, 1.31236, 1.31187, 1.31185, 1.30856, 1.30965, 1.30794, 1.30742, 
1.66127, 1.65411, 1.6485, 1.64673, 1.64334, 1.63957, 1.63621, 1.63634, 1.63412, 1.63161, 1.62861, 1.62981, 1.62098, 1.62096, 1.61896, 1.617, 1.61801, 1.62465, 1.62713, 1.62346, 1.61367, 1.59538, 1.68444, 1.73355, 1.79983, 1.8483, 1.90147, 1.9292, 1.89068, 1.70708, 1.54854, 1.567, 1.57183, 1.58612, 1.45462, 1.58001, 1.56786, 1.56481, 1.56293, 1.55955, 1.55821, 1.55483, 1.56143, 1.55161, 1.55078, 1.55489, 1.54545, 1.54252, 1.53995, 1.53697, 1.53443, 1.5332, 1.53326, 1.52636, 1.52132, 1.52036, 1.51783, 1.51619, 1.51492, 1.51415, 1.5111, 1.50988, 1.50862, 1.50702, 1.50667, 1.50548, 1.50571, 1.51365, 1.50239, 1.49988, 1.50581, 1.49659, 1.52398, 1.51306, 1.51337, 1.48822, 1.48855, 1.48986, 1.48886, 1.48259, 1.48491, 1.48683, 1.49532, 1.46224, 1.45431, 1.48629, 1.52962, 1.55049, 1.55113, 1.54449, 1.51415, 1.54751, 1.53703, 1.53926, 1.52184, 1.51615, 1.47286, 1.41767, 1.4524, 1.45708, 1.44474, 1.45349, 1.45051, 1.44494, 1.4446, 1.4503, 1.46132, 1.45477, 1.46619, 1.48964, 1.4555, 1.44199, 1.41941, 1.42607, 1.41212, 1.41626, 1.40763, 1.40584, 1.41939, 1.4334, 1.40227, 1.39963, 1.39886, 1.39583, 1.39251, 1.39092, 1.39119, 1.39095, 1.38772, 1.38464, 1.38238, 1.38318, 1.38296, 1.37966, 1.37811, 1.37487, 1.3748, 1.37341, 1.37126, 1.36934, 1.36815, 1.36639, 1.36565, 1.36418, 1.3644, 1.36358, 1.36239, 1.36211, 1.3635, 1.35921, 1.35934, 1.35735, 1.35634, 1.35534, 1.3534, 1.35064, 1.34995, 1.34755, 1.34709, 1.34832, 1.34868, 1.3556, 1.36504, 1.32336, 1.36448, 1.41741, 1.46594, 1.49317, 1.5648, 1.5834, 1.59958, 1.58195, 1.50173, 1.44047, 1.33005, 1.33341, 1.3275, 1.32929, 1.32989, 1.32642, 1.31932, 1.31765, 1.32005, 1.32634, 1.31255, 1.31207, 1.3098, 1.31176, 1.30877, 1.30714, 1.30607, 
1.64931, 1.64529, 1.64325, 1.64059, 1.64085, 1.63934, 1.63791, 1.63794, 1.63673, 1.63394, 1.63082, 1.62742, 1.62503, 1.62321, 1.63116, 1.61446, 1.62754, 1.61001, 1.61351, 1.6209, 1.60706, 1.58183, 1.64608, 1.725, 1.78689, 1.8238, 1.87569, 1.94517, 1.95645, 1.71448, 1.55444, 1.57581, 1.6062, 1.57951, 1.58105, 1.5817, 1.57628, 1.5736, 1.57549, 1.56951, 1.56568, 1.56442, 1.56021, 1.55617, 1.55182, 1.54849, 1.55507, 1.54196, 1.53973, 1.53777, 1.53423, 1.53186, 1.53051, 1.52709, 1.52939, 1.52037, 1.51917, 1.51729, 1.5135, 1.51203, 1.51, 1.50917, 1.50827, 1.50537, 1.50459, 1.5029, 1.50164, 1.50115, 1.49897, 1.49703, 1.49734, 1.52989, 1.49193, 1.49341, 1.51195, 1.51596, 1.51986, 1.51745, 1.54363, 1.4888, 1.47592, 1.48116, 1.49661, 1.46898, 1.47138, 1.4656, 1.52724, 1.53609, 1.55072, 1.54109, 1.52143, 1.51287, 1.52224, 1.52408, 1.56361, 1.50205, 1.4827, 1.46134, 1.45704, 1.46812, 1.44919, 1.45503, 1.45047, 1.43002, 1.43113, 1.44728, 1.44482, 1.43171, 1.43291, 1.42627, 1.42487, 1.42427, 1.41834, 1.41638, 1.41463, 1.41194, 1.41, 1.40877, 1.40742, 1.40577, 1.40309, 1.40263, 1.3999, 1.3981, 1.39662, 1.39468, 1.39257, 1.39051, 1.38828, 1.38572, 1.38459, 1.38433, 1.38318, 1.38194, 1.37809, 1.37788, 1.37734, 1.37788, 1.3755, 1.37388, 1.37184, 1.37145, 1.36964, 1.36727, 1.36661, 1.37305, 1.36148, 1.36072, 1.35774, 1.35719, 1.35592, 1.35232, 1.35076, 1.35034, 1.34783, 1.34675, 1.34688, 1.34447, 1.34288, 1.3403, 1.35467, 1.34568, 1.34481, 1.34165, 1.38214, 1.41014, 1.45702, 1.534, 1.55689, 1.61247, 1.62701, 1.62368, 1.57767, 1.38302, 1.31062, 1.30997, 1.33232, 1.3261, 1.33162, 1.31931, 1.31614, 1.31477, 1.31284, 1.31286, 1.31146, 1.30892, 1.30886, 1.30793, 1.30896, 1.30438, 1.30343, 
1.64392, 1.64186, 1.64889, 1.64092, 1.64224, 1.6386, 1.63833, 1.6367, 1.63418, 1.63106, 1.62805, 1.62639, 1.62272, 1.61922, 1.61997, 1.6148, 1.61286, 1.61112, 1.60935, 1.61616, 1.62168, 1.58344, 1.63079, 1.67521, 1.77328, 1.84006, 1.92457, 1.95258, 1.85934, 1.71153, 1.62395, 1.5786, 1.57877, 1.58247, 1.58895, 1.58821, 1.58773, 1.60004, 1.58477, 1.57553, 1.57782, 1.57554, 1.55598, 1.56434, 1.54798, 1.54502, 1.54305, 1.53993, 1.53776, 1.53532, 1.53336, 1.53048, 1.52866, 1.52497, 1.52348, 1.52096, 1.51888, 1.5188, 1.51565, 1.51262, 1.50934, 1.50535, 1.50323, 1.50197, 1.50623, 1.50013, 1.49878, 1.49759, 1.4962, 1.49391, 1.49126, 1.48935, 1.48835, 1.4872, 1.48366, 1.48249, 1.48217, 1.48124, 1.48146, 1.48126, 1.47456, 1.46827, 1.46952, 1.48206, 1.48515, 1.49223, 1.51538, 1.56423, 1.53224, 1.50614, 1.50424, 1.48015, 1.49395, 1.50941, 1.53451, 1.49955, 1.47412, 1.4474, 1.44107, 1.45329, 1.45461, 1.4639, 1.44016, 1.4367, 1.43489, 1.4324, 1.4294, 1.42998, 1.42617, 1.42271, 1.41968, 1.42649, 1.41632, 1.41368, 1.4123, 1.41241, 1.4076, 1.405, 1.40401, 1.40176, 1.40161, 1.39933, 1.39807, 1.3987, 1.39725, 1.39411, 1.3933, 1.39185, 1.39073, 1.38773, 1.38568, 1.38139, 1.38107, 1.37892, 1.37669, 1.37565, 1.37441, 1.37274, 1.37152, 1.36918, 1.37538, 1.36869, 1.36675, 1.36546, 1.365, 1.3652, 1.36339, 1.36097, 1.35714, 1.35601, 1.35671, 1.3549, 1.35105, 1.35099, 1.34566, 1.34667, 1.34559, 1.34561, 1.34476, 1.34287, 1.36803, 1.34766, 1.34831, 1.34073, 1.34401, 1.37251, 1.44049, 1.49549, 1.55879, 1.61606, 1.64823, 1.651, 1.53221, 1.51265, 1.34039, 1.32337, 1.33501, 1.32833, 1.32283, 1.32519, 1.31861, 1.31571, 1.31344, 1.31191, 1.3128, 1.31006, 1.30903, 1.311, 1.31198, 1.30914, 1.30849, 
1.64247, 1.64033, 1.64292, 1.67873, 1.63291, 1.63126, 1.62856, 1.62738, 1.62436, 1.6241, 1.62106, 1.62057, 1.61678, 1.6193, 1.61024, 1.6208, 1.60674, 1.60371, 1.60761, 1.61251, 1.60869, 1.57344, 1.60066, 1.67921, 1.72699, 1.79598, 1.85899, 1.91963, 2.01168, 1.69088, 1.55458, 1.5508, 1.54898, 1.63819, 1.72702, 1.81737, 1.76321, 1.6617, 1.57288, 1.62443, 1.6071, 1.58259, 1.57985, 1.56566, 1.57186, 1.55499, 1.54434, 1.54163, 1.54432, 1.53515, 1.56194, 1.53003, 1.52705, 1.5246, 1.52293, 1.52175, 1.51888, 1.51646, 1.51475, 1.51209, 1.50934, 1.50733, 1.50367, 1.50176, 1.49956, 1.49994, 1.49393, 1.49271, 1.49251, 1.49079, 1.48786, 1.489, 1.48584, 1.48275, 1.47942, 1.47729, 1.47491, 1.47431, 1.47225, 1.47248, 1.47309, 1.47577, 1.48492, 1.4731, 1.48545, 1.51272, 1.52161, 1.52378, 1.53371, 1.51307, 1.48849, 1.47612, 1.4713, 1.48917, 1.5138, 1.49051, 1.50962, 1.45602, 1.4569, 1.44852, 1.45151, 1.45077, 1.43427, 1.42967, 1.42676, 1.42384, 1.42256, 1.41947, 1.41579, 1.41401, 1.41241, 1.41114, 1.40899, 1.4082, 1.40787, 1.40823, 1.40652, 1.40658, 1.40661, 1.40587, 1.40567, 1.40139, 1.39787, 1.39344, 1.39139, 1.39044, 1.38839, 1.38781, 1.38516, 1.38204, 1.3825, 1.37818, 1.3784, 1.37673, 1.37531, 1.37306, 1.37168, 1.37179, 1.36955, 1.36917, 1.36726, 1.36479, 1.36413, 1.36213, 1.36097, 1.35723, 1.35551, 1.35291, 1.35156, 1.34991, 1.35101, 1.35158, 1.34963, 1.34707, 1.34714, 1.34695, 1.34369, 1.34455, 1.34191, 1.34006, 1.33971, 1.34226, 1.34748, 1.35097, 1.31669, 1.37568, 1.4205, 1.48262, 1.49049, 1.61612, 1.65885, 1.65495, 1.56304, 1.45827, 1.35022, 1.30956, 1.32229, 1.33341, 1.32169, 1.32294, 1.31569, 1.33079, 1.32317, 1.30921, 1.31712, 1.31683, 1.30592, 1.30631, 1.30242, 1.30211, 1.29912, 
1.62991, 1.63079, 1.62705, 1.62616, 1.62381, 1.62265, 1.61937, 1.61797, 1.61621, 1.61336, 1.61073, 1.60998, 1.60915, 1.60545, 1.60177, 1.60017, 1.59821, 1.59677, 1.6022, 1.59954, 1.59371, 1.58951, 1.59305, 1.67836, 1.74528, 1.7618, 1.89979, 2.08372, 2.27593, 1.77381, 1.59246, 1.53722, 1.56512, 1.56621, 1.56541, 1.57598, 1.56946, 1.57931, 1.57807, 1.56649, 1.5615, 1.57449, 1.55405, 1.55459, 1.53837, 1.55179, 1.5283, 1.52564, 1.52389, 1.51999, 1.51884, 1.51902, 1.51725, 1.51345, 1.51172, 1.51081, 1.50848, 1.50585, 1.50532, 1.50542, 1.50535, 1.49965, 1.49769, 1.49609, 1.49455, 1.4916, 1.48864, 1.48548, 1.48378, 1.47822, 1.47795, 1.47673, 1.47327, 1.47394, 1.47172, 1.46893, 1.46782, 1.46544, 1.46306, 1.46149, 1.46879, 1.46746, 1.46762, 1.48235, 1.48317, 1.49177, 1.51953, 1.51889, 1.50303, 1.52213, 1.50863, 1.49775, 1.50037, 1.49215, 1.48071, 1.49588, 1.49504, 1.49006, 1.44316, 1.44056, 1.44523, 1.43821, 1.43153, 1.43509, 1.42174, 1.42064, 1.41934, 1.43055, 1.41124, 1.41015, 1.41053, 1.40899, 1.41001, 1.40547, 1.40217, 1.40151, 1.40042, 1.39912, 1.39505, 1.39342, 1.3919, 1.38836, 1.38871, 1.38566, 1.38412, 1.38182, 1.38015, 1.37939, 1.37756, 1.37586, 1.37443, 1.3756, 1.37797, 1.37646, 1.37582, 1.3757, 1.37484, 1.37079, 1.36679, 1.36429, 1.36296, 1.36089, 1.35879, 1.35492, 1.3533, 1.35165, 1.35288, 1.35329, 1.35113, 1.35139, 1.35158, 1.34757, 1.3498, 1.34428, 1.34489, 1.34314, 1.34026, 1.33807, 1.33896, 1.33507, 1.33414, 1.33463, 1.34019, 1.33906, 1.32421, 1.34459, 1.37823, 1.46115, 1.54468, 1.57165, 1.66539, 1.66741, 1.65827, 1.52826, 1.35065, 1.27391, 1.31064, 1.32676, 1.3126, 1.30889, 1.30579, 1.30272, 1.32295, 1.32248, 1.30328, 1.30191, 1.30193, 1.29938, 1.29587, 1.297, 1.29577, 
1.62575, 1.62467, 1.62346, 1.62208, 1.61978, 1.61697, 1.61753, 1.61604, 1.61441, 1.61293, 1.61194, 1.60848, 1.60585, 1.60575, 1.60149, 1.59919, 1.59722, 1.59528, 1.59218, 1.59222, 1.59401, 1.60226, 1.58919, 1.5864, 1.68245, 1.75175, 1.82908, 1.78721, 1.75399, 1.69013, 1.64396, 1.53434, 1.54427, 1.55773, 1.55979, 1.55457, 1.55571, 1.5541, 1.55205, 1.55027, 1.54548, 1.5503, 1.54457, 1.53976, 1.53687, 1.53561, 1.54189, 1.52873, 1.52611, 1.52412, 1.52154, 1.52014, 1.51638, 1.51466, 1.50845, 1.50364, 1.50238, 1.50226, 1.50151, 1.49965, 1.49667, 1.4952, 1.49294, 1.49241, 1.49072, 1.48834, 1.48721, 1.48247, 1.48268, 1.47957, 1.47549, 1.4741, 1.4719, 1.4713, 1.4684, 1.46656, 1.46487, 1.46264, 1.46163, 1.46077, 1.4615, 1.46304, 1.46402, 1.46348, 1.4778, 1.50905, 1.50886, 1.53848, 1.55823, 1.50623, 1.49588, 1.46454, 1.46741, 1.4629, 1.4924, 1.47909, 1.4891, 1.47159, 1.4417, 1.446, 1.4446, 1.4342, 1.42688, 1.4235, 1.41812, 1.41736, 1.41189, 1.41039, 1.41044, 1.41046, 1.40508, 1.40517, 1.40235, 1.40008, 1.40022, 1.39928, 1.39803, 1.39633, 1.39154, 1.3917, 1.39558, 1.38781, 1.38715, 1.38628, 1.38246, 1.3814, 1.37806, 1.37598, 1.37465, 1.37664, 1.37445, 1.37409, 1.3713, 1.37192, 1.3703, 1.36953, 1.36854, 1.36388, 1.3622, 1.3557, 1.35452, 1.35102, 1.35153, 1.34735, 1.34839, 1.35416, 1.34634, 1.34655, 1.34766, 1.34763, 1.34509, 1.34293, 1.34124, 1.34083, 1.34134, 1.33765, 1.33552, 1.3335, 1.33223, 1.3364, 1.32577, 1.32584, 1.33731, 1.33969, 1.32114, 1.3072, 1.39695, 1.4201, 1.48472, 1.52148, 1.60325, 1.6862, 1.58994, 1.50367, 1.31648, 1.27021, 1.31961, 1.31162, 1.30633, 1.30688, 1.30956, 1.31372, 1.30419, 1.30526, 1.32654, 1.30339, 1.30152, 1.29985, 1.2984, 1.29833, 1.29781, 
1.62484, 1.62227, 1.6202, 1.61708, 1.61533, 1.61412, 1.61138, 1.6114, 1.60984, 1.60719, 1.60322, 1.60263, 1.60019, 1.607, 1.59373, 1.59199, 1.58973, 1.58772, 1.58345, 1.58351, 1.58161, 1.59895, 1.57875, 1.59634, 1.66216, 1.66325, 1.84621, 1.86569, 2.10765, 1.72478, 1.59356, 1.53667, 1.57814, 1.56402, 1.56237, 1.56096, 1.56598, 1.55207, 1.54987, 1.54608, 1.54555, 1.55459, 1.53542, 1.5373, 1.53647, 1.52595, 1.52373, 1.53382, 1.51776, 1.51742, 1.51658, 1.51601, 1.51364, 1.51386, 1.52317, 1.51665, 1.50904, 1.50413, 1.49889, 1.49676, 1.49771, 1.49415, 1.49195, 1.49021, 1.48796, 1.4858, 1.48215, 1.48456, 1.4781, 1.47643, 1.47461, 1.47143, 1.46973, 1.46826, 1.46802, 1.46731, 1.46518, 1.46514, 1.46234, 1.46226, 1.46832, 1.46275, 1.47648, 1.46755, 1.46746, 1.48839, 1.49094, 1.5259, 1.48622, 1.48, 1.45455, 1.4624, 1.47065, 1.46649, 1.48802, 1.46639, 1.51714, 1.47216, 1.43153, 1.44657, 1.42576, 1.42064, 1.41645, 1.41276, 1.40943, 1.40833, 1.40811, 1.40808, 1.42321, 1.40413, 1.40385, 1.40343, 1.40097, 1.39991, 1.3978, 1.39312, 1.39269, 1.39355, 1.38967, 1.38601, 1.38492, 1.38508, 1.38244, 1.38415, 1.38023, 1.37753, 1.37595, 1.37241, 1.37188, 1.37075, 1.36814, 1.36442, 1.36198, 1.35783, 1.35816, 1.35547, 1.35467, 1.35345, 1.34731, 1.34723, 1.34525, 1.34463, 1.34334, 1.34701, 1.34185, 1.34107, 1.34428, 1.34233, 1.34179, 1.34272, 1.34138, 1.33713, 1.33628, 1.33783, 1.35478, 1.33363, 1.33185, 1.32834, 1.33447, 1.32773, 1.34345, 1.32689, 1.33341, 1.33229, 1.31547, 1.2977, 1.3751, 1.38533, 1.50138, 1.59624, 1.60652, 1.8663, 1.60762, 1.45129, 1.40748, 1.2778, 1.29556, 1.30976, 1.30178, 1.30822, 1.31655, 1.30131, 1.29882, 1.30002, 1.30081, 1.31447, 1.29564, 1.29438, 1.28999, 1.28954, 1.28878, 
1.61721, 1.61703, 1.61552, 1.61362, 1.61216, 1.60766, 1.60417, 1.60643, 1.60229, 1.59631, 1.59639, 1.59459, 1.59333, 1.59088, 1.58876, 1.58821, 1.59212, 1.58293, 1.57851, 1.58416, 1.57596, 1.58303, 1.56418, 1.55272, 1.65433, 1.73073, 1.9075, 1.98715, 2.00311, 1.94561, 1.58999, 1.547, 1.54718, 1.56199, 1.55788, 1.54874, 1.54481, 1.54038, 1.53781, 1.53585, 1.53062, 1.52695, 1.52102, 1.52099, 1.5232, 1.53382, 1.51308, 1.51543, 1.51003, 1.50673, 1.50513, 1.50412, 1.5033, 1.50228, 1.50002, 1.49973, 1.49622, 1.49412, 1.49333, 1.49027, 1.48787, 1.48568, 1.48255, 1.48341, 1.47771, 1.47523, 1.4733, 1.47043, 1.46886, 1.46749, 1.46606, 1.4659, 1.46855, 1.46097, 1.45787, 1.45457, 1.45323, 1.45156, 1.45024, 1.44845, 1.4513, 1.45008, 1.45176, 1.45759, 1.4592, 1.46225, 1.45454, 1.47399, 1.48459, 1.47511, 1.45877, 1.46056, 1.47217, 1.46862, 1.46741, 1.46981, 1.45832, 1.45789, 1.42833, 1.44066, 1.42359, 1.41997, 1.41246, 1.41477, 1.40853, 1.41278, 1.40003, 1.39618, 1.39619, 1.39467, 1.39551, 1.39535, 1.39103, 1.39051, 1.38886, 1.38577, 1.38467, 1.38395, 1.37972, 1.37832, 1.37668, 1.37394, 1.3729, 1.37031, 1.36803, 1.37001, 1.36796, 1.36479, 1.36425, 1.37096, 1.36122, 1.36051, 1.36034, 1.35672, 1.35609, 1.35115, 1.3477, 1.34694, 1.34277, 1.33811, 1.34022, 1.34703, 1.33427, 1.33534, 1.33551, 1.33395, 1.3363, 1.33378, 1.33378, 1.33598, 1.33415, 1.33211, 1.33183, 1.329, 1.32774, 1.32671, 1.3233, 1.32153, 1.32019, 1.32297, 1.31803, 1.31679, 1.319, 1.32227, 1.32389, 1.28406, 1.30856, 1.37829, 1.45039, 1.5545, 1.67592, 1.68254, 1.58832, 1.49172, 1.28916, 1.26403, 1.28242, 1.30187, 1.29916, 1.29287, 1.29605, 1.29417, 1.293, 1.28998, 1.28876, 1.28622, 1.28443, 1.28475, 1.30197, 1.28115, 1.28135, 
1.61635, 1.61357, 1.6111, 1.60847, 1.6048, 1.60708, 1.60128, 1.59898, 1.59714, 1.59277, 1.59017, 1.58733, 1.58546, 1.58482, 1.58315, 1.5815, 1.58903, 1.59705, 1.58876, 1.57672, 1.58552, 1.58297, 1.57693, 1.57617, 1.62365, 1.69344, 1.77284, 1.83791, 1.92718, 1.9196, 1.66156, 1.5406, 1.54053, 1.54874, 1.55362, 1.5483, 1.5379, 1.54324, 1.54144, 1.54339, 1.5287, 1.52735, 1.52412, 1.52574, 1.52007, 1.51635, 1.51409, 1.51737, 1.50793, 1.50467, 1.50189, 1.50096, 1.49927, 1.49849, 1.49653, 1.49574, 1.49324, 1.49211, 1.48996, 1.4882, 1.486, 1.48799, 1.47896, 1.47756, 1.47557, 1.47234, 1.47899, 1.46871, 1.46736, 1.47158, 1.46241, 1.46055, 1.45923, 1.45757, 1.45504, 1.45175, 1.45041, 1.44768, 1.44661, 1.44714, 1.44611, 1.45228, 1.45867, 1.4599, 1.46145, 1.45116, 1.45194, 1.46826, 1.47295, 1.49549, 1.45651, 1.45891, 1.4541, 1.45036, 1.46564, 1.47143, 1.46341, 1.45573, 1.45436, 1.4336, 1.43729, 1.42654, 1.41715, 1.41322, 1.41316, 1.41035, 1.40768, 1.39229, 1.39054, 1.38891, 1.38801, 1.38758, 1.38693, 1.38608, 1.38836, 1.38395, 1.38336, 1.37943, 1.37617, 1.37456, 1.37201, 1.37073, 1.36929, 1.36608, 1.36421, 1.36329, 1.35875, 1.36062, 1.35953, 1.35893, 1.35627, 1.35497, 1.35481, 1.35196, 1.35192, 1.35286, 1.35358, 1.35194, 1.34795, 1.34639, 1.34691, 1.34436, 1.34274, 1.34129, 1.33992, 1.33851, 1.33657, 1.33386, 1.33186, 1.33073, 1.32891, 1.32943, 1.32942, 1.32862, 1.32825, 1.32594, 1.32331, 1.33915, 1.32338, 1.34037, 1.33227, 1.33848, 1.33598, 1.32977, 1.32584, 1.31015, 1.30168, 1.31982, 1.40322, 1.46178, 1.62613, 1.66829, 1.60048, 1.36555, 1.34075, 1.27906, 1.28569, 1.32951, 1.31111, 1.29639, 1.29454, 1.29085, 1.29196, 1.29008, 1.2894, 1.29872, 1.29686, 1.28634, 1.28534, 1.28363, 1.30757, 
1.5868, 1.58561, 1.58295, 1.58292, 1.5826, 1.5836, 1.57467, 1.57178, 1.5679, 1.56486, 1.56113, 1.55844, 1.55708, 1.55766, 1.55554, 1.55185, 1.5501, 1.55135, 1.5575, 1.5492, 1.55346, 1.56258, 1.56434, 1.52894, 1.56938, 1.66312, 1.71767, 1.84441, 1.9348, 1.93792, 1.59258, 1.49159, 1.50697, 1.51719, 1.51412, 1.51359, 1.51176, 1.52118, 1.49917, 1.49713, 1.49576, 1.50306, 1.49757, 1.49753, 1.49373, 1.49296, 1.49262, 1.48954, 1.48836, 1.48585, 1.48375, 1.48205, 1.48175, 1.47861, 1.47563, 1.47327, 1.46662, 1.46477, 1.46031, 1.45766, 1.4569, 1.45821, 1.46125, 1.45565, 1.45759, 1.45148, 1.44587, 1.44529, 1.44598, 1.44121, 1.43683, 1.43711, 1.43797, 1.43159, 1.428, 1.43012, 1.43733, 1.42713, 1.42075, 1.41714, 1.41752, 1.41874, 1.43645, 1.4301, 1.43104, 1.43802, 1.44202, 1.43397, 1.43542, 1.43784, 1.44304, 1.4311, 1.43093, 1.42673, 1.41679, 1.4226, 1.44568, 1.44912, 1.41185, 1.39402, 1.39511, 1.3872, 1.38332, 1.3807, 1.3786, 1.37515, 1.37083, 1.36715, 1.365, 1.36391, 1.36362, 1.36029, 1.36206, 1.3694, 1.36957, 1.36552, 1.3713, 1.34893, 1.34749, 1.34755, 1.34762, 1.34477, 1.34426, 1.34057, 1.33933, 1.33695, 1.33762, 1.33608, 1.33543, 1.33377, 1.33207, 1.32957, 1.32749, 1.32168, 1.32694, 1.32094, 1.31856, 1.31916, 1.31626, 1.31167, 1.30959, 1.31324, 1.32154, 1.31893, 1.3115, 1.30559, 1.29983, 1.30283, 1.29934, 1.29832, 1.29817, 1.30066, 1.30017, 1.30164, 1.30287, 1.29896, 1.3023, 1.29281, 1.29109, 1.28865, 1.28725, 1.28462, 1.28596, 1.28542, 1.28871, 1.30783, 1.26542, 1.38124, 1.38504, 1.54094, 1.56455, 1.6028, 1.83462, 1.49603, 1.35541, 1.27139, 1.2546, 1.27195, 1.27699, 1.2761, 1.28401, 1.27293, 1.29208, 1.27531, 1.26159, 1.25722, 1.25782, 1.25262, 1.25059, 1.24819, 1.24685, 
1.606, 1.63841, 1.59892, 1.59772, 1.616, 1.59334, 1.5934, 1.58915, 1.59143, 1.58588, 1.58277, 1.58005, 1.57673, 1.57539, 1.57237, 1.56926, 1.56883, 1.56769, 1.56839, 1.57853, 1.57213, 1.58974, 1.57152, 1.55027, 1.54834, 1.60244, 1.73285, 1.90672, 1.93047, 1.78517, 1.60462, 1.51342, 1.52909, 1.53831, 1.5383, 1.54045, 1.52088, 1.52576, 1.52234, 1.53011, 1.51695, 1.51736, 1.51378, 1.5126, 1.50949, 1.50573, 1.50347, 1.49959, 1.4935, 1.4886, 1.48771, 1.4892, 1.48951, 1.49075, 1.48698, 1.48561, 1.48386, 1.48839, 1.47958, 1.47829, 1.4767, 1.47254, 1.47139, 1.46587, 1.46272, 1.45947, 1.45759, 1.45664, 1.4545, 1.45727, 1.45082, 1.44746, 1.44779, 1.44426, 1.44408, 1.44074, 1.4428, 1.43828, 1.45771, 1.43629, 1.43644, 1.4369, 1.438, 1.44097, 1.45793, 1.44645, 1.46455, 1.45276, 1.45651, 1.47187, 1.44021, 1.43957, 1.45986, 1.43885, 1.4361, 1.44564, 1.43824, 1.44743, 1.42815, 1.4369, 1.43511, 1.41355, 1.40338, 1.40199, 1.40298, 1.39307, 1.40072, 1.39424, 1.3871, 1.40194, 1.38549, 1.38086, 1.37987, 1.37849, 1.37571, 1.37476, 1.37456, 1.37161, 1.36893, 1.36745, 1.36797, 1.36483, 1.36137, 1.35902, 1.35817, 1.35659, 1.3548, 1.35686, 1.35403, 1.35013, 1.34691, 1.35005, 1.3446, 1.34383, 1.34269, 1.34281, 1.35155, 1.33843, 1.33731, 1.33441, 1.34158, 1.33307, 1.32946, 1.32738, 1.32878, 1.3232, 1.32379, 1.3215, 1.32037, 1.31966, 1.31902, 1.3151, 1.31413, 1.31268, 1.31562, 1.31628, 1.32998, 1.31975, 1.33366, 1.32391, 1.33314, 1.3059, 1.30852, 1.30649, 1.3122, 1.3196, 1.29901, 1.31614, 1.38581, 1.43304, 1.54677, 1.57575, 1.54718, 1.47983, 1.40795, 1.30279, 1.28516, 1.29183, 1.30022, 1.29302, 1.29326, 1.28568, 1.28195, 1.28181, 1.29184, 1.28913, 1.28959, 1.29587, 1.28462, 1.28814, 1.26966, 
1.59146, 1.60316, 1.58949, 1.59297, 1.59158, 1.5945, 1.59175, 1.58788, 1.58373, 1.58024, 1.57586, 1.57297, 1.57076, 1.5701, 1.56968, 1.56938, 1.56715, 1.56549, 1.55936, 1.55638, 1.55618, 1.56625, 1.55547, 1.56588, 1.55821, 1.61781, 1.70176, 1.89232, 1.96577, 1.94541, 1.74829, 1.51662, 1.52798, 1.53955, 1.53406, 1.54172, 1.52074, 1.51864, 1.51766, 1.51483, 1.51745, 1.52222, 1.50582, 1.50676, 1.49922, 1.50252, 1.49662, 1.49471, 1.49285, 1.48862, 1.48716, 1.48588, 1.48407, 1.48094, 1.47926, 1.47732, 1.47768, 1.47505, 1.47447, 1.47245, 1.46948, 1.46929, 1.46737, 1.46774, 1.45875, 1.45452, 1.45258, 1.45019, 1.45121, 1.44925, 1.44757, 1.44677, 1.44684, 1.44093, 1.43867, 1.43711, 1.43633, 1.43653, 1.43684, 1.44138, 1.43477, 1.43821, 1.43674, 1.44039, 1.45053, 1.43729, 1.44045, 1.44354, 1.4661, 1.44295, 1.45205, 1.44419, 1.433, 1.4419, 1.43153, 1.43647, 1.43719, 1.43155, 1.43338, 1.42833, 1.43301, 1.40983, 1.41664, 1.39689, 1.38999, 1.38754, 1.38638, 1.38409, 1.38481, 1.37657, 1.37291, 1.37103, 1.36959, 1.36891, 1.36758, 1.36567, 1.36543, 1.36362, 1.36359, 1.3612, 1.3595, 1.35748, 1.35956, 1.35546, 1.35614, 1.35267, 1.35096, 1.35, 1.34926, 1.34968, 1.34679, 1.34364, 1.34324, 1.34048, 1.33919, 1.33699, 1.33658, 1.33833, 1.33718, 1.33618, 1.33354, 1.335, 1.33059, 1.32793, 1.32502, 1.32356, 1.31966, 1.31839, 1.31866, 1.31629, 1.31541, 1.3136, 1.31548, 1.31582, 1.31538, 1.31086, 1.31035, 1.30907, 1.31063, 1.30107, 1.29962, 1.29944, 1.29604, 1.29612, 1.30529, 1.29921, 1.29285, 1.30854, 1.36627, 1.41315, 1.59161, 1.65963, 1.79577, 1.50047, 1.49711, 1.48856, 1.48328, 1.46745, 1.39623, 1.36133, 1.30521, 1.27236, 1.27229, 1.27179, 1.27261, 1.2743, 1.27315, 1.27381, 1.27444, 1.26737, 1.26809, 
1.58477, 1.58516, 1.58304, 1.58298, 1.58121, 1.57905, 1.57719, 1.57337, 1.572, 1.5678, 1.56398, 1.56172, 1.55847, 1.5586, 1.55537, 1.55527, 1.55285, 1.55192, 1.55711, 1.54952, 1.54799, 1.55744, 1.54552, 1.54173, 1.51788, 1.61176, 1.66862, 1.59504, 1.64913, 1.67473, 1.72512, 1.50275, 1.51324, 1.52355, 1.53684, 1.50736, 1.50584, 1.50307, 1.50197, 1.50136, 1.49999, 1.49835, 1.49862, 1.49723, 1.49498, 1.4942, 1.49157, 1.49118, 1.48618, 1.48388, 1.48364, 1.47981, 1.47538, 1.47217, 1.46973, 1.46696, 1.46424, 1.4623, 1.4606, 1.45685, 1.45115, 1.45043, 1.4501, 1.45128, 1.44927, 1.44772, 1.44586, 1.44461, 1.44337, 1.43962, 1.43861, 1.45078, 1.43843, 1.43615, 1.43519, 1.4305, 1.43048, 1.43013, 1.42697, 1.42465, 1.44432, 1.43296, 1.43058, 1.43768, 1.44256, 1.44091, 1.44686, 1.45087, 1.43404, 1.43204, 1.42433, 1.42198, 1.44281, 1.42135, 1.4293, 1.41842, 1.44177, 1.41244, 1.40477, 1.39869, 1.39562, 1.40424, 1.3869, 1.39176, 1.37856, 1.37094, 1.36722, 1.36496, 1.36205, 1.36816, 1.3612, 1.35876, 1.35883, 1.35858, 1.36015, 1.35613, 1.35589, 1.35407, 1.35381, 1.35303, 1.35291, 1.35251, 1.34838, 1.34998, 1.34463, 1.34245, 1.34153, 1.3397, 1.33502, 1.33336, 1.33002, 1.32699, 1.32712, 1.32669, 1.32572, 1.33721, 1.3231, 1.31939, 1.32589, 1.31992, 1.32248, 1.31953, 1.31928, 1.31679, 1.31396, 1.32154, 1.31046, 1.30999, 1.30766, 1.30542, 1.30467, 1.30921, 1.30314, 1.30516, 1.30137, 1.29849, 1.29523, 1.29596, 1.28847, 1.28796, 1.29258, 1.2999, 1.2851, 1.28508, 1.28926, 1.28662, 1.28773, 1.2693, 1.3163, 1.42645, 1.5646, 1.52753, 1.48897, 1.49734, 1.51927, 1.39311, 1.29528, 1.26792, 1.27304, 1.26391, 1.26243, 1.26318, 1.2848, 1.26843, 1.26105, 1.2605, 1.26047, 1.25728, 1.25365, 1.25153, 1.25251, 
1.58292, 1.58217, 1.5857, 1.5777, 1.57369, 1.57458, 1.56942, 1.57071, 1.56673, 1.56118, 1.56164, 1.5534, 1.55357, 1.55258, 1.55111, 1.56256, 1.56625, 1.54459, 1.54067, 1.54038, 1.54691, 1.53801, 1.54431, 1.55048, 1.52406, 1.58576, 1.67305, 1.71325, 1.68721, 1.72012, 1.75857, 1.52338, 1.50208, 1.50848, 1.50199, 1.50756, 1.50484, 1.50385, 1.50276, 1.50538, 1.50307, 1.50015, 1.49689, 1.49417, 1.49099, 1.48825, 1.48336, 1.47906, 1.47648, 1.47771, 1.47063, 1.47384, 1.46852, 1.48294, 1.46519, 1.4644, 1.46295, 1.46082, 1.46274, 1.45464, 1.45029, 1.44653, 1.44646, 1.44403, 1.44221, 1.44007, 1.43897, 1.43762, 1.43521, 1.43398, 1.43365, 1.43391, 1.43057, 1.43027, 1.42658, 1.42152, 1.42154, 1.41882, 1.4307, 1.42362, 1.41994, 1.43319, 1.4203, 1.42257, 1.42409, 1.43381, 1.42747, 1.43888, 1.44111, 1.43396, 1.44706, 1.42971, 1.42426, 1.41724, 1.42985, 1.41855, 1.41245, 1.40631, 1.41922, 1.40234, 1.38917, 1.40543, 1.39613, 1.3789, 1.38286, 1.37068, 1.36797, 1.36604, 1.37134, 1.36185, 1.36026, 1.36359, 1.37827, 1.35486, 1.35351, 1.35021, 1.35791, 1.34974, 1.35169, 1.35067, 1.34728, 1.34601, 1.34657, 1.34392, 1.34278, 1.34522, 1.33773, 1.33503, 1.33509, 1.33224, 1.32989, 1.32804, 1.3372, 1.33947, 1.32413, 1.33683, 1.31999, 1.31663, 1.31658, 1.31521, 1.3114, 1.31382, 1.31127, 1.31159, 1.31113, 1.30888, 1.30679, 1.30459, 1.30273, 1.30815, 1.30315, 1.32939, 1.30193, 1.30105, 1.30798, 1.30078, 1.31918, 1.31213, 1.30279, 1.30551, 1.30478, 1.2995, 1.29194, 1.29285, 1.28516, 1.28547, 1.2948, 1.25023, 1.31819, 1.31977, 1.50331, 1.80011, 1.79981, 1.79067, 1.49919, 1.31147, 1.2877, 1.26631, 1.27262, 1.2663, 1.26798, 1.26041, 1.25741, 1.25416, 1.25824, 1.25312, 1.25754, 1.24866, 1.24951, 1.24428, 1.24439, 
