1.63436, 1.61738, 1.60356, 1.60127, 1.59811, 1.58671, 1.59077, 1.59045, 1.59217, 1.58043, 1.60621, 1.60623, 1.60973, 1.65361, 1.70302, 1.58973, 1.53007, 1.56248, 1.55481, 1.53862, 1.53575, 1.55753, 1.52827, 1.51578, 1.50978, 1.50758, 1.50398, 1.50079, 1.49905, 1.4979, 1.49556, 1.48836, 1.48172, 1.47868, 1.47421, 1.47004, 1.47208, 1.4586, 1.45611, 1.45459, 1.45044, 1.45422, 1.45279, 1.44905, 1.44406, 1.53652, 1.7691, 1.79229, 1.65543, 1.39618, 1.42254, 1.42504, 1.41349, 1.41216, 1.40959, 1.40167, 1.39882, 1.39372, 1.39188, 1.38925, 1.38056, 1.3786, 1.37366, 1.37063, 1.36896, 1.36241, 1.36257, 1.35666, 1.3568, 1.35569, 1.3543, 1.35766, 1.33982, 1.34308, 1.33462, 1.33104, 1.32927, 1.32364, 1.32072, 1.31958, 1.31817, 1.31477, 1.31353, 1.31892, 1.32121, 1.33634, 1.34141, 1.33424, 1.33989, 1.34367, 1.34534, 1.37742, 1.33389, 1.31952, 1.29643, 1.28527, 1.27987, 1.27904, 1.28206, 1.27949, 1.27513, 1.28618, 
1.66822, 1.61803, 1.61184, 1.61463, 1.61283, 1.60041, 1.60003, 1.60395, 1.60779, 1.58051, 1.623, 1.62957, 1.66843, 1.72135, 1.7082, 1.63814, 1.56221, 1.56749, 1.5474, 1.55563, 1.55386, 1.55889, 1.54671, 1.53174, 1.51659, 1.51619, 1.51361, 1.50801, 1.50529, 1.50153, 1.4932, 1.49259, 1.48985, 1.48848, 1.50699, 1.4819, 1.4749, 1.46994, 1.47508, 1.46127, 1.45691, 1.45578, 1.45777, 1.44379, 1.4467, 1.53149, 1.71372, 1.75097, 1.69565, 1.43409, 1.42679, 1.4397, 1.43455, 1.41938, 1.41051, 1.40029, 1.3999, 1.39479, 1.3911, 1.38908, 1.38972, 1.388, 1.38434, 1.37885, 1.37622, 1.37597, 1.36871, 1.37074, 1.362, 1.35831, 1.35545, 1.35229, 1.34897, 1.3499, 1.34412, 1.3421, 1.34046, 1.34011, 1.33803, 1.35137, 1.33802, 1.33908, 1.33952, 1.33101, 1.33353, 1.33202, 1.33848, 1.34616, 1.38045, 1.36002, 1.37387, 1.34406, 1.31985, 1.30256, 1.30889, 1.29923, 1.28119, 1.28019, 1.27891, 1.27796, 1.28101, 1.28667, 
1.66758, 1.67603, 1.63732, 1.62066, 1.62354, 1.623, 1.6072, 1.61303, 1.61023, 1.61248, 1.62519, 1.65578, 1.67197, 1.69802, 1.64157, 1.57314, 1.57737, 1.57224, 1.5671, 1.54846, 1.54559, 1.57889, 1.56579, 1.5516, 1.54366, 1.52807, 1.51958, 1.51887, 1.51354, 1.51005, 1.50643, 1.50307, 1.5024, 1.49313, 1.49241, 1.48827, 1.48987, 1.48184, 1.47917, 1.47741, 1.47143, 1.46977, 1.47541, 1.44561, 1.46138, 1.51995, 1.61425, 1.74624, 1.62615, 1.46132, 1.45118, 1.44546, 1.43729, 1.42961, 1.41938, 1.42979, 1.41553, 1.41231, 1.41373, 1.40671, 1.40252, 1.39705, 1.39453, 1.38943, 1.38905, 1.38507, 1.38336, 1.40512, 1.37692, 1.37181, 1.3696, 1.36877, 1.36052, 1.36143, 1.3481, 1.3472, 1.3492, 1.35296, 1.35266, 1.34978, 1.3508, 1.34452, 1.34173, 1.34161, 1.34209, 1.35977, 1.35133, 1.35748, 1.36439, 1.37792, 1.41696, 1.37171, 1.30732, 1.32734, 1.3227, 1.31056, 1.29896, 1.29792, 1.30643, 1.2971, 1.29475, 1.28973, 
1.63922, 1.64249, 1.63636, 1.63505, 1.62652, 1.61997, 1.623, 1.62405, 1.623, 1.5901, 1.63882, 1.65629, 1.71306, 1.80787, 1.71369, 1.70335, 1.58534, 1.57606, 1.56882, 1.56806, 1.55203, 1.54765, 1.54372, 1.56021, 1.55907, 1.54692, 1.53606, 1.5367, 1.52539, 1.51861, 1.51591, 1.51121, 1.50363, 1.50068, 1.49716, 1.49269, 1.48864, 1.48895, 1.48507, 1.49213, 1.48615, 1.48686, 1.47625, 1.47368, 1.47138, 1.54251, 1.63397, 1.71843, 1.67957, 1.44644, 1.43928, 1.44742, 1.44433, 1.43408, 1.42638, 1.42454, 1.41954, 1.4241, 1.41604, 1.41409, 1.40959, 1.41553, 1.40362, 1.39922, 1.39463, 1.39479, 1.39377, 1.39183, 1.39027, 1.38822, 1.38384, 1.37669, 1.36802, 1.36286, 1.3622, 1.3599, 1.35664, 1.35353, 1.35239, 1.34863, 1.34874, 1.34657, 1.34294, 1.35306, 1.36869, 1.34395, 1.35237, 1.37455, 1.3944, 1.38907, 1.45967, 1.39347, 1.34638, 1.32073, 1.3259, 1.31583, 1.31212, 1.30672, 1.30218, 1.29868, 1.29964, 1.29692, 
1.65206, 1.64792, 1.65418, 1.64839, 1.64895, 1.62622, 1.63427, 1.62073, 1.61523, 1.59594, 1.64874, 1.69857, 1.73227, 1.74733, 1.72155, 1.68041, 1.57649, 1.58696, 1.5756, 1.56733, 1.5584, 1.56513, 1.56887, 1.54928, 1.54608, 1.54952, 1.53347, 1.53709, 1.53716, 1.53492, 1.52266, 1.51776, 1.51622, 1.50996, 1.50597, 1.50226, 1.49903, 1.49553, 1.4913, 1.48692, 1.47975, 1.47785, 1.49052, 1.4653, 1.47853, 1.56925, 1.64093, 1.68556, 1.63432, 1.46398, 1.40648, 1.44427, 1.44737, 1.43743, 1.43105, 1.42522, 1.42056, 1.41686, 1.41357, 1.41852, 1.41186, 1.40942, 1.4051, 1.40094, 1.3981, 1.39368, 1.39511, 1.38829, 1.38807, 1.38663, 1.38332, 1.38482, 1.38128, 1.37678, 1.37137, 1.369, 1.36528, 1.36485, 1.36461, 1.36431, 1.36204, 1.35613, 1.35169, 1.34517, 1.35846, 1.34806, 1.37524, 1.41562, 1.39232, 1.3981, 1.41695, 1.41727, 1.38537, 1.33894, 1.32751, 1.3185, 1.31243, 1.31175, 1.31888, 1.3051, 1.30295, 1.30885, 
1.64779, 1.64675, 1.64748, 1.648, 1.67551, 1.64928, 1.63482, 1.63223, 1.63314, 1.60682, 1.67473, 1.73732, 1.74264, 1.78588, 1.75064, 1.7247, 1.56977, 1.59566, 1.59513, 1.57927, 1.57489, 1.57239, 1.56254, 1.55836, 1.5544, 1.55819, 1.57522, 1.54178, 1.53572, 1.53257, 1.54381, 1.52275, 1.51975, 1.51593, 1.51256, 1.50836, 1.50353, 1.49884, 1.49601, 1.49356, 1.49074, 1.48731, 1.48576, 1.48524, 1.47014, 1.56113, 1.60085, 1.67926, 1.67507, 1.55787, 1.42277, 1.46441, 1.4645, 1.45126, 1.44296, 1.43165, 1.4302, 1.4272, 1.42306, 1.42253, 1.41871, 1.4184, 1.41652, 1.41295, 1.40692, 1.40544, 1.40245, 1.40121, 1.39437, 1.39369, 1.39304, 1.38851, 1.38546, 1.37899, 1.37742, 1.37818, 1.37233, 1.3743, 1.3678, 1.36655, 1.36523, 1.36385, 1.35941, 1.35858, 1.35821, 1.35692, 1.34882, 1.39408, 1.42091, 1.42439, 1.44656, 1.44324, 1.35149, 1.35257, 1.34364, 1.33685, 1.31659, 1.3164, 1.3194, 1.31033, 1.30812, 1.30763, 
1.66326, 1.661, 1.65601, 1.6513, 1.64415, 1.65542, 1.66104, 1.64161, 1.63776, 1.61185, 1.66515, 1.67172, 1.75802, 1.8176, 1.75135, 1.69701, 1.58311, 1.5938, 1.59812, 1.5753, 1.57174, 1.56862, 1.56524, 1.56157, 1.55942, 1.56622, 1.55466, 1.56213, 1.55389, 1.53545, 1.53832, 1.52899, 1.52486, 1.52086, 1.51853, 1.51446, 1.51261, 1.50738, 1.50226, 1.49894, 1.49653, 1.5004, 1.48942, 1.50054, 1.51, 1.57571, 1.61421, 1.683, 1.67533, 1.57957, 1.47611, 1.47142, 1.47588, 1.46299, 1.4502, 1.45216, 1.43967, 1.43465, 1.42903, 1.42567, 1.42341, 1.4215, 1.43117, 1.41652, 1.41387, 1.41385, 1.40995, 1.40839, 1.40351, 1.40129, 1.40573, 1.39155, 1.38924, 1.3838, 1.37788, 1.37393, 1.37176, 1.36626, 1.3651, 1.36103, 1.36136, 1.36042, 1.35993, 1.36159, 1.36803, 1.36791, 1.39741, 1.41739, 1.43342, 1.51405, 1.45352, 1.45476, 1.3858, 1.31717, 1.34454, 1.32691, 1.32336, 1.32225, 1.32009, 1.31697, 1.33481, 1.32354, 
1.66477, 1.66227, 1.65534, 1.65102, 1.64858, 1.65872, 1.66215, 1.65382, 1.6383, 1.61524, 1.64225, 1.73426, 1.75726, 1.81425, 1.7858, 1.70485, 1.58045, 1.60999, 1.59422, 1.58551, 1.58557, 1.57777, 1.57272, 1.57144, 1.57517, 1.5643, 1.55886, 1.57477, 1.56073, 1.54152, 1.53815, 1.53657, 1.53282, 1.53143, 1.52648, 1.5249, 1.53463, 1.51388, 1.50996, 1.50564, 1.50295, 1.52315, 1.5001, 1.5036, 1.47136, 1.5316, 1.68999, 1.68159, 1.67588, 1.54718, 1.48936, 1.46872, 1.47458, 1.46855, 1.46074, 1.45816, 1.44975, 1.44586, 1.44025, 1.4381, 1.43657, 1.43341, 1.42861, 1.42452, 1.42049, 1.41821, 1.4157, 1.41309, 1.40935, 1.40687, 1.40388, 1.40066, 1.39745, 1.39175, 1.38598, 1.38955, 1.38013, 1.38115, 1.3763, 1.37448, 1.37229, 1.37098, 1.37178, 1.37854, 1.38539, 1.38955, 1.3603, 1.43799, 1.45248, 1.46104, 1.47209, 1.45699, 1.43142, 1.34129, 1.3493, 1.34404, 1.32815, 1.32942, 1.32838, 1.32273, 1.32329, 1.3199, 
1.66769, 1.66252, 1.65581, 1.65334, 1.64523, 1.65096, 1.63736, 1.66116, 1.66134, 1.62053, 1.60898, 1.72251, 1.77678, 1.81651, 1.8218, 1.78412, 1.59587, 1.60439, 1.58598, 1.57815, 1.58174, 1.57244, 1.56761, 1.56251, 1.55847, 1.5574, 1.55256, 1.5478, 1.55364, 1.55101, 1.54384, 1.52826, 1.53802, 1.52763, 1.52691, 1.5166, 1.51135, 1.50607, 1.49407, 1.48936, 1.48963, 1.4918, 1.48852, 1.48986, 1.48249, 1.54125, 1.63433, 1.6698, 1.61689, 1.61996, 1.51673, 1.43373, 1.46927, 1.45603, 1.45194, 1.4379, 1.43642, 1.43271, 1.43244, 1.42939, 1.42827, 1.42427, 1.41794, 1.417, 1.41937, 1.41692, 1.41871, 1.41531, 1.40781, 1.4065, 1.4054, 1.40146, 1.39967, 1.39855, 1.39233, 1.38849, 1.38464, 1.37897, 1.38455, 1.37575, 1.37193, 1.3798, 1.36781, 1.36437, 1.3857, 1.36876, 1.36374, 1.39398, 1.43499, 1.47393, 1.48858, 1.4916, 1.49607, 1.36219, 1.35971, 1.34296, 1.33619, 1.34678, 1.33038, 1.32674, 1.32111, 1.34396, 
1.67797, 1.67067, 1.65926, 1.65634, 1.65725, 1.65848, 1.66222, 1.65465, 1.64839, 1.63142, 1.6069, 1.69739, 1.76497, 1.83437, 1.83764, 1.74506, 1.60974, 1.60676, 1.60662, 1.61058, 1.59773, 1.58059, 1.58622, 1.57236, 1.56976, 1.56216, 1.56076, 1.56132, 1.55602, 1.55469, 1.57121, 1.56479, 1.55466, 1.53013, 1.54357, 1.52824, 1.52157, 1.52959, 1.53086, 1.52223, 1.52074, 1.50591, 1.50808, 1.50949, 1.48921, 1.51583, 1.63714, 1.6615, 1.65181, 1.61733, 1.4854, 1.46048, 1.47029, 1.47508, 1.47013, 1.46082, 1.46556, 1.46418, 1.45122, 1.44718, 1.43798, 1.43419, 1.42663, 1.43233, 1.43303, 1.42791, 1.42651, 1.41941, 1.42298, 1.41528, 1.41166, 1.40616, 1.40616, 1.39917, 1.39855, 1.39581, 1.3965, 1.3908, 1.38646, 1.3821, 1.37841, 1.3856, 1.38345, 1.38168, 1.37933, 1.38385, 1.35724, 1.43326, 1.46773, 1.5161, 1.50458, 1.51577, 1.44758, 1.37479, 1.34709, 1.34828, 1.33819, 1.34101, 1.35672, 1.33239, 1.34025, 1.32643, 
1.67627, 1.67879, 1.66647, 1.66124, 1.65841, 1.65672, 1.65227, 1.64595, 1.64014, 1.63529, 1.6031, 1.72055, 1.7863, 1.84034, 1.85806, 1.69161, 1.60659, 1.61039, 1.6163, 1.60398, 1.59003, 1.60237, 1.58148, 1.57496, 1.57348, 1.56994, 1.57559, 1.56135, 1.56105, 1.57113, 1.56281, 1.55811, 1.55862, 1.54779, 1.54341, 1.52738, 1.5488, 1.524, 1.51832, 1.51383, 1.51219, 1.50944, 1.50975, 1.51706, 1.51752, 1.57188, 1.61656, 1.65115, 1.66147, 1.61024, 1.54159, 1.45433, 1.47758, 1.47822, 1.49715, 1.47167, 1.47186, 1.4583, 1.44905, 1.45352, 1.43731, 1.43695, 1.43676, 1.43333, 1.43462, 1.42731, 1.42261, 1.42307, 1.41792, 1.41667, 1.41296, 1.4105, 1.40748, 1.40263, 1.39929, 1.39616, 1.39393, 1.39115, 1.39231, 1.38875, 1.38565, 1.39401, 1.38915, 1.3781, 1.38144, 1.39274, 1.37879, 1.38045, 1.46109, 1.50705, 1.53484, 1.54002, 1.46927, 1.34433, 1.36483, 1.35187, 1.3618, 1.34768, 1.34388, 1.33378, 1.33325, 1.33966, 
1.67121, 1.67083, 1.66888, 1.66122, 1.65277, 1.64622, 1.64261, 1.64055, 1.6448, 1.64437, 1.60047, 1.65533, 1.76232, 1.8205, 1.85626, 1.71522, 1.5884, 1.59787, 1.60241, 1.59552, 1.5802, 1.5941, 1.58399, 1.57259, 1.56408, 1.55821, 1.55822, 1.54836, 1.55353, 1.56151, 1.53723, 1.53545, 1.55009, 1.52743, 1.52649, 1.52092, 1.53816, 1.51571, 1.51202, 1.50318, 1.49792, 1.49339, 1.49375, 1.49683, 1.4603, 1.47512, 1.59294, 1.62608, 1.63348, 1.57782, 1.53882, 1.44037, 1.46726, 1.4609, 1.46084, 1.4614, 1.4378, 1.43674, 1.43907, 1.43249, 1.43323, 1.42991, 1.42775, 1.43122, 1.42103, 1.41956, 1.41772, 1.41063, 1.40951, 1.40974, 1.41622, 1.40073, 1.394, 1.39164, 1.38826, 1.38321, 1.37793, 1.38183, 1.37527, 1.37509, 1.3721, 1.37813, 1.38833, 1.37199, 1.372, 1.3719, 1.36852, 1.39904, 1.43113, 1.48332, 1.56522, 1.51394, 1.46707, 1.36696, 1.35492, 1.36825, 1.34555, 1.3401, 1.32593, 1.32305, 1.31993, 1.31784, 
1.65092, 1.64739, 1.64222, 1.63923, 1.63471, 1.63756, 1.62397, 1.6171, 1.61397, 1.61716, 1.59621, 1.69014, 1.71316, 1.78302, 1.87522, 1.74753, 1.64497, 1.5949, 1.58112, 1.57272, 1.568, 1.5648, 1.55803, 1.55308, 1.54982, 1.54762, 1.54555, 1.54098, 1.53652, 1.52896, 1.52672, 1.51766, 1.52631, 1.51613, 1.5246, 1.50711, 1.50529, 1.50112, 1.49896, 1.49502, 1.49184, 1.48879, 1.48523, 1.49155, 1.48489, 1.47515, 1.56456, 1.61101, 1.61359, 1.62349, 1.54564, 1.4261, 1.4633, 1.45387, 1.44967, 1.44392, 1.44968, 1.43811, 1.4262, 1.42986, 1.45193, 1.412, 1.40998, 1.40879, 1.40037, 1.39869, 1.39507, 1.39218, 1.38862, 1.38677, 1.38497, 1.38036, 1.37789, 1.37654, 1.37209, 1.37483, 1.36533, 1.35996, 1.35628, 1.35487, 1.3529, 1.35006, 1.34524, 1.34312, 1.34188, 1.34346, 1.31726, 1.37906, 1.47786, 1.49268, 1.54141, 1.53166, 1.47113, 1.30297, 1.31941, 1.33167, 1.31483, 1.31057, 1.32979, 1.30513, 1.3001, 1.30161, 
1.65485, 1.65194, 1.65072, 1.64775, 1.6449, 1.63445, 1.62885, 1.63298, 1.62735, 1.62074, 1.59121, 1.64399, 1.68982, 1.84207, 1.9156, 1.83, 1.61628, 1.58756, 1.58594, 1.57266, 1.56906, 1.5635, 1.55741, 1.55326, 1.54809, 1.54605, 1.54417, 1.5411, 1.53372, 1.532, 1.52653, 1.52342, 1.51909, 1.5145, 1.52828, 1.52174, 1.5026, 1.50034, 1.49975, 1.49247, 1.49623, 1.48332, 1.47973, 1.48242, 1.49262, 1.4866, 1.52988, 1.56901, 1.60156, 1.57163, 1.55152, 1.47463, 1.4536, 1.44846, 1.43809, 1.43253, 1.44088, 1.44452, 1.43419, 1.41906, 1.42986, 1.41284, 1.41214, 1.40693, 1.40513, 1.3999, 1.39844, 1.39645, 1.39207, 1.39025, 1.3885, 1.38332, 1.38126, 1.37826, 1.37295, 1.36893, 1.36467, 1.36214, 1.36043, 1.35844, 1.35718, 1.35481, 1.35279, 1.35036, 1.35139, 1.3542, 1.36338, 1.37037, 1.3963, 1.49327, 1.54666, 1.53262, 1.44023, 1.28563, 1.32094, 1.32596, 1.31233, 1.31295, 1.31025, 1.30888, 1.30855, 1.30654, 
1.657, 1.65253, 1.64775, 1.64104, 1.63727, 1.63347, 1.62922, 1.62533, 1.62127, 1.62081, 1.62424, 1.65263, 1.70678, 1.76724, 1.92194, 1.95037, 1.57932, 1.58621, 1.58171, 1.5744, 1.56638, 1.56215, 1.55804, 1.55568, 1.55231, 1.55691, 1.54615, 1.54001, 1.53656, 1.53351, 1.52862, 1.52515, 1.52102, 1.51449, 1.51368, 1.51038, 1.52096, 1.50724, 1.49729, 1.49971, 1.49026, 1.4871, 1.4853, 1.48463, 1.4957, 1.50288, 1.52172, 1.57217, 1.6153, 1.58653, 1.5236, 1.4809, 1.46016, 1.46266, 1.44035, 1.43425, 1.43202, 1.43413, 1.45468, 1.43879, 1.41744, 1.41249, 1.40989, 1.40542, 1.40509, 1.40966, 1.40191, 1.39847, 1.39458, 1.39112, 1.38928, 1.38301, 1.38009, 1.37607, 1.37129, 1.36828, 1.366, 1.3649, 1.36113, 1.35935, 1.35745, 1.35608, 1.35316, 1.35121, 1.34356, 1.34398, 1.35517, 1.3209, 1.44436, 1.45153, 1.3877, 1.5653, 1.51124, 1.34329, 1.33272, 1.33861, 1.32589, 1.32394, 1.31659, 1.32953, 1.31361, 1.31124, 
1.65852, 1.65189, 1.64437, 1.64047, 1.63602, 1.6302, 1.62784, 1.62284, 1.62131, 1.64156, 1.61644, 1.60709, 1.71757, 1.80465, 1.95599, 1.76731, 1.56791, 1.57159, 1.58854, 1.57357, 1.56944, 1.56232, 1.55865, 1.55615, 1.5487, 1.54552, 1.54187, 1.5402, 1.53476, 1.53047, 1.52585, 1.521, 1.51559, 1.50608, 1.51083, 1.50551, 1.50542, 1.51736, 1.51647, 1.50336, 1.49278, 1.48869, 1.4993, 1.48185, 1.49237, 1.45701, 1.55085, 1.5489, 1.55335, 1.56078, 1.52376, 1.51528, 1.45607, 1.45043, 1.45188, 1.4339, 1.43679, 1.43347, 1.42419, 1.43921, 1.41673, 1.41235, 1.40974, 1.40866, 1.40598, 1.40414, 1.40372, 1.39851, 1.39627, 1.39486, 1.38902, 1.38713, 1.38408, 1.37907, 1.37632, 1.37192, 1.36671, 1.35829, 1.35703, 1.35426, 1.35331, 1.3516, 1.35197, 1.35313, 1.35108, 1.35077, 1.35756, 1.37496, 1.41922, 1.48797, 1.54844, 1.58517, 1.55722, 1.38551, 1.32804, 1.32439, 1.32365, 1.31498, 1.31372, 1.3129, 1.31093, 1.30979, 
1.65356, 1.64886, 1.64431, 1.63525, 1.63192, 1.62742, 1.62188, 1.62132, 1.62061, 1.62389, 1.61829, 1.62436, 1.65531, 1.80401, 1.89432, 2.221, 1.65498, 1.57563, 1.58056, 1.57538, 1.56533, 1.56504, 1.55806, 1.55371, 1.551, 1.54507, 1.54196, 1.53905, 1.53542, 1.53091, 1.52561, 1.52093, 1.51635, 1.5113, 1.50565, 1.50247, 1.49899, 1.5057, 1.51314, 1.50733, 1.5031, 1.48931, 1.48195, 1.4897, 1.48254, 1.47817, 1.51965, 1.57987, 1.5788, 1.55109, 1.53395, 1.44783, 1.43988, 1.44881, 1.45386, 1.43483, 1.42988, 1.42978, 1.42716, 1.43029, 1.45093, 1.41633, 1.41303, 1.41236, 1.40179, 1.39819, 1.39616, 1.39458, 1.38785, 1.38803, 1.38555, 1.38443, 1.38098, 1.37819, 1.37562, 1.37294, 1.37067, 1.36891, 1.3641, 1.3637, 1.36107, 1.36038, 1.35285, 1.35083, 1.34875, 1.34744, 1.3511, 1.35265, 1.44284, 1.4664, 1.57034, 1.57024, 1.46242, 1.34505, 1.33693, 1.32753, 1.32998, 1.31633, 1.3137, 1.31173, 1.30802, 1.33338, 
1.65573, 1.65248, 1.65443, 1.63756, 1.63396, 1.6321, 1.62911, 1.62098, 1.61723, 1.63426, 1.61481, 1.59632, 1.65393, 1.78264, 1.84237, 1.92536, 1.73305, 1.58588, 1.58198, 1.57618, 1.58082, 1.55879, 1.55554, 1.5587, 1.55019, 1.5542, 1.53709, 1.53566, 1.5275, 1.52088, 1.51716, 1.51462, 1.51088, 1.5087, 1.50609, 1.50483, 1.50358, 1.50599, 1.5, 1.50865, 1.53369, 1.48444, 1.49619, 1.47962, 1.48848, 1.45453, 1.52894, 1.55062, 1.54555, 1.5356, 1.55529, 1.52003, 1.42591, 1.45788, 1.44756, 1.43996, 1.46399, 1.45785, 1.46938, 1.4517, 1.41886, 1.41107, 1.40718, 1.40598, 1.40473, 1.3996, 1.39528, 1.38941, 1.39144, 1.38498, 1.38259, 1.38122, 1.37557, 1.37388, 1.37072, 1.36765, 1.36393, 1.36316, 1.36235, 1.36059, 1.36008, 1.35662, 1.35465, 1.358, 1.34577, 1.358, 1.34788, 1.34463, 1.37608, 1.49175, 1.54352, 1.59299, 1.52975, 1.32421, 1.33425, 1.32428, 1.31989, 1.31817, 1.31996, 1.31743, 1.30735, 1.30578, 
1.64588, 1.64005, 1.63468, 1.6379, 1.63824, 1.64161, 1.62801, 1.62407, 1.6186, 1.62435, 1.61975, 1.60065, 1.63043, 1.73729, 1.85536, 1.96856, 1.56967, 1.59715, 1.60366, 1.59288, 1.58101, 1.58141, 1.57978, 1.56389, 1.5646, 1.56093, 1.54218, 1.54418, 1.52952, 1.52765, 1.52096, 1.51625, 1.5114, 1.50951, 1.50713, 1.50342, 1.49994, 1.49375, 1.49737, 1.4937, 1.50131, 1.53445, 1.53465, 1.49347, 1.45521, 1.46879, 1.4815, 1.5322, 1.52346, 1.48472, 1.51815, 1.49997, 1.46205, 1.4589, 1.45414, 1.45193, 1.44785, 1.441, 1.44048, 1.42339, 1.42631, 1.41305, 1.41505, 1.406, 1.40335, 1.39739, 1.39589, 1.39332, 1.39185, 1.3868, 1.38405, 1.38162, 1.37809, 1.37699, 1.38092, 1.37276, 1.37491, 1.36707, 1.36565, 1.36134, 1.36106, 1.35416, 1.35072, 1.34669, 1.34298, 1.34235, 1.37107, 1.34409, 1.36398, 1.47486, 1.55285, 1.61909, 1.58037, 1.38588, 1.33663, 1.32803, 1.31871, 1.31572, 1.3132, 1.30996, 1.30826, 1.30618, 
1.64749, 1.64188, 1.63739, 1.63699, 1.63194, 1.62654, 1.62557, 1.62301, 1.61442, 1.60732, 1.60718, 1.61614, 1.58106, 1.74809, 1.89028, 2.03496, 1.55133, 1.54862, 1.55061, 1.56685, 1.56881, 1.58449, 1.57098, 1.55765, 1.56388, 1.53545, 1.53332, 1.5317, 1.52674, 1.52331, 1.51899, 1.51418, 1.51175, 1.50487, 1.49988, 1.49944, 1.49399, 1.49051, 1.49564, 1.48465, 1.48008, 1.4776, 1.47604, 1.48572, 1.48029, 1.4861, 1.52125, 1.52675, 1.51462, 1.49155, 1.52428, 1.50288, 1.44804, 1.45738, 1.4457, 1.43607, 1.43294, 1.42757, 1.42274, 1.41832, 1.41572, 1.41125, 1.41258, 1.40592, 1.40282, 1.4005, 1.3972, 1.39534, 1.39111, 1.38766, 1.38546, 1.38134, 1.37774, 1.37494, 1.3713, 1.36928, 1.36663, 1.36362, 1.36024, 1.36049, 1.35529, 1.35342, 1.35006, 1.34698, 1.3471, 1.34298, 1.34419, 1.35448, 1.34133, 1.43007, 1.56318, 1.60868, 1.6474, 1.3449, 1.3278, 1.32933, 1.31733, 1.3131, 1.31221, 1.30863, 1.30868, 1.31002, 
1.64022, 1.63575, 1.63083, 1.62678, 1.6241, 1.61968, 1.61607, 1.60728, 1.60297, 1.60098, 1.59955, 1.60708, 1.64545, 1.70014, 1.86474, 2.00077, 1.5732, 1.57405, 1.55498, 1.59119, 1.58874, 1.5756, 1.57673, 1.55893, 1.55121, 1.55762, 1.5283, 1.5338, 1.52076, 1.52093, 1.51295, 1.50932, 1.50805, 1.49962, 1.49729, 1.49537, 1.49013, 1.48631, 1.48252, 1.4926, 1.47596, 1.47076, 1.46969, 1.47203, 1.48686, 1.48615, 1.54961, 1.53267, 1.48344, 1.46485, 1.49532, 1.4918, 1.4606, 1.44056, 1.44137, 1.43313, 1.42019, 1.41641, 1.41723, 1.41121, 1.4088, 1.40834, 1.40506, 1.40133, 1.39913, 1.39556, 1.38979, 1.39371, 1.38314, 1.37887, 1.37837, 1.37543, 1.37377, 1.37034, 1.36753, 1.37034, 1.36135, 1.35936, 1.35679, 1.35453, 1.35389, 1.35236, 1.34522, 1.34436, 1.35107, 1.34124, 1.34044, 1.35549, 1.33401, 1.38757, 1.52742, 1.60664, 1.49508, 1.39596, 1.29522, 1.33054, 1.31705, 1.30857, 1.30808, 1.30827, 1.30608, 1.29882, 
1.6288, 1.62681, 1.62293, 1.62156, 1.61937, 1.61656, 1.61302, 1.60729, 1.60397, 1.59886, 1.5948, 1.59703, 1.58982, 1.69715, 1.78439, 1.76123, 1.66934, 1.53479, 1.56098, 1.55771, 1.55622, 1.55317, 1.54714, 1.54184, 1.53604, 1.53096, 1.52672, 1.52248, 1.51591, 1.51154, 1.50665, 1.50346, 1.49975, 1.4957, 1.49196, 1.489, 1.48569, 1.47901, 1.47478, 1.47157, 1.46922, 1.46517, 1.46184, 1.46377, 1.47077, 1.45821, 1.50637, 1.50677, 1.51713, 1.46921, 1.48844, 1.48123, 1.46292, 1.45728, 1.44655, 1.43063, 1.42074, 1.41671, 1.41037, 1.40785, 1.40414, 1.40238, 1.39932, 1.39213, 1.38928, 1.38614, 1.38199, 1.37828, 1.37627, 1.37303, 1.37357, 1.37299, 1.37109, 1.36808, 1.36127, 1.35814, 1.35063, 1.34759, 1.34778, 1.34632, 1.34478, 1.34097, 1.34149, 1.33673, 1.33368, 1.33981, 1.32852, 1.34345, 1.33601, 1.3767, 1.52704, 1.59926, 1.67344, 1.4561, 1.30918, 1.31338, 1.30528, 1.30597, 1.30338, 1.30091, 1.29929, 1.29645, 
1.62721, 1.62381, 1.61854, 1.61474, 1.61647, 1.60738, 1.60452, 1.60339, 1.59934, 1.59445, 1.58788, 1.58363, 1.57599, 1.64421, 1.89989, 2.08773, 1.58639, 1.55112, 1.57878, 1.56515, 1.5529, 1.54787, 1.55331, 1.55311, 1.52935, 1.5255, 1.52014, 1.51745, 1.51414, 1.51403, 1.51022, 1.50257, 1.50014, 1.49508, 1.49369, 1.48359, 1.48152, 1.47726, 1.47327, 1.4698, 1.46974, 1.46636, 1.46233, 1.46226, 1.47576, 1.47261, 1.48606, 1.49115, 1.47545, 1.45579, 1.49928, 1.46383, 1.47294, 1.4338, 1.42149, 1.4129, 1.40971, 1.40876, 1.40924, 1.40581, 1.40199, 1.39949, 1.39623, 1.38969, 1.38473, 1.38349, 1.38031, 1.37739, 1.375, 1.37102, 1.36833, 1.36098, 1.35704, 1.35534, 1.34823, 1.34576, 1.34215, 1.341, 1.34112, 1.34058, 1.34487, 1.3363, 1.33621, 1.33653, 1.32966, 1.32824, 1.32673, 1.3377, 1.34434, 1.40281, 1.4749, 1.60511, 1.69653, 1.4296, 1.27429, 1.30135, 1.30272, 1.31521, 1.29884, 1.29792, 1.29298, 1.29034, 
1.61655, 1.61695, 1.61254, 1.60458, 1.60162, 1.603, 1.59625, 1.58959, 1.58785, 1.58288, 1.57882, 1.587, 1.56149, 1.62177, 1.69222, 1.9867, 1.58219, 1.55539, 1.55363, 1.55113, 1.53705, 1.53381, 1.53777, 1.51911, 1.52387, 1.51325, 1.50788, 1.50401, 1.50214, 1.49751, 1.49306, 1.49894, 1.48845, 1.48259, 1.47635, 1.47317, 1.47096, 1.46632, 1.46276, 1.47149, 1.45521, 1.4504, 1.44865, 1.45501, 1.46204, 1.45418, 1.45183, 1.48208, 1.47457, 1.46462, 1.47042, 1.46616, 1.44828, 1.43171, 1.41851, 1.4076, 1.40062, 1.39484, 1.3939, 1.39433, 1.38846, 1.38475, 1.38213, 1.37818, 1.37511, 1.3752, 1.36963, 1.36628, 1.36204, 1.36009, 1.3571, 1.35694, 1.35497, 1.34818, 1.3435, 1.33619, 1.33432, 1.33326, 1.33338, 1.33414, 1.33303, 1.33114, 1.32993, 1.32849, 1.32763, 1.31881, 1.31671, 1.3188, 1.32054, 1.39652, 1.49283, 1.63646, 1.65154, 1.41333, 1.27866, 1.30591, 1.29517, 1.29386, 1.2864, 1.29216, 1.28092, 1.28219, 
1.6133, 1.60884, 1.60116, 1.59428, 1.59299, 1.58924, 1.58416, 1.58275, 1.58844, 1.5759, 1.57341, 1.57623, 1.56974, 1.57577, 1.78806, 1.85779, 1.571, 1.52026, 1.53911, 1.53282, 1.52777, 1.5245, 1.51824, 1.51934, 1.51418, 1.51018, 1.50318, 1.49677, 1.49736, 1.49252, 1.48692, 1.48352, 1.48037, 1.47466, 1.46958, 1.46642, 1.46304, 1.45832, 1.45778, 1.45503, 1.45164, 1.45899, 1.45162, 1.44112, 1.45158, 1.44905, 1.46181, 1.45822, 1.45458, 1.45369, 1.46435, 1.46185, 1.44915, 1.43793, 1.42333, 1.40743, 1.40354, 1.38974, 1.38812, 1.39631, 1.38412, 1.38467, 1.37924, 1.37686, 1.37047, 1.36842, 1.3638, 1.36106, 1.36127, 1.36036, 1.35696, 1.35083, 1.347, 1.34515, 1.34141, 1.33907, 1.33786, 1.33423, 1.33356, 1.32952, 1.32443, 1.32456, 1.32362, 1.32076, 1.32313, 1.32665, 1.33075, 1.32755, 1.32771, 1.33293, 1.44265, 1.53095, 1.73051, 1.42951, 1.2913, 1.29747, 1.28987, 1.29396, 1.28499, 1.29196, 1.2896, 1.29411, 
1.59692, 1.59552, 1.59922, 1.59669, 1.60355, 1.58423, 1.58063, 1.5798, 1.56957, 1.56811, 1.57397, 1.5714, 1.56625, 1.54728, 1.6441, 2.04281, 1.81571, 1.4976, 1.53686, 1.53842, 1.53154, 1.53471, 1.50821, 1.50799, 1.50573, 1.50029, 1.49881, 1.49366, 1.49134, 1.49011, 1.47794, 1.47597, 1.47708, 1.47304, 1.46853, 1.46387, 1.45967, 1.45128, 1.45119, 1.44338, 1.44131, 1.43964, 1.44715, 1.42678, 1.4339, 1.43464, 1.44181, 1.45967, 1.46157, 1.45513, 1.42932, 1.43679, 1.45032, 1.42455, 1.4028, 1.41302, 1.39299, 1.38781, 1.3954, 1.38103, 1.37361, 1.37419, 1.36552, 1.36487, 1.36176, 1.36059, 1.35178, 1.35178, 1.34777, 1.34664, 1.34546, 1.34058, 1.33416, 1.33297, 1.33177, 1.32522, 1.31955, 1.31764, 1.31447, 1.31555, 1.31318, 1.30505, 1.31013, 1.3094, 1.30735, 1.30546, 1.30289, 1.2999, 1.31659, 1.27074, 1.41982, 1.52663, 1.47505, 1.50958, 1.26545, 1.28134, 1.27826, 1.2739, 1.27767, 1.2891, 1.26727, 1.26302, 
1.59943, 1.59678, 1.59647, 1.59546, 1.58878, 1.58298, 1.57451, 1.579, 1.56838, 1.5646, 1.56193, 1.55973, 1.56213, 1.56782, 1.64788, 1.97277, 1.8136, 1.52673, 1.53335, 1.53664, 1.51759, 1.51722, 1.52729, 1.5258, 1.50069, 1.49356, 1.48296, 1.48386, 1.48447, 1.48308, 1.4809, 1.47832, 1.47198, 1.46829, 1.46464, 1.4574, 1.45074, 1.45231, 1.44609, 1.44139, 1.43818, 1.43692, 1.43544, 1.43397, 1.44693, 1.44478, 1.44114, 1.43777, 1.44659, 1.43337, 1.44068, 1.43918, 1.42556, 1.4301, 1.40748, 1.40478, 1.38796, 1.38461, 1.38053, 1.37752, 1.37256, 1.37099, 1.37346, 1.36278, 1.36285, 1.36281, 1.36004, 1.35762, 1.35318, 1.34829, 1.34457, 1.34191, 1.33775, 1.33557, 1.33284, 1.33178, 1.32698, 1.32562, 1.32994, 1.32065, 1.31587, 1.31516, 1.31375, 1.31173, 1.30925, 1.30272, 1.30205, 1.30221, 1.29817, 1.30198, 1.35543, 1.51356, 1.70267, 1.50289, 1.48959, 1.48075, 1.31574, 1.27826, 1.27776, 1.28168, 1.30909, 1.27252, 
1.58521, 1.58367, 1.58531, 1.57897, 1.57366, 1.56465, 1.56286, 1.55775, 1.55522, 1.55477, 1.54995, 1.55612, 1.55046, 1.52744, 1.60027, 1.61334, 1.8411, 1.50228, 1.5194, 1.50316, 1.50288, 1.5142, 1.50917, 1.49888, 1.49534, 1.51209, 1.48337, 1.47843, 1.47575, 1.4713, 1.46605, 1.45831, 1.45408, 1.46406, 1.45088, 1.44507, 1.44291, 1.43964, 1.43736, 1.43631, 1.42999, 1.44682, 1.42732, 1.42603, 1.43924, 1.44164, 1.43902, 1.43687, 1.44377, 1.41943, 1.43702, 1.43092, 1.42267, 1.40768, 1.40613, 1.38189, 1.3749, 1.36814, 1.36191, 1.36047, 1.36042, 1.3576, 1.35708, 1.35241, 1.35165, 1.35564, 1.35461, 1.34415, 1.33824, 1.33633, 1.3292, 1.32882, 1.32596, 1.32481, 1.32453, 1.32135, 1.32169, 1.31603, 1.31337, 1.30352, 1.30247, 1.30161, 1.32258, 1.29696, 1.28907, 1.28562, 1.29093, 1.28348, 1.2876, 1.28586, 1.33687, 1.57464, 1.63716, 1.55517, 1.35399, 1.26641, 1.27789, 1.26216, 1.2567, 1.25436, 1.26132, 1.25347, 
1.59263, 1.58201, 1.57628, 1.57359, 1.56777, 1.56685, 1.55443, 1.5667, 1.55101, 1.54779, 1.54737, 1.538, 1.54186, 1.53625, 1.67469, 1.68593, 1.75236, 1.5237, 1.5009, 1.51614, 1.50297, 1.51362, 1.49833, 1.49453, 1.48943, 1.48077, 1.47549, 1.46974, 1.46764, 1.46529, 1.46237, 1.46205, 1.44975, 1.44599, 1.44332, 1.4399, 1.43736, 1.43509, 1.43736, 1.42985, 1.42521, 1.42104, 1.4194, 1.42228, 1.42105, 1.42366, 1.44386, 1.44074, 1.43438, 1.43955, 1.41631, 1.41757, 1.41261, 1.39585, 1.38827, 1.3815, 1.37173, 1.37376, 1.37776, 1.35868, 1.35516, 1.35281, 1.35777, 1.34908, 1.35089, 1.34537, 1.34327, 1.33709, 1.34116, 1.33257, 1.32876, 1.33293, 1.32775, 1.319, 1.31493, 1.31309, 1.3122, 1.30918, 1.30924, 1.30396, 1.30194, 1.3008, 1.29928, 1.31423, 1.29933, 1.30353, 1.29917, 1.29991, 1.29277, 1.29223, 1.25054, 1.43947, 1.79447, 1.49874, 1.31388, 1.26721, 1.26117, 1.26788, 1.25713, 1.25673, 1.24765, 1.2442, 
