1.66433, 1.63416, 1.62925, 1.62211, 1.61755, 1.61409, 1.61097, 1.60623, 1.60442, 1.61811, 1.60988, 1.57856, 1.63035, 1.618, 1.64638, 1.63111, 1.64857, 1.69916, 1.69515, 1.68529, 1.60131, 1.54277, 1.57575, 1.5732, 1.55466, 1.55896, 1.56266, 1.56416, 1.54034, 1.54927, 1.52975, 1.52628, 1.52621, 1.52331, 1.51978, 1.51709, 1.51467, 1.51325, 1.5137, 1.51255, 1.50318, 1.49697, 1.4959, 1.49134, 1.49627, 1.48721, 1.48341, 1.47882, 1.47356, 1.46956, 1.48499, 1.46635, 1.46297, 1.47282, 1.47187, 1.48217, 1.47564, 1.54016, 1.61923, 1.75259, 1.75907, 1.65183, 1.43348, 1.42806, 1.43937, 1.43395, 1.43047, 1.43038, 1.42979, 1.41991, 1.41931, 1.41654, 1.41106, 1.40718, 1.40636, 1.40391, 1.39935, 1.39559, 1.39473, 1.38911, 1.38457, 1.38453, 1.38412, 1.37806, 1.37695, 1.37497, 1.37829, 1.37426, 1.37032, 1.36609, 1.36612, 1.3621, 1.36236, 1.35767, 1.35169, 1.34956, 1.34788, 1.34732, 1.34518, 1.3469, 1.33876, 1.33443, 1.33257, 1.33234, 1.3323, 1.33209, 1.33663, 1.34131, 1.35854, 1.35306, 1.35165, 1.37727, 1.37222, 1.36236, 1.36226, 1.34752, 1.34665, 1.31745, 1.33406, 1.31682, 1.30721, 1.29926, 1.29296, 1.29447, 1.29239, 1.29103, 1.29266, 1.28954, 
1.65876, 1.63798, 1.62559, 1.62204, 1.62157, 1.61964, 1.61382, 1.60914, 1.61288, 1.60758, 1.61994, 1.60691, 1.62014, 1.6265, 1.63889, 1.66177, 1.65989, 1.68514, 1.65556, 1.64485, 1.5854, 1.5595, 1.56379, 1.56083, 1.55778, 1.55158, 1.56326, 1.57296, 1.55548, 1.5376, 1.53032, 1.52836, 1.52673, 1.52599, 1.52233, 1.51769, 1.51616, 1.51497, 1.50715, 1.50521, 1.50048, 1.49964, 1.49643, 1.49265, 1.48949, 1.48637, 1.48484, 1.48518, 1.4776, 1.48153, 1.47079, 1.46954, 1.46464, 1.46537, 1.46445, 1.48828, 1.45115, 1.51932, 1.66806, 1.76205, 1.7309, 1.61545, 1.40992, 1.42751, 1.43729, 1.43402, 1.42649, 1.42593, 1.42212, 1.41919, 1.41599, 1.41038, 1.40856, 1.40212, 1.40238, 1.39976, 1.39854, 1.39672, 1.39383, 1.39009, 1.3966, 1.38568, 1.3833, 1.38158, 1.37921, 1.37264, 1.37234, 1.37247, 1.36954, 1.36633, 1.36414, 1.3659, 1.36419, 1.36116, 1.3576, 1.35238, 1.3505, 1.35165, 1.34838, 1.34548, 1.34368, 1.34042, 1.3403, 1.34705, 1.33646, 1.33524, 1.34361, 1.34258, 1.34044, 1.35148, 1.36036, 1.36172, 1.40773, 1.3812, 1.37105, 1.36365, 1.34316, 1.31958, 1.31629, 1.30853, 1.30249, 1.29685, 1.29347, 1.28882, 1.2884, 1.28963, 1.29123, 1.2916, 
1.6922, 1.68551, 1.65942, 1.63075, 1.6258, 1.63054, 1.61774, 1.6124, 1.60822, 1.60825, 1.61345, 1.58928, 1.5923, 1.63494, 1.65222, 1.65078, 1.66227, 1.68702, 1.74444, 1.65321, 1.62458, 1.55196, 1.57382, 1.57844, 1.567, 1.55581, 1.55668, 1.56169, 1.55859, 1.54091, 1.53609, 1.54079, 1.52523, 1.53034, 1.52127, 1.51969, 1.51819, 1.51316, 1.51112, 1.50831, 1.50507, 1.50431, 1.4981, 1.50601, 1.49364, 1.48997, 1.48668, 1.48692, 1.4785, 1.47974, 1.4744, 1.47018, 1.46729, 1.46593, 1.46757, 1.45838, 1.46065, 1.54521, 1.60347, 1.66107, 1.74369, 1.69928, 1.45805, 1.42147, 1.44197, 1.43499, 1.42766, 1.42544, 1.42455, 1.42248, 1.41441, 1.41253, 1.40755, 1.39965, 1.40258, 1.40116, 1.39825, 1.39934, 1.39625, 1.39478, 1.39006, 1.38783, 1.38687, 1.38618, 1.37961, 1.37717, 1.37474, 1.37103, 1.36858, 1.36818, 1.36711, 1.36509, 1.36192, 1.36076, 1.35706, 1.35557, 1.35561, 1.35466, 1.35446, 1.35332, 1.35114, 1.34998, 1.34687, 1.34387, 1.34242, 1.34276, 1.34387, 1.34462, 1.3468, 1.36062, 1.37621, 1.38899, 1.36626, 1.37109, 1.36595, 1.36584, 1.34002, 1.32097, 1.32613, 1.30967, 1.30539, 1.29681, 1.29238, 1.29174, 1.28961, 1.29397, 1.29156, 1.29186, 
1.66742, 1.66888, 1.6589, 1.64692, 1.62943, 1.62751, 1.62002, 1.61792, 1.61685, 1.6226, 1.63061, 1.60657, 1.60463, 1.64712, 1.64915, 1.67926, 1.70528, 1.72109, 1.71982, 1.68736, 1.58009, 1.59287, 1.57576, 1.57921, 1.56197, 1.55773, 1.55418, 1.56034, 1.56643, 1.56149, 1.54881, 1.53701, 1.5397, 1.53189, 1.53392, 1.52347, 1.52111, 1.51698, 1.51557, 1.51039, 1.50723, 1.50474, 1.50413, 1.50941, 1.49979, 1.49644, 1.49154, 1.48992, 1.48856, 1.48574, 1.47626, 1.47336, 1.47352, 1.47109, 1.47188, 1.48351, 1.45742, 1.52692, 1.56226, 1.71324, 1.71977, 1.64393, 1.48268, 1.41303, 1.44744, 1.44582, 1.43454, 1.4309, 1.42969, 1.42692, 1.42113, 1.41702, 1.41651, 1.40976, 1.40803, 1.40953, 1.41034, 1.40982, 1.40238, 1.40226, 1.39362, 1.39342, 1.39124, 1.38922, 1.38573, 1.40312, 1.38515, 1.37914, 1.37612, 1.37253, 1.37067, 1.3642, 1.36693, 1.36462, 1.3618, 1.35773, 1.35838, 1.35955, 1.36014, 1.3574, 1.35594, 1.35883, 1.34854, 1.34751, 1.34724, 1.35096, 1.3494, 1.35245, 1.34753, 1.35507, 1.36552, 1.36104, 1.39282, 1.37794, 1.37439, 1.37844, 1.36394, 1.32674, 1.32287, 1.31985, 1.30343, 1.31208, 1.31007, 1.29865, 1.29666, 1.29697, 1.29738, 1.29507, 
1.68306, 1.67895, 1.67106, 1.66269, 1.6343, 1.62945, 1.64015, 1.61955, 1.62222, 1.62522, 1.62866, 1.63673, 1.62714, 1.64839, 1.65251, 1.68679, 1.68959, 1.72667, 1.73478, 1.69303, 1.60488, 1.57573, 1.59471, 1.5852, 1.56539, 1.56009, 1.56489, 1.56604, 1.54991, 1.56202, 1.55055, 1.54645, 1.54747, 1.53127, 1.5303, 1.52776, 1.5203, 1.51618, 1.51423, 1.51178, 1.50929, 1.50844, 1.50567, 1.50337, 1.50184, 1.50101, 1.49368, 1.49087, 1.48594, 1.48557, 1.48039, 1.47899, 1.47901, 1.4777, 1.47975, 1.45562, 1.45394, 1.51306, 1.61099, 1.7094, 1.74874, 1.69843, 1.5507, 1.43711, 1.46853, 1.44838, 1.44322, 1.44078, 1.43273, 1.42988, 1.42658, 1.41929, 1.41996, 1.41749, 1.41313, 1.41063, 1.40728, 1.40721, 1.40363, 1.40139, 1.3988, 1.39799, 1.39538, 1.39304, 1.39135, 1.38796, 1.38552, 1.38449, 1.37952, 1.3753, 1.3712, 1.3691, 1.36579, 1.36316, 1.36499, 1.36325, 1.36115, 1.36608, 1.36826, 1.3626, 1.36179, 1.36844, 1.36143, 1.35068, 1.34888, 1.35061, 1.35338, 1.36446, 1.36511, 1.3543, 1.3776, 1.40358, 1.36712, 1.40944, 1.3884, 1.3797, 1.33831, 1.323, 1.34436, 1.31903, 1.3123, 1.30539, 1.30499, 1.30764, 1.3049, 1.30262, 1.3022, 1.30319, 
1.64863, 1.66438, 1.67919, 1.67098, 1.65437, 1.64108, 1.64003, 1.64385, 1.62731, 1.6235, 1.63195, 1.63729, 1.61116, 1.64816, 1.65092, 1.66941, 1.7141, 1.70892, 1.69649, 1.6604, 1.57519, 1.58446, 1.58459, 1.57639, 1.56805, 1.56815, 1.56628, 1.56682, 1.56132, 1.56907, 1.55367, 1.55779, 1.53901, 1.53724, 1.54027, 1.53775, 1.52738, 1.52286, 1.52253, 1.51957, 1.51581, 1.51211, 1.512, 1.50582, 1.50263, 1.50009, 1.49819, 1.49555, 1.49319, 1.49055, 1.48799, 1.48716, 1.48532, 1.48537, 1.48286, 1.47583, 1.49013, 1.53329, 1.5925, 1.73491, 1.75053, 1.66305, 1.56859, 1.43756, 1.46721, 1.47127, 1.45371, 1.45111, 1.4437, 1.44349, 1.42985, 1.4279, 1.42482, 1.42408, 1.41996, 1.41679, 1.41477, 1.41242, 1.40907, 1.40585, 1.40199, 1.40226, 1.39916, 1.3985, 1.397, 1.39434, 1.39338, 1.39014, 1.38232, 1.38509, 1.37747, 1.37897, 1.36963, 1.3645, 1.36381, 1.36487, 1.36616, 1.36771, 1.36791, 1.36907, 1.36593, 1.36277, 1.36062, 1.35721, 1.35722, 1.35569, 1.36449, 1.36522, 1.35823, 1.36082, 1.41382, 1.37935, 1.39246, 1.38473, 1.40035, 1.40359, 1.35445, 1.33244, 1.33032, 1.32693, 1.31697, 1.31226, 1.3138, 1.30956, 1.3113, 1.31001, 1.30872, 1.30412, 
1.65277, 1.66025, 1.67003, 1.69178, 1.67194, 1.63983, 1.63823, 1.63808, 1.64143, 1.62725, 1.62379, 1.63304, 1.60349, 1.66076, 1.6669, 1.6767, 1.70283, 1.71616, 1.714, 1.70444, 1.59017, 1.58695, 1.59411, 1.58679, 1.5923, 1.56612, 1.57139, 1.56849, 1.55618, 1.56168, 1.57532, 1.5485, 1.55046, 1.53914, 1.53859, 1.53527, 1.53028, 1.5267, 1.52423, 1.52096, 1.52621, 1.51558, 1.51197, 1.50931, 1.51266, 1.50287, 1.50309, 1.50097, 1.49875, 1.50909, 1.4927, 1.48681, 1.48517, 1.48576, 1.48886, 1.46724, 1.46693, 1.5536, 1.63138, 1.72402, 1.74817, 1.66681, 1.54422, 1.45474, 1.46379, 1.46336, 1.45887, 1.44773, 1.44341, 1.45187, 1.43781, 1.44031, 1.42777, 1.42693, 1.42727, 1.42178, 1.41976, 1.41734, 1.41315, 1.40938, 1.41161, 1.40699, 1.40431, 1.4013, 1.4031, 1.3989, 1.39922, 1.39683, 1.39424, 1.38241, 1.376, 1.3822, 1.3771, 1.36771, 1.36377, 1.3651, 1.36412, 1.36718, 1.36523, 1.36328, 1.37539, 1.35939, 1.35912, 1.36057, 1.36514, 1.35562, 1.35844, 1.36819, 1.38189, 1.3704, 1.37484, 1.39037, 1.38744, 1.39866, 1.40467, 1.40229, 1.33447, 1.33727, 1.35086, 1.33157, 1.32815, 1.3201, 1.32658, 1.32027, 1.3197, 1.31553, 1.31253, 1.31301, 
1.65625, 1.64981, 1.66221, 1.66006, 1.65825, 1.64797, 1.63395, 1.64012, 1.62785, 1.62448, 1.63755, 1.62536, 1.61825, 1.62465, 1.66612, 1.68558, 1.68593, 1.73229, 1.74432, 1.71272, 1.6108, 1.57862, 1.58644, 1.58793, 1.57664, 1.56934, 1.56537, 1.56187, 1.56004, 1.57467, 1.58086, 1.5757, 1.5477, 1.54683, 1.54476, 1.54082, 1.56097, 1.53081, 1.52943, 1.52569, 1.52329, 1.52041, 1.51584, 1.51254, 1.50874, 1.50719, 1.50704, 1.50674, 1.50454, 1.49953, 1.49851, 1.51007, 1.49041, 1.4967, 1.50434, 1.4643, 1.46893, 1.54924, 1.65892, 1.71915, 1.69837, 1.64493, 1.59231, 1.46359, 1.46738, 1.5063, 1.46518, 1.46097, 1.44357, 1.44123, 1.44402, 1.44313, 1.43321, 1.42715, 1.42915, 1.42445, 1.42105, 1.42062, 1.41773, 1.41409, 1.41093, 1.40877, 1.40737, 1.40655, 1.40549, 1.40416, 1.40263, 1.39748, 1.39237, 1.38791, 1.38185, 1.37796, 1.37654, 1.37274, 1.36818, 1.36633, 1.3658, 1.36682, 1.36442, 1.36092, 1.35738, 1.35649, 1.3563, 1.35573, 1.35903, 1.35764, 1.37991, 1.36788, 1.3547, 1.39321, 1.38444, 1.39227, 1.42443, 1.40307, 1.42377, 1.42878, 1.35692, 1.333, 1.3341, 1.335, 1.32956, 1.32271, 1.32315, 1.31636, 1.31981, 1.31256, 1.32118, 1.31462, 
1.65544, 1.65026, 1.65711, 1.6438, 1.65862, 1.6513, 1.64364, 1.63516, 1.63076, 1.63384, 1.62973, 1.63415, 1.60319, 1.64571, 1.6654, 1.68426, 1.72039, 1.7565, 1.76894, 1.69605, 1.62773, 1.57974, 1.59567, 1.58983, 1.57844, 1.57296, 1.5682, 1.57183, 1.5638, 1.56458, 1.56911, 1.57139, 1.55373, 1.55263, 1.54751, 1.55606, 1.54413, 1.53517, 1.53165, 1.52787, 1.52623, 1.52242, 1.51601, 1.51574, 1.51023, 1.50784, 1.5058, 1.50548, 1.50098, 1.50036, 1.49681, 1.49591, 1.49619, 1.49595, 1.4953, 1.48282, 1.47618, 1.55726, 1.65752, 1.73489, 1.7361, 1.7174, 1.631, 1.46807, 1.4607, 1.47805, 1.46135, 1.47211, 1.44501, 1.44082, 1.43956, 1.43375, 1.43317, 1.43319, 1.43034, 1.42654, 1.42741, 1.42473, 1.4216, 1.41871, 1.41271, 1.41051, 1.4096, 1.40953, 1.40857, 1.40714, 1.40592, 1.40441, 1.40261, 1.39303, 1.39025, 1.38199, 1.38132, 1.37781, 1.37735, 1.37461, 1.37353, 1.37082, 1.36756, 1.36626, 1.36484, 1.36355, 1.36173, 1.36434, 1.35689, 1.35721, 1.36847, 1.36423, 1.36548, 1.3646, 1.39054, 1.39712, 1.4173, 1.40617, 1.41054, 1.41482, 1.37136, 1.32711, 1.34027, 1.33772, 1.33678, 1.32669, 1.32348, 1.31945, 1.32339, 1.31412, 1.31301, 1.31427, 
1.65816, 1.65499, 1.6575, 1.66217, 1.67416, 1.67884, 1.65749, 1.6492, 1.635, 1.63297, 1.64161, 1.6269, 1.6108, 1.63216, 1.6732, 1.69606, 1.74828, 1.75962, 1.74983, 1.72246, 1.58136, 1.57295, 1.59157, 1.60479, 1.59333, 1.57117, 1.56638, 1.5796, 1.55876, 1.56576, 1.55705, 1.56468, 1.56801, 1.57229, 1.54895, 1.54751, 1.54007, 1.53752, 1.53628, 1.53329, 1.52827, 1.52406, 1.51827, 1.51424, 1.51376, 1.50968, 1.50598, 1.50442, 1.501, 1.49967, 1.49654, 1.49614, 1.49076, 1.48996, 1.48834, 1.48865, 1.46811, 1.53724, 1.63263, 1.69896, 1.72201, 1.68725, 1.56261, 1.47085, 1.45649, 1.4679, 1.46216, 1.45047, 1.44404, 1.44444, 1.43726, 1.43551, 1.43424, 1.43354, 1.43208, 1.42844, 1.42567, 1.42558, 1.42206, 1.41923, 1.41581, 1.40988, 1.40713, 1.40708, 1.40704, 1.40817, 1.40842, 1.40698, 1.40366, 1.39986, 1.40155, 1.3928, 1.39576, 1.3865, 1.38075, 1.37843, 1.37597, 1.37293, 1.37129, 1.3706, 1.36966, 1.3695, 1.36447, 1.36035, 1.3601, 1.35608, 1.36606, 1.37444, 1.35744, 1.37824, 1.3752, 1.38185, 1.40382, 1.41136, 1.41904, 1.41463, 1.37826, 1.32261, 1.34062, 1.34177, 1.33133, 1.33191, 1.32488, 1.32068, 1.31714, 1.32975, 1.31262, 1.31097, 
1.66186, 1.6598, 1.65659, 1.65932, 1.68192, 1.66379, 1.6604, 1.64632, 1.63833, 1.62961, 1.64344, 1.62776, 1.61104, 1.63747, 1.71345, 1.73097, 1.72315, 1.72796, 1.73599, 1.73803, 1.67236, 1.57634, 1.59317, 1.58977, 1.58689, 1.57694, 1.56863, 1.56469, 1.56256, 1.5591, 1.5674, 1.56214, 1.56547, 1.55597, 1.55537, 1.54827, 1.5392, 1.53799, 1.53533, 1.53066, 1.52611, 1.52442, 1.5179, 1.51407, 1.51385, 1.51203, 1.50911, 1.50496, 1.50336, 1.50186, 1.49722, 1.49514, 1.48989, 1.489, 1.49616, 1.49903, 1.47276, 1.53353, 1.63497, 1.65987, 1.6859, 1.66815, 1.56367, 1.4552, 1.44646, 1.47158, 1.45201, 1.46214, 1.4419, 1.44745, 1.4371, 1.43481, 1.43297, 1.42969, 1.42914, 1.42805, 1.42785, 1.42227, 1.4193, 1.41745, 1.41245, 1.4098, 1.4084, 1.40575, 1.40632, 1.40537, 1.40354, 1.40246, 1.40226, 1.40108, 1.39697, 1.39852, 1.39298, 1.38588, 1.38452, 1.38094, 1.37784, 1.37921, 1.37877, 1.37758, 1.37825, 1.37578, 1.37065, 1.36514, 1.35733, 1.35792, 1.35597, 1.35962, 1.36152, 1.36559, 1.39671, 1.4046, 1.41595, 1.44325, 1.48148, 1.42006, 1.38832, 1.32889, 1.34321, 1.33719, 1.33119, 1.32999, 1.32703, 1.3262, 1.3224, 1.32292, 1.3171, 1.3128, 
1.66608, 1.67185, 1.67907, 1.66136, 1.66855, 1.66576, 1.67074, 1.66406, 1.63792, 1.64149, 1.64384, 1.63202, 1.61104, 1.64151, 1.68519, 1.72596, 1.76257, 1.76088, 1.76303, 1.7029, 1.64652, 1.56473, 1.61067, 1.59103, 1.59284, 1.57866, 1.57402, 1.57183, 1.56545, 1.56191, 1.56506, 1.55813, 1.56516, 1.55092, 1.54878, 1.5505, 1.54375, 1.5409, 1.54124, 1.53645, 1.53199, 1.53027, 1.52654, 1.52218, 1.51991, 1.51748, 1.51578, 1.51083, 1.5076, 1.50469, 1.5022, 1.50536, 1.49333, 1.49247, 1.49166, 1.48196, 1.46157, 1.51364, 1.6191, 1.65768, 1.70148, 1.69151, 1.35736, 1.45754, 1.42282, 1.46479, 1.47164, 1.45353, 1.45158, 1.44115, 1.44629, 1.4346, 1.43284, 1.43217, 1.42758, 1.42778, 1.42974, 1.42575, 1.42275, 1.41806, 1.41711, 1.41482, 1.41042, 1.40672, 1.40441, 1.40424, 1.40423, 1.40364, 1.40162, 1.39841, 1.39652, 1.39727, 1.3923, 1.38779, 1.38641, 1.38317, 1.38153, 1.37967, 1.38001, 1.38041, 1.37942, 1.37936, 1.37395, 1.37512, 1.36821, 1.36277, 1.37734, 1.36311, 1.35394, 1.3614, 1.45852, 1.39772, 1.41446, 1.43064, 1.43124, 1.44544, 1.39854, 1.32721, 1.3457, 1.34237, 1.33478, 1.32977, 1.34312, 1.32316, 1.32677, 1.32068, 1.31945, 1.32122, 
1.669, 1.66763, 1.66385, 1.6599, 1.65745, 1.66119, 1.66277, 1.66931, 1.64401, 1.63356, 1.63223, 1.63317, 1.61297, 1.64168, 1.69471, 1.7138, 1.75437, 1.75404, 1.74693, 1.71168, 1.67792, 1.57878, 1.60641, 1.58845, 1.586, 1.59115, 1.58053, 1.57503, 1.56864, 1.57191, 1.56104, 1.55772, 1.56851, 1.55969, 1.55091, 1.54859, 1.54525, 1.54121, 1.53984, 1.53695, 1.53528, 1.53224, 1.53393, 1.52727, 1.52317, 1.51997, 1.51605, 1.51261, 1.51778, 1.5063, 1.50217, 1.49766, 1.49512, 1.49487, 1.49389, 1.49632, 1.46848, 1.53661, 1.59441, 1.66919, 1.70264, 1.67653, 1.62397, 1.45383, 1.45579, 1.47471, 1.45843, 1.4541, 1.44392, 1.44333, 1.44357, 1.43839, 1.43647, 1.43458, 1.42917, 1.42823, 1.427, 1.42594, 1.42106, 1.42187, 1.41653, 1.41652, 1.41441, 1.40975, 1.40731, 1.40675, 1.40627, 1.40506, 1.40392, 1.40336, 1.40202, 1.39844, 1.39243, 1.38856, 1.38759, 1.38397, 1.38243, 1.38054, 1.38095, 1.37818, 1.37502, 1.37646, 1.37317, 1.37262, 1.37158, 1.36747, 1.36602, 1.36791, 1.35493, 1.38678, 1.44025, 1.46757, 1.45804, 1.44243, 1.47536, 1.45068, 1.42016, 1.34461, 1.3495, 1.34953, 1.34149, 1.32994, 1.32662, 1.32599, 1.32429, 1.32272, 1.31783, 1.32121, 
1.66886, 1.66343, 1.6623, 1.65683, 1.65478, 1.65441, 1.67048, 1.65871, 1.65094, 1.64815, 1.65035, 1.63981, 1.61355, 1.63181, 1.71704, 1.75504, 1.75476, 1.78025, 1.7786, 1.76222, 1.70591, 1.58967, 1.60021, 1.59585, 1.59309, 1.58875, 1.5869, 1.58129, 1.5778, 1.57662, 1.57141, 1.57572, 1.57546, 1.58459, 1.56823, 1.55174, 1.55159, 1.5418, 1.53766, 1.53726, 1.53636, 1.53511, 1.52878, 1.52679, 1.52647, 1.52271, 1.51842, 1.51418, 1.51021, 1.50682, 1.50404, 1.50582, 1.50071, 1.50018, 1.49936, 1.50325, 1.47554, 1.55021, 1.60704, 1.68933, 1.70936, 1.70691, 1.56166, 1.48641, 1.4423, 1.46466, 1.4596, 1.46096, 1.45027, 1.44888, 1.44682, 1.44192, 1.44161, 1.43588, 1.43629, 1.43447, 1.43029, 1.43056, 1.43016, 1.42456, 1.42146, 1.42029, 1.41582, 1.4136, 1.41177, 1.41218, 1.4098, 1.40802, 1.40426, 1.40585, 1.40328, 1.3996, 1.39298, 1.39166, 1.38851, 1.38585, 1.38658, 1.38335, 1.38043, 1.38046, 1.38267, 1.37728, 1.37525, 1.37271, 1.37352, 1.37187, 1.37153, 1.37386, 1.36847, 1.37799, 1.38204, 1.40468, 1.45124, 1.46519, 1.4592, 1.45503, 1.40732, 1.33189, 1.35408, 1.36435, 1.33389, 1.33492, 1.32621, 1.32441, 1.31957, 1.31939, 1.31996, 1.31685, 
1.67548, 1.66562, 1.66275, 1.65905, 1.65524, 1.6523, 1.67089, 1.66792, 1.65487, 1.65644, 1.65027, 1.6509, 1.62945, 1.64342, 1.7232, 1.7565, 1.77491, 1.80305, 1.81665, 1.76758, 1.67883, 1.63443, 1.60764, 1.61828, 1.59773, 1.59271, 1.59547, 1.59627, 1.57915, 1.58178, 1.5724, 1.56989, 1.57449, 1.5897, 1.57548, 1.56272, 1.55836, 1.55312, 1.54285, 1.54155, 1.53843, 1.53377, 1.53119, 1.52798, 1.52484, 1.526, 1.51982, 1.51508, 1.51338, 1.51785, 1.50643, 1.50582, 1.50325, 1.50177, 1.50805, 1.50136, 1.49833, 1.54237, 1.61605, 1.62334, 1.69312, 1.68346, 1.64749, 1.56169, 1.44777, 1.47962, 1.47526, 1.46458, 1.45783, 1.45293, 1.45073, 1.44573, 1.44411, 1.44327, 1.43756, 1.43729, 1.43388, 1.43454, 1.43306, 1.43035, 1.42818, 1.42356, 1.42631, 1.41664, 1.41726, 1.41433, 1.41388, 1.41192, 1.40996, 1.40682, 1.4035, 1.42327, 1.39968, 1.39629, 1.3922, 1.39104, 1.38891, 1.38894, 1.38502, 1.38274, 1.38234, 1.3828, 1.37815, 1.37553, 1.37697, 1.37281, 1.37457, 1.37427, 1.38636, 1.38346, 1.40115, 1.43637, 1.43132, 1.45238, 1.45683, 1.45764, 1.41719, 1.36883, 1.37053, 1.35482, 1.35234, 1.33999, 1.33796, 1.33228, 1.33618, 1.33406, 1.32647, 1.32193, 
1.67665, 1.67404, 1.66877, 1.66417, 1.66238, 1.65824, 1.65891, 1.68645, 1.68717, 1.65766, 1.65219, 1.65392, 1.64245, 1.65236, 1.66972, 1.71339, 1.74549, 1.81749, 1.78485, 1.77986, 1.6937, 1.58933, 1.61598, 1.60719, 1.60225, 1.59142, 1.58833, 1.5839, 1.58238, 1.57894, 1.57643, 1.57785, 1.57184, 1.57188, 1.59191, 1.57047, 1.55441, 1.54951, 1.54754, 1.54039, 1.53753, 1.5335, 1.54817, 1.53007, 1.52786, 1.52316, 1.52107, 1.51811, 1.51672, 1.51314, 1.50946, 1.51282, 1.50465, 1.50312, 1.50278, 1.50157, 1.47461, 1.54329, 1.61976, 1.54286, 1.71413, 1.70882, 1.58643, 1.50549, 1.45146, 1.48626, 1.47792, 1.47986, 1.4643, 1.45791, 1.45416, 1.44982, 1.44559, 1.44191, 1.43923, 1.43682, 1.43572, 1.43486, 1.43314, 1.43081, 1.4298, 1.42709, 1.42487, 1.42356, 1.42304, 1.41761, 1.41588, 1.41664, 1.41181, 1.40644, 1.40366, 1.39965, 1.39668, 1.39271, 1.39095, 1.38969, 1.38638, 1.38444, 1.38848, 1.38064, 1.37879, 1.37745, 1.37546, 1.37459, 1.37356, 1.38189, 1.3736, 1.38234, 1.36966, 1.38252, 1.40661, 1.41559, 1.44435, 1.45766, 1.4679, 1.47124, 1.40477, 1.35804, 1.35077, 1.36215, 1.35034, 1.33788, 1.33535, 1.33364, 1.33101, 1.3278, 1.32793, 1.32486, 
1.6799, 1.67954, 1.67345, 1.67136, 1.66631, 1.66319, 1.66222, 1.67224, 1.69323, 1.67115, 1.66613, 1.65925, 1.64809, 1.65237, 1.6619, 1.72398, 1.75352, 1.78699, 1.77183, 1.77086, 1.67985, 1.58627, 1.61258, 1.60762, 1.6078, 1.5927, 1.59139, 1.59074, 1.5889, 1.58416, 1.57451, 1.58193, 1.57133, 1.57826, 1.58234, 1.56308, 1.55927, 1.5571, 1.55269, 1.55842, 1.54252, 1.53775, 1.53563, 1.53346, 1.53732, 1.52857, 1.52473, 1.51994, 1.51813, 1.53383, 1.51268, 1.51001, 1.50665, 1.50352, 1.50451, 1.50417, 1.4822, 1.51926, 1.59947, 1.67877, 1.68239, 1.68869, 1.61267, 1.53129, 1.465, 1.4897, 1.47948, 1.47307, 1.47479, 1.46401, 1.46024, 1.45162, 1.45185, 1.44751, 1.44152, 1.44162, 1.43747, 1.43622, 1.43401, 1.44332, 1.43097, 1.43003, 1.42636, 1.42444, 1.42926, 1.42212, 1.41944, 1.41622, 1.41608, 1.4064, 1.40302, 1.40338, 1.39857, 1.39499, 1.39252, 1.38933, 1.38367, 1.38199, 1.3806, 1.37927, 1.37819, 1.37575, 1.37531, 1.37386, 1.37172, 1.37138, 1.37492, 1.37976, 1.36974, 1.38809, 1.40834, 1.40589, 1.45183, 1.45827, 1.47011, 1.44985, 1.39732, 1.38988, 1.33913, 1.35739, 1.33812, 1.33436, 1.33435, 1.33419, 1.33031, 1.33357, 1.32676, 1.32584, 
1.68286, 1.67839, 1.67524, 1.67333, 1.66984, 1.67503, 1.67016, 1.67491, 1.68391, 1.6661, 1.66066, 1.65251, 1.64105, 1.63977, 1.69844, 1.78914, 1.77342, 1.79481, 1.80459, 1.70202, 1.70691, 1.59862, 1.61306, 1.60643, 1.59964, 1.59596, 1.58689, 1.58385, 1.58251, 1.58897, 1.57951, 1.57615, 1.57182, 1.58543, 1.6009, 1.61778, 1.5659, 1.57191, 1.55011, 1.56147, 1.54484, 1.54149, 1.5382, 1.5368, 1.53329, 1.52774, 1.52487, 1.52329, 1.5213, 1.51999, 1.5235, 1.53456, 1.53097, 1.50778, 1.50672, 1.50613, 1.48389, 1.53324, 1.62013, 1.67571, 1.69334, 1.6982, 1.63842, 1.58911, 1.45097, 1.48859, 1.48045, 1.48229, 1.47868, 1.46635, 1.46043, 1.45597, 1.45293, 1.42232, 1.45057, 1.44378, 1.44023, 1.44056, 1.43821, 1.438, 1.43288, 1.43086, 1.42753, 1.42732, 1.42441, 1.42519, 1.42072, 1.4188, 1.41572, 1.41166, 1.4121, 1.40604, 1.40245, 1.40063, 1.39624, 1.39338, 1.38853, 1.38594, 1.3844, 1.38233, 1.37869, 1.37959, 1.38599, 1.37635, 1.37616, 1.3834, 1.39651, 1.39591, 1.3815, 1.39141, 1.47659, 1.44584, 1.47519, 1.46752, 1.46974, 1.47138, 1.44559, 1.36729, 1.3293, 1.35169, 1.35719, 1.34297, 1.34382, 1.33484, 1.33225, 1.32995, 1.32924, 1.34174, 
1.68631, 1.68236, 1.67733, 1.6784, 1.66781, 1.66568, 1.66097, 1.6722, 1.6835, 1.69497, 1.65158, 1.65785, 1.63893, 1.63323, 1.66977, 1.74096, 1.77264, 1.82662, 1.87951, 1.81705, 1.72029, 1.58883, 1.61651, 1.61232, 1.59866, 1.61, 1.5895, 1.58762, 1.58617, 1.58309, 1.582, 1.57817, 1.5736, 1.61064, 1.60922, 1.5932, 1.56743, 1.55796, 1.55219, 1.55106, 1.54692, 1.54593, 1.57304, 1.53953, 1.53709, 1.53255, 1.53019, 1.5279, 1.52331, 1.52412, 1.51884, 1.51488, 1.51444, 1.51836, 1.51134, 1.5196, 1.4854, 1.53374, 1.55903, 1.68885, 1.69224, 1.69513, 1.57327, 1.5378, 1.46527, 1.49743, 1.48275, 1.47854, 1.47801, 1.47078, 1.46877, 1.4643, 1.46091, 1.45589, 1.45504, 1.44698, 1.44567, 1.44378, 1.44096, 1.44006, 1.43744, 1.43293, 1.42966, 1.42836, 1.42941, 1.42603, 1.42273, 1.42122, 1.41437, 1.41333, 1.41072, 1.40846, 1.40532, 1.40245, 1.39931, 1.39375, 1.39185, 1.39067, 1.38953, 1.3878, 1.38485, 1.38385, 1.38086, 1.38204, 1.38186, 1.38794, 1.3892, 1.39329, 1.39276, 1.35668, 1.44706, 1.45077, 1.47079, 1.47617, 1.47976, 1.46726, 1.45772, 1.37573, 1.34685, 1.34634, 1.35214, 1.34303, 1.33854, 1.34852, 1.35393, 1.34492, 1.34051, 1.33124, 
1.68784, 1.68173, 1.67743, 1.67537, 1.67137, 1.66527, 1.66976, 1.66139, 1.66987, 1.68292, 1.65378, 1.65576, 1.63191, 1.66428, 1.70597, 1.71393, 1.73101, 1.83725, 1.84474, 1.80064, 1.67822, 1.59673, 1.61318, 1.6107, 1.61716, 1.60604, 1.59672, 1.59373, 1.5955, 1.58713, 1.58227, 1.59842, 1.58324, 1.57595, 1.58536, 1.58739, 1.58006, 1.56175, 1.55848, 1.55451, 1.55776, 1.55721, 1.55086, 1.54516, 1.54258, 1.53896, 1.53729, 1.52522, 1.53984, 1.52175, 1.53411, 1.52759, 1.5272, 1.51578, 1.52868, 1.52611, 1.49182, 1.51317, 1.64009, 1.72056, 1.68904, 1.6866, 1.67352, 1.54093, 1.46881, 1.48729, 1.48142, 1.48204, 1.47502, 1.46954, 1.46839, 1.46551, 1.46387, 1.45912, 1.45552, 1.4541, 1.45328, 1.45028, 1.44785, 1.44443, 1.44036, 1.4402, 1.43629, 1.43189, 1.4292, 1.4269, 1.32473, 1.42329, 1.42065, 1.41777, 1.41645, 1.41287, 1.41021, 1.40481, 1.40081, 1.39994, 1.39923, 1.39198, 1.39106, 1.39123, 1.38901, 1.38647, 1.38578, 1.38629, 1.38532, 1.38661, 1.3977, 1.41351, 1.40894, 1.39781, 1.46823, 1.49795, 1.47326, 1.48275, 1.47885, 1.45417, 1.46408, 1.38137, 1.35533, 1.36066, 1.34709, 1.34571, 1.34361, 1.3432, 1.34245, 1.33788, 1.33821, 1.33666, 
1.68913, 1.68064, 1.67698, 1.67328, 1.66792, 1.66623, 1.66204, 1.66188, 1.66002, 1.67879, 1.68344, 1.64962, 1.62652, 1.64553, 1.70482, 1.75271, 1.79752, 1.80863, 1.80554, 1.78548, 1.69289, 1.62098, 1.62084, 1.61042, 1.60544, 1.59984, 1.59901, 1.59318, 1.58914, 1.58557, 1.58368, 1.57908, 1.57846, 1.57714, 1.57295, 1.58256, 1.58817, 1.57218, 1.5574, 1.55341, 1.55157, 1.54936, 1.54529, 1.54365, 1.54123, 1.53691, 1.53269, 1.56774, 1.52537, 1.52378, 1.51951, 1.51683, 1.51421, 1.51273, 1.51342, 1.5299, 1.49392, 1.51088, 1.57733, 1.66526, 1.69576, 1.69648, 1.65659, 1.54492, 1.44821, 1.48946, 1.48171, 1.47535, 1.47192, 1.47883, 1.46366, 1.46074, 1.4591, 1.45531, 1.45772, 1.45133, 1.44969, 1.44725, 1.44587, 1.4436, 1.44127, 1.43968, 1.43902, 1.43651, 1.43259, 1.42939, 1.42633, 1.42564, 1.42292, 1.42196, 1.41656, 1.41608, 1.41126, 1.40647, 1.40339, 1.40033, 1.40011, 1.39556, 1.39419, 1.39353, 1.39169, 1.38862, 1.38777, 1.38563, 1.38761, 1.38529, 1.40418, 1.40544, 1.38803, 1.37163, 1.4349, 1.48445, 1.47841, 1.5082, 1.49368, 1.49594, 1.4475, 1.35694, 1.34192, 1.3566, 1.35037, 1.36098, 1.34432, 1.3464, 1.36084, 1.34352, 1.34106, 1.3418, 
1.68194, 1.6801, 1.6762, 1.67081, 1.66823, 1.66215, 1.6899, 1.65554, 1.6613, 1.68623, 1.67255, 1.66201, 1.63457, 1.6273, 1.70434, 1.74527, 1.74117, 1.84214, 1.85307, 1.81391, 1.75587, 1.60645, 1.62513, 1.60725, 1.601, 1.60773, 1.59431, 1.59214, 1.59227, 1.59322, 1.57927, 1.57967, 1.57519, 1.57511, 1.56979, 1.57876, 1.57192, 1.57581, 1.57085, 1.5509, 1.5524, 1.54503, 1.54338, 1.54008, 1.53744, 1.53304, 1.52998, 1.52433, 1.52078, 1.51644, 1.51403, 1.51039, 1.50847, 1.51694, 1.50761, 1.50788, 1.49721, 1.48304, 1.62291, 1.65527, 1.69061, 1.69404, 1.67125, 1.53322, 1.455, 1.44261, 1.49295, 1.47157, 1.47307, 1.4618, 1.45747, 1.45577, 1.45221, 1.45108, 1.44847, 1.44661, 1.44525, 1.44307, 1.4409, 1.43816, 1.44106, 1.43429, 1.43253, 1.43175, 1.4309, 1.42943, 1.42595, 1.42475, 1.42263, 1.42037, 1.41637, 1.41341, 1.41299, 1.41206, 1.40721, 1.40674, 1.40261, 1.40123, 1.40324, 1.39166, 1.39012, 1.38966, 1.38933, 1.39986, 1.39821, 1.38297, 1.40199, 1.39207, 1.39249, 1.36038, 1.43766, 1.45258, 1.46589, 1.47774, 1.49408, 1.49602, 1.47785, 1.34629, 1.34422, 1.36849, 1.35205, 1.34865, 1.34911, 1.34871, 1.35482, 1.3437, 1.33868, 1.33778, 
1.68586, 1.68356, 1.67895, 1.67613, 1.67143, 1.66534, 1.66072, 1.65819, 1.66278, 1.65893, 1.68103, 1.67751, 1.64174, 1.61707, 1.66417, 1.70967, 1.7971, 1.82493, 1.81761, 1.8039, 1.6852, 1.61922, 1.61735, 1.61044, 1.59628, 1.59864, 1.59097, 1.5951, 1.58512, 1.5812, 1.57939, 1.57679, 1.5787, 1.57174, 1.57093, 1.56878, 1.56281, 1.58121, 1.56143, 1.55794, 1.5592, 1.54468, 1.54434, 1.5578, 1.54028, 1.53211, 1.5286, 1.52248, 1.51353, 1.51179, 1.51241, 1.52127, 1.50533, 1.50889, 1.51268, 1.46228, 1.46378, 1.5367, 1.57064, 1.67235, 1.69382, 1.63405, 1.62796, 1.54913, 1.49859, 1.4726, 1.48109, 1.47959, 1.46546, 1.45755, 1.45529, 1.45245, 1.45198, 1.44824, 1.44486, 1.46741, 1.44375, 1.46362, 1.43809, 1.4357, 1.43398, 1.43608, 1.43427, 1.43242, 1.42847, 1.42735, 1.42704, 1.42314, 1.42327, 1.42053, 1.41957, 1.41922, 1.41332, 1.41232, 1.41145, 1.40683, 1.40201, 1.39696, 1.39943, 1.39266, 1.39103, 1.39274, 1.39611, 1.38661, 1.39169, 1.38076, 1.38307, 1.38221, 1.3991, 1.37431, 1.40112, 1.42943, 1.48749, 1.49804, 1.50601, 1.49729, 1.46363, 1.42624, 1.3553, 1.35804, 1.36523, 1.35543, 1.37508, 1.34825, 1.3473, 1.34527, 1.34023, 1.33445, 
1.68726, 1.68557, 1.67993, 1.67867, 1.676, 1.67, 1.66604, 1.67268, 1.65856, 1.65759, 1.65937, 1.67804, 1.66898, 1.637, 1.64626, 1.70046, 1.75145, 1.8237, 1.83096, 1.80976, 1.73399, 1.5909, 1.61456, 1.61364, 1.58854, 1.57564, 1.59327, 1.60198, 1.59643, 1.58662, 1.58293, 1.58049, 1.57819, 1.57395, 1.56812, 1.56289, 1.55672, 1.57184, 1.57891, 1.5618, 1.54546, 1.54574, 1.54605, 1.54453, 1.54266, 1.53344, 1.52843, 1.5207, 1.51384, 1.51035, 1.50506, 1.50231, 1.51429, 1.50609, 1.51928, 1.51681, 1.51488, 1.49422, 1.61275, 1.6658, 1.68342, 1.63145, 1.64521, 1.57838, 1.4847, 1.43611, 1.49369, 1.47902, 1.47773, 1.46835, 1.46154, 1.45414, 1.45317, 1.45068, 1.44892, 1.44668, 1.44338, 1.44019, 1.43703, 1.43434, 1.43149, 1.43329, 1.43461, 1.43259, 1.42881, 1.42852, 1.4238, 1.4215, 1.43511, 1.41749, 1.41509, 1.41118, 1.41002, 1.40631, 1.40327, 1.40158, 1.39635, 1.39461, 1.39122, 1.38887, 1.39139, 1.38568, 1.38526, 1.38567, 1.38294, 1.38018, 1.38898, 1.39991, 1.39555, 1.37557, 1.44081, 1.47115, 1.48965, 1.53175, 1.51316, 1.51684, 1.47611, 1.38526, 1.3311, 1.35878, 1.36915, 1.35083, 1.34864, 1.34545, 1.34715, 1.34105, 1.3358, 1.33333, 
1.69988, 1.6967, 1.69103, 1.68929, 1.68557, 1.68351, 1.6802, 1.67672, 1.69363, 1.66966, 1.67013, 1.68249, 1.68548, 1.62193, 1.64763, 1.68968, 1.81395, 1.89388, 1.8716, 1.83711, 1.67234, 1.60436, 1.62357, 1.61069, 1.61043, 1.6136, 1.60996, 1.59985, 1.59841, 1.59326, 1.59151, 1.59265, 1.59375, 1.5827, 1.58928, 1.56994, 1.56801, 1.57582, 1.58847, 1.57229, 1.57882, 1.55854, 1.55479, 1.54755, 1.54699, 1.55562, 1.53899, 1.53252, 1.529, 1.52693, 1.52641, 1.52297, 1.51872, 1.51724, 1.52774, 1.53573, 1.53337, 1.54097, 1.59996, 1.62979, 1.65606, 1.64721, 1.62844, 1.55774, 1.49921, 1.47355, 1.47416, 1.48697, 1.4884, 1.48034, 1.47542, 1.46401, 1.46115, 1.46101, 1.45829, 1.4579, 1.44843, 1.44445, 1.44048, 1.43816, 1.43839, 1.44371, 1.44581, 1.44169, 1.43979, 1.43155, 1.42975, 1.42968, 1.42968, 1.42626, 1.42386, 1.42237, 1.41195, 1.41083, 1.42969, 1.4165, 1.4124, 1.40575, 1.42298, 1.39814, 1.39857, 1.39535, 1.38835, 1.38846, 1.3913, 1.38931, 1.38885, 1.39318, 1.38925, 1.38168, 1.4278, 1.45255, 1.48938, 1.52489, 1.52012, 1.51679, 1.46803, 1.40936, 1.36453, 1.36741, 1.36533, 1.35331, 1.36129, 1.36846, 1.35315, 1.35286, 1.34763, 1.34349, 
1.70351, 1.69197, 1.68857, 1.68267, 1.67296, 1.67381, 1.68265, 1.67908, 1.67393, 1.68975, 1.67541, 1.6647, 1.6586, 1.64919, 1.68984, 1.70985, 1.75658, 1.84982, 1.84968, 1.84151, 1.7358, 1.61746, 1.61725, 1.62936, 1.61741, 1.6268, 1.60364, 1.5952, 1.59825, 1.59172, 1.58845, 1.58679, 1.58311, 1.57467, 1.57334, 1.5728, 1.58181, 1.57686, 1.57273, 1.58987, 1.56828, 1.55592, 1.5468, 1.54274, 1.56206, 1.54425, 1.54026, 1.55562, 1.5308, 1.54094, 1.54224, 1.52712, 1.52266, 1.53293, 1.53086, 1.53789, 1.51299, 1.5197, 1.58923, 1.65087, 1.67921, 1.66663, 1.64302, 1.60597, 1.52787, 1.45952, 1.4874, 1.50404, 1.49338, 1.49216, 1.47656, 1.4787, 1.49316, 1.4694, 1.46814, 1.46471, 1.45935, 1.4501, 1.4486, 1.44403, 1.45507, 1.45117, 1.44791, 1.44213, 1.4368, 1.43604, 1.43593, 1.4313, 1.42941, 1.426, 1.42657, 1.42192, 1.41868, 1.41695, 1.41454, 1.41114, 1.40737, 1.41567, 1.40576, 1.40947, 1.401, 1.39633, 1.39199, 1.39555, 1.39033, 1.39922, 1.39054, 1.40619, 1.40048, 1.37387, 1.45121, 1.47595, 1.5286, 1.52617, 1.52319, 1.53794, 1.48957, 1.44716, 1.35852, 1.37498, 1.37186, 1.35977, 1.35482, 1.36104, 1.36433, 1.35294, 1.34742, 1.34718, 
1.69261, 1.68773, 1.675, 1.67148, 1.66127, 1.6586, 1.66069, 1.67133, 1.67027, 1.69325, 1.65037, 1.65821, 1.64882, 1.61658, 1.69285, 1.70289, 1.78331, 1.84881, 1.84788, 1.8299, 1.7524, 1.60114, 1.63045, 1.63369, 1.6089, 1.60681, 1.60422, 1.58952, 1.5721, 1.5727, 1.58377, 1.58486, 1.57825, 1.57518, 1.55758, 1.55986, 1.56304, 1.55872, 1.56445, 1.57357, 1.55795, 1.55551, 1.54423, 1.54535, 1.54405, 1.5424, 1.53867, 1.54427, 1.5213, 1.51484, 1.52146, 1.52251, 1.51216, 1.51027, 1.51317, 1.51343, 1.49968, 1.50913, 1.57297, 1.6229, 1.63415, 1.6557, 1.64535, 1.56639, 1.48475, 1.46596, 1.48111, 1.47579, 1.49945, 1.4976, 1.46736, 1.46566, 1.46894, 1.47825, 1.45547, 1.45389, 1.45121, 1.4493, 1.43158, 1.4283, 1.4442, 1.4452, 1.44469, 1.44484, 1.42437, 1.41338, 1.41032, 1.41503, 1.41659, 1.41475, 1.41651, 1.40918, 1.40754, 1.40016, 1.39362, 1.38976, 1.39013, 1.38988, 1.39245, 1.39279, 1.39268, 1.38802, 1.37851, 1.37579, 1.37597, 1.37868, 1.37831, 1.38625, 1.38698, 1.36211, 1.42175, 1.43405, 1.49981, 1.5058, 1.51552, 1.50876, 1.45875, 1.42887, 1.33397, 1.36212, 1.35924, 1.35144, 1.35388, 1.35222, 1.34536, 1.33329, 1.32347, 1.32249, 
1.69827, 1.69677, 1.68649, 1.68366, 1.68139, 1.69495, 1.6793, 1.68015, 1.68835, 1.66974, 1.6697, 1.66473, 1.6492, 1.69153, 1.67847, 1.70744, 1.76922, 1.84743, 1.89996, 1.86665, 1.82092, 1.60988, 1.62875, 1.63491, 1.6307, 1.63399, 1.61001, 1.6033, 1.60695, 1.59893, 1.59532, 1.59262, 1.58912, 1.58268, 1.58302, 1.57239, 1.56936, 1.56665, 1.57469, 1.57621, 1.57956, 1.56068, 1.5574, 1.57095, 1.55021, 1.54527, 1.5417, 1.53894, 1.54795, 1.54364, 1.54063, 1.53178, 1.52757, 1.52317, 1.52983, 1.53389, 1.51573, 1.50077, 1.60656, 1.64663, 1.66705, 1.67222, 1.67128, 1.62604, 1.48327, 1.48236, 1.49522, 1.47959, 1.50032, 1.50013, 1.48234, 1.47844, 1.49161, 1.47388, 1.4633, 1.4625, 1.45198, 1.44388, 1.44066, 1.44054, 1.44703, 1.45083, 1.44992, 1.4411, 1.43458, 1.45895, 1.43455, 1.42015, 1.41428, 1.41231, 1.4122, 1.40745, 1.4184, 1.41628, 1.40002, 1.40205, 1.40117, 1.40254, 1.40332, 1.43076, 1.40868, 1.40589, 1.40738, 1.39554, 1.40242, 1.38578, 1.38165, 1.39641, 1.39895, 1.36535, 1.40425, 1.4452, 1.47585, 1.50835, 1.51897, 1.50257, 1.47191, 1.40582, 1.342, 1.36831, 1.37487, 1.36577, 1.37914, 1.35097, 1.34447, 1.33662, 1.3556, 1.33472, 
1.6927, 1.68903, 1.68529, 1.68319, 1.67892, 1.67513, 1.67116, 1.66573, 1.66454, 1.66881, 1.67714, 1.66454, 1.63788, 1.66845, 1.64817, 1.74368, 1.79903, 1.84765, 1.89, 1.86935, 1.76139, 1.63262, 1.63202, 1.6235, 1.6175, 1.60973, 1.61216, 1.60597, 1.59378, 1.60648, 1.58891, 1.58741, 1.58666, 1.58239, 1.57772, 1.57773, 1.57118, 1.58237, 1.57347, 1.57214, 1.59055, 1.57253, 1.55978, 1.55561, 1.54781, 1.54106, 1.53806, 1.53754, 1.53442, 1.54813, 1.53498, 1.52597, 1.53235, 1.53076, 1.52736, 1.52828, 1.51992, 1.52315, 1.59562, 1.64243, 1.65161, 1.6877, 1.64186, 1.62031, 1.57065, 1.46573, 1.49775, 1.4895, 1.50656, 1.51776, 1.48882, 1.4853, 1.47379, 1.46653, 1.45882, 1.4557, 1.45264, 1.45303, 1.44804, 1.44782, 1.4479, 1.44572, 1.44317, 1.44943, 1.437, 1.44081, 1.43501, 1.43356, 1.43015, 1.42796, 1.42605, 1.44023, 1.43216, 1.4158, 1.41375, 1.41063, 1.41006, 1.40793, 1.40551, 1.40621, 1.40255, 1.42711, 1.41402, 1.39612, 1.39348, 1.39435, 1.39287, 1.40752, 1.41457, 1.37703, 1.40345, 1.41551, 1.48093, 1.52123, 1.54409, 1.53872, 1.4806, 1.46469, 1.34733, 1.3738, 1.36757, 1.37289, 1.36746, 1.35432, 1.36366, 1.34779, 1.34857, 1.34781, 
1.68529, 1.68261, 1.67725, 1.67391, 1.67426, 1.67272, 1.66986, 1.67558, 1.65875, 1.65724, 1.65943, 1.6507, 1.65203, 1.64533, 1.65474, 1.70444, 1.78375, 1.83732, 1.86187, 1.82347, 1.71754, 1.61329, 1.6275, 1.61671, 1.60981, 1.60584, 1.59937, 1.59949, 1.58397, 1.57845, 1.57772, 1.57071, 1.57228, 1.57381, 1.57396, 1.57863, 1.561, 1.56277, 1.56258, 1.55507, 1.55843, 1.56548, 1.54632, 1.55361, 1.53458, 1.54011, 1.53116, 1.53025, 1.53989, 1.53541, 1.52377, 1.52276, 1.53081, 1.50961, 1.50915, 1.53503, 1.50305, 1.49628, 1.56181, 1.59538, 1.64098, 1.64904, 1.64113, 1.60303, 1.52024, 1.45671, 1.47819, 1.47721, 1.48064, 1.48967, 1.49171, 1.46529, 1.45552, 1.46041, 1.44791, 1.44199, 1.44278, 1.44333, 1.44595, 1.44402, 1.44201, 1.43774, 1.43643, 1.43507, 1.43339, 1.4261, 1.42324, 1.42224, 1.42079, 1.41717, 1.41666, 1.40903, 1.40425, 1.40333, 1.40304, 1.4016, 1.39587, 1.39372, 1.39505, 1.39161, 1.38986, 1.3897, 1.38984, 1.38565, 1.38599, 1.38298, 1.39489, 1.39307, 1.39908, 1.36804, 1.43012, 1.45573, 1.49097, 1.50847, 1.52629, 1.52715, 1.509, 1.44036, 1.35864, 1.35827, 1.36639, 1.34853, 1.3468, 1.34362, 1.33994, 1.33732, 1.34623, 1.33997, 
1.68234, 1.67696, 1.67492, 1.67903, 1.66666, 1.66646, 1.66167, 1.66456, 1.65366, 1.64899, 1.65069, 1.65127, 1.65123, 1.61076, 1.65136, 1.72303, 1.76446, 1.86244, 1.84787, 1.87584, 1.76383, 1.57978, 1.60344, 1.61125, 1.61258, 1.59432, 1.58912, 1.58628, 1.58896, 1.57837, 1.57469, 1.5692, 1.56477, 1.56774, 1.56119, 1.55976, 1.55785, 1.55694, 1.57089, 1.55388, 1.55166, 1.562, 1.55688, 1.54135, 1.53618, 1.53021, 1.52749, 1.52638, 1.52357, 1.51623, 1.51199, 1.50868, 1.50364, 1.50255, 1.51009, 1.52702, 1.51271, 1.54169, 1.58415, 1.59932, 1.63236, 1.64033, 1.60565, 1.5438, 1.4766, 1.45859, 1.47081, 1.4832, 1.4743, 1.49018, 1.48212, 1.45598, 1.46085, 1.45225, 1.443, 1.44108, 1.4405, 1.44115, 1.44063, 1.43979, 1.43698, 1.43232, 1.42969, 1.42487, 1.42311, 1.42546, 1.41646, 1.42358, 1.42481, 1.4111, 1.40483, 1.40253, 1.3976, 1.39665, 1.39435, 1.40171, 1.38816, 1.38624, 1.38536, 1.38381, 1.38162, 1.38517, 1.38153, 1.37609, 1.37377, 1.37228, 1.37155, 1.38006, 1.38867, 1.37069, 1.39177, 1.3989, 1.40684, 1.51539, 1.52569, 1.56446, 1.53623, 1.45007, 1.33799, 1.36202, 1.35966, 1.3557, 1.34068, 1.33738, 1.33451, 1.33432, 1.33466, 1.33413, 
1.6876, 1.6927, 1.6829, 1.68117, 1.69587, 1.68187, 1.68254, 1.67738, 1.66913, 1.65295, 1.64862, 1.64834, 1.6452, 1.63397, 1.65943, 1.68011, 1.76241, 1.83592, 1.89301, 1.90007, 1.77547, 1.59177, 1.62035, 1.61795, 1.60721, 1.62034, 1.5974, 1.59969, 1.58941, 1.5931, 1.58708, 1.57879, 1.57633, 1.57202, 1.56585, 1.5629, 1.57645, 1.55676, 1.55467, 1.55122, 1.54658, 1.56215, 1.55029, 1.55145, 1.54726, 1.53822, 1.5346, 1.5482, 1.53626, 1.54128, 1.51547, 1.51216, 1.51072, 1.5088, 1.50967, 1.51752, 1.52692, 1.49179, 1.54737, 1.65813, 1.65843, 1.6657, 1.61732, 1.58705, 1.54475, 1.48268, 1.48867, 1.47883, 1.47558, 1.4754, 1.48543, 1.46834, 1.46357, 1.45706, 1.44862, 1.4502, 1.44796, 1.45402, 1.44354, 1.44014, 1.43958, 1.44746, 1.44072, 1.43064, 1.42958, 1.42696, 1.42741, 1.42261, 1.42237, 1.41924, 1.41303, 1.40902, 1.40735, 1.40365, 1.40078, 1.3998, 1.39641, 1.39359, 1.3933, 1.39159, 1.39613, 1.38835, 1.38477, 1.39634, 1.38152, 1.39214, 1.38642, 1.39234, 1.3819, 1.3368, 1.40937, 1.4332, 1.47149, 1.52169, 1.54415, 1.56097, 1.53599, 1.47401, 1.35835, 1.36897, 1.3651, 1.3618, 1.36216, 1.36448, 1.36161, 1.35697, 1.33652, 1.35249, 
1.70379, 1.67492, 1.66959, 1.66781, 1.66231, 1.65964, 1.67165, 1.65788, 1.64529, 1.63881, 1.63513, 1.64101, 1.63339, 1.6253, 1.58944, 1.71806, 1.71369, 1.84856, 1.89002, 1.88916, 1.75581, 1.65591, 1.60186, 1.59619, 1.59793, 1.58709, 1.58303, 1.58034, 1.57855, 1.57449, 1.57169, 1.57444, 1.56843, 1.56416, 1.56061, 1.55702, 1.55225, 1.55398, 1.5432, 1.53776, 1.53644, 1.53393, 1.54491, 1.54392, 1.53745, 1.52142, 1.51919, 1.51461, 1.51126, 1.50925, 1.50674, 1.50207, 1.50003, 1.49706, 1.5084, 1.5091, 1.49052, 1.47167, 1.5308, 1.60974, 1.63693, 1.63229, 1.62994, 1.58928, 1.52076, 1.48444, 1.46966, 1.47871, 1.46455, 1.48136, 1.4782, 1.47585, 1.44523, 1.45883, 1.44731, 1.43781, 1.4361, 1.43326, 1.43, 1.42748, 1.42362, 1.41991, 1.41923, 1.41908, 1.43396, 1.40902, 1.40749, 1.40528, 1.40285, 1.4023, 1.39866, 1.3958, 1.3948, 1.39089, 1.38796, 1.38881, 1.38257, 1.38096, 1.37793, 1.37742, 1.38571, 1.37218, 1.37058, 1.36997, 1.36493, 1.36506, 1.36497, 1.37534, 1.37222, 1.33238, 1.33134, 1.39584, 1.43432, 1.52176, 1.53364, 1.56416, 1.54729, 1.49407, 1.35664, 1.35561, 1.34891, 1.34793, 1.3404, 1.33087, 1.33579, 1.32713, 1.32363, 1.32213, 
1.6769, 1.67315, 1.67473, 1.66525, 1.66221, 1.66539, 1.6523, 1.65387, 1.64752, 1.63498, 1.63562, 1.63034, 1.64151, 1.6068, 1.60724, 1.61234, 1.71817, 1.81338, 1.86784, 1.86507, 1.7614, 1.63022, 1.60009, 1.59791, 1.59579, 1.58899, 1.58415, 1.57998, 1.5749, 1.58516, 1.57023, 1.56611, 1.56301, 1.56127, 1.56056, 1.5562, 1.55079, 1.54544, 1.54737, 1.53825, 1.53481, 1.52689, 1.54098, 1.54811, 1.5301, 1.54468, 1.5229, 1.52433, 1.51251, 1.51105, 1.50897, 1.50592, 1.50222, 1.51196, 1.51647, 1.50189, 1.49612, 1.47205, 1.54033, 1.6183, 1.65141, 1.66164, 1.63329, 1.6, 1.54642, 1.46753, 1.46584, 1.46651, 1.45755, 1.45599, 1.46001, 1.46914, 1.44048, 1.4463, 1.44166, 1.43443, 1.43151, 1.43026, 1.42537, 1.42121, 1.41813, 1.41649, 1.41302, 1.41122, 1.40859, 1.40711, 1.40194, 1.39791, 1.39654, 1.39492, 1.40019, 1.39408, 1.39371, 1.39232, 1.38845, 1.38525, 1.38132, 1.37955, 1.37759, 1.37718, 1.37439, 1.37033, 1.36563, 1.36536, 1.36241, 1.364, 1.3591, 1.3586, 1.36502, 1.33638, 1.3687, 1.44102, 1.48919, 1.51338, 1.52843, 1.54468, 1.52283, 1.44375, 1.338, 1.34334, 1.36047, 1.33045, 1.33444, 1.3244, 1.32377, 1.32214, 1.32055, 1.31985, 
1.67287, 1.6717, 1.66227, 1.65589, 1.65272, 1.64965, 1.64739, 1.64741, 1.64728, 1.63994, 1.63582, 1.63306, 1.63204, 1.61371, 1.64127, 1.7184, 1.75881, 1.81737, 1.88742, 1.89709, 1.69992, 1.61031, 1.59224, 1.60897, 1.59379, 1.58794, 1.5835, 1.58046, 1.57533, 1.57118, 1.56821, 1.56519, 1.5626, 1.56188, 1.5592, 1.55606, 1.55396, 1.5461, 1.54178, 1.53783, 1.53514, 1.53335, 1.54206, 1.55245, 1.5334, 1.52345, 1.52133, 1.52079, 1.51877, 1.51564, 1.51327, 1.51275, 1.5091, 1.51256, 1.50235, 1.51846, 1.50109, 1.48676, 1.5026, 1.59839, 1.61637, 1.63022, 1.62666, 1.60351, 1.534, 1.45595, 1.45437, 1.4737, 1.46961, 1.46016, 1.46569, 1.47969, 1.46431, 1.4456, 1.44297, 1.43768, 1.43544, 1.43024, 1.42933, 1.42681, 1.423, 1.41968, 1.41772, 1.41522, 1.4127, 1.41094, 1.40878, 1.40893, 1.40863, 1.40276, 1.40116, 1.39971, 1.399, 1.39561, 1.39427, 1.39159, 1.38738, 1.37895, 1.37565, 1.3748, 1.37512, 1.37527, 1.37082, 1.36849, 1.36623, 1.36487, 1.36342, 1.36181, 1.36369, 1.33494, 1.3874, 1.44071, 1.47264, 1.51373, 1.5288, 1.53036, 1.51217, 1.43072, 1.34786, 1.34387, 1.34402, 1.34392, 1.33047, 1.32573, 1.32353, 1.32207, 1.322, 1.32191, 
1.66932, 1.66337, 1.65901, 1.65146, 1.65137, 1.64841, 1.64226, 1.64019, 1.63789, 1.6374, 1.6442, 1.65815, 1.63761, 1.63049, 1.61053, 1.68578, 1.77311, 1.83518, 1.89315, 1.89996, 1.74033, 1.60645, 1.58558, 1.59897, 1.60713, 1.58859, 1.59751, 1.59552, 1.58802, 1.56784, 1.56182, 1.55985, 1.55266, 1.55512, 1.55863, 1.56112, 1.54955, 1.54481, 1.54162, 1.53687, 1.5341, 1.53411, 1.53459, 1.54068, 1.54916, 1.53537, 1.51785, 1.51704, 1.5147, 1.51151, 1.50591, 1.51679, 1.50232, 1.49954, 1.49884, 1.51288, 1.5006, 1.47658, 1.50629, 1.5793, 1.60762, 1.61984, 1.61456, 1.59555, 1.55825, 1.45392, 1.47272, 1.4652, 1.45579, 1.4552, 1.46107, 1.46434, 1.46471, 1.4553, 1.44117, 1.43489, 1.42938, 1.42775, 1.42814, 1.43223, 1.42772, 1.42264, 1.42015, 1.41456, 1.43679, 1.41294, 1.4118, 1.41042, 1.40912, 1.40622, 1.40361, 1.4025, 1.40157, 1.39972, 1.39702, 1.39367, 1.38843, 1.39198, 1.38254, 1.38546, 1.37994, 1.37644, 1.39491, 1.37357, 1.36939, 1.36772, 1.36531, 1.36795, 1.38517, 1.37826, 1.3685, 1.43472, 1.47556, 1.50688, 1.56117, 1.55163, 1.5662, 1.40782, 1.34359, 1.33619, 1.34349, 1.33294, 1.32848, 1.32716, 1.32452, 1.32533, 1.32542, 1.32375, 
1.67268, 1.67159, 1.66557, 1.66103, 1.66006, 1.66014, 1.65473, 1.64539, 1.64453, 1.64434, 1.63496, 1.63712, 1.63318, 1.64158, 1.60289, 1.67606, 1.77202, 1.85351, 1.88361, 1.9063, 1.72209, 1.67559, 1.57307, 1.59886, 1.59231, 1.58666, 1.58363, 1.59588, 1.57385, 1.57132, 1.56498, 1.56254, 1.55938, 1.55721, 1.55704, 1.55492, 1.55081, 1.54724, 1.54196, 1.53972, 1.53543, 1.53293, 1.52993, 1.53438, 1.54121, 1.54022, 1.51695, 1.51497, 1.5118, 1.50705, 1.50617, 1.50408, 1.4983, 1.4952, 1.49621, 1.4985, 1.49599, 1.48808, 1.51978, 1.54711, 1.58048, 1.60655, 1.59188, 1.57364, 1.54129, 1.43969, 1.45739, 1.46266, 1.4538, 1.44836, 1.44849, 1.46091, 1.4656, 1.45186, 1.43767, 1.44776, 1.45835, 1.43185, 1.42906, 1.4276, 1.4312, 1.42057, 1.41641, 1.41534, 1.4134, 1.4125, 1.41021, 1.40966, 1.4055, 1.40295, 1.40226, 1.39916, 1.39692, 1.39463, 1.38912, 1.38609, 1.38303, 1.38069, 1.37843, 1.37777, 1.37623, 1.37454, 1.37049, 1.36829, 1.36934, 1.368, 1.36821, 1.37494, 1.36815, 1.36599, 1.36825, 1.4438, 1.50609, 1.53417, 1.56438, 1.57221, 1.55675, 1.43337, 1.31942, 1.33962, 1.33975, 1.33303, 1.32809, 1.32698, 1.32608, 1.3249, 1.32558, 1.32146, 
1.67902, 1.67772, 1.67285, 1.67028, 1.66769, 1.66106, 1.65935, 1.65748, 1.64847, 1.64507, 1.64157, 1.64389, 1.64122, 1.63428, 1.62221, 1.66871, 1.72542, 1.84043, 1.88575, 1.88042, 1.81042, 1.69028, 1.59697, 1.62093, 1.61028, 1.59298, 1.58401, 1.58698, 1.58705, 1.57271, 1.56836, 1.56666, 1.56465, 1.56162, 1.56177, 1.5577, 1.55126, 1.54991, 1.54451, 1.54026, 1.53837, 1.53484, 1.53169, 1.53149, 1.52985, 1.54743, 1.5437, 1.5163, 1.51321, 1.50837, 1.51065, 1.50356, 1.49981, 1.49714, 1.49687, 1.52404, 1.4982, 1.46718, 1.51183, 1.56232, 1.59878, 1.63295, 1.60193, 1.57488, 1.56851, 1.45787, 1.45763, 1.46354, 1.46004, 1.44993, 1.44816, 1.44749, 1.46554, 1.4621, 1.44156, 1.44065, 1.44035, 1.43695, 1.428, 1.42569, 1.42381, 1.4213, 1.41758, 1.41628, 1.41273, 1.41016, 1.40841, 1.40568, 1.40537, 1.40229, 1.40033, 1.39715, 1.39452, 1.39139, 1.38936, 1.38524, 1.38239, 1.38003, 1.37804, 1.37624, 1.37465, 1.37443, 1.37274, 1.3717, 1.36959, 1.36861, 1.36882, 1.38148, 1.37676, 1.35601, 1.36875, 1.45592, 1.47268, 1.5308, 1.56919, 1.57151, 1.52754, 1.44196, 1.34431, 1.3482, 1.35071, 1.33499, 1.33446, 1.33082, 1.32971, 1.3329, 1.32702, 1.32586, 
1.67788, 1.67324, 1.67164, 1.66613, 1.66519, 1.65895, 1.65442, 1.65442, 1.6458, 1.64279, 1.64079, 1.6355, 1.63431, 1.63484, 1.60498, 1.65472, 1.7117, 1.79019, 1.88885, 1.85916, 1.83584, 1.62188, 1.5732, 1.59934, 1.60555, 1.58627, 1.57968, 1.57697, 1.57201, 1.56749, 1.56726, 1.56533, 1.56318, 1.55977, 1.5579, 1.5549, 1.55235, 1.54971, 1.54352, 1.53794, 1.53567, 1.53462, 1.52945, 1.53579, 1.53815, 1.54124, 1.53776, 1.51275, 1.50947, 1.50654, 1.50618, 1.51093, 1.49894, 1.49624, 1.49616, 1.51361, 1.51273, 1.46483, 1.50893, 1.56596, 1.60249, 1.60983, 1.60525, 1.56224, 1.51184, 1.48928, 1.46993, 1.4627, 1.4648, 1.45054, 1.44819, 1.44904, 1.45683, 1.45378, 1.45757, 1.44826, 1.43145, 1.42854, 1.42436, 1.42449, 1.42231, 1.42003, 1.41897, 1.4157, 1.41213, 1.40921, 1.40991, 1.40898, 1.40352, 1.40226, 1.39893, 1.39561, 1.39267, 1.39288, 1.39253, 1.38559, 1.38401, 1.3819, 1.38089, 1.37844, 1.37651, 1.37515, 1.37405, 1.37161, 1.37072, 1.36865, 1.378, 1.37159, 1.36747, 1.34802, 1.3348, 1.43291, 1.49697, 1.53744, 1.56266, 1.5678, 1.52993, 1.48056, 1.33886, 1.36114, 1.36371, 1.35045, 1.35784, 1.35574, 1.34016, 1.3366, 1.33028, 1.327, 
1.67346, 1.67141, 1.6662, 1.66368, 1.66006, 1.66002, 1.6526, 1.64966, 1.64789, 1.64189, 1.63987, 1.63644, 1.63476, 1.64062, 1.60759, 1.66941, 1.72743, 1.78762, 1.89295, 1.94887, 1.70269, 1.59146, 1.59373, 1.60706, 1.60334, 1.58717, 1.58142, 1.57694, 1.57477, 1.57288, 1.57153, 1.56888, 1.56186, 1.56167, 1.55985, 1.55453, 1.55241, 1.54882, 1.54464, 1.54248, 1.53894, 1.53427, 1.53088, 1.528, 1.52639, 1.53125, 1.54189, 1.52673, 1.51935, 1.51094, 1.50891, 1.50462, 1.50316, 1.50103, 1.50009, 1.4999, 1.49991, 1.46484, 1.5264, 1.52712, 1.58899, 1.57432, 1.59576, 1.5827, 1.56454, 1.47265, 1.45188, 1.46847, 1.47348, 1.45354, 1.45013, 1.44825, 1.44733, 1.45924, 1.46248, 1.43891, 1.4343, 1.4286, 1.42662, 1.42464, 1.42257, 1.42036, 1.41919, 1.41594, 1.41462, 1.41226, 1.41104, 1.40902, 1.40573, 1.40303, 1.40009, 1.39655, 1.39511, 1.39036, 1.38717, 1.38859, 1.38243, 1.38071, 1.37913, 1.37817, 1.37559, 1.37455, 1.37283, 1.37046, 1.36815, 1.36669, 1.36189, 1.36057, 1.36231, 1.36561, 1.36682, 1.42377, 1.4791, 1.51364, 1.56946, 1.39609, 1.5335, 1.45369, 1.33174, 1.35733, 1.36778, 1.34618, 1.34111, 1.34079, 1.33495, 1.33652, 1.32851, 1.32461, 
1.67545, 1.67333, 1.667, 1.66521, 1.65983, 1.65643, 1.65136, 1.64616, 1.64469, 1.64264, 1.65803, 1.63718, 1.64082, 1.63833, 1.61358, 1.659, 1.73116, 1.76901, 1.89518, 1.91375, 1.87959, 1.587, 1.61332, 1.61116, 1.60005, 1.59308, 1.58654, 1.5897, 1.58479, 1.57632, 1.57193, 1.57545, 1.56493, 1.56283, 1.56125, 1.55778, 1.55564, 1.55254, 1.54862, 1.5465, 1.54038, 1.54043, 1.53349, 1.53035, 1.52641, 1.52681, 1.54331, 1.53464, 1.52012, 1.52144, 1.51498, 1.50901, 1.50981, 1.50633, 1.51006, 1.51256, 1.50558, 1.48559, 1.52105, 1.56269, 1.62283, 1.60168, 1.58648, 1.5823, 1.53873, 1.49093, 1.45688, 1.47867, 1.47102, 1.45548, 1.45415, 1.45047, 1.44904, 1.44734, 1.46464, 1.44686, 1.43585, 1.43262, 1.43059, 1.42697, 1.42586, 1.42295, 1.43174, 1.42119, 1.41772, 1.41723, 1.41319, 1.40983, 1.40734, 1.40265, 1.40043, 1.39793, 1.39497, 1.39292, 1.39032, 1.38725, 1.38427, 1.38155, 1.37955, 1.37798, 1.37595, 1.37403, 1.37408, 1.37182, 1.36885, 1.36736, 1.36424, 1.37201, 1.38311, 1.36714, 1.36557, 1.42494, 1.46954, 1.50048, 1.58101, 1.60882, 1.473, 1.43296, 1.33926, 1.35095, 1.36372, 1.35136, 1.35106, 1.34916, 1.33615, 1.33433, 1.33227, 1.33068, 
1.67388, 1.67146, 1.6665, 1.66226, 1.65928, 1.65666, 1.65337, 1.64544, 1.64389, 1.63937, 1.63809, 1.63623, 1.64362, 1.63479, 1.63038, 1.65166, 1.70416, 1.77267, 1.83068, 1.93677, 1.74189, 1.58906, 1.58634, 1.60225, 1.59428, 1.5893, 1.58344, 1.57938, 1.58864, 1.57085, 1.56909, 1.56423, 1.56079, 1.55758, 1.55419, 1.55386, 1.55105, 1.54861, 1.5501, 1.54055, 1.53809, 1.53534, 1.53336, 1.52861, 1.53349, 1.52822, 1.53952, 1.53963, 1.54015, 1.51309, 1.51168, 1.51562, 1.50798, 1.50333, 1.49913, 1.50076, 1.49631, 1.47599, 1.53496, 1.51899, 1.61013, 1.60369, 1.58284, 1.55735, 1.5406, 1.47574, 1.44641, 1.4752, 1.47503, 1.47501, 1.45329, 1.45001, 1.44757, 1.44442, 1.45148, 1.44185, 1.4328, 1.43031, 1.42622, 1.42624, 1.42362, 1.42141, 1.42112, 1.42123, 1.41765, 1.41351, 1.41333, 1.40989, 1.40807, 1.40579, 1.40288, 1.39926, 1.39746, 1.39426, 1.39165, 1.38711, 1.38559, 1.38058, 1.37688, 1.37455, 1.37081, 1.37002, 1.36936, 1.37115, 1.36514, 1.36493, 1.36474, 1.36137, 1.36471, 1.38157, 1.36159, 1.44642, 1.45127, 1.476, 1.59486, 1.59992, 1.55897, 1.34835, 1.30239, 1.34405, 1.34104, 1.3436, 1.33093, 1.33174, 1.32971, 1.32587, 1.32623, 1.32785, 
1.67589, 1.67351, 1.66809, 1.66226, 1.65843, 1.65428, 1.65068, 1.64567, 1.64381, 1.64112, 1.63749, 1.63841, 1.64092, 1.63354, 1.62136, 1.61334, 1.73337, 1.80023, 1.95427, 1.97126, 1.78277, 1.58282, 1.58602, 1.59726, 1.59158, 1.58867, 1.58496, 1.57845, 1.57651, 1.57316, 1.56968, 1.56547, 1.5629, 1.56027, 1.55853, 1.55418, 1.55072, 1.54772, 1.5442, 1.54045, 1.53534, 1.53136, 1.53014, 1.52829, 1.52388, 1.5212, 1.52131, 1.52456, 1.52759, 1.54126, 1.51263, 1.50949, 1.50453, 1.50188, 1.5133, 1.51043, 1.50751, 1.47199, 1.4911, 1.55341, 1.56199, 1.58429, 1.57087, 1.56937, 1.54144, 1.51711, 1.45901, 1.46955, 1.46857, 1.46471, 1.44903, 1.45382, 1.44712, 1.44637, 1.45754, 1.45528, 1.43418, 1.43928, 1.43072, 1.4254, 1.42468, 1.42264, 1.42076, 1.42, 1.41917, 1.41428, 1.41279, 1.41004, 1.40865, 1.40534, 1.40444, 1.40046, 1.39663, 1.39482, 1.39191, 1.38793, 1.38202, 1.3776, 1.37404, 1.37266, 1.37071, 1.37056, 1.36819, 1.36699, 1.36965, 1.36876, 1.3673, 1.36552, 1.37483, 1.38761, 1.3453, 1.3678, 1.4793, 1.54885, 1.57635, 1.59689, 1.56496, 1.40993, 1.30593, 1.35038, 1.3448, 1.34099, 1.33355, 1.33172, 1.33789, 1.32973, 1.32848, 1.32655, 
1.67369, 1.66657, 1.66134, 1.66185, 1.65968, 1.6508, 1.64771, 1.64413, 1.6508, 1.63906, 1.63802, 1.63531, 1.64915, 1.64387, 1.62372, 1.62704, 1.72014, 1.83574, 1.81769, 1.96934, 2.00204, 1.58197, 1.58015, 1.60126, 1.59538, 1.58692, 1.59533, 1.57846, 1.57542, 1.57277, 1.59639, 1.57192, 1.56376, 1.55723, 1.55387, 1.5529, 1.54711, 1.54384, 1.54375, 1.53848, 1.53384, 1.53111, 1.52925, 1.5229, 1.51996, 1.51882, 1.51992, 1.53356, 1.53011, 1.53373, 1.51029, 1.51702, 1.50332, 1.50078, 1.49752, 1.50006, 1.49908, 1.47528, 1.52105, 1.5782, 1.57794, 1.59596, 1.58565, 1.56101, 1.56153, 1.52023, 1.43793, 1.47185, 1.47649, 1.45708, 1.45, 1.44595, 1.44225, 1.44052, 1.46379, 1.47268, 1.4662, 1.45792, 1.43988, 1.42306, 1.42157, 1.41981, 1.41974, 1.41724, 1.41568, 1.41278, 1.41213, 1.41155, 1.40887, 1.40571, 1.40288, 1.40204, 1.39892, 1.39669, 1.39297, 1.39007, 1.38711, 1.38026, 1.37989, 1.37653, 1.37029, 1.37046, 1.37825, 1.37153, 1.37069, 1.36932, 1.36735, 1.37105, 1.36884, 1.36922, 1.37546, 1.4374, 1.51713, 1.52743, 1.61442, 1.6267, 1.6005, 1.49757, 1.34309, 1.34723, 1.36042, 1.34659, 1.33735, 1.34062, 1.34869, 1.33503, 1.32926, 1.36173, 
1.67102, 1.66822, 1.66266, 1.66063, 1.6568, 1.65402, 1.65398, 1.64465, 1.6382, 1.63666, 1.63511, 1.63402, 1.63204, 1.63169, 1.63979, 1.60941, 1.68679, 1.74179, 1.79649, 1.99275, 1.88576, 1.58214, 1.59295, 1.60805, 1.60245, 1.5865, 1.58201, 1.57843, 1.59234, 1.59564, 1.56824, 1.569, 1.55928, 1.55594, 1.55462, 1.55221, 1.55036, 1.54498, 1.54175, 1.53861, 1.53225, 1.532, 1.52659, 1.52329, 1.51723, 1.51304, 1.5207, 1.51383, 1.53582, 1.53719, 1.51654, 1.50912, 1.50658, 1.50695, 1.49585, 1.50342, 1.49651, 1.47257, 1.54896, 1.53303, 1.60274, 1.59072, 1.5622, 1.56076, 1.54529, 1.46587, 1.43973, 1.47417, 1.46567, 1.46396, 1.44797, 1.44638, 1.44116, 1.44049, 1.43802, 1.43257, 1.43201, 1.42952, 1.43347, 1.42272, 1.41977, 1.41999, 1.4186, 1.41629, 1.41276, 1.41171, 1.40755, 1.40681, 1.40529, 1.40454, 1.40093, 1.39934, 1.39804, 1.39658, 1.39408, 1.39135, 1.38905, 1.38588, 1.38239, 1.38611, 1.3756, 1.37393, 1.37029, 1.36877, 1.36801, 1.36621, 1.36459, 1.36428, 1.36458, 1.36833, 1.34376, 1.38625, 1.43598, 1.54427, 1.57776, 1.59824, 1.58955, 1.46909, 1.29949, 1.36125, 1.35419, 1.33591, 1.33342, 1.33555, 1.33335, 1.3274, 1.32574, 1.33092, 
1.6731, 1.67138, 1.66432, 1.65961, 1.66146, 1.65837, 1.64749, 1.64361, 1.63931, 1.63792, 1.6456, 1.63677, 1.63327, 1.64987, 1.63374, 1.61317, 1.70683, 1.74122, 1.85519, 1.77361, 1.90778, 1.6281, 1.56283, 1.59812, 1.59606, 1.59895, 1.58404, 1.60504, 1.57522, 1.57317, 1.56986, 1.56499, 1.56123, 1.55794, 1.56564, 1.55383, 1.55095, 1.54799, 1.54488, 1.54046, 1.53639, 1.53355, 1.52903, 1.52276, 1.52028, 1.51644, 1.52673, 1.52047, 1.53693, 1.54428, 1.5348, 1.50855, 1.50726, 1.50607, 1.49659, 1.51327, 1.49598, 1.50527, 1.50481, 1.55015, 1.59298, 1.58962, 1.56452, 1.55229, 1.55359, 1.48234, 1.45407, 1.46388, 1.47652, 1.46194, 1.45013, 1.44834, 1.44775, 1.44818, 1.44157, 1.44427, 1.44419, 1.44029, 1.42264, 1.42042, 1.41893, 1.41727, 1.41715, 1.41284, 1.41136, 1.40829, 1.40511, 1.4037, 1.40184, 1.40172, 1.40115, 1.39739, 1.3952, 1.39446, 1.38987, 1.38802, 1.38633, 1.38438, 1.38339, 1.37988, 1.3798, 1.37768, 1.37633, 1.37481, 1.3698, 1.36803, 1.36639, 1.36533, 1.36616, 1.37807, 1.35439, 1.37854, 1.45402, 1.50036, 1.57217, 1.57304, 1.5339, 1.4297, 1.32797, 1.36846, 1.36408, 1.34537, 1.33085, 1.33268, 1.32986, 1.32856, 1.32491, 1.32434, 
1.66939, 1.66558, 1.66339, 1.65524, 1.652, 1.64548, 1.6445, 1.64438, 1.64126, 1.63912, 1.63657, 1.63526, 1.63127, 1.63243, 1.63774, 1.63062, 1.70005, 1.77992, 1.89668, 1.96906, 1.79092, 1.70957, 1.5616, 1.59528, 1.59596, 1.59201, 1.57932, 1.57339, 1.57026, 1.56888, 1.56597, 1.56392, 1.56037, 1.55602, 1.55428, 1.55174, 1.54982, 1.54736, 1.54542, 1.54109, 1.53531, 1.53319, 1.53264, 1.52371, 1.52009, 1.51885, 1.51591, 1.51326, 1.51126, 1.52757, 1.54116, 1.52433, 1.5106, 1.51193, 1.50642, 1.49331, 1.4903, 1.48979, 1.5018, 1.55784, 1.58556, 1.56884, 1.62463, 1.55039, 1.51572, 1.49183, 1.44721, 1.46715, 1.48496, 1.45704, 1.45493, 1.45615, 1.4544, 1.45125, 1.45168, 1.4659, 1.44147, 1.44419, 1.4273, 1.43651, 1.42173, 1.41919, 1.41827, 1.39669, 1.41134, 1.40788, 1.4055, 1.40245, 1.40189, 1.40164, 1.39887, 1.39816, 1.39428, 1.39581, 1.38869, 1.38623, 1.38323, 1.38129, 1.38158, 1.38086, 1.37818, 1.37756, 1.375, 1.3744, 1.37097, 1.36821, 1.36399, 1.36277, 1.37375, 1.3722, 1.36509, 1.41735, 1.45798, 1.52147, 1.62821, 1.62754, 1.6211, 1.49046, 1.30506, 1.35765, 1.34374, 1.35019, 1.33294, 1.32926, 1.32773, 1.32646, 1.32377, 1.32155, 
1.67141, 1.66851, 1.66244, 1.65803, 1.6523, 1.6476, 1.64676, 1.64528, 1.64354, 1.63677, 1.63519, 1.63283, 1.63232, 1.63024, 1.62765, 1.61001, 1.7282, 1.77292, 1.88953, 1.94888, 1.91967, 1.60962, 1.55869, 1.59414, 1.59219, 1.58366, 1.57943, 1.5751, 1.57265, 1.58383, 1.57439, 1.56804, 1.56193, 1.55721, 1.55184, 1.54923, 1.54576, 1.54065, 1.53469, 1.53329, 1.53253, 1.52861, 1.52562, 1.52418, 1.52057, 1.51887, 1.51567, 1.51391, 1.5096, 1.51032, 1.53874, 1.53085, 1.51297, 1.50293, 1.49374, 1.49617, 1.50278, 1.46884, 1.49878, 1.5815, 1.57409, 1.56444, 1.54192, 1.55088, 1.53441, 1.53047, 1.45161, 1.46075, 1.46178, 1.45567, 1.45796, 1.45775, 1.44875, 1.46738, 1.47386, 1.47298, 1.44483, 1.43359, 1.43397, 1.42326, 1.42404, 1.41892, 1.41595, 1.41331, 1.41055, 1.40857, 1.40471, 1.40309, 1.40215, 1.39909, 1.39822, 1.39526, 1.39188, 1.38878, 1.38717, 1.38372, 1.38295, 1.37823, 1.37915, 1.37621, 1.3758, 1.37579, 1.37391, 1.37242, 1.37061, 1.36549, 1.36219, 1.35912, 1.35996, 1.38264, 1.37146, 1.381, 1.46554, 1.49267, 1.60249, 1.62503, 1.57245, 1.44363, 1.3308, 1.34239, 1.33836, 1.33362, 1.33533, 1.33268, 1.32831, 1.32653, 1.32463, 1.32138, 
1.67554, 1.67162, 1.67625, 1.66343, 1.6683, 1.65732, 1.65274, 1.65383, 1.64516, 1.64114, 1.65431, 1.64091, 1.63664, 1.63154, 1.62821, 1.60947, 1.66108, 1.74885, 1.84845, 1.9144, 1.92775, 1.64373, 1.56265, 1.60267, 1.59475, 1.5986, 1.59581, 1.58529, 1.57264, 1.57142, 1.56805, 1.57391, 1.56196, 1.55699, 1.55244, 1.54947, 1.543, 1.53899, 1.5382, 1.5334, 1.5302, 1.52699, 1.52403, 1.52426, 1.52347, 1.52108, 1.52044, 1.52692, 1.51431, 1.51198, 1.53347, 1.56118, 1.51699, 1.51, 1.50677, 1.50219, 1.50039, 1.48194, 1.49369, 1.54588, 1.56172, 1.55951, 1.55081, 1.56519, 1.54054, 1.52325, 1.44137, 1.45812, 1.45845, 1.46758, 1.49041, 1.48573, 1.49471, 1.48427, 1.48313, 1.46416, 1.43787, 1.44352, 1.4298, 1.43777, 1.42295, 1.42023, 1.44794, 1.41319, 1.41042, 1.4061, 1.40349, 1.40195, 1.3991, 1.39913, 1.3974, 1.39333, 1.3906, 1.38921, 1.38643, 1.38492, 1.38349, 1.3821, 1.37983, 1.37814, 1.37797, 1.37446, 1.37342, 1.3718, 1.36791, 1.3656, 1.36433, 1.36846, 1.37828, 1.37542, 1.35831, 1.34004, 1.42812, 1.51269, 1.59291, 1.61386, 1.60254, 1.40174, 1.3093, 1.35336, 1.34283, 1.33708, 1.33379, 1.33479, 1.33919, 1.33719, 1.32608, 1.32237, 
1.67102, 1.66765, 1.66606, 1.66267, 1.65918, 1.65526, 1.65074, 1.64618, 1.64248, 1.65148, 1.63341, 1.63103, 1.62531, 1.6253, 1.62687, 1.60627, 1.7364, 1.83172, 1.89672, 1.9929, 1.80236, 1.71354, 1.55611, 1.60021, 1.59773, 1.59591, 1.58249, 1.57788, 1.57346, 1.58508, 1.56573, 1.57144, 1.55446, 1.55288, 1.54849, 1.54554, 1.54099, 1.53461, 1.5306, 1.52719, 1.52502, 1.52161, 1.51999, 1.531, 1.51762, 1.51577, 1.51525, 1.51294, 1.51253, 1.51177, 1.52084, 1.53828, 1.53754, 1.50931, 1.49932, 1.49353, 1.5058, 1.47115, 1.49938, 1.51489, 1.55215, 1.54193, 1.52734, 1.53705, 1.56086, 1.51115, 1.45511, 1.51447, 1.50337, 1.51179, 1.52402, 1.49582, 1.47126, 1.47569, 1.45193, 1.45068, 1.44178, 1.43232, 1.42818, 1.42662, 1.42293, 1.41951, 1.41556, 1.41331, 1.41159, 1.40613, 1.40244, 1.4002, 1.39863, 1.39594, 1.39441, 1.39189, 1.38803, 1.38805, 1.38236, 1.38247, 1.38153, 1.37972, 1.37676, 1.37832, 1.3746, 1.37117, 1.37043, 1.36536, 1.36384, 1.36085, 1.36023, 1.35747, 1.35673, 1.36545, 1.34988, 1.39658, 1.41657, 1.45751, 1.5989, 1.62158, 1.63062, 1.49961, 1.37488, 1.35532, 1.34753, 1.3332, 1.33246, 1.33093, 1.32954, 1.32662, 1.3253, 1.32226, 
1.66833, 1.66822, 1.65948, 1.65739, 1.65591, 1.65444, 1.65169, 1.6507, 1.64608, 1.64051, 1.63789, 1.63357, 1.63372, 1.62982, 1.63743, 1.61333, 1.66445, 1.74087, 1.80631, 1.97256, 1.95931, 1.6024, 1.58942, 1.60712, 1.60024, 1.61361, 1.59832, 1.59257, 1.58233, 1.57597, 1.57137, 1.56476, 1.5617, 1.55635, 1.55357, 1.54869, 1.54562, 1.54244, 1.53609, 1.53405, 1.53089, 1.52737, 1.52486, 1.52286, 1.52063, 1.51742, 1.51986, 1.51255, 1.51097, 1.51437, 1.50793, 1.5276, 1.53248, 1.54004, 1.52729, 1.49162, 1.50265, 1.48633, 1.46952, 1.54379, 1.55143, 1.54655, 1.53423, 1.50907, 1.54869, 1.50572, 1.47638, 1.47206, 1.46414, 1.46539, 1.46125, 1.46574, 1.44952, 1.46108, 1.44456, 1.43944, 1.43466, 1.43088, 1.42776, 1.42561, 1.42346, 1.42118, 1.41698, 1.41466, 1.41313, 1.41148, 1.407, 1.40502, 1.40016, 1.39906, 1.39691, 1.39386, 1.39314, 1.39191, 1.39111, 1.38839, 1.38463, 1.38226, 1.38173, 1.40536, 1.3757, 1.37189, 1.37014, 1.36792, 1.36418, 1.36303, 1.36155, 1.35695, 1.35744, 1.36145, 1.35457, 1.36241, 1.44123, 1.5082, 1.5726, 1.64008, 1.60001, 1.42141, 1.30552, 1.33981, 1.34102, 1.33372, 1.33243, 1.32816, 1.32776, 1.32568, 1.32386, 1.32448, 
1.66139, 1.66004, 1.65525, 1.65355, 1.65127, 1.65311, 1.65239, 1.65121, 1.64555, 1.64058, 1.6371, 1.63179, 1.62803, 1.63664, 1.63281, 1.61344, 1.69418, 1.78578, 1.83505, 2.00707, 2.00728, 1.62447, 1.58902, 1.61846, 1.60724, 1.59378, 1.60205, 1.59672, 1.58281, 1.57782, 1.57401, 1.56705, 1.56757, 1.56177, 1.55483, 1.55289, 1.54768, 1.54288, 1.53988, 1.53458, 1.52994, 1.57243, 1.52171, 1.52, 1.52074, 1.51609, 1.5138, 1.50808, 1.50821, 1.50917, 1.52636, 1.50797, 1.52064, 1.53799, 1.5302, 1.5235, 1.5087, 1.49145, 1.49893, 1.52308, 1.53595, 1.54319, 1.51015, 1.55025, 1.5403, 1.51392, 1.46181, 1.47321, 1.46618, 1.46352, 1.45424, 1.46014, 1.44441, 1.4409, 1.43845, 1.43635, 1.45074, 1.43684, 1.42691, 1.4262, 1.43046, 1.41793, 1.41769, 1.41431, 1.41098, 1.40875, 1.40858, 1.40584, 1.40333, 1.40182, 1.39736, 1.39579, 1.39223, 1.39185, 1.39023, 1.38912, 1.38787, 1.38717, 1.38407, 1.37947, 1.38022, 1.37668, 1.37086, 1.36843, 1.38519, 1.36512, 1.36591, 1.36154, 1.37157, 1.36571, 1.36872, 1.34089, 1.46449, 1.53085, 1.54216, 1.64722, 1.67168, 1.50369, 1.33348, 1.35131, 1.35366, 1.34509, 1.33383, 1.33147, 1.33127, 1.32665, 1.32401, 1.32563, 
1.66778, 1.66293, 1.65873, 1.65866, 1.6558, 1.65567, 1.65271, 1.6482, 1.64775, 1.64304, 1.63786, 1.63393, 1.62941, 1.62499, 1.62467, 1.61836, 1.6172, 1.72949, 1.85094, 1.87368, 1.96906, 1.72679, 1.58328, 1.61024, 1.60695, 1.60508, 1.59696, 1.59204, 1.59785, 1.58853, 1.56811, 1.5638, 1.56065, 1.55584, 1.5528, 1.54926, 1.54561, 1.54137, 1.53772, 1.53658, 1.53085, 1.5273, 1.52318, 1.5203, 1.517, 1.51587, 1.51418, 1.51208, 1.50978, 1.51361, 1.50293, 1.50122, 1.51479, 1.50117, 1.51725, 1.51675, 1.49952, 1.49096, 1.50469, 1.54917, 1.59247, 1.55564, 1.49636, 1.51743, 1.53105, 1.51977, 1.48191, 1.46597, 1.46942, 1.46023, 1.45317, 1.44863, 1.44553, 1.4415, 1.43774, 1.43259, 1.42967, 1.42816, 1.42468, 1.4229, 1.41988, 1.41703, 1.41347, 1.41281, 1.4128, 1.40888, 1.40667, 1.40513, 1.40101, 1.39902, 1.39501, 1.39218, 1.39198, 1.39019, 1.38901, 1.38597, 1.38316, 1.38448, 1.38242, 1.38008, 1.37608, 1.37454, 1.37119, 1.36664, 1.36406, 1.36173, 1.35988, 1.35821, 1.35829, 1.36144, 1.37822, 1.34532, 1.4168, 1.50288, 1.62469, 1.67656, 1.66523, 1.47477, 1.33392, 1.33689, 1.3394, 1.33564, 1.33259, 1.33035, 1.32737, 1.32592, 1.32484, 1.32334, 
1.66673, 1.66196, 1.65876, 1.65531, 1.65305, 1.65168, 1.64765, 1.64523, 1.64902, 1.63817, 1.6343, 1.62805, 1.62552, 1.63049, 1.62425, 1.60692, 1.69464, 1.70625, 1.84057, 1.89412, 1.78646, 1.61765, 1.5749, 1.58002, 1.58908, 1.5838, 1.6002, 1.62334, 1.5893, 1.58285, 1.57099, 1.56089, 1.55872, 1.55169, 1.5502, 1.54633, 1.5435, 1.5411, 1.53644, 1.5347, 1.53067, 1.52857, 1.52418, 1.51982, 1.51755, 1.51385, 1.51066, 1.50861, 1.50533, 1.50285, 1.50022, 1.49752, 1.49543, 1.49289, 1.49175, 1.5, 1.49584, 1.49707, 1.50991, 1.55897, 1.55328, 1.54229, 1.51314, 1.51303, 1.54639, 1.48947, 1.48298, 1.46546, 1.46824, 1.45737, 1.45372, 1.45013, 1.44733, 1.44345, 1.4395, 1.43711, 1.43131, 1.42951, 1.4269, 1.42411, 1.42195, 1.4205, 1.41652, 1.41638, 1.41258, 1.41164, 1.40926, 1.40573, 1.40375, 1.39959, 1.39732, 1.39606, 1.39341, 1.39018, 1.38941, 1.38399, 1.38325, 1.3802, 1.38024, 1.37625, 1.37304, 1.37177, 1.37263, 1.36861, 1.36647, 1.37171, 1.36142, 1.36159, 1.36068, 1.35986, 1.36469, 1.386, 1.48909, 1.54881, 1.56109, 1.65449, 1.65837, 1.61365, 1.38488, 1.34399, 1.33828, 1.34732, 1.33196, 1.32918, 1.32759, 1.32582, 1.32512, 1.32638, 
1.6643, 1.65885, 1.65453, 1.65233, 1.64844, 1.64781, 1.64394, 1.63881, 1.64084, 1.63457, 1.63346, 1.63393, 1.62506, 1.62173, 1.62102, 1.61988, 1.58678, 1.70037, 1.84462, 1.86723, 1.90939, 1.59667, 1.55842, 1.5876, 1.65739, 1.63737, 1.61676, 1.60034, 1.6084, 1.58931, 1.58223, 1.56792, 1.55516, 1.55044, 1.54909, 1.54591, 1.54165, 1.53905, 1.5367, 1.53314, 1.53094, 1.52755, 1.52273, 1.51773, 1.51555, 1.51331, 1.50902, 1.50862, 1.50669, 1.50634, 1.49773, 1.49458, 1.49223, 1.48997, 1.48945, 1.49638, 1.49611, 1.49442, 1.51346, 1.52926, 1.54838, 1.51936, 1.37596, 1.50907, 1.54348, 1.51497, 1.47949, 1.46677, 1.47917, 1.46194, 1.45977, 1.44489, 1.44244, 1.44032, 1.43534, 1.4323, 1.43118, 1.42504, 1.42346, 1.42269, 1.42219, 1.41943, 1.41607, 1.41931, 1.40977, 1.40891, 1.40904, 1.40339, 1.40083, 1.3985, 1.39684, 1.39564, 1.39212, 1.38825, 1.38752, 1.38246, 1.37909, 1.37728, 1.37744, 1.37652, 1.37208, 1.36694, 1.36698, 1.36753, 1.36037, 1.35825, 1.359, 1.35806, 1.3552, 1.35572, 1.36008, 1.33252, 1.41738, 1.42964, 1.53805, 1.63755, 1.6408, 1.48447, 1.32433, 1.34083, 1.34972, 1.34182, 1.33131, 1.32797, 1.33615, 1.32605, 1.32443, 1.32303, 
1.66189, 1.66007, 1.65488, 1.65128, 1.64836, 1.64617, 1.6436, 1.64003, 1.63514, 1.63372, 1.62629, 1.6234, 1.62125, 1.61995, 1.63398, 1.6195, 1.61291, 1.70285, 1.79726, 1.87259, 2.0655, 1.65823, 1.55142, 1.58855, 1.73514, 1.81036, 1.70343, 1.64136, 1.62296, 1.59176, 1.59224, 1.56967, 1.55863, 1.5589, 1.55828, 1.5448, 1.54224, 1.53757, 1.53631, 1.53338, 1.5297, 1.52626, 1.52376, 1.51792, 1.51587, 1.51118, 1.50821, 1.50565, 1.50423, 1.50251, 1.49839, 1.49533, 1.49165, 1.49054, 1.48812, 1.48953, 1.49361, 1.48587, 1.50446, 1.54632, 1.54301, 1.52783, 1.4941, 1.50429, 1.5152, 1.51214, 1.45077, 1.46196, 1.47167, 1.45227, 1.44517, 1.44708, 1.43677, 1.4343, 1.43041, 1.42682, 1.42604, 1.42414, 1.42234, 1.4219, 1.42281, 1.42225, 1.41589, 1.41556, 1.40742, 1.40552, 1.40368, 1.39901, 1.39797, 1.39573, 1.39241, 1.39092, 1.38814, 1.38579, 1.3846, 1.38083, 1.38566, 1.37794, 1.37524, 1.37008, 1.36723, 1.3679, 1.36913, 1.37548, 1.36212, 1.36075, 1.36026, 1.3595, 1.35726, 1.35702, 1.36166, 1.33293, 1.40951, 1.4994, 1.53659, 1.66229, 1.6513, 1.49211, 1.34448, 1.3404, 1.34656, 1.33721, 1.33623, 1.32712, 1.33266, 1.32267, 1.32072, 1.32041, 
1.65824, 1.65465, 1.65574, 1.64896, 1.64704, 1.64389, 1.64053, 1.64491, 1.63346, 1.63139, 1.6257, 1.61966, 1.61732, 1.62362, 1.63059, 1.61281, 1.64517, 1.70148, 1.83929, 1.94182, 2.02501, 1.59627, 1.56799, 1.58765, 1.59756, 1.64749, 1.61493, 1.59209, 1.60093, 1.58527, 1.58205, 1.57773, 1.55495, 1.56439, 1.54494, 1.54172, 1.54045, 1.53581, 1.53191, 1.53172, 1.52615, 1.5245, 1.5214, 1.51451, 1.51348, 1.51266, 1.50709, 1.50365, 1.50103, 1.49706, 1.49569, 1.4927, 1.49055, 1.48937, 1.48674, 1.48875, 1.49854, 1.48452, 1.4953, 1.54041, 1.53988, 1.50599, 1.48643, 1.5014, 1.5281, 1.51675, 1.48614, 1.46791, 1.4611, 1.45509, 1.44431, 1.4362, 1.43346, 1.42977, 1.42941, 1.42657, 1.42531, 1.42413, 1.42421, 1.42086, 1.41893, 1.41525, 1.4153, 1.40881, 1.40635, 1.40179, 1.40031, 1.39759, 1.39542, 1.39355, 1.39198, 1.39099, 1.38826, 1.3846, 1.38232, 1.38025, 1.37839, 1.37861, 1.37439, 1.37182, 1.37092, 1.37093, 1.36889, 1.3687, 1.36167, 1.36051, 1.36026, 1.3823, 1.35605, 1.35798, 1.35691, 1.32797, 1.38552, 1.46329, 1.56697, 1.67963, 1.73199, 1.52446, 1.33671, 1.35045, 1.34907, 1.33341, 1.33527, 1.33012, 1.32919, 1.32286, 1.32147, 1.31964, 
1.65193, 1.6476, 1.6466, 1.64436, 1.6399, 1.64063, 1.63285, 1.63792, 1.62663, 1.62467, 1.62127, 1.61736, 1.61381, 1.61246, 1.60946, 1.6093, 1.61592, 1.66794, 1.74532, 1.91679, 1.93823, 1.59765, 1.5606, 1.58547, 1.60215, 1.60238, 1.60445, 1.58931, 1.58921, 1.57624, 1.57186, 1.56828, 1.54494, 1.54124, 1.53622, 1.53453, 1.53493, 1.52893, 1.52802, 1.52319, 1.52208, 1.52153, 1.51637, 1.51435, 1.51525, 1.50939, 1.50165, 1.49712, 1.49384, 1.49368, 1.48908, 1.48695, 1.48482, 1.48084, 1.48087, 1.48091, 1.48327, 1.47942, 1.51721, 1.50957, 1.51342, 1.56108, 1.4885, 1.48816, 1.50905, 1.49687, 1.47576, 1.45457, 1.4622, 1.45085, 1.44429, 1.43643, 1.43339, 1.43708, 1.42579, 1.4258, 1.42341, 1.42006, 1.41797, 1.41612, 1.41661, 1.41147, 1.41285, 1.40395, 1.40071, 1.39555, 1.39476, 1.39293, 1.38956, 1.39157, 1.39405, 1.39112, 1.39131, 1.38857, 1.38044, 1.38014, 1.3746, 1.37127, 1.37084, 1.36824, 1.36768, 1.36691, 1.36434, 1.36776, 1.3597, 1.3609, 1.35643, 1.36211, 1.35196, 1.35981, 1.37841, 1.33813, 1.38376, 1.43392, 1.54621, 1.63833, 1.67535, 1.56948, 1.34425, 1.31461, 1.34888, 1.33327, 1.32407, 1.32081, 1.32893, 1.31644, 1.31615, 1.31224, 
1.64851, 1.64499, 1.64185, 1.63972, 1.64133, 1.63486, 1.63477, 1.63156, 1.62903, 1.62406, 1.62107, 1.61656, 1.61272, 1.61004, 1.60924, 1.60619, 1.59616, 1.69229, 1.72716, 1.87554, 1.8741, 1.71487, 1.55855, 1.58161, 1.58643, 1.58454, 1.58234, 1.58201, 1.57063, 1.56249, 1.55468, 1.55154, 1.54611, 1.54155, 1.53947, 1.53508, 1.5314, 1.52763, 1.52463, 1.5223, 1.51975, 1.51605, 1.51415, 1.51245, 1.50851, 1.50404, 1.49841, 1.49438, 1.49105, 1.48866, 1.48597, 1.48371, 1.48296, 1.48149, 1.47818, 1.47853, 1.48314, 1.4885, 1.49964, 1.52872, 1.54544, 1.51799, 1.48192, 1.50641, 1.49965, 1.49916, 1.49212, 1.47755, 1.46108, 1.45067, 1.44443, 1.4394, 1.43971, 1.43081, 1.42777, 1.42428, 1.42157, 1.41785, 1.41656, 1.41214, 1.40973, 1.40702, 1.40341, 1.40019, 1.39605, 1.39442, 1.39139, 1.39091, 1.38794, 1.39072, 1.38924, 1.38909, 1.38828, 1.38606, 1.3836, 1.37794, 1.37411, 1.36733, 1.36435, 1.36368, 1.36249, 1.36276, 1.36153, 1.36482, 1.35798, 1.35756, 1.35587, 1.35114, 1.34925, 1.34779, 1.35015, 1.3526, 1.3884, 1.40965, 1.5163, 1.68588, 1.71675, 1.61432, 1.31633, 1.32928, 1.33262, 1.32642, 1.31977, 1.31899, 1.31853, 1.31665, 1.31391, 1.31236, 
1.64713, 1.64377, 1.64274, 1.64066, 1.63847, 1.63628, 1.63584, 1.63232, 1.63008, 1.62655, 1.62731, 1.62313, 1.61374, 1.61218, 1.61193, 1.61113, 1.58964, 1.70616, 1.80278, 1.81206, 1.76945, 1.6436, 1.55775, 1.5822, 1.57843, 1.58362, 1.57204, 1.56821, 1.58906, 1.58977, 1.5564, 1.55454, 1.54895, 1.54624, 1.54055, 1.53881, 1.54013, 1.52743, 1.52503, 1.52329, 1.51879, 1.51534, 1.51232, 1.5097, 1.50734, 1.50534, 1.50036, 1.49629, 1.49224, 1.48846, 1.49572, 1.48478, 1.48137, 1.48651, 1.47884, 1.47976, 1.48228, 1.4751, 1.52003, 1.51479, 1.52278, 1.53703, 1.5261, 1.50341, 1.50327, 1.4956, 1.48971, 1.45915, 1.46852, 1.46138, 1.45478, 1.43773, 1.43334, 1.42959, 1.4265, 1.444, 1.42259, 1.41808, 1.41851, 1.41431, 1.41123, 1.40604, 1.40485, 1.40203, 1.39844, 1.3949, 1.39331, 1.39219, 1.38989, 1.39212, 1.39244, 1.38795, 1.38509, 1.38405, 1.3777, 1.37831, 1.37529, 1.36707, 1.36446, 1.36498, 1.36268, 1.36134, 1.35863, 1.35828, 1.35714, 1.3533, 1.35077, 1.34791, 1.348, 1.34477, 1.36033, 1.33592, 1.38672, 1.46045, 1.57226, 1.59274, 1.68317, 1.577, 1.30379, 1.33005, 1.33294, 1.33613, 1.35297, 1.32094, 1.32222, 1.31918, 1.31513, 1.31369, 
1.64868, 1.64466, 1.63729, 1.63632, 1.6357, 1.63366, 1.63141, 1.62838, 1.62597, 1.62202, 1.61914, 1.61652, 1.61396, 1.60911, 1.60715, 1.61686, 1.59931, 1.67887, 1.744, 1.93034, 1.74805, 1.67535, 1.56521, 1.58557, 1.57616, 1.59146, 1.56888, 1.58253, 1.56294, 1.55952, 1.5683, 1.55102, 1.54807, 1.54415, 1.53743, 1.53524, 1.53198, 1.52757, 1.52096, 1.51846, 1.51738, 1.51488, 1.51038, 1.50763, 1.50538, 1.50159, 1.50031, 1.49684, 1.49151, 1.48826, 1.48571, 1.48274, 1.48144, 1.4782, 1.47697, 1.47843, 1.47916, 1.47786, 1.50305, 1.51381, 1.51938, 1.50363, 1.48026, 1.48563, 1.48534, 1.49453, 1.49868, 1.45707, 1.46218, 1.45031, 1.438, 1.43186, 1.42976, 1.42322, 1.42663, 1.42043, 1.4194, 1.41787, 1.41617, 1.4137, 1.4105, 1.41065, 1.40384, 1.40282, 1.3978, 1.39625, 1.3926, 1.39217, 1.38966, 1.3881, 1.38567, 1.38608, 1.37981, 1.37646, 1.37288, 1.36878, 1.36596, 1.36203, 1.36147, 1.36048, 1.35953, 1.35869, 1.36131, 1.35432, 1.35485, 1.35166, 1.35615, 1.35109, 1.34395, 1.34309, 1.3494, 1.34358, 1.32605, 1.45103, 1.53192, 1.66168, 1.85988, 1.45086, 1.31688, 1.31305, 1.32496, 1.32515, 1.32137, 1.32218, 1.31966, 1.31899, 1.31618, 1.31571, 
1.65878, 1.64779, 1.63919, 1.63656, 1.63406, 1.63418, 1.63085, 1.63015, 1.62765, 1.6236, 1.6198, 1.621, 1.61088, 1.60782, 1.60776, 1.61669, 1.59978, 1.61752, 1.76964, 1.75221, 1.71354, 1.83211, 1.56198, 1.58191, 1.59293, 1.57504, 1.58523, 1.57004, 1.56897, 1.57532, 1.56136, 1.54813, 1.54397, 1.54286, 1.54043, 1.53758, 1.53316, 1.53073, 1.52673, 1.52245, 1.52048, 1.52211, 1.51486, 1.51106, 1.50774, 1.50547, 1.50202, 1.50253, 1.49794, 1.49164, 1.49038, 1.48658, 1.48367, 1.48254, 1.47956, 1.48124, 1.48642, 1.48459, 1.49208, 1.51795, 1.50957, 1.5078, 1.52135, 1.49057, 1.52617, 1.49222, 1.48155, 1.47223, 1.44862, 1.44535, 1.43392, 1.43839, 1.4285, 1.42649, 1.4292, 1.42158, 1.42029, 1.41779, 1.41347, 1.41236, 1.4082, 1.40543, 1.40272, 1.40215, 1.39794, 1.39805, 1.39563, 1.39193, 1.38895, 1.38542, 1.38287, 1.38273, 1.37814, 1.37422, 1.37033, 1.3679, 1.3638, 1.36422, 1.36005, 1.36027, 1.36457, 1.36412, 1.36828, 1.35661, 1.35363, 1.35045, 1.34832, 1.34769, 1.34668, 1.34618, 1.34647, 1.34762, 1.32056, 1.45082, 1.52371, 1.65174, 1.70548, 1.59044, 1.30263, 1.32033, 1.34009, 1.33, 1.31942, 1.32871, 1.31979, 1.31902, 1.3188, 1.31349, 
1.64624, 1.64122, 1.63784, 1.63426, 1.63018, 1.62789, 1.62674, 1.6222, 1.62465, 1.61878, 1.61152, 1.60824, 1.60533, 1.60545, 1.59877, 1.5967, 1.59971, 1.64205, 1.78677, 1.87809, 2.12419, 1.72604, 1.57235, 1.58275, 1.57903, 1.57818, 1.56676, 1.56249, 1.55636, 1.55301, 1.55446, 1.55023, 1.53719, 1.5356, 1.53292, 1.53089, 1.52949, 1.52971, 1.53016, 1.52054, 1.5173, 1.5103, 1.50895, 1.50608, 1.50329, 1.50031, 1.50206, 1.49338, 1.49014, 1.48726, 1.48325, 1.48258, 1.48113, 1.47858, 1.49304, 1.47928, 1.47875, 1.48044, 1.48824, 1.50298, 1.52037, 1.49572, 1.46695, 1.4854, 1.49785, 1.48217, 1.47899, 1.44668, 1.45047, 1.45044, 1.42857, 1.42584, 1.42364, 1.4227, 1.42058, 1.41939, 1.41756, 1.41575, 1.41311, 1.40689, 1.40806, 1.40184, 1.40057, 1.39798, 1.39516, 1.39225, 1.38902, 1.38647, 1.38435, 1.38113, 1.37448, 1.37233, 1.36977, 1.36579, 1.36324, 1.36043, 1.35815, 1.35913, 1.35729, 1.36927, 1.35645, 1.35581, 1.35604, 1.35026, 1.35017, 1.34821, 1.36703, 1.34452, 1.35133, 1.34107, 1.3499, 1.34001, 1.34432, 1.39217, 1.56413, 1.60754, 1.88281, 1.46774, 1.28556, 1.30626, 1.32223, 1.32642, 1.31558, 1.32532, 1.32064, 1.32888, 1.31007, 1.31274, 
1.63896, 1.63764, 1.63472, 1.63274, 1.63041, 1.62421, 1.62048, 1.62293, 1.6116, 1.61062, 1.60813, 1.60227, 1.60204, 1.60285, 1.58924, 1.59526, 1.5927, 1.63319, 1.703, 1.80763, 2.34249, 1.69899, 1.54184, 1.57393, 1.56627, 1.56253, 1.55576, 1.5587, 1.55051, 1.54329, 1.53768, 1.53202, 1.5299, 1.52558, 1.52386, 1.52374, 1.52368, 1.52213, 1.51843, 1.51555, 1.51217, 1.50754, 1.50556, 1.50137, 1.49707, 1.49367, 1.49025, 1.486, 1.48184, 1.47938, 1.47776, 1.4836, 1.47354, 1.47003, 1.46822, 1.48231, 1.48108, 1.47348, 1.47598, 1.49533, 1.52399, 1.4889, 1.50401, 1.46893, 1.53041, 1.49171, 1.45929, 1.46591, 1.43951, 1.45088, 1.43299, 1.4205, 1.41722, 1.41482, 1.41974, 1.41285, 1.41159, 1.40993, 1.40576, 1.405, 1.39789, 1.39294, 1.39107, 1.39004, 1.38856, 1.38693, 1.38452, 1.37892, 1.37771, 1.37532, 1.37446, 1.36772, 1.36608, 1.36143, 1.35873, 1.35716, 1.36099, 1.35747, 1.34911, 1.35232, 1.35288, 1.35088, 1.35334, 1.34819, 1.347, 1.34398, 1.33785, 1.33662, 1.33722, 1.3367, 1.33785, 1.33636, 1.33232, 1.41567, 1.50979, 1.60347, 1.73496, 1.4888, 1.2837, 1.2979, 1.32123, 1.30929, 1.30877, 1.31234, 1.3095, 1.30505, 1.30314, 1.29867, 
1.64043, 1.63514, 1.63477, 1.63103, 1.6341, 1.6244, 1.62054, 1.61731, 1.61484, 1.60984, 1.62377, 1.60985, 1.60066, 1.59673, 1.59283, 1.60226, 1.56751, 1.65811, 1.70101, 1.84625, 1.94149, 1.58584, 1.55861, 1.58171, 1.56541, 1.55967, 1.55593, 1.55354, 1.54531, 1.54137, 1.5358, 1.5403, 1.52848, 1.52711, 1.52312, 1.51995, 1.51961, 1.51824, 1.51446, 1.51286, 1.51226, 1.50745, 1.50257, 1.49849, 1.49528, 1.4925, 1.48804, 1.48408, 1.48229, 1.47951, 1.47692, 1.47413, 1.47427, 1.46877, 1.46544, 1.46538, 1.47577, 1.47114, 1.48349, 1.47897, 1.48568, 1.49549, 1.49971, 1.49203, 1.48562, 1.51659, 1.47039, 1.45124, 1.45507, 1.43993, 1.41988, 1.41619, 1.41286, 1.41229, 1.41114, 1.41086, 1.42315, 1.41021, 1.40297, 1.40198, 1.39657, 1.39263, 1.38986, 1.38629, 1.38246, 1.38196, 1.38118, 1.37957, 1.37852, 1.37618, 1.37271, 1.36721, 1.36401, 1.36131, 1.36049, 1.35288, 1.35408, 1.35272, 1.34807, 1.35523, 1.35131, 1.35132, 1.34902, 1.34826, 1.34402, 1.35099, 1.34377, 1.35478, 1.33118, 1.32944, 1.3275, 1.34144, 1.28949, 1.35791, 1.50685, 1.70948, 1.88289, 1.48908, 1.28257, 1.29573, 1.31709, 1.31083, 1.30884, 1.30943, 1.3027, 1.30284, 1.29872, 1.29545, 
1.63583, 1.6321, 1.63082, 1.62638, 1.62497, 1.62055, 1.6176, 1.61432, 1.61159, 1.61293, 1.60588, 1.60125, 1.59951, 1.5994, 1.59567, 1.59592, 1.59301, 1.66879, 1.71992, 1.8244, 2.0765, 1.64888, 1.57905, 1.5694, 1.56612, 1.56822, 1.55158, 1.55187, 1.5518, 1.54407, 1.53881, 1.5337, 1.53178, 1.52727, 1.5248, 1.52058, 1.5145, 1.51162, 1.52321, 1.51859, 1.50535, 1.50083, 1.4976, 1.49373, 1.49068, 1.48985, 1.48593, 1.48293, 1.47996, 1.47728, 1.47486, 1.47398, 1.46833, 1.47237, 1.46416, 1.46177, 1.47757, 1.46784, 1.46787, 1.47915, 1.47459, 1.49099, 1.49386, 1.46873, 1.48192, 1.47103, 1.46876, 1.4691, 1.44904, 1.44602, 1.433, 1.41668, 1.4297, 1.41355, 1.4101, 1.4104, 1.40485, 1.40304, 1.39804, 1.39948, 1.39712, 1.39141, 1.39155, 1.38617, 1.38354, 1.37907, 1.37786, 1.37505, 1.37423, 1.37134, 1.37098, 1.37143, 1.36586, 1.36347, 1.36156, 1.35605, 1.36093, 1.35818, 1.35263, 1.35017, 1.34823, 1.34904, 1.34687, 1.3466, 1.34726, 1.34311, 1.35037, 1.34038, 1.33286, 1.33949, 1.33663, 1.34961, 1.29763, 1.45026, 1.46256, 1.59629, 1.74868, 1.4201, 1.29518, 1.33414, 1.32299, 1.31607, 1.30988, 1.31069, 1.30549, 1.30258, 1.30871, 1.30051, 
1.64004, 1.63767, 1.63067, 1.6286, 1.62491, 1.62073, 1.61681, 1.61252, 1.60917, 1.60348, 1.6028, 1.60105, 1.5984, 1.59657, 1.59571, 1.61065, 1.5971, 1.60335, 1.75741, 1.91998, 2.20274, 1.64072, 1.53025, 1.56522, 1.56244, 1.55488, 1.56579, 1.54836, 1.54796, 1.54741, 1.54156, 1.53669, 1.53159, 1.52667, 1.52265, 1.52239, 1.51542, 1.51352, 1.5125, 1.51355, 1.5063, 1.50399, 1.50304, 1.49791, 1.49517, 1.49005, 1.48974, 1.48507, 1.48162, 1.47559, 1.4734, 1.47103, 1.46715, 1.46443, 1.46276, 1.46332, 1.47834, 1.46873, 1.4813, 1.48293, 1.47818, 1.49946, 1.49309, 1.47002, 1.48243, 1.4794, 1.47125, 1.45315, 1.45068, 1.44685, 1.43506, 1.41772, 1.41292, 1.41314, 1.41764, 1.40708, 1.40658, 1.42007, 1.4009, 1.3983, 1.39855, 1.39619, 1.38877, 1.38544, 1.38059, 1.37893, 1.37545, 1.3738, 1.37254, 1.37018, 1.37069, 1.3664, 1.36658, 1.36365, 1.35919, 1.35846, 1.35551, 1.35442, 1.35363, 1.34976, 1.3501, 1.34649, 1.34675, 1.34332, 1.34194, 1.34105, 1.33812, 1.33663, 1.33877, 1.33634, 1.33912, 1.35203, 1.31538, 1.39142, 1.52478, 1.63754, 1.79357, 1.5535, 1.33681, 1.30697, 1.33384, 1.32365, 1.31652, 1.30709, 1.31804, 1.30589, 1.31943, 1.30185, 
1.63511, 1.65189, 1.62738, 1.62317, 1.62285, 1.61746, 1.61394, 1.61099, 1.60536, 1.60181, 1.60686, 1.59856, 1.60108, 1.59234, 1.60104, 1.61272, 1.58966, 1.62017, 1.74951, 1.87769, 1.98169, 1.70122, 1.5329, 1.57113, 1.5595, 1.5548, 1.54816, 1.54574, 1.55355, 1.55377, 1.5404, 1.53743, 1.54813, 1.52407, 1.51916, 1.51653, 1.51419, 1.51095, 1.50917, 1.50639, 1.50359, 1.50336, 1.50008, 1.49277, 1.48896, 1.4861, 1.48381, 1.47941, 1.47685, 1.47459, 1.49509, 1.46943, 1.48582, 1.47152, 1.46096, 1.46139, 1.475, 1.47432, 1.46853, 1.47574, 1.4692, 1.4786, 1.47852, 1.46927, 1.47832, 1.47946, 1.4746, 1.47856, 1.45064, 1.44816, 1.42678, 1.41268, 1.40721, 1.41198, 1.40546, 1.40601, 1.40433, 1.40234, 1.39924, 1.39781, 1.39772, 1.38947, 1.38618, 1.38336, 1.38276, 1.38055, 1.37875, 1.37432, 1.37808, 1.3742, 1.37174, 1.37012, 1.36701, 1.36322, 1.36241, 1.36106, 1.35889, 1.35681, 1.35265, 1.3482, 1.34678, 1.34455, 1.34526, 1.34197, 1.35049, 1.3395, 1.33827, 1.35451, 1.34443, 1.33935, 1.33615, 1.33665, 1.32276, 1.34288, 1.42655, 1.52627, 1.63449, 1.48277, 1.29869, 1.32035, 1.31995, 1.3338, 1.30891, 1.30722, 1.30468, 1.30571, 1.30333, 1.30542, 
1.63108, 1.61644, 1.61428, 1.60981, 1.60718, 1.60362, 1.6208, 1.60028, 1.61426, 1.59082, 1.58894, 1.5924, 1.59386, 1.57929, 1.58706, 1.58229, 1.57708, 1.54466, 1.68042, 1.83981, 1.9438, 1.75811, 1.5432, 1.5514, 1.55109, 1.53986, 1.53682, 1.53154, 1.52698, 1.52499, 1.52359, 1.52235, 1.52, 1.52804, 1.51463, 1.50987, 1.509, 1.50197, 1.49755, 1.49411, 1.48891, 1.48625, 1.48172, 1.48223, 1.47662, 1.47405, 1.47168, 1.46923, 1.46792, 1.4759, 1.46425, 1.46852, 1.45723, 1.45573, 1.45397, 1.46047, 1.46411, 1.45949, 1.4741, 1.46847, 1.46193, 1.46826, 1.46286, 1.47905, 1.45388, 1.48303, 1.46704, 1.45056, 1.44139, 1.42865, 1.41508, 1.40712, 1.40052, 1.41657, 1.40654, 1.39582, 1.41672, 1.39762, 1.39461, 1.38844, 1.38672, 1.38172, 1.3788, 1.37693, 1.3765, 1.37242, 1.3729, 1.36951, 1.36678, 1.37193, 1.35829, 1.35764, 1.35153, 1.35011, 1.34725, 1.35119, 1.34655, 1.34604, 1.34315, 1.33939, 1.34057, 1.33402, 1.33459, 1.33398, 1.33213, 1.33157, 1.32702, 1.32578, 1.32988, 1.32883, 1.32647, 1.33028, 1.30197, 1.36181, 1.48284, 1.66959, 1.76902, 1.46272, 1.29166, 1.3056, 1.32782, 1.31347, 1.30541, 1.29726, 1.29539, 1.29502, 1.30243, 1.2949, 
1.60724, 1.60471, 1.60029, 1.59867, 1.59951, 1.59432, 1.58712, 1.58313, 1.57838, 1.57348, 1.57244, 1.5707, 1.56539, 1.56536, 1.564, 1.57292, 1.5753, 1.53008, 1.64892, 1.77168, 1.93061, 1.98043, 1.51821, 1.54358, 1.52813, 1.53148, 1.52336, 1.51742, 1.51249, 1.51247, 1.5108, 1.50993, 1.5099, 1.50605, 1.50284, 1.49872, 1.49632, 1.49275, 1.48552, 1.48033, 1.47534, 1.47442, 1.47104, 1.47061, 1.46874, 1.46384, 1.4603, 1.4607, 1.45482, 1.45448, 1.4513, 1.44601, 1.44358, 1.43796, 1.43661, 1.44069, 1.43475, 1.44823, 1.44453, 1.45921, 1.46777, 1.45399, 1.45062, 1.43595, 1.44619, 1.43861, 1.44927, 1.41979, 1.40902, 1.40322, 1.40315, 1.39614, 1.38421, 1.3826, 1.37824, 1.37603, 1.37931, 1.38614, 1.38456, 1.37888, 1.3657, 1.36536, 1.36372, 1.35919, 1.35592, 1.35385, 1.35438, 1.35047, 1.34722, 1.34525, 1.34267, 1.33848, 1.33453, 1.33353, 1.32962, 1.32698, 1.33326, 1.33488, 1.32692, 1.31777, 1.31634, 1.31371, 1.31718, 1.31976, 1.31936, 1.31814, 1.31124, 1.31666, 1.30401, 1.30054, 1.30577, 1.31018, 1.29707, 1.38806, 1.43303, 1.51546, 1.84974, 1.54458, 1.28906, 1.26862, 1.29927, 1.29493, 1.29222, 1.28951, 1.28405, 1.27423, 1.26926, 1.26973, 
1.61227, 1.60767, 1.60614, 1.60749, 1.61009, 1.60956, 1.61483, 1.59413, 1.59638, 1.59678, 1.58621, 1.58849, 1.58487, 1.59238, 1.5863, 1.58584, 1.58897, 1.57161, 1.65775, 1.84283, 2.10762, 1.775, 1.5062, 1.54911, 1.55359, 1.55298, 1.54086, 1.52397, 1.5331, 1.52077, 1.5238, 1.5336, 1.51615, 1.51332, 1.50935, 1.50782, 1.50673, 1.51016, 1.49718, 1.49169, 1.48708, 1.4868, 1.48634, 1.48926, 1.48241, 1.47947, 1.47452, 1.46934, 1.46149, 1.45959, 1.45739, 1.45498, 1.46051, 1.4544, 1.45744, 1.44061, 1.45962, 1.45193, 1.45995, 1.45727, 1.46549, 1.48145, 1.46751, 1.47661, 1.45378, 1.4762, 1.46558, 1.44771, 1.43118, 1.41352, 1.41934, 1.41565, 1.41747, 1.40038, 1.39027, 1.3885, 1.388, 1.38835, 1.38606, 1.37596, 1.3716, 1.37359, 1.37533, 1.3648, 1.36369, 1.36961, 1.36868, 1.36193, 1.36059, 1.36075, 1.36361, 1.34555, 1.34392, 1.35039, 1.34539, 1.33417, 1.33472, 1.33389, 1.32982, 1.32972, 1.33225, 1.32968, 1.31904, 1.32123, 1.32634, 1.32575, 1.31706, 1.3377, 1.30933, 1.30792, 1.31339, 1.31656, 1.29148, 1.32675, 1.44414, 1.5238, 1.51972, 1.56993, 1.28465, 1.28757, 1.29315, 1.29874, 1.28996, 1.29333, 1.2748, 1.28067, 1.28323, 1.2815, 
1.62197, 1.62232, 1.61861, 1.61857, 1.61451, 1.61582, 1.60945, 1.60387, 1.5996, 1.6045, 1.59432, 1.59342, 1.59548, 1.59375, 1.58344, 1.58264, 1.59009, 1.56809, 1.62207, 1.78157, 1.80929, 1.73775, 1.55173, 1.56729, 1.55322, 1.54863, 1.54494, 1.54857, 1.55752, 1.54958, 1.53122, 1.52468, 1.5295, 1.51751, 1.51136, 1.50933, 1.50772, 1.50489, 1.50069, 1.49821, 1.50004, 1.49305, 1.49264, 1.48756, 1.48381, 1.47863, 1.47616, 1.47214, 1.46912, 1.4633, 1.46176, 1.46411, 1.45879, 1.45665, 1.45332, 1.45876, 1.46755, 1.46537, 1.47092, 1.47319, 1.46959, 1.48857, 1.46513, 1.46811, 1.46446, 1.4543, 1.45728, 1.43733, 1.43054, 1.42708, 1.42134, 1.41403, 1.41579, 1.40915, 1.40062, 1.40935, 1.4058, 1.41009, 1.38918, 1.38831, 1.38553, 1.38538, 1.38475, 1.41032, 1.37269, 1.3724, 1.3786, 1.36952, 1.36555, 1.36287, 1.36286, 1.36072, 1.35762, 1.35503, 1.35377, 1.34988, 1.34631, 1.3431, 1.34051, 1.33946, 1.33861, 1.33593, 1.33035, 1.3306, 1.33287, 1.33143, 1.32799, 1.33651, 1.3233, 1.33173, 1.31996, 1.33402, 1.32759, 1.34679, 1.37555, 1.50069, 1.47167, 1.48567, 1.42917, 1.3008, 1.3207, 1.30862, 1.30219, 1.30304, 1.30973, 1.29202, 1.29157, 1.29135, 
1.62279, 1.61865, 1.61579, 1.61344, 1.60955, 1.60837, 1.60241, 1.59891, 1.60377, 1.61247, 1.5861, 1.58432, 1.58252, 1.58306, 1.59122, 1.58046, 1.57797, 1.55513, 1.63605, 1.89364, 2.03521, 1.67196, 1.55802, 1.55799, 1.54833, 1.5366, 1.54237, 1.53048, 1.5299, 1.52828, 1.52594, 1.51987, 1.51641, 1.53125, 1.49799, 1.49986, 1.50308, 1.50341, 1.50085, 1.4989, 1.49677, 1.49278, 1.48922, 1.48355, 1.47839, 1.47441, 1.48238, 1.46932, 1.46663, 1.46149, 1.46032, 1.45751, 1.46484, 1.45264, 1.45092, 1.4521, 1.47148, 1.46101, 1.47041, 1.47182, 1.45306, 1.47086, 1.44726, 1.45805, 1.45451, 1.47088, 1.46656, 1.44098, 1.4367, 1.44134, 1.42176, 1.41716, 1.40433, 1.40177, 1.39954, 1.39791, 1.39302, 1.39141, 1.38898, 1.39239, 1.38423, 1.38162, 1.37911, 1.37504, 1.37223, 1.37308, 1.37099, 1.3759, 1.36431, 1.36058, 1.35538, 1.35667, 1.35499, 1.35215, 1.34819, 1.34682, 1.34522, 1.34464, 1.34159, 1.34268, 1.33612, 1.33495, 1.33272, 1.33115, 1.35161, 1.33791, 1.32981, 1.33021, 1.32983, 1.32993, 1.32918, 1.32481, 1.32534, 1.34706, 1.45632, 1.50972, 1.64132, 1.613, 1.39152, 1.36969, 1.30665, 1.30459, 1.30244, 1.32423, 1.30216, 1.29673, 1.29333, 1.30613, 
1.62691, 1.61691, 1.6134, 1.61276, 1.61076, 1.60832, 1.60514, 1.59555, 1.58917, 1.58573, 1.59925, 1.59291, 1.58226, 1.58029, 1.57695, 1.58617, 1.5931, 1.57612, 1.59878, 1.80732, 2.02565, 1.7524, 1.54414, 1.54913, 1.54576, 1.5369, 1.53712, 1.53811, 1.53134, 1.52555, 1.52562, 1.52706, 1.52705, 1.50507, 1.4973, 1.50048, 1.50117, 1.50067, 1.49934, 1.49633, 1.49509, 1.48996, 1.48563, 1.47855, 1.4752, 1.47489, 1.46879, 1.46703, 1.46855, 1.46918, 1.45935, 1.45521, 1.45438, 1.45544, 1.45239, 1.45041, 1.45427, 1.45649, 1.46841, 1.46413, 1.45496, 1.46106, 1.4696, 1.45197, 1.44832, 1.4602, 1.4451, 1.43949, 1.43797, 1.42217, 1.42524, 1.41017, 1.40257, 1.40093, 1.40913, 1.39298, 1.39249, 1.38927, 1.38801, 1.38795, 1.38112, 1.3808, 1.37882, 1.37906, 1.37286, 1.37211, 1.36955, 1.36575, 1.36331, 1.36047, 1.35872, 1.35451, 1.35355, 1.35091, 1.34797, 1.35009, 1.34435, 1.34302, 1.34719, 1.33563, 1.33543, 1.33345, 1.33116, 1.33291, 1.33009, 1.32819, 1.32687, 1.33378, 1.3296, 1.31888, 1.3255, 1.31709, 1.3212, 1.30658, 1.40079, 1.50719, 1.56565, 1.53448, 1.52632, 1.50402, 1.49183, 1.40649, 1.31043, 1.29513, 1.29379, 1.29857, 1.28939, 1.28833, 
1.6148, 1.61265, 1.60589, 1.60184, 1.60696, 1.60773, 1.60276, 1.59627, 1.59077, 1.58716, 1.58523, 1.58506, 1.58286, 1.58076, 1.57773, 1.5801, 1.58849, 1.56684, 1.63303, 1.70069, 1.91033, 1.76141, 1.51728, 1.55797, 1.5454, 1.54032, 1.53398, 1.53011, 1.5269, 1.52293, 1.5214, 1.51377, 1.51078, 1.50902, 1.50421, 1.50255, 1.50012, 1.49621, 1.49303, 1.49138, 1.4899, 1.48877, 1.48474, 1.48023, 1.47197, 1.4704, 1.466, 1.46479, 1.46259, 1.46051, 1.45831, 1.45413, 1.45108, 1.457, 1.45182, 1.44981, 1.45895, 1.45479, 1.46313, 1.45391, 1.45912, 1.45647, 1.45234, 1.45914, 1.44431, 1.44515, 1.45042, 1.43402, 1.42829, 1.42609, 1.42066, 1.40411, 1.40233, 1.39888, 1.39274, 1.38889, 1.38604, 1.39258, 1.38284, 1.38082, 1.37728, 1.37544, 1.37389, 1.37309, 1.37025, 1.36641, 1.36668, 1.36553, 1.36218, 1.36045, 1.35758, 1.35415, 1.35165, 1.35356, 1.35335, 1.35092, 1.34846, 1.34185, 1.33978, 1.33518, 1.33418, 1.33115, 1.32966, 1.32717, 1.33039, 1.32701, 1.32497, 1.32154, 1.31822, 1.31485, 1.31063, 1.31738, 1.32713, 1.30537, 1.36556, 1.55074, 1.68704, 1.52037, 1.5079, 1.50901, 1.47533, 1.35354, 1.30713, 1.28873, 1.2905, 1.28863, 1.28814, 1.28528, 
1.60689, 1.60363, 1.60248, 1.59545, 1.59553, 1.59677, 1.59271, 1.586, 1.58533, 1.57988, 1.57863, 1.58537, 1.58277, 1.5773, 1.56934, 1.5685, 1.56546, 1.54862, 1.63717, 1.8262, 1.84292, 1.86791, 1.56145, 1.53465, 1.5392, 1.53243, 1.52492, 1.52248, 1.5208, 1.51728, 1.5338, 1.53157, 1.50985, 1.50303, 1.49975, 1.49628, 1.49365, 1.49056, 1.49016, 1.4854, 1.47995, 1.47817, 1.47571, 1.47135, 1.46751, 1.46492, 1.46229, 1.46142, 1.45934, 1.45789, 1.47582, 1.45133, 1.44819, 1.45662, 1.44552, 1.44836, 1.45711, 1.46888, 1.45194, 1.46193, 1.46146, 1.458, 1.45033, 1.45418, 1.4377, 1.42859, 1.45946, 1.4395, 1.42165, 1.41329, 1.40352, 1.40103, 1.39391, 1.38892, 1.38774, 1.38432, 1.38255, 1.38201, 1.38098, 1.37779, 1.37514, 1.37186, 1.37332, 1.36962, 1.36484, 1.36386, 1.36149, 1.36084, 1.35696, 1.35352, 1.3541, 1.35076, 1.35015, 1.34579, 1.34621, 1.34146, 1.33951, 1.33439, 1.33244, 1.33482, 1.3258, 1.32202, 1.3205, 1.32149, 1.32205, 1.31885, 1.31345, 1.30959, 1.30605, 1.30865, 1.30151, 1.30939, 1.30208, 1.27297, 1.39653, 1.62597, 1.69634, 1.58815, 1.46139, 1.42758, 1.38799, 1.3509, 1.28519, 1.28331, 1.28018, 1.28026, 1.27906, 1.2787, 
1.60461, 1.60181, 1.60011, 1.59645, 1.59506, 1.59239, 1.59189, 1.58502, 1.57993, 1.57775, 1.57243, 1.56839, 1.56913, 1.56593, 1.56572, 1.5657, 1.57205, 1.56228, 1.65315, 1.62467, 1.63198, 1.89419, 1.49913, 1.52593, 1.53977, 1.52008, 1.5192, 1.51711, 1.51748, 1.51501, 1.5139, 1.52084, 1.50892, 1.50284, 1.50486, 1.49609, 1.4916, 1.48712, 1.48357, 1.47956, 1.47566, 1.46977, 1.46817, 1.4659, 1.46386, 1.46104, 1.4591, 1.45802, 1.4539, 1.45647, 1.45218, 1.44778, 1.44654, 1.44536, 1.44231, 1.4455, 1.44965, 1.45719, 1.45068, 1.44913, 1.45048, 1.46473, 1.44331, 1.46027, 1.45455, 1.44083, 1.43008, 1.42359, 1.43858, 1.42703, 1.3968, 1.38984, 1.3832, 1.38099, 1.37775, 1.37573, 1.37623, 1.37432, 1.37557, 1.37192, 1.36902, 1.36822, 1.3696, 1.36443, 1.36324, 1.35805, 1.35666, 1.35298, 1.34817, 1.34592, 1.34473, 1.34133, 1.34112, 1.34689, 1.33968, 1.33964, 1.33445, 1.33335, 1.33009, 1.32531, 1.32387, 1.32256, 1.31941, 1.31879, 1.31669, 1.3162, 1.32301, 1.30549, 1.30329, 1.29935, 1.31725, 1.29896, 1.2982, 1.28434, 1.27137, 1.5862, 1.57088, 1.63049, 1.40351, 1.37143, 1.29563, 1.28143, 1.2896, 1.30279, 1.27367, 1.27155, 1.27154, 1.27419, 
1.60675, 1.6039, 1.60041, 1.59872, 1.59582, 1.59445, 1.59086, 1.58837, 1.58041, 1.58028, 1.57641, 1.5741, 1.56948, 1.56968, 1.56745, 1.56181, 1.57616, 1.55211, 1.64515, 1.67939, 1.69679, 1.74969, 1.57554, 1.53759, 1.53988, 1.521, 1.52, 1.52646, 1.51461, 1.52402, 1.51318, 1.51089, 1.50767, 1.5052, 1.50206, 1.49877, 1.49397, 1.49052, 1.48974, 1.48404, 1.47877, 1.4738, 1.47224, 1.47086, 1.46821, 1.46655, 1.46416, 1.46786, 1.46274, 1.45565, 1.45525, 1.45072, 1.44767, 1.44337, 1.4411, 1.44998, 1.46004, 1.44526, 1.45039, 1.4473, 1.45503, 1.4648, 1.45161, 1.44665, 1.44252, 1.43018, 1.42701, 1.42976, 1.42463, 1.41049, 1.40504, 1.39225, 1.38499, 1.38228, 1.37997, 1.38002, 1.37801, 1.37539, 1.38903, 1.37296, 1.36855, 1.36909, 1.36956, 1.37557, 1.36422, 1.364, 1.35652, 1.35387, 1.35129, 1.3424, 1.33864, 1.33697, 1.33486, 1.34244, 1.33685, 1.33754, 1.33626, 1.33198, 1.3299, 1.32961, 1.32662, 1.32598, 1.32356, 1.329, 1.31786, 1.31909, 1.32377, 1.31158, 1.30861, 1.30832, 1.30395, 1.30438, 1.30357, 1.29274, 1.35823, 1.60666, 1.60976, 1.52358, 1.4912, 1.2965, 1.28841, 1.28253, 1.28232, 1.28285, 1.28279, 1.28429, 1.27764, 1.27105, 
1.60446, 1.60378, 1.59933, 1.5999, 1.59595, 1.59081, 1.58839, 1.58585, 1.58838, 1.57901, 1.57456, 1.57953, 1.57896, 1.57279, 1.57249, 1.56264, 1.56572, 1.56032, 1.55959, 1.82025, 1.74477, 1.69545, 1.51265, 1.53666, 1.53064, 1.5295, 1.52204, 1.52115, 1.51943, 1.53703, 1.512, 1.50839, 1.50589, 1.5022, 1.50005, 1.51613, 1.49604, 1.49263, 1.48962, 1.48615, 1.48097, 1.47675, 1.47374, 1.47409, 1.46975, 1.48686, 1.48632, 1.45973, 1.45771, 1.45568, 1.45118, 1.452, 1.44825, 1.44389, 1.45146, 1.44279, 1.45806, 1.45045, 1.45386, 1.44753, 1.44744, 1.44756, 1.45613, 1.45392, 1.45395, 1.44293, 1.43523, 1.43619, 1.42252, 1.40249, 1.42572, 1.39023, 1.38775, 1.38106, 1.38152, 1.38212, 1.3928, 1.39467, 1.40055, 1.37794, 1.37229, 1.37152, 1.36977, 1.37096, 1.36425, 1.36085, 1.3555, 1.35583, 1.35435, 1.34705, 1.34428, 1.34076, 1.34085, 1.33927, 1.33793, 1.34022, 1.33422, 1.33424, 1.3303, 1.33076, 1.33048, 1.32578, 1.32519, 1.32264, 1.32014, 1.32134, 1.33404, 1.32903, 1.3127, 1.3091, 1.31586, 1.32356, 1.31427, 1.27448, 1.32554, 1.47111, 1.60667, 1.54884, 1.53369, 1.25407, 1.30255, 1.30268, 1.29232, 1.28265, 1.28176, 1.28155, 1.27168, 1.2718, 
1.59981, 1.5993, 1.60328, 1.59513, 1.58726, 1.58447, 1.58206, 1.57965, 1.56796, 1.58568, 1.56127, 1.56136, 1.56454, 1.55871, 1.55162, 1.54709, 1.55826, 1.54069, 1.62408, 1.7761, 1.68841, 1.69532, 1.52791, 1.51113, 1.51402, 1.52051, 1.51809, 1.52281, 1.51656, 1.51232, 1.50804, 1.50499, 1.51714, 1.4882, 1.482, 1.47995, 1.47721, 1.4747, 1.46819, 1.46535, 1.46361, 1.45868, 1.45379, 1.45187, 1.46228, 1.4493, 1.44727, 1.4411, 1.44024, 1.44409, 1.44247, 1.44393, 1.44019, 1.42826, 1.4339, 1.42489, 1.44128, 1.44214, 1.43797, 1.45023, 1.46702, 1.4613, 1.45746, 1.43918, 1.45029, 1.42266, 1.42611, 1.44437, 1.41077, 1.40677, 1.42119, 1.40244, 1.38316, 1.38587, 1.37729, 1.38351, 1.37568, 1.37091, 1.36153, 1.37184, 1.35785, 1.35989, 1.35666, 1.35681, 1.35927, 1.34864, 1.3468, 1.34385, 1.34501, 1.34799, 1.33686, 1.33601, 1.32819, 1.32557, 1.32416, 1.32105, 1.32045, 1.32262, 1.31942, 1.31913, 1.31355, 1.3183, 1.31479, 1.3242, 1.31123, 1.30852, 1.30615, 1.30556, 1.30041, 1.30514, 1.31756, 1.30297, 1.30774, 1.30097, 1.36828, 1.43808, 1.72081, 1.83077, 1.47437, 1.32774, 1.29579, 1.27936, 1.26834, 1.27888, 1.26403, 1.26048, 1.25851, 1.25804, 
