0.838668, 0.838711, 0.837365, 0.837516, 0.839123, 0.839119, 0.839211, 0.838636, 0.838281, 0.838246, 0.838044, 0.835085, 0.834896, 0.835061, 0.834964, 0.834277, 0.832174, 0.847357, 0.832012, 0.837889, 0.862208, 0.829596, 0.830528, 0.836414, 0.826992, 0.827072, 0.825686, 0.825183, 0.82753, 0.825607, 0.833018, 0.829886, 0.825939, 0.839453, 0.820857, 0.829655, 0.816585, 0.825319, 0.821637, 0.821161, 0.824315, 0.825144, 0.81755, 0.819166, 0.811541, 0.822031, 0.821803, 0.818878, 0.822096, 0.821666, 0.822415, 0.822403, 0.828728, 0.823534, 0.824325, 0.824286, 0.835336, 0.830416, 0.820392, 0.814159, 0.818297, 0.820954, 0.821425, 0.82298, 0.821166, 0.825172, 0.820555, 0.82026, 0.820368, 0.818456, 0.815924, 0.818683, 0.815828, 0.806219, 0.835119, 0.835097, 0.814738, 0.81469, 0.829671, 0.81436, 0.812097, 0.811011, 0.81131, 0.817692, 0.808282, 0.807165, 0.805118, 0.803699, 0.805415, 0.81108, 0.805882, 0.804919, 0.805989, 0.805678, 0.807474, 0.830286, 0.825381, 0.824943, 0.805367, 0.80613, 0.804577, 0.808481, 0.804223, 0.808073, 0.801098, 0.79993, 0.798339, 0.797724, 0.798236, 0.807786, 0.803308, 0.801648, 0.805136, 0.800425, 0.800578, 0.801059, 0.815555, 0.804075, 0.80307, 0.809237, 0.804399, 0.801133, 0.802193, 0.803302, 0.807305, 0.807886, 0.803999, 0.78987, 0.789052, 0.773498, 0.746583, 0.746177, 0.780798, 0.776935, 0.774865, 0.822161, 0.818743, 0.835403, 0.974125, 1.15642, 1.3412, 1.34233, 1.38982, 1.31206, 1.31245, 0.991241, 0.94463, 0.888627, 0.860994, 0.854263, 0.856715, 0.842556, 0.794865, 0.794933, 0.804137, 0.777736, 0.784125, 0.78856, 0.788543, 0.79363, 0.788316, 0.789537, 0.790974, 0.787044, 0.788281, 0.790731, 0.791648, 0.78719, 0.785939, 0.786732, 0.787432, 0.78731, 0.785734, 0.786873, 0.787416, 0.788956, 0.790307, 0.797143, 0.797269, 0.793974, 0.793924, 0.797329, 0.797221, 0.792069, 0.788778, 0.793793, 0.790289, 0.788853, 0.798243, 0.788813, 0.789913, 0.790858, 0.797618, 0.792526, 0.796931, 0.791366, 0.791681, 0.793429, 0.796749, 0.797902, 0.792975, 0.792431, 0.792194, 0.792036, 0.790915, 0.794271, 0.800847, 0.814687, 0.796112, 0.79907, 0.797663, 0.796421, 0.796775, 0.797071, 0.794121, 0.795866, 0.795396, 0.795753, 0.79721, 0.797063, 0.797457, 0.795309, 0.795489, 0.79822, 0.796668, 0.799956, 0.801727, 0.793649, 0.791109, 0.791206, 0.790127, 0.797824, 0.790897, 0.792214, 0.791943, 0.789474, 0.788024, 0.793862, 0.790277, 0.78939, 0.788592, 0.788324, 0.792581, 0.789817, 0.789872, 0.789807, 0.791006, 0.788839, 0.789427, 0.788029, 0.789692, 0.789658, 0.788577, 0.788089, 0.816295, 0.801515, 0.802952, 0.789504, 0.791277, 0.795797, 0.820065, 0.801511, 0.786017, 0.788759, 0.801303, 0.789262, 0.791123, 0.777414, 0.791255, 0.779983, 0.780335, 0.781641, 0.780918, 0.78655, 0.784544, 0.782351, 0.783966, 0.791043, 0.779075, 0.781334, 0.780093, 0.791968, 0.807876, 0.802221, 0.80373, 0.787688, 0.790039, 0.807221, 0.79102, 0.800946, 0.781944, 0.782881, 0.783138, 0.779297, 0.780603, 0.780811, 0.778204, 0.776781, 0.779516, 0.777792
0.839426, 0.836895, 0.835571, 0.834699, 0.834578, 0.838687, 0.838984, 0.839818, 0.838721, 0.838524, 0.836079, 0.837225, 0.836344, 0.8354, 0.835177, 0.833203, 0.833282, 0.84303, 0.831389, 0.842032, 0.832123, 0.832808, 0.831482, 0.834907, 0.823565, 0.825706, 0.825551, 0.82241, 0.821232, 0.822111, 0.83223, 0.828248, 0.826738, 0.82175, 0.827763, 0.824467, 0.84191, 0.82205, 0.82272, 0.832801, 0.826217, 0.822278, 0.819673, 0.818857, 0.819565, 0.825108, 0.825861, 0.823233, 0.821946, 0.820436, 0.820215, 0.820927, 0.819251, 0.821504, 0.83046, 0.818296, 0.817881, 0.836483, 0.850049, 0.821601, 0.821689, 0.821351, 0.822052, 0.821865, 0.822144, 0.821844, 0.829778, 0.821095, 0.827563, 0.818245, 0.853507, 0.811891, 0.809607, 0.8038, 0.8031, 0.805968, 0.817644, 0.817379, 0.815832, 0.814222, 0.813533, 0.814261, 0.812399, 0.812087, 0.811707, 0.815137, 0.817754, 0.809205, 0.809044, 0.80931, 0.810054, 0.825378, 0.808143, 0.806792, 0.807737, 0.807519, 0.807925, 0.806405, 0.805951, 0.805947, 0.828388, 0.804938, 0.805785, 0.804807, 0.804451, 0.811591, 0.804706, 0.804286, 0.804474, 0.804368, 0.799037, 0.807597, 0.808741, 0.800457, 0.811552, 0.804188, 0.803926, 0.804514, 0.802382, 0.801281, 0.804739, 0.801963, 0.795018, 0.797426, 0.776111, 0.774513, 0.771552, 0.794191, 0.79085, 0.79499, 0.795077, 0.745507, 0.767237, 0.785768, 0.77628, 0.789738, 0.827007, 0.856915, 1.00445, 1.00207, 1.01812, 1.03389, 1.03569, 1.03914, 1.03891, 1.02157, 0.980189, 0.931544, 0.856142, 0.880513, 0.833785, 0.829556, 0.824842, 0.795725, 0.774041, 0.774453, 0.781596, 0.784008, 0.794133, 0.789713, 0.789203, 0.790552, 0.797613, 0.789769, 0.788528, 0.795055, 0.801313, 0.790116, 0.7981, 0.795689, 0.80091, 0.787016, 0.787489, 0.789062, 0.787629, 0.793643, 0.790495, 0.797351, 0.793898, 0.794166, 0.797077, 0.792177, 0.791292, 0.788916, 0.798002, 0.800385, 0.791176, 0.793819, 0.792688, 0.801113, 0.808313, 0.793341, 0.796729, 0.797135, 0.804227, 0.792821, 0.793038, 0.805087, 0.797535, 0.791125, 0.798364, 0.791237, 0.788935, 0.791153, 0.801746, 0.80132, 0.794812, 0.804225, 0.79658, 0.797215, 0.796891, 0.79658, 0.797182, 0.797304, 0.797541, 0.795159, 0.798585, 0.797011, 0.817063, 0.794366, 0.796024, 0.797193, 0.797068, 0.796641, 0.805428, 0.79515, 0.795387, 0.795371, 0.796854, 0.791463, 0.793318, 0.79199, 0.791526, 0.792896, 0.793118, 0.790904, 0.789359, 0.793605, 0.78755, 0.787965, 0.793578, 0.792113, 0.790513, 0.790588, 0.7971, 0.787456, 0.788959, 0.790493, 0.786089, 0.790507, 0.78871, 0.787963, 0.786388, 0.78985, 0.786317, 0.785715, 0.78463, 0.782383, 0.791577, 0.784743, 0.784603, 0.78717, 0.787458, 0.78691, 0.784735, 0.784803, 0.783145, 0.790705, 0.783499, 0.781114, 0.783718, 0.784516, 0.784445, 0.787378, 0.784585, 0.784702, 0.784002, 0.78174, 0.790738, 0.800832, 0.84153, 0.781045, 0.781383, 0.781429, 0.783742, 0.794894, 0.80942, 0.78473, 0.786134, 0.784382, 0.787702, 0.797841, 0.79154, 0.783439, 0.778607, 0.779948, 0.781568, 0.777185, 0.784621, 0.786641
0.84306, 0.855196, 0.853613, 0.829111, 0.838179, 0.838392, 0.841083, 0.839969, 0.839391, 0.838712, 0.837254, 0.837007, 0.836547, 0.836532, 0.835443, 0.834787, 0.833966, 0.835581, 0.834438, 0.834017, 0.834324, 0.834238, 0.833071, 0.832202, 0.835904, 0.83441, 0.82989, 0.832943, 0.823888, 0.8238, 0.829365, 0.829644, 0.827379, 0.825906, 0.825322, 0.827292, 0.827439, 0.825586, 0.825119, 0.825644, 0.824854, 0.820837, 0.82181, 0.81806, 0.811021, 0.811659, 0.821299, 0.88503, 0.8839, 0.836611, 0.821486, 0.82029, 0.838697, 0.822219, 0.840484, 0.843358, 0.843754, 0.821664, 0.820547, 0.820583, 0.8592, 0.821275, 0.821087, 0.821529, 0.821528, 0.821152, 0.821026, 0.820684, 0.822726, 0.82157, 0.819914, 0.831243, 0.815885, 0.815006, 0.816184, 0.816382, 0.815253, 0.814474, 0.825787, 0.831967, 0.817125, 0.816271, 0.823611, 0.814889, 0.826151, 0.813365, 0.811933, 0.810876, 0.811324, 0.811302, 0.836593, 0.809992, 0.809478, 0.808996, 0.808159, 0.835262, 0.808842, 0.808452, 0.815649, 0.806118, 0.806307, 0.806737, 0.825554, 0.806223, 0.805921, 0.828888, 0.80645, 0.819483, 0.807164, 0.821543, 0.819394, 0.807974, 0.804622, 0.81647, 0.802456, 0.805017, 0.80482, 0.804509, 0.804832, 0.816339, 0.81223, 0.803461, 0.805067, 0.803236, 0.804088, 0.77471, 0.773668, 0.766129, 0.785769, 0.795205, 0.795506, 0.780105, 0.760621, 0.758952, 0.776467, 0.796178, 0.817946, 0.918792, 0.971318, 1.01336, 1.02314, 1.03118, 1.0351, 1.03674, 1.03551, 1.04988, 1.01947, 0.92877, 0.886496, 0.877364, 0.855942, 0.838074, 0.772539, 0.759316, 0.763791, 0.773033, 0.791504, 0.78401, 0.783698, 0.784503, 0.787572, 0.783629, 0.784548, 0.785822, 0.786895, 0.801612, 0.793833, 0.788492, 0.78795, 0.788725, 0.787986, 0.797784, 0.788534, 0.788317, 0.787469, 0.794478, 0.788657, 0.790251, 0.791801, 0.793351, 0.794388, 0.788494, 0.789265, 0.790017, 0.797041, 0.791899, 0.791454, 0.792716, 0.79139, 0.79368, 0.796032, 0.79502, 0.794117, 0.795038, 0.795637, 0.794913, 0.794719, 0.796251, 0.796879, 0.797453, 0.797432, 0.797584, 0.795237, 0.791856, 0.79365, 0.793984, 0.794619, 0.797574, 0.796361, 0.796418, 0.795062, 0.797106, 0.794097, 0.79523, 0.802092, 0.797472, 0.81167, 0.808658, 0.797825, 0.793842, 0.800793, 0.798802, 0.796968, 0.814168, 0.79575, 0.794127, 0.794644, 0.795941, 0.827821, 0.80867, 0.794712, 0.790783, 0.791336, 0.791872, 0.790014, 0.789587, 0.789664, 0.786934, 0.787483, 0.790095, 0.791553, 0.78996, 0.78707, 0.788022, 0.785986, 0.78491, 0.783584, 0.785549, 0.790293, 0.78338, 0.783716, 0.785046, 0.792701, 0.784269, 0.783518, 0.784579, 0.782978, 0.783537, 0.781538, 0.787163, 0.784805, 0.784131, 0.785824, 0.787394, 0.786421, 0.79063, 0.789011, 0.790124, 0.787104, 0.785614, 0.787557, 0.786348, 0.791553, 0.790304, 0.784727, 0.783985, 0.783613, 0.783745, 0.781395, 0.781839, 0.784662, 0.804462, 0.783506, 0.779903, 0.777639, 0.786003, 0.781208, 0.783823, 0.783364, 0.783547, 0.78522, 0.782145, 0.79394, 0.786878, 0.781887, 0.783081, 0.786217, 0.777581, 0.777872, 0.774752
0.837298, 0.836617, 0.83602, 0.837308, 0.838678, 0.837307, 0.837295, 0.837902, 0.837747, 0.838185, 0.839917, 0.847704, 0.857023, 0.834826, 0.835786, 0.835919, 0.835987, 0.834269, 0.83346, 0.833466, 0.834646, 0.833844, 0.833938, 0.833142, 0.83278, 0.832973, 0.83003, 0.831808, 0.826475, 0.82704, 0.832033, 0.827688, 0.827659, 0.82502, 0.83236, 0.825565, 0.825932, 0.825755, 0.82446, 0.8244, 0.822313, 0.819132, 0.821131, 0.825542, 0.818045, 0.820454, 0.818681, 0.819797, 0.819312, 0.828434, 0.819034, 0.820978, 0.821605, 0.818851, 0.822476, 0.826047, 0.861713, 0.830972, 0.823776, 0.844169, 0.819788, 0.829008, 0.821789, 0.867003, 0.820885, 0.821236, 0.820875, 0.822545, 0.819837, 0.820019, 0.820402, 0.819225, 0.82068, 0.817133, 0.826223, 0.815262, 0.815047, 0.81593, 0.814317, 0.816673, 0.820966, 0.819299, 0.814818, 0.814917, 0.812989, 0.821382, 0.835, 0.811739, 0.811859, 0.81231, 0.815516, 0.810082, 0.810075, 0.814008, 0.812823, 0.808993, 0.809115, 0.807434, 0.807579, 0.820201, 0.819726, 0.806151, 0.812418, 0.807383, 0.807373, 0.822453, 0.806115, 0.807746, 0.808476, 0.820824, 0.80654, 0.807159, 0.812263, 0.810998, 0.804171, 0.804197, 0.804587, 0.804009, 0.814799, 0.803047, 0.802476, 0.807077, 0.80684, 0.805984, 0.806694, 0.821542, 0.821258, 0.80614, 0.805788, 0.785795, 0.784504, 0.776858, 0.776657, 0.772765, 0.771686, 0.773529, 0.834176, 0.833579, 0.923062, 1.03192, 1.05156, 1.05448, 1.07756, 1.07787, 1.06075, 1.05367, 1.02812, 1.02737, 0.927478, 0.902306, 0.884516, 0.783725, 0.787881, 0.752794, 0.75831, 0.760468, 0.795661, 0.773838, 0.775768, 0.791203, 0.784832, 0.785892, 0.788416, 0.785351, 0.785001, 0.794401, 0.78974, 0.787946, 0.788521, 0.78782, 0.788867, 0.794012, 0.790661, 0.787256, 0.787704, 0.786367, 0.790879, 0.788879, 0.789194, 0.788888, 0.7954, 0.787375, 0.785483, 0.793674, 0.793534, 0.787084, 0.786891, 0.785806, 0.798034, 0.791271, 0.791932, 0.792877, 0.804522, 0.805405, 0.795657, 0.797891, 0.797395, 0.799206, 0.865912, 0.796913, 0.804049, 0.800095, 0.795795, 0.795341, 0.826471, 0.795439, 0.795918, 0.795092, 0.794078, 0.794215, 0.795185, 0.794776, 0.795627, 0.795669, 0.796209, 0.796245, 0.813995, 0.797151, 0.795646, 0.795618, 0.804685, 0.79497, 0.794775, 0.794796, 0.7938, 0.793361, 0.79339, 0.805357, 0.79252, 0.791804, 0.792598, 0.814943, 0.791775, 0.79043, 0.788363, 0.788938, 0.794218, 0.790818, 0.786283, 0.784545, 0.783908, 0.794781, 0.783619, 0.783068, 0.7908, 0.79486, 0.782719, 0.781862, 0.785347, 0.784547, 0.783773, 0.78848, 0.78868, 0.788182, 0.789072, 0.786637, 0.784614, 0.787784, 0.786057, 0.785204, 0.783322, 0.783929, 0.784809, 0.790268, 0.785028, 0.783113, 0.787284, 0.791282, 0.783744, 0.783845, 0.784796, 0.784901, 0.785132, 0.78457, 0.783319, 0.783396, 0.783549, 0.793183, 0.806198, 0.792732, 0.791763, 0.782898, 0.790899, 0.782741, 0.78315, 0.781886, 0.788222, 0.787697, 0.791563, 0.784021, 0.801667, 0.779595, 0.780381, 0.780983, 0.783813, 0.778878, 0.775387, 0.774074, 0.774694, 0.779529
0.829126, 0.829237, 0.832083, 0.839596, 0.836464, 0.837887, 0.836824, 0.8487, 0.837952, 0.835343, 0.868603, 0.842732, 0.842692, 0.870716, 0.836096, 0.83678, 0.834755, 0.834317, 0.833811, 0.842185, 0.835101, 0.832677, 0.833161, 0.831444, 0.847074, 0.826749, 0.829959, 0.832931, 0.828552, 0.828784, 0.829258, 0.826828, 0.828089, 0.82579, 0.835648, 0.82652, 0.829076, 0.823992, 0.822605, 0.823019, 0.836746, 0.819391, 0.821195, 0.829561, 0.818145, 0.821097, 0.82157, 0.828401, 0.817719, 0.818523, 0.824873, 0.820142, 0.819516, 0.82103, 0.819323, 0.817765, 0.817242, 0.820107, 0.820601, 0.829049, 0.819249, 0.819182, 0.821733, 0.815173, 0.835881, 0.820526, 0.820769, 0.819754, 0.820476, 0.819626, 0.818632, 0.819711, 0.818295, 0.817146, 0.816827, 0.815467, 0.814567, 0.87448, 0.82785, 0.812466, 0.813534, 0.813395, 0.813444, 0.813854, 0.812741, 0.812573, 0.82179, 0.815418, 0.81513, 0.811704, 0.81273, 0.812201, 0.811468, 0.811711, 0.831866, 0.809411, 0.815158, 0.809253, 0.809122, 0.807804, 0.807136, 0.809548, 0.818269, 0.819604, 0.820202, 0.808124, 0.807122, 0.807172, 0.807465, 0.815158, 0.806067, 0.806203, 0.805397, 0.818304, 0.80635, 0.819859, 0.815535, 0.804952, 0.802982, 0.819907, 0.812875, 0.813196, 0.801863, 0.804092, 0.80317, 0.808011, 0.808543, 0.807286, 0.801251, 0.808423, 0.808492, 0.790605, 0.787209, 0.785013, 0.795298, 0.803327, 0.870986, 0.890695, 0.945812, 0.94825, 1.00439, 1.18467, 1.1988, 1.16325, 1.08431, 1.06021, 1.05774, 1.02657, 1.00481, 1.00555, 0.89055, 0.790759, 0.783107, 0.755429, 0.780787, 0.774914, 0.795135, 0.784377, 0.784312, 0.783449, 0.786397, 0.784037, 0.790758, 0.785848, 0.785429, 0.784142, 0.784558, 0.789858, 0.784849, 0.790378, 0.796644, 0.791136, 0.786784, 0.784744, 0.784449, 0.786208, 0.787617, 0.787457, 0.786481, 0.788076, 0.790562, 0.792773, 0.785249, 0.785301, 0.787811, 0.785118, 0.785176, 0.785052, 0.785049, 0.79564, 0.79428, 0.795137, 0.79531, 0.796423, 0.796048, 0.795802, 0.798002, 0.797109, 0.796508, 0.813156, 0.79741, 0.796869, 0.796743, 0.795804, 0.795811, 0.795327, 0.803541, 0.794598, 0.794688, 0.793907, 0.793806, 0.794281, 0.795062, 0.791975, 0.794023, 0.818243, 0.810792, 0.792193, 0.793566, 0.794034, 0.810994, 0.811475, 0.793651, 0.794058, 0.80211, 0.794317, 0.792068, 0.792409, 0.791919, 0.793912, 0.793851, 0.790738, 0.791891, 0.791457, 0.789398, 0.790712, 0.797552, 0.790505, 0.80312, 0.796899, 0.797336, 0.793418, 0.787426, 0.781413, 0.782252, 0.784941, 0.789382, 0.787691, 0.783292, 0.785113, 0.789305, 0.793321, 0.903484, 0.881346, 0.87066, 0.790474, 0.785216, 0.786364, 0.785373, 0.786828, 0.784012, 0.787446, 0.784819, 0.779519, 0.783758, 0.785474, 0.785115, 0.786892, 0.785507, 0.785163, 0.784317, 0.78527, 0.783938, 0.784749, 0.783177, 0.783309, 0.783179, 0.781863, 0.783711, 0.781472, 0.7845, 0.80349, 0.778386, 0.781752, 0.777259, 0.779338, 0.777804, 0.783868, 0.778158, 0.780821, 0.781216, 0.779571, 0.77998, 0.780232, 0.788958, 0.776632, 0.781672, 0.782733, 0.780751, 0.779161
0.838914, 0.843221, 0.832497, 0.842617, 0.84147, 0.829822, 0.831968, 0.845293, 0.838291, 0.838926, 0.836849, 0.859999, 0.835056, 0.834664, 0.835018, 0.834216, 0.834645, 0.834357, 0.832929, 0.834671, 0.831997, 0.832335, 0.831948, 0.833215, 0.832466, 0.825882, 0.826675, 0.826427, 0.826599, 0.829246, 0.827221, 0.834257, 0.839496, 0.825662, 0.831549, 0.824156, 0.826468, 0.823376, 0.800964, 0.800881, 0.823874, 0.821324, 0.816091, 0.814179, 0.813042, 0.814647, 0.815391, 0.814749, 0.816282, 0.816319, 0.835465, 0.818025, 0.832905, 0.829703, 0.832123, 0.832901, 0.836603, 0.817259, 0.840188, 0.8183, 0.817955, 0.851309, 0.8251, 0.81861, 0.819457, 0.81772, 0.836037, 0.81967, 0.84684, 0.820382, 0.819695, 0.821787, 0.818475, 0.817242, 0.828843, 0.814567, 0.835711, 0.812187, 0.813688, 0.813953, 0.839901, 0.846046, 0.814745, 0.814312, 0.813038, 0.814628, 0.812668, 0.813999, 0.812172, 0.813754, 0.812415, 0.825803, 0.840126, 0.812866, 0.812693, 0.817609, 0.818008, 0.809722, 0.832221, 0.816675, 0.817784, 0.80711, 0.807879, 0.819625, 0.807926, 0.829194, 0.843748, 0.81546, 0.816611, 0.80585, 0.804727, 0.822407, 0.806184, 0.803618, 0.803822, 0.804671, 0.804241, 0.814777, 0.803781, 0.801697, 0.818752, 0.811474, 0.791355, 0.791613, 0.80825, 0.814063, 0.804631, 0.804181, 0.790754, 0.794145, 0.776338, 0.789349, 0.794696, 0.797973, 0.81648, 0.836695, 0.857648, 0.943747, 0.951482, 0.994173, 1.02682, 1.04518, 1.25231, 1.25106, 1.07808, 1.07751, 1.03601, 1.04442, 1.02466, 0.826493, 0.793474, 0.787294, 0.786415, 0.7706, 0.795526, 0.797511, 0.781444, 0.782487, 0.785159, 0.786417, 0.795244, 0.78553, 0.786055, 0.791378, 0.78751, 0.784884, 0.783575, 0.78834, 0.793612, 0.784769, 0.797818, 0.78676, 0.791766, 0.786739, 0.789411, 0.790155, 0.784232, 0.787165, 0.786353, 0.789171, 0.794321, 0.784155, 0.784837, 0.790048, 0.788954, 0.790541, 0.790585, 0.793522, 0.789394, 0.790481, 0.791212, 0.800605, 0.795307, 0.795599, 0.797422, 0.795681, 0.794962, 0.805406, 0.794668, 0.795466, 0.795298, 0.795847, 0.795694, 0.794933, 0.795202, 0.796062, 0.794101, 0.794699, 0.794798, 0.793899, 0.793368, 0.793562, 0.792648, 0.791495, 0.811409, 0.792034, 0.792974, 0.793149, 0.793295, 0.794041, 0.793573, 0.793603, 0.793727, 0.793265, 0.792316, 0.790892, 0.794609, 0.790353, 0.788829, 0.788724, 0.789173, 0.792052, 0.794926, 0.790109, 0.788297, 0.789009, 0.789339, 0.795299, 0.798149, 0.870522, 0.872033, 0.79688, 0.79151, 0.789617, 0.784939, 0.785978, 0.786195, 0.784423, 0.793011, 0.788646, 0.789681, 0.798901, 0.801244, 0.880493, 0.786831, 0.786528, 0.786228, 0.785237, 0.785054, 0.783801, 0.784931, 0.784026, 0.783377, 0.782908, 0.815471, 0.797436, 0.783077, 0.784082, 0.812589, 0.783169, 0.784298, 0.785439, 0.785089, 0.784541, 0.78854, 0.787315, 0.785382, 0.783608, 0.776998, 0.781345, 0.777912, 0.78729, 0.78386, 0.778512, 0.778885, 0.78139, 0.779678, 0.777072, 0.784168, 0.781593, 0.785996, 0.794315, 0.781906, 0.794598, 0.781312, 0.782143, 0.783118, 0.805959, 0.785399, 0.79099
0.835474, 0.828666, 0.836658, 0.835823, 0.835671, 0.841874, 0.836266, 0.835661, 0.835817, 0.835669, 0.836035, 0.833172, 0.832485, 0.832901, 0.831255, 0.840475, 0.833434, 0.836665, 0.83353, 0.832469, 0.833139, 0.833335, 0.831755, 0.830088, 0.830477, 0.830236, 0.830668, 0.830146, 0.828762, 0.827708, 0.828526, 0.827112, 0.82519, 0.795041, 0.824737, 0.814637, 0.80255, 0.822682, 0.821159, 0.820137, 0.818783, 0.827588, 0.821783, 0.82496, 0.813121, 0.81451, 0.811638, 0.813777, 0.839483, 0.814523, 0.830405, 0.817044, 0.816905, 0.814895, 0.844045, 0.839943, 0.833113, 0.842602, 0.816233, 0.816647, 0.819625, 0.815783, 0.817944, 0.817537, 0.831425, 0.829874, 0.817468, 0.81914, 0.816712, 0.822215, 0.818154, 0.827314, 0.815794, 0.814328, 0.815, 0.821618, 0.860028, 0.853443, 0.813678, 0.813043, 0.814083, 0.813503, 0.812867, 0.81272, 0.811746, 0.812613, 0.811928, 0.812258, 0.812583, 0.814236, 0.814217, 0.813713, 0.813595, 0.807899, 0.809611, 0.811796, 0.818494, 0.811605, 0.809993, 0.808812, 0.808612, 0.814388, 0.805498, 0.806366, 0.826475, 0.824724, 0.807075, 0.806114, 0.805558, 0.815717, 0.805129, 0.804644, 0.806143, 0.803949, 0.803235, 0.815615, 0.809092, 0.801018, 0.801489, 0.800196, 0.800391, 0.800403, 0.801491, 0.80114, 0.805782, 0.805463, 0.801344, 0.801379, 0.801518, 0.787061, 0.794307, 0.774967, 0.776756, 0.798705, 0.840033, 0.840021, 0.855359, 0.890537, 0.996973, 1.01998, 1.05765, 1.08112, 1.25287, 1.2109, 1.25717, 1.10967, 1.10195, 1.1024, 0.878093, 0.864253, 0.806606, 0.796961, 0.785483, 0.802687, 0.793382, 0.791479, 0.785912, 0.788104, 0.783617, 0.781458, 0.781219, 0.783832, 0.782091, 0.790444, 0.78859, 0.797833, 0.790716, 0.798011, 0.784986, 0.784847, 0.785458, 0.788439, 0.786297, 0.786414, 0.795548, 0.788511, 0.78859, 0.789002, 0.790693, 0.792873, 0.785944, 0.786987, 0.791377, 0.787258, 0.786679, 0.788965, 0.789598, 0.790435, 0.793769, 0.795084, 0.795504, 0.796907, 0.794831, 0.79556, 0.797321, 0.796756, 0.797268, 0.796633, 0.794993, 0.795556, 0.795591, 0.796426, 0.794339, 0.795807, 0.795951, 0.796922, 0.795484, 0.797015, 0.795752, 0.795143, 0.79341, 0.792835, 0.792872, 0.793226, 0.793745, 0.814324, 0.79385, 0.793938, 0.793545, 0.79349, 0.812803, 0.79435, 0.79269, 0.792945, 0.792271, 0.792713, 0.790891, 0.790164, 0.791431, 0.789071, 0.791101, 0.78864, 0.789053, 0.788148, 0.79802, 0.789283, 0.794029, 0.795723, 0.794041, 0.801417, 0.800161, 0.791786, 0.7916, 0.784282, 0.791981, 0.787113, 0.783497, 0.793903, 0.783455, 0.782433, 0.786875, 0.788174, 0.788174, 0.788294, 0.78802, 0.804041, 0.786329, 0.785606, 0.783595, 0.782546, 0.783352, 0.784556, 0.784317, 0.784165, 0.785942, 0.78543, 0.801645, 0.784314, 0.783628, 0.784825, 0.786269, 0.785068, 0.785039, 0.785586, 0.783129, 0.783496, 0.781418, 0.780972, 0.785463, 0.778563, 0.777746, 0.774832, 0.779506, 0.780832, 0.778265, 0.77859, 0.781018, 0.781914, 0.787213, 0.784341, 0.78419, 0.785173, 0.781954, 0.783762, 0.790663, 0.781217, 0.783009, 0.787198, 0.785414, 0.784021
0.833409, 0.84154, 0.830121, 0.830458, 0.833643, 0.8426, 0.842287, 0.83551, 0.836586, 0.835145, 0.831587, 0.832341, 0.830464, 0.831603, 0.846508, 0.831288, 0.832577, 0.833198, 0.832681, 0.832001, 0.831863, 0.831869, 0.832601, 0.834518, 0.825388, 0.825771, 0.825923, 0.826931, 0.827161, 0.826732, 0.828776, 0.849298, 0.823387, 0.825028, 0.824871, 0.824654, 0.825435, 0.82376, 0.82283, 0.833461, 0.832222, 0.818589, 0.829506, 0.814509, 0.813761, 0.814778, 0.846425, 0.814113, 0.814315, 0.849832, 0.840895, 0.845703, 0.832583, 0.814632, 0.838609, 0.860786, 0.816049, 0.81719, 0.825613, 0.81475, 0.816373, 0.835074, 0.819471, 0.824173, 0.825043, 0.825918, 0.82693, 0.815287, 0.815991, 0.814973, 0.814791, 0.814625, 0.815519, 0.815427, 0.815228, 0.813889, 0.814954, 0.822327, 0.812518, 0.813175, 0.812327, 0.81212, 0.809845, 0.814803, 0.811806, 0.811388, 0.812065, 0.812894, 0.814, 0.832895, 0.814596, 0.822119, 0.813113, 0.812463, 0.812093, 0.812692, 0.827875, 0.828944, 0.85051, 0.809416, 0.838355, 0.806471, 0.805812, 0.847493, 0.806229, 0.803861, 0.802499, 0.812475, 0.806084, 0.811836, 0.803234, 0.801289, 0.800823, 0.80162, 0.800881, 0.802448, 0.798029, 0.795303, 0.802001, 0.800624, 0.801135, 0.79767, 0.800128, 0.804179, 0.799523, 0.805132, 0.802392, 0.798443, 0.797888, 0.783927, 0.786645, 0.777918, 0.773012, 0.801606, 0.822437, 0.845706, 0.883877, 0.862865, 0.921342, 1.04805, 1.25133, 1.21034, 1.23723, 1.2125, 1.24128, 1.22229, 1.19912, 1.17842, 0.884094, 0.839337, 0.825434, 0.840952, 0.828364, 0.803299, 0.801268, 0.79989, 0.795376, 0.792056, 0.783421, 0.787164, 0.79087, 0.786682, 0.794074, 0.797687, 0.802876, 0.785162, 0.798132, 0.79885, 0.784982, 0.785928, 0.784, 0.790717, 0.784187, 0.786659, 0.807377, 0.787691, 0.791666, 0.790554, 0.790204, 0.790778, 0.790982, 0.790714, 0.805898, 0.7934, 0.795395, 0.794117, 0.795183, 0.795786, 0.795144, 0.79567, 0.797139, 0.796551, 0.79764, 0.798004, 0.798892, 0.797783, 0.797898, 0.796998, 0.797044, 0.797122, 0.79574, 0.794918, 0.798309, 0.79393, 0.795491, 0.795153, 0.796797, 0.795722, 0.794902, 0.793626, 0.793471, 0.792805, 0.793525, 0.792082, 0.794186, 0.793587, 0.793555, 0.794247, 0.793171, 0.793733, 0.793618, 0.792957, 0.792675, 0.791785, 0.79745, 0.790653, 0.791753, 0.791304, 0.791401, 0.797003, 0.789003, 0.795169, 0.791991, 0.796972, 0.788761, 0.785255, 0.788772, 0.790934, 0.78905, 0.793046, 0.801038, 0.787124, 0.79397, 0.785834, 0.787164, 0.785965, 0.786041, 0.784997, 0.787666, 0.789189, 0.788842, 0.789079, 0.788033, 0.787721, 0.787283, 0.786157, 0.785847, 0.801824, 0.787816, 0.78335, 0.783249, 0.783591, 0.783898, 0.783693, 0.78285, 0.782048, 0.783462, 0.782359, 0.778692, 0.780078, 0.780988, 0.786362, 0.784812, 0.783068, 0.783039, 0.781948, 0.804432, 0.781801, 0.782904, 0.783098, 0.791708, 0.778668, 0.778652, 0.781448, 0.781081, 0.81104, 0.780101, 0.785182, 0.781372, 0.781008, 0.784278, 0.78174, 0.794018, 0.783936, 0.780856, 0.780659, 0.782109, 0.783692, 0.784315, 0.784573
0.843414, 0.836785, 0.829966, 0.828405, 0.829298, 0.843297, 0.831736, 0.843149, 0.835339, 0.831354, 0.829914, 0.839798, 0.843385, 0.831182, 0.831306, 0.85264, 0.849462, 0.831458, 0.831325, 0.830648, 0.827111, 0.826392, 0.830734, 0.824957, 0.824371, 0.827644, 0.831416, 0.828883, 0.82666, 0.825482, 0.825986, 0.8289, 0.824296, 0.826177, 0.827501, 0.824209, 0.821898, 0.821752, 0.821648, 0.820277, 0.818913, 0.828712, 0.817418, 0.832049, 0.813838, 0.821801, 0.797477, 0.811541, 0.814814, 0.814271, 0.839559, 0.816556, 0.824787, 0.81849, 0.813701, 0.815472, 0.816625, 0.822044, 0.815532, 0.814585, 0.814171, 0.814926, 0.815636, 0.814862, 0.833339, 0.834626, 0.81461, 0.836889, 0.815961, 0.825147, 0.825264, 0.814474, 0.815236, 0.814628, 0.815797, 0.814914, 0.814352, 0.814871, 0.81371, 0.812676, 0.810949, 0.811974, 0.813906, 0.82197, 0.810804, 0.813406, 0.846387, 0.813287, 0.814504, 0.813951, 0.814156, 0.824372, 0.839338, 0.813482, 0.828759, 0.823067, 0.810025, 0.810109, 0.809578, 0.807533, 0.806883, 0.8077, 0.827848, 0.826155, 0.804706, 0.802318, 0.802565, 0.802947, 0.824995, 0.802522, 0.804469, 0.802912, 0.797208, 0.801509, 0.813148, 0.798854, 0.800091, 0.7975, 0.798575, 0.799481, 0.803411, 0.79832, 0.804107, 0.801733, 0.802041, 0.807402, 0.800687, 0.797501, 0.796961, 0.777176, 0.783429, 0.768352, 0.766149, 0.780428, 0.800181, 0.856172, 0.865215, 0.893123, 0.911902, 0.969586, 1.22711, 1.22919, 1.28747, 1.21456, 1.21534, 1.25676, 1.22904, 0.928954, 0.894653, 0.881607, 0.842089, 0.80667, 0.798321, 0.799527, 0.812361, 0.797466, 0.799618, 0.80066, 0.794625, 0.795774, 0.807579, 0.804086, 0.804624, 0.794899, 0.801302, 0.800198, 0.789678, 0.786599, 0.786514, 0.785732, 0.785187, 0.78474, 0.78328, 0.783763, 0.783818, 0.785817, 0.787451, 0.788224, 0.789104, 0.790533, 0.790984, 0.791172, 0.793758, 0.791407, 0.792238, 0.793935, 0.795795, 0.797585, 0.795657, 0.811154, 0.796843, 0.796782, 0.796965, 0.797221, 0.797429, 0.794765, 0.798164, 0.795947, 0.794015, 0.811696, 0.797137, 0.794392, 0.793411, 0.79371, 0.794192, 0.793794, 0.793336, 0.793551, 0.793253, 0.790569, 0.790405, 0.791618, 0.79215, 0.791732, 0.791106, 0.791224, 0.791494, 0.79216, 0.791426, 0.790917, 0.791014, 0.822415, 0.790295, 0.804019, 0.787997, 0.78719, 0.78684, 0.785785, 0.784816, 0.783751, 0.780711, 0.787866, 0.787277, 0.78431, 0.795505, 0.795149, 0.787674, 0.788821, 0.788273, 0.788675, 0.796821, 0.790926, 0.787378, 0.793532, 0.791331, 0.788422, 0.787502, 0.784864, 0.790148, 0.787962, 0.787619, 0.788514, 0.786991, 0.787136, 0.788712, 0.783203, 0.783322, 0.784888, 0.782872, 0.783434, 0.782753, 0.782273, 0.782558, 0.80323, 0.798936, 0.783314, 0.780956, 0.781469, 0.779782, 0.780223, 0.780971, 0.781791, 0.781185, 0.780996, 0.783914, 0.809577, 0.782861, 0.78014, 0.798905, 0.782119, 0.779062, 0.780577, 0.787381, 0.779347, 0.779688, 0.782234, 0.78049, 0.779497, 0.804676, 0.781526, 0.781448, 0.781364, 0.783759, 0.781222, 0.787427, 0.779557, 0.780722, 0.783724, 0.780377, 0.783624
0.835608, 0.838249, 0.829664, 0.82948, 0.828953, 0.830544, 0.82862, 0.835759, 0.824312, 0.822922, 0.829329, 0.839682, 0.831758, 0.83156, 0.832131, 0.831443, 0.832054, 0.829092, 0.829125, 0.828472, 0.825552, 0.827469, 0.827515, 0.827411, 0.829071, 0.828309, 0.829662, 0.825603, 0.828223, 0.827984, 0.827963, 0.825883, 0.824381, 0.824086, 0.823573, 0.82285, 0.845843, 0.822317, 0.83545, 0.840237, 0.830163, 0.818141, 0.817735, 0.814591, 0.814666, 0.815632, 0.815812, 0.815976, 0.816373, 0.816436, 0.817603, 0.817534, 0.817829, 0.81762, 0.825805, 0.832672, 0.81762, 0.817659, 0.817952, 0.815071, 0.814662, 0.854174, 0.839474, 0.816986, 0.817175, 0.821315, 0.855008, 0.833078, 0.814328, 0.814926, 0.833018, 0.83333, 0.816135, 0.81699, 0.814867, 0.816118, 0.816279, 0.816024, 0.839277, 0.815836, 0.812609, 0.81215, 0.81202, 0.817777, 0.809734, 0.813094, 0.813329, 0.8128, 0.828068, 0.813985, 0.8145, 0.821222, 0.814687, 0.813007, 0.83273, 0.8126, 0.812104, 0.812329, 0.81009, 0.826342, 0.821681, 0.806639, 0.811263, 0.804513, 0.80439, 0.834451, 0.811713, 0.805363, 0.804007, 0.807959, 0.801557, 0.804364, 0.8005, 0.799527, 0.799041, 0.797888, 0.801524, 0.797113, 0.79786, 0.796267, 0.807736, 0.800739, 0.803523, 0.803149, 0.804415, 0.804533, 0.810689, 0.799949, 0.798079, 0.798617, 0.780631, 0.768427, 0.771641, 0.78338, 0.783136, 0.822544, 0.896895, 0.913748, 0.918227, 0.974968, 1.10225, 1.251, 1.26793, 1.26929, 1.27293, 1.25481, 1.01805, 0.923908, 0.900745, 0.914934, 0.872771, 0.85984, 0.799701, 0.806854, 0.801559, 0.79004, 0.79333, 0.794569, 0.791911, 0.797899, 0.799382, 0.801571, 0.805276, 0.796614, 0.793402, 0.800565, 0.788131, 0.793534, 0.790512, 0.787665, 0.788396, 0.785263, 0.784272, 0.782966, 0.782888, 0.786553, 0.788334, 0.788164, 0.788781, 0.788335, 0.791061, 0.808719, 0.791683, 0.795308, 0.792037, 0.794875, 0.795971, 0.797423, 0.794168, 0.796755, 0.794277, 0.797575, 0.799102, 0.795159, 0.79708, 0.798512, 0.791344, 0.802423, 0.792094, 0.792156, 0.793001, 0.792111, 0.792126, 0.81081, 0.79121, 0.791404, 0.79154, 0.79266, 0.791795, 0.79196, 0.791755, 0.792574, 0.790444, 0.793906, 0.791219, 0.790096, 0.809661, 0.788966, 0.789695, 0.787734, 0.787693, 0.786917, 0.788454, 0.787075, 0.805167, 0.796835, 0.788097, 0.787643, 0.78482, 0.784123, 0.780471, 0.787215, 0.780446, 0.787372, 0.786859, 0.786002, 0.789205, 0.7879, 0.790202, 0.791725, 0.788643, 0.788845, 0.790487, 0.78749, 0.789993, 0.787533, 0.786693, 0.799162, 0.780574, 0.787325, 0.785518, 0.785533, 0.785483, 0.785072, 0.783796, 0.783152, 0.782476, 0.788011, 0.781718, 0.781142, 0.781927, 0.783985, 0.781508, 0.782011, 0.781655, 0.781476, 0.780591, 0.781251, 0.781939, 0.781727, 0.780875, 0.780697, 0.782007, 0.780025, 0.779859, 0.779833, 0.780595, 0.780928, 0.781098, 0.780165, 0.781089, 0.781556, 0.781075, 0.780143, 0.779873, 0.780339, 0.779878, 0.782119, 0.780715, 0.780359, 0.779682, 0.783626, 0.784852, 0.781614, 0.799139, 0.7807, 0.77742, 0.781431, 0.780597, 0.783341
0.833524, 0.841877, 0.82814, 0.831355, 0.824608, 0.822701, 0.828562, 0.817469, 0.824754, 0.828285, 0.834616, 0.830688, 0.830882, 0.83338, 0.833582, 0.833345, 0.831817, 0.830105, 0.832499, 0.830061, 0.831906, 0.839002, 0.826718, 0.826593, 0.827343, 0.832857, 0.826196, 0.82629, 0.825269, 0.82863, 0.835472, 0.839721, 0.827283, 0.823747, 0.854104, 0.821754, 0.821096, 0.820789, 0.839051, 0.828562, 0.819063, 0.821761, 0.815488, 0.816134, 0.815849, 0.816276, 0.816453, 0.816575, 0.818214, 0.817697, 0.817831, 0.817538, 0.817456, 0.828591, 0.819089, 0.822697, 0.816542, 0.818274, 0.81784, 0.81656, 0.815497, 0.820719, 0.836257, 0.817389, 0.818162, 0.815514, 0.815413, 0.847124, 0.820674, 0.821161, 0.81625, 0.826185, 0.838649, 0.816478, 0.815652, 0.817421, 0.816081, 0.815225, 0.828467, 0.814996, 0.832878, 0.813654, 0.804175, 0.812775, 0.814014, 0.818229, 0.814177, 0.817037, 0.813216, 0.813393, 0.813376, 0.814755, 0.814254, 0.813851, 0.813937, 0.814028, 0.811232, 0.809218, 0.810954, 0.830326, 0.81065, 0.826417, 0.830952, 0.829694, 0.808137, 0.806874, 0.808422, 0.808216, 0.806138, 0.804717, 0.809388, 0.807644, 0.813552, 0.800421, 0.805131, 0.805734, 0.798051, 0.79602, 0.797247, 0.797333, 0.794045, 0.800744, 0.802922, 0.803824, 0.804338, 0.810502, 0.806597, 0.798322, 0.797796, 0.794818, 0.775795, 0.781204, 0.779736, 0.775331, 0.821909, 0.864768, 0.890257, 0.90788, 0.930973, 0.974621, 1.06576, 1.27698, 1.27438, 1.29529, 1.29569, 1.0111, 0.985221, 0.960644, 0.940384, 0.946187, 0.891456, 0.828328, 0.812588, 0.792195, 0.806528, 0.787238, 0.792683, 0.801135, 0.796185, 0.791946, 0.805991, 0.807461, 0.794447, 0.79515, 0.801495, 0.792082, 0.791395, 0.789646, 0.790963, 0.808964, 0.787065, 0.784872, 0.781324, 0.794591, 0.783291, 0.783526, 0.787722, 0.784118, 0.783349, 0.784356, 0.785754, 0.786925, 0.793402, 0.788197, 0.791921, 0.78895, 0.791998, 0.792049, 0.796709, 0.792136, 0.796832, 0.793445, 0.79714, 0.791506, 0.792722, 0.797157, 0.795193, 0.791007, 0.789191, 0.791313, 0.791186, 0.79162, 0.811345, 0.79069, 0.790426, 0.80049, 0.790377, 0.788922, 0.790461, 0.789758, 0.79111, 0.792893, 0.787965, 0.787386, 0.788277, 0.787132, 0.78711, 0.786823, 0.788201, 0.790323, 0.786509, 0.786405, 0.787294, 0.804282, 0.788885, 0.813333, 0.787984, 0.791481, 0.787422, 0.77444, 0.780887, 0.781095, 0.790186, 0.794587, 0.797702, 0.797752, 0.788932, 0.796682, 0.801497, 0.784557, 0.786577, 0.787412, 0.785612, 0.787511, 0.788925, 0.785506, 0.787556, 0.786098, 0.780679, 0.783795, 0.817186, 0.783957, 0.783016, 0.782273, 0.78238, 0.783077, 0.790776, 0.780928, 0.783876, 0.77927, 0.783082, 0.780852, 0.77994, 0.781852, 0.780819, 0.780351, 0.780137, 0.780855, 0.779319, 0.779121, 0.780296, 0.77949, 0.819834, 0.779541, 0.779369, 0.779711, 0.779255, 0.778926, 0.778802, 0.780294, 0.777479, 0.780412, 0.779709, 0.779627, 0.78024, 0.779049, 0.780543, 0.7804, 0.779108, 0.780167, 0.777344, 0.777795, 0.77721, 0.781685, 0.779982, 0.784641, 0.778928, 0.783109, 0.833101, 0.792109
0.833641, 0.835902, 0.833243, 0.831467, 0.832238, 0.830596, 0.831129, 0.831757, 0.828324, 0.8285, 0.835214, 0.83, 0.830166, 0.830312, 0.830172, 0.836649, 0.830645, 0.828304, 0.827934, 0.829128, 0.828698, 0.826831, 0.828331, 0.826845, 0.832642, 0.831573, 0.830322, 0.826492, 0.826038, 0.827113, 0.826196, 0.824294, 0.823558, 0.822395, 0.822854, 0.822105, 0.821939, 0.822022, 0.820978, 0.820492, 0.823694, 0.84171, 0.83293, 0.831573, 0.830226, 0.816028, 0.839205, 0.838411, 0.873696, 0.83102, 0.832056, 0.816633, 0.815603, 0.815411, 0.815911, 0.816086, 0.816263, 0.816788, 0.815734, 0.815226, 0.815092, 0.814807, 0.815325, 0.815031, 0.815473, 0.81493, 0.826192, 0.817391, 0.816189, 0.816865, 0.828257, 0.82656, 0.817088, 0.814525, 0.813382, 0.815917, 0.815118, 0.816387, 0.814906, 0.836423, 0.830136, 0.832461, 0.814601, 0.812848, 0.812798, 0.812194, 0.813053, 0.813174, 0.812304, 0.815702, 0.817521, 0.814813, 0.828099, 0.809815, 0.809284, 0.81166, 0.811523, 0.821501, 0.809636, 0.808486, 0.809617, 0.808284, 0.809804, 0.809374, 0.807562, 0.807423, 0.837072, 0.806392, 0.807108, 0.804529, 0.81265, 0.802922, 0.804787, 0.802583, 0.798611, 0.7998, 0.794609, 0.795132, 0.792819, 0.793072, 0.803745, 0.800147, 0.804777, 0.805182, 0.807467, 0.80915, 0.807629, 0.806001, 0.805274, 0.795323, 0.793294, 0.800562, 0.779756, 0.780041, 0.794287, 0.863714, 0.911961, 0.939483, 0.974754, 0.992549, 1.00237, 1.00371, 1.3036, 1.31449, 1.34014, 1.03312, 0.985039, 0.995092, 0.961029, 0.949275, 0.836322, 0.807313, 0.783297, 0.783445, 0.78477, 0.801513, 0.799799, 0.796184, 0.797742, 0.797289, 0.797962, 0.796193, 0.7963, 0.793683, 0.794961, 0.791006, 0.792185, 0.790509, 0.785485, 0.784924, 0.79098, 0.788867, 0.787679, 0.789808, 0.791151, 0.786136, 0.787779, 0.784625, 0.784361, 0.784256, 0.784609, 0.792389, 0.788796, 0.798376, 0.78915, 0.797172, 0.794054, 0.791094, 0.791831, 0.792991, 0.79316, 0.793333, 0.792914, 0.79315, 0.792625, 0.792637, 0.792165, 0.796744, 0.797261, 0.789494, 0.790704, 0.787552, 0.789465, 0.790047, 0.824318, 0.790071, 0.787569, 0.787549, 0.786564, 0.787807, 0.787371, 0.788326, 0.809786, 0.789527, 0.7876, 0.785364, 0.786933, 0.786111, 0.78609, 0.786608, 0.786714, 0.786813, 0.786232, 0.786955, 0.789921, 0.784756, 0.785523, 0.787176, 0.783843, 0.782937, 0.788163, 0.789552, 0.782107, 0.784405, 0.793993, 0.782132, 0.787182, 0.785752, 0.785761, 0.784204, 0.786845, 0.787505, 0.790855, 0.784482, 0.784864, 0.784252, 0.784988, 0.780556, 0.792002, 0.782619, 0.783015, 0.782237, 0.78248, 0.790578, 0.780281, 0.777206, 0.778364, 0.783382, 0.780823, 0.775665, 0.779685, 0.778196, 0.779121, 0.781729, 0.777216, 0.778865, 0.777907, 0.77997, 0.779708, 0.780016, 0.779681, 0.778044, 0.777553, 0.778268, 0.781817, 0.777696, 0.779896, 0.78055, 0.778308, 0.780469, 0.777957, 0.778532, 0.779137, 0.779999, 0.779236, 0.78012, 0.777849, 0.778735, 0.779138, 0.778891, 0.780291, 0.778042, 0.777744, 0.779072, 0.80832, 0.782093, 0.79857, 0.79914, 0.803045, 0.799507
0.832503, 0.826691, 0.833205, 0.8318, 0.831184, 0.840606, 0.839919, 0.846426, 0.849355, 0.831256, 0.83049, 0.830738, 0.83001, 0.835292, 0.831294, 0.828485, 0.831465, 0.829233, 0.829353, 0.833586, 0.826393, 0.833887, 0.839669, 0.827985, 0.829672, 0.829416, 0.827949, 0.828919, 0.827288, 0.827326, 0.827557, 0.824843, 0.82582, 0.825241, 0.823337, 0.823105, 0.864415, 0.845829, 0.820265, 0.820886, 0.823146, 0.824645, 0.864103, 0.877544, 0.902575, 0.891372, 0.858416, 0.856975, 0.856739, 0.842166, 0.842193, 0.81948, 0.81858, 0.811202, 0.819165, 0.822205, 0.818182, 0.816567, 0.816839, 0.816281, 0.818278, 0.815831, 0.815976, 0.814701, 0.818063, 0.815719, 0.815918, 0.817196, 0.833044, 0.816149, 0.817635, 0.821899, 0.826032, 0.817704, 0.819457, 0.819124, 0.815553, 0.816582, 0.816264, 0.816997, 0.815571, 0.818578, 0.814229, 0.816663, 0.829571, 0.818901, 0.813, 0.809878, 0.81455, 0.818408, 0.814825, 0.808329, 0.809852, 0.810735, 0.807824, 0.814622, 0.811828, 0.809733, 0.809743, 0.809959, 0.808943, 0.808343, 0.807944, 0.815611, 0.806274, 0.80507, 0.806124, 0.806601, 0.805399, 0.805332, 0.814992, 0.804111, 0.802166, 0.80125, 0.801774, 0.801404, 0.794625, 0.815221, 0.815686, 0.797698, 0.797362, 0.795156, 0.80057, 0.80602, 0.79757, 0.810069, 0.80916, 0.807353, 0.805024, 0.797395, 0.783622, 0.784652, 0.783022, 0.808529, 0.855349, 0.827202, 0.874164, 0.987575, 0.987764, 1.00227, 1.02793, 1.05043, 1.0502, 1.1754, 1.18824, 1.07148, 1.03306, 1.02179, 0.995547, 0.863023, 0.842285, 0.83226, 0.791501, 0.798163, 0.804861, 0.805463, 0.792404, 0.800584, 0.802523, 0.804794, 0.797875, 0.79817, 0.794233, 0.797846, 0.791025, 0.79181, 0.790679, 0.788939, 0.787094, 0.784756, 0.784957, 0.784793, 0.785709, 0.785062, 0.786274, 0.786599, 0.787113, 0.785567, 0.784846, 0.786071, 0.785813, 0.794798, 0.788659, 0.788456, 0.788784, 0.790207, 0.79121, 0.801359, 0.791941, 0.793583, 0.793248, 0.792695, 0.791915, 0.7923, 0.79083, 0.790428, 0.790933, 0.791332, 0.790077, 0.79041, 0.793986, 0.789223, 0.818281, 0.787408, 0.788, 0.795095, 0.787461, 0.78756, 0.786529, 0.785903, 0.786866, 0.786304, 0.784969, 0.801651, 0.787563, 0.782344, 0.784097, 0.78445, 0.787035, 0.807685, 0.795966, 0.791587, 0.783597, 0.783918, 0.785565, 0.783567, 0.783333, 0.78339, 0.781149, 0.781802, 0.803581, 0.783933, 0.784377, 0.787922, 0.790149, 0.784723, 0.786173, 0.784369, 0.787184, 0.795355, 0.785066, 0.787464, 0.780046, 0.797875, 0.781298, 0.783644, 0.783065, 0.782489, 0.783245, 0.781666, 0.81872, 0.778861, 0.787903, 0.782147, 0.77978, 0.775406, 0.777617, 0.789535, 0.80501, 0.78012, 0.77436, 0.775432, 0.774241, 0.774811, 0.776826, 0.778226, 0.780206, 0.776806, 0.774563, 0.787861, 0.775248, 0.798418, 0.77372, 0.775219, 0.773382, 0.777448, 0.777732, 0.777432, 0.779806, 0.781217, 0.778129, 0.779394, 0.779236, 0.778921, 0.778284, 0.778151, 0.778532, 0.778873, 0.785571, 0.777455, 0.777665, 0.778296, 0.778283, 0.778244, 0.778518, 0.791896, 0.783224, 0.79697, 0.784629, 0.802542
0.826156, 0.82562, 0.833457, 0.829413, 0.842831, 0.829433, 0.829567, 0.83052, 0.829683, 0.859985, 0.82909, 0.830096, 0.830201, 0.830289, 0.846722, 0.845637, 0.830548, 0.829388, 0.829082, 0.829503, 0.826143, 0.831788, 0.842065, 0.826573, 0.825728, 0.828164, 0.828453, 0.829135, 0.830086, 0.827297, 0.826539, 0.82517, 0.824765, 0.829219, 0.82362, 0.824461, 0.821417, 0.821568, 0.819653, 0.825712, 0.818866, 0.818512, 0.862544, 0.877917, 0.903353, 0.855, 0.853588, 0.852882, 0.848909, 0.854351, 0.850256, 0.835228, 0.835247, 0.818025, 0.816122, 0.817974, 0.816743, 0.815017, 0.812572, 0.816481, 0.815937, 0.815633, 0.814737, 0.815396, 0.814173, 0.814329, 0.81446, 0.815068, 0.832717, 0.815837, 0.815988, 0.816149, 0.817277, 0.817226, 0.850253, 0.85012, 0.820059, 0.813258, 0.830229, 0.830275, 0.821819, 0.81635, 0.81579, 0.8136, 0.814884, 0.812056, 0.812184, 0.809336, 0.809205, 0.807887, 0.79134, 0.826118, 0.818536, 0.812764, 0.809306, 0.812898, 0.810636, 0.812196, 0.808721, 0.810046, 0.809998, 0.815157, 0.808761, 0.818338, 0.808474, 0.811421, 0.806248, 0.805956, 0.804571, 0.805509, 0.805394, 0.803182, 0.811586, 0.803151, 0.800831, 0.804855, 0.79642, 0.79793, 0.797768, 0.801077, 0.801342, 0.802954, 0.80382, 0.804475, 0.805185, 0.81429, 0.814287, 0.808149, 0.79992, 0.78816, 0.842826, 0.79702, 0.788742, 0.806261, 0.818176, 0.854152, 0.850991, 0.983834, 1.00013, 1.02361, 1.0545, 1.07375, 1.11918, 1.16901, 1.16188, 1.10091, 1.09576, 1.04599, 0.877879, 0.867185, 0.859659, 0.819675, 0.808276, 0.788836, 0.795472, 0.797806, 0.803349, 0.800318, 0.800418, 0.797787, 0.79767, 0.800971, 0.810604, 0.793777, 0.793121, 0.791178, 0.801418, 0.789255, 0.787678, 0.78969, 0.779972, 0.78609, 0.783873, 0.78347, 0.785801, 0.784957, 0.785973, 0.78515, 0.785959, 0.784504, 0.785554, 0.786173, 0.786387, 0.786777, 0.788323, 0.798527, 0.788096, 0.798395, 0.791338, 0.793785, 0.791592, 0.791329, 0.791848, 0.790316, 0.790245, 0.789268, 0.79407, 0.787869, 0.802971, 0.82664, 0.787804, 0.787698, 0.788129, 0.787003, 0.785917, 0.790232, 0.786323, 0.823513, 0.787955, 0.787342, 0.786273, 0.784136, 0.783543, 0.783037, 0.784778, 0.784627, 0.788006, 0.783984, 0.784082, 0.78357, 0.784777, 0.798294, 0.799989, 0.783144, 0.782192, 0.782876, 0.782226, 0.784382, 0.783194, 0.783793, 0.782385, 0.793009, 0.800999, 0.787491, 0.784326, 0.784336, 0.789405, 0.783451, 0.794323, 0.78442, 0.801567, 0.784414, 0.784098, 0.786588, 0.790698, 0.781621, 0.7813, 0.782236, 0.782076, 0.780866, 0.780344, 0.786717, 0.778556, 0.780444, 0.777321, 0.773383, 0.776874, 0.779729, 0.793667, 0.783213, 0.772443, 0.773112, 0.775053, 0.791648, 0.780944, 0.781314, 0.786682, 0.789044, 0.805684, 0.785087, 0.790784, 0.773844, 0.774916, 0.774202, 0.773385, 0.774271, 0.777736, 0.777231, 0.77758, 0.778373, 0.77813, 0.779743, 0.778153, 0.777705, 0.778349, 0.779739, 0.779187, 0.788447, 0.787915, 0.778212, 0.79809, 0.784405, 0.78116, 0.782115, 0.779088, 0.784285, 0.786961, 0.790842, 0.783717, 0.804723
0.829028, 0.828712, 0.827025, 0.826645, 0.827994, 0.828702, 0.838229, 0.838207, 0.830034, 0.832386, 0.830373, 0.830176, 0.839393, 0.829616, 0.838383, 0.829762, 0.829049, 0.828372, 0.828425, 0.828229, 0.827699, 0.829411, 0.827707, 0.828109, 0.827388, 0.827821, 0.829925, 0.825774, 0.826175, 0.825907, 0.856239, 0.847556, 0.824805, 0.84583, 0.838318, 0.822272, 0.821777, 0.818653, 0.819989, 0.833123, 0.831697, 0.846241, 0.83666, 0.876797, 0.887432, 0.856268, 0.853265, 0.848719, 0.850343, 0.856532, 0.850861, 0.852857, 0.856522, 0.86687, 0.817174, 0.816448, 0.838752, 0.814732, 0.814765, 0.81419, 0.814813, 0.81576, 0.815145, 0.839257, 0.8142, 0.814963, 0.814693, 0.814685, 0.814836, 0.816097, 0.815202, 0.814445, 0.814994, 0.815063, 0.816063, 0.815713, 0.81406, 0.815289, 0.816107, 0.815751, 0.815232, 0.817881, 0.836925, 0.81551, 0.815709, 0.818003, 0.815405, 0.814541, 0.813193, 0.808142, 0.810994, 0.811728, 0.815973, 0.814193, 0.811843, 0.813039, 0.81199, 0.802531, 0.812519, 0.811699, 0.813962, 0.816408, 0.821977, 0.821036, 0.821945, 0.808381, 0.81045, 0.807987, 0.824361, 0.814182, 0.804795, 0.804154, 0.803878, 0.802521, 0.798572, 0.808251, 0.801785, 0.802461, 0.799297, 0.798115, 0.797544, 0.800799, 0.80128, 0.804829, 0.809121, 0.809339, 0.812349, 0.803257, 0.805588, 0.804153, 0.804241, 0.78008, 0.781321, 0.773328, 0.798124, 0.83259, 0.839145, 0.898726, 1.02843, 1.03278, 1.12877, 1.1225, 1.1946, 1.22044, 1.20963, 1.22711, 1.12772, 1.08773, 0.887916, 0.880357, 0.863267, 0.823474, 0.791827, 0.790748, 0.789731, 0.808537, 0.797063, 0.810602, 0.801857, 0.804797, 0.800943, 0.819535, 0.794726, 0.79541, 0.792333, 0.790993, 0.782303, 0.787138, 0.790196, 0.783607, 0.786763, 0.785827, 0.788128, 0.789843, 0.802715, 0.802912, 0.787184, 0.78546, 0.786108, 0.786011, 0.783772, 0.782014, 0.787682, 0.786472, 0.784234, 0.787648, 0.787562, 0.789966, 0.790883, 0.790779, 0.789885, 0.791496, 0.808034, 0.789907, 0.789761, 0.78801, 0.787194, 0.784945, 0.791514, 0.789738, 0.786669, 0.78668, 0.786277, 0.786074, 0.786536, 0.788325, 0.78671, 0.835207, 0.787024, 0.78516, 0.785238, 0.785074, 0.78451, 0.783902, 0.79057, 0.782925, 0.781896, 0.780936, 0.78132, 0.781425, 0.782132, 0.815149, 0.781356, 0.782111, 0.781111, 0.781294, 0.777932, 0.790704, 0.781026, 0.782608, 0.782458, 0.782475, 0.784, 0.790711, 0.779934, 0.791564, 0.798396, 0.792103, 0.799099, 0.816468, 0.797507, 0.795723, 0.780477, 0.78017, 0.777725, 0.778276, 0.782042, 0.781103, 0.780042, 0.779507, 0.806489, 0.777117, 0.776616, 0.777014, 0.776527, 0.790593, 0.774407, 0.776374, 0.779574, 0.778914, 0.773341, 0.776154, 0.771065, 0.77141, 0.77776, 0.780038, 0.783727, 0.804747, 0.793935, 0.778982, 0.773382, 0.773687, 0.772033, 0.772004, 0.772975, 0.775415, 0.774199, 0.788127, 0.775589, 0.776208, 0.7767, 0.77769, 0.778968, 0.779844, 0.779021, 0.779384, 0.77835, 0.777612, 0.802406, 0.780143, 0.77873, 0.779055, 0.780091, 0.778441, 0.780946, 0.78047, 0.779215, 0.779737, 0.792253, 0.781388
0.836066, 0.835478, 0.829825, 0.839431, 0.827115, 0.82926, 0.828969, 0.83045, 0.83981, 0.828028, 0.845027, 0.829995, 0.83516, 0.829292, 0.838774, 0.827545, 0.824453, 0.830166, 0.845633, 0.830043, 0.841702, 0.827853, 0.827085, 0.825813, 0.827978, 0.826384, 0.825522, 0.825328, 0.825506, 0.826421, 0.824253, 0.822824, 0.822864, 0.827725, 0.823227, 0.821518, 0.821456, 0.821095, 0.819413, 0.826718, 0.832113, 0.82837, 0.831719, 0.841464, 0.841035, 0.840222, 0.841158, 0.847285, 0.847788, 0.850513, 0.851785, 0.850655, 0.849631, 0.826447, 0.819486, 0.826159, 0.827761, 0.81354, 0.842604, 0.849082, 0.822296, 0.812567, 0.813236, 0.812619, 0.834407, 0.815365, 0.815372, 0.818163, 0.812741, 0.813493, 0.815865, 0.813886, 0.821976, 0.821541, 0.821529, 0.816312, 0.813519, 0.824568, 0.815997, 0.818983, 0.818624, 0.816546, 0.815901, 0.817379, 0.815508, 0.828428, 0.814584, 0.814771, 0.812334, 0.818416, 0.829513, 0.816238, 0.814616, 0.809594, 0.812365, 0.832473, 0.812355, 0.812366, 0.826248, 0.822606, 0.821226, 0.824685, 0.806345, 0.807844, 0.801223, 0.814386, 0.808019, 0.808212, 0.810715, 0.808714, 0.805165, 0.802824, 0.802749, 0.798929, 0.798824, 0.805501, 0.798388, 0.801528, 0.804827, 0.803449, 0.803029, 0.804572, 0.810505, 0.808718, 0.810722, 0.812585, 0.81138, 0.811487, 0.809594, 0.795934, 0.788195, 0.784719, 0.77017, 0.781727, 0.793871, 0.853577, 0.876884, 0.862753, 0.892554, 1.14644, 1.15849, 1.17752, 1.20656, 1.1931, 1.24257, 1.24317, 1.24967, 0.910891, 0.901628, 0.870079, 0.835216, 0.806597, 0.806062, 0.808896, 0.801279, 0.785676, 0.78877, 0.800299, 0.800302, 0.797963, 0.796929, 0.802159, 0.79444, 0.792934, 0.791206, 0.790968, 0.802196, 0.790704, 0.783911, 0.782554, 0.785847, 0.811858, 0.805094, 0.872023, 0.880023, 0.907734, 0.8944, 0.790951, 0.786811, 0.796982, 0.78314, 0.792035, 0.786673, 0.785948, 0.786737, 0.789889, 0.78657, 0.790065, 0.788777, 0.789798, 0.791088, 0.804897, 0.788911, 0.789832, 0.789871, 0.790281, 0.796958, 0.787009, 0.790462, 0.797385, 0.787478, 0.785054, 0.786779, 0.787501, 0.787473, 0.789025, 0.793749, 0.786582, 0.787364, 0.786279, 0.786341, 0.786525, 0.783474, 0.782153, 0.781598, 0.781777, 0.78107, 0.781537, 0.804489, 0.782117, 0.780446, 0.796817, 0.780841, 0.797698, 0.777827, 0.778754, 0.782359, 0.810992, 0.791919, 0.799602, 0.801027, 0.795018, 0.806344, 0.804962, 0.80118, 0.792579, 0.782536, 0.780777, 0.801197, 0.782222, 0.781794, 0.781797, 0.779973, 0.779869, 0.780577, 0.781358, 0.77985, 0.779929, 0.777613, 0.777774, 0.776581, 0.776005, 0.776595, 0.775158, 0.774181, 0.773714, 0.804991, 0.79113, 0.783309, 0.779305, 0.774843, 0.77258, 0.770296, 0.770997, 0.77388, 0.774896, 0.770985, 0.781266, 0.77894, 0.782982, 0.774405, 0.772488, 0.771805, 0.773613, 0.772535, 0.772789, 0.773163, 0.800207, 0.776005, 0.775614, 0.777146, 0.777464, 0.791581, 0.777477, 0.779487, 0.778817, 0.780913, 0.778219, 0.783233, 0.778099, 0.777834, 0.786676, 0.793578, 0.78391, 0.778332, 0.776853, 0.777518, 0.791684, 0.779126, 0.781285
0.835867, 0.827465, 0.828873, 0.825904, 0.827555, 0.839831, 0.826624, 0.827181, 0.829984, 0.828976, 0.828679, 0.836549, 0.827953, 0.826926, 0.8262, 0.825608, 0.825865, 0.829566, 0.829031, 0.82815, 0.828123, 0.826214, 0.825615, 0.825165, 0.824696, 0.825405, 0.824519, 0.824162, 0.823619, 0.824291, 0.829724, 0.829004, 0.822203, 0.821524, 0.821022, 0.82179, 0.819019, 0.828174, 0.817354, 0.817302, 0.811735, 0.825345, 0.813524, 0.813889, 0.810091, 0.839264, 0.838972, 0.85909, 0.846328, 0.849617, 0.855828, 0.832514, 0.826726, 0.812559, 0.826796, 0.826818, 0.813742, 0.812447, 0.813332, 0.812191, 0.812163, 0.812873, 0.812507, 0.822216, 0.823537, 0.858316, 0.815817, 0.845841, 0.842446, 0.810566, 0.810961, 0.811219, 0.81344, 0.812202, 0.818934, 0.81786, 0.815046, 0.81309, 0.811347, 0.811963, 0.814331, 0.817004, 0.816797, 0.818388, 0.815645, 0.815483, 0.816633, 0.815103, 0.814905, 0.822163, 0.81503, 0.815318, 0.813837, 0.811983, 0.816042, 0.801219, 0.815975, 0.813223, 0.813929, 0.812018, 0.821591, 0.8245, 0.815538, 0.807523, 0.807775, 0.809067, 0.810749, 0.805519, 0.803774, 0.808557, 0.802521, 0.815764, 0.804121, 0.81067, 0.806969, 0.80867, 0.801922, 0.800706, 0.809996, 0.802383, 0.811989, 0.806045, 0.808451, 0.805075, 0.826798, 0.811966, 0.81971, 0.813683, 0.815895, 0.803045, 0.802029, 0.77075, 0.77157, 0.781113, 0.792165, 0.816992, 0.889679, 0.920008, 0.932317, 0.951724, 1.19558, 1.19435, 1.12245, 1.11817, 1.06698, 1.23473, 0.915964, 0.90584, 0.873731, 0.839515, 0.819771, 0.828482, 0.832667, 0.791104, 0.778623, 0.779195, 0.793025, 0.796401, 0.797729, 0.795841, 0.795653, 0.796202, 0.794714, 0.79409, 0.789869, 0.793685, 0.793805, 0.79489, 0.789071, 0.792477, 0.78804, 0.789742, 0.788336, 0.896271, 0.898503, 0.895357, 0.892175, 0.892648, 0.787791, 0.787435, 0.794531, 0.791612, 0.788883, 0.788627, 0.786796, 0.787972, 0.787727, 0.788223, 0.79141, 0.804967, 0.789821, 0.789444, 0.788276, 0.815964, 0.788209, 0.789253, 0.789393, 0.789298, 0.818471, 0.787134, 0.788665, 0.786156, 0.785781, 0.787942, 0.789167, 0.78608, 0.788271, 0.785005, 0.784457, 0.783173, 0.783726, 0.783086, 0.810446, 0.783928, 0.779762, 0.780524, 0.792421, 0.780743, 0.781969, 0.780974, 0.780352, 0.797132, 0.779592, 0.778006, 0.784463, 0.782987, 0.780363, 0.781356, 0.800773, 0.792664, 0.809253, 0.822659, 0.823643, 0.850449, 0.811046, 0.797992, 0.797392, 0.780363, 0.780406, 0.781132, 0.781826, 0.782048, 0.780388, 0.779886, 0.79094, 0.783503, 0.780373, 0.78022, 0.778773, 0.778731, 0.795651, 0.787617, 0.774542, 0.774614, 0.774913, 0.774232, 0.774179, 0.775448, 0.780824, 0.769132, 0.769419, 0.770389, 0.77017, 0.768131, 0.768493, 0.778387, 0.777563, 0.771363, 0.773354, 0.772764, 0.773855, 0.774258, 0.775015, 0.799375, 0.774787, 0.774428, 0.773714, 0.77366, 0.787713, 0.802676, 0.776578, 0.773138, 0.775799, 0.775711, 0.775726, 0.776701, 0.779622, 0.780513, 0.781213, 0.775522, 0.788372, 0.779755, 0.780051, 0.797247, 0.781423, 0.790072, 0.787241, 0.776704, 0.782794, 0.781096
0.825727, 0.829755, 0.823642, 0.831706, 0.826206, 0.826298, 0.828302, 0.82812, 0.827782, 0.828357, 0.825584, 0.826092, 0.843975, 0.846414, 0.824911, 0.826185, 0.83103, 0.835763, 0.83417, 0.838841, 1.08349, 1.11403, 1.088, 0.875811, 0.870179, 0.824108, 0.824839, 0.82547, 0.825795, 0.822252, 0.820751, 0.823119, 0.791449, 0.781223, 0.79151, 0.845681, 0.820883, 0.815744, 0.815206, 0.814015, 0.821552, 0.812677, 0.813372, 0.835955, 0.814074, 0.808376, 0.844621, 0.846268, 0.845645, 0.87076, 0.863874, 0.854061, 0.812632, 0.813584, 0.81709, 0.815744, 0.814253, 0.83319, 0.836716, 0.813358, 0.815425, 0.815186, 0.846899, 0.819918, 0.82926, 0.814264, 0.818792, 0.817026, 0.812008, 0.813878, 0.811243, 0.812487, 0.811412, 0.810996, 0.811812, 0.814814, 0.815043, 0.822807, 0.811628, 0.816206, 0.813408, 0.812813, 0.819044, 0.825917, 0.812233, 0.81356, 0.812756, 0.821975, 0.813985, 0.813309, 0.81355, 0.816109, 0.815751, 0.813821, 0.81751, 0.787439, 0.795604, 0.812791, 0.812, 0.811587, 0.833153, 0.811465, 0.813744, 0.809568, 0.809194, 0.813475, 0.821924, 0.81191, 0.798908, 0.809391, 0.801477, 0.800541, 0.801208, 0.811205, 0.814842, 0.809885, 0.801333, 0.801442, 0.811742, 0.80478, 0.804703, 0.806063, 0.812202, 0.811933, 0.81199, 0.824956, 0.814366, 0.813136, 0.819314, 0.801837, 0.802679, 0.784668, 0.78187, 0.784236, 0.804707, 0.861899, 0.915007, 0.907809, 0.944575, 0.957238, 1.00518, 1.20891, 1.08532, 1.0453, 1.05737, 0.962701, 0.949672, 0.923689, 0.885793, 0.877547, 0.849167, 0.824046, 0.836363, 0.7812, 0.787894, 0.783533, 0.800545, 0.799848, 0.80132, 0.79761, 0.798206, 0.794649, 0.795446, 0.796174, 0.798488, 0.791452, 0.791381, 0.788502, 0.788147, 0.788623, 0.809176, 0.787751, 0.78928, 0.790327, 0.802157, 0.798119, 0.787923, 0.78856, 0.788657, 0.787771, 0.789511, 0.789852, 0.787936, 0.786136, 0.789518, 0.78716, 0.788452, 0.789453, 0.78799, 0.789565, 0.786855, 0.784087, 0.78609, 0.790058, 0.806012, 0.790779, 0.815072, 0.815763, 0.818981, 0.78717, 0.787416, 0.78814, 0.785286, 0.785485, 0.782471, 0.783641, 0.784845, 0.783474, 0.782282, 0.781846, 0.783043, 0.79349, 0.783926, 0.784296, 0.78364, 0.78434, 0.783682, 0.783296, 0.782734, 0.780266, 0.780618, 0.778901, 0.786503, 0.783945, 0.780946, 0.783098, 0.795018, 0.811091, 0.805364, 0.780948, 0.787687, 0.804479, 0.796526, 0.787702, 0.791574, 0.805159, 0.808869, 0.782764, 0.780635, 0.780288, 0.780716, 0.780739, 0.781193, 0.780765, 0.779754, 0.778119, 0.777496, 0.777623, 0.77646, 0.776412, 0.775403, 0.774704, 0.774983, 0.776246, 0.771906, 0.771973, 0.774654, 0.774507, 0.770286, 0.773244, 0.768833, 0.769982, 0.772267, 0.769833, 0.770808, 0.769541, 0.770065, 0.767238, 0.770409, 0.770997, 0.767796, 0.775969, 0.772555, 0.773382, 0.774489, 0.774722, 0.774711, 0.822378, 0.774464, 0.772716, 0.779892, 0.784082, 0.777755, 0.774469, 0.774981, 0.777245, 0.777893, 0.776898, 0.778477, 0.787974, 0.777212, 0.77856, 0.790979, 0.796491, 0.800939, 0.77761, 0.779902, 0.794934, 0.788633, 0.788474
0.824779, 0.83593, 0.829808, 0.823217, 0.842947, 0.826556, 0.831586, 0.830013, 0.827196, 0.83247, 0.826873, 0.82847, 0.827493, 0.829573, 0.826775, 0.826226, 0.829086, 0.832104, 1.07625, 1.07926, 1.08569, 1.11923, 1.08836, 0.907821, 0.876676, 0.835776, 0.836349, 0.822001, 0.82424, 0.793692, 0.828592, 0.82366, 0.822328, 0.787826, 0.784068, 0.836246, 0.832496, 0.817028, 0.815718, 0.821488, 0.835309, 0.825189, 0.819716, 0.809347, 0.811992, 0.82975, 0.830375, 0.834733, 0.831273, 0.826062, 0.813197, 0.812132, 0.812967, 0.815248, 0.81283, 0.816762, 0.811991, 0.82876, 0.812427, 0.812594, 0.811388, 0.812504, 0.823475, 0.851061, 0.814857, 0.813785, 0.814238, 0.813929, 0.825053, 0.815193, 0.812091, 0.810698, 0.810262, 0.809055, 0.810897, 0.819593, 0.811609, 0.811442, 0.815062, 0.812376, 0.813209, 0.822705, 0.811649, 0.810385, 0.814933, 0.810536, 0.811324, 0.814811, 0.814872, 0.810155, 0.81775, 0.817772, 0.816419, 0.817996, 0.817266, 0.814599, 0.814567, 0.815088, 0.814647, 0.81832, 0.811593, 0.812614, 0.812132, 0.813417, 0.80902, 0.806117, 0.80384, 0.803101, 0.806675, 0.800261, 0.800978, 0.801781, 0.801766, 0.801862, 0.804693, 0.810923, 0.805007, 0.807045, 0.806992, 0.805602, 0.811461, 0.807065, 0.809413, 0.809218, 0.810624, 0.81916, 0.814701, 0.822738, 0.814732, 0.804455, 0.794593, 0.793168, 0.798728, 0.811921, 0.839382, 0.875549, 0.900228, 0.947795, 0.988266, 0.978145, 1.01417, 1.12531, 1.11896, 1.07164, 1.05976, 0.998107, 0.959225, 0.942077, 0.936106, 0.863889, 0.849949, 0.811633, 0.832646, 0.777827, 0.786702, 0.79369, 0.795511, 0.796621, 0.804858, 0.798125, 0.800603, 0.797998, 0.793754, 0.80167, 0.795146, 0.794457, 0.792772, 0.790272, 0.791087, 0.787667, 0.787719, 0.789815, 0.796851, 0.785663, 0.79822, 0.788378, 0.788378, 0.78992, 0.794135, 0.794148, 0.78919, 0.79005, 0.789945, 0.790537, 0.790094, 0.790126, 0.772038, 0.783273, 0.792183, 0.788052, 0.788198, 0.786935, 0.783848, 0.784074, 0.784689, 0.78796, 0.804307, 0.806083, 0.873901, 0.866369, 0.782757, 0.782157, 0.786914, 0.784123, 0.784494, 0.784342, 0.793825, 0.787628, 0.789344, 0.783725, 0.78568, 0.784807, 0.785395, 0.786121, 0.787092, 0.784768, 0.784775, 0.787841, 0.804511, 0.786589, 0.797617, 0.786962, 0.788191, 0.785706, 0.780095, 0.797635, 0.814863, 0.797394, 0.77988, 0.797005, 0.78836, 0.794475, 0.800816, 0.809055, 0.803907, 0.79347, 0.799133, 0.809972, 0.780785, 0.805499, 0.813117, 0.779735, 0.779784, 0.778394, 0.779309, 0.778431, 0.778372, 0.778107, 0.776907, 0.775811, 0.773679, 0.775544, 0.777168, 0.773992, 0.774432, 0.778711, 0.780335, 0.769961, 0.770273, 0.770691, 0.771187, 0.773925, 0.769939, 0.773905, 0.767691, 0.780612, 0.767853, 0.768244, 0.766677, 0.769469, 0.772532, 0.76622, 0.776238, 0.772159, 0.775606, 0.77565, 0.775945, 0.774503, 0.775788, 0.771178, 0.776303, 0.774071, 0.780111, 0.776856, 0.776935, 0.776385, 0.787603, 0.777616, 0.777472, 0.776657, 0.778135, 0.778895, 0.779369, 0.780767, 0.776746, 0.781258, 0.773607, 0.775671, 0.778108, 0.785002
0.830975, 0.825533, 0.826761, 0.827129, 0.832341, 0.824814, 0.828934, 0.83158, 0.828159, 0.82728, 0.827567, 0.827101, 0.826098, 0.846514, 0.828107, 0.826552, 0.826869, 0.852022, 1.0734, 1.08471, 1.08741, 1.08381, 1.10357, 1.10246, 1.0921, 1.08501, 0.83198, 0.821178, 0.803891, 0.803588, 0.824458, 0.820955, 0.820448, 0.82096, 0.836334, 0.81997, 0.818888, 0.817694, 0.81962, 0.821485, 0.81548, 0.814065, 0.814359, 0.812138, 0.813497, 0.814162, 0.814273, 0.814987, 0.835812, 0.815297, 0.81394, 0.811614, 0.811011, 0.82974, 0.836061, 0.843288, 0.812163, 0.811696, 0.811969, 0.810928, 0.813367, 0.814634, 0.813417, 0.822298, 0.841472, 0.827104, 0.814218, 0.831863, 0.812967, 0.815316, 0.816026, 0.814688, 0.802315, 0.807432, 0.81469, 0.815026, 0.825976, 0.817349, 0.812158, 0.825023, 0.819057, 0.824212, 0.812445, 0.813724, 0.807683, 0.808423, 0.798035, 0.798621, 0.805828, 0.811532, 0.812437, 0.81501, 0.79831, 0.818218, 0.812833, 0.824038, 0.814824, 0.814677, 0.826602, 0.815789, 0.811254, 0.815421, 0.808675, 0.805369, 0.808251, 0.811265, 0.825081, 0.812522, 0.810296, 0.809845, 0.798564, 0.803317, 0.814059, 0.804794, 0.805285, 0.811629, 0.809547, 0.80802, 0.814242, 0.805359, 0.81149, 0.80862, 0.809175, 0.816019, 0.811203, 0.813033, 0.812697, 0.841877, 0.833746, 0.816349, 0.795784, 0.792279, 0.809362, 0.804316, 0.852235, 0.891473, 0.898315, 0.962368, 1.00295, 1.01861, 1.04482, 1.04336, 1.13313, 1.13586, 1.13546, 1.04607, 0.99861, 0.953627, 0.884016, 0.841781, 0.840033, 0.829126, 0.798162, 0.784443, 0.781944, 0.782846, 0.795388, 0.797373, 0.798149, 0.799493, 0.795289, 0.797775, 0.796999, 0.795757, 0.795695, 0.794013, 0.80131, 0.804381, 0.790843, 0.790677, 0.791413, 0.798117, 0.787308, 0.789849, 0.790127, 0.791734, 0.809079, 0.788438, 0.789812, 0.789312, 0.790369, 0.791065, 0.789951, 0.789979, 0.784337, 0.782355, 0.784082, 0.787196, 0.780859, 0.790157, 0.788104, 0.786976, 0.785379, 0.786007, 0.78919, 0.787215, 0.794441, 0.799424, 0.878226, 0.869864, 0.891426, 0.799569, 0.798672, 0.785018, 0.784432, 0.786254, 0.783872, 0.78608, 0.787161, 0.787671, 0.786776, 0.788036, 0.787615, 0.787519, 0.785758, 0.776083, 0.785491, 0.786288, 0.783869, 0.786231, 0.784485, 0.784661, 0.784008, 0.78319, 0.781512, 0.78189, 0.781312, 0.781815, 0.78126, 0.781752, 0.781385, 0.78083, 0.780869, 0.804221, 0.792327, 0.793775, 0.821075, 0.779894, 0.77897, 0.778967, 0.778999, 0.778123, 0.778697, 0.777636, 0.778428, 0.778429, 0.776528, 0.77688, 0.802936, 0.794065, 0.776241, 0.776246, 0.775184, 0.777548, 0.776677, 0.774521, 0.776607, 0.773703, 0.773058, 0.781018, 0.774767, 0.773701, 0.773267, 0.773725, 0.7719, 0.775673, 0.774933, 0.773153, 0.77486, 0.769261, 0.773975, 0.773487, 0.77172, 0.783464, 0.777511, 0.775051, 0.774928, 0.777009, 0.777096, 0.775096, 0.773505, 0.775385, 0.777752, 0.781394, 0.780932, 0.779195, 0.777715, 0.77873, 0.779502, 0.779856, 0.791385, 0.780273, 0.781589, 0.7765, 0.772946, 0.776304, 0.777277, 0.783384, 0.777608, 0.808188
0.826792, 0.846652, 0.832424, 0.830381, 0.829141, 0.829756, 0.826416, 0.835762, 0.831455, 0.864269, 0.826811, 0.825339, 0.823862, 0.82426, 0.822525, 0.822721, 0.82536, 0.82482, 0.860636, 0.839186, 1.10439, 1.11226, 1.09466, 0.84008, 0.845797, 0.82471, 0.823389, 0.822274, 0.825695, 0.831905, 0.822327, 0.816644, 0.819211, 0.822857, 0.820563, 0.822271, 0.822451, 0.821061, 0.820087, 0.818361, 0.815174, 0.815636, 0.814641, 0.825429, 0.815912, 0.816702, 0.832637, 0.833747, 0.814529, 0.82165, 0.819224, 0.813253, 0.813998, 0.814284, 0.81481, 0.814818, 0.816569, 0.824673, 0.812164, 0.811917, 0.811756, 0.813386, 0.812753, 0.818516, 0.815998, 0.814761, 0.81387, 0.826251, 0.812545, 0.814007, 0.810531, 0.809849, 0.811514, 0.812582, 0.815584, 0.816126, 0.81445, 0.814908, 0.818045, 0.930291, 0.821299, 0.824732, 0.819622, 0.816381, 0.813211, 0.815609, 0.791475, 0.798639, 0.809807, 0.810728, 0.814263, 0.815188, 0.815733, 0.815349, 0.81593, 0.814968, 0.815223, 0.817818, 0.812278, 0.812926, 0.811529, 0.808839, 0.806133, 0.807687, 0.806508, 0.816052, 0.806065, 0.8072, 0.80216, 0.80295, 0.808902, 0.809119, 0.805191, 0.807374, 0.809859, 0.8048, 0.81171, 0.80815, 0.811404, 0.808223, 0.80871, 0.813842, 0.811172, 0.80948, 0.811687, 0.818415, 0.811342, 0.810808, 0.807101, 0.774081, 0.774584, 0.743374, 0.745326, 0.765954, 0.836215, 0.925313, 0.922657, 0.963333, 0.963361, 1.04618, 1.06227, 1.11021, 1.12821, 1.15827, 1.16877, 1.15348, 1.04987, 0.921504, 0.883856, 0.838974, 0.822758, 0.807954, 0.778605, 0.779441, 0.779487, 0.79359, 0.796221, 0.796939, 0.799125, 0.799276, 0.798017, 0.796082, 0.807517, 0.796841, 0.790158, 0.801649, 0.793788, 0.79408, 0.795997, 0.796525, 0.80238, 0.791705, 0.793562, 0.793997, 0.794192, 0.789832, 0.787816, 0.788943, 0.790255, 0.793772, 0.791632, 0.791066, 0.789965, 0.792368, 0.792636, 0.805291, 0.791758, 0.792168, 0.789251, 0.792292, 0.787913, 0.788511, 0.790503, 0.812845, 0.791076, 0.789998, 0.811456, 0.793458, 0.788726, 0.794573, 0.788195, 0.786693, 0.787432, 0.787908, 0.786746, 0.793952, 0.793784, 0.78746, 0.787202, 0.787629, 0.787422, 0.78818, 0.786894, 0.804083, 0.801096, 0.792042, 0.79179, 0.785276, 0.784103, 0.784389, 0.804821, 0.78373, 0.784336, 0.7843, 0.784129, 0.78368, 0.783718, 0.783992, 0.791158, 0.783158, 0.78302, 0.782111, 0.781889, 0.78205, 0.782835, 0.782732, 0.782073, 0.781932, 0.781546, 0.782179, 0.805361, 0.781002, 0.780714, 0.779593, 0.779656, 0.779371, 0.776941, 0.778158, 0.77815, 0.777225, 0.802995, 0.787794, 0.801905, 0.801548, 0.777311, 0.777408, 0.787421, 0.786633, 0.781174, 0.779391, 0.777434, 0.774775, 0.774212, 0.782012, 0.783836, 0.777009, 0.773595, 0.779453, 0.770704, 0.772141, 0.772539, 0.77089, 0.780483, 0.784008, 0.775004, 0.778023, 0.778414, 0.786258, 0.777898, 0.778702, 0.78012, 0.777939, 0.778334, 0.778927, 0.780794, 0.779561, 0.780217, 0.780235, 0.780147, 0.780763, 0.779568, 0.781257, 0.778497, 0.787228, 0.77987, 0.779292, 0.779746, 0.791447, 0.793654, 0.834723
0.825778, 0.8279, 0.827158, 0.82548, 0.833201, 0.825263, 0.824591, 0.82484, 0.828465, 0.825375, 0.826096, 0.824801, 0.825653, 0.825483, 0.825193, 0.828155, 0.826199, 0.828071, 0.824018, 0.825839, 0.829711, 0.839443, 0.828437, 0.857154, 0.82429, 0.821735, 0.82006, 0.846581, 0.820507, 0.820087, 0.820623, 0.820254, 0.820421, 0.825173, 0.822205, 0.821394, 0.821807, 0.825101, 0.821648, 0.815831, 0.815377, 0.817742, 0.818671, 0.819076, 0.814942, 0.814058, 0.815802, 0.813765, 0.812372, 0.813893, 0.814184, 0.814285, 0.814403, 0.815155, 0.815266, 0.81446, 0.816117, 0.812417, 0.821692, 0.809548, 0.811287, 0.81499, 0.814071, 0.81335, 0.814417, 0.81372, 0.813963, 0.811916, 0.813523, 0.812133, 0.81046, 0.812432, 0.815699, 0.816789, 0.81535, 0.812999, 0.813072, 0.814383, 0.826324, 0.928862, 0.930605, 0.934838, 0.93738, 0.813114, 0.81421, 0.808812, 0.814885, 0.812351, 0.814906, 0.815827, 0.814715, 0.813983, 0.815283, 0.811493, 0.813592, 0.814272, 0.813868, 0.8227, 0.810604, 0.82501, 0.827855, 0.808285, 0.806093, 0.805242, 0.807578, 0.808699, 0.809371, 0.815316, 0.807051, 0.815207, 0.807376, 0.801871, 0.804518, 0.807588, 0.810922, 0.807925, 0.804871, 0.802671, 0.804596, 0.806271, 0.811102, 0.809698, 0.811164, 0.812504, 0.828374, 0.808119, 0.816027, 0.80854, 0.797043, 0.76769, 0.767008, 0.766844, 0.760737, 0.784766, 0.873018, 0.873344, 0.87766, 0.906469, 0.929743, 0.930373, 1.14591, 1.16051, 1.18132, 1.29118, 1.30233, 1.17982, 1.12726, 0.953731, 0.902119, 0.86456, 0.799353, 0.808484, 0.777538, 0.792715, 0.785293, 0.785619, 0.800066, 0.802165, 0.800662, 0.799916, 0.794257, 0.795683, 0.79556, 0.805589, 0.795552, 0.79666, 0.792498, 0.794451, 0.792107, 0.794244, 0.801898, 0.792806, 0.791853, 0.790377, 0.7884, 0.788558, 0.793054, 0.790863, 0.791707, 0.792168, 0.791589, 0.805527, 0.833196, 0.79209, 0.793183, 0.798169, 0.791357, 0.797626, 0.792138, 0.790774, 0.795329, 0.791033, 0.789008, 0.835755, 0.790237, 0.793037, 0.793771, 0.790604, 0.790278, 0.788147, 0.788953, 0.788201, 0.788998, 0.791338, 0.789093, 0.790031, 0.789349, 0.788407, 0.789706, 0.790382, 0.790822, 0.790625, 0.831855, 0.800154, 0.802731, 0.80165, 0.80143, 0.791843, 0.964166, 0.969348, 0.979641, 0.812472, 0.809547, 0.784873, 0.784655, 0.791121, 0.8009, 0.78553, 0.785172, 0.784111, 0.784423, 0.783995, 0.782432, 0.78377, 0.783603, 0.783797, 0.794398, 0.785228, 0.783283, 0.783422, 0.783389, 0.807481, 0.804824, 0.799834, 0.781022, 0.780799, 0.780913, 0.801022, 0.779914, 0.780012, 0.779777, 0.780342, 0.782374, 0.798621, 0.780437, 0.779822, 0.779635, 0.780255, 0.778177, 0.779378, 0.775293, 0.783851, 0.777162, 0.780626, 0.773599, 0.776531, 0.784702, 0.776895, 0.77919, 0.779436, 0.777271, 0.778143, 0.778139, 0.781197, 0.790665, 0.781406, 0.781207, 0.781085, 0.782021, 0.781385, 0.777393, 0.781599, 0.780132, 0.781153, 0.78156, 0.780207, 0.78153, 0.794301, 0.778988, 0.7838, 0.779648, 0.777491, 0.779042, 0.779229, 0.778865, 0.789069, 0.782254, 0.782891, 0.780526, 0.810439
0.826595, 0.816093, 0.829079, 0.827851, 0.826949, 0.823935, 0.836431, 0.830637, 0.829522, 0.829207, 0.826153, 0.828391, 0.835454, 0.845888, 0.831213, 0.829626, 0.835426, 0.829721, 0.818761, 0.822501, 0.821696, 0.82173, 0.821507, 0.819883, 0.819327, 0.839494, 0.822752, 0.819392, 0.824759, 0.825069, 0.823128, 0.822492, 0.822574, 0.821989, 0.822151, 0.821251, 0.82202, 0.82159, 0.828566, 0.825947, 0.832655, 0.819027, 0.827674, 0.818315, 0.818016, 0.832789, 0.818862, 0.818581, 0.816445, 0.818544, 0.818339, 0.816842, 0.815541, 0.818075, 0.820853, 0.822019, 0.814722, 0.800491, 0.807037, 0.806559, 0.816576, 0.816683, 0.836292, 0.814785, 0.816585, 0.843479, 0.813828, 0.814309, 0.813747, 0.813758, 0.811929, 0.815312, 0.810164, 0.814976, 0.814322, 0.812759, 0.821778, 0.818387, 0.817537, 0.813545, 0.825433, 0.822918, 0.820316, 0.812141, 0.822028, 0.814254, 0.810353, 0.811302, 0.816916, 0.817531, 0.813161, 0.813935, 0.815594, 0.814595, 0.814192, 0.813653, 0.812279, 0.811708, 0.812758, 0.811855, 0.811286, 0.809139, 0.806616, 0.805649, 0.804666, 0.808361, 0.807144, 0.805122, 0.811142, 0.801223, 0.808306, 0.807735, 0.805878, 0.808289, 0.811643, 0.811519, 0.812213, 0.822044, 0.814905, 0.816003, 0.817102, 0.813815, 0.813359, 0.809893, 0.817973, 0.802176, 0.801751, 0.807671, 0.804581, 0.791236, 0.801429, 0.751259, 0.764059, 0.756354, 0.759339, 0.822163, 0.817964, 0.828042, 0.854748, 0.871824, 0.869694, 1.20692, 1.20922, 1.22713, 1.28912, 1.23216, 0.979014, 0.960229, 0.894911, 0.860219, 0.811496, 0.811827, 0.797101, 0.780422, 0.792632, 0.789878, 0.80074, 0.802621, 0.80286, 0.798633, 0.800381, 0.799645, 0.798061, 0.799753, 0.800881, 0.798116, 0.792625, 0.794855, 0.795411, 0.792832, 0.795099, 0.794814, 0.794807, 0.791719, 0.792581, 0.793274, 0.790038, 0.799184, 0.792942, 0.794253, 0.79378, 0.794387, 0.793475, 0.793832, 0.79477, 0.79524, 0.79512, 0.79279, 0.794902, 0.793858, 0.794981, 0.796316, 0.792673, 0.794895, 0.793411, 0.792585, 0.791737, 0.791834, 0.791282, 0.791026, 0.791707, 0.790634, 0.789366, 0.78758, 0.790649, 0.792755, 0.790325, 0.790341, 0.789219, 0.78912, 0.788984, 0.794093, 0.799656, 0.78835, 0.790122, 0.811286, 0.959038, 0.955044, 0.979265, 0.981573, 0.974911, 0.980503, 0.979916, 0.801349, 0.794627, 0.785427, 0.785163, 0.78625, 0.785254, 0.790404, 0.807341, 0.786245, 0.816173, 0.783959, 0.784794, 0.784325, 0.784224, 0.784043, 0.784382, 0.784635, 0.784525, 0.81567, 0.794916, 0.782723, 0.792144, 0.781937, 0.797413, 0.781542, 0.804737, 0.781372, 0.808796, 0.809417, 0.782027, 0.81558, 0.798196, 0.780756, 0.781039, 0.781646, 0.79178, 0.78069, 0.781206, 0.781172, 0.780441, 0.781631, 0.781035, 0.779505, 0.782092, 0.783862, 0.776858, 0.778843, 0.780041, 0.780121, 0.784132, 0.784536, 0.783634, 0.784014, 0.782827, 0.783036, 0.798409, 0.783403, 0.783501, 0.780875, 0.784867, 0.78312, 0.78156, 0.780358, 0.780306, 0.778275, 0.77728, 0.787901, 0.778171, 0.785405, 0.776116, 0.775992, 0.775632, 0.775265, 0.772011, 0.771898, 0.775706, 0.802751
0.832366, 0.833511, 0.829543, 0.822523, 0.823286, 0.825894, 0.826776, 0.833832, 0.838689, 0.840369, 0.830904, 0.830777, 0.861932, 0.849504, 0.83513, 0.825396, 0.828469, 0.824451, 0.82245, 0.822181, 0.817405, 0.822748, 0.818017, 0.818656, 0.817958, 0.818143, 0.852789, 0.822489, 0.821859, 0.831508, 0.82279, 0.822945, 0.822439, 0.824376, 0.824062, 0.821683, 0.823112, 0.823675, 0.821472, 0.823011, 0.833956, 0.833412, 0.820219, 0.820182, 0.819736, 0.818129, 0.818089, 0.817959, 0.818992, 0.818766, 0.816817, 0.816013, 0.818066, 0.815145, 0.826385, 0.809423, 0.818652, 0.811785, 0.811671, 0.812004, 0.816177, 0.81293, 0.819064, 0.815243, 0.808369, 0.818826, 0.815009, 0.813651, 0.813683, 0.814635, 0.81329, 0.819295, 0.811966, 0.812066, 0.821898, 0.835966, 0.822483, 0.823976, 0.811996, 0.813114, 0.813854, 0.813235, 0.822289, 0.812536, 0.811528, 0.810257, 0.809169, 0.816021, 0.815228, 0.815053, 0.814772, 0.813602, 0.81231, 0.81317, 0.81216, 0.812493, 0.812869, 0.812204, 0.810779, 0.808561, 0.8182, 0.818517, 0.820825, 0.811331, 0.815937, 0.807692, 0.809094, 0.807311, 0.808925, 0.812016, 0.811023, 0.811122, 0.810961, 0.81303, 0.811151, 0.809236, 0.825099, 0.821737, 0.821223, 0.819505, 0.822748, 0.8206, 0.811316, 0.810998, 0.829572, 0.829191, 0.804073, 0.801264, 0.818335, 0.801822, 0.783446, 0.77392, 0.776559, 0.763849, 0.770588, 0.783989, 0.798721, 0.80553, 0.811381, 0.862447, 0.862781, 0.853483, 0.857646, 1.28782, 1.26694, 1.27203, 0.998533, 0.915417, 0.924843, 0.850317, 0.833357, 0.803266, 0.791262, 0.792075, 0.78466, 0.791994, 0.801287, 0.804033, 0.805816, 0.80559, 0.802383, 0.815631, 0.80265, 0.800785, 0.798809, 0.798851, 0.797748, 0.798067, 0.810429, 0.807056, 0.796303, 0.796753, 0.795329, 0.807384, 0.796036, 0.796961, 0.796011, 0.792469, 0.797846, 0.795292, 0.79518, 0.794328, 0.793019, 0.825377, 0.795047, 0.796339, 0.79726, 0.796072, 0.795998, 0.795087, 0.794797, 0.795642, 0.794487, 0.794797, 0.805077, 0.793671, 0.79244, 0.793375, 0.793048, 0.791609, 0.789124, 0.792249, 0.791985, 0.793234, 0.792402, 0.78995, 0.78981, 0.789788, 0.79073, 0.791127, 0.790266, 0.790499, 0.789634, 0.789755, 0.78872, 0.807565, 0.812201, 0.963751, 0.975986, 0.977706, 0.977406, 0.968732, 0.968394, 0.832631, 0.803962, 0.787228, 0.786875, 0.786707, 0.786715, 0.786511, 0.802323, 0.811349, 0.786849, 0.786802, 0.786785, 0.786888, 0.786807, 0.786999, 0.785621, 0.786827, 0.787123, 0.811221, 0.783868, 0.810098, 0.783729, 0.793925, 0.784178, 0.828453, 0.782947, 0.78495, 0.793593, 0.801237, 0.783745, 0.78324, 0.78134, 0.782793, 0.800456, 0.782101, 0.780887, 0.782124, 0.781049, 0.784761, 0.801419, 0.782866, 0.783917, 0.787019, 0.793318, 0.78005, 0.787234, 0.78065, 0.782239, 0.782403, 0.784856, 0.78541, 0.782163, 0.795223, 0.7917, 0.789238, 0.788651, 0.7912, 0.783317, 0.783391, 0.783132, 0.782323, 0.781997, 0.782997, 0.794323, 0.780643, 0.780893, 0.780893, 0.783193, 0.780893, 0.787698, 0.775475, 0.776267, 0.778047, 0.774511, 0.777009, 0.779859, 0.781834
0.834682, 0.827563, 0.827872, 0.829106, 0.823565, 0.825511, 0.827337, 0.826975, 0.83344, 0.831288, 0.829225, 0.832451, 0.832398, 0.828665, 0.829984, 0.835616, 0.828345, 0.839062, 0.830631, 0.82227, 0.821075, 0.816637, 0.817505, 0.816299, 0.818086, 0.817853, 0.820417, 0.818287, 0.82149, 0.831666, 0.821376, 0.821706, 0.8233, 0.82328, 0.823126, 0.829918, 0.829209, 0.823621, 0.823671, 0.994027, 0.981534, 0.957629, 0.980852, 0.82215, 0.821377, 0.81925, 0.818863, 0.818053, 0.818691, 0.817547, 0.848919, 0.829396, 0.818908, 0.815622, 0.81118, 0.818376, 0.819143, 0.810866, 0.814717, 0.812533, 0.812574, 0.814546, 0.811625, 0.818142, 0.816291, 0.814944, 0.824733, 0.81915, 0.82588, 0.823592, 0.831187, 0.808434, 0.806041, 0.812184, 0.811405, 0.812849, 0.815331, 0.825506, 0.815914, 0.830681, 0.814432, 0.815587, 0.811259, 0.812923, 0.821137, 0.809038, 0.815307, 0.811049, 0.8115, 0.814453, 0.812928, 0.813731, 0.80778, 0.81597, 0.815544, 0.809629, 0.810992, 0.822719, 0.814185, 0.818418, 0.808307, 0.811261, 0.810459, 0.812268, 0.811682, 0.815387, 0.81656, 0.822673, 0.81667, 0.818456, 0.826503, 0.833528, 0.822164, 0.815869, 0.815732, 0.822416, 0.815695, 0.821968, 0.822385, 0.811227, 0.810805, 0.813409, 0.810861, 0.807425, 0.806596, 0.805367, 0.807259, 0.810354, 0.811764, 0.800843, 0.757435, 0.764234, 0.764583, 0.75272, 0.751897, 0.753245, 0.791595, 0.785053, 0.798981, 0.798958, 0.847756, 0.849584, 1.19895, 1.19895, 1.19143, 1.1921, 0.946089, 0.953592, 0.860629, 0.853461, 0.833388, 0.818371, 0.801121, 0.782411, 0.788084, 0.787825, 0.801884, 0.808419, 0.808968, 0.804622, 0.812071, 0.80365, 0.801436, 0.801951, 0.804587, 0.803183, 0.801295, 0.801046, 0.811189, 0.80508, 0.804512, 0.801996, 0.811206, 0.79855, 0.797988, 0.805637, 0.794804, 0.822552, 0.796958, 0.799073, 0.796168, 0.797275, 0.796185, 0.797941, 0.796096, 0.815502, 0.816999, 0.796343, 0.796921, 0.79578, 0.797421, 0.795144, 0.795229, 0.806304, 0.793325, 0.809017, 0.794269, 0.795059, 0.794922, 0.794548, 0.793684, 0.79577, 0.790372, 0.791858, 0.791005, 0.791122, 0.791237, 0.791509, 0.798503, 0.793732, 0.811612, 0.791028, 0.79077, 0.790963, 0.791014, 0.789785, 0.821243, 0.789925, 0.791613, 0.789687, 0.790639, 0.819844, 0.820581, 0.811099, 0.812012, 0.78579, 0.786849, 0.785617, 0.793102, 0.801573, 0.786921, 0.788586, 0.787724, 0.78783, 0.798138, 0.788105, 0.788261, 0.788759, 0.788781, 0.788228, 0.787728, 0.787009, 0.798583, 0.798316, 0.798504, 0.81253, 0.791462, 0.785291, 0.784944, 0.8201, 0.78562, 0.78597, 0.784491, 0.783819, 0.7842, 0.785737, 0.783643, 0.784884, 0.784581, 0.784561, 0.789692, 0.785252, 0.783458, 0.790861, 0.791161, 0.794311, 0.777954, 0.78059, 0.777999, 0.778137, 0.787151, 0.798058, 0.784586, 0.783397, 0.781691, 0.789284, 0.782059, 0.781615, 0.78044, 0.794352, 0.782286, 0.785342, 0.78454, 0.784403, 0.785367, 0.784784, 0.783604, 0.783004, 0.784312, 0.787202, 0.783716, 0.781517, 0.798753, 0.784514, 0.781224, 0.780771, 0.778616, 0.779836, 0.781125, 0.818391
0.836446, 0.828725, 0.826541, 0.833044, 0.810912, 0.82956, 0.830952, 0.825775, 0.836653, 0.83701, 0.835135, 0.829846, 0.83222, 0.842268, 0.830779, 0.829869, 0.822221, 0.824548, 0.819453, 0.819322, 0.816648, 0.822369, 0.813475, 0.814143, 0.815672, 0.816994, 0.822159, 0.827655, 0.819805, 0.831294, 0.823196, 0.821707, 0.821653, 0.821467, 0.819528, 0.821703, 0.822369, 0.823465, 0.823203, 0.822558, 0.84382, 0.82375, 0.845735, 0.822307, 0.821071, 0.82071, 0.843223, 0.819753, 0.820032, 0.817051, 0.821773, 0.813816, 0.812924, 0.811888, 0.812509, 0.811135, 0.813191, 0.828341, 0.815591, 0.813842, 0.81843, 0.813011, 0.816875, 0.82213, 0.814528, 0.818803, 0.815812, 0.753033, 0.754246, 0.788297, 0.790806, 0.826627, 0.819829, 0.820311, 0.815762, 0.811773, 0.821475, 0.812683, 0.814171, 0.815558, 0.814702, 0.825668, 0.814722, 0.814966, 0.817715, 0.816535, 0.814934, 0.813024, 0.812034, 0.817761, 0.811077, 0.808548, 0.809765, 0.810327, 0.810066, 0.786599, 0.81286, 0.812134, 0.81941, 0.811698, 0.810814, 0.815589, 0.814922, 0.82462, 0.828516, 0.817852, 0.818944, 0.813156, 0.816464, 0.829533, 0.827141, 0.821086, 0.82188, 0.826627, 0.825935, 0.819944, 0.824804, 0.81949, 0.812665, 0.811764, 0.81178, 0.812138, 0.812471, 0.807577, 0.805389, 0.801771, 0.801576, 0.80541, 0.794367, 0.793656, 0.76625, 0.75731, 0.756185, 0.755974, 0.757044, 0.767217, 0.768747, 0.76294, 0.784836, 0.78973, 0.803836, 0.843617, 1.19517, 1.18579, 1.17742, 1.20246, 0.989753, 0.862683, 0.861318, 0.825059, 0.836281, 0.801287, 0.804937, 0.77772, 0.774945, 0.78107, 0.800826, 0.794147, 0.80276, 0.804278, 0.807094, 0.802746, 0.808548, 0.804651, 0.806653, 0.807755, 0.807031, 0.810483, 0.80385, 0.825552, 0.802928, 0.801912, 0.802435, 0.808624, 0.801886, 0.801362, 0.816322, 0.814921, 0.798856, 0.797292, 0.798014, 0.797247, 0.797261, 0.795889, 0.799339, 0.799096, 0.797004, 0.798553, 0.79477, 0.794487, 0.794104, 0.804793, 0.79411, 0.793674, 0.795055, 0.79552, 0.794784, 0.795058, 0.795561, 0.809231, 0.789457, 0.787199, 0.787719, 0.7906, 0.78943, 0.79091, 0.789469, 0.788617, 0.793913, 0.793063, 0.790954, 0.791622, 0.792079, 0.807827, 0.793803, 0.792504, 0.812057, 0.79608, 0.805961, 0.789167, 0.791354, 0.790809, 0.790304, 0.791379, 0.791412, 0.789471, 0.789974, 0.79013, 0.787455, 0.78864, 0.798446, 0.790712, 0.790221, 0.789895, 0.788696, 0.819205, 0.789887, 0.815577, 0.788678, 0.790182, 0.787864, 0.78891, 0.788414, 0.792, 0.804316, 0.811097, 0.798805, 0.819418, 0.79056, 0.787502, 0.807755, 0.787996, 0.798309, 0.78604, 0.788728, 0.788496, 0.786793, 0.786575, 0.787175, 0.78708, 0.785565, 0.787944, 0.786203, 0.787278, 0.786387, 0.785101, 0.787444, 0.786766, 0.790244, 0.780925, 0.780621, 0.788387, 0.783814, 0.785879, 0.788118, 0.788798, 0.784244, 0.785735, 0.787121, 0.784658, 0.7838, 0.783746, 0.786504, 0.786342, 0.786962, 0.78568, 0.786399, 0.7843, 0.787403, 0.787638, 0.783992, 0.78523, 0.781777, 0.780912, 0.78132, 0.781837, 0.781563, 0.782562, 0.791539, 0.803082
0.829309, 0.834699, 0.828493, 0.828112, 0.833364, 0.832279, 0.832495, 0.831865, 0.831691, 0.832154, 0.842511, 0.84949, 0.851967, 0.836618, 0.827258, 0.822529, 0.820319, 0.821957, 0.815788, 0.817214, 0.824215, 0.826442, 0.812147, 0.813623, 0.816541, 0.816741, 0.821682, 0.822048, 0.823224, 0.824317, 0.845794, 0.822253, 0.821576, 0.820872, 0.822001, 0.824065, 0.823813, 0.825241, 0.82558, 0.825054, 0.823584, 0.826491, 0.819133, 0.821328, 0.822021, 0.82174, 0.822336, 0.835392, 0.825395, 0.815565, 0.821787, 0.812061, 0.820199, 0.808884, 0.815879, 0.818464, 0.816749, 0.815544, 0.811516, 0.813618, 0.814603, 0.816051, 0.818317, 0.817771, 0.817133, 0.829249, 0.823171, 0.817758, 0.82758, 0.821984, 0.822896, 0.828195, 0.819396, 0.818012, 0.817383, 0.81338, 0.813835, 0.813545, 0.817396, 0.81776, 0.813256, 0.816374, 0.816328, 0.816619, 0.815025, 0.815547, 0.8156, 0.818046, 0.813138, 0.811915, 0.815452, 0.811582, 0.808841, 0.817003, 0.802096, 0.818489, 0.810157, 0.813509, 0.808223, 0.82137, 0.818317, 0.825887, 0.823036, 0.829623, 0.829226, 0.829558, 0.820461, 0.817526, 0.819794, 0.818726, 0.822812, 0.820438, 0.824403, 0.826303, 0.826558, 0.818974, 0.817844, 0.818331, 0.820466, 0.820133, 0.81976, 0.810808, 0.815057, 0.807256, 0.812413, 0.802561, 0.802594, 0.79887, 0.797686, 0.790555, 0.776311, 0.763858, 0.764846, 0.763125, 0.772539, 0.773657, 0.790545, 0.765744, 0.775245, 0.77472, 0.787789, 0.801374, 0.84884, 1.29178, 1.30567, 1.24354, 1.08552, 0.867627, 0.825931, 0.823558, 0.819744, 0.818758, 0.805644, 0.797668, 0.795596, 0.789174, 0.8075, 0.807552, 0.808344, 0.805258, 0.804806, 0.808079, 0.805717, 0.80501, 0.804985, 0.805789, 0.805387, 0.80757, 0.806101, 0.82251, 0.822556, 0.804213, 0.821388, 0.815852, 0.814502, 0.804527, 0.802942, 0.803755, 0.799627, 0.800566, 0.798539, 0.797886, 0.794965, 0.795628, 0.801819, 0.798026, 0.79729, 0.795923, 0.797476, 0.794966, 0.796046, 0.794122, 0.795034, 0.797029, 0.797473, 0.829741, 0.795707, 0.808229, 0.792687, 0.798351, 0.788435, 0.793625, 0.782811, 0.787575, 0.801827, 0.791855, 0.794581, 0.794081, 0.792432, 0.793074, 0.79227, 0.793698, 0.812539, 0.79418, 0.79467, 0.835694, 0.794846, 0.79374, 0.793593, 0.794576, 0.793645, 0.792621, 0.793786, 0.793617, 0.793853, 0.7935, 0.79065, 0.791396, 0.792079, 0.790812, 0.793748, 0.79053, 0.788358, 0.790471, 0.790143, 0.790398, 0.790334, 0.791556, 0.790085, 0.78957, 0.793943, 0.788913, 0.790187, 0.793513, 0.822431, 0.793945, 0.790601, 0.789711, 0.790659, 0.790368, 0.789985, 0.790219, 0.788503, 0.790608, 0.790518, 0.791351, 0.798996, 0.787993, 0.788672, 0.795878, 0.789362, 0.787898, 0.787074, 0.787086, 0.787378, 0.786169, 0.786708, 0.785717, 0.786875, 0.78393, 0.782744, 0.783398, 0.787662, 0.788161, 0.79799, 0.787541, 0.785014, 0.786134, 0.783238, 0.790182, 0.788621, 0.788547, 0.790258, 0.787782, 0.786095, 0.784726, 0.796718, 0.785359, 0.786684, 0.784943, 0.784572, 0.784388, 0.784736, 0.80121, 0.78778, 0.787976, 0.785657, 0.786656, 0.785493, 0.790684
0.833323, 0.832896, 0.839388, 0.833571, 0.838514, 0.831172, 0.831988, 0.833377, 0.835726, 0.831429, 0.831957, 0.828417, 0.831532, 0.82525, 0.825194, 0.829073, 0.820197, 0.822148, 0.805923, 0.814625, 0.811462, 0.810455, 0.814042, 0.825244, 0.802286, 0.815973, 0.828966, 0.818776, 0.825786, 0.824525, 0.821656, 0.823215, 0.821604, 0.829646, 0.828082, 0.824179, 0.824492, 0.824562, 0.824702, 0.824959, 0.825981, 0.824698, 0.824439, 0.823508, 0.822466, 0.823593, 0.830061, 0.822801, 0.824754, 0.815186, 0.815945, 0.815887, 0.814075, 0.818283, 0.815824, 0.818267, 0.815617, 0.816355, 0.818717, 0.818579, 0.821281, 0.819557, 0.828986, 0.828592, 0.846321, 0.830088, 0.820166, 0.82343, 0.827362, 0.826731, 0.827081, 0.834533, 0.818718, 0.814124, 0.818282, 0.817753, 0.817596, 0.823738, 0.814733, 0.815088, 0.846083, 0.815351, 0.81529, 0.815876, 0.815586, 0.815552, 0.815517, 0.818149, 0.814976, 0.814093, 0.815806, 0.814454, 0.809568, 0.812614, 0.810696, 0.813304, 0.817438, 0.815975, 0.82186, 0.828321, 0.831187, 0.819588, 0.842974, 0.832673, 0.840905, 0.846412, 0.826607, 0.818363, 0.817813, 0.821792, 0.815579, 0.815259, 0.819255, 0.814522, 0.823467, 0.823111, 0.815014, 0.814331, 0.813586, 0.815044, 0.82131, 0.816073, 0.812367, 0.80011, 0.801805, 0.801527, 0.804875, 0.804451, 0.804709, 0.797471, 0.7697, 0.747853, 0.76078, 0.773561, 0.771861, 0.764573, 0.771009, 0.801478, 0.797933, 0.781382, 0.784808, 0.834197, 0.833612, 1.29346, 1.3499, 1.24648, 1.20659, 0.866051, 0.840776, 0.831769, 0.826411, 0.807506, 0.78878, 0.787257, 0.787417, 0.803557, 0.806149, 0.808285, 0.806869, 0.808232, 0.808043, 0.809638, 0.808411, 0.808472, 0.807228, 0.810759, 0.806349, 0.820409, 0.820918, 0.821815, 0.813574, 0.808586, 0.81764, 0.824499, 0.820024, 0.807434, 0.808926, 0.804741, 0.802389, 0.810956, 0.801047, 0.801555, 0.795048, 0.800551, 0.802808, 0.804008, 0.801188, 0.802295, 0.800259, 0.801405, 0.799123, 0.798591, 0.809256, 0.798418, 0.796704, 0.800975, 0.798575, 0.798885, 0.783461, 0.791618, 0.785968, 0.783134, 0.782169, 0.789739, 0.799795, 0.795454, 0.797217, 0.796491, 0.797489, 0.797267, 0.797863, 0.796245, 0.796398, 0.79705, 0.796688, 0.79593, 0.796756, 0.79615, 0.796412, 0.805834, 0.795404, 0.796777, 0.795076, 0.796471, 0.796024, 0.794985, 0.794537, 0.793262, 0.792284, 0.791507, 0.791337, 0.7916, 0.790542, 0.797646, 0.791403, 0.790219, 0.79069, 0.79282, 0.793309, 0.800647, 0.793972, 0.79275, 0.794046, 0.805002, 0.791886, 0.797538, 0.793331, 0.80228, 0.791679, 0.79103, 0.791543, 0.792781, 0.793318, 0.792241, 0.797607, 0.791545, 0.79162, 0.788965, 0.79474, 0.790225, 0.794197, 0.789114, 0.795648, 0.790985, 0.789817, 0.788054, 0.791929, 0.789404, 0.795036, 0.787908, 0.787457, 0.787611, 0.797584, 0.788954, 0.790522, 0.798076, 0.79209, 0.789919, 0.789676, 0.804528, 0.793669, 0.792445, 0.790914, 0.79024, 0.78765, 0.787669, 0.787712, 0.786215, 0.790633, 0.790261, 0.793935, 0.78753, 0.784907, 0.785372, 0.788888, 0.804927, 0.786038, 0.787023, 0.801913, 0.822236
0.843341, 0.842459, 0.84084, 0.8327, 0.833338, 0.832377, 0.833454, 0.839465, 0.833393, 0.835775, 0.83692, 0.829536, 0.827683, 0.826146, 0.82585, 0.828519, 0.821969, 0.8222, 0.815403, 0.820152, 0.820344, 0.815247, 0.817674, 0.814542, 0.810644, 0.822367, 0.811644, 0.82352, 0.816087, 0.822728, 0.816866, 0.818801, 0.824794, 0.826147, 0.825238, 0.825623, 0.832339, 0.824431, 0.823549, 0.824829, 0.824951, 0.824156, 0.823548, 0.824388, 0.824596, 0.825532, 0.824943, 0.823913, 0.822165, 0.818388, 0.81873, 0.819397, 0.821768, 0.816434, 0.817416, 0.818842, 0.815504, 0.815941, 0.823124, 0.818578, 0.819567, 0.837602, 0.835869, 0.836686, 0.833635, 0.83196, 0.832841, 0.846359, 0.828651, 0.839943, 0.831364, 0.83222, 0.831855, 0.816071, 0.814791, 0.814576, 0.826037, 0.815758, 0.815108, 0.817789, 0.816675, 0.817205, 0.816723, 0.828175, 0.815485, 0.817655, 0.817047, 0.817921, 0.84009, 0.83185, 0.83268, 0.831379, 0.817945, 0.819007, 0.814277, 0.811395, 0.819126, 0.814813, 0.821117, 0.821949, 0.829112, 0.828047, 0.828163, 0.826765, 0.825716, 0.846793, 0.816614, 0.814771, 0.821362, 0.819401, 0.818334, 0.818244, 0.815533, 0.814671, 0.814171, 0.81253, 0.814059, 0.813361, 0.814754, 0.813473, 0.811539, 0.814077, 0.808066, 0.819366, 0.806943, 0.805423, 0.806026, 0.810463, 0.80277, 0.782749, 0.773421, 0.735099, 0.741748, 0.757386, 0.739057, 0.735074, 0.743925, 0.784844, 0.788147, 0.789949, 0.828973, 0.808217, 0.826011, 1.32248, 1.23918, 1.23349, 0.939301, 0.897956, 0.873561, 0.845533, 0.79722, 0.808691, 0.785056, 0.779761, 0.780051, 0.780862, 0.806823, 0.811621, 0.810883, 0.811941, 0.808376, 0.808865, 0.811147, 0.808386, 0.811436, 0.816488, 0.808223, 0.815797, 0.813356, 0.812999, 0.81153, 0.818323, 0.819053, 0.830336, 0.811069, 0.810809, 0.817903, 0.806209, 0.80592, 0.80495, 0.81416, 0.803734, 0.808732, 0.807538, 0.811342, 0.80597, 0.806617, 0.806137, 0.80386, 0.804669, 0.802653, 0.809496, 0.835916, 0.81488, 0.803082, 0.800043, 0.800681, 0.794247, 0.79412, 0.794166, 0.790839, 0.794953, 0.794383, 0.80259, 0.801297, 0.798864, 0.804402, 0.794516, 0.80091, 0.800137, 0.800433, 0.799123, 0.808573, 0.798436, 0.798316, 0.797581, 0.799501, 0.810384, 0.798116, 0.79916, 0.798154, 0.799169, 0.797612, 0.798118, 0.798292, 0.795532, 0.796551, 0.79583, 0.795617, 0.794086, 0.793243, 0.814806, 0.801989, 0.802511, 0.792173, 0.79686, 0.795385, 0.79629, 0.805041, 0.794042, 0.793879, 0.792312, 0.800953, 0.800709, 0.798509, 0.793825, 0.791014, 0.791706, 0.790872, 0.7926, 0.793063, 0.795059, 0.79353, 0.795088, 0.795347, 0.793301, 0.791229, 0.79633, 0.794781, 0.794515, 0.793949, 0.825877, 0.794293, 0.798299, 0.818681, 0.794727, 0.794492, 0.797584, 0.801136, 0.799966, 0.80111, 0.7913, 0.797419, 0.791611, 0.793628, 0.795764, 0.792071, 0.793849, 0.795045, 0.792698, 0.793012, 0.793704, 0.804712, 0.807425, 0.813422, 0.790717, 0.790129, 0.790848, 0.790775, 0.78812, 0.787979, 0.78875, 0.788348, 0.787736, 0.799071, 0.808463, 0.799384, 0.798519, 0.78818, 0.797787
0.8439, 0.843039, 0.84136, 0.838743, 0.843211, 0.83775, 0.837663, 0.83957, 0.83971, 0.839673, 0.829775, 0.836942, 0.833397, 0.835793, 0.823526, 0.835855, 0.818022, 0.817491, 0.817225, 0.828083, 0.812126, 0.818848, 0.819549, 0.816543, 0.811403, 0.813392, 0.806354, 0.806937, 0.813288, 0.814275, 0.818146, 0.818002, 0.816952, 0.81458, 0.827747, 0.827748, 0.827305, 0.824736, 0.826454, 0.825846, 0.825532, 0.825879, 0.828488, 0.826415, 0.825847, 0.827246, 0.825806, 0.824445, 0.822271, 0.822437, 0.823448, 0.822475, 0.817694, 0.817909, 0.818049, 0.815158, 0.81495, 0.831542, 0.82439, 0.818727, 0.836477, 0.831704, 0.869292, 0.861241, 0.843132, 0.864504, 0.830028, 0.829555, 0.831843, 0.856354, 0.833461, 0.84875, 0.855659, 0.83029, 0.818255, 0.826542, 0.832822, 0.815058, 0.815368, 0.848537, 0.828335, 0.816707, 0.815429, 0.815031, 0.818266, 0.820894, 0.819122, 0.821713, 0.872523, 0.86626, 0.825873, 0.818055, 0.817794, 0.825538, 0.813259, 0.825823, 0.829252, 0.821942, 0.818147, 0.819327, 0.819309, 0.818998, 0.819635, 0.824875, 0.819115, 0.820791, 0.815141, 0.822153, 0.824346, 0.810539, 0.811349, 0.813526, 0.812965, 0.814147, 0.812982, 0.813127, 0.816999, 0.81506, 0.815428, 0.815065, 0.814405, 0.813041, 0.815154, 0.814249, 0.812207, 0.810683, 0.81073, 0.810365, 0.803614, 0.797428, 0.796941, 0.771534, 0.743767, 0.745948, 0.745941, 0.745987, 0.745864, 0.765838, 0.779829, 0.792179, 0.800042, 0.842604, 0.917872, 1.26855, 1.33312, 1.26763, 1.0124, 0.835656, 0.820485, 0.80462, 0.782972, 0.781459, 0.785407, 0.773217, 0.775913, 0.785307, 0.818128, 0.816009, 0.811726, 0.815125, 0.814435, 0.823931, 0.822359, 0.812286, 0.813685, 0.80991, 0.811685, 0.813948, 0.814158, 0.821948, 0.824573, 0.820049, 0.812542, 0.812156, 0.812723, 0.812316, 0.80982, 0.808466, 0.81067, 0.808452, 0.807595, 0.807374, 0.808206, 0.808252, 0.811142, 0.809497, 0.808045, 0.805929, 0.806849, 0.806812, 0.82273, 0.804525, 0.803387, 0.804213, 0.80116, 0.800969, 0.797322, 0.797249, 0.798165, 0.795794, 0.808527, 0.809817, 0.809215, 0.798283, 0.800636, 0.802313, 0.805842, 0.801428, 0.796682, 0.798735, 0.800952, 0.800318, 0.828813, 0.801594, 0.800645, 0.800659, 0.801529, 0.800671, 0.800536, 0.800497, 0.799576, 0.799683, 0.800419, 0.799248, 0.799198, 0.798649, 0.814903, 0.814118, 0.797538, 0.796878, 0.795572, 0.797062, 0.797852, 0.797429, 0.795417, 0.79737, 0.795397, 0.797007, 0.80158, 0.797449, 0.795362, 0.79671, 0.792161, 0.79758, 0.796537, 0.79483, 0.79315, 0.796825, 0.801007, 0.79668, 0.794875, 0.797237, 0.79747, 0.797284, 0.79681, 0.797777, 0.796892, 0.795868, 0.797106, 0.797265, 0.79743, 0.797809, 0.829319, 0.798604, 0.818421, 0.811188, 0.797992, 0.799699, 0.798382, 0.800315, 0.796905, 0.805468, 0.802359, 0.801754, 0.794092, 0.792335, 0.794792, 0.798594, 0.791978, 0.803843, 0.794728, 0.79482, 0.825413, 0.795341, 0.794623, 0.794658, 0.79393, 0.794704, 0.794367, 0.792981, 0.800952, 0.793512, 0.791207, 0.790372, 0.795092, 0.794526, 0.791453, 0.794143, 0.819454, 0.790609
0.845686, 0.847523, 0.843384, 0.843334, 0.843258, 0.84192, 0.840148, 0.838713, 0.842009, 0.837431, 0.859289, 0.838077, 0.828151, 0.826649, 0.824194, 0.8198, 0.818826, 0.815077, 0.815509, 0.812158, 0.812912, 0.810124, 0.814559, 0.811424, 0.814761, 0.812727, 0.819802, 0.814414, 0.821256, 0.814642, 0.813084, 0.814397, 0.815482, 0.82212, 0.815966, 0.831386, 0.825605, 0.825743, 0.825535, 0.826097, 0.82594, 0.825865, 0.826187, 0.826617, 0.827064, 0.82682, 0.828516, 0.826424, 0.831643, 0.82665, 0.818441, 0.819466, 0.821407, 0.816625, 0.818797, 0.829155, 0.818311, 0.819133, 0.82063, 0.829261, 0.825994, 0.829468, 0.885089, 0.900432, 0.876398, 0.857576, 0.840276, 0.832733, 0.836887, 0.822862, 0.822674, 0.836159, 0.829338, 0.831728, 0.819414, 0.817915, 0.816406, 0.815809, 0.817764, 0.817461, 0.817345, 0.816302, 0.819496, 0.821332, 0.821207, 0.822329, 0.836562, 0.821577, 0.83142, 0.823476, 0.849123, 0.815853, 0.815797, 0.815967, 0.816684, 0.824878, 0.825056, 0.821934, 0.81878, 0.821608, 0.820372, 0.820322, 0.81836, 0.819057, 0.818273, 0.817615, 0.820606, 0.824051, 0.816555, 0.816729, 0.818467, 0.815292, 0.81547, 0.813385, 0.818005, 0.817382, 0.813814, 0.814714, 0.820731, 0.819295, 0.840953, 0.82182, 0.822228, 0.818004, 0.809732, 0.814163, 0.804502, 0.802643, 0.798418, 0.798322, 0.795346, 0.786838, 0.768616, 0.771696, 0.752121, 0.769153, 0.753306, 0.770714, 0.792348, 0.82351, 0.828426, 0.998577, 1.2951, 1.28912, 1.29945, 1.29235, 1.02515, 0.839877, 0.824865, 0.81693, 0.799854, 0.777221, 0.787773, 0.802734, 0.786611, 0.813417, 0.815411, 0.819054, 0.826826, 0.811757, 0.811922, 0.811366, 0.812297, 0.816498, 0.820128, 0.81365, 0.815166, 0.814358, 0.814935, 0.812831, 0.815344, 0.815561, 0.814648, 0.81417, 0.812368, 0.812152, 0.811532, 0.811455, 0.811927, 0.813053, 0.811446, 0.828709, 0.809791, 0.810132, 0.810148, 0.809713, 0.808736, 0.809665, 0.808308, 0.807828, 0.808133, 0.807186, 0.805259, 0.805096, 0.799402, 0.801836, 0.80081, 0.799159, 0.798524, 0.798583, 0.797778, 0.798813, 0.801185, 0.802091, 0.800801, 0.805957, 0.804867, 0.803637, 0.803914, 0.802502, 0.802084, 0.802388, 0.803242, 0.811992, 0.802556, 0.803569, 0.803314, 0.801787, 0.801584, 0.80086, 0.800212, 0.800813, 0.801249, 0.801099, 0.800538, 0.801342, 0.823585, 0.798711, 0.826223, 0.797542, 0.825417, 0.813015, 0.798019, 0.802005, 0.798401, 0.798257, 0.798374, 0.796905, 0.794719, 0.794283, 0.790754, 0.797978, 0.790827, 0.791506, 0.79288, 0.794451, 0.79677, 0.791352, 0.802235, 0.79978, 0.798381, 0.800214, 0.798154, 0.818497, 0.81541, 0.805046, 0.807029, 0.79497, 0.800559, 0.800082, 0.818525, 0.845863, 0.799423, 0.800547, 0.800557, 0.800694, 0.799217, 0.801315, 0.800678, 0.800869, 0.817951, 0.800121, 0.801409, 0.799085, 0.795476, 0.795355, 0.79333, 0.794368, 0.801951, 0.800541, 0.792384, 0.797955, 0.810442, 0.79827, 0.811858, 0.796047, 0.796614, 0.804679, 0.794673, 0.795204, 0.795432, 0.793801, 0.806439, 0.791105, 0.79207, 0.808285, 0.801016, 0.794849, 0.806747, 0.811503
0.846023, 0.845128, 0.845698, 0.844261, 0.843173, 0.842704, 0.840841, 0.839037, 0.848296, 0.836739, 0.836389, 0.835394, 0.831419, 0.829463, 0.824614, 0.821377, 0.825326, 0.818929, 0.814537, 0.81164, 0.805157, 0.806222, 0.809256, 0.815637, 0.82114, 0.810874, 0.822966, 0.8081, 0.80873, 0.809743, 0.811672, 0.814264, 0.816523, 0.817237, 0.817613, 0.820417, 0.830125, 0.829243, 0.825323, 0.825289, 0.828131, 0.827124, 0.828838, 0.826088, 0.827194, 0.826894, 0.827561, 0.825309, 0.822959, 0.82154, 0.821785, 0.816849, 0.820914, 0.818766, 0.819183, 0.822455, 0.822358, 0.826948, 0.819807, 0.818566, 0.824426, 0.819107, 0.824222, 0.824467, 0.826149, 0.827328, 0.828819, 0.829831, 0.817214, 0.849114, 0.850482, 0.888639, 0.86121, 0.842135, 0.842577, 0.826016, 0.827503, 0.821807, 0.822689, 0.818459, 0.8191, 0.818831, 0.832588, 0.839085, 0.822366, 0.820473, 0.835804, 0.820347, 0.821733, 0.820313, 0.81928, 0.82025, 0.821107, 0.821199, 0.820967, 0.825145, 0.8201, 0.819013, 0.820474, 0.819654, 0.819076, 0.820176, 0.825204, 0.852754, 0.818311, 0.818904, 0.822844, 0.821722, 0.821261, 0.816992, 0.82913, 0.820443, 0.82085, 0.818686, 0.816158, 0.822912, 0.81778, 0.818061, 0.818265, 0.821647, 0.822548, 0.825505, 0.82012, 0.817454, 0.81556, 0.811207, 0.810132, 0.808031, 0.804707, 0.803899, 0.79297, 0.793766, 0.787165, 0.780475, 0.794319, 0.784396, 0.794407, 0.813007, 0.832743, 0.840691, 0.89912, 1.25563, 1.29085, 1.31071, 1.32423, 1.31307, 1.05933, 0.887689, 0.834099, 0.833387, 0.829833, 0.830426, 0.864006, 0.802661, 0.799489, 0.809452, 0.812684, 0.813382, 0.815201, 0.813465, 0.818248, 0.820662, 0.817914, 0.811989, 0.829304, 0.814406, 0.814772, 0.815075, 0.815823, 0.815351, 0.815097, 0.817063, 0.817724, 0.814828, 0.814249, 0.812711, 0.81186, 0.814018, 0.812483, 0.826621, 0.812314, 0.812434, 0.810391, 0.842935, 0.810673, 0.810997, 0.809421, 0.80897, 0.80873, 0.8088, 0.81151, 0.810765, 0.804934, 0.804636, 0.804216, 0.807151, 0.81179, 0.801462, 0.808728, 0.800927, 0.799098, 0.803914, 0.806044, 0.801049, 0.804258, 0.802415, 0.80946, 0.807422, 0.805496, 0.804371, 0.80482, 0.805, 0.804863, 0.803618, 0.804434, 0.804045, 0.803332, 0.812248, 0.801438, 0.801329, 0.801876, 0.801653, 0.802637, 0.801964, 0.800943, 0.80043, 0.801, 0.80073, 0.801145, 0.799894, 0.80144, 0.82613, 0.799888, 0.817065, 0.814675, 0.801614, 0.800898, 0.799455, 0.799244, 0.799527, 0.803775, 0.794368, 0.794456, 0.798228, 0.795807, 0.800914, 0.797607, 0.796, 0.798548, 0.801746, 0.8046, 0.797967, 0.798592, 0.800866, 0.803664, 0.798638, 0.79693, 0.796813, 0.803944, 0.802321, 0.801187, 0.822709, 0.801077, 0.811712, 0.800617, 0.801706, 0.801104, 0.799915, 0.800619, 0.801203, 0.818593, 0.824913, 0.816801, 0.797443, 0.799449, 0.800909, 0.802289, 0.795839, 0.801316, 0.795333, 0.795489, 0.797588, 0.799227, 0.798218, 0.82002, 0.797795, 0.794226, 0.796647, 0.796718, 0.811489, 0.826186, 0.79718, 0.793741, 0.805194, 0.796576, 0.793778, 0.793794, 0.792705, 0.80938, 0.809868
