1.62025, 1.61845, 1.60681, 1.60557, 1.60335, 1.62055, 1.63103, 1.6989, 1.69539, 1.56077, 1.55148, 1.54773, 1.5499, 1.52689, 1.52233, 1.52186, 1.51117, 1.50493, 1.49831, 1.49113, 1.48488, 1.47805, 1.47045, 1.46424, 1.46264, 1.47595, 1.53676, 1.62006, 1.44527, 1.43524, 1.42313, 1.42045, 1.4076, 1.39789, 1.39551, 1.39215, 1.38777, 1.38148, 1.37758, 1.36776, 1.36387, 1.36239, 1.35803, 1.3539, 1.34433, 1.34663, 1.33734, 1.33339, 1.34427, 1.33683, 1.35853, 1.38571, 1.35915, 1.35438, 1.3377, 1.29613, 1.28831, 1.29931, 1.28419, 1.29904
1.65348, 1.61725, 1.60936, 1.61291, 1.60504, 1.62012, 1.66751, 1.69542, 1.67774, 1.56395, 1.56131, 1.55422, 1.55196, 1.53756, 1.52642, 1.51518, 1.50945, 1.50588, 1.49691, 1.49144, 1.48563, 1.47881, 1.48824, 1.4638, 1.4714, 1.44815, 1.6423, 1.71022, 1.4009, 1.4332, 1.42384, 1.41948, 1.40922, 1.39591, 1.39459, 1.3929, 1.3848, 1.38288, 1.3757, 1.37151, 1.36386, 1.36241, 1.3574, 1.35166, 1.34899, 1.34953, 1.34416, 1.3389, 1.33731, 1.33818, 1.36125, 1.38763, 1.36263, 1.35795, 1.3079, 1.30302, 1.28641, 1.28439, 1.28757, 1.28921
1.6267, 1.61863, 1.60821, 1.60634, 1.60514, 1.64474, 1.64756, 1.71742, 1.66574, 1.56656, 1.55708, 1.55536, 1.55647, 1.54661, 1.53465, 1.51761, 1.51639, 1.50404, 1.50094, 1.49573, 1.49386, 1.4845, 1.46929, 1.48168, 1.46231, 1.46125, 1.52771, 1.74605, 1.40688, 1.43073, 1.42913, 1.4186, 1.40909, 1.40145, 1.39709, 1.39614, 1.39529, 1.38384, 1.37968, 1.37445, 1.36566, 1.36167, 1.35704, 1.35064, 1.34988, 1.34728, 1.35211, 1.34008, 1.34016, 1.3416, 1.35147, 1.35538, 1.37234, 1.36412, 1.3232, 1.309, 1.2899, 1.28813, 1.28826, 1.2994
1.64086, 1.62205, 1.624, 1.61059, 1.61276, 1.63997, 1.6616, 1.71178, 1.70106, 1.57448, 1.56653, 1.5512, 1.56475, 1.54342, 1.53464, 1.52119, 1.51637, 1.5086, 1.50188, 1.49766, 1.49178, 1.5032, 1.47115, 1.46877, 1.46415, 1.46068, 1.53048, 1.76936, 1.42365, 1.44842, 1.43594, 1.42212, 1.41235, 1.40355, 1.40225, 1.39936, 1.39228, 1.38748, 1.38288, 1.37763, 1.38173, 1.36357, 1.35899, 1.35702, 1.35524, 1.36457, 1.35297, 1.34181, 1.3436, 1.3441, 1.35681, 1.3679, 1.368, 1.36551, 1.31438, 1.31682, 1.29485, 1.29491, 1.2896, 1.29153
1.63904, 1.62187, 1.61654, 1.61455, 1.60571, 1.5998, 1.67497, 1.7166, 1.69949, 1.56986, 1.57207, 1.55448, 1.57388, 1.55523, 1.53716, 1.52079, 1.51322, 1.51038, 1.50467, 1.50963, 1.49474, 1.48554, 1.47287, 1.46985, 1.46896, 1.45791, 1.52004, 1.70414, 1.42198, 1.44693, 1.45101, 1.41747, 1.41446, 1.40918, 1.40358, 1.39966, 1.39556, 1.3871, 1.38339, 1.37867, 1.37374, 1.36489, 1.35855, 1.35649, 1.35455, 1.35504, 1.35091, 1.34363, 1.34332, 1.35012, 1.34013, 1.35717, 1.38255, 1.35836, 1.31944, 1.30656, 1.29525, 1.29495, 1.29467, 1.29509
1.65507, 1.63161, 1.61707, 1.61356, 1.61575, 1.63434, 1.69633, 1.72019, 1.64087, 1.57951, 1.57489, 1.55075, 1.56862, 1.54105, 1.54092, 1.54113, 1.52289, 1.50989, 1.50402, 1.49797, 1.493, 1.48561, 1.47504, 1.47081, 1.47194, 1.47867, 1.5402, 1.72935, 1.41947, 1.44807, 1.44264, 1.42328, 1.41473, 1.40969, 1.405, 1.39917, 1.39292, 1.38953, 1.38323, 1.38024, 1.37728, 1.36463, 1.36054, 1.35817, 1.35553, 1.3547, 1.35162, 1.344, 1.34529, 1.36551, 1.36879, 1.37029, 1.37526, 1.34459, 1.31287, 1.30983, 1.32688, 1.29431, 1.29275, 1.28971
1.65506, 1.62509, 1.62621, 1.61699, 1.62718, 1.64364, 1.66373, 1.72733, 1.74381, 1.57921, 1.57103, 1.55354, 1.54566, 1.5513, 1.54488, 1.52366, 1.52666, 1.51055, 1.50314, 1.49853, 1.49572, 1.48431, 1.47766, 1.47457, 1.47408, 1.4676, 1.53729, 1.7447, 1.40953, 1.44897, 1.43879, 1.42743, 1.41706, 1.41059, 1.40575, 1.40066, 1.39848, 1.39033, 1.392, 1.38177, 1.38257, 1.36426, 1.36066, 1.35678, 1.3587, 1.36023, 1.37026, 1.34512, 1.34522, 1.35762, 1.35836, 1.39649, 1.38813, 1.3736, 1.32467, 1.31698, 1.30287, 1.31247, 1.29383, 1.29241
1.67909, 1.62626, 1.61633, 1.61647, 1.6203, 1.6204, 1.65313, 1.70348, 1.67702, 1.58675, 1.56891, 1.55877, 1.5753, 1.54469, 1.53422, 1.52704, 1.52046, 1.50897, 1.50635, 1.50201, 1.49663, 1.48718, 1.48867, 1.47837, 1.47628, 1.45489, 1.66145, 1.733, 1.54421, 1.45316, 1.44356, 1.43357, 1.42195, 1.4155, 1.41192, 1.40322, 1.39688, 1.39397, 1.39379, 1.38856, 1.37766, 1.37145, 1.36164, 1.35855, 1.35936, 1.36152, 1.35894, 1.35047, 1.34664, 1.34948, 1.36221, 1.36487, 1.4346, 1.36049, 1.32291, 1.31626, 1.30624, 1.30202, 1.29725, 1.29397
1.67537, 1.6335, 1.62151, 1.6267, 1.62193, 1.62698, 1.67212, 1.7039, 1.665, 1.57615, 1.57393, 1.56157, 1.56251, 1.56089, 1.53577, 1.52623, 1.52021, 1.51512, 1.5064, 1.50109, 1.49652, 1.48748, 1.4843, 1.48118, 1.47866, 1.47116, 1.59287, 1.74565, 1.61563, 1.45544, 1.44382, 1.45335, 1.4225, 1.41857, 1.41317, 1.40716, 1.39907, 1.39644, 1.39416, 1.38781, 1.37811, 1.37187, 1.36403, 1.36064, 1.36002, 1.3621, 1.3571, 1.35235, 1.34993, 1.35856, 1.3545, 1.37611, 1.38189, 1.35364, 1.32854, 1.32278, 1.30721, 1.30442, 1.30549, 1.30163
1.68901, 1.643, 1.6328, 1.62012, 1.61884, 1.63437, 1.67814, 1.7092, 1.61342, 1.57448, 1.56649, 1.55641, 1.56413, 1.57117, 1.54093, 1.53191, 1.52175, 1.51666, 1.5115, 1.50215, 1.49804, 1.49268, 1.48916, 1.48235, 1.48896, 1.45688, 1.59526, 1.74951, 1.43319, 1.45821, 1.44791, 1.44901, 1.42348, 1.42388, 1.41714, 1.409, 1.40234, 1.3971, 1.39511, 1.39217, 1.38896, 1.37191, 1.36497, 1.35817, 1.35939, 1.36041, 1.36105, 1.35498, 1.35081, 1.36444, 1.36523, 1.37356, 1.39088, 1.33687, 1.33758, 1.32791, 1.32308, 1.3125, 1.30942, 1.32206
1.67469, 1.64203, 1.62725, 1.62361, 1.62279, 1.64006, 1.67664, 1.69487, 1.63304, 1.56189, 1.58846, 1.56072, 1.554, 1.56869, 1.53762, 1.53108, 1.52603, 1.51752, 1.51104, 1.50433, 1.50231, 1.49384, 1.48954, 1.49598, 1.48556, 1.45113, 1.67913, 1.74056, 1.61836, 1.45725, 1.44566, 1.43899, 1.42675, 1.42239, 1.42104, 1.41045, 1.40348, 1.40066, 1.39656, 1.39585, 1.3849, 1.37518, 1.36586, 1.36492, 1.36081, 1.36006, 1.35564, 1.35221, 1.35, 1.35103, 1.36364, 1.38217, 1.39749, 1.39085, 1.34082, 1.32327, 1.32028, 1.30876, 1.30708, 1.31711
1.68781, 1.63028, 1.62597, 1.6406, 1.62756, 1.64692, 1.67934, 1.71995, 1.72166, 1.58082, 1.58275, 1.56241, 1.56463, 1.55873, 1.55402, 1.5345, 1.52704, 1.51961, 1.51151, 1.50893, 1.50081, 1.49606, 1.50406, 1.48261, 1.48081, 1.47964, 1.69018, 1.75127, 1.60872, 1.462, 1.46458, 1.45844, 1.43252, 1.42234, 1.4176, 1.41052, 1.40713, 1.40707, 1.3997, 1.3936, 1.38912, 1.37879, 1.36843, 1.36331, 1.36013, 1.35742, 1.35497, 1.35096, 1.34977, 1.36167, 1.37815, 1.39905, 1.39605, 1.39185, 1.34785, 1.32763, 1.31315, 1.30892, 1.30755, 1.30786
1.6709, 1.65036, 1.62838, 1.6231, 1.62657, 1.61262, 1.66402, 1.7474, 1.66515, 1.59603, 1.58603, 1.56181, 1.55695, 1.56454, 1.53861, 1.53748, 1.52734, 1.52087, 1.51367, 1.5062, 1.50211, 1.49849, 1.49418, 1.48801, 1.48794, 1.45579, 1.679, 1.72139, 1.61345, 1.48092, 1.44755, 1.44751, 1.42841, 1.42364, 1.42135, 1.41333, 1.40591, 1.40273, 1.40016, 1.39673, 1.38983, 1.37791, 1.36999, 1.36325, 1.35896, 1.35655, 1.35417, 1.36205, 1.35081, 1.3544, 1.37605, 1.38113, 1.41661, 1.42495, 1.3567, 1.33457, 1.32086, 1.32581, 1.30756, 1.30878
1.65429, 1.63473, 1.63205, 1.62071, 1.62637, 1.6417, 1.67849, 1.72379, 1.62893, 1.58262, 1.58287, 1.56159, 1.55775, 1.57538, 1.54434, 1.54116, 1.52762, 1.5245, 1.53213, 1.50931, 1.5033, 1.50253, 1.49531, 1.51376, 1.48582, 1.47519, 1.66221, 1.71142, 1.47203, 1.4545, 1.46354, 1.43872, 1.43443, 1.42483, 1.42202, 1.41676, 1.40943, 1.40507, 1.40248, 1.39886, 1.38806, 1.38292, 1.37196, 1.36661, 1.36114, 1.35719, 1.35515, 1.36136, 1.35326, 1.35755, 1.34697, 1.41702, 1.42138, 1.39502, 1.3409, 1.32983, 1.32643, 1.30758, 1.30741, 1.30981
1.66573, 1.64926, 1.63695, 1.6391, 1.63695, 1.63857, 1.67673, 1.73852, 1.70271, 1.59386, 1.58103, 1.56725, 1.57171, 1.57658, 1.5455, 1.54469, 1.5337, 1.52599, 1.51643, 1.50808, 1.50374, 1.50226, 1.49623, 1.49797, 1.48837, 1.48072, 1.64786, 1.71967, 1.44659, 1.46149, 1.46789, 1.43969, 1.43218, 1.42718, 1.42532, 1.41804, 1.41222, 1.4066, 1.40547, 1.40053, 1.3921, 1.3824, 1.3715, 1.36791, 1.36442, 1.36102, 1.35806, 1.36482, 1.35766, 1.36565, 1.36164, 1.39097, 1.41213, 1.34274, 1.32934, 1.33233, 1.32968, 1.31059, 1.3092, 1.31394
1.65449, 1.66445, 1.63377, 1.63371, 1.62525, 1.63841, 1.66591, 1.74157, 1.73456, 1.58862, 1.58466, 1.58615, 1.57235, 1.57842, 1.54779, 1.54734, 1.5349, 1.52372, 1.51812, 1.50975, 1.50399, 1.50284, 1.49734, 1.49477, 1.48657, 1.47169, 1.66559, 1.72975, 1.66167, 1.45787, 1.4673, 1.44308, 1.43468, 1.42829, 1.42397, 1.4189, 1.40936, 1.40551, 1.40409, 1.40214, 1.39875, 1.38715, 1.37809, 1.37197, 1.37028, 1.36233, 1.36112, 1.35886, 1.37417, 1.36813, 1.38664, 1.38439, 1.47488, 1.40608, 1.35048, 1.32975, 1.33143, 1.31362, 1.3189, 1.30551
1.64322, 1.64071, 1.64331, 1.63466, 1.63328, 1.69345, 1.67712, 1.75191, 1.70497, 1.59048, 1.59012, 1.57232, 1.57596, 1.55723, 1.56019, 1.54869, 1.53471, 1.52919, 1.52115, 1.50943, 1.50474, 1.50218, 1.49788, 1.49097, 1.4858, 1.46877, 1.66339, 1.73069, 1.57055, 1.46771, 1.45122, 1.45514, 1.43017, 1.42759, 1.42218, 1.41927, 1.41265, 1.40927, 1.40337, 1.40181, 1.39901, 1.38746, 1.38196, 1.37253, 1.3682, 1.36458, 1.36125, 1.35669, 1.36046, 1.36731, 1.36246, 1.39364, 1.41595, 1.4008, 1.33987, 1.33803, 1.31737, 1.31405, 1.30625, 1.30624
1.6557, 1.66046, 1.63724, 1.62716, 1.62545, 1.59927, 1.69237, 1.75908, 1.76276, 1.5751, 1.57784, 1.5676, 1.55626, 1.56171, 1.56702, 1.55409, 1.53678, 1.52986, 1.52441, 1.51272, 1.50517, 1.50166, 1.49639, 1.49975, 1.48482, 1.48269, 1.58531, 1.72039, 1.55801, 1.45474, 1.4464, 1.44098, 1.43064, 1.42711, 1.4261, 1.41918, 1.41328, 1.40863, 1.40162, 1.40261, 1.39919, 1.39247, 1.38358, 1.38125, 1.36915, 1.36583, 1.36352, 1.36112, 1.35071, 1.35345, 1.34801, 1.3789, 1.41467, 1.4003, 1.3377, 1.32978, 1.31991, 1.33287, 1.30626, 1.30187
1.64894, 1.65438, 1.64393, 1.63763, 1.62434, 1.62667, 1.67319, 1.75566, 1.72645, 1.58722, 1.58568, 1.5648, 1.56368, 1.56765, 1.56834, 1.55025, 1.53494, 1.53147, 1.51669, 1.51081, 1.50578, 1.49953, 1.49387, 1.49495, 1.48477, 1.48678, 1.63735, 1.70263, 1.61029, 1.45717, 1.44776, 1.44268, 1.43073, 1.42932, 1.42412, 1.41932, 1.41546, 1.40372, 1.40123, 1.40227, 1.39908, 1.39184, 1.38528, 1.37563, 1.37057, 1.36856, 1.36727, 1.36032, 1.35002, 1.35351, 1.37903, 1.3932, 1.41332, 1.40651, 1.34267, 1.33285, 1.32077, 1.34342, 1.31626, 1.30692
1.65183, 1.65838, 1.64168, 1.62732, 1.6219, 1.64955, 1.67338, 1.75124, 1.69587, 1.59165, 1.57513, 1.56573, 1.56162, 1.5509, 1.56346, 1.55115, 1.53402, 1.53302, 1.52319, 1.51211, 1.50711, 1.50299, 1.49877, 1.48726, 1.48455, 1.49359, 1.64074, 1.66156, 1.61342, 1.46184, 1.46024, 1.44504, 1.4312, 1.42692, 1.42348, 1.41921, 1.41277, 1.40556, 1.40162, 1.40082, 1.39745, 1.39446, 1.39245, 1.37911, 1.37412, 1.37134, 1.36886, 1.36871, 1.3529, 1.3513, 1.35865, 1.39478, 1.42387, 1.41443, 1.33897, 1.33285, 1.32222, 1.31481, 1.31241, 1.30482
1.65583, 1.66554, 1.65572, 1.64418, 1.62489, 1.60985, 1.70926, 1.72093, 1.75941, 1.60203, 1.58573, 1.56678, 1.56215, 1.56569, 1.56457, 1.55006, 1.53529, 1.52992, 1.52207, 1.51322, 1.5064, 1.50115, 1.49705, 1.49256, 1.49908, 1.47816, 1.64448, 1.67709, 1.64462, 1.46001, 1.45821, 1.43875, 1.4315, 1.42638, 1.42065, 1.41415, 1.41292, 1.40578, 1.40731, 1.39913, 1.40123, 1.39238, 1.39105, 1.37999, 1.37457, 1.37242, 1.37218, 1.36457, 1.35561, 1.35419, 1.37524, 1.40352, 1.4118, 1.41307, 1.35046, 1.33786, 1.32124, 1.31426, 1.31003, 1.30558
1.65938, 1.67635, 1.65168, 1.64411, 1.62706, 1.65102, 1.7114, 1.74536, 1.75804, 1.59639, 1.5791, 1.57441, 1.56342, 1.55159, 1.56326, 1.55552, 1.53794, 1.535, 1.52427, 1.51613, 1.5159, 1.50485, 1.49946, 1.49031, 1.48698, 1.50246, 1.61371, 1.68724, 1.62271, 1.45493, 1.45906, 1.44005, 1.43271, 1.42722, 1.4224, 1.4169, 1.41219, 1.40696, 1.40224, 1.39868, 1.39829, 1.3924, 1.39134, 1.38527, 1.37587, 1.37497, 1.37343, 1.37028, 1.3648, 1.35729, 1.40542, 1.40091, 1.42338, 1.41607, 1.34503, 1.34527, 1.32709, 1.3183, 1.31221, 1.30909
1.65951, 1.68146, 1.63962, 1.63973, 1.62606, 1.60885, 1.70343, 1.75671, 1.73207, 1.60299, 1.59694, 1.57549, 1.568, 1.55907, 1.56129, 1.54771, 1.5378, 1.53449, 1.53362, 1.51823, 1.51284, 1.50801, 1.49883, 1.48999, 1.48734, 1.48193, 1.62355, 1.70312, 1.50108, 1.43687, 1.4605, 1.44493, 1.43045, 1.42658, 1.42382, 1.42032, 1.41767, 1.40618, 1.40302, 1.39889, 1.39595, 1.39355, 1.38648, 1.38155, 1.37604, 1.37495, 1.37281, 1.36577, 1.36463, 1.36842, 1.37727, 1.40525, 1.42712, 1.41504, 1.34614, 1.3482, 1.32548, 1.3296, 1.31405, 1.30941
1.67193, 1.66551, 1.65425, 1.63532, 1.62486, 1.64088, 1.69663, 1.73869, 1.69625, 1.58933, 1.5882, 1.57361, 1.58208, 1.56215, 1.55538, 1.54565, 1.53967, 1.53634, 1.53148, 1.51867, 1.51563, 1.51041, 1.50247, 1.50626, 1.48796, 1.49078, 1.56878, 1.69803, 1.62009, 1.44373, 1.45831, 1.43776, 1.44388, 1.42461, 1.42364, 1.42277, 1.41214, 1.40966, 1.40287, 1.39953, 1.39914, 1.39237, 1.38823, 1.38081, 1.37607, 1.37243, 1.37088, 1.36826, 1.36374, 1.36526, 1.37225, 1.40508, 1.44674, 1.44975, 1.36104, 1.3414, 1.32629, 1.31586, 1.31593, 1.30952
1.67671, 1.65375, 1.66904, 1.63791, 1.62257, 1.61098, 1.71698, 1.75758, 1.72431, 1.58917, 1.59656, 1.57975, 1.57528, 1.55868, 1.57616, 1.54706, 1.53932, 1.53497, 1.5294, 1.52202, 1.51367, 1.50712, 1.50195, 1.495, 1.49044, 1.49491, 1.64412, 1.68897, 1.458, 1.45125, 1.45123, 1.43985, 1.43482, 1.43133, 1.42583, 1.42173, 1.4157, 1.41083, 1.40387, 1.40122, 1.39936, 1.39924, 1.38962, 1.38022, 1.37808, 1.37397, 1.37142, 1.36899, 1.36851, 1.36377, 1.36438, 1.43339, 1.44399, 1.43058, 1.34691, 1.33553, 1.32537, 1.32696, 1.31425, 1.30888
1.66155, 1.64768, 1.67161, 1.64425, 1.62655, 1.64361, 1.73944, 1.73022, 1.7129, 1.58716, 1.59956, 1.58264, 1.57392, 1.56146, 1.55764, 1.54643, 1.54056, 1.5329, 1.53112, 1.52257, 1.51448, 1.50802, 1.50162, 1.49366, 1.49261, 1.4988, 1.52834, 1.69587, 1.56207, 1.45457, 1.4531, 1.44284, 1.43803, 1.43663, 1.42624, 1.42332, 1.41798, 1.41339, 1.4038, 1.40142, 1.39857, 1.39523, 1.38628, 1.38239, 1.37891, 1.37719, 1.38962, 1.36905, 1.36654, 1.36528, 1.34313, 1.41438, 1.45406, 1.44722, 1.34933, 1.35362, 1.32526, 1.31632, 1.31305, 1.3081
1.66095, 1.65513, 1.65469, 1.63713, 1.63801, 1.61418, 1.69347, 1.79311, 1.77646, 1.59589, 1.58867, 1.58368, 1.57803, 1.56466, 1.56652, 1.55285, 1.53907, 1.53392, 1.53145, 1.52172, 1.51913, 1.50922, 1.50044, 1.49775, 1.49506, 1.50653, 1.62806, 1.6953, 1.51304, 1.465, 1.45521, 1.44404, 1.44035, 1.43385, 1.42926, 1.42566, 1.41953, 1.41223, 1.40658, 1.40623, 1.39917, 1.39842, 1.39574, 1.38347, 1.38052, 1.37462, 1.40073, 1.36869, 1.36701, 1.36947, 1.37202, 1.44476, 1.47718, 1.44643, 1.35382, 1.34411, 1.31956, 1.31981, 1.31352, 1.30962
1.65824, 1.65186, 1.67155, 1.64707, 1.6441, 1.62663, 1.60971, 1.76516, 1.76474, 1.60665, 1.60322, 1.58546, 1.5766, 1.56247, 1.57897, 1.55551, 1.54258, 1.54063, 1.53079, 1.52935, 1.52007, 1.51363, 1.50959, 1.50041, 1.49642, 1.50509, 1.57656, 1.70292, 1.61319, 1.45699, 1.46458, 1.44862, 1.4403, 1.43747, 1.43044, 1.42685, 1.42329, 1.41565, 1.41299, 1.40851, 1.40471, 1.3992, 1.39513, 1.38631, 1.38075, 1.37867, 1.37481, 1.38199, 1.36929, 1.36873, 1.3757, 1.4269, 1.45482, 1.45639, 1.34041, 1.35062, 1.32839, 1.32005, 1.31383, 1.31302
1.65747, 1.65884, 1.67977, 1.66574, 1.65477, 1.67499, 1.7519, 1.7891, 1.75122, 1.6164, 1.5996, 1.58597, 1.58121, 1.56988, 1.56206, 1.55818, 1.5547, 1.53721, 1.53079, 1.52537, 1.51946, 1.51296, 1.50516, 1.5022, 1.49764, 1.49119, 1.55151, 1.68188, 1.62076, 1.46152, 1.46549, 1.45216, 1.44194, 1.43785, 1.43308, 1.42884, 1.4264, 1.4178, 1.41773, 1.41088, 1.40614, 1.40171, 1.39786, 1.38861, 1.38255, 1.38051, 1.38622, 1.37227, 1.36816, 1.37438, 1.36053, 1.43283, 1.45523, 1.45517, 1.3507, 1.33978, 1.33199, 1.33288, 1.31663, 1.31633
1.66097, 1.65208, 1.66482, 1.6538, 1.65597, 1.63515, 1.7202, 1.79304, 1.75541, 1.60546, 1.59623, 1.59878, 1.58155, 1.57502, 1.57588, 1.56501, 1.54777, 1.54151, 1.53283, 1.52596, 1.52056, 1.51194, 1.50571, 1.5036, 1.49719, 1.49493, 1.56178, 1.6929, 1.6292, 1.4692, 1.46597, 1.45689, 1.44467, 1.43638, 1.43176, 1.42819, 1.42903, 1.42228, 1.41468, 1.41168, 1.40574, 1.40097, 1.39551, 1.39052, 1.38494, 1.38101, 1.3741, 1.37257, 1.36982, 1.36808, 1.34962, 1.42651, 1.44458, 1.42626, 1.36237, 1.34665, 1.33087, 1.32634, 1.32184, 1.3185
1.65884, 1.6566, 1.66546, 1.67198, 1.6452, 1.62914, 1.71925, 1.79635, 1.75226, 1.61052, 1.60742, 1.58415, 1.5878, 1.57597, 1.57844, 1.57491, 1.56088, 1.53867, 1.53285, 1.52492, 1.52004, 1.53774, 1.51815, 1.50327, 1.50973, 1.49368, 1.56335, 1.69624, 1.52694, 1.47941, 1.47148, 1.46059, 1.44561, 1.44145, 1.43227, 1.43053, 1.42666, 1.42019, 1.41599, 1.41238, 1.40789, 1.39988, 1.39491, 1.38621, 1.38357, 1.37604, 1.37243, 1.37125, 1.36827, 1.37352, 1.38635, 1.43668, 1.45397, 1.4857, 1.38903, 1.34328, 1.32926, 1.32674, 1.32119, 1.32705
1.66112, 1.65857, 1.66424, 1.66085, 1.64969, 1.64138, 1.6723, 1.77586, 1.70929, 1.62435, 1.61122, 1.58495, 1.5812, 1.57494, 1.57375, 1.56762, 1.54729, 1.54167, 1.53319, 1.52563, 1.51959, 1.51471, 1.51191, 1.50251, 1.4988, 1.49638, 1.54106, 1.7083, 1.5367, 1.47548, 1.47969, 1.46058, 1.44475, 1.43922, 1.43393, 1.43013, 1.42597, 1.4236, 1.41781, 1.41226, 1.40663, 1.39907, 1.39637, 1.38782, 1.38166, 1.37819, 1.37152, 1.3707, 1.36599, 1.37089, 1.35759, 1.45457, 1.50267, 1.43801, 1.34273, 1.34487, 1.32926, 1.32612, 1.31984, 1.32106
1.66523, 1.6647, 1.65751, 1.68194, 1.65022, 1.6374, 1.72767, 1.74126, 1.76584, 1.61775, 1.61939, 1.58694, 1.58443, 1.57539, 1.57106, 1.57443, 1.55251, 1.53863, 1.53335, 1.52828, 1.52239, 1.5178, 1.5096, 1.5034, 1.50113, 1.49751, 1.56476, 1.70298, 1.60112, 1.47759, 1.47714, 1.4642, 1.44754, 1.44058, 1.43391, 1.43027, 1.42627, 1.42498, 1.41771, 1.41336, 1.40996, 1.39836, 1.39332, 1.38454, 1.38063, 1.37604, 1.37131, 1.37025, 1.3659, 1.3823, 1.39878, 1.45597, 1.46453, 1.46304, 1.3507, 1.35141, 1.32985, 1.32558, 1.32168, 1.32972
1.67085, 1.6631, 1.65894, 1.67519, 1.65715, 1.63717, 1.72996, 1.68905, 1.76483, 1.5829, 1.60364, 1.58783, 1.59326, 1.57495, 1.56859, 1.57143, 1.56095, 1.54489, 1.53345, 1.5298, 1.52317, 1.51668, 1.50986, 1.50818, 1.50245, 1.51409, 1.57012, 1.6753, 1.57189, 1.48514, 1.47577, 1.47183, 1.46138, 1.44397, 1.4368, 1.4319, 1.42754, 1.42561, 1.42005, 1.41622, 1.41168, 1.40133, 1.39244, 1.38655, 1.38464, 1.37628, 1.37039, 1.36872, 1.36787, 1.37826, 1.35744, 1.47406, 1.46798, 1.42663, 1.34329, 1.35768, 1.33202, 1.32635, 1.32306, 1.33361
1.67342, 1.66569, 1.6645, 1.66165, 1.65423, 1.62721, 1.69838, 1.78272, 1.76338, 1.58286, 1.61266, 1.58803, 1.58356, 1.57319, 1.57958, 1.59246, 1.55418, 1.54402, 1.53941, 1.53366, 1.52406, 1.52287, 1.51317, 1.50885, 1.50265, 1.48178, 1.56724, 1.66162, 1.62712, 1.46944, 1.47982, 1.47127, 1.4512, 1.44766, 1.44381, 1.43329, 1.43169, 1.42628, 1.42152, 1.41795, 1.41306, 1.40327, 1.39881, 1.38893, 1.38187, 1.37507, 1.37041, 1.369, 1.36939, 1.38126, 1.41166, 1.44453, 1.49544, 1.46387, 1.3554, 1.33713, 1.33389, 1.32815, 1.3264, 1.32446
1.6753, 1.66632, 1.67499, 1.67221, 1.65473, 1.63065, 1.68569, 1.79391, 1.7372, 1.6195, 1.61038, 1.58534, 1.57965, 1.57468, 1.57211, 1.57896, 1.56414, 1.54499, 1.54041, 1.53419, 1.52706, 1.51677, 1.51644, 1.52249, 1.51941, 1.50011, 1.6214, 1.69247, 1.63062, 1.45107, 1.48868, 1.46407, 1.47484, 1.44817, 1.43845, 1.43599, 1.43109, 1.42592, 1.42313, 1.41766, 1.41162, 1.40304, 1.39949, 1.39171, 1.38329, 1.37632, 1.3746, 1.37193, 1.37122, 1.38856, 1.36611, 1.47215, 1.46257, 1.42202, 1.35326, 1.34786, 1.33455, 1.33446, 1.32376, 1.33571
1.67252, 1.66526, 1.66874, 1.67208, 1.65185, 1.62158, 1.72582, 1.76513, 1.70325, 1.6145, 1.59865, 1.58993, 1.57954, 1.57576, 1.58916, 1.60328, 1.5781, 1.54455, 1.54126, 1.53361, 1.52949, 1.51689, 1.51653, 1.50571, 1.50657, 1.47318, 1.57118, 1.69955, 1.55497, 1.46949, 1.4931, 1.46884, 1.46599, 1.45025, 1.44292, 1.43684, 1.43267, 1.42932, 1.4224, 1.4167, 1.41094, 1.406, 1.39985, 1.39146, 1.38804, 1.38096, 1.37689, 1.37225, 1.37915, 1.38422, 1.37801, 1.45171, 1.46886, 1.39819, 1.36649, 1.34697, 1.33259, 1.33547, 1.32339, 1.33176
1.67342, 1.67264, 1.66095, 1.66982, 1.65461, 1.63664, 1.77927, 1.80691, 1.7557, 1.5996, 1.59666, 1.5881, 1.58196, 1.57598, 1.58353, 1.5962, 1.55708, 1.54787, 1.54188, 1.53565, 1.53013, 1.52328, 1.51916, 1.51315, 1.50573, 1.50495, 1.56249, 1.69349, 1.61376, 1.47283, 1.47518, 1.4724, 1.46061, 1.45211, 1.44156, 1.44319, 1.43457, 1.42736, 1.42292, 1.42031, 1.41613, 1.40825, 1.40093, 1.39543, 1.38812, 1.38405, 1.37629, 1.37611, 1.37575, 1.38341, 1.3864, 1.43886, 1.47192, 1.43967, 1.34355, 1.34302, 1.3362, 1.33325, 1.32668, 1.32651
1.67506, 1.6629, 1.65846, 1.69655, 1.64805, 1.6475, 1.67767, 1.77062, 1.80859, 1.60422, 1.60787, 1.58818, 1.58425, 1.57847, 1.57082, 1.60395, 1.55493, 1.54942, 1.54338, 1.53665, 1.53024, 1.54103, 1.53384, 1.51051, 1.50866, 1.48493, 1.55435, 1.67647, 1.64196, 1.47178, 1.48547, 1.47708, 1.46509, 1.45694, 1.444, 1.44184, 1.43742, 1.43125, 1.42211, 1.41935, 1.41392, 1.407, 1.40247, 1.3931, 1.38878, 1.38394, 1.37797, 1.37766, 1.38036, 1.38479, 1.3892, 1.46069, 1.46596, 1.47405, 1.35345, 1.34128, 1.33471, 1.33151, 1.32957, 1.32692
1.6815, 1.66546, 1.66605, 1.68131, 1.66146, 1.63442, 1.66446, 1.8399, 1.81711, 1.60739, 1.60734, 1.60785, 1.58597, 1.58885, 1.57437, 1.59549, 1.56895, 1.55097, 1.55394, 1.54078, 1.53861, 1.52541, 1.5195, 1.51609, 1.51762, 1.50278, 1.56145, 1.66795, 1.61378, 1.4539, 1.4758, 1.47464, 1.46493, 1.4557, 1.45116, 1.44325, 1.4395, 1.4304, 1.42919, 1.41958, 1.41445, 1.41246, 1.40614, 1.39871, 1.38985, 1.38451, 1.38063, 1.37942, 1.3797, 1.3831, 1.39537, 1.47844, 1.46871, 1.46847, 1.36024, 1.34454, 1.33918, 1.33729, 1.33045, 1.32872
1.6787, 1.66893, 1.65997, 1.68061, 1.65719, 1.66227, 1.68568, 1.81575, 1.74467, 1.59671, 1.61805, 1.59551, 1.59243, 1.58071, 1.57328, 1.58651, 1.58593, 1.55621, 1.54783, 1.54227, 1.53406, 1.52012, 1.5187, 1.52507, 1.51189, 1.52347, 1.51143, 1.70735, 1.68407, 1.51184, 1.47797, 1.47058, 1.47781, 1.45842, 1.45178, 1.44766, 1.44295, 1.43358, 1.42967, 1.42031, 1.41969, 1.41203, 1.40723, 1.39672, 1.39296, 1.39004, 1.38615, 1.38173, 1.38551, 1.3842, 1.39516, 1.46036, 1.47962, 1.42239, 1.33449, 1.3643, 1.33884, 1.33606, 1.33514, 1.33373
1.67552, 1.66679, 1.65856, 1.67768, 1.64918, 1.65104, 1.69518, 1.83715, 1.82796, 1.6244, 1.61328, 1.59836, 1.58738, 1.58216, 1.57816, 1.58989, 1.57982, 1.55207, 1.54972, 1.54215, 1.53499, 1.53299, 1.52089, 1.51836, 1.51201, 1.51675, 1.57946, 1.6875, 1.65107, 1.47764, 1.48872, 1.47449, 1.46276, 1.45593, 1.44974, 1.44545, 1.44067, 1.43419, 1.42976, 1.4214, 1.41849, 1.41078, 1.40587, 1.40017, 1.39661, 1.38859, 1.38536, 1.38159, 1.38459, 1.38895, 1.37999, 1.4721, 1.48264, 1.48972, 1.36062, 1.35778, 1.34019, 1.33918, 1.33464, 1.33391
1.67552, 1.66626, 1.67209, 1.67542, 1.65765, 1.65099, 1.75418, 1.79581, 1.78322, 1.64599, 1.6096, 1.59889, 1.58741, 1.58448, 1.57469, 1.57143, 1.5658, 1.55174, 1.54727, 1.54056, 1.53546, 1.52426, 1.52044, 1.51185, 1.50991, 1.51348, 1.56717, 1.6815, 1.58294, 1.44426, 1.46863, 1.4686, 1.458, 1.45124, 1.44903, 1.44501, 1.44042, 1.43351, 1.43177, 1.42713, 1.41882, 1.41194, 1.40597, 1.39859, 1.39496, 1.39046, 1.38552, 1.38116, 1.38044, 1.38675, 1.36296, 1.48902, 1.49149, 1.49537, 1.33398, 1.36468, 1.34048, 1.33825, 1.33612, 1.33066
1.67527, 1.665, 1.6616, 1.66687, 1.68287, 1.63751, 1.75184, 1.80994, 1.81727, 1.59192, 1.61721, 1.59586, 1.59043, 1.5809, 1.57568, 1.57191, 1.58676, 1.55138, 1.54744, 1.53961, 1.53636, 1.5247, 1.51945, 1.50999, 1.50914, 1.51256, 1.50512, 1.48627, 1.64012, 1.43777, 1.48816, 1.46739, 1.45788, 1.4516, 1.44681, 1.44167, 1.43783, 1.43437, 1.43097, 1.4235, 1.41962, 1.41418, 1.40812, 1.40292, 1.39616, 1.39095, 1.38624, 1.38203, 1.38085, 1.4034, 1.37456, 1.4751, 1.48403, 1.48414, 1.42632, 1.36017, 1.34324, 1.34286, 1.33727, 1.33342
1.67536, 1.6641, 1.65567, 1.67488, 1.6733, 1.64141, 1.68527, 1.82717, 1.78948, 1.60857, 1.60397, 1.59345, 1.59022, 1.58021, 1.57342, 1.56896, 1.56787, 1.54954, 1.54386, 1.5392, 1.52886, 1.5207, 1.52256, 1.50911, 1.52026, 1.50979, 1.62926, 1.67607, 1.68262, 1.44042, 1.48353, 1.46364, 1.45475, 1.44774, 1.44455, 1.43969, 1.43705, 1.43166, 1.42738, 1.4235, 1.42423, 1.41134, 1.40866, 1.41061, 1.39943, 1.39134, 1.38592, 1.38534, 1.37987, 1.39021, 1.38169, 1.44768, 1.48164, 1.4872, 1.34051, 1.34822, 1.34512, 1.3404, 1.33447, 1.33258
1.67869, 1.66605, 1.66303, 1.65845, 1.66921, 1.64429, 1.71175, 1.84095, 1.73385, 1.61149, 1.61704, 1.59234, 1.58308, 1.57603, 1.57432, 1.56793, 1.57161, 1.56037, 1.54746, 1.53774, 1.52958, 1.51979, 1.5188, 1.50902, 1.50432, 1.51077, 1.62089, 1.70308, 1.58647, 1.45812, 1.48113, 1.47808, 1.45131, 1.44664, 1.44286, 1.44034, 1.4315, 1.42965, 1.42769, 1.42402, 1.41923, 1.42003, 1.41091, 1.4057, 1.39969, 1.39516, 1.387, 1.38279, 1.39179, 1.38446, 1.38589, 1.46295, 1.48898, 1.48851, 1.33758, 1.34821, 1.3623, 1.36131, 1.33584, 1.32937
1.67467, 1.6727, 1.66129, 1.67328, 1.68936, 1.64588, 1.70434, 1.77508, 1.7974, 1.61663, 1.61904, 1.60393, 1.59333, 1.57959, 1.572, 1.56643, 1.572, 1.55254, 1.54374, 1.5421, 1.53514, 1.5221, 1.50961, 1.50352, 1.50338, 1.51452, 1.61195, 1.71992, 1.64112, 1.46146, 1.48128, 1.45876, 1.46365, 1.4463, 1.44332, 1.44638, 1.43739, 1.43187, 1.42819, 1.42166, 1.41835, 1.41603, 1.40959, 1.40895, 1.40234, 1.39219, 1.38699, 1.38464, 1.39362, 1.39506, 1.39112, 1.4429, 1.49644, 1.49927, 1.38532, 1.35913, 1.35733, 1.34093, 1.33475, 1.32791
1.67615, 1.66908, 1.6561, 1.65844, 1.65801, 1.63631, 1.73058, 1.83438, 1.81583, 1.61809, 1.60759, 1.60323, 1.58332, 1.57694, 1.57135, 1.56717, 1.56196, 1.56147, 1.54261, 1.54166, 1.52808, 1.52307, 1.50954, 1.51899, 1.51712, 1.4785, 1.54361, 1.68555, 1.62503, 1.45476, 1.46576, 1.46494, 1.45077, 1.44378, 1.44241, 1.43442, 1.43024, 1.43053, 1.42838, 1.42262, 1.41602, 1.41362, 1.40985, 1.40508, 1.39888, 1.38867, 1.40624, 1.38278, 1.40281, 1.39678, 1.38128, 1.45403, 1.51011, 1.4651, 1.32058, 1.35578, 1.34449, 1.34169, 1.33362, 1.33003
1.67611, 1.66691, 1.65757, 1.64996, 1.66865, 1.65841, 1.70648, 1.83034, 1.84136, 1.59792, 1.60776, 1.59918, 1.58449, 1.57668, 1.56684, 1.56034, 1.55415, 1.55287, 1.54092, 1.54132, 1.52468, 1.52098, 1.5026, 1.49934, 1.49955, 1.51736, 1.53764, 1.6769, 1.6362, 1.48607, 1.47093, 1.47033, 1.44902, 1.44643, 1.44066, 1.43411, 1.42824, 1.42814, 1.42668, 1.4196, 1.41449, 1.41189, 1.40754, 1.40255, 1.38942, 1.38581, 1.38258, 1.38814, 1.37627, 1.38231, 1.392, 1.49342, 1.51964, 1.51231, 1.33757, 1.35332, 1.34402, 1.33885, 1.33101, 1.33243
1.67579, 1.67043, 1.66223, 1.66044, 1.67553, 1.64653, 1.6727, 1.82683, 1.82767, 1.6236, 1.60586, 1.61576, 1.58592, 1.57867, 1.57311, 1.56498, 1.57315, 1.54723, 1.5425, 1.54002, 1.53073, 1.51972, 1.50482, 1.49952, 1.50537, 1.51395, 1.61013, 1.63022, 1.63403, 1.43322, 1.48008, 1.46962, 1.45109, 1.44771, 1.44593, 1.43773, 1.42944, 1.42952, 1.43613, 1.42245, 1.41606, 1.41289, 1.40392, 1.39995, 1.39625, 1.38838, 1.38544, 1.38101, 1.38091, 1.38452, 1.3967, 1.48242, 1.49534, 1.50156, 1.32015, 1.3762, 1.34547, 1.33945, 1.34479, 1.32952
1.67852, 1.68208, 1.66641, 1.6589, 1.67386, 1.62269, 1.64433, 1.83372, 1.82688, 1.60989, 1.61958, 1.60048, 1.58935, 1.59615, 1.58333, 1.5648, 1.57895, 1.5566, 1.5543, 1.54546, 1.53794, 1.5231, 1.51356, 1.50307, 1.50682, 1.51312, 1.59657, 1.66388, 1.6584, 1.45834, 1.48179, 1.46872, 1.45688, 1.45341, 1.44676, 1.44052, 1.43248, 1.43375, 1.42972, 1.42429, 1.41964, 1.41986, 1.40551, 1.40245, 1.40045, 1.3911, 1.39069, 1.38354, 1.38284, 1.40384, 1.37252, 1.44777, 1.50426, 1.50602, 1.3409, 1.36151, 1.3484, 1.34363, 1.33872, 1.33284
1.68684, 1.68111, 1.67315, 1.67119, 1.68153, 1.62169, 1.6411, 1.8218, 1.85087, 1.61397, 1.61523, 1.60579, 1.59212, 1.59351, 1.58777, 1.56548, 1.56359, 1.58107, 1.56383, 1.54682, 1.54454, 1.5252, 1.52344, 1.51886, 1.51902, 1.52164, 1.58592, 1.65656, 1.65472, 1.46612, 1.47099, 1.47592, 1.46066, 1.45866, 1.44895, 1.44041, 1.43482, 1.43999, 1.44786, 1.42657, 1.42573, 1.42073, 1.41075, 1.40616, 1.40547, 1.39486, 1.39137, 1.38407, 1.385, 1.38883, 1.374, 1.45425, 1.51772, 1.51437, 1.36354, 1.37121, 1.35538, 1.34782, 1.34643, 1.33698
1.69069, 1.68365, 1.67726, 1.67511, 1.67665, 1.64026, 1.63781, 1.85989, 1.84523, 1.61629, 1.6179, 1.60944, 1.59689, 1.58999, 1.58981, 1.57547, 1.56763, 1.58342, 1.56064, 1.55086, 1.54301, 1.53881, 1.52677, 1.51991, 1.52096, 1.54392, 1.59155, 1.67976, 1.64024, 1.47778, 1.49034, 1.47969, 1.48378, 1.46186, 1.45773, 1.44766, 1.44111, 1.44492, 1.44317, 1.43304, 1.42946, 1.4248, 1.41448, 1.41239, 1.40904, 1.39887, 1.39684, 1.39925, 1.38702, 1.39097, 1.37611, 1.46853, 1.55034, 1.52981, 1.43835, 1.36167, 1.35026, 1.34998, 1.34462, 1.33842
1.69314, 1.68159, 1.6854, 1.68433, 1.67053, 1.6552, 1.68531, 1.85109, 1.84679, 1.62977, 1.60717, 1.61267, 1.6063, 1.58911, 1.58687, 1.57546, 1.57003, 1.58209, 1.56128, 1.54703, 1.54118, 1.53392, 1.52717, 1.52312, 1.52285, 1.53186, 1.59922, 1.68108, 1.65607, 1.47753, 1.48193, 1.49909, 1.47488, 1.46615, 1.46224, 1.45405, 1.4435, 1.44658, 1.43705, 1.43155, 1.42737, 1.4232, 1.41592, 1.41098, 1.40568, 1.40025, 1.39529, 1.38977, 1.38568, 1.3953, 1.40373, 1.46344, 1.51577, 1.5265, 1.35928, 1.35875, 1.35242, 1.36707, 1.34244, 1.3346
1.68631, 1.68347, 1.67827, 1.68672, 1.67406, 1.66131, 1.70621, 1.77873, 1.84895, 1.6163, 1.61922, 1.61174, 1.59281, 1.58327, 1.5814, 1.56921, 1.57679, 1.5765, 1.5627, 1.55341, 1.54333, 1.53427, 1.53687, 1.53624, 1.51751, 1.51983, 1.5261, 1.67108, 1.63534, 1.46087, 1.48429, 1.5086, 1.48192, 1.47394, 1.4607, 1.45487, 1.43707, 1.44195, 1.43354, 1.42514, 1.42282, 1.41989, 1.42051, 1.40368, 1.40038, 1.39513, 1.38605, 1.38455, 1.3995, 1.39663, 1.37787, 1.51033, 1.52067, 1.52735, 1.3959, 1.36465, 1.36539, 1.3446, 1.33839, 1.33024
1.66894, 1.66944, 1.6638, 1.66875, 1.66106, 1.63574, 1.6748, 1.85027, 1.85235, 1.60977, 1.61948, 1.61155, 1.59561, 1.58198, 1.61399, 1.56209, 1.5709, 1.57489, 1.57639, 1.54084, 1.53968, 1.53739, 1.51726, 1.52106, 1.51354, 1.51726, 1.58256, 1.65899, 1.62758, 1.45092, 1.47781, 1.4881, 1.46805, 1.4707, 1.46116, 1.42985, 1.42916, 1.4408, 1.42358, 1.41259, 1.41694, 1.41438, 1.40864, 1.39131, 1.39647, 1.39019, 1.38836, 1.37768, 1.37713, 1.39246, 1.38553, 1.49262, 1.50678, 1.51494, 1.31365, 1.35432, 1.34656, 1.35739, 1.34729, 1.31906
1.67241, 1.65744, 1.66427, 1.66872, 1.65104, 1.66104, 1.74556, 1.81611, 1.85567, 1.59074, 1.61671, 1.6027, 1.57531, 1.57562, 1.58265, 1.55462, 1.56924, 1.56909, 1.55243, 1.54153, 1.55696, 1.52721, 1.5133, 1.51933, 1.50967, 1.52061, 1.52972, 1.63757, 1.64908, 1.44473, 1.4741, 1.48273, 1.46511, 1.46494, 1.44803, 1.45489, 1.4253, 1.44158, 1.42487, 1.40614, 1.40859, 1.40851, 1.39965, 1.40896, 1.38466, 1.38752, 1.39469, 1.36761, 1.36709, 1.38084, 1.36829, 1.48384, 1.53693, 1.53311, 1.4344, 1.37287, 1.35006, 1.34677, 1.31797, 1.3177
1.68108, 1.67651, 1.68388, 1.66843, 1.66405, 1.65591, 1.69528, 1.76289, 1.9068, 1.608, 1.61713, 1.60808, 1.58229, 1.58195, 1.58214, 1.57097, 1.5564, 1.56253, 1.57233, 1.54663, 1.54312, 1.54373, 1.51649, 1.52317, 1.52037, 1.51321, 1.53135, 1.64772, 1.68029, 1.49549, 1.48404, 1.47922, 1.4681, 1.48361, 1.44588, 1.44437, 1.43048, 1.44287, 1.43661, 1.41145, 1.40474, 1.40259, 1.3964, 1.38638, 1.38642, 1.39905, 1.39985, 1.39272, 1.37029, 1.38912, 1.3644, 1.4733, 1.52803, 1.47462, 1.3991, 1.37147, 1.35231, 1.34308, 1.32549, 1.32633
1.68686, 1.68338, 1.69003, 1.6656, 1.66605, 1.66505, 1.69517, 1.87806, 1.8899, 1.63135, 1.62799, 1.61643, 1.59671, 1.58695, 1.58308, 1.57181, 1.5652, 1.57075, 1.57421, 1.55339, 1.55093, 1.54333, 1.52874, 1.52781, 1.51713, 1.52033, 1.49418, 1.63855, 1.66647, 1.46073, 1.49555, 1.49617, 1.48569, 1.48435, 1.45795, 1.44427, 1.45088, 1.4449, 1.44291, 1.42664, 1.42215, 1.41175, 1.40349, 1.39896, 1.39899, 1.40254, 1.40316, 1.40909, 1.39002, 1.39304, 1.37958, 1.4346, 1.5035, 1.50715, 1.37558, 1.36779, 1.36407, 1.33723, 1.3349, 1.34114
1.68837, 1.7138, 1.67627, 1.68259, 1.65741, 1.67192, 1.70246, 1.89074, 1.89701, 1.64112, 1.62968, 1.62989, 1.59974, 1.59135, 1.61802, 1.57837, 1.58596, 1.57535, 1.59733, 1.56015, 1.54967, 1.53855, 1.53536, 1.5296, 1.5209, 1.53345, 1.52632, 1.6759, 1.67352, 1.56826, 1.48977, 1.51005, 1.48943, 1.48238, 1.46039, 1.44978, 1.44769, 1.44784, 1.44349, 1.42811, 1.42345, 1.42012, 1.41636, 1.40932, 1.40624, 1.40437, 1.40328, 1.39483, 1.39271, 1.40813, 1.40277, 1.47152, 1.52743, 1.45457, 1.36231, 1.37849, 1.36359, 1.34717, 1.34479, 1.34316
1.68541, 1.68015, 1.67462, 1.66931, 1.66184, 1.64979, 1.74657, 1.82987, 1.87476, 1.61057, 1.62674, 1.62758, 1.61966, 1.59057, 1.58521, 1.57727, 1.57482, 1.57225, 1.56927, 1.55809, 1.55489, 1.53863, 1.54398, 1.52391, 1.52322, 1.52613, 1.56372, 1.66435, 1.6248, 1.4624, 1.49564, 1.50933, 1.47921, 1.47219, 1.46939, 1.4481, 1.45411, 1.44455, 1.43969, 1.44133, 1.43088, 1.42397, 1.41655, 1.41052, 1.40613, 1.402, 1.39778, 1.40633, 1.40298, 1.4018, 1.41029, 1.46965, 1.5401, 1.5474, 1.42161, 1.36492, 1.35552, 1.34816, 1.34327, 1.34742
1.68181, 1.69458, 1.66767, 1.66219, 1.66523, 1.6379, 1.73689, 1.78946, 1.88159, 1.59981, 1.62646, 1.6053, 1.61986, 1.58426, 1.58967, 1.57634, 1.57528, 1.56312, 1.5836, 1.54667, 1.53482, 1.53289, 1.53041, 1.52711, 1.51384, 1.53047, 1.53822, 1.6487, 1.63838, 1.44528, 1.48915, 1.48454, 1.48537, 1.45724, 1.44814, 1.4447, 1.44119, 1.43814, 1.43112, 1.42952, 1.42743, 1.43572, 1.41404, 1.4038, 1.40013, 1.39352, 1.39141, 1.40217, 1.40835, 1.38431, 1.38548, 1.46028, 1.51973, 1.50942, 1.32739, 1.3622, 1.35156, 1.34021, 1.36321, 1.33707
1.67821, 1.674, 1.66926, 1.67096, 1.65162, 1.64835, 1.6899, 1.84014, 1.90664, 1.60353, 1.6163, 1.60368, 1.60296, 1.58242, 1.57641, 1.57341, 1.5642, 1.56069, 1.5635, 1.54389, 1.55087, 1.53004, 1.52345, 1.52171, 1.52011, 1.51237, 1.52621, 1.64745, 1.64056, 1.55842, 1.476, 1.49377, 1.47104, 1.45312, 1.43969, 1.44088, 1.44114, 1.43429, 1.43084, 1.42319, 1.4194, 1.4145, 1.40598, 1.4016, 1.39264, 1.39127, 1.38985, 1.38848, 1.38129, 1.37966, 1.39226, 1.45439, 1.52165, 1.52581, 1.4594, 1.35238, 1.34195, 1.33719, 1.35745, 1.33451
1.6786, 1.67173, 1.67478, 1.6719, 1.64729, 1.64799, 1.68311, 1.86264, 1.84926, 1.61222, 1.62379, 1.59982, 1.5985, 1.58279, 1.57056, 1.56847, 1.55744, 1.55913, 1.56835, 1.55107, 1.53094, 1.52588, 1.52273, 1.52015, 1.50632, 1.50685, 1.62258, 1.64529, 1.63387, 1.4747, 1.47108, 1.47604, 1.47424, 1.46165, 1.43845, 1.44289, 1.44076, 1.43637, 1.42803, 1.41827, 1.41583, 1.40738, 1.39864, 1.39867, 1.39055, 1.38765, 1.38468, 1.38459, 1.37581, 1.37182, 1.38289, 1.45419, 1.50608, 1.54887, 1.34946, 1.35437, 1.34045, 1.33595, 1.3312, 1.33032
1.67403, 1.66605, 1.65887, 1.65189, 1.64657, 1.64744, 1.67213, 1.83258, 1.84417, 1.64378, 1.61342, 1.59627, 1.58448, 1.56969, 1.56157, 1.56315, 1.55802, 1.55685, 1.56046, 1.54644, 1.54189, 1.53109, 1.51505, 1.51274, 1.50627, 1.50694, 1.56518, 1.60974, 1.61745, 1.49551, 1.47917, 1.47557, 1.47063, 1.44713, 1.43876, 1.43788, 1.43876, 1.43127, 1.4249, 1.41782, 1.41681, 1.4023, 1.39847, 1.39473, 1.38829, 1.38321, 1.38, 1.38185, 1.37185, 1.38196, 1.36436, 1.46496, 1.52104, 1.55805, 1.32023, 1.35387, 1.33687, 1.33738, 1.32935, 1.32827
1.67075, 1.66326, 1.67094, 1.64935, 1.64737, 1.64829, 1.64654, 1.80059, 1.87652, 1.59243, 1.60912, 1.59204, 1.58019, 1.56863, 1.56514, 1.55828, 1.5544, 1.56771, 1.55284, 1.53638, 1.52724, 1.5227, 1.52947, 1.50509, 1.50074, 1.51014, 1.56746, 1.63064, 1.63318, 1.54022, 1.47155, 1.50711, 1.48136, 1.43881, 1.43762, 1.43668, 1.43583, 1.42833, 1.42324, 1.41754, 1.42338, 1.4026, 1.39568, 1.39419, 1.38498, 1.38088, 1.38102, 1.37862, 1.3687, 1.36759, 1.39267, 1.43958, 1.55034, 1.54069, 1.41256, 1.36623, 1.34719, 1.3364, 1.32725, 1.32642
1.67539, 1.67031, 1.68227, 1.65296, 1.6651, 1.64645, 1.71782, 1.80646, 1.87278, 1.59558, 1.60982, 1.60567, 1.58833, 1.5813, 1.56797, 1.56384, 1.55952, 1.5674, 1.56549, 1.53881, 1.53589, 1.52648, 1.52038, 1.51073, 1.51805, 1.50796, 1.55004, 1.62555, 1.64428, 1.49216, 1.48141, 1.49056, 1.47607, 1.44798, 1.4441, 1.4433, 1.43822, 1.43407, 1.42517, 1.4265, 1.41971, 1.41542, 1.40269, 1.39839, 1.39, 1.38803, 1.41361, 1.38497, 1.3757, 1.38828, 1.38571, 1.43949, 1.57587, 1.5513, 1.45478, 1.37181, 1.35028, 1.33707, 1.33328, 1.33039
1.68189, 1.68272, 1.67033, 1.65546, 1.65065, 1.64467, 1.66584, 1.83733, 1.87979, 1.59893, 1.62998, 1.61027, 1.59891, 1.58514, 1.58168, 1.56524, 1.55615, 1.55022, 1.54567, 1.55781, 1.54368, 1.52832, 1.51666, 1.51979, 1.51568, 1.51039, 1.56162, 1.64586, 1.60913, 1.55383, 1.47563, 1.47338, 1.47828, 1.44721, 1.45449, 1.4444, 1.4374, 1.43139, 1.42744, 1.42755, 1.4258, 1.41327, 1.40488, 1.39643, 1.39476, 1.38871, 1.3869, 1.39184, 1.38551, 1.38382, 1.37501, 1.4743, 1.52308, 1.56177, 1.40131, 1.36392, 1.35398, 1.35391, 1.33454, 1.33183
1.68142, 1.67471, 1.65578, 1.64922, 1.64452, 1.64428, 1.68385, 1.79038, 1.8484, 1.60716, 1.61383, 1.59866, 1.59961, 1.58108, 1.57178, 1.5587, 1.5569, 1.55945, 1.54305, 1.56565, 1.53473, 1.52961, 1.51729, 1.52394, 1.50244, 1.51453, 1.52753, 1.65526, 1.65088, 1.48526, 1.47777, 1.4746, 1.48927, 1.4555, 1.4434, 1.43957, 1.42934, 1.42665, 1.42332, 1.42959, 1.41304, 1.41697, 1.42069, 1.40047, 1.38726, 1.38557, 1.38697, 1.38614, 1.37045, 1.36935, 1.3717, 1.40483, 1.52628, 1.56712, 1.37179, 1.35348, 1.3472, 1.33545, 1.32808, 1.33332
1.67366, 1.66296, 1.65605, 1.64094, 1.63522, 1.63143, 1.63568, 1.82704, 1.85947, 1.56574, 1.59964, 1.60386, 1.57749, 1.57029, 1.56313, 1.55754, 1.54828, 1.53902, 1.53516, 1.56468, 1.52704, 1.52038, 1.51239, 1.50246, 1.49651, 1.50942, 1.54007, 1.63779, 1.62123, 1.46325, 1.46972, 1.47869, 1.48139, 1.43813, 1.44013, 1.43117, 1.42306, 1.41796, 1.4166, 1.41437, 1.40217, 1.40073, 1.39164, 1.38502, 1.37946, 1.37499, 1.37182, 1.36684, 1.36148, 1.36006, 1.32681, 1.40523, 1.5159, 1.52302, 1.47583, 1.35022, 1.33756, 1.3305, 1.31688, 1.31541
1.67317, 1.66532, 1.65539, 1.63839, 1.63367, 1.62525, 1.59596, 1.78913, 1.89741, 1.5698, 1.59301, 1.58721, 1.57766, 1.56887, 1.565, 1.5584, 1.55263, 1.54095, 1.53058, 1.5546, 1.53036, 1.51136, 1.50696, 1.49931, 1.49612, 1.50742, 1.52764, 1.63782, 1.63441, 1.55001, 1.47557, 1.47439, 1.48671, 1.43946, 1.43545, 1.4271, 1.42936, 1.41524, 1.40966, 1.40977, 1.40194, 1.39095, 1.3906, 1.38354, 1.37735, 1.37493, 1.36911, 1.36456, 1.35738, 1.3598, 1.36152, 1.42078, 1.4984, 1.52671, 1.42733, 1.34815, 1.32561, 1.31981, 1.31898, 1.31438
1.66991, 1.66038, 1.6534, 1.6518, 1.63099, 1.63736, 1.64354, 1.83053, 1.87479, 1.58184, 1.59949, 1.58933, 1.57668, 1.5701, 1.56499, 1.55956, 1.54907, 1.54083, 1.53094, 1.53841, 1.52277, 1.52326, 1.50706, 1.50543, 1.49383, 1.50226, 1.46672, 1.64421, 1.64069, 1.54825, 1.46371, 1.46158, 1.4722, 1.44056, 1.44466, 1.42643, 1.41871, 1.4131, 1.4076, 1.4038, 1.39256, 1.39184, 1.39078, 1.3854, 1.37766, 1.37369, 1.36843, 1.36475, 1.35892, 1.35701, 1.36115, 1.44363, 1.51703, 1.54032, 1.33979, 1.34001, 1.32405, 1.31925, 1.31579, 1.3137
1.6677, 1.66035, 1.65119, 1.63407, 1.65227, 1.62542, 1.60621, 1.78919, 1.86241, 1.57486, 1.59372, 1.58609, 1.57344, 1.56983, 1.56238, 1.55732, 1.54744, 1.54632, 1.52455, 1.54615, 1.52152, 1.52076, 1.50904, 1.50462, 1.49753, 1.50243, 1.46686, 1.62278, 1.62717, 1.55594, 1.46129, 1.46141, 1.46467, 1.44272, 1.43192, 1.42736, 1.41859, 1.4126, 1.40582, 1.40196, 1.39842, 1.39306, 1.39053, 1.38273, 1.37933, 1.3707, 1.36702, 1.37224, 1.35702, 1.35365, 1.36081, 1.47696, 1.53662, 1.5546, 1.40556, 1.34239, 1.32556, 1.31716, 1.31326, 1.31263
1.66497, 1.65462, 1.64814, 1.64763, 1.6343, 1.62751, 1.59193, 1.73049, 1.87944, 1.65041, 1.59542, 1.58876, 1.5754, 1.56773, 1.56269, 1.5546, 1.55037, 1.54041, 1.52977, 1.54598, 1.52183, 1.51517, 1.50996, 1.5037, 1.49852, 1.51629, 1.51288, 1.60605, 1.62707, 1.55534, 1.46818, 1.45674, 1.466, 1.44177, 1.43548, 1.42398, 1.42149, 1.41263, 1.40736, 1.40447, 1.40013, 1.39622, 1.39242, 1.38689, 1.37985, 1.3719, 1.36782, 1.36296, 1.35932, 1.35504, 1.36396, 1.43244, 1.53196, 1.54359, 1.32997, 1.35186, 1.32409, 1.31903, 1.31584, 1.31287
1.65974, 1.65399, 1.64453, 1.63856, 1.63018, 1.62898, 1.61765, 1.73185, 1.92402, 1.75717, 1.59211, 1.58541, 1.57666, 1.56618, 1.56153, 1.55768, 1.55298, 1.54104, 1.53035, 1.54097, 1.52049, 1.51734, 1.51298, 1.50733, 1.50005, 1.51592, 1.46576, 1.6262, 1.62341, 1.606, 1.47225, 1.47387, 1.4779, 1.4465, 1.43536, 1.42824, 1.42373, 1.41753, 1.41352, 1.4071, 1.40446, 1.39909, 1.39603, 1.39033, 1.38353, 1.37374, 1.37271, 1.36714, 1.3651, 1.36058, 1.3662, 1.43338, 1.49597, 1.5333, 1.47086, 1.33424, 1.32681, 1.32344, 1.31693, 1.31661
1.65573, 1.65004, 1.64449, 1.64069, 1.63459, 1.64678, 1.59769, 1.80105, 1.90755, 1.58049, 1.6105, 1.58633, 1.5769, 1.5638, 1.56231, 1.55636, 1.55126, 1.53974, 1.53581, 1.54107, 1.54187, 1.51734, 1.52002, 1.51155, 1.51003, 1.50617, 1.46935, 1.61461, 1.62623, 1.54161, 1.46691, 1.47033, 1.4755, 1.45101, 1.4482, 1.42954, 1.42378, 1.41978, 1.41524, 1.40959, 1.40781, 1.40156, 1.39635, 1.39159, 1.38747, 1.37886, 1.37608, 1.3707, 1.36427, 1.36228, 1.37266, 1.36158, 1.50748, 1.53768, 1.46866, 1.34568, 1.32465, 1.32553, 1.32018, 1.31653
1.66124, 1.65006, 1.63958, 1.63724, 1.637, 1.63353, 1.60625, 1.74941, 1.84164, 1.6298, 1.59604, 1.58768, 1.57806, 1.56252, 1.55196, 1.5543, 1.54769, 1.53762, 1.53598, 1.55132, 1.52919, 1.5169, 1.52028, 1.50648, 1.50334, 1.50598, 1.47084, 1.59571, 1.61308, 1.51028, 1.47472, 1.45745, 1.46673, 1.45581, 1.43145, 1.42581, 1.42514, 1.41965, 1.41241, 1.40913, 1.40638, 1.4089, 1.39779, 1.39243, 1.3893, 1.37844, 1.37597, 1.37261, 1.3715, 1.37197, 1.36637, 1.41219, 1.4954, 1.55822, 1.34635, 1.33436, 1.32626, 1.32344, 1.3214, 1.31573
1.65988, 1.64965, 1.64309, 1.63409, 1.63529, 1.6487, 1.60018, 1.85175, 1.88584, 1.63175, 1.60213, 1.59019, 1.57301, 1.56786, 1.55921, 1.5582, 1.54729, 1.5415, 1.53146, 1.53098, 1.54616, 1.5132, 1.51005, 1.50216, 1.49625, 1.49848, 1.4711, 1.60016, 1.60865, 1.55957, 1.45825, 1.44911, 1.45503, 1.44597, 1.43113, 1.42625, 1.42611, 1.41995, 1.41188, 1.40786, 1.40697, 1.40368, 1.39377, 1.39006, 1.38343, 1.37663, 1.3721, 1.36756, 1.36685, 1.36051, 1.36466, 1.46911, 1.509, 1.55422, 1.47518, 1.34351, 1.32455, 1.32355, 1.32007, 1.31675
1.66107, 1.6554, 1.64196, 1.6329, 1.63405, 1.6319, 1.68008, 1.73849, 1.88895, 1.56786, 1.60999, 1.58461, 1.57584, 1.56478, 1.56107, 1.55501, 1.5493, 1.54035, 1.53167, 1.5311, 1.52816, 1.51262, 1.50303, 1.49977, 1.49331, 1.50241, 1.4689, 1.60622, 1.59146, 1.56097, 1.47127, 1.44526, 1.45112, 1.4551, 1.43474, 1.42436, 1.42526, 1.42147, 1.41264, 1.40934, 1.40409, 1.40035, 1.39857, 1.3841, 1.37978, 1.37538, 1.373, 1.3671, 1.3646, 1.36455, 1.38911, 1.48029, 1.52053, 1.56091, 1.43943, 1.33406, 1.32649, 1.32235, 1.32059, 1.31677
1.66378, 1.65821, 1.64365, 1.6407, 1.641, 1.63753, 1.59932, 1.82315, 1.91098, 1.56484, 1.60012, 1.58579, 1.57612, 1.57057, 1.55489, 1.55507, 1.54766, 1.55028, 1.53368, 1.53048, 1.53756, 1.5157, 1.50645, 1.5003, 1.49354, 1.49314, 1.48571, 1.57057, 1.58158, 1.56718, 1.45849, 1.44417, 1.44348, 1.45906, 1.43687, 1.42631, 1.42305, 1.41917, 1.41267, 1.40848, 1.40354, 1.39568, 1.39257, 1.38629, 1.37878, 1.374, 1.37164, 1.36703, 1.36468, 1.36297, 1.37552, 1.43474, 1.53379, 1.54806, 1.43915, 1.33765, 1.32605, 1.32673, 1.32078, 1.32163
1.66765, 1.66142, 1.65556, 1.64351, 1.63581, 1.63325, 1.67952, 1.77958, 1.87881, 1.59161, 1.59659, 1.59124, 1.57731, 1.56855, 1.56076, 1.56084, 1.55347, 1.5425, 1.53309, 1.53799, 1.53889, 1.51601, 1.52088, 1.51536, 1.49593, 1.49969, 1.51204, 1.54502, 1.67529, 1.57224, 1.45695, 1.45124, 1.45232, 1.4716, 1.43062, 1.42746, 1.4231, 1.41609, 1.41285, 1.40641, 1.40202, 1.39978, 1.39165, 1.38676, 1.37936, 1.37524, 1.37127, 1.37129, 1.36654, 1.37244, 1.3778, 1.44872, 1.55153, 1.56771, 1.40999, 1.35089, 1.33036, 1.32728, 1.32389, 1.31898
1.67586, 1.66803, 1.65886, 1.65086, 1.64725, 1.63369, 1.64128, 1.7297, 1.88056, 1.57822, 1.59995, 1.59022, 1.58583, 1.56702, 1.56213, 1.55883, 1.54932, 1.55173, 1.53382, 1.5278, 1.51679, 1.52059, 1.50731, 1.50004, 1.49867, 1.49592, 1.46447, 1.57534, 1.61704, 1.57486, 1.46511, 1.46165, 1.44914, 1.45632, 1.44702, 1.43805, 1.42428, 1.41727, 1.41158, 1.40643, 1.40171, 1.3976, 1.39206, 1.38482, 1.37994, 1.3744, 1.37153, 1.37071, 1.36557, 1.37109, 1.37275, 1.43995, 1.56147, 1.57784, 1.35487, 1.34359, 1.33628, 1.33045, 1.32439, 1.31693
1.66881, 1.6634, 1.65489, 1.64167, 1.63797, 1.63102, 1.60339, 1.6959, 1.87961, 1.58154, 1.62014, 1.59692, 1.57973, 1.56579, 1.55925, 1.55581, 1.55135, 1.54243, 1.53349, 1.52589, 1.53902, 1.52786, 1.51536, 1.50073, 1.50191, 1.50555, 1.49605, 1.5741, 1.61949, 1.57242, 1.46848, 1.46914, 1.44708, 1.456, 1.44665, 1.43123, 1.42603, 1.41789, 1.4139, 1.40868, 1.4023, 1.39844, 1.39145, 1.38788, 1.38158, 1.37847, 1.37502, 1.37194, 1.36706, 1.35897, 1.36758, 1.4262, 1.52095, 1.56389, 1.48638, 1.34481, 1.35712, 1.33633, 1.32536, 1.32266
1.66607, 1.66004, 1.65444, 1.64975, 1.63402, 1.63279, 1.62013, 1.75937, 1.8693, 1.58771, 1.59295, 1.57997, 1.57653, 1.56521, 1.56168, 1.55494, 1.54921, 1.54236, 1.53319, 1.53356, 1.53046, 1.51607, 1.5104, 1.50124, 1.49322, 1.51368, 1.46059, 1.59514, 1.60869, 1.5458, 1.47177, 1.46102, 1.44582, 1.45208, 1.44888, 1.42449, 1.41967, 1.41666, 1.41251, 1.40833, 1.4054, 1.39758, 1.39174, 1.38541, 1.38, 1.37656, 1.37236, 1.37019, 1.37866, 1.36925, 1.36365, 1.43821, 1.56933, 1.52757, 1.48606, 1.34471, 1.3366, 1.33373, 1.32701, 1.32228
1.66941, 1.66214, 1.65197, 1.65715, 1.63826, 1.63301, 1.59668, 1.70553, 1.86315, 1.56809, 1.60227, 1.58436, 1.57191, 1.56474, 1.5625, 1.55501, 1.5495, 1.54288, 1.53416, 1.54273, 1.52076, 1.52618, 1.50522, 1.501, 1.49537, 1.50272, 1.5017, 1.5788, 1.59122, 1.51692, 1.4581, 1.46319, 1.45512, 1.45203, 1.44544, 1.42575, 1.422, 1.41793, 1.41285, 1.41001, 1.40352, 1.39497, 1.39074, 1.38408, 1.37918, 1.37767, 1.37327, 1.36919, 1.36779, 1.35793, 1.36811, 1.43634, 1.46488, 1.56526, 1.48099, 1.34625, 1.35158, 1.33345, 1.32758, 1.32026
1.67171, 1.66361, 1.65185, 1.65092, 1.63503, 1.63407, 1.60422, 1.73372, 1.8505, 1.58293, 1.6001, 1.58211, 1.58631, 1.56646, 1.55915, 1.55557, 1.54968, 1.54059, 1.53694, 1.52937, 1.51942, 1.5347, 1.50737, 1.50984, 1.49737, 1.49835, 1.46756, 1.58346, 1.57875, 1.49285, 1.47151, 1.4604, 1.44652, 1.45761, 1.44719, 1.42611, 1.42319, 1.41629, 1.41414, 1.40964, 1.40471, 1.39858, 1.39197, 1.38367, 1.37803, 1.3763, 1.37173, 1.36754, 1.36251, 1.3717, 1.35852, 1.42671, 1.54919, 1.57515, 1.47808, 1.34518, 1.34099, 1.33162, 1.33196, 1.32256
1.66765, 1.66028, 1.6505, 1.64179, 1.63944, 1.63328, 1.63222, 1.73055, 1.94647, 1.57199, 1.5985, 1.58251, 1.58539, 1.56964, 1.56582, 1.56056, 1.55051, 1.54642, 1.53971, 1.52654, 1.52372, 1.52387, 1.5102, 1.50275, 1.50006, 1.49883, 1.47219, 1.57859, 1.62155, 1.53226, 1.47463, 1.46906, 1.44806, 1.44396, 1.44519, 1.42651, 1.42351, 1.41723, 1.41644, 1.41364, 1.40507, 1.3986, 1.39173, 1.3852, 1.37915, 1.37538, 1.37176, 1.3689, 1.36477, 1.35796, 1.36802, 1.40538, 1.43089, 1.56955, 1.32645, 1.34787, 1.3404, 1.34212, 1.3281, 1.32348
1.66781, 1.65915, 1.6485, 1.64746, 1.64032, 1.63666, 1.62081, 1.73332, 1.90661, 1.58873, 1.59954, 1.58969, 1.57929, 1.5798, 1.56543, 1.56046, 1.55054, 1.5442, 1.53772, 1.52804, 1.53014, 1.53344, 1.5232, 1.50426, 1.50171, 1.50531, 1.49563, 1.57334, 1.63781, 1.55752, 1.47802, 1.46776, 1.44785, 1.44564, 1.45486, 1.43061, 1.42344, 1.41972, 1.41664, 1.41263, 1.40417, 1.39939, 1.39298, 1.38923, 1.38004, 1.3762, 1.37286, 1.3698, 1.37197, 1.36115, 1.37327, 1.42056, 1.4902, 1.6157, 1.45546, 1.34814, 1.3462, 1.33164, 1.32959, 1.32409
1.66633, 1.6608, 1.65044, 1.64232, 1.65247, 1.63829, 1.61204, 1.76683, 1.91723, 1.57172, 1.59694, 1.59037, 1.58241, 1.586, 1.56215, 1.55791, 1.55314, 1.54666, 1.53747, 1.5282, 1.53722, 1.53446, 1.52535, 1.50743, 1.50535, 1.50828, 1.52695, 1.62033, 1.62672, 1.56452, 1.46598, 1.46495, 1.44875, 1.44224, 1.44549, 1.44017, 1.42307, 1.4205, 1.41638, 1.41109, 1.40496, 1.39749, 1.39349, 1.38496, 1.38305, 1.37516, 1.3719, 1.3705, 1.36498, 1.36031, 1.36755, 1.40293, 1.45914, 1.57305, 1.45511, 1.34368, 1.3364, 1.32991, 1.32682, 1.3214
1.66383, 1.65878, 1.64615, 1.64421, 1.64465, 1.64176, 1.61237, 1.75794, 1.92478, 1.5823, 1.5992, 1.58313, 1.5788, 1.57492, 1.55888, 1.55635, 1.55096, 1.5477, 1.53841, 1.53252, 1.5218, 1.53098, 1.51156, 1.50996, 1.49748, 1.50638, 1.46749, 1.60618, 1.59402, 1.55099, 1.45679, 1.47074, 1.44976, 1.45253, 1.45228, 1.43711, 1.42311, 1.41944, 1.41675, 1.41019, 1.40384, 1.40142, 1.39614, 1.38699, 1.38139, 1.37527, 1.36803, 1.36744, 1.3649, 1.36384, 1.36817, 1.44161, 1.53302, 1.57502, 1.32407, 1.34076, 1.32869, 1.32775, 1.32333, 1.31998
1.66611, 1.6563, 1.64459, 1.64137, 1.63354, 1.63409, 1.62233, 1.8068, 1.85104, 1.57, 1.60223, 1.58643, 1.57712, 1.56846, 1.55884, 1.55171, 1.54749, 1.5476, 1.53464, 1.53039, 1.52785, 1.53501, 1.51058, 1.50564, 1.49917, 1.49921, 1.46576, 1.60777, 1.56721, 1.55254, 1.45043, 1.46724, 1.45801, 1.44286, 1.45557, 1.42833, 1.42109, 1.41869, 1.41862, 1.41128, 1.4065, 1.39656, 1.39496, 1.38997, 1.38026, 1.3718, 1.36423, 1.36577, 1.36134, 1.35757, 1.37247, 1.41326, 1.46068, 1.61306, 1.33701, 1.34693, 1.33134, 1.32613, 1.32331, 1.31904
1.66894, 1.65498, 1.65053, 1.6409, 1.64011, 1.63422, 1.61116, 1.74891, 1.83363, 1.59546, 1.60074, 1.592, 1.57732, 1.582, 1.5649, 1.55369, 1.55155, 1.54538, 1.53576, 1.52722, 1.5225, 1.5407, 1.50973, 1.50624, 1.50188, 1.49613, 1.50091, 1.578, 1.57136, 1.54316, 1.47044, 1.46598, 1.44904, 1.44424, 1.45385, 1.43571, 1.42108, 1.42088, 1.41663, 1.41209, 1.40592, 1.39959, 1.39647, 1.38921, 1.38193, 1.37179, 1.36492, 1.3651, 1.36706, 1.36119, 1.36751, 1.38084, 1.53741, 1.62486, 1.38498, 1.34169, 1.33507, 1.32948, 1.32649, 1.3222
1.66644, 1.65913, 1.64786, 1.65431, 1.64666, 1.63171, 1.61314, 1.802, 2.02254, 1.57853, 1.59447, 1.58808, 1.5771, 1.56612, 1.56076, 1.55524, 1.5492, 1.54262, 1.53663, 1.52354, 1.52744, 1.54829, 1.51268, 1.50948, 1.49603, 1.50553, 1.46855, 1.54076, 1.56774, 1.52957, 1.4682, 1.47156, 1.45401, 1.44143, 1.44903, 1.42677, 1.42804, 1.42049, 1.41775, 1.41527, 1.40741, 1.40087, 1.39541, 1.38893, 1.38458, 1.37165, 1.36744, 1.36465, 1.36512, 1.36419, 1.36393, 1.39848, 1.54354, 1.59321, 1.40298, 1.34071, 1.35097, 1.33756, 1.33017, 1.32315
1.66384, 1.65368, 1.64842, 1.64155, 1.6365, 1.63187, 1.63019, 1.80939, 1.93049, 1.57121, 1.59696, 1.58484, 1.57836, 1.5688, 1.5614, 1.55598, 1.54834, 1.54104, 1.53614, 1.52755, 1.52093, 1.5273, 1.52724, 1.51328, 1.49631, 1.49665, 1.46581, 1.58178, 1.58555, 1.54684, 1.46447, 1.46765, 1.45172, 1.44142, 1.45801, 1.44672, 1.42118, 1.42019, 1.41676, 1.41277, 1.40846, 1.40318, 1.39584, 1.38902, 1.38353, 1.37447, 1.36802, 1.36461, 1.36503, 1.36289, 1.37181, 1.43006, 1.51258, 1.60731, 1.34408, 1.34724, 1.3403, 1.33072, 1.32451, 1.324
1.66915, 1.64843, 1.64717, 1.64335, 1.63992, 1.6313, 1.62807, 1.69735, 1.8987, 1.70335, 1.59608, 1.58998, 1.57474, 1.57349, 1.56209, 1.55228, 1.54499, 1.54152, 1.532, 1.52468, 1.51969, 1.51795, 1.52385, 1.50709, 1.50245, 1.49667, 1.50361, 1.58678, 1.59086, 1.55866, 1.47259, 1.47538, 1.44635, 1.43788, 1.47957, 1.46041, 1.42223, 1.41872, 1.41608, 1.41072, 1.40647, 1.40281, 1.39657, 1.39194, 1.37923, 1.37455, 1.36855, 1.36681, 1.36623, 1.36418, 1.365, 1.43074, 1.54777, 1.62458, 1.49296, 1.33863, 1.34319, 1.33309, 1.3257, 1.3204
1.66017, 1.65912, 1.65009, 1.63898, 1.63495, 1.63263, 1.62838, 1.76842, 1.81739, 1.57317, 1.605, 1.59375, 1.5747, 1.57219, 1.56222, 1.55409, 1.54449, 1.53848, 1.53085, 1.51948, 1.51523, 1.52935, 1.53096, 1.5042, 1.49581, 1.49614, 1.50656, 1.58142, 1.58114, 1.56038, 1.46383, 1.46809, 1.44444, 1.44079, 1.44361, 1.45149, 1.41991, 1.41718, 1.41348, 1.40875, 1.40311, 1.39844, 1.39597, 1.39518, 1.38605, 1.37531, 1.37047, 1.36836, 1.36559, 1.36386, 1.36395, 1.37694, 1.56081, 1.58617, 1.49599, 1.3396, 1.33109, 1.3279, 1.32388, 1.3192
1.6661, 1.66085, 1.64682, 1.63581, 1.63346, 1.63105, 1.63076, 1.68071, 1.84745, 1.64466, 1.59398, 1.58317, 1.57573, 1.57297, 1.56102, 1.55165, 1.549, 1.53723, 1.52964, 1.51891, 1.51375, 1.51324, 1.53967, 1.51674, 1.49874, 1.50008, 1.46443, 1.61268, 1.55906, 1.56432, 1.45517, 1.4781, 1.44513, 1.43886, 1.43626, 1.44744, 1.42092, 1.41633, 1.41235, 1.40823, 1.40487, 1.40096, 1.39685, 1.39384, 1.38669, 1.37812, 1.37249, 1.36678, 1.36479, 1.36116, 1.38196, 1.36045, 1.52842, 1.59485, 1.34084, 1.34089, 1.32975, 1.32931, 1.32176, 1.3177
1.66389, 1.65524, 1.64858, 1.63713, 1.63314, 1.63058, 1.61967, 1.71659, 1.84707, 1.58241, 1.59722, 1.58252, 1.57654, 1.56501, 1.55881, 1.55173, 1.54526, 1.53768, 1.53332, 1.52331, 1.51543, 1.52019, 1.53639, 1.50575, 1.50576, 1.50234, 1.51565, 1.56115, 1.56474, 1.55685, 1.46469, 1.46694, 1.44573, 1.4381, 1.43666, 1.43281, 1.42925, 1.41892, 1.4136, 1.4064, 1.40246, 1.39954, 1.39623, 1.39133, 1.38589, 1.38056, 1.37521, 1.36993, 1.36199, 1.36014, 1.36213, 1.4098, 1.5126, 1.62433, 1.31469, 1.36114, 1.32992, 1.329, 1.32075, 1.318
1.66472, 1.65637, 1.64815, 1.63713, 1.63416, 1.63054, 1.63653, 1.78963, 2.00373, 1.55856, 1.59281, 1.58291, 1.57486, 1.56837, 1.55887, 1.55658, 1.55006, 1.54375, 1.53653, 1.52093, 1.5157, 1.51194, 1.53765, 1.52317, 1.49932, 1.49564, 1.50004, 1.62961, 1.55796, 1.55234, 1.4675, 1.46105, 1.44536, 1.44323, 1.44171, 1.4546, 1.41827, 1.41432, 1.41073, 1.40854, 1.40112, 1.39938, 1.39421, 1.39533, 1.38521, 1.38214, 1.37596, 1.37121, 1.36484, 1.36098, 1.3624, 1.41635, 1.55486, 1.58243, 1.4757, 1.34743, 1.3303, 1.32818, 1.32269, 1.32073
1.67181, 1.65839, 1.645, 1.63559, 1.63446, 1.63136, 1.64543, 1.65534, 1.90949, 1.6902, 1.59288, 1.59197, 1.57779, 1.57002, 1.55861, 1.57889, 1.54935, 1.54252, 1.53325, 1.52555, 1.5157, 1.51705, 1.53474, 1.50438, 1.50113, 1.49443, 1.50366, 1.58279, 1.5656, 1.53039, 1.47825, 1.46583, 1.45634, 1.46064, 1.44515, 1.44386, 1.41904, 1.41505, 1.41042, 1.40316, 1.3994, 1.39747, 1.39125, 1.38906, 1.38303, 1.37939, 1.37544, 1.37483, 1.36555, 1.36254, 1.37517, 1.39829, 1.54847, 1.56456, 1.36007, 1.33964, 1.34651, 1.32762, 1.323, 1.31753
1.66419, 1.65433, 1.64472, 1.6404, 1.63539, 1.6369, 1.63731, 1.7379, 1.95562, 1.55555, 1.60227, 1.59032, 1.57496, 1.56599, 1.56062, 1.55569, 1.54847, 1.54354, 1.53476, 1.52205, 1.51688, 1.51218, 1.53133, 1.52424, 1.50121, 1.49265, 1.47488, 1.55544, 1.54781, 1.52166, 1.46141, 1.46406, 1.45208, 1.44749, 1.44752, 1.43324, 1.42391, 1.41511, 1.4109, 1.40637, 1.39903, 1.39643, 1.39214, 1.38635, 1.38186, 1.37791, 1.37713, 1.37385, 1.36833, 1.36283, 1.36893, 1.32831, 1.54291, 1.59476, 1.42137, 1.34566, 1.35162, 1.33988, 1.32898, 1.32937
1.66749, 1.65158, 1.64401, 1.63875, 1.63544, 1.63059, 1.63413, 1.77174, 1.93364, 1.71392, 1.60659, 1.58683, 1.58656, 1.56758, 1.56238, 1.55426, 1.54735, 1.54352, 1.53442, 1.52517, 1.5162, 1.51005, 1.53434, 1.5159, 1.49781, 1.49166, 1.48803, 1.58149, 1.56174, 1.55028, 1.45552, 1.46324, 1.47213, 1.45087, 1.45762, 1.44424, 1.43383, 1.41611, 1.41494, 1.40543, 1.39965, 1.39687, 1.39211, 1.38685, 1.38249, 1.37836, 1.37702, 1.3715, 1.36748, 1.35887, 1.36161, 1.40886, 1.50293, 1.63522, 1.41037, 1.3515, 1.33372, 1.32553, 1.35451, 1.31664
1.66371, 1.65156, 1.642, 1.63823, 1.63454, 1.62948, 1.6279, 1.71717, 1.93503, 1.56461, 1.58982, 1.58887, 1.56934, 1.56583, 1.56164, 1.55131, 1.54545, 1.54261, 1.53713, 1.52183, 1.51669, 1.51254, 1.52863, 1.50798, 1.49663, 1.49046, 1.47385, 1.58285, 1.54317, 1.54135, 1.44338, 1.45831, 1.4522, 1.45473, 1.46644, 1.43655, 1.42452, 1.41858, 1.41297, 1.40505, 1.40002, 1.39532, 1.39165, 1.3855, 1.37957, 1.37611, 1.37464, 1.36948, 1.36578, 1.3581, 1.3578, 1.34441, 1.57247, 1.63801, 1.51915, 1.33853, 1.33023, 1.32705, 1.32287, 1.31796
1.6646, 1.65089, 1.64287, 1.63833, 1.63751, 1.62951, 1.64749, 1.65003, 1.88246, 1.58217, 1.59422, 1.58139, 1.57634, 1.56336, 1.55768, 1.5536, 1.54383, 1.53431, 1.52852, 1.52352, 1.51457, 1.5085, 1.53359, 1.51132, 1.50684, 1.49857, 1.49818, 1.57603, 1.53874, 1.52946, 1.47915, 1.46121, 1.45486, 1.46073, 1.47922, 1.43702, 1.42758, 1.41581, 1.41009, 1.40515, 1.40171, 1.39696, 1.39257, 1.38535, 1.38082, 1.3745, 1.37373, 1.37094, 1.36775, 1.35853, 1.3574, 1.34778, 1.54955, 1.62135, 1.438, 1.33486, 1.32973, 1.32707, 1.32306, 1.31799
1.66743, 1.65683, 1.64475, 1.6416, 1.63387, 1.62953, 1.62733, 1.72049, 1.96886, 1.58352, 1.59384, 1.58471, 1.57435, 1.56882, 1.55908, 1.5537, 1.54421, 1.53448, 1.52999, 1.52351, 1.51854, 1.51354, 1.52495, 1.54863, 1.5078, 1.49897, 1.46712, 1.57589, 1.5544, 1.54752, 1.45364, 1.46007, 1.47182, 1.46507, 1.48198, 1.43102, 1.42183, 1.41365, 1.40947, 1.40514, 1.40009, 1.39613, 1.38869, 1.38715, 1.37892, 1.37501, 1.37441, 1.37124, 1.36491, 1.36057, 1.36229, 1.3444, 1.55099, 1.59656, 1.49933, 1.33754, 1.35397, 1.32987, 1.32602, 1.31919
1.66449, 1.65773, 1.65131, 1.63829, 1.63366, 1.64113, 1.64873, 1.71598, 1.9386, 1.56252, 1.58977, 1.59232, 1.57776, 1.5817, 1.58936, 1.5521, 1.54701, 1.53327, 1.52862, 1.52246, 1.51982, 1.51663, 1.51144, 1.5491, 1.50019, 1.50769, 1.4683, 1.56396, 1.5617, 1.56392, 1.4814, 1.46597, 1.47509, 1.47212, 1.48202, 1.44759, 1.42097, 1.42679, 1.40884, 1.40303, 1.39909, 1.39515, 1.38941, 1.39207, 1.38068, 1.37714, 1.37451, 1.37034, 1.36603, 1.37473, 1.36133, 1.35801, 1.48886, 1.59856, 1.40769, 1.35321, 1.34193, 1.32969, 1.32973, 1.31798
1.67006, 1.66128, 1.64892, 1.64201, 1.63442, 1.64431, 1.62848, 1.71718, 1.91175, 1.64177, 1.59928, 1.58916, 1.58474, 1.56934, 1.56208, 1.5503, 1.54658, 1.53485, 1.52678, 1.52328, 1.52074, 1.51768, 1.51398, 1.54114, 1.50649, 1.49431, 1.48441, 1.55036, 1.53488, 1.54038, 1.47172, 1.46831, 1.48198, 1.49217, 1.4587, 1.44092, 1.42722, 1.42345, 1.41035, 1.4044, 1.39891, 1.39621, 1.38986, 1.38616, 1.38124, 1.37646, 1.37423, 1.37708, 1.36392, 1.36771, 1.36512, 1.35706, 1.47184, 1.60953, 1.41551, 1.35312, 1.336, 1.33674, 1.32561, 1.31946
1.66747, 1.6589, 1.65832, 1.64233, 1.64883, 1.62899, 1.63037, 1.69105, 1.86508, 1.56157, 1.61057, 1.59108, 1.57965, 1.56972, 1.56199, 1.55044, 1.5436, 1.53324, 1.52638, 1.52096, 1.51985, 1.52014, 1.5245, 1.54292, 1.51239, 1.49663, 1.49847, 1.56183, 1.53396, 1.54276, 1.46402, 1.49104, 1.49512, 1.48534, 1.46477, 1.45017, 1.42437, 1.43607, 1.41121, 1.40516, 1.39931, 1.39635, 1.38798, 1.38473, 1.38037, 1.37734, 1.39247, 1.36939, 1.36161, 1.35639, 1.35503, 1.33243, 1.58538, 1.62026, 1.34705, 1.34366, 1.33267, 1.33017, 1.32532, 1.31963
1.66703, 1.66763, 1.65085, 1.64109, 1.63514, 1.62409, 1.6274, 1.65936, 1.87959, 1.55781, 1.59631, 1.5887, 1.57505, 1.58157, 1.55504, 1.54549, 1.54046, 1.52944, 1.52107, 1.51854, 1.5148, 1.51312, 1.51107, 1.54086, 1.50615, 1.49206, 1.46863, 1.54731, 1.54136, 1.5511, 1.49588, 1.49488, 1.50825, 1.46444, 1.44833, 1.42926, 1.42487, 1.41918, 1.40982, 1.40527, 1.39907, 1.39145, 1.38834, 1.38609, 1.37917, 1.37394, 1.37149, 1.36721, 1.3613, 1.35568, 1.35425, 1.36066, 1.41962, 1.63439, 1.46779, 1.34485, 1.32946, 1.32497, 1.31988, 1.31418
1.66587, 1.65619, 1.64901, 1.64101, 1.63292, 1.62467, 1.62385, 1.78295, 1.94511, 1.59323, 1.60583, 1.58985, 1.57553, 1.5753, 1.55507, 1.54783, 1.5384, 1.52979, 1.52163, 1.5198, 1.51538, 1.51142, 1.5123, 1.53271, 1.51773, 1.50758, 1.4771, 1.51895, 1.51695, 1.5593, 1.46901, 1.48848, 1.47876, 1.46168, 1.43754, 1.43349, 1.42245, 1.4191, 1.41178, 1.40883, 1.39568, 1.39479, 1.38817, 1.3882, 1.38155, 1.37573, 1.37276, 1.3669, 1.36191, 1.35444, 1.3546, 1.33751, 1.54773, 1.63974, 1.40494, 1.33622, 1.32805, 1.32483, 1.31948, 1.31566
1.66487, 1.65535, 1.65149, 1.64384, 1.63492, 1.62546, 1.63263, 1.73164, 1.86734, 1.56512, 1.60285, 1.60131, 1.59732, 1.56821, 1.55842, 1.55084, 1.54106, 1.53717, 1.52605, 1.52103, 1.51848, 1.51213, 1.50549, 1.52412, 1.53156, 1.49354, 1.47679, 1.55665, 1.54499, 1.54541, 1.49258, 1.47156, 1.4609, 1.44489, 1.4405, 1.43037, 1.42436, 1.42029, 1.41266, 1.40642, 1.3999, 1.39632, 1.39151, 1.38955, 1.38454, 1.38024, 1.37148, 1.36794, 1.36277, 1.36117, 1.35518, 1.35785, 1.48728, 1.63049, 1.56436, 1.33941, 1.32908, 1.32661, 1.32108, 1.31887
1.68593, 1.65317, 1.65098, 1.65569, 1.63662, 1.62865, 1.62141, 1.6614, 1.86534, 1.59238, 1.61415, 1.6037, 1.59588, 1.57699, 1.57762, 1.55438, 1.54498, 1.53722, 1.52805, 1.5212, 1.51747, 1.51288, 1.50962, 1.51499, 1.5649, 1.50629, 1.46995, 1.55201, 1.49871, 1.53222, 1.46696, 1.46844, 1.45642, 1.44703, 1.45022, 1.42997, 1.42268, 1.41848, 1.41054, 1.40648, 1.40179, 1.39591, 1.39145, 1.38875, 1.38573, 1.3796, 1.37293, 1.36807, 1.36336, 1.357, 1.358, 1.3572, 1.54454, 1.62662, 1.55833, 1.34936, 1.34996, 1.32903, 1.32253, 1.32161
1.65867, 1.64981, 1.66187, 1.64766, 1.63828, 1.62973, 1.62223, 1.72139, 1.81479, 1.57897, 1.627, 1.60006, 1.59343, 1.59578, 1.57673, 1.55448, 1.54451, 1.53917, 1.52835, 1.52233, 1.51617, 1.50696, 1.50708, 1.50761, 1.55181, 1.53197, 1.47911, 1.54123, 1.51749, 1.55154, 1.45893, 1.4787, 1.4546, 1.44154, 1.43943, 1.42952, 1.42411, 1.41716, 1.41259, 1.4055, 1.40298, 1.3981, 1.39204, 1.39437, 1.38577, 1.3801, 1.37732, 1.36756, 1.36504, 1.35778, 1.37049, 1.35905, 1.53819, 1.64023, 1.45014, 1.34798, 1.36511, 1.32776, 1.32266, 1.32227
1.654, 1.65102, 1.65073, 1.64318, 1.63201, 1.62612, 1.63192, 1.69183, 1.97326, 1.58732, 1.6091, 1.59322, 1.59508, 1.5738, 1.5636, 1.55085, 1.54742, 1.54416, 1.52731, 1.51998, 1.51578, 1.50968, 1.50756, 1.51385, 1.51908, 1.53002, 1.50565, 1.536, 1.50353, 1.52426, 1.45549, 1.45792, 1.46099, 1.44262, 1.43642, 1.42761, 1.42314, 1.41717, 1.41229, 1.40661, 1.40469, 1.39512, 1.39255, 1.38807, 1.38539, 1.38198, 1.37582, 1.36761, 1.36311, 1.36736, 1.37912, 1.36401, 1.525, 1.6663, 1.5331, 1.34845, 1.34687, 1.32735, 1.32306, 1.32268
1.65755, 1.65214, 1.65172, 1.65343, 1.638, 1.62776, 1.62133, 1.67642, 1.99346, 1.57899, 1.60714, 1.61224, 1.59121, 1.57118, 1.56293, 1.55388, 1.54369, 1.53419, 1.52973, 1.52161, 1.51706, 1.51409, 1.50704, 1.50244, 1.50716, 1.51716, 1.48563, 1.55619, 1.49875, 1.54764, 1.49643, 1.46138, 1.44843, 1.44323, 1.43406, 1.42375, 1.42368, 1.41532, 1.41077, 1.4073, 1.40485, 1.39503, 1.39096, 1.38827, 1.38107, 1.37819, 1.37436, 1.36578, 1.36133, 1.35717, 1.36145, 1.36139, 1.4497, 1.65983, 1.58282, 1.35143, 1.33253, 1.32751, 1.3229, 1.32084
1.66101, 1.65405, 1.65279, 1.64241, 1.63422, 1.63095, 1.63092, 1.69363, 1.8891, 1.57518, 1.6053, 1.60427, 1.59592, 1.58482, 1.5599, 1.55359, 1.54283, 1.53546, 1.52697, 1.52034, 1.51469, 1.5122, 1.50976, 1.49929, 1.49667, 1.49516, 1.49261, 1.54842, 1.5541, 1.52614, 1.4754, 1.47921, 1.46914, 1.4447, 1.43498, 1.4269, 1.41994, 1.41499, 1.41129, 1.40833, 1.40298, 1.39321, 1.38847, 1.38551, 1.38171, 1.37874, 1.37421, 1.36562, 1.36097, 1.35812, 1.35778, 1.35777, 1.53295, 1.66399, 1.35434, 1.34189, 1.33369, 1.32414, 1.32347, 1.32235
1.656, 1.65725, 1.65214, 1.64124, 1.63348, 1.62685, 1.6347, 1.68317, 1.97121, 1.55727, 1.60499, 1.5973, 1.58848, 1.58252, 1.55762, 1.5518, 1.541, 1.53555, 1.53023, 1.51645, 1.51291, 1.50988, 1.5039, 1.4981, 1.4943, 1.50133, 1.50145, 1.56449, 1.5304, 1.55353, 1.51199, 1.47683, 1.44928, 1.44372, 1.43551, 1.42708, 1.42265, 1.41647, 1.41285, 1.40962, 1.40295, 1.39536, 1.39034, 1.38528, 1.38158, 1.37707, 1.37182, 1.37134, 1.36277, 1.35813, 1.36087, 1.37102, 1.52435, 1.6542, 1.50409, 1.35052, 1.33331, 1.32474, 1.32311, 1.32379
1.65825, 1.65388, 1.65139, 1.65442, 1.6403, 1.62418, 1.62924, 1.67272, 1.942, 1.8622, 1.58083, 1.59414, 1.59611, 1.58225, 1.55576, 1.54844, 1.54134, 1.53575, 1.53034, 1.5208, 1.51464, 1.50824, 1.50089, 1.49639, 1.49134, 1.49249, 1.51371, 1.55232, 1.53339, 1.54518, 1.47073, 1.46604, 1.44984, 1.4468, 1.43745, 1.42828, 1.42213, 1.41594, 1.4131, 1.40899, 1.40147, 1.39689, 1.38989, 1.38623, 1.38099, 1.37591, 1.37059, 1.36737, 1.3624, 1.35744, 1.35681, 1.36049, 1.53614, 1.63292, 1.62984, 1.35081, 1.33043, 1.32586, 1.32425, 1.32667
1.65631, 1.65223, 1.64694, 1.64795, 1.63147, 1.62502, 1.6201, 1.76303, 2.04808, 1.5632, 1.57684, 1.56883, 1.60676, 1.59533, 1.5514, 1.54803, 1.5411, 1.53783, 1.52779, 1.52016, 1.51277, 1.5068, 1.49953, 1.49461, 1.4896, 1.4935, 1.50081, 1.54173, 1.50535, 1.52996, 1.45998, 1.46588, 1.44992, 1.44211, 1.43646, 1.42617, 1.42246, 1.41764, 1.41384, 1.40885, 1.39913, 1.3948, 1.39224, 1.38744, 1.3808, 1.37688, 1.37352, 1.36898, 1.36317, 1.36469, 1.35694, 1.36165, 1.51843, 1.6275, 1.57094, 1.34455, 1.33025, 1.32445, 1.32311, 1.32221
1.65425, 1.64944, 1.65564, 1.63839, 1.63161, 1.62489, 1.63364, 1.64789, 1.82595, 1.57268, 1.5649, 1.61054, 1.59587, 1.5866, 1.55069, 1.54661, 1.54186, 1.53543, 1.52811, 1.51766, 1.5126, 1.50678, 1.49912, 1.49392, 1.48905, 1.50314, 1.49629, 1.53894, 1.49543, 1.51904, 1.46865, 1.4631, 1.45132, 1.43965, 1.43289, 1.42371, 1.42024, 1.41747, 1.41306, 1.40737, 1.39972, 1.39503, 1.39046, 1.38157, 1.37808, 1.37474, 1.37312, 1.36785, 1.35769, 1.35667, 1.35329, 1.35806, 1.48821, 1.55115, 1.55608, 1.34427, 1.32927, 1.32471, 1.32002, 1.31852
1.65776, 1.64811, 1.64058, 1.63726, 1.6306, 1.62312, 1.62677, 1.74402, 1.79555, 1.75459, 1.56121, 1.71303, 1.61315, 1.57467, 1.55151, 1.54742, 1.54263, 1.53458, 1.53044, 1.51841, 1.51249, 1.5074, 1.50375, 1.4949, 1.48778, 1.48683, 1.50856, 1.543, 1.51224, 1.50975, 1.47438, 1.47211, 1.45747, 1.4375, 1.42805, 1.4236, 1.42108, 1.41745, 1.41555, 1.40587, 1.39973, 1.39348, 1.38704, 1.38473, 1.37824, 1.37124, 1.36549, 1.36378, 1.37914, 1.35499, 1.35327, 1.36521, 1.51103, 1.58913, 1.50803, 1.34612, 1.34727, 1.32387, 1.31982, 1.31338
1.6559, 1.6453, 1.64271, 1.63779, 1.62744, 1.62121, 1.62327, 1.70694, 1.94443, 1.58348, 1.55194, 1.76916, 1.62025, 1.59295, 1.57915, 1.5617, 1.53981, 1.5369, 1.52999, 1.51862, 1.51141, 1.50788, 1.49995, 1.49281, 1.48646, 1.48812, 1.48831, 1.53697, 1.52637, 1.52654, 1.50685, 1.46971, 1.44733, 1.43733, 1.4292, 1.42534, 1.41935, 1.41937, 1.40857, 1.40434, 1.3964, 1.39376, 1.3885, 1.38402, 1.37764, 1.37174, 1.36729, 1.36445, 1.36422, 1.3559, 1.35778, 1.35045, 1.5346, 1.66445, 1.48881, 1.35407, 1.34083, 1.32898, 1.35168, 1.31372
1.65869, 1.64727, 1.64138, 1.63443, 1.62582, 1.63047, 1.61887, 1.70021, 1.79564, 1.55775, 1.55365, 1.78713, 1.60958, 1.60561, 1.56848, 1.5577, 1.54264, 1.5338, 1.52633, 1.52139, 1.51302, 1.50544, 1.50062, 1.49238, 1.49202, 1.4869, 1.48635, 1.53523, 1.48523, 1.52978, 1.44536, 1.45658, 1.44704, 1.43636, 1.42741, 1.42031, 1.42204, 1.42082, 1.4076, 1.401, 1.39556, 1.3915, 1.38374, 1.3812, 1.37799, 1.37272, 1.36644, 1.36715, 1.359, 1.35762, 1.36121, 1.35793, 1.44029, 1.64775, 1.57891, 1.34835, 1.34329, 1.32184, 1.32625, 1.31397
1.6529, 1.64783, 1.64223, 1.63473, 1.63371, 1.61984, 1.62953, 1.68911, 2.01002, 1.56556, 1.57171, 1.70908, 1.61013, 1.57468, 1.57749, 1.54543, 1.54333, 1.53062, 1.52817, 1.5232, 1.51343, 1.50483, 1.50054, 1.50264, 1.48805, 1.48853, 1.48644, 1.53159, 1.48648, 1.53032, 1.47393, 1.46328, 1.44661, 1.43011, 1.42674, 1.42212, 1.42182, 1.41734, 1.40631, 1.40149, 1.39548, 1.39129, 1.38633, 1.38261, 1.37635, 1.37211, 1.36961, 1.36701, 1.36293, 1.35723, 1.35669, 1.35455, 1.52284, 1.72033, 1.49012, 1.34643, 1.33691, 1.33574, 1.3272, 1.32008
1.65302, 1.6539, 1.64129, 1.63041, 1.62737, 1.61809, 1.61851, 1.601, 1.76793, 1.61704, 1.56862, 1.66381, 1.59259, 1.5824, 1.56546, 1.55022, 1.54029, 1.53534, 1.52481, 1.52021, 1.51075, 1.50384, 1.49566, 1.49179, 1.48595, 1.48455, 1.49244, 1.54441, 1.4915, 1.5025, 1.48774, 1.46382, 1.43559, 1.43459, 1.42549, 1.42254, 1.42023, 1.41309, 1.405, 1.40323, 1.39563, 1.39105, 1.3877, 1.38369, 1.37764, 1.37856, 1.36958, 1.36453, 1.35803, 1.35727, 1.36046, 1.35289, 1.46799, 1.64396, 1.59327, 1.34783, 1.33021, 1.34088, 1.31753, 1.32208
1.64918, 1.64054, 1.63898, 1.62724, 1.61953, 1.61304, 1.61693, 1.59316, 1.9955, 1.77701, 1.56242, 1.56748, 1.5918, 1.58692, 1.56439, 1.53841, 1.53491, 1.52959, 1.5196, 1.51712, 1.5071, 1.49855, 1.49236, 1.48567, 1.4837, 1.48391, 1.50145, 1.53506, 1.52418, 1.52079, 1.4865, 1.45621, 1.44234, 1.43137, 1.42111, 1.41887, 1.41954, 1.41253, 1.40083, 1.39569, 1.39483, 1.39108, 1.38861, 1.3797, 1.37721, 1.37062, 1.36642, 1.3635, 1.36063, 1.35105, 1.35006, 1.35082, 1.5065, 1.64405, 1.46489, 1.34158, 1.32767, 1.319, 1.31079, 1.31253
1.64441, 1.63937, 1.63111, 1.62523, 1.61812, 1.6129, 1.61661, 1.68631, 1.79148, 1.57164, 1.57908, 1.58717, 1.5964, 1.57212, 1.5453, 1.53771, 1.53248, 1.52514, 1.51992, 1.51586, 1.50691, 1.49869, 1.49115, 1.48623, 1.47925, 1.48115, 1.49624, 1.52038, 1.52166, 1.48854, 1.48986, 1.45082, 1.44455, 1.43282, 1.42309, 1.42007, 1.4183, 1.41555, 1.40114, 1.39743, 1.38881, 1.38853, 1.38819, 1.37804, 1.37756, 1.36511, 1.36458, 1.36119, 1.35769, 1.35401, 1.34784, 1.36175, 1.46884, 1.60057, 1.65513, 1.33035, 1.32058, 1.3184, 1.31552, 1.31025
1.64536, 1.63926, 1.63129, 1.62652, 1.62136, 1.61186, 1.60676, 1.58912, 1.83884, 1.59646, 1.57855, 1.5805, 1.59228, 1.58586, 1.54264, 1.53363, 1.53239, 1.52543, 1.51898, 1.51364, 1.50597, 1.49891, 1.48931, 1.48338, 1.47823, 1.47618, 1.51297, 1.5373, 1.53777, 1.482, 1.503, 1.45544, 1.44412, 1.43082, 1.423, 1.41805, 1.41116, 1.40544, 1.39889, 1.39269, 1.3882, 1.38913, 1.38785, 1.38523, 1.36915, 1.3639, 1.36401, 1.3643, 1.35645, 1.35378, 1.34702, 1.35442, 1.48277, 1.7202, 1.45317, 1.32819, 1.323, 1.31366, 1.31351, 1.3086
1.64264, 1.63699, 1.63248, 1.63013, 1.61998, 1.61161, 1.60821, 1.67799, 1.84985, 1.60026, 1.57736, 1.5772, 1.57549, 1.56219, 1.55032, 1.53693, 1.5331, 1.52323, 1.51825, 1.51197, 1.50766, 1.49319, 1.48522, 1.48257, 1.4774, 1.47863, 1.47946, 1.52692, 1.47898, 1.50533, 1.5189, 1.4684, 1.44952, 1.44106, 1.4262, 1.41707, 1.41193, 1.40626, 1.40127, 1.39157, 1.38966, 1.38801, 1.38614, 1.38308, 1.37179, 1.36269, 1.36068, 1.36026, 1.35791, 1.35339, 1.34537, 1.34787, 1.50568, 1.6168, 1.48416, 1.34105, 1.31898, 1.31852, 1.3157, 1.3103
1.64418, 1.63722, 1.6331, 1.62483, 1.62363, 1.61058, 1.60775, 1.68266, 1.90275, 1.71074, 1.59223, 1.57784, 1.57537, 1.56339, 1.54998, 1.5368, 1.5286, 1.52217, 1.51709, 1.50965, 1.50634, 1.49497, 1.48799, 1.48138, 1.47902, 1.47801, 1.49619, 1.52751, 1.54918, 1.51782, 1.491, 1.45818, 1.43878, 1.43222, 1.44686, 1.41705, 1.41581, 1.40384, 1.39677, 1.39287, 1.3868, 1.38701, 1.38478, 1.37796, 1.37252, 1.36173, 1.35883, 1.35666, 1.35321, 1.3476, 1.34401, 1.36311, 1.49124, 1.55709, 1.69538, 1.33356, 1.3194, 1.31613, 1.31487, 1.30828
1.64021, 1.63634, 1.63205, 1.62754, 1.62043, 1.61764, 1.60849, 1.59285, 1.76888, 1.59155, 1.55185, 1.57349, 1.56618, 1.57129, 1.54463, 1.55493, 1.53379, 1.52261, 1.517, 1.51034, 1.50423, 1.49213, 1.48603, 1.48362, 1.47751, 1.4761, 1.49434, 1.5244, 1.54382, 1.49151, 1.49563, 1.45699, 1.44052, 1.43006, 1.42225, 1.423, 1.4159, 1.40339, 1.39983, 1.39152, 1.39208, 1.38713, 1.38317, 1.38078, 1.36782, 1.36511, 1.35997, 1.35808, 1.35392, 1.34665, 1.34449, 1.34649, 1.392, 1.61284, 1.67259, 1.34181, 1.32021, 1.31784, 1.31673, 1.31153
1.64264, 1.63681, 1.63392, 1.62741, 1.62182, 1.614, 1.61197, 1.60169, 1.8101, 1.77645, 1.57605, 1.57179, 1.57654, 1.56146, 1.55401, 1.53836, 1.53389, 1.52382, 1.51632, 1.51081, 1.50367, 1.49465, 1.48733, 1.48232, 1.47765, 1.48104, 1.48262, 1.51532, 1.51671, 1.49674, 1.45315, 1.46114, 1.43842, 1.42791, 1.42344, 1.41961, 1.41229, 1.40774, 1.39904, 1.39542, 1.38861, 1.39227, 1.38518, 1.37501, 1.36827, 1.36063, 1.35938, 1.36232, 1.35391, 1.34675, 1.34562, 1.35074, 1.47439, 1.66162, 1.65508, 1.33009, 1.332, 1.32832, 1.31528, 1.31218
1.64125, 1.63316, 1.63041, 1.62449, 1.61931, 1.61302, 1.61734, 1.5929, 1.81185, 1.75891, 1.57663, 1.56924, 1.56319, 1.55808, 1.54943, 1.53824, 1.53319, 1.51689, 1.51494, 1.50895, 1.50223, 1.49847, 1.49119, 1.48431, 1.47567, 1.4766, 1.47792, 1.56768, 1.53757, 1.49218, 1.49831, 1.45855, 1.43805, 1.42859, 1.42019, 1.41634, 1.41195, 1.40548, 1.40066, 1.39471, 1.38892, 1.38503, 1.38084, 1.37246, 1.36402, 1.35944, 1.35936, 1.35457, 1.35356, 1.34637, 1.34042, 1.34107, 1.41715, 1.58072, 1.67562, 1.34427, 1.31981, 1.32742, 1.31358, 1.31276
1.64106, 1.63428, 1.62968, 1.62523, 1.61982, 1.61127, 1.60654, 1.64391, 1.81643, 1.66115, 1.57352, 1.57635, 1.56565, 1.56804, 1.55076, 1.53956, 1.53033, 1.51788, 1.51551, 1.50715, 1.50267, 1.49722, 1.49483, 1.48189, 1.47663, 1.47495, 1.49184, 1.51592, 1.50422, 1.48372, 1.50592, 1.45442, 1.43615, 1.42444, 1.42195, 1.41598, 1.41194, 1.40548, 1.40074, 1.39535, 1.38794, 1.38753, 1.38133, 1.37294, 1.36526, 1.36008, 1.35658, 1.35411, 1.35329, 1.34539, 1.3418, 1.34771, 1.40338, 1.55705, 1.67039, 1.32588, 1.34054, 1.31692, 1.31774, 1.31171
1.63792, 1.6349, 1.63086, 1.64143, 1.61972, 1.60779, 1.60691, 1.61597, 1.8481, 1.75241, 1.58332, 1.58125, 1.58532, 1.57832, 1.58329, 1.54312, 1.53147, 1.52641, 1.51935, 1.51041, 1.50446, 1.4989, 1.4888, 1.48343, 1.48131, 1.47877, 1.48448, 1.5144, 1.49239, 1.48363, 1.48495, 1.46013, 1.43388, 1.42664, 1.42031, 1.41596, 1.41311, 1.40783, 1.4025, 1.39298, 1.38909, 1.38391, 1.37751, 1.37098, 1.36548, 1.36001, 1.35951, 1.35732, 1.34965, 1.34511, 1.34308, 1.34382, 1.34118, 1.69797, 1.7066, 1.33134, 1.334, 1.3179, 1.31618, 1.30938
1.64077, 1.63576, 1.63133, 1.62765, 1.62064, 1.61014, 1.61298, 1.67245, 1.76681, 1.7811, 1.58302, 1.57889, 1.5663, 1.56108, 1.54469, 1.54192, 1.53674, 1.52409, 1.52041, 1.51118, 1.50949, 1.49875, 1.48964, 1.48527, 1.47961, 1.48019, 1.48859, 1.5106, 1.50677, 1.51983, 1.48405, 1.4608, 1.43451, 1.42646, 1.42034, 1.41591, 1.41137, 1.40595, 1.40182, 1.39445, 1.38908, 1.38218, 1.38042, 1.37131, 1.36365, 1.35814, 1.35841, 1.35546, 1.35024, 1.34687, 1.34381, 1.34203, 1.46767, 1.5864, 1.37606, 1.34667, 1.32329, 1.31802, 1.31622, 1.31145
1.6396, 1.63296, 1.63746, 1.62616, 1.62965, 1.6167, 1.61541, 1.57373, 1.75226, 1.77576, 1.58354, 1.5931, 1.56748, 1.56569, 1.54342, 1.5401, 1.53158, 1.52703, 1.51901, 1.51972, 1.5058, 1.49672, 1.49255, 1.48484, 1.47861, 1.47933, 1.48234, 1.50461, 1.51891, 1.47631, 1.4862, 1.45406, 1.42734, 1.42444, 1.42188, 1.41881, 1.4081, 1.40892, 1.39865, 1.39549, 1.38583, 1.3787, 1.37372, 1.36571, 1.35946, 1.35694, 1.35714, 1.3551, 1.35049, 1.34635, 1.34335, 1.34283, 1.4359, 1.59303, 1.48787, 1.32304, 1.32742, 1.31424, 1.31284, 1.30719
1.64188, 1.63143, 1.62743, 1.6212, 1.61156, 1.61426, 1.6009, 1.59978, 1.79002, 1.59624, 1.58566, 1.58814, 1.58634, 1.55271, 1.54377, 1.53406, 1.52953, 1.52658, 1.51865, 1.51111, 1.49919, 1.49402, 1.48871, 1.48474, 1.47944, 1.47588, 1.4991, 1.50078, 1.48681, 1.48414, 1.47839, 1.44207, 1.42554, 1.42167, 1.41932, 1.41628, 1.40714, 1.39974, 1.39813, 1.39205, 1.38432, 1.37863, 1.37108, 1.3608, 1.35752, 1.35495, 1.35732, 1.36219, 1.34782, 1.34398, 1.35302, 1.34072, 1.34432, 1.56351, 1.53501, 1.3138, 1.337, 1.32061, 1.30862, 1.30168
1.63758, 1.62731, 1.62417, 1.61662, 1.61188, 1.60618, 1.59608, 1.63407, 1.78156, 1.73385, 1.57823, 1.5681, 1.56883, 1.54755, 1.53921, 1.53107, 1.52803, 1.52358, 1.51011, 1.50534, 1.49651, 1.49092, 1.48648, 1.47862, 1.48522, 1.47507, 1.482, 1.50298, 1.49365, 1.47764, 1.48918, 1.43665, 1.42393, 1.41953, 1.41511, 1.41599, 1.4076, 1.40278, 1.39549, 1.38854, 1.3796, 1.37514, 1.3666, 1.36093, 1.35675, 1.3531, 1.35229, 1.35032, 1.34727, 1.34022, 1.33688, 1.33615, 1.42723, 1.5217, 1.48879, 1.31461, 1.31349, 1.30852, 1.30608, 1.29973
1.63419, 1.62707, 1.62333, 1.62064, 1.60794, 1.60051, 1.59289, 1.59736, 1.78046, 1.61864, 1.60602, 1.56319, 1.55397, 1.54532, 1.53509, 1.52675, 1.5253, 1.52203, 1.51262, 1.50245, 1.49781, 1.48672, 1.48075, 1.47575, 1.4737, 1.4699, 1.48131, 1.5068, 1.50703, 1.47573, 1.47974, 1.44197, 1.43555, 1.41881, 1.41222, 1.40999, 1.40648, 1.39275, 1.38976, 1.38547, 1.37893, 1.37348, 1.36456, 1.35682, 1.35415, 1.34978, 1.35166, 1.35118, 1.34648, 1.33738, 1.33419, 1.33448, 1.4481, 1.62092, 1.55344, 1.30609, 1.30845, 1.30724, 1.30196, 1.29477
1.63348, 1.62752, 1.61838, 1.61408, 1.60717, 1.59963, 1.58834, 1.59019, 1.744, 1.64497, 1.57572, 1.56288, 1.54919, 1.54099, 1.52996, 1.52293, 1.52233, 1.52362, 1.51232, 1.50393, 1.4946, 1.48637, 1.48792, 1.47291, 1.46769, 1.47082, 1.47254, 1.52593, 1.48784, 1.49223, 1.48368, 1.44195, 1.42839, 1.41693, 1.40989, 1.40769, 1.40263, 1.38948, 1.3861, 1.38183, 1.37824, 1.37485, 1.36527, 1.36113, 1.35554, 1.34636, 1.3481, 1.34745, 1.34435, 1.33471, 1.3404, 1.34341, 1.29172, 1.5536, 1.46546, 1.31028, 1.30979, 1.30616, 1.30023, 1.29255
1.6337, 1.63008, 1.61883, 1.61214, 1.60653, 1.59871, 1.59526, 1.58631, 1.95929, 1.89873, 1.5693, 1.56497, 1.55316, 1.5366, 1.5296, 1.52131, 1.52291, 1.51368, 1.50913, 1.50037, 1.49567, 1.48873, 1.47741, 1.47258, 1.46586, 1.46606, 1.46885, 1.48342, 1.49602, 1.48049, 1.48656, 1.43763, 1.42593, 1.41438, 1.40962, 1.40495, 1.4017, 1.39291, 1.38344, 1.37884, 1.37778, 1.37233, 1.36566, 1.35872, 1.35124, 1.34583, 1.34789, 1.35321, 1.33871, 1.33505, 1.32661, 1.32947, 1.29527, 1.55845, 1.84838, 1.31536, 1.30697, 1.30615, 1.29889, 1.29358
1.63628, 1.63086, 1.62308, 1.61174, 1.60778, 1.59692, 1.58923, 1.58953, 1.87309, 1.84849, 1.56774, 1.56848, 1.54951, 1.53908, 1.53802, 1.51951, 1.51711, 1.51456, 1.50995, 1.49977, 1.4923, 1.48862, 1.47879, 1.47274, 1.46611, 1.46462, 1.46942, 1.4884, 1.49202, 1.47577, 1.49198, 1.43903, 1.41684, 1.41349, 1.41067, 1.40351, 1.40131, 1.392, 1.38833, 1.37998, 1.38094, 1.37494, 1.36793, 1.35765, 1.35056, 1.34846, 1.34849, 1.36773, 1.35357, 1.33754, 1.32909, 1.33364, 1.37145, 1.56943, 1.72113, 1.31497, 1.3127, 1.30614, 1.3008, 1.29607
1.6327, 1.63476, 1.63111, 1.60894, 1.60793, 1.60827, 1.59582, 1.60069, 1.711, 1.9999, 1.57821, 1.5677, 1.55782, 1.5385, 1.53438, 1.52167, 1.5185, 1.51369, 1.50619, 1.49933, 1.4891, 1.48177, 1.47959, 1.47097, 1.4659, 1.4643, 1.48536, 1.48838, 1.47727, 1.47102, 1.46907, 1.46314, 1.4245, 1.40963, 1.40879, 1.40414, 1.3999, 1.39494, 1.38927, 1.38123, 1.37571, 1.37145, 1.36426, 1.35799, 1.34957, 1.34892, 1.3485, 1.34733, 1.34298, 1.33656, 1.33224, 1.33173, 1.32599, 1.55757, 1.55042, 1.31528, 1.31081, 1.31271, 1.32035, 1.29776
1.63094, 1.6262, 1.61927, 1.60989, 1.61934, 1.59821, 1.5935, 1.60237, 1.64378, 1.58501, 1.57394, 1.56039, 1.54894, 1.54162, 1.53053, 1.52275, 1.51739, 1.50989, 1.504, 1.49588, 1.4889, 1.48358, 1.4791, 1.47179, 1.4652, 1.4677, 1.46649, 1.50597, 1.47967, 1.47171, 1.47601, 1.45057, 1.44347, 1.41136, 1.40907, 1.40233, 1.3959, 1.39126, 1.39253, 1.37988, 1.37437, 1.37441, 1.36459, 1.36099, 1.35767, 1.34932, 1.3469, 1.34504, 1.34097, 1.34053, 1.34724, 1.33504, 1.4461, 1.56611, 1.72911, 1.30594, 1.31877, 1.32251, 1.29973, 1.29819
1.63068, 1.62313, 1.61843, 1.60781, 1.60371, 1.59675, 1.6099, 1.59743, 1.66878, 1.69202, 1.58292, 1.55877, 1.55121, 1.54323, 1.53082, 1.52688, 1.51606, 1.50947, 1.50472, 1.49526, 1.48957, 1.48343, 1.47722, 1.47426, 1.46505, 1.46146, 1.47406, 1.48677, 1.48016, 1.48251, 1.47057, 1.44474, 1.43698, 1.41336, 1.40896, 1.40592, 1.40041, 1.39133, 1.3849, 1.37992, 1.37132, 1.36747, 1.36456, 1.3633, 1.35461, 1.35024, 1.34617, 1.34364, 1.34141, 1.33707, 1.33298, 1.35726, 1.3048, 1.57293, 1.48459, 1.32381, 1.31698, 1.32563, 1.30659, 1.29763
1.6338, 1.62728, 1.61705, 1.60713, 1.60323, 1.59719, 1.60652, 1.59555, 1.68865, 1.89326, 1.56848, 1.55806, 1.54513, 1.55616, 1.5318, 1.52023, 1.51646, 1.50984, 1.50603, 1.5004, 1.49088, 1.4826, 1.4778, 1.47039, 1.46378, 1.46892, 1.47485, 1.49483, 1.48847, 1.46406, 1.49902, 1.44326, 1.42389, 1.41296, 1.41661, 1.40759, 1.39974, 1.39233, 1.38244, 1.37565, 1.37109, 1.36868, 1.36387, 1.35905, 1.35564, 1.35198, 1.34642, 1.34546, 1.34117, 1.34018, 1.34354, 1.337, 1.32252, 1.53346, 1.57219, 1.33261, 1.3377, 1.32389, 1.30942, 1.29796
1.63196, 1.6269, 1.61807, 1.60877, 1.6007, 1.59765, 1.61089, 1.59304, 1.75487, 2.0118, 1.56849, 1.56748, 1.549, 1.54773, 1.53606, 1.52109, 1.51436, 1.51192, 1.5066, 1.49916, 1.49297, 1.48262, 1.47496, 1.46864, 1.4647, 1.46273, 1.46743, 1.49294, 1.47629, 1.46487, 1.47537, 1.44938, 1.43689, 1.41057, 1.40588, 1.40301, 1.40273, 1.38842, 1.38474, 1.3755, 1.3737, 1.36853, 1.36453, 1.36145, 1.35744, 1.35427, 1.34862, 1.34389, 1.34023, 1.33768, 1.33675, 1.3479, 1.31977, 1.73071, 1.39379, 1.31984, 1.31625, 1.3092, 1.30429, 1.30357
1.63139, 1.62319, 1.61449, 1.60621, 1.6, 1.60356, 1.60659, 1.59038, 1.65902, 1.8051, 1.56429, 1.55834, 1.55872, 1.5446, 1.53477, 1.52593, 1.51599, 1.51042, 1.50754, 1.49916, 1.48902, 1.48447, 1.47657, 1.4687, 1.46247, 1.4696, 1.47093, 1.47551, 1.4885, 1.46452, 1.48452, 1.44319, 1.43419, 1.42305, 1.41226, 1.40108, 1.39709, 1.39082, 1.384, 1.37763, 1.37513, 1.37374, 1.36529, 1.37037, 1.3586, 1.35491, 1.34766, 1.34386, 1.33982, 1.33825, 1.34361, 1.34768, 1.33081, 1.60933, 1.48976, 1.31736, 1.31295, 1.30313, 1.32193, 1.31242
1.62824, 1.62802, 1.61415, 1.60648, 1.60239, 1.61304, 1.58909, 1.58897, 1.75513, 1.70751, 1.55778, 1.55676, 1.5608, 1.5479, 1.55219, 1.52548, 1.5141, 1.50895, 1.50257, 1.49663, 1.48992, 1.47994, 1.47217, 1.46834, 1.47217, 1.45937, 1.47799, 1.47458, 1.46877, 1.46167, 1.47182, 1.45269, 1.42774, 1.40664, 1.40417, 1.42, 1.4008, 1.38822, 1.38144, 1.37728, 1.3748, 1.36838, 1.3639, 1.36045, 1.3606, 1.3498, 1.34122, 1.3403, 1.33776, 1.33314, 1.35507, 1.33294, 1.33435, 1.54086, 1.49847, 1.31934, 1.30899, 1.31254, 1.29884, 1.29268
1.62737, 1.61572, 1.61007, 1.60083, 1.61611, 1.59936, 1.59636, 1.59627, 1.82415, 1.62968, 1.5526, 1.54753, 1.54076, 1.53226, 1.5272, 1.52437, 1.51111, 1.50612, 1.49679, 1.49221, 1.48182, 1.47501, 1.47128, 1.47048, 1.45849, 1.46231, 1.47453, 1.48161, 1.46626, 1.45878, 1.46791, 1.43352, 1.42466, 1.41486, 1.41258, 1.39819, 1.39246, 1.38651, 1.37901, 1.37594, 1.37398, 1.36619, 1.36216, 1.35234, 1.35164, 1.3458, 1.33749, 1.33752, 1.33491, 1.33282, 1.347, 1.33325, 1.31991, 1.45778, 1.42768, 1.30498, 1.3001, 1.30207, 1.29617, 1.28757
1.6193, 1.6101, 1.60718, 1.61419, 1.59076, 1.60229, 1.59676, 1.599, 1.73306, 1.90269, 1.54524, 1.55953, 1.53832, 1.52621, 1.52272, 1.51978, 1.5084, 1.49738, 1.48873, 1.48286, 1.47897, 1.46953, 1.47704, 1.46065, 1.45414, 1.45044, 1.46231, 1.46628, 1.48097, 1.47624, 1.46545, 1.42995, 1.41517, 1.39906, 1.39694, 1.39418, 1.38558, 1.3829, 1.37833, 1.37046, 1.37081, 1.3585, 1.35273, 1.34184, 1.34167, 1.33516, 1.33988, 1.33336, 1.33028, 1.32537, 1.33327, 1.33058, 1.3788, 1.62735, 1.45184, 1.30671, 1.29589, 1.29265, 1.29912, 1.29175
1.60597, 1.60275, 1.59521, 1.59929, 1.57867, 1.59304, 1.57191, 1.57264, 1.71446, 1.95187, 1.52484, 1.53743, 1.52777, 1.52331, 1.51341, 1.50867, 1.50022, 1.48979, 1.4824, 1.47388, 1.46843, 1.46509, 1.46145, 1.47163, 1.44638, 1.44806, 1.45358, 1.46712, 1.45398, 1.45637, 1.47878, 1.42473, 1.40423, 1.38563, 1.38417, 1.38813, 1.3848, 1.36937, 1.36543, 1.36191, 1.35475, 1.34378, 1.33744, 1.34031, 1.33646, 1.33686, 1.3206, 1.3221, 1.31759, 1.31339, 1.30701, 1.31327, 1.29209, 1.43326, 1.4608, 1.27782, 1.29216, 1.29016, 1.28798, 1.26852
1.60409, 1.59522, 1.59204, 1.58137, 1.57219, 1.57466, 1.56559, 1.58071, 1.70291, 1.71927, 1.53659, 1.526, 1.51241, 1.5099, 1.50875, 1.50079, 1.50189, 1.4853, 1.47552, 1.46947, 1.46325, 1.4593, 1.45322, 1.44451, 1.43847, 1.43471, 1.45465, 1.45887, 1.45139, 1.44811, 1.45083, 1.41115, 1.39198, 1.38154, 1.37925, 1.38445, 1.38481, 1.3644, 1.35969, 1.3523, 1.35046, 1.34509, 1.33636, 1.32702, 1.33001, 1.33263, 1.31417, 1.3137, 1.31665, 1.3076, 1.30175, 1.31637, 1.29611, 1.57881, 1.86643, 1.2869, 1.28873, 1.29279, 1.26819, 1.26369
1.60124, 1.59763, 1.58834, 1.57585, 1.57298, 1.56516, 1.56805, 1.56221, 1.61688, 2.08331, 1.53691, 1.53251, 1.51252, 1.51282, 1.50719, 1.50268, 1.4982, 1.49161, 1.48001, 1.47505, 1.47157, 1.46178, 1.45275, 1.44429, 1.44862, 1.43487, 1.45429, 1.45425, 1.44711, 1.44971, 1.44271, 1.41502, 1.40159, 1.40487, 1.37719, 1.38369, 1.37812, 1.36151, 1.35579, 1.35421, 1.35127, 1.34556, 1.33542, 1.3368, 1.32407, 1.32529, 1.32058, 1.31194, 1.31847, 1.30619, 1.30115, 1.30251, 1.28918, 1.48544, 1.63599, 1.28545, 1.28962, 1.28078, 1.27222, 1.27567
1.59949, 1.6012, 1.59082, 1.58533, 1.57816, 1.57332, 1.57253, 1.57581, 1.71013, 1.77902, 1.50592, 1.5445, 1.51643, 1.51697, 1.50995, 1.50531, 1.50278, 1.49727, 1.48144, 1.48412, 1.47627, 1.4643, 1.45545, 1.45261, 1.45706, 1.44399, 1.44494, 1.45433, 1.45721, 1.44736, 1.44722, 1.41769, 1.42118, 1.41322, 1.40292, 1.38435, 1.3798, 1.38223, 1.36721, 1.35957, 1.35821, 1.35571, 1.34285, 1.34238, 1.32989, 1.33231, 1.32696, 1.31659, 1.32069, 1.31609, 1.32609, 1.3242, 1.29927, 1.47505, 1.56093, 1.28493, 1.29143, 1.28298, 1.28173, 1.27602
1.6124, 1.6102, 1.61168, 1.59255, 1.58525, 1.59069, 1.58558, 1.58211, 1.63433, 1.93736, 1.50204, 1.55198, 1.52919, 1.52628, 1.51592, 1.52221, 1.50654, 1.50157, 1.48842, 1.48591, 1.48308, 1.47105, 1.46091, 1.45512, 1.45327, 1.44448, 1.45071, 1.45603, 1.47433, 1.45595, 1.45566, 1.44312, 1.41304, 1.40497, 1.39552, 1.38933, 1.38504, 1.37846, 1.37164, 1.36538, 1.36365, 1.35982, 1.3536, 1.34898, 1.33764, 1.33554, 1.33477, 1.32624, 1.32879, 1.32003, 1.31585, 1.31753, 1.29986, 1.52435, 1.50739, 1.28961, 1.31151, 1.29588, 1.28596, 1.28443
1.61705, 1.61532, 1.61324, 1.60934, 1.59195, 1.58543, 1.58299, 1.58316, 1.60729, 1.99075, 1.56257, 1.56119, 1.54225, 1.52569, 1.52314, 1.51859, 1.50793, 1.5053, 1.49354, 1.4889, 1.48409, 1.48296, 1.47903, 1.4608, 1.45412, 1.46137, 1.45218, 1.45779, 1.48492, 1.4599, 1.44645, 1.44323, 1.42346, 1.40904, 1.39743, 1.39815, 1.39484, 1.38463, 1.37314, 1.37068, 1.36918, 1.36303, 1.35849, 1.35295, 1.34671, 1.34305, 1.33699, 1.32956, 1.33022, 1.32725, 1.32108, 1.34294, 1.32636, 1.49568, 1.48288, 1.30776, 1.30182, 1.29755, 1.29123, 1.29215
1.61878, 1.61361, 1.61308, 1.6074, 1.59717, 1.5867, 1.58224, 1.59084, 1.73759, 1.75159, 1.55195, 1.5509, 1.54463, 1.54224, 1.52517, 1.51721, 1.51599, 1.50049, 1.49801, 1.4897, 1.48468, 1.47201, 1.46722, 1.45857, 1.45761, 1.44967, 1.45715, 1.45637, 1.46604, 1.45778, 1.45612, 1.43068, 1.43353, 1.42098, 1.40392, 1.39526, 1.40902, 1.38325, 1.37578, 1.3734, 1.36593, 1.36112, 1.35572, 1.35164, 1.34957, 1.34135, 1.33732, 1.33222, 1.33197, 1.34238, 1.32107, 1.32566, 1.33078, 1.56744, 1.48905, 1.3297, 1.31577, 1.29627, 1.2926, 1.29025
1.61846, 1.61401, 1.60707, 1.59838, 1.59319, 1.58989, 1.58196, 1.57481, 1.63462, 1.78347, 1.5636, 1.54159, 1.53326, 1.54072, 1.54668, 1.51437, 1.50408, 1.50286, 1.49498, 1.48907, 1.47817, 1.47178, 1.4649, 1.45701, 1.45263, 1.45106, 1.46355, 1.46843, 1.45413, 1.45077, 1.46231, 1.45404, 1.43211, 1.40879, 1.41248, 1.39536, 1.38745, 1.38217, 1.3787, 1.37381, 1.36811, 1.36421, 1.36158, 1.35044, 1.34938, 1.33865, 1.33627, 1.33429, 1.32888, 1.33431, 1.33742, 1.31952, 1.32738, 1.38672, 1.63565, 1.31693, 1.31406, 1.29669, 1.29277, 1.28819
1.61712, 1.61062, 1.60441, 1.59944, 1.58751, 1.58651, 1.59244, 1.60172, 1.70382, 2.02801, 1.54894, 1.54243, 1.52933, 1.52751, 1.51968, 1.50245, 1.50179, 1.50028, 1.49668, 1.4901, 1.47525, 1.46827, 1.46493, 1.45562, 1.45158, 1.45832, 1.45779, 1.47963, 1.45788, 1.45556, 1.45159, 1.44827, 1.42001, 1.40176, 1.39739, 1.39106, 1.38554, 1.38068, 1.3754, 1.37141, 1.36799, 1.35818, 1.35442, 1.34842, 1.34491, 1.34161, 1.33621, 1.33048, 1.32806, 1.32437, 1.34357, 1.3267, 1.29054, 1.72053, 1.63311, 1.52406, 1.30946, 1.29942, 1.29846, 1.28827
1.61715, 1.60942, 1.60357, 1.59017, 1.60381, 1.58181, 1.57938, 1.57716, 1.59872, 2.03524, 1.54888, 1.52163, 1.52735, 1.52395, 1.51746, 1.49027, 1.49914, 1.50474, 1.49619, 1.487, 1.47602, 1.46829, 1.46351, 1.4543, 1.48032, 1.45217, 1.45539, 1.46832, 1.45788, 1.44639, 1.44862, 1.42667, 1.42569, 1.39926, 1.39383, 1.39176, 1.38415, 1.38029, 1.37485, 1.37133, 1.36583, 1.35842, 1.35304, 1.34723, 1.34262, 1.34055, 1.33371, 1.32998, 1.32893, 1.32332, 1.32402, 1.31659, 1.32558, 1.40179, 1.57951, 1.51445, 1.30407, 1.29192, 1.30218, 1.28338
1.61566, 1.60978, 1.60685, 1.59221, 1.58359, 1.58039, 1.58379, 1.57671, 1.59323, 1.76256, 1.54669, 1.54454, 1.54423, 1.53025, 1.51331, 1.49401, 1.49624, 1.49871, 1.49274, 1.4856, 1.47123, 1.46568, 1.46401, 1.45537, 1.45253, 1.45156, 1.45711, 1.4539, 1.45467, 1.4585, 1.44842, 1.45018, 1.42541, 1.40167, 1.39658, 1.38919, 1.38424, 1.38064, 1.37916, 1.37068, 1.36394, 1.35965, 1.35335, 1.35009, 1.35168, 1.34443, 1.33337, 1.33163, 1.32663, 1.33334, 1.31857, 1.31746, 1.31197, 1.55098, 1.74094, 1.51674, 1.29351, 1.29027, 1.28916, 1.28289
1.61436, 1.61278, 1.60918, 1.60332, 1.59669, 1.58914, 1.57589, 1.57258, 1.58317, 1.82109, 1.55339, 1.53802, 1.53833, 1.53617, 1.51747, 1.50721, 1.50191, 1.49714, 1.49184, 1.48523, 1.47432, 1.46698, 1.46454, 1.45491, 1.45156, 1.4501, 1.48195, 1.46584, 1.4718, 1.45785, 1.45163, 1.44769, 1.41048, 1.40121, 1.39522, 1.38789, 1.38212, 1.37985, 1.37692, 1.36769, 1.36428, 1.35979, 1.3555, 1.35189, 1.35086, 1.34334, 1.33506, 1.33041, 1.33075, 1.32351, 1.3174, 1.32253, 1.32464, 1.42409, 1.50332, 1.51362, 1.45747, 1.28837, 1.28775, 1.28268
1.6132, 1.60978, 1.60838, 1.59636, 1.58467, 1.58197, 1.57865, 1.57582, 1.54632, 1.83152, 1.5593, 1.55049, 1.53278, 1.52139, 1.51319, 1.50727, 1.5001, 1.4964, 1.48916, 1.48502, 1.47505, 1.46538, 1.46313, 1.45266, 1.45108, 1.4501, 1.47566, 1.46437, 1.45779, 1.44977, 1.457, 1.43905, 1.40734, 1.40083, 1.38911, 1.39161, 1.38111, 1.37754, 1.37383, 1.36752, 1.36493, 1.35996, 1.35303, 1.35193, 1.34814, 1.33915, 1.33489, 1.33019, 1.329, 1.3246, 1.31446, 1.31976, 1.31407, 1.3804, 1.67536, 1.50836, 1.30678, 1.28781, 1.286, 1.2837
1.61234, 1.60937, 1.60691, 1.59498, 1.58498, 1.58418, 1.5712, 1.58775, 1.7793, 1.96274, 1.5558, 1.53734, 1.52811, 1.5373, 1.51278, 1.50993, 1.49972, 1.49182, 1.4887, 1.48352, 1.46788, 1.46444, 1.46064, 1.45638, 1.45081, 1.44943, 1.45145, 1.45792, 1.46863, 1.44755, 1.44019, 1.42477, 1.41321, 1.39887, 1.39507, 1.38275, 1.37945, 1.37883, 1.374, 1.36467, 1.36158, 1.35564, 1.34994, 1.34979, 1.34741, 1.33727, 1.33224, 1.32683, 1.32506, 1.31967, 1.31168, 1.30967, 1.31579, 1.3956, 1.51275, 1.48222, 1.34652, 1.28533, 1.28197, 1.28164
1.60605, 1.60045, 1.60174, 1.59225, 1.58339, 1.58164, 1.57196, 1.57904, 1.72091, 1.83203, 1.54778, 1.5295, 1.52698, 1.52835, 1.51257, 1.50523, 1.4988, 1.49026, 1.48509, 1.48551, 1.47045, 1.46286, 1.45857, 1.45248, 1.44756, 1.45172, 1.46834, 1.46421, 1.46851, 1.43774, 1.46448, 1.4405, 1.41706, 1.39538, 1.38958, 1.38415, 1.37821, 1.37166, 1.369, 1.36411, 1.35801, 1.35447, 1.3445, 1.34719, 1.34511, 1.33807, 1.32646, 1.32093, 1.32538, 1.31677, 1.30509, 1.30211, 1.32609, 1.38544, 1.7047, 1.41963, 1.32627, 1.28137, 1.27831, 1.28062
1.6047, 1.59583, 1.59728, 1.58391, 1.57982, 1.57824, 1.5717, 1.56864, 1.82461, 1.8324, 1.54217, 1.53411, 1.5308, 1.53395, 1.51381, 1.50145, 1.49491, 1.48854, 1.47926, 1.4766, 1.46545, 1.46074, 1.45807, 1.45293, 1.44571, 1.44476, 1.46922, 1.45699, 1.45623, 1.43908, 1.44104, 1.42077, 1.40725, 1.39298, 1.38648, 1.37968, 1.37746, 1.37057, 1.36738, 1.36376, 1.35703, 1.3502, 1.3441, 1.34347, 1.33996, 1.33092, 1.32237, 1.31963, 1.31616, 1.3125, 1.30651, 1.29754, 1.29465, 1.49357, 1.73897, 1.40332, 1.30131, 1.28545, 1.27824, 1.2724
1.6037, 1.59335, 1.59574, 1.60506, 1.57543, 1.5813, 1.56998, 1.56771, 1.54922, 1.80598, 1.53121, 1.53054, 1.53091, 1.54152, 1.51025, 1.49952, 1.49532, 1.48897, 1.47632, 1.47466, 1.465, 1.45856, 1.45543, 1.44916, 1.45234, 1.44323, 1.45094, 1.46123, 1.44673, 1.44011, 1.45514, 1.42529, 1.40074, 1.39188, 1.38125, 1.37768, 1.37464, 1.36946, 1.36935, 1.36023, 1.35343, 1.34943, 1.3443, 1.33999, 1.33381, 1.32978, 1.32178, 1.31708, 1.31482, 1.30613, 1.30029, 1.29572, 1.2971, 1.38456, 1.53969, 1.32721, 1.29542, 1.28405, 1.27173, 1.28128
1.59999, 1.59649, 1.596, 1.5803, 1.57657, 1.57179, 1.58145, 1.56555, 1.6332, 1.6221, 1.53323, 1.52093, 1.51804, 1.51644, 1.5106, 1.49823, 1.50517, 1.48533, 1.47291, 1.46819, 1.46283, 1.45774, 1.45381, 1.44737, 1.46144, 1.45068, 1.46151, 1.46636, 1.43716, 1.43255, 1.43308, 1.43754, 1.40235, 1.38307, 1.37568, 1.37616, 1.37149, 1.36718, 1.37064, 1.35896, 1.35131, 1.34642, 1.34052, 1.33813, 1.33422, 1.33088, 1.32243, 1.32076, 1.31521, 1.30944, 1.30266, 1.30934, 1.31843, 1.61749, 1.53828, 1.39974, 1.28897, 1.30145, 1.27488, 1.27061
1.59783, 1.596, 1.59115, 1.58146, 1.57273, 1.56787, 1.56344, 1.56251, 1.59672, 1.67169, 1.52752, 1.52091, 1.51862, 1.51497, 1.51183, 1.50473, 1.49409, 1.48194, 1.47524, 1.46614, 1.46453, 1.46043, 1.45321, 1.45072, 1.44344, 1.45138, 1.45829, 1.46103, 1.44989, 1.43246, 1.4482, 1.41998, 1.42939, 1.38475, 1.37481, 1.37388, 1.37154, 1.36657, 1.36634, 1.36039, 1.34797, 1.34101, 1.33598, 1.33951, 1.33371, 1.33071, 1.32544, 1.32105, 1.31533, 1.31064, 1.30482, 1.29904, 1.31565, 1.58653, 1.53503, 1.29294, 1.28198, 1.28108, 1.27669, 1.26704
1.59958, 1.59918, 1.59526, 1.5835, 1.58692, 1.57016, 1.56181, 1.55961, 1.63797, 1.72204, 1.53114, 1.53527, 1.5159, 1.51401, 1.50989, 1.50415, 1.49612, 1.48398, 1.47859, 1.47038, 1.46637, 1.45923, 1.46113, 1.45101, 1.443, 1.44013, 1.45686, 1.44627, 1.46149, 1.45468, 1.44132, 1.44341, 1.40944, 1.39262, 1.37802, 1.37434, 1.37202, 1.36827, 1.36736, 1.35832, 1.35281, 1.34025, 1.33553, 1.33608, 1.33318, 1.32967, 1.32638, 1.32295, 1.31722, 1.31385, 1.30725, 1.30453, 1.30189, 1.59983, 1.49199, 1.28788, 1.28331, 1.28194, 1.27922, 1.26866
1.60111, 1.59525, 1.59298, 1.58509, 1.5815, 1.57011, 1.58715, 1.56744, 1.6651, 1.73869, 1.55149, 1.52796, 1.52339, 1.52227, 1.50761, 1.50439, 1.49574, 1.49045, 1.47965, 1.47243, 1.4709, 1.46282, 1.45766, 1.45048, 1.44572, 1.442, 1.44448, 1.45093, 1.44641, 1.44334, 1.4322, 1.41881, 1.40813, 1.38378, 1.38125, 1.37841, 1.37508, 1.37067, 1.36876, 1.35917, 1.35735, 1.3403, 1.33674, 1.33678, 1.33426, 1.33219, 1.33044, 1.32309, 1.32113, 1.31657, 1.31259, 1.30853, 1.30568, 1.54321, 1.58627, 1.28889, 1.29063, 1.28383, 1.2832, 1.27821
1.60309, 1.59891, 1.59018, 1.58628, 1.57526, 1.57607, 1.57407, 1.56497, 1.56078, 1.7203, 1.54569, 1.53747, 1.52382, 1.51574, 1.51143, 1.50347, 1.49934, 1.48974, 1.48018, 1.47545, 1.47181, 1.46736, 1.45794, 1.45166, 1.45033, 1.44063, 1.4608, 1.45117, 1.46269, 1.45612, 1.43245, 1.42717, 1.39911, 1.38526, 1.38262, 1.37898, 1.37495, 1.37183, 1.42114, 1.35977, 1.37681, 1.35757, 1.34224, 1.34004, 1.33614, 1.32974, 1.32881, 1.32414, 1.32053, 1.31747, 1.32721, 1.30887, 1.26869, 1.30558, 1.59289, 1.25371, 1.29306, 1.28843, 1.28513, 1.26436
1.60358, 1.59604, 1.58872, 1.5842, 1.58947, 1.57041, 1.57925, 1.56097, 1.56442, 1.69308, 1.53508, 1.53815, 1.52092, 1.51456, 1.50722, 1.50036, 1.5062, 1.48846, 1.47691, 1.47322, 1.47504, 1.46442, 1.45503, 1.44762, 1.44192, 1.44553, 1.44148, 1.45033, 1.45096, 1.44108, 1.4383, 1.42724, 1.41232, 1.3995, 1.3825, 1.39623, 1.38478, 1.37195, 1.36542, 1.35905, 1.35414, 1.34765, 1.34293, 1.33684, 1.33076, 1.32898, 1.32455, 1.32174, 1.32061, 1.34648, 1.31195, 1.31703, 1.31609, 1.4631, 1.62018, 1.2798, 1.28968, 1.29347, 1.28829, 1.26539
1.60298, 1.59883, 1.58843, 1.58594, 1.57222, 1.56428, 1.57299, 1.56171, 1.78008, 1.71332, 1.5282, 1.52296, 1.52413, 1.5163, 1.52035, 1.49706, 1.49069, 1.48845, 1.47712, 1.46625, 1.4638, 1.45847, 1.45185, 1.44732, 1.44736, 1.44451, 1.44296, 1.45419, 1.44399, 1.44018, 1.42652, 1.42106, 1.40562, 1.39629, 1.38531, 1.37165, 1.38488, 1.36544, 1.36056, 1.35372, 1.34969, 1.34513, 1.3405, 1.33359, 1.33007, 1.32566, 1.31942, 1.31808, 1.31342, 1.32343, 1.31191, 1.30046, 1.30355, 1.3661, 1.51612, 1.33216, 1.28653, 1.27012, 1.26266, 1.26454
1.60139, 1.59645, 1.58053, 1.57612, 1.5791, 1.58503, 1.56865, 1.55904, 1.60737, 1.69592, 1.5557, 1.52724, 1.52944, 1.51466, 1.51064, 1.50368, 1.48126, 1.47368, 1.48133, 1.45582, 1.45194, 1.45195, 1.44243, 1.45782, 1.42686, 1.43366, 1.43797, 1.45063, 1.45681, 1.44386, 1.42426, 1.40613, 1.41343, 1.38278, 1.37515, 1.38829, 1.35934, 1.35712, 1.35034, 1.34606, 1.34197, 1.33619, 1.32972, 1.32124, 1.31715, 1.31628, 1.31597, 1.30997, 1.30544, 1.2981, 1.29883, 1.30001, 1.29598, 1.33091, 1.48232, 1.30296, 1.26671, 1.26103, 1.2652, 1.26089
1.59814, 1.59611, 1.5796, 1.59345, 1.55621, 1.55141, 1.5412, 1.5504, 1.61151, 1.71662, 1.5167, 1.51223, 1.51608, 1.512, 1.50346, 1.4755, 1.4716, 1.46046, 1.45694, 1.44623, 1.44109, 1.43164, 1.43199, 1.43776, 1.43293, 1.42281, 1.44066, 1.45137, 1.44392, 1.42421, 1.43129, 1.41251, 1.42323, 1.38622, 1.36701, 1.35311, 1.34753, 1.34656, 1.34234, 1.33667, 1.33085, 1.32919, 1.31787, 1.31173, 1.30925, 1.30901, 1.30104, 1.29761, 1.29515, 1.29272, 1.28275, 1.27914, 1.28106, 1.40297, 1.75923, 1.32646, 1.25662, 1.24471, 1.24268, 1.25379
