0.817759, 0.818057, 0.814754, 0.813034, 0.822766, 0.820268, 0.818872, 0.815411, 0.820654, 0.812212, 0.818774, 0.810891, 0.812846, 0.815731, 0.822388, 0.812009, 0.812257, 0.811261, 0.813732, 0.814949, 0.818396, 0.812408, 0.81094, 0.810771, 0.812245, 0.812186, 0.797133, 0.825196, 0.811552, 0.812563, 0.810853, 0.809215, 0.820148, 0.809232, 0.815269, 0.815607, 0.816224, 0.822108, 0.821655, 0.810772, 0.806674, 0.810912, 0.809522, 0.809966, 0.810215, 0.80722, 0.80611, 0.80649, 0.812985, 0.812097, 0.809059, 0.801417, 0.801307, 0.799051, 0.809, 0.808923, 0.797987, 0.801056, 0.796826, 0.797064, 0.807827, 0.802582, 0.799752, 0.799076, 0.799535, 0.798873, 0.798097, 0.797461, 0.811362, 0.800603, 0.801382, 0.7975, 0.80663, 0.805008, 0.806089, 0.804969, 0.811666, 0.810068, 0.810622, 0.810848, 0.810922, 0.803841, 0.803684, 0.80378, 0.790252, 0.791824, 0.800894, 0.786983, 0.786629, 0.778173, 0.778252, 0.783223, 0.79206, 0.811194, 0.834492, 0.835242, 0.875434, 0.864439, 0.899677, 0.991517, 1.02272, 1.02283, 1.03044, 1.06572, 1.0652, 1.07307, 1.11882, 1.13328, 1.19511, 1.1979, 1.17988, 1.18484, 1.18109, 1.1079, 1.12014, 1.12968, 1.09121, 1.07544, 0.882595, 0.881048, 0.864253, 0.821408, 0.838831, 0.803775, 0.801876, 0.8003, 0.799123, 0.816778, 0.809209, 0.810353, 0.789551, 0.807232, 0.807236, 0.800496, 0.801328, 0.800791, 0.801779, 0.799553, 0.819451, 0.819647, 0.798497, 0.798531, 0.808157, 0.794981, 0.794278, 0.800562, 0.791261, 0.791444, 0.798056, 0.790299, 0.782973, 0.787429, 0.787501, 0.792246, 0.790753, 0.791323, 0.788487, 0.784662, 0.783229, 0.783437, 0.79135, 0.783182, 0.78499, 0.785095, 0.785471, 0.785281, 0.788016, 0.790333, 0.788058, 0.786747, 0.786397, 0.784604, 0.784483, 0.784104, 0.784383, 0.785641, 0.784019, 0.786222, 0.786761, 0.786568, 0.787713, 0.785742, 0.792508, 0.784983, 0.785064, 0.792278, 0.791797, 0.805089, 0.790539, 0.790323, 0.80246, 0.790316, 0.788682, 0.78763, 0.803784, 0.80516, 0.78968, 0.791995, 0.790459, 0.789832, 0.788211, 0.788608, 0.788778, 0.788147, 0.79329, 0.784655, 0.804638, 0.787798, 0.790269, 0.7868, 0.786805, 0.785977, 0.786943, 0.786937, 0.792927, 0.788295, 0.786348, 0.7862, 0.785908, 0.786546, 0.788017, 0.786667, 0.78627, 0.786378, 0.78675, 0.808742, 0.786877, 0.804014, 0.785152, 0.785855, 0.786031, 0.784487, 0.783912, 0.783442, 0.814748, 0.783763, 0.784322, 0.78345, 0.783072, 0.7828, 0.784542, 0.792453, 0.782084, 0.784586, 0.783497, 0.782783, 0.781971, 0.7817, 0.783009, 0.783072, 0.797407, 0.808667, 0.807487, 0.788469, 0.802773, 0.781868, 0.782865, 0.814612, 0.780298, 0.777833, 0.781977, 0.782217, 0.787309, 0.782967, 0.783188, 0.783071, 0.782747, 0.782705, 0.783259, 0.782231, 0.783084, 0.805612, 0.784247, 0.783075, 0.783409, 0.783608, 0.781327, 0.78256, 0.782346, 0.78232, 0.805332, 0.812157, 0.817243, 0.796596, 0.786522, 0.794146, 0.78305, 0.781094, 0.787754, 0.775736, 0.782609, 0.786972, 0.786935, 0.788273, 0.779921, 0.791259, 0.798349, 0.7875, 0.787761, 0.788426, 0.794929, 0.781123
0.835807, 0.814684, 0.828847, 0.815446, 0.821444, 0.818014, 0.816672, 0.815713, 0.811525, 0.811262, 0.813097, 0.812011, 0.808961, 0.809832, 0.810101, 0.812276, 0.811539, 0.813568, 0.813087, 0.82226, 0.822025, 0.813276, 0.813792, 0.814269, 0.812609, 0.791394, 0.797513, 0.794964, 0.805632, 0.815623, 0.827342, 0.812613, 0.816006, 0.817396, 0.82178, 0.821634, 0.822963, 0.821374, 0.82445, 0.8146, 0.812195, 0.80861, 0.807598, 0.811737, 0.807788, 0.822052, 0.822492, 0.80591, 0.811706, 0.808929, 0.805506, 0.805745, 0.805247, 0.801746, 0.80284, 0.803214, 0.802342, 0.799549, 0.800379, 0.796833, 0.802709, 0.802885, 0.802984, 0.801212, 0.797235, 0.796516, 0.797974, 0.800261, 0.797951, 0.799503, 0.803613, 0.801758, 0.801851, 0.808681, 0.81598, 0.815556, 0.808005, 0.809195, 0.814569, 0.809914, 0.811263, 0.813981, 0.797563, 0.801676, 0.80141, 0.78871, 0.797718, 0.773829, 0.78142, 0.786637, 0.773135, 0.784515, 0.79748, 0.800577, 0.822273, 0.832734, 0.832664, 0.840065, 0.899497, 0.900585, 0.910566, 1.02614, 1.07033, 1.07886, 1.14308, 1.13164, 1.13189, 1.20395, 1.20526, 1.21868, 1.22064, 1.2321, 1.22911, 1.21208, 1.22393, 1.12077, 1.12577, 0.897784, 0.888776, 0.890159, 0.839852, 0.840378, 0.828705, 0.841863, 0.802568, 0.799447, 0.791483, 0.790716, 0.816313, 0.813893, 0.80014, 0.798944, 0.797099, 0.79593, 0.801844, 0.800903, 0.801541, 0.801977, 0.808228, 0.804631, 0.800557, 0.797212, 0.821601, 0.79381, 0.794823, 0.798741, 0.792097, 0.79229, 0.790929, 0.791596, 0.781635, 0.783688, 0.784693, 0.789913, 0.789275, 0.788656, 0.794118, 0.785278, 0.785704, 0.794256, 0.788695, 0.78864, 0.789644, 0.81217, 0.790946, 0.80806, 0.80933, 0.801653, 0.786686, 0.78691, 0.787444, 0.786978, 0.78672, 0.786356, 0.785364, 0.783748, 0.794284, 0.781923, 0.782528, 0.785145, 0.785686, 0.784929, 0.785855, 0.792123, 0.782222, 0.787574, 0.785764, 0.790541, 0.791548, 0.801179, 0.811737, 0.790016, 0.790377, 0.791213, 0.801241, 0.790755, 0.790897, 0.789658, 0.791709, 0.818066, 0.790089, 0.790023, 0.788293, 0.789463, 0.786553, 0.785895, 0.787307, 0.798235, 0.78854, 0.787182, 0.788044, 0.790201, 0.804665, 0.787598, 0.786281, 0.786216, 0.786326, 0.814817, 0.787074, 0.785653, 0.790536, 0.786625, 0.787066, 0.786649, 0.787817, 0.787181, 0.787083, 0.786529, 0.785681, 0.790487, 0.785792, 0.785238, 0.78424, 0.783927, 0.784589, 0.784171, 0.783985, 0.780881, 0.78308, 0.783542, 0.782513, 0.78014, 0.780161, 0.783307, 0.797952, 0.79496, 0.781627, 0.780791, 0.804733, 0.796399, 0.815304, 0.794481, 0.811755, 0.781096, 0.781645, 0.782048, 0.790163, 0.779733, 0.779266, 0.778828, 0.78952, 0.780337, 0.786424, 0.786851, 0.781515, 0.782807, 0.78221, 0.800161, 0.800863, 0.786163, 0.784101, 0.790277, 0.789974, 0.788548, 0.791364, 0.790555, 0.784843, 0.780492, 0.781045, 0.792051, 0.781901, 0.781969, 0.804598, 0.827047, 0.785378, 0.793664, 0.794215, 0.779131, 0.776797, 0.775668, 0.780205, 0.776564, 0.792426, 0.783139, 0.780484, 0.781201, 0.781345, 0.780084, 0.780923, 0.779675, 0.77888, 0.807241
0.81718, 0.815989, 0.816668, 0.815623, 0.814891, 0.814014, 0.813665, 0.812957, 0.812947, 0.814815, 0.817675, 0.810036, 0.811339, 0.81152, 0.830041, 0.814265, 0.81365, 0.81382, 0.813345, 0.812995, 0.812855, 0.813534, 0.81519, 0.81368, 0.811696, 0.811831, 0.813747, 0.812207, 0.813356, 0.811709, 0.81074, 0.813399, 0.817258, 0.81821, 0.816017, 0.816313, 0.824743, 0.835921, 0.817761, 0.816364, 0.814368, 0.813577, 0.810907, 0.810765, 0.811857, 0.811396, 0.808181, 0.804656, 0.806508, 0.806294, 0.806834, 0.80321, 0.801742, 0.811225, 0.811542, 0.800876, 0.807691, 0.798267, 0.800674, 0.800342, 0.800785, 0.804211, 0.805218, 0.799421, 0.800874, 0.799096, 0.811525, 0.805193, 0.802109, 0.802776, 0.807087, 0.805927, 0.803374, 0.803509, 0.810833, 0.807425, 0.807483, 0.811387, 0.811157, 0.811194, 0.811497, 0.807919, 0.791473, 0.798324, 0.790411, 0.797722, 0.800602, 0.7736, 0.771574, 0.793067, 0.791741, 0.794913, 0.795917, 0.784398, 0.846972, 0.850586, 0.864036, 0.859651, 0.859442, 0.891332, 0.915705, 0.992972, 1.126, 1.12613, 1.13265, 1.15519, 1.13609, 1.22935, 1.23011, 1.23695, 1.23607, 1.24353, 1.24398, 1.27814, 1.22982, 1.18146, 1.1311, 0.912684, 0.888802, 0.85594, 0.859729, 0.859477, 0.856976, 0.818668, 0.805798, 0.79422, 0.793935, 0.788313, 0.806974, 0.789283, 0.789023, 0.789348, 0.788895, 0.807173, 0.80083, 0.802465, 0.801932, 0.800294, 0.798691, 0.801223, 0.79742, 0.798132, 0.795698, 0.801314, 0.793119, 0.793749, 0.792658, 0.792712, 0.791397, 0.791516, 0.793317, 0.791704, 0.78764, 0.787878, 0.782009, 0.782647, 0.782676, 0.796365, 0.786964, 0.78711, 0.79087, 0.790317, 0.799893, 0.79837, 0.815369, 0.87709, 0.878338, 0.878245, 0.874733, 0.787605, 0.813171, 0.811224, 0.784898, 0.785963, 0.794697, 0.794554, 0.784508, 0.782577, 0.783336, 0.784693, 0.794572, 0.787802, 0.78715, 0.798035, 0.800644, 0.79262, 0.788302, 0.7878, 0.805634, 0.790208, 0.790512, 0.80498, 0.791143, 0.789814, 0.807679, 0.788898, 0.806261, 0.815377, 0.812513, 0.78864, 0.789134, 0.789521, 0.788976, 0.787774, 0.791114, 0.795033, 0.795555, 0.795937, 0.797288, 0.79967, 0.786606, 0.786788, 0.7868, 0.786675, 0.786868, 0.807538, 0.80754, 0.794235, 0.786937, 0.786852, 0.787038, 0.789351, 0.787928, 0.794245, 0.78799, 0.787501, 0.787251, 0.787049, 0.786545, 0.785937, 0.785613, 0.785972, 0.783969, 0.783048, 0.782667, 0.781225, 0.782032, 0.781954, 0.782029, 0.781428, 0.782302, 0.781197, 0.781278, 0.782122, 0.781382, 0.808499, 0.780582, 0.792581, 0.781202, 0.781438, 0.781246, 0.802566, 0.800801, 0.795396, 0.797864, 0.78085, 0.781685, 0.781534, 0.778087, 0.77907, 0.779594, 0.780114, 0.784428, 0.793948, 0.787452, 0.842013, 0.797898, 0.781138, 0.781218, 0.8035, 0.804928, 0.792573, 0.807488, 0.79576, 0.798729, 0.791239, 0.780095, 0.785443, 0.78457, 0.812255, 0.781336, 0.783036, 0.782228, 0.782999, 0.781625, 0.781658, 0.7829, 0.802519, 0.780462, 0.777768, 0.778192, 0.77844, 0.777673, 0.780527, 0.780841, 0.779946, 0.781045, 0.78007, 0.790009, 0.779143, 0.779181, 0.77835
0.816363, 0.81674, 0.817755, 0.828732, 0.814484, 0.817381, 0.817459, 0.814119, 0.81773, 0.814781, 0.813378, 0.814169, 0.812561, 0.814345, 0.814349, 0.815093, 0.814177, 0.81316, 0.816836, 0.814934, 0.815955, 0.8178, 0.832716, 0.832888, 0.813125, 0.812801, 0.812973, 0.832383, 0.812959, 0.813547, 0.833036, 0.817912, 0.818418, 0.825731, 0.821726, 0.81751, 0.799618, 0.80739, 0.801041, 0.800588, 0.809534, 0.814855, 0.813677, 0.826149, 0.818281, 0.809963, 0.811166, 0.809075, 0.807472, 0.817968, 0.814193, 0.801569, 0.801461, 0.802041, 0.80035, 0.798291, 0.80459, 0.804632, 0.804351, 0.80261, 0.802592, 0.80468, 0.805588, 0.810722, 0.798644, 0.800214, 0.801122, 0.802697, 0.802458, 0.803085, 0.804299, 0.805186, 0.806368, 0.809021, 0.810705, 0.811183, 0.811345, 0.809992, 0.819742, 0.812336, 0.812373, 0.810812, 0.810174, 0.808531, 0.795881, 0.788799, 0.789634, 0.781255, 0.780744, 0.778655, 0.774765, 0.773499, 0.779318, 0.792662, 0.788461, 0.853536, 0.851009, 0.861208, 0.862272, 0.897823, 0.925686, 0.927502, 0.950505, 1.15874, 1.15816, 1.17737, 1.17695, 1.17754, 1.19457, 1.11288, 1.11243, 1.24122, 1.24134, 1.2497, 1.23551, 0.911236, 0.911316, 0.902571, 0.901577, 0.852384, 0.867298, 0.842659, 0.836327, 0.81729, 0.811965, 0.805447, 0.797892, 0.803812, 0.783497, 0.782191, 0.781584, 0.7989, 0.798676, 0.80061, 0.800356, 0.799862, 0.799731, 0.797341, 0.802462, 0.797582, 0.798097, 0.794924, 0.792311, 0.79398, 0.795347, 0.808986, 0.794527, 0.7927, 0.790286, 0.801716, 0.801589, 0.801676, 0.804904, 0.804693, 0.783382, 0.78342, 0.793791, 0.78748, 0.80933, 0.792702, 0.798721, 0.798257, 0.806273, 0.87264, 0.884538, 0.887575, 0.891352, 0.885766, 0.893933, 0.895441, 0.801134, 0.799917, 0.809867, 0.801033, 0.790043, 0.792615, 0.793923, 0.77909, 0.791539, 0.784726, 0.785584, 0.786163, 0.786546, 0.786604, 0.78507, 0.790617, 0.790886, 0.790897, 0.790204, 0.788443, 0.789658, 0.789615, 0.806628, 0.789971, 0.791332, 0.811243, 0.788984, 0.808356, 0.788468, 0.799636, 0.790225, 0.790936, 0.792886, 0.791816, 0.788495, 0.794544, 0.788588, 0.787736, 0.791272, 0.792039, 0.787982, 0.785591, 0.787614, 0.801401, 0.784038, 0.78624, 0.786843, 0.787063, 0.783372, 0.786909, 0.786809, 0.786918, 0.793926, 0.787592, 0.78656, 0.786858, 0.790483, 0.785865, 0.798238, 0.784734, 0.796052, 0.782362, 0.781997, 0.796931, 0.780535, 0.783173, 0.782536, 0.783262, 0.783067, 0.783309, 0.781373, 0.781, 0.78167, 0.781786, 0.77997, 0.780142, 0.781535, 0.792391, 0.781309, 0.783376, 0.779836, 0.781001, 0.781186, 0.79793, 0.780864, 0.774669, 0.780727, 0.789371, 0.805825, 0.780772, 0.781177, 0.789079, 0.790895, 0.798654, 0.800049, 0.828262, 0.791641, 0.802464, 0.832466, 0.832089, 0.838342, 0.826254, 0.815291, 0.807782, 0.807222, 0.78077, 0.814701, 0.801406, 0.814151, 0.780811, 0.78124, 0.781124, 0.796565, 0.783264, 0.782226, 0.781835, 0.781674, 0.781992, 0.798047, 0.779273, 0.780726, 0.780427, 0.779266, 0.78019, 0.77925, 0.779514, 0.794781, 0.779164, 0.77655, 0.800376, 0.778881, 0.778112
0.818572, 0.816723, 0.819334, 0.815355, 0.816373, 0.816251, 0.8158, 0.816539, 0.815993, 0.814366, 0.813582, 0.817668, 0.815999, 0.817315, 0.819729, 0.821421, 0.815681, 0.814883, 0.81396, 0.812743, 0.812036, 0.81307, 0.808827, 0.815014, 0.819347, 0.820729, 0.813586, 0.812585, 0.812952, 0.81274, 0.82251, 0.811547, 0.82559, 0.82676, 0.825894, 0.815548, 0.808966, 0.806211, 0.801412, 0.799558, 0.807989, 0.811963, 0.811357, 0.811345, 0.810769, 0.808817, 0.811488, 0.811668, 0.81127, 0.807582, 0.804172, 0.804803, 0.814717, 0.815363, 0.808037, 0.805032, 0.80263, 0.811398, 0.798321, 0.804138, 0.802061, 0.801942, 0.799378, 0.808285, 0.80266, 0.798757, 0.798373, 0.802474, 0.801312, 0.806394, 0.80635, 0.802895, 0.802457, 0.819843, 0.810249, 0.810287, 0.829589, 0.828341, 0.829293, 0.814044, 0.81404, 0.813055, 0.811152, 0.804622, 0.798459, 0.797246, 0.777125, 0.777333, 0.769942, 0.768586, 0.769238, 0.770231, 0.778173, 0.785039, 0.793822, 0.855816, 0.867593, 0.888047, 0.884455, 0.911441, 0.908826, 0.928511, 0.975056, 1.16712, 1.16732, 1.19986, 1.1993, 1.22157, 1.13808, 1.14773, 1.15405, 1.26178, 1.25446, 1.23947, 1.23948, 0.905024, 0.883999, 0.883043, 0.875493, 0.840161, 0.839815, 0.842143, 0.842951, 0.82362, 0.827842, 0.826129, 0.81276, 0.795067, 0.78058, 0.782378, 0.779019, 0.778228, 0.79423, 0.797795, 0.797129, 0.802668, 0.797646, 0.79775, 0.804811, 0.797883, 0.795763, 0.796153, 0.798492, 0.798884, 0.81123, 0.795315, 0.79568, 0.790951, 0.803802, 0.799206, 0.800533, 0.812266, 0.791027, 0.790459, 0.789574, 0.792267, 0.792731, 0.792177, 0.784222, 0.792674, 0.796111, 0.811222, 0.801133, 0.885025, 0.918096, 0.909875, 0.884094, 0.906137, 0.895176, 0.912121, 0.891577, 0.890801, 0.82316, 0.788003, 0.788323, 0.785661, 0.786281, 0.783326, 0.795232, 0.787602, 0.790678, 0.789937, 0.789873, 0.788072, 0.793637, 0.793184, 0.786721, 0.785859, 0.787768, 0.79047, 0.790253, 0.790689, 0.789894, 0.789029, 0.789504, 0.790726, 0.788487, 0.789428, 0.790555, 0.789932, 0.790175, 0.790202, 0.790548, 0.788099, 0.787614, 0.789772, 0.788997, 0.787725, 0.788025, 0.787333, 0.787018, 0.802813, 0.787674, 0.788121, 0.78465, 0.783676, 0.794741, 0.790854, 0.787327, 0.786783, 0.79507, 0.786299, 0.801848, 0.81357, 0.787747, 0.787284, 0.787882, 0.786941, 0.785399, 0.78441, 0.784768, 0.785904, 0.809885, 0.781591, 0.808652, 0.783983, 0.807626, 0.780241, 0.781953, 0.781665, 0.794198, 0.815248, 0.792274, 0.808492, 0.78139, 0.780164, 0.781738, 0.778811, 0.778599, 0.778337, 0.780578, 0.780347, 0.79207, 0.779475, 0.773943, 0.784855, 0.786818, 0.786511, 0.781193, 0.782481, 0.780279, 0.804248, 0.798197, 0.798253, 0.798103, 0.808469, 0.808857, 0.832416, 0.808368, 0.825603, 0.80281, 0.803933, 0.81881, 0.812679, 0.812013, 0.814903, 0.790916, 0.798859, 0.779558, 0.818537, 0.78174, 0.782545, 0.783479, 0.781939, 0.782075, 0.781474, 0.780793, 0.780946, 0.781014, 0.78213, 0.782309, 0.781847, 0.78196, 0.778873, 0.779838, 0.8099, 0.77776, 0.780338, 0.775495, 0.776777, 0.776828, 0.77737
0.826528, 0.815044, 0.815767, 0.800687, 0.816138, 0.822471, 0.821721, 0.815984, 0.836022, 0.814661, 0.814857, 0.829397, 0.815894, 0.814902, 0.815094, 0.814648, 0.815694, 0.831928, 0.81882, 0.812356, 0.816558, 0.81445, 0.813149, 0.790544, 0.815909, 0.814739, 0.813138, 0.824378, 0.816446, 0.815624, 0.810003, 0.809235, 0.81535, 0.814471, 0.81393, 0.817261, 0.831953, 0.807875, 0.806975, 0.809637, 0.809467, 0.808966, 0.813217, 0.811219, 0.811083, 0.80409, 0.80235, 0.812181, 0.805601, 0.802504, 0.801649, 0.800677, 0.800768, 0.803729, 0.801565, 0.811399, 0.800243, 0.807426, 0.807377, 0.80163, 0.802153, 0.802433, 0.801188, 0.79963, 0.81091, 0.803174, 0.80832, 0.818223, 0.800746, 0.802742, 0.804518, 0.806601, 0.809473, 0.810568, 0.809497, 0.813138, 0.811276, 0.811632, 0.820913, 0.812094, 0.813971, 0.81469, 0.828169, 0.814731, 0.803449, 0.803192, 0.788313, 0.788961, 0.791371, 0.77283, 0.772367, 0.797958, 0.798519, 0.794439, 0.795065, 0.81739, 0.870746, 0.891446, 0.906663, 0.90585, 0.94627, 0.953511, 0.951662, 1.19326, 1.18779, 1.19394, 1.19322, 1.12366, 1.10637, 1.1048, 1.068, 1.06631, 1.23616, 1.21483, 1.21528, 0.916816, 0.928798, 0.872836, 0.884898, 0.861534, 0.839497, 0.83979, 0.850936, 0.839823, 0.829819, 0.815385, 0.83169, 0.814364, 0.77972, 0.779054, 0.780304, 0.786477, 0.785596, 0.784099, 0.796815, 0.795266, 0.799664, 0.799247, 0.800636, 0.800772, 0.795846, 0.796064, 0.804934, 0.797781, 0.808615, 0.795505, 0.790569, 0.79023, 0.793736, 0.793007, 0.796605, 0.796887, 0.795809, 0.802049, 0.789883, 0.803337, 0.803005, 0.801905, 0.787434, 0.789648, 0.804448, 0.79631, 0.881181, 0.883781, 0.896875, 0.904868, 0.906016, 0.894383, 0.919085, 0.929458, 0.918721, 0.787221, 0.787625, 0.787729, 0.787729, 0.812105, 0.812014, 0.800041, 0.791608, 0.790203, 0.78734, 0.787652, 0.788601, 0.787836, 0.78758, 0.789299, 0.790641, 0.788439, 0.788186, 0.790487, 0.798126, 0.805836, 0.806605, 0.788735, 0.788855, 0.787583, 0.787979, 0.794343, 0.790843, 0.791001, 0.790323, 0.788502, 0.790018, 0.789604, 0.78894, 0.787543, 0.787305, 0.787703, 0.805265, 0.805904, 0.787974, 0.788513, 0.787115, 0.784186, 0.784758, 0.785489, 0.798919, 0.789424, 0.786678, 0.788378, 0.789093, 0.812537, 0.788187, 0.787745, 0.800915, 0.786407, 0.785778, 0.784298, 0.781223, 0.783265, 0.78274, 0.783842, 0.810087, 0.809274, 0.78501, 0.785823, 0.80262, 0.780633, 0.780668, 0.791785, 0.814307, 0.790272, 0.780132, 0.780987, 0.780634, 0.780033, 0.780788, 0.780495, 0.796846, 0.797934, 0.796624, 0.779349, 0.779033, 0.777332, 0.780842, 0.777629, 0.788487, 0.793178, 0.803835, 0.781061, 0.789137, 0.780826, 0.801694, 0.781096, 0.780836, 0.807805, 0.809936, 0.82827, 0.825332, 0.822749, 0.82241, 0.849978, 0.856733, 0.805061, 0.797399, 0.812154, 0.784608, 0.779576, 0.779912, 0.781801, 0.795643, 0.781558, 0.781045, 0.781231, 0.782788, 0.781481, 0.787524, 0.803166, 0.779435, 0.779485, 0.780888, 0.78118, 0.781851, 0.784037, 0.780615, 0.781658, 0.780956, 0.780212, 0.788636, 0.779074, 0.77528, 0.774453
0.812946, 0.8143, 0.813905, 0.812437, 0.824973, 0.811474, 0.81167, 0.811762, 0.812129, 0.812305, 0.811507, 0.821292, 0.8156, 0.815042, 0.826315, 0.816179, 0.818002, 0.817575, 0.816111, 0.814, 0.81335, 0.813516, 0.813509, 0.785591, 0.787, 0.814032, 0.813969, 0.812015, 0.832987, 0.812606, 0.811753, 0.810337, 0.809828, 0.810958, 0.810286, 0.81071, 0.810472, 0.809779, 0.815517, 0.814834, 0.812309, 0.811219, 0.810876, 0.809798, 0.809508, 0.822235, 0.801216, 0.800692, 0.81264, 0.810834, 0.803138, 0.805414, 0.807243, 0.805668, 0.8019, 0.807462, 0.798686, 0.803773, 0.805354, 0.805573, 0.804505, 0.807019, 0.81496, 0.808392, 0.807602, 0.805472, 0.805944, 0.809645, 0.811521, 0.811374, 0.805547, 0.807131, 0.808876, 0.809705, 0.808439, 0.814982, 0.824278, 0.813661, 0.811666, 0.815446, 0.816605, 0.816216, 0.81704, 0.818601, 0.821156, 0.790267, 0.79171, 0.792273, 0.780442, 0.783126, 0.767845, 0.784313, 0.776832, 0.797624, 0.798838, 0.874821, 0.884146, 0.878635, 0.938613, 0.906517, 0.948783, 0.970855, 0.985111, 0.983517, 1.19812, 1.1981, 1.18533, 1.09431, 1.08391, 1.06239, 1.08373, 1.08526, 1.06996, 1.07019, 0.946078, 0.946125, 0.925821, 0.883645, 0.878303, 0.876511, 0.8443, 0.878036, 0.821948, 0.855855, 0.817543, 0.817745, 0.811682, 0.796044, 0.795297, 0.78315, 0.78133, 0.784734, 0.796089, 0.798434, 0.799052, 0.798097, 0.794514, 0.79507, 0.796213, 0.813812, 0.797169, 0.797469, 0.798057, 0.806946, 0.794263, 0.793588, 0.808625, 0.790393, 0.791859, 0.791686, 0.792095, 0.794072, 0.794253, 0.790074, 0.790734, 0.787315, 0.788254, 0.804849, 0.793224, 0.794217, 0.789202, 0.789194, 0.789569, 0.79335, 0.878779, 0.886829, 0.897247, 0.910283, 0.908747, 0.797642, 0.787764, 0.788375, 0.787634, 0.800579, 0.790581, 0.78879, 0.787973, 0.788292, 0.796804, 0.787474, 0.789146, 0.787725, 0.790764, 0.790943, 0.78479, 0.788062, 0.797366, 0.789726, 0.789416, 0.793054, 0.792798, 0.790839, 0.788575, 0.788354, 0.792075, 0.787184, 0.794892, 0.794169, 0.794554, 0.786543, 0.78744, 0.787728, 0.788008, 0.803875, 0.813068, 0.812137, 0.78864, 0.790767, 0.787685, 0.787811, 0.787173, 0.78672, 0.786471, 0.78664, 0.787878, 0.788381, 0.791818, 0.794425, 0.787911, 0.787163, 0.782407, 0.783419, 0.784221, 0.784729, 0.784202, 0.795158, 0.781206, 0.782255, 0.783123, 0.783787, 0.780353, 0.781982, 0.781754, 0.781329, 0.800281, 0.784804, 0.784134, 0.784384, 0.783126, 0.802831, 0.782176, 0.798446, 0.783484, 0.781077, 0.782959, 0.781039, 0.781414, 0.800238, 0.779076, 0.794619, 0.795557, 0.780112, 0.779237, 0.776385, 0.778655, 0.778729, 0.780715, 0.787948, 0.786076, 0.798251, 0.797994, 0.79673, 0.793986, 0.831946, 0.790666, 0.816428, 0.79829, 0.805061, 0.805967, 0.807128, 0.825528, 0.797909, 0.808417, 0.832813, 0.790194, 0.790688, 0.798254, 0.784065, 0.785553, 0.78234, 0.780692, 0.782337, 0.780996, 0.780709, 0.779984, 0.779969, 0.781083, 0.781598, 0.779842, 0.780956, 0.781066, 0.779949, 0.77983, 0.779196, 0.778344, 0.778864, 0.777539, 0.785048, 0.777086, 0.777932, 0.774152, 0.774224
0.817369, 0.812617, 0.812236, 0.809625, 0.811249, 0.811036, 0.814183, 0.811409, 0.809766, 0.813972, 0.81009, 0.811412, 0.813306, 0.815215, 0.812268, 0.815295, 0.815618, 0.815937, 0.816961, 0.814916, 0.814413, 0.815898, 0.787761, 0.7984, 0.787426, 0.814887, 0.812899, 0.812728, 0.812906, 0.812351, 0.811508, 0.811417, 0.812603, 0.8116, 0.811406, 0.815024, 0.81584, 0.810885, 0.810454, 0.810172, 0.81007, 0.817516, 0.814838, 0.810838, 0.811755, 0.808673, 0.804701, 0.81087, 0.802567, 0.801924, 0.800761, 0.815504, 0.815747, 0.801771, 0.801735, 0.809794, 0.815487, 0.81478, 0.80939, 0.810335, 0.811663, 0.804094, 0.803179, 0.802324, 0.804125, 0.812114, 0.811437, 0.815737, 0.804052, 0.805657, 0.807992, 0.811426, 0.812284, 0.811522, 0.809279, 0.824655, 0.825346, 0.815743, 0.814557, 0.81455, 0.817147, 0.818141, 0.815276, 0.830459, 0.832691, 0.835488, 0.825003, 0.805114, 0.780058, 0.780371, 0.785046, 0.787504, 0.79864, 0.798485, 0.798289, 0.860409, 0.894484, 0.894864, 0.908192, 0.907714, 0.942987, 0.978183, 0.999701, 0.999656, 1.01821, 1.22654, 1.16809, 1.08539, 1.08454, 1.04684, 1.05793, 1.05733, 1.05072, 0.96297, 0.974307, 0.974602, 0.884534, 0.885023, 0.88561, 0.884614, 0.899088, 0.864039, 0.852823, 0.823812, 0.815087, 0.814449, 0.790852, 0.780538, 0.781351, 0.785156, 0.784143, 0.783726, 0.804495, 0.799625, 0.800465, 0.798695, 0.799215, 0.800427, 0.797635, 0.796541, 0.797774, 0.807352, 0.795597, 0.796309, 0.795944, 0.796184, 0.796755, 0.793448, 0.791805, 0.792241, 0.791181, 0.787786, 0.78756, 0.790101, 0.788313, 0.789218, 0.788547, 0.794321, 0.797972, 0.788528, 0.789622, 0.789739, 0.790646, 0.791913, 0.792591, 0.802602, 0.805359, 0.788365, 0.78793, 0.798356, 0.787088, 0.788317, 0.790517, 0.788112, 0.789394, 0.7939, 0.788669, 0.788672, 0.788795, 0.789682, 0.788129, 0.790405, 0.786105, 0.786675, 0.786781, 0.788035, 0.788031, 0.789118, 0.788899, 0.788321, 0.789919, 0.787847, 0.786671, 0.787389, 0.784141, 0.784226, 0.7855, 0.789194, 0.789953, 0.789525, 0.787736, 0.786914, 0.792527, 0.791027, 0.789393, 0.787396, 0.802072, 0.811911, 0.813199, 0.788021, 0.788359, 0.78654, 0.807543, 0.78929, 0.787846, 0.785604, 0.785834, 0.785404, 0.78422, 0.784515, 0.784477, 0.783641, 0.78539, 0.783947, 0.783906, 0.783918, 0.790232, 0.782012, 0.781833, 0.782774, 0.781995, 0.793902, 0.781938, 0.783134, 0.78348, 0.797354, 0.783876, 0.784356, 0.787019, 0.784216, 0.784704, 0.802409, 0.78316, 0.783704, 0.783142, 0.782911, 0.78083, 0.780676, 0.78012, 0.803777, 0.779475, 0.787667, 0.797913, 0.786043, 0.787151, 0.780549, 0.780356, 0.782289, 0.783562, 0.7854, 0.811486, 0.795752, 0.791569, 0.791775, 0.78087, 0.819476, 0.803486, 0.803133, 0.793645, 0.804401, 0.786424, 0.782224, 0.812122, 0.790828, 0.787379, 0.786923, 0.810136, 0.814725, 0.784466, 0.781342, 0.781208, 0.7817, 0.781286, 0.781125, 0.811795, 0.780867, 0.781931, 0.783663, 0.780524, 0.781129, 0.780542, 0.801988, 0.791138, 0.802167, 0.802193, 0.777631, 0.777332, 0.779963, 0.791377, 0.773788, 0.772861, 0.775973
0.814315, 0.809476, 0.807747, 0.811432, 0.81173, 0.817962, 0.809792, 0.809168, 0.818287, 0.811206, 0.811622, 0.814814, 0.816221, 0.815293, 0.816702, 0.816307, 0.817587, 0.817604, 0.812913, 0.815468, 0.815563, 0.812809, 0.81168, 0.812552, 0.814588, 0.793501, 0.826406, 0.822063, 0.811192, 0.814208, 0.813439, 0.83196, 0.810582, 0.811726, 0.811683, 0.818051, 0.815934, 0.814247, 0.807532, 0.81818, 0.819615, 0.805035, 0.806804, 0.814016, 0.805852, 0.802048, 0.804591, 0.815306, 0.801285, 0.809756, 0.801565, 0.798799, 0.797801, 0.798367, 0.802461, 0.814932, 0.812999, 0.806677, 0.801306, 0.803936, 0.804323, 0.805588, 0.802136, 0.804988, 0.805754, 0.812321, 0.804212, 0.812074, 0.806387, 0.806214, 0.807206, 0.808984, 0.810338, 0.811284, 0.811023, 0.824366, 0.814956, 0.83037, 0.815154, 0.812915, 0.818897, 0.81932, 0.813865, 0.80098, 0.817003, 0.79803, 0.819739, 0.818843, 0.807309, 0.787881, 0.787331, 0.785629, 0.823502, 0.824157, 0.850934, 0.871992, 0.874627, 0.921822, 0.921902, 0.941937, 0.967996, 0.983819, 1.00413, 1.00805, 1.00909, 1.13391, 1.15144, 1.12885, 1.0795, 1.04909, 1.05112, 1.05468, 1.07497, 0.981134, 0.9701, 0.935569, 0.913048, 0.917471, 0.917831, 0.879952, 0.882068, 0.876343, 0.828955, 0.834204, 0.811773, 0.783511, 0.808936, 0.792254, 0.791986, 0.790191, 0.790318, 0.792136, 0.798931, 0.794478, 0.798496, 0.797887, 0.797145, 0.796896, 0.800827, 0.800464, 0.800349, 0.800128, 0.800145, 0.802188, 0.809308, 0.797797, 0.794801, 0.790353, 0.792489, 0.793462, 0.794362, 0.793601, 0.793234, 0.789262, 0.788143, 0.787624, 0.797701, 0.791123, 0.790853, 0.787702, 0.787108, 0.786529, 0.786306, 0.788079, 0.787237, 0.787241, 0.808489, 0.800153, 0.789027, 0.788744, 0.80952, 0.789977, 0.787212, 0.787991, 0.790097, 0.790355, 0.789531, 0.790224, 0.790508, 0.7898, 0.790035, 0.789868, 0.789975, 0.79792, 0.786369, 0.798615, 0.797884, 0.789728, 0.787052, 0.788137, 0.791249, 0.788435, 0.785238, 0.789942, 0.78629, 0.789701, 0.787958, 0.786978, 0.786826, 0.785615, 0.793598, 0.788428, 0.791005, 0.793928, 0.787778, 0.804574, 0.805159, 0.805687, 0.803921, 0.791315, 0.792468, 0.786781, 0.78717, 0.784258, 0.795295, 0.800527, 0.783501, 0.783571, 0.784, 0.782475, 0.784851, 0.80242, 0.804619, 0.816971, 0.783753, 0.78377, 0.782293, 0.784578, 0.784066, 0.782039, 0.784029, 0.784018, 0.783923, 0.783805, 0.7843, 0.78425, 0.784068, 0.783697, 0.783229, 0.784741, 0.784948, 0.784585, 0.784964, 0.783933, 0.784048, 0.796576, 0.782753, 0.782421, 0.781908, 0.794537, 0.801343, 0.818591, 0.818205, 0.791837, 0.778717, 0.790878, 0.799135, 0.798547, 0.781043, 0.780599, 0.799163, 0.799504, 0.779176, 0.780119, 0.781115, 0.780663, 0.788326, 0.801821, 0.8002, 0.800582, 0.800613, 0.798204, 0.812638, 0.783563, 0.792171, 0.791417, 0.825718, 0.803506, 0.808388, 0.808395, 0.792227, 0.780955, 0.78161, 0.782023, 0.790133, 0.780678, 0.781182, 0.788218, 0.788319, 0.777632, 0.778572, 0.778559, 0.779491, 0.779764, 0.779844, 0.777588, 0.777589, 0.779506, 0.774477, 0.775428, 0.774931, 0.775358
0.811473, 0.810489, 0.811598, 0.812905, 0.809306, 0.811567, 0.811333, 0.810985, 0.808608, 0.806953, 0.81403, 0.828184, 0.802815, 0.815043, 0.815926, 0.822473, 0.816397, 0.826188, 0.818192, 0.818433, 0.818789, 0.812748, 0.81472, 0.814316, 0.815587, 0.814261, 0.814104, 0.814612, 0.814827, 0.815305, 0.818013, 0.818254, 0.810091, 0.813083, 0.813139, 0.812123, 0.810394, 0.815785, 0.813238, 0.809271, 0.811749, 0.809294, 0.814523, 0.808354, 0.801118, 0.825045, 0.803951, 0.805516, 0.799521, 0.811444, 0.800851, 0.800467, 0.804737, 0.808046, 0.801191, 0.80359, 0.80591, 0.80508, 0.804203, 0.811165, 0.805296, 0.805212, 0.821372, 0.807244, 0.81128, 0.805961, 0.806322, 0.805964, 0.806043, 0.807378, 0.80712, 0.82169, 0.80864, 0.809201, 0.80884, 0.810611, 0.812158, 0.817926, 0.813699, 0.815112, 0.814843, 0.826108, 0.818109, 0.805734, 0.802752, 0.801542, 0.801957, 0.794512, 0.8023, 0.798384, 0.799527, 0.800409, 0.835323, 0.838637, 0.838399, 0.867355, 0.876501, 0.935177, 0.948876, 0.960598, 0.987719, 0.986749, 0.985829, 0.987718, 1.01393, 1.01465, 1.12937, 1.1068, 1.10897, 1.07284, 1.07117, 1.07043, 1.01545, 0.997648, 0.95616, 0.954007, 0.952672, 0.934116, 0.894808, 0.851876, 0.851735, 0.848463, 0.849555, 0.832466, 0.812114, 0.801403, 0.782512, 0.77969, 0.781117, 0.787444, 0.7884, 0.794493, 0.794418, 0.793926, 0.795998, 0.798436, 0.804996, 0.796841, 0.801188, 0.798481, 0.798342, 0.795507, 0.794768, 0.794312, 0.80246, 0.800995, 0.801586, 0.812277, 0.787874, 0.794785, 0.791066, 0.792132, 0.788948, 0.787635, 0.791074, 0.788841, 0.788464, 0.78849, 0.793416, 0.787738, 0.797511, 0.79748, 0.795354, 0.784994, 0.785758, 0.785854, 0.788122, 0.78903, 0.789032, 0.789383, 0.790023, 0.790913, 0.793667, 0.792653, 0.790815, 0.791184, 0.790117, 0.790474, 0.790264, 0.790246, 0.789246, 0.788864, 0.790079, 0.789653, 0.791016, 0.775768, 0.770858, 0.770245, 0.784785, 0.783558, 0.792035, 0.791807, 0.788077, 0.786009, 0.786643, 0.787245, 0.791223, 0.783412, 0.784348, 0.784298, 0.781243, 0.785719, 0.791164, 0.787547, 0.786207, 0.805512, 0.806742, 0.799057, 0.874148, 0.86618, 0.866021, 0.866419, 0.810944, 0.809685, 0.791709, 0.805188, 0.787031, 0.805306, 0.786999, 0.784994, 0.784271, 0.785896, 0.784584, 0.787301, 0.78775, 0.780738, 0.790316, 0.784716, 0.803204, 0.802538, 0.787016, 0.783479, 0.787794, 0.788397, 0.785701, 0.78597, 0.786434, 0.786821, 0.785704, 0.784642, 0.78439, 0.785183, 0.786651, 0.786977, 0.804424, 0.786888, 0.791764, 0.796995, 0.797387, 0.787638, 0.793761, 0.794287, 0.786059, 0.784703, 0.781076, 0.779846, 0.821268, 0.799816, 0.816141, 0.780381, 0.808044, 0.787415, 0.77968, 0.780149, 0.797402, 0.779258, 0.777565, 0.778682, 0.805182, 0.800676, 0.800798, 0.799508, 0.777777, 0.791773, 0.791555, 0.816123, 0.817757, 0.798115, 0.809243, 0.780374, 0.778877, 0.783176, 0.779431, 0.8125, 0.780501, 0.781082, 0.780264, 0.797004, 0.780477, 0.778024, 0.791277, 0.790078, 0.776951, 0.776807, 0.777292, 0.778287, 0.778404, 0.778475, 0.774028, 0.775972, 0.774986, 0.77383
0.818666, 0.808137, 0.819394, 0.819132, 0.811122, 0.809168, 0.81789, 0.809346, 0.809916, 0.811077, 0.81749, 0.822311, 0.801574, 0.803081, 0.811126, 0.826877, 0.827197, 0.815045, 0.803901, 0.81363, 0.818866, 0.814673, 0.825889, 0.813889, 0.813218, 0.816559, 0.825723, 0.814887, 0.82484, 0.814647, 0.813906, 0.816184, 0.819614, 0.812146, 0.811694, 0.811414, 0.828224, 0.807303, 0.807103, 0.812436, 0.810772, 0.814997, 0.816059, 0.809126, 0.81098, 0.812428, 0.808837, 0.807594, 0.803948, 0.802696, 0.810929, 0.800241, 0.800968, 0.802021, 0.810315, 0.801744, 0.780466, 0.815979, 0.804735, 0.805867, 0.805006, 0.811922, 0.811579, 0.807714, 0.808784, 0.81501, 0.805111, 0.80587, 0.809608, 0.809516, 0.809313, 0.808802, 0.810346, 0.818933, 0.809788, 0.811265, 0.812554, 0.832514, 0.832459, 0.82201, 0.822557, 0.814882, 0.814343, 0.815363, 0.80207, 0.800516, 0.795281, 0.79508, 0.812099, 0.81232, 0.806344, 0.804382, 0.837045, 0.840433, 0.884914, 0.885628, 0.892517, 0.892014, 0.966875, 0.963602, 0.992745, 0.992202, 0.999057, 1.01246, 1.01334, 1.03204, 1.12294, 1.13718, 1.10127, 1.08814, 1.0785, 1.07783, 1.07788, 0.991707, 0.979709, 0.960197, 0.959432, 0.915142, 0.908231, 0.852741, 0.852762, 0.884512, 0.863497, 0.809683, 0.808684, 0.789163, 0.78905, 0.782553, 0.78241, 0.790627, 0.786971, 0.78832, 0.795157, 0.797322, 0.797111, 0.794918, 0.795242, 0.793895, 0.793702, 0.794168, 0.796427, 0.796658, 0.796258, 0.792137, 0.796117, 0.798671, 0.79731, 0.792449, 0.794313, 0.793769, 0.794749, 0.793863, 0.801139, 0.791589, 0.793714, 0.793412, 0.787529, 0.792179, 0.7902, 0.791012, 0.79158, 0.790489, 0.795279, 0.783948, 0.782171, 0.78839, 0.787101, 0.814123, 0.8137, 0.791572, 0.789619, 0.789259, 0.78923, 0.791322, 0.792969, 0.795042, 0.790038, 0.790155, 0.789292, 0.790507, 0.790654, 0.791122, 0.79125, 0.790098, 0.787114, 0.787482, 0.780095, 0.77107, 0.774801, 0.772471, 0.771834, 0.790777, 0.789669, 0.78866, 0.78792, 0.785332, 0.790523, 0.789472, 0.78464, 0.784298, 0.785799, 0.785523, 0.793109, 0.786386, 0.790314, 0.79003, 0.789023, 0.915292, 0.915591, 0.900752, 0.901147, 0.88497, 0.887984, 0.786737, 0.798339, 0.789031, 0.793593, 0.793539, 0.793433, 0.790753, 0.784738, 0.789541, 0.781812, 0.78164, 0.790215, 0.788182, 0.78575, 0.797241, 0.78661, 0.805996, 0.78587, 0.7907, 0.786472, 0.787649, 0.789005, 0.790441, 0.789774, 0.788027, 0.784175, 0.784661, 0.785748, 0.785717, 0.786406, 0.787606, 0.80407, 0.784732, 0.785004, 0.783614, 0.787874, 0.784771, 0.784614, 0.786784, 0.781898, 0.781396, 0.783573, 0.780854, 0.781733, 0.782014, 0.781827, 0.795399, 0.798553, 0.787706, 0.798395, 0.78027, 0.780143, 0.779994, 0.781134, 0.797574, 0.797747, 0.78738, 0.790714, 0.838155, 0.802653, 0.801474, 0.786627, 0.785516, 0.843155, 0.778055, 0.811942, 0.799243, 0.797962, 0.780243, 0.779846, 0.779286, 0.780189, 0.781019, 0.777768, 0.779101, 0.77988, 0.779582, 0.777743, 0.778453, 0.778621, 0.778846, 0.777093, 0.777083, 0.777394, 0.77575, 0.779992, 0.774625, 0.776565, 0.784142
0.814056, 0.82417, 0.814828, 0.815149, 0.809907, 0.810782, 0.808087, 0.79952, 0.799353, 0.798446, 0.826092, 0.808794, 0.81272, 0.816023, 0.810237, 0.813866, 0.814771, 0.81409, 0.799083, 0.820291, 0.812572, 0.81973, 0.824372, 0.822635, 0.811449, 0.812112, 0.819512, 0.819765, 0.821061, 0.81589, 0.816173, 0.811806, 0.812366, 0.811538, 0.809688, 0.8091, 0.815, 0.803246, 0.815721, 0.816909, 0.812497, 0.820882, 0.822455, 0.825138, 0.811778, 0.80463, 0.808424, 0.810616, 0.810084, 0.801248, 0.808172, 0.804416, 0.810453, 0.814577, 0.804613, 0.804279, 0.804242, 0.803907, 0.814215, 0.814803, 0.81482, 0.80821, 0.806374, 0.805368, 0.814312, 0.82519, 0.812788, 0.811304, 0.80921, 0.808585, 0.809105, 0.809529, 0.822253, 0.811194, 0.811453, 0.81027, 0.826038, 0.819241, 0.81266, 0.819496, 0.819008, 0.841604, 0.811054, 0.833136, 0.775099, 0.794488, 0.795984, 0.815384, 0.809328, 0.795896, 0.797209, 0.805214, 0.824786, 0.825637, 0.895904, 0.869656, 0.898785, 0.903867, 0.916849, 0.980861, 0.981359, 0.996338, 1.01828, 1.05267, 1.04591, 1.0441, 1.04766, 1.13271, 1.13455, 1.15104, 1.13535, 1.13554, 1.04097, 1.00524, 1.04316, 0.984275, 0.953431, 0.951835, 0.886487, 0.877183, 0.844193, 0.843599, 0.845411, 0.828846, 0.839719, 0.814314, 0.797741, 0.784642, 0.783204, 0.781103, 0.782494, 0.793516, 0.794837, 0.795383, 0.798311, 0.801106, 0.797507, 0.799439, 0.801178, 0.79711, 0.797594, 0.799595, 0.796658, 0.796727, 0.79559, 0.795219, 0.795597, 0.797444, 0.792124, 0.791506, 0.7945, 0.798055, 0.805073, 0.802402, 0.794232, 0.791634, 0.793124, 0.793536, 0.791092, 0.791773, 0.804386, 0.787466, 0.792464, 0.790647, 0.791863, 0.789784, 0.789028, 0.802105, 0.78919, 0.790975, 0.790304, 0.790669, 0.799195, 0.789711, 0.789256, 0.789846, 0.788916, 0.789307, 0.790367, 0.789905, 0.789809, 0.789908, 0.785736, 0.784045, 0.78466, 0.785145, 0.785838, 0.785439, 0.787465, 0.774107, 0.782175, 0.781204, 0.789091, 0.787909, 0.787929, 0.787524, 0.786529, 0.785893, 0.787295, 0.790924, 0.791664, 0.799507, 0.79718, 0.78804, 0.788352, 0.788208, 0.798875, 0.870264, 0.878595, 0.878332, 0.869623, 0.869726, 0.863411, 0.789232, 0.785608, 0.799415, 0.785617, 0.78601, 0.787838, 0.784304, 0.785777, 0.795106, 0.784024, 0.784933, 0.785933, 0.786551, 0.784571, 0.822588, 0.786571, 0.7859, 0.794838, 0.788347, 0.787468, 0.787623, 0.787125, 0.787376, 0.794144, 0.787334, 0.776742, 0.791215, 0.784946, 0.784424, 0.78476, 0.783397, 0.782849, 0.78789, 0.786143, 0.786076, 0.784644, 0.785037, 0.78459, 0.785249, 0.783748, 0.78299, 0.783248, 0.78371, 0.779954, 0.780354, 0.783831, 0.781671, 0.783146, 0.782361, 0.781475, 0.780505, 0.781946, 0.781608, 0.780953, 0.780387, 0.78106, 0.780811, 0.782781, 0.80511, 0.822984, 0.783143, 0.784954, 0.797249, 0.815592, 0.816164, 0.780464, 0.780134, 0.780354, 0.779541, 0.779503, 0.779246, 0.778658, 0.780527, 0.778381, 0.778097, 0.778159, 0.77804, 0.778099, 0.777915, 0.778723, 0.777561, 0.774736, 0.775605, 0.776743, 0.778994, 0.801256, 0.800835, 0.774449, 0.776975
0.819677, 0.816355, 0.816448, 0.807669, 0.815528, 0.814899, 0.791501, 0.791748, 0.809822, 0.811931, 0.803428, 0.813654, 0.810684, 0.809678, 0.821116, 0.820929, 0.814413, 0.815057, 0.815107, 0.816807, 0.818524, 0.818177, 0.817148, 0.817309, 0.815938, 0.811759, 0.811345, 0.812144, 0.811143, 0.810808, 0.809585, 0.807911, 0.808319, 0.810975, 0.807605, 0.807339, 0.807728, 0.808622, 0.811137, 0.803124, 0.804021, 0.806253, 0.80132, 0.808878, 0.80285, 0.801468, 0.802505, 0.808638, 0.809003, 0.80149, 0.802217, 0.802118, 0.799232, 0.804861, 0.804603, 0.804734, 0.802931, 0.804323, 0.806021, 0.80629, 0.808619, 0.818179, 0.807679, 0.806806, 0.813982, 0.815382, 0.807363, 0.806721, 0.815514, 0.81863, 0.811331, 0.813741, 0.809365, 0.809137, 0.822064, 0.808837, 0.814963, 0.814335, 0.81425, 0.812626, 0.811377, 0.811267, 0.821362, 0.79552, 0.79553, 0.769826, 0.791696, 0.780276, 0.780863, 0.753817, 0.769189, 0.767065, 0.815895, 0.847759, 0.848967, 0.846174, 0.882869, 0.903709, 0.903497, 0.963895, 0.988183, 1.01478, 1.03971, 1.04074, 1.05352, 1.08312, 1.06964, 1.09624, 1.16051, 1.15184, 1.15654, 1.09156, 1.09035, 1.07472, 1.03344, 1.00451, 0.919861, 0.915779, 0.914485, 0.866637, 0.83138, 0.828841, 0.842894, 0.79741, 0.809147, 0.823942, 0.77825, 0.777524, 0.776614, 0.786938, 0.799883, 0.797251, 0.797903, 0.796092, 0.795552, 0.797492, 0.795594, 0.804955, 0.797188, 0.797868, 0.804589, 0.802333, 0.794564, 0.796002, 0.79489, 0.79415, 0.793052, 0.793294, 0.791985, 0.789529, 0.795286, 0.794411, 0.790701, 0.790893, 0.791631, 0.792611, 0.797232, 0.790967, 0.790946, 0.791151, 0.790641, 0.789483, 0.790287, 0.790042, 0.790251, 0.798442, 0.792352, 0.794275, 0.788322, 0.790294, 0.79126, 0.789338, 0.791152, 0.790457, 0.791795, 0.790643, 0.788915, 0.790113, 0.789873, 0.78809, 0.790321, 0.801511, 0.785981, 0.785572, 0.785748, 0.788419, 0.790513, 0.790036, 0.791679, 0.79392, 0.788869, 0.788459, 0.787618, 0.789262, 0.787347, 0.785577, 0.801044, 0.791758, 0.81151, 0.790224, 0.78998, 0.787428, 0.79066, 0.800757, 0.790193, 0.791034, 0.787666, 0.788013, 0.798773, 0.876671, 0.864165, 0.874163, 0.817427, 0.787928, 0.786814, 0.786568, 0.786147, 0.785984, 0.787441, 0.78764, 0.78864, 0.787686, 0.784807, 0.783697, 0.788036, 0.786306, 0.786929, 0.786612, 0.786445, 0.786564, 0.798663, 0.788338, 0.808832, 0.787829, 0.786363, 0.785377, 0.785737, 0.783055, 0.783518, 0.783486, 0.787139, 0.785801, 0.784392, 0.793144, 0.783339, 0.794094, 0.787601, 0.786579, 0.784461, 0.811788, 0.812679, 0.800964, 0.801963, 0.784858, 0.78478, 0.784626, 0.781893, 0.783199, 0.783364, 0.783124, 0.795512, 0.783965, 0.791618, 0.783785, 0.783059, 0.783197, 0.781533, 0.782591, 0.800934, 0.781337, 0.782072, 0.779887, 0.781201, 0.780923, 0.781417, 0.791601, 0.780574, 0.780653, 0.78058, 0.795181, 0.780617, 0.802936, 0.780305, 0.780042, 0.780511, 0.778132, 0.776785, 0.796627, 0.778503, 0.779423, 0.77833, 0.778304, 0.794951, 0.776937, 0.798468, 0.778566, 0.778532, 0.776896, 0.776995, 0.811097, 0.814963, 0.777149
0.819668, 0.819065, 0.812824, 0.813052, 0.824205, 0.815005, 0.815637, 0.791743, 0.798789, 0.808764, 0.815512, 0.821905, 0.811493, 0.818533, 0.815182, 0.829052, 0.814439, 0.814773, 0.81818, 0.814958, 0.815365, 0.816341, 0.814722, 0.842917, 0.816346, 0.81502, 0.814137, 0.811594, 0.811774, 0.812081, 0.811312, 0.810358, 0.810671, 0.81082, 0.807404, 0.814442, 0.806574, 0.807231, 0.812088, 0.81056, 0.807551, 0.805167, 0.817998, 0.808935, 0.808099, 0.797182, 0.811599, 0.802417, 0.802985, 0.802953, 0.803173, 0.811821, 0.811722, 0.805351, 0.804608, 0.807383, 0.805496, 0.802976, 0.804901, 0.803988, 0.812518, 0.81091, 0.808311, 0.805855, 0.811218, 0.814294, 0.817652, 0.808381, 0.810371, 0.808681, 0.809345, 0.809375, 0.807854, 0.808035, 0.810958, 0.811818, 0.811009, 0.810724, 0.810634, 0.81099, 0.811234, 0.82996, 0.806331, 0.78803, 0.7675, 0.773961, 0.766369, 0.7513, 0.744797, 0.745789, 0.759369, 0.764624, 0.764683, 0.848866, 0.849791, 0.926201, 0.901591, 0.900262, 0.899144, 0.962853, 0.963346, 0.963441, 1.04595, 1.062, 1.08288, 1.08299, 1.09506, 1.12827, 1.15843, 1.15954, 1.26462, 1.10738, 1.15406, 1.09215, 1.07357, 0.921648, 0.921797, 0.921741, 0.890735, 0.901541, 0.838221, 0.837058, 0.802216, 0.791223, 0.778118, 0.777758, 0.778556, 0.779574, 0.779968, 0.77945, 0.786722, 0.785685, 0.795207, 0.798088, 0.797199, 0.795967, 0.802416, 0.79814, 0.80056, 0.797459, 0.797979, 0.796303, 0.796583, 0.798574, 0.797408, 0.795309, 0.797664, 0.81881, 0.801394, 0.800555, 0.791996, 0.794461, 0.795709, 0.790882, 0.79584, 0.796686, 0.797451, 0.803671, 0.801415, 0.79179, 0.791377, 0.792588, 0.794521, 0.788379, 0.801171, 0.794435, 0.790873, 0.798041, 0.787915, 0.788399, 0.787784, 0.789737, 0.78956, 0.80258, 0.793967, 0.7934, 0.791913, 0.7905, 0.791565, 0.791585, 0.792434, 0.791201, 0.791294, 0.791898, 0.809603, 0.790177, 0.790536, 0.791298, 0.798977, 0.791405, 0.790826, 0.789382, 0.789304, 0.787979, 0.786877, 0.786946, 0.78819, 0.790679, 0.800731, 0.790378, 0.792072, 0.796712, 0.789813, 0.804892, 0.818511, 0.789273, 0.789262, 0.790828, 0.794325, 0.794601, 0.794219, 0.793762, 0.788318, 0.789284, 0.798099, 0.787832, 0.787867, 0.78716, 0.785928, 0.797301, 0.794283, 0.787346, 0.795179, 0.787264, 0.787215, 0.787641, 0.78786, 0.788201, 0.788237, 0.808332, 0.808006, 0.788704, 0.788162, 0.787572, 0.785563, 0.804043, 0.802878, 0.792815, 0.801504, 0.789638, 0.801024, 0.784184, 0.787325, 0.784012, 0.783652, 0.783061, 0.806065, 0.804595, 0.784409, 0.785432, 0.783986, 0.785018, 0.784763, 0.784696, 0.784227, 0.784255, 0.783946, 0.783975, 0.783176, 0.78426, 0.784865, 0.783275, 0.783467, 0.782114, 0.783418, 0.782771, 0.783178, 0.804501, 0.801826, 0.801703, 0.782898, 0.782894, 0.782696, 0.783609, 0.798886, 0.781856, 0.783629, 0.782489, 0.804859, 0.781849, 0.780724, 0.782694, 0.783108, 0.805648, 0.781808, 0.781076, 0.780724, 0.780472, 0.780478, 0.779866, 0.779711, 0.780077, 0.779979, 0.796201, 0.7767, 0.778199, 0.779677, 0.77895, 0.778177, 0.77746, 0.807369, 0.77649
0.951143, 0.829211, 0.828891, 0.819061, 0.810533, 0.818483, 0.808373, 0.814997, 0.809338, 0.809229, 0.810803, 0.818297, 0.816755, 0.8204, 0.822789, 0.814202, 0.814062, 0.829074, 0.81406, 0.81387, 0.814719, 0.815716, 0.815286, 0.815882, 0.815906, 0.815386, 0.81292, 0.813095, 0.809842, 0.809995, 0.820562, 0.810669, 0.809949, 0.808018, 0.808114, 0.806026, 0.804287, 0.805858, 0.805358, 0.817888, 0.805696, 0.814834, 0.815925, 0.805321, 0.807479, 0.808845, 0.801169, 0.803923, 0.803311, 0.803278, 0.802743, 0.818643, 0.808659, 0.806089, 0.804598, 0.805719, 0.806255, 0.806455, 0.806287, 0.806176, 0.806132, 0.814964, 0.804729, 0.805732, 0.806256, 0.806794, 0.809764, 0.810168, 0.821239, 0.809021, 0.808097, 0.808451, 0.809395, 0.810266, 0.80977, 0.814985, 0.811649, 0.81142, 0.811689, 0.80589, 0.797777, 0.798393, 0.80264, 0.770667, 0.778717, 0.779972, 0.750423, 0.769828, 0.745438, 0.747323, 0.756624, 0.785106, 0.808285, 0.858066, 0.873825, 0.866384, 0.866377, 0.884163, 0.918456, 0.930282, 0.930931, 0.931306, 1.06946, 1.17325, 1.11506, 1.12592, 1.14979, 1.14996, 1.26743, 1.26781, 1.27827, 1.28918, 1.13317, 1.10255, 1.11696, 0.966749, 0.960418, 0.91503, 0.901017, 0.880625, 0.826731, 0.827089, 0.79945, 0.798888, 0.790908, 0.777839, 0.780618, 0.787054, 0.780711, 0.781105, 0.782195, 0.794215, 0.794503, 0.797555, 0.801033, 0.804016, 0.799566, 0.80281, 0.801537, 0.798005, 0.79715, 0.794753, 0.793659, 0.80084, 0.795319, 0.799343, 0.804282, 0.805627, 0.794064, 0.792553, 0.797413, 0.795939, 0.796841, 0.803886, 0.791219, 0.791602, 0.800952, 0.796595, 0.791348, 0.794779, 0.794689, 0.798353, 0.798027, 0.797194, 0.797549, 0.798292, 0.793572, 0.805016, 0.792184, 0.791168, 0.790526, 0.806173, 0.789701, 0.790516, 0.790939, 0.790664, 0.790982, 0.790476, 0.791902, 0.790949, 0.789591, 0.819432, 0.792064, 0.792477, 0.792426, 0.795995, 0.792178, 0.791251, 0.792365, 0.790649, 0.791702, 0.791393, 0.79182, 0.788931, 0.795062, 0.794154, 0.79191, 0.804309, 0.80474, 0.804838, 0.790145, 0.791111, 0.791127, 0.79014, 0.800536, 0.791417, 0.790701, 0.789781, 0.788437, 0.791931, 0.794804, 0.789337, 0.80122, 0.786839, 0.791138, 0.790945, 0.791445, 0.805796, 0.787608, 0.788123, 0.787057, 0.787359, 0.790479, 0.788527, 0.78877, 0.787384, 0.788185, 0.825973, 0.78889, 0.788376, 0.788896, 0.790161, 0.789369, 0.799224, 0.799977, 0.801358, 0.793567, 0.791979, 0.801109, 0.797226, 0.809735, 0.787126, 0.787039, 0.78531, 0.786571, 0.966975, 0.966244, 0.95989, 0.970115, 0.784569, 0.78535, 0.784806, 0.784541, 0.785083, 0.785653, 0.791026, 0.783018, 0.783987, 0.784434, 0.785066, 0.786488, 0.784386, 0.784629, 0.784096, 0.783629, 0.783688, 0.783679, 0.784044, 0.805483, 0.781686, 0.78263, 0.782858, 0.782919, 0.780993, 0.781467, 0.782285, 0.783998, 0.782989, 0.783369, 0.783295, 0.780212, 0.780936, 0.783353, 0.782766, 0.782078, 0.801716, 0.80162, 0.78305, 0.816924, 0.781599, 0.781508, 0.781334, 0.793818, 0.781044, 0.780201, 0.801136, 0.801736, 0.77873, 0.778606, 0.787725, 0.815461, 0.779425
0.937017, 0.937067, 0.812219, 0.814699, 0.812802, 0.815279, 0.81504, 0.81605, 0.811843, 0.810873, 0.810541, 0.815475, 0.816144, 0.815653, 0.814981, 0.815225, 0.830016, 0.814358, 0.815198, 0.813306, 0.813365, 0.84257, 0.814261, 0.814097, 0.814213, 0.814443, 0.824505, 0.842834, 0.811146, 0.835032, 0.811256, 0.810945, 0.818305, 0.81817, 0.807973, 0.80701, 0.804747, 0.810779, 0.807016, 0.806663, 0.804327, 0.804431, 0.808424, 0.80106, 0.815288, 0.807988, 0.806954, 0.807044, 0.812725, 0.807263, 0.807664, 0.802682, 0.802219, 0.803179, 0.807001, 0.807044, 0.808366, 0.812311, 0.80867, 0.809129, 0.806044, 0.805671, 0.803, 0.812551, 0.805452, 0.806601, 0.807313, 0.811877, 0.808038, 0.808156, 0.809169, 0.808029, 0.807612, 0.813969, 0.81272, 0.828095, 0.82814, 0.822761, 0.807275, 0.817303, 0.819759, 0.807592, 0.808161, 0.797448, 0.769636, 0.766501, 0.766998, 0.766133, 0.766032, 0.760604, 0.750131, 0.761573, 0.80042, 0.87014, 0.873593, 0.862218, 0.887324, 0.877911, 0.906677, 0.920124, 0.929391, 0.940493, 1.01734, 1.10701, 1.15288, 1.16229, 1.17393, 1.18187, 1.28839, 1.28897, 1.29497, 1.29602, 1.21217, 1.19985, 1.18124, 1.12728, 0.954751, 0.932562, 0.891382, 0.84765, 0.849885, 0.825488, 0.79793, 0.807952, 0.805089, 0.794252, 0.776892, 0.790516, 0.790701, 0.790198, 0.787909, 0.787013, 0.798552, 0.799852, 0.800763, 0.801221, 0.801555, 0.802172, 0.803631, 0.797149, 0.7978, 0.796286, 0.796769, 0.797034, 0.795541, 0.79568, 0.79805, 0.794863, 0.795749, 0.797628, 0.79228, 0.796846, 0.797251, 0.795213, 0.792019, 0.790736, 0.79314, 0.793666, 0.801531, 0.793749, 0.793388, 0.792297, 0.792568, 0.791706, 0.78892, 0.787714, 0.78103, 0.788934, 0.791835, 0.790889, 0.790547, 0.793792, 0.792415, 0.791961, 0.792432, 0.791999, 0.791659, 0.790785, 0.80581, 0.833386, 0.83202, 0.793901, 0.809551, 0.806769, 0.814796, 0.794649, 0.791329, 0.801575, 0.797095, 0.792002, 0.791479, 0.790866, 0.790044, 0.795283, 0.805245, 0.797005, 0.791467, 0.804237, 0.791648, 0.791228, 0.789925, 0.80278, 0.791872, 0.793254, 0.792709, 0.791527, 0.79199, 0.790083, 0.790278, 0.790134, 0.78813, 0.789222, 0.788572, 0.788691, 0.78887, 0.789075, 0.788551, 0.790283, 0.791014, 0.789324, 0.789537, 0.789609, 0.789661, 0.789315, 0.789045, 0.78925, 0.789793, 0.78931, 0.789417, 0.790523, 0.790728, 0.78933, 0.789129, 0.796889, 0.790597, 0.796495, 0.795004, 0.794173, 0.801364, 0.802168, 0.802299, 0.801121, 0.800983, 0.962271, 0.963573, 0.960392, 0.961578, 0.969942, 0.981104, 0.784537, 0.815326, 0.800543, 0.813627, 0.785486, 0.807338, 0.784905, 0.791475, 0.790224, 0.785467, 0.800635, 0.80062, 0.785636, 0.785414, 0.784195, 0.784335, 0.784905, 0.783809, 0.783798, 0.783545, 0.783861, 0.783039, 0.782264, 0.783686, 0.78288, 0.783863, 0.783756, 0.784077, 0.783322, 0.784092, 0.781815, 0.782355, 0.783776, 0.783097, 0.78333, 0.808557, 0.808471, 0.781709, 0.805604, 0.781046, 0.7814, 0.814513, 0.780902, 0.78079, 0.779944, 0.780222, 0.78003, 0.780084, 0.802938, 0.781041, 0.78179, 0.780343, 0.780161
0.943746, 0.81331, 0.811423, 0.823009, 0.809693, 0.81352, 0.817476, 0.818642, 0.810984, 0.818733, 0.81345, 0.813624, 0.815792, 0.814319, 0.814877, 0.816328, 0.812921, 0.843916, 0.815802, 0.81523, 0.814611, 0.814397, 0.81346, 0.814446, 0.816948, 0.812431, 0.83096, 0.829895, 0.813069, 0.812738, 0.813839, 0.813161, 0.815796, 0.806968, 0.809271, 0.821778, 0.804376, 0.810976, 0.81173, 0.810188, 0.80857, 0.806942, 0.806141, 0.802384, 0.811249, 0.805632, 0.796763, 0.815323, 0.805176, 0.806109, 0.806397, 0.811343, 0.805832, 0.80567, 0.805665, 0.810745, 0.811871, 0.805405, 0.80703, 0.807107, 0.80697, 0.8129, 0.809953, 0.80826, 0.823896, 0.812005, 0.813243, 0.813794, 0.8153, 0.809544, 0.815114, 0.80967, 0.814317, 0.814559, 0.814698, 0.814093, 0.814889, 0.805028, 0.815987, 0.829341, 0.808772, 0.797086, 0.809575, 0.797097, 0.79506, 0.778364, 0.787819, 0.759065, 0.760907, 0.760392, 0.768512, 0.768761, 0.769279, 0.76973, 0.821152, 0.881507, 0.881267, 0.846921, 0.844878, 0.942573, 0.987538, 0.977093, 0.871789, 1.135, 1.18143, 1.21501, 1.19772, 1.21205, 1.21326, 1.22615, 1.31021, 1.30993, 1.22221, 1.20508, 1.20538, 0.983518, 0.934248, 0.933393, 0.922693, 0.86246, 0.860714, 0.853098, 0.805379, 0.80657, 0.813497, 0.780275, 0.780113, 0.780261, 0.780677, 0.788019, 0.794813, 0.796943, 0.791057, 0.798087, 0.800704, 0.811062, 0.812262, 0.802321, 0.800713, 0.802073, 0.797669, 0.797952, 0.79733, 0.797498, 0.79853, 0.807755, 0.801117, 0.80036, 0.79124, 0.791651, 0.792159, 0.792434, 0.795211, 0.797703, 0.805071, 0.796788, 0.794599, 0.792697, 0.793956, 0.794776, 0.797233, 0.793152, 0.793904, 0.800927, 0.801563, 0.790646, 0.792329, 0.791049, 0.791087, 0.791562, 0.798842, 0.792442, 0.7914, 0.833062, 0.793781, 0.793011, 0.793707, 0.794666, 0.813193, 0.792557, 0.793767, 0.79406, 0.793564, 0.839551, 0.815582, 0.815476, 0.793676, 0.793616, 0.792657, 0.792178, 0.79258, 0.808508, 0.792436, 0.791999, 0.792471, 0.794298, 0.802276, 0.794119, 0.792928, 0.793083, 0.792929, 0.791737, 0.791369, 0.79528, 0.791878, 0.791122, 0.790838, 0.790815, 0.789957, 0.794096, 0.794332, 0.791534, 0.790013, 0.789001, 0.787775, 0.787818, 0.788871, 0.790816, 0.792056, 0.791144, 0.790464, 0.790415, 0.802516, 0.788516, 0.789359, 0.788517, 0.789578, 0.789527, 0.813252, 0.802823, 0.80456, 0.813985, 0.804095, 0.788118, 0.794918, 0.794339, 0.787404, 0.800486, 0.799289, 0.80747, 0.802895, 0.800641, 0.957791, 0.963771, 0.983327, 0.983724, 0.971778, 0.993364, 0.975964, 0.976794, 0.982487, 0.799473, 0.802622, 0.801135, 0.78442, 0.791994, 0.784979, 0.798773, 0.787906, 0.787307, 0.785468, 0.784961, 0.784463, 0.784241, 0.783805, 0.783717, 0.784045, 0.783996, 0.782866, 0.784337, 0.783076, 0.783907, 0.787118, 0.784226, 0.784066, 0.81147, 0.785774, 0.798105, 0.783419, 0.806799, 0.806994, 0.784704, 0.784326, 0.783577, 0.802958, 0.804591, 0.783036, 0.797011, 0.797366, 0.78311, 0.780789, 0.780912, 0.80227, 0.781286, 0.807931, 0.810663, 0.801742, 0.804252, 0.805846, 0.781497, 0.804584, 0.804666
0.819714, 0.819182, 0.811406, 0.813818, 0.815207, 0.813508, 0.809367, 0.810045, 0.810109, 0.809116, 0.817446, 0.813201, 0.815754, 0.812074, 0.813547, 0.813949, 0.813897, 0.813375, 0.814358, 0.81473, 0.832572, 0.813811, 0.813681, 0.813168, 0.823111, 0.828625, 0.81226, 0.812462, 0.813199, 0.812147, 0.8201, 0.810557, 0.810059, 0.808581, 0.809783, 0.825931, 0.806521, 0.80565, 0.806011, 0.804106, 0.805843, 0.808843, 0.815244, 0.803892, 0.804002, 0.805992, 0.810587, 0.811609, 0.811644, 0.807522, 0.80688, 0.806046, 0.813697, 0.812052, 0.812281, 0.808352, 0.80811, 0.809526, 0.829011, 0.809778, 0.816481, 0.819333, 0.822669, 0.811602, 0.824414, 0.825468, 0.835986, 0.826223, 0.825872, 0.814782, 0.822466, 0.812969, 0.81305, 0.811621, 0.810595, 0.810087, 0.807076, 0.806925, 0.802602, 0.815171, 0.81573, 0.802467, 0.804098, 0.800937, 0.793262, 0.801553, 0.766483, 0.764014, 0.770668, 0.749654, 0.756338, 0.755744, 0.759126, 0.770994, 0.792121, 0.800308, 0.818662, 0.818386, 0.827286, 0.839314, 0.838372, 0.860605, 0.861073, 0.869842, 0.883035, 1.21532, 1.21175, 1.20928, 1.20888, 1.2543, 1.28894, 1.28979, 1.2528, 1.23204, 1.23178, 0.979139, 0.958749, 0.933011, 0.932993, 0.893858, 0.860192, 0.859574, 0.821542, 0.823978, 0.806228, 0.797777, 0.796199, 0.79728, 0.784127, 0.785141, 0.788073, 0.796426, 0.79921, 0.800215, 0.80206, 0.803035, 0.80275, 0.801865, 0.797237, 0.79904, 0.800714, 0.798458, 0.798044, 0.798777, 0.798383, 0.799067, 0.805321, 0.80117, 0.798456, 0.79738, 0.794202, 0.791028, 0.801183, 0.795721, 0.797606, 0.79261, 0.795935, 0.795272, 0.795772, 0.794326, 0.795907, 0.793884, 0.797881, 0.80094, 0.792269, 0.792072, 0.793502, 0.79219, 0.789241, 0.789576, 0.7975, 0.792824, 0.792918, 0.794652, 0.797467, 0.821558, 0.804357, 0.794311, 0.7938, 0.794591, 0.794823, 0.794593, 0.794245, 0.819808, 0.794519, 0.794749, 0.795132, 0.794805, 0.822179, 0.82229, 0.795928, 0.794952, 0.793781, 0.79379, 0.797569, 0.798764, 0.803361, 0.792289, 0.792034, 0.826079, 0.793109, 0.793227, 0.804427, 0.816535, 0.791546, 0.792516, 0.792424, 0.792301, 0.822343, 0.79149, 0.791719, 0.791383, 0.793661, 0.791528, 0.790061, 0.789447, 0.790898, 0.788723, 0.808299, 0.78986, 0.790347, 0.793588, 0.791138, 0.789997, 0.790135, 0.790874, 0.789743, 0.790008, 0.814864, 0.789338, 0.81101, 0.7944, 0.794197, 0.800114, 0.798328, 0.797416, 0.79049, 0.78914, 0.810182, 0.816166, 0.803846, 0.959732, 0.953944, 0.975507, 0.977882, 0.982652, 0.983099, 1.00065, 0.975605, 0.990925, 0.970657, 0.990884, 0.812725, 0.80106, 0.801474, 0.794717, 0.785334, 0.785682, 0.785078, 0.786929, 0.786757, 0.785651, 0.786042, 0.784628, 0.821125, 0.784348, 0.794717, 0.785394, 0.78592, 0.783941, 0.783112, 0.783256, 0.783803, 0.785008, 0.78486, 0.783824, 0.784191, 0.819557, 0.783966, 0.804517, 0.783139, 0.808394, 0.811577, 0.784218, 0.78354, 0.783525, 0.783899, 0.78498, 0.80425, 0.782987, 0.783263, 0.800089, 0.800531, 0.781928, 0.7991, 0.791412, 0.781206, 0.781045, 0.804145, 0.798213, 0.797947, 0.780515
0.827184, 0.817839, 0.813437, 0.812817, 0.811408, 0.810526, 0.80928, 0.808999, 0.811682, 0.813289, 0.815624, 0.825504, 0.813298, 0.813388, 0.812173, 0.812754, 0.812403, 0.816828, 0.816537, 0.814803, 0.813769, 0.813488, 0.814277, 0.815616, 0.814947, 0.814036, 0.812798, 0.811937, 0.81155, 0.811417, 0.809591, 0.808031, 0.808244, 0.807894, 0.808422, 0.808972, 0.80778, 0.815026, 0.812186, 0.810413, 0.808529, 0.811891, 0.810089, 0.808926, 0.818342, 0.805094, 0.805356, 0.807439, 0.807933, 0.80912, 0.806699, 0.807464, 0.821079, 0.810377, 0.810471, 0.817997, 0.810056, 0.809296, 0.808609, 0.8112, 0.813673, 0.81295, 0.81629, 0.833008, 0.814131, 0.826128, 0.821121, 0.822645, 0.824332, 0.822876, 0.815654, 0.808362, 0.813369, 0.81492, 0.815204, 0.811148, 0.810221, 0.802266, 0.804092, 0.803132, 0.8025, 0.811701, 0.812217, 0.801402, 0.7872, 0.770966, 0.770279, 0.770563, 0.768987, 0.770486, 0.760086, 0.779443, 0.76475, 0.77755, 0.79544, 0.80015, 0.791804, 0.813906, 0.828686, 0.821702, 0.825447, 0.877644, 0.87373, 0.873741, 0.860137, 0.859025, 1.20886, 1.2152, 1.21601, 1.2527, 1.26159, 1.27699, 1.26772, 0.99819, 0.998343, 0.977894, 0.938971, 0.900718, 0.900729, 0.902784, 0.824773, 0.82466, 0.81438, 0.806902, 0.823017, 0.804946, 0.788884, 0.791463, 0.786798, 0.78611, 0.792958, 0.789422, 0.794364, 0.803351, 0.802652, 0.806479, 0.803295, 0.802822, 0.802728, 0.804358, 0.805306, 0.804185, 0.801787, 0.801154, 0.80098, 0.802968, 0.800463, 0.798687, 0.801374, 0.798845, 0.799114, 0.804255, 0.794154, 0.794518, 0.795309, 0.801758, 0.801863, 0.798486, 0.798092, 0.797098, 0.79492, 0.794409, 0.804162, 0.794957, 0.794242, 0.799214, 0.79407, 0.794408, 0.795008, 0.795098, 0.794185, 0.792577, 0.79151, 0.807767, 0.809317, 0.793998, 0.793658, 0.79442, 0.79521, 0.794504, 0.795044, 0.795333, 0.79491, 0.795044, 0.81612, 0.797382, 0.797166, 0.7999, 0.801183, 0.809295, 0.795557, 0.806134, 0.793246, 0.793673, 0.814723, 0.793916, 0.793829, 0.814257, 0.793217, 0.80636, 0.793929, 0.8249, 0.811715, 0.793248, 0.792884, 0.798167, 0.804669, 0.805278, 0.790317, 0.791935, 0.789993, 0.792137, 0.794736, 0.795108, 0.79197, 0.797326, 0.789472, 0.790914, 0.792168, 0.790973, 0.793403, 0.796973, 0.789813, 0.789511, 0.789697, 0.810916, 0.811885, 0.790244, 0.806329, 0.810812, 0.814574, 0.814564, 0.804913, 0.811447, 0.790291, 0.788999, 0.78806, 0.78798, 0.787535, 0.799273, 0.797964, 0.963975, 0.961864, 0.962724, 0.983976, 0.983114, 0.980348, 0.973257, 0.971284, 0.969656, 1.00589, 0.96637, 0.981461, 0.803589, 0.812053, 0.803536, 0.791083, 0.790016, 0.786762, 0.786271, 0.811328, 0.786232, 0.812485, 0.785361, 0.816669, 0.798465, 0.801095, 0.786989, 0.786198, 0.786201, 0.786298, 0.784448, 0.785057, 0.785705, 0.787161, 0.78762, 0.78737, 0.787522, 0.785282, 0.785361, 0.786635, 0.786375, 0.78639, 0.785888, 0.785995, 0.78564, 0.784956, 0.784555, 0.783716, 0.783714, 0.783438, 0.785416, 0.78233, 0.825894, 0.783635, 0.78453, 0.783418, 0.807613, 0.802114, 0.801669, 0.78236, 0.782762
0.822312, 0.813264, 0.811527, 0.811745, 0.812605, 0.818234, 0.811568, 0.812244, 0.821362, 0.820668, 0.815023, 0.812929, 0.813413, 0.82149, 0.814296, 0.812852, 0.812607, 0.81804, 0.81157, 0.814611, 0.812213, 0.810417, 0.812174, 0.812012, 0.811364, 0.812334, 0.812625, 0.811971, 0.805444, 0.812506, 0.809143, 0.809652, 0.808826, 0.817727, 0.808985, 0.811117, 0.818524, 0.805825, 0.811, 0.813831, 0.815881, 0.807815, 0.80863, 0.809237, 0.807233, 0.807896, 0.808185, 0.810116, 0.814292, 0.811337, 0.829773, 0.810765, 0.81131, 0.822145, 0.820246, 0.825762, 0.813063, 0.812522, 0.811488, 0.816686, 0.816432, 0.826937, 0.828595, 0.822049, 0.821731, 0.87403, 0.822837, 0.819633, 0.824192, 0.821913, 0.821184, 0.811946, 0.812812, 0.812953, 0.814232, 0.805361, 0.821971, 0.802992, 0.804193, 0.79868, 0.797947, 0.804868, 0.798257, 0.801077, 0.793811, 0.784096, 0.766978, 0.7728, 0.758775, 0.752028, 0.754032, 0.767646, 0.771269, 0.770643, 0.764898, 0.783823, 0.798487, 0.797926, 0.804904, 0.791994, 0.801871, 0.811928, 0.870568, 0.87153, 0.875411, 0.853134, 0.853982, 0.858185, 1.26063, 1.28653, 1.28579, 1.2507, 1.27191, 1.2725, 0.961027, 0.96076, 0.915641, 0.914564, 0.925344, 0.84635, 0.850687, 0.856188, 0.832598, 0.807356, 0.803939, 0.803699, 0.79256, 0.792581, 0.798584, 0.803165, 0.794431, 0.791739, 0.791077, 0.80062, 0.803929, 0.806762, 0.807138, 0.808127, 0.805863, 0.803187, 0.807485, 0.805826, 0.802555, 0.803014, 0.80424, 0.801312, 0.797043, 0.800217, 0.799579, 0.800256, 0.801425, 0.797797, 0.79826, 0.811132, 0.810061, 0.798142, 0.798952, 0.795475, 0.797299, 0.798754, 0.797442, 0.796074, 0.796277, 0.800348, 0.79879, 0.80873, 0.796232, 0.796112, 0.817182, 0.79395, 0.793985, 0.791926, 0.792007, 0.794389, 0.793743, 0.793773, 0.795189, 0.800974, 0.805663, 0.793418, 0.794166, 0.794672, 0.79515, 0.79506, 0.798815, 0.80128, 0.80456, 0.806368, 0.806352, 0.796884, 0.795968, 0.795447, 0.795735, 0.795332, 0.795173, 0.808038, 0.807644, 0.793769, 0.795739, 0.794362, 0.793787, 0.80589, 0.793575, 0.794274, 0.793129, 0.7941, 0.793493, 0.793374, 0.793298, 0.793374, 0.794133, 0.794017, 0.801078, 0.797708, 0.792859, 0.791797, 0.792167, 0.792167, 0.793153, 0.791594, 0.78942, 0.79064, 0.815931, 0.788513, 0.786329, 0.790613, 0.790726, 0.790311, 0.791233, 0.799551, 0.815914, 0.806456, 0.807398, 0.809254, 0.789278, 0.789609, 0.806164, 0.80595, 0.801689, 0.802311, 0.812195, 0.813322, 0.963095, 0.962008, 0.9758, 1.00533, 0.980074, 0.977307, 0.978469, 0.979944, 0.974292, 0.985885, 0.81447, 0.814012, 0.833752, 0.799732, 0.790374, 0.786747, 0.802263, 0.78646, 0.790113, 0.787011, 0.786959, 0.786637, 0.785443, 0.785148, 0.804074, 0.80412, 0.811592, 0.787469, 0.787696, 0.786928, 0.787199, 0.786953, 0.786809, 0.787257, 0.786501, 0.786658, 0.787063, 0.787118, 0.79594, 0.787908, 0.786582, 0.786657, 0.786929, 0.810516, 0.785416, 0.784959, 0.78468, 0.81064, 0.809942, 0.783214, 0.793866, 0.810721, 0.814819, 0.783045, 0.814484, 0.783546, 0.782814, 0.803396, 0.784667, 0.794016
0.813063, 0.81409, 0.815279, 0.818882, 0.818088, 0.810753, 0.818119, 0.808635, 0.809307, 0.8147, 0.814498, 0.813611, 0.814813, 0.809281, 0.810104, 0.816389, 0.810309, 0.807567, 0.805802, 0.813096, 0.813478, 0.813939, 0.816989, 0.817905, 0.816224, 0.815546, 0.811938, 0.815043, 0.805894, 0.811215, 0.808361, 0.821663, 0.809445, 0.827666, 0.817265, 0.813148, 0.810954, 0.807522, 0.808639, 0.809333, 0.808305, 0.822108, 0.81535, 0.81578, 0.813296, 0.818027, 0.82159, 0.822372, 0.816424, 0.815288, 0.8149, 0.815033, 0.816942, 0.815737, 0.815738, 0.818631, 0.813962, 0.813712, 0.812592, 0.818649, 0.819694, 0.827115, 0.826907, 0.824257, 0.823342, 0.834394, 0.811428, 0.809957, 0.811943, 0.811701, 0.809935, 0.808698, 0.805232, 0.805871, 0.805321, 0.804543, 0.801547, 0.813659, 0.802278, 0.80687, 0.801368, 0.80047, 0.797102, 0.796161, 0.783891, 0.783261, 0.77487, 0.792371, 0.777791, 0.760568, 0.760605, 0.7694, 0.767913, 0.766975, 0.746282, 0.780076, 0.791933, 0.791525, 0.789618, 0.80399, 0.789709, 0.816116, 0.822167, 0.873549, 0.873573, 0.842206, 0.843662, 0.860164, 1.24134, 1.23068, 1.23102, 1.24293, 1.23241, 1.05735, 0.94573, 0.954766, 0.943148, 0.935442, 0.933797, 0.861599, 0.860266, 0.823799, 0.831814, 0.816571, 0.807888, 0.799483, 0.802075, 0.801739, 0.801522, 0.787627, 0.788677, 0.791873, 0.792522, 0.807768, 0.808305, 0.80928, 0.806477, 0.802968, 0.828302, 0.804803, 0.802073, 0.803079, 0.801599, 0.801473, 0.817878, 0.800809, 0.801507, 0.801515, 0.800864, 0.822172, 0.803809, 0.804805, 0.801111, 0.800009, 0.808441, 0.807903, 0.811774, 0.801106, 0.79974, 0.804525, 0.802017, 0.797744, 0.796845, 0.796927, 0.798057, 0.798188, 0.811737, 0.810876, 0.794516, 0.796446, 0.79592, 0.80147, 0.802008, 0.795688, 0.794617, 0.796095, 0.794673, 0.794974, 0.7949, 0.794722, 0.794477, 0.795227, 0.79587, 0.825556, 0.795212, 0.795772, 0.809852, 0.805271, 0.804676, 0.796628, 0.796424, 0.810113, 0.812173, 0.804275, 0.803981, 0.792701, 0.794122, 0.795084, 0.796984, 0.814964, 0.7946, 0.794507, 0.794176, 0.793084, 0.793619, 0.793304, 0.793937, 0.794, 0.793322, 0.793931, 0.794739, 0.792125, 0.790394, 0.791156, 0.791251, 0.791618, 0.792998, 0.792117, 0.795656, 0.795172, 0.793243, 0.790227, 0.792258, 0.788207, 0.78893, 0.805366, 0.79493, 0.824629, 0.802487, 0.822346, 0.822996, 0.792103, 0.791084, 0.812237, 0.790702, 0.791045, 0.791442, 0.792036, 0.798592, 0.797544, 0.821139, 0.818901, 0.797169, 0.809238, 0.966723, 0.974415, 0.991076, 0.967197, 0.969261, 0.987322, 0.805727, 0.805852, 0.832553, 0.834232, 0.79727, 0.795109, 0.815034, 0.788065, 0.787334, 0.787658, 0.785438, 0.78584, 0.787799, 0.786866, 0.786777, 0.787307, 0.786746, 0.785951, 0.802737, 0.78792, 0.787126, 0.787037, 0.787154, 0.786754, 0.786839, 0.815609, 0.786553, 0.842223, 0.78795, 0.789689, 0.808822, 0.808446, 0.807671, 0.797655, 0.795465, 0.78635, 0.788102, 0.798374, 0.786424, 0.786523, 0.786134, 0.785351, 0.784878, 0.809232, 0.794151, 0.784357, 0.784298, 0.795364, 0.784755, 0.832952, 0.784977, 0.785037
0.811909, 0.813558, 0.813592, 0.820625, 0.809699, 0.809579, 0.811352, 0.815067, 0.805852, 0.80962, 0.811259, 0.81287, 0.814631, 0.810862, 0.81244, 0.813941, 0.812277, 0.810359, 0.809132, 0.815138, 0.808276, 0.807816, 0.808265, 0.809443, 0.810746, 0.811054, 0.813306, 0.822772, 0.813678, 0.814848, 0.819313, 0.809365, 0.809388, 0.81831, 0.811693, 0.811149, 0.809156, 0.811334, 0.826321, 0.817691, 0.81756, 0.82204, 0.815886, 0.818592, 0.821046, 0.813735, 0.815623, 0.820931, 0.818639, 0.821616, 0.818838, 0.819036, 0.833073, 0.824775, 0.823816, 0.824835, 0.81536, 0.815939, 0.818778, 0.822133, 0.816721, 0.825036, 0.819174, 0.825764, 0.823187, 0.813081, 0.811602, 0.809524, 0.808217, 0.822994, 0.8131, 0.812568, 0.806703, 0.807064, 0.806817, 0.804592, 0.803791, 0.805059, 0.802553, 0.800731, 0.809327, 0.810041, 0.794734, 0.811882, 0.787088, 0.770159, 0.778003, 0.76268, 0.784324, 0.783836, 0.753856, 0.761753, 0.753278, 0.748891, 0.749111, 0.783023, 0.770227, 0.806179, 0.784302, 0.792273, 0.785348, 0.798748, 0.827291, 0.827004, 0.847651, 0.848013, 0.860006, 1.21861, 1.19842, 1.19854, 1.1888, 1.19166, 1.19173, 1.19228, 0.946584, 0.949183, 0.952957, 0.953907, 0.859918, 0.854488, 0.853474, 0.832914, 0.832917, 0.829455, 0.811357, 0.801804, 0.785464, 0.783786, 0.786914, 0.787329, 0.787872, 0.788196, 0.801413, 0.804618, 0.807073, 0.808166, 0.806752, 0.80585, 0.804671, 0.812428, 0.805059, 0.807622, 0.80338, 0.802241, 0.802084, 0.800847, 0.801843, 0.812573, 0.802979, 0.801482, 0.809713, 0.800856, 0.800893, 0.800896, 0.811001, 0.811138, 0.805993, 0.806027, 0.80529, 0.802434, 0.812819, 0.799598, 0.798858, 0.798161, 0.797954, 0.798353, 0.81194, 0.805849, 0.805324, 0.829571, 0.795567, 0.796104, 0.796986, 0.79833, 0.800523, 0.797361, 0.796328, 0.796762, 0.796632, 0.796642, 0.797558, 0.796789, 0.805421, 0.795346, 0.795812, 0.815055, 0.800853, 0.816006, 0.796148, 0.804978, 0.797228, 0.796345, 0.796248, 0.797307, 0.79785, 0.798233, 0.793956, 0.794096, 0.810824, 0.806129, 0.794346, 0.79288, 0.792366, 0.794836, 0.794735, 0.794836, 0.795157, 0.797116, 0.794786, 0.795216, 0.80097, 0.800145, 0.792886, 0.79384, 0.797163, 0.78876, 0.791451, 0.792967, 0.79115, 0.791343, 0.795014, 0.790332, 0.791546, 0.7931, 0.793313, 0.791091, 0.798771, 0.79179, 0.792478, 0.811347, 0.811959, 0.791064, 0.814551, 0.810966, 0.808182, 0.791136, 0.790803, 0.801337, 0.81649, 0.789242, 0.789054, 0.798144, 0.789829, 0.790303, 0.808135, 0.792058, 0.787821, 0.789948, 0.791631, 0.819222, 0.837992, 0.832839, 0.800729, 0.793106, 0.788856, 0.788347, 0.800881, 0.788614, 0.787168, 0.786297, 0.786596, 0.786957, 0.793688, 0.7922, 0.795914, 0.797029, 0.787188, 0.791182, 0.788194, 0.787771, 0.788024, 0.787512, 0.791141, 0.812457, 0.787844, 0.789261, 0.788764, 0.788438, 0.788716, 0.79109, 0.817467, 0.816676, 0.816419, 0.788081, 0.788187, 0.788977, 0.789202, 0.790409, 0.819064, 0.798687, 0.798597, 0.806338, 0.793196, 0.785848, 0.792041, 0.792836, 0.78521, 0.785811, 0.786388, 0.785983, 0.786386, 0.786288
0.812461, 0.813443, 0.821952, 0.818455, 0.81049, 0.810322, 0.810655, 0.811051, 0.809271, 0.820289, 0.820886, 0.821275, 0.809456, 0.808726, 0.814183, 0.823654, 0.811864, 0.821769, 0.810715, 0.809908, 0.810473, 0.812251, 0.810976, 0.809361, 0.811942, 0.808012, 0.818353, 0.818193, 0.815893, 0.819177, 0.820377, 0.815479, 0.814697, 0.812375, 0.815743, 0.815499, 0.824562, 0.832675, 0.819558, 0.818509, 0.816614, 0.82325, 0.814702, 0.813829, 0.81195, 0.818128, 0.815121, 0.818876, 0.815187, 0.832215, 0.817962, 0.824131, 0.827774, 0.827091, 0.818956, 0.818801, 0.818727, 0.821856, 0.818417, 0.816488, 0.828431, 0.830237, 0.812666, 0.813157, 0.812488, 0.812229, 0.811092, 0.81794, 0.832447, 0.811751, 0.812541, 0.813636, 0.810116, 0.808115, 0.807188, 0.805392, 0.804191, 0.802149, 0.801647, 0.802566, 0.806137, 0.807872, 0.7992, 0.799289, 0.789292, 0.774854, 0.763397, 0.762248, 0.763428, 0.757192, 0.746784, 0.756791, 0.758262, 0.758727, 0.778074, 0.777748, 0.798107, 0.758209, 0.75786, 0.775197, 0.788232, 0.788636, 0.788561, 0.801776, 0.846068, 0.845593, 1.22868, 1.19803, 1.19459, 1.19377, 1.19172, 1.19218, 1.19451, 1.19538, 0.983797, 0.951101, 0.956432, 0.928322, 0.842857, 0.84264, 0.823657, 0.833363, 0.822393, 0.823444, 0.818883, 0.7918, 0.791619, 0.79078, 0.792302, 0.77809, 0.799842, 0.801157, 0.801956, 0.809293, 0.803523, 0.80172, 0.801415, 0.799798, 0.810815, 0.805412, 0.805558, 0.807657, 0.800532, 0.800153, 0.799689, 0.801905, 0.80832, 0.808959, 0.807826, 0.807058, 0.808205, 0.80188, 0.80112, 0.799866, 0.812908, 0.809983, 0.811358, 0.812622, 0.81502, 0.81561, 0.814708, 0.799469, 0.82176, 0.800853, 0.800418, 0.819637, 0.803834, 0.801627, 0.818025, 0.798661, 0.79869, 0.796774, 0.798683, 0.800762, 0.81249, 0.797048, 0.796835, 0.796682, 0.799385, 0.79838, 0.796489, 0.797145, 0.794578, 0.797223, 0.797624, 0.796577, 0.796723, 0.796807, 0.803238, 0.80293, 0.803112, 0.798599, 0.800888, 0.804393, 0.803501, 0.803405, 0.803384, 0.794552, 0.791402, 0.797827, 0.797461, 0.796032, 0.795652, 0.79438, 0.810699, 0.811053, 0.795449, 0.797922, 0.811956, 0.793725, 0.801735, 0.800289, 0.793804, 0.793722, 0.791994, 0.798039, 0.795521, 0.802404, 0.789598, 0.788003, 0.791244, 0.791808, 0.786982, 0.786855, 0.787127, 0.786385, 0.793639, 0.793633, 0.792973, 0.794089, 0.794665, 0.794783, 0.794064, 0.816372, 0.803781, 0.80389, 0.790955, 0.811739, 0.791304, 0.820015, 0.792413, 0.804232, 0.793452, 0.790926, 0.792016, 0.805576, 0.792021, 0.790383, 0.790422, 0.830392, 0.789547, 0.789811, 0.789134, 0.792926, 0.797071, 0.794544, 0.798888, 0.788298, 0.788696, 0.788965, 0.791256, 0.792337, 0.790403, 0.788647, 0.787786, 0.790801, 0.814472, 0.788944, 0.788819, 0.78928, 0.788547, 0.788836, 0.788672, 0.788979, 0.814662, 0.789391, 0.789454, 0.790232, 0.78941, 0.789331, 0.788273, 0.789623, 0.789441, 0.790151, 0.788559, 0.812158, 0.790958, 0.788335, 0.794824, 0.821548, 0.809978, 0.82013, 0.78918, 0.785709, 0.786359, 0.787305, 0.786757, 0.786007, 0.786264, 0.797631, 0.785592, 0.786775
0.825995, 0.812218, 0.817191, 0.818404, 0.817303, 0.815917, 0.813666, 0.810474, 0.813607, 0.811778, 0.812452, 0.813609, 0.818662, 0.810607, 0.811074, 0.808988, 0.809083, 0.809744, 0.810617, 0.810396, 0.81047, 0.811368, 0.78774, 0.787224, 0.813378, 0.81356, 0.812175, 0.818582, 0.811653, 0.813014, 0.811295, 0.809606, 0.810699, 0.812752, 0.814879, 0.819234, 0.833543, 0.829581, 0.827826, 0.826091, 0.8268, 0.816367, 0.818784, 0.818542, 0.822135, 0.822263, 0.819141, 0.817496, 0.821249, 0.829654, 0.818945, 0.819976, 0.819541, 0.832577, 0.829479, 0.82592, 0.825682, 0.825751, 0.824406, 0.819706, 0.819437, 0.825544, 0.818384, 0.825872, 0.818469, 0.813006, 0.811519, 0.811826, 0.811364, 0.812433, 0.810868, 0.808343, 0.803689, 0.80717, 0.806988, 0.806865, 0.805127, 0.800883, 0.80885, 0.80906, 0.804925, 0.805003, 0.794899, 0.794488, 0.793421, 0.774169, 0.767601, 0.772684, 0.75655, 0.772924, 0.762232, 0.753787, 0.763006, 0.757482, 0.758246, 0.747426, 0.777929, 0.784885, 0.770789, 0.762939, 0.791555, 0.775443, 0.790206, 0.804416, 0.793534, 0.84364, 0.849254, 1.22327, 1.19249, 1.18553, 1.18308, 1.17644, 1.17851, 1.02459, 1.02483, 0.989484, 0.943152, 0.863571, 0.870659, 0.836102, 0.852789, 0.854278, 0.835692, 0.801396, 0.802735, 0.803621, 0.804971, 0.796108, 0.78718, 0.780763, 0.780929, 0.793818, 0.794338, 0.80152, 0.792772, 0.804225, 0.803802, 0.804538, 0.805344, 0.801827, 0.80733, 0.807631, 0.808716, 0.801396, 0.800502, 0.803719, 0.810617, 0.807034, 0.806885, 0.807514, 0.806339, 0.822602, 0.811319, 0.805839, 0.803505, 0.803252, 0.803166, 0.805353, 0.803645, 0.801745, 0.801554, 0.802405, 0.807882, 0.801085, 0.800777, 0.80233, 0.80196, 0.801315, 0.801378, 0.814606, 0.808972, 0.800627, 0.798776, 0.798889, 0.796109, 0.798655, 0.798503, 0.79745, 0.798, 0.797222, 0.79715, 0.798341, 0.800031, 0.798257, 0.798311, 0.814403, 0.814474, 0.813539, 0.797915, 0.818061, 0.800925, 0.797298, 0.796001, 0.795833, 0.80794, 0.804278, 0.804951, 0.79503, 0.794063, 0.794745, 0.807514, 0.796221, 0.79421, 0.797638, 0.805013, 0.80515, 0.803515, 0.797024, 0.793572, 0.800772, 0.79491, 0.789373, 0.789213, 0.788009, 0.788458, 0.788044, 0.787536, 0.789956, 0.788986, 0.800994, 0.800969, 0.790474, 0.789871, 0.790894, 0.788446, 0.793801, 0.794255, 0.791972, 0.79389, 0.79145, 0.790462, 0.790746, 0.791954, 0.791838, 0.817159, 0.808386, 0.807247, 0.805887, 0.792603, 0.818682, 0.806433, 0.82264, 0.804201, 0.791557, 0.793693, 0.790909, 0.788987, 0.790966, 0.79115, 0.791472, 0.791718, 0.790328, 0.790933, 0.791195, 0.791273, 0.79114, 0.79359, 0.78923, 0.78988, 0.790415, 0.789834, 0.797799, 0.786758, 0.789518, 0.789089, 0.828836, 0.787763, 0.805558, 0.791163, 0.791112, 0.791342, 0.790534, 0.790583, 0.813405, 0.819682, 0.819406, 0.789913, 0.789836, 0.79, 0.790095, 0.789917, 0.790125, 0.790136, 0.788348, 0.788401, 0.78903, 0.788872, 0.788753, 0.789514, 0.790253, 0.804972, 0.80387, 0.812356, 0.811947, 0.810061, 0.805803, 0.801228, 0.8019, 0.791637, 0.791898, 0.786994, 0.787262
0.814232, 0.814659, 0.815163, 0.81643, 0.814437, 0.812767, 0.812455, 0.812396, 0.819591, 0.818133, 0.820919, 0.8118, 0.811264, 0.812973, 0.81183, 0.814525, 0.8145, 0.815686, 0.808049, 0.825283, 0.81864, 0.812562, 0.793463, 0.816543, 0.805796, 0.826344, 0.809095, 0.808531, 0.814281, 0.814593, 0.809201, 0.825341, 0.81854, 0.817438, 0.816075, 0.826086, 0.822208, 0.826604, 0.828759, 0.828958, 0.835258, 0.820899, 0.823273, 0.816258, 0.822905, 0.82345, 0.817324, 0.81982, 0.8218, 0.822472, 0.818141, 0.818344, 0.818382, 0.818944, 0.820983, 0.821775, 0.82043, 0.839709, 0.826007, 0.819594, 0.819225, 0.819888, 0.81921, 0.822493, 0.822221, 0.814895, 0.815203, 0.815107, 0.824282, 0.815626, 0.815859, 0.810415, 0.808915, 0.808126, 0.801233, 0.805148, 0.806604, 0.803065, 0.812324, 0.800763, 0.799411, 0.805098, 0.800447, 0.793046, 0.783091, 0.783981, 0.777472, 0.777098, 0.758062, 0.758169, 0.763239, 0.76494, 0.76355, 0.76209, 0.762255, 0.764091, 0.753709, 0.758202, 0.764561, 0.76603, 0.767704, 0.76774, 0.792851, 0.79006, 0.788816, 0.78911, 0.852054, 1.29177, 1.20577, 1.20487, 1.20293, 1.23077, 1.23023, 1.06128, 1.06409, 0.920418, 0.922891, 0.842251, 0.824582, 0.824289, 0.81933, 0.806268, 0.807256, 0.83247, 0.821669, 0.798764, 0.804178, 0.786646, 0.807933, 0.799537, 0.79885, 0.793447, 0.793565, 0.80754, 0.807253, 0.806091, 0.800663, 0.794753, 0.796564, 0.7968, 0.804056, 0.803416, 0.804255, 0.809211, 0.808823, 0.804639, 0.802937, 0.809125, 0.805525, 0.804098, 0.808197, 0.808079, 0.802377, 0.80337, 0.805662, 0.804021, 0.81457, 0.804848, 0.804952, 0.803962, 0.803816, 0.802801, 0.827367, 0.806914, 0.828656, 0.812222, 0.811375, 0.811194, 0.825618, 0.802184, 0.801079, 0.800468, 0.799119, 0.800339, 0.798996, 0.797942, 0.796421, 0.798084, 0.797496, 0.797681, 0.797629, 0.800683, 0.801806, 0.79728, 0.794783, 0.795187, 0.79516, 0.796111, 0.795467, 0.794133, 0.793448, 0.801794, 0.800418, 0.799624, 0.798726, 0.80272, 0.801642, 0.801077, 0.793749, 0.795035, 0.798166, 0.797896, 0.795594, 0.795681, 0.796842, 0.794932, 0.803652, 0.79331, 0.795588, 0.791365, 0.792495, 0.792716, 0.788853, 0.78964, 0.792015, 0.79238, 0.781527, 0.785075, 0.790825, 0.790498, 0.790189, 0.79948, 0.797324, 0.79653, 0.797862, 0.794555, 0.791888, 0.794942, 0.795516, 0.79683, 0.791868, 0.792454, 0.793112, 0.793509, 0.794338, 0.794833, 0.793914, 0.792649, 0.814249, 0.832255, 0.813853, 0.79176, 0.793002, 0.792988, 0.792388, 0.793088, 0.790993, 0.79143, 0.791791, 0.819549, 0.791742, 0.812244, 0.812091, 0.812065, 0.792377, 0.792509, 0.793221, 0.798126, 0.799032, 0.814571, 0.790788, 0.798382, 0.789761, 0.790286, 0.790625, 0.792379, 0.8162, 0.816834, 0.78987, 0.788051, 0.788543, 0.811114, 0.793504, 0.791727, 0.79022, 0.798095, 0.80586, 0.791, 0.791128, 0.789986, 0.790069, 0.788446, 0.787592, 0.825471, 0.820505, 0.789806, 0.790668, 0.790197, 0.790625, 0.795384, 0.790912, 0.79007, 0.789699, 0.801328, 0.790612, 0.790174, 0.789184, 0.800514, 0.788641, 0.79304, 0.801714, 0.788087
0.816328, 0.816141, 0.816275, 0.815802, 0.816425, 0.842172, 0.829249, 0.82899, 0.817933, 0.815232, 0.822563, 0.81821, 0.812707, 0.811855, 0.814624, 0.821188, 0.809892, 0.809205, 0.816163, 0.815832, 0.81883, 0.801859, 0.818938, 0.81826, 0.809152, 0.810975, 0.815518, 0.81603, 0.809021, 0.819742, 0.818942, 0.81881, 0.827085, 0.828159, 0.824615, 0.822695, 0.822151, 0.825326, 0.832657, 0.829413, 0.829564, 0.828322, 0.823468, 0.820108, 0.829022, 0.817772, 0.828963, 0.821058, 0.824897, 0.825243, 0.832042, 0.823496, 0.824876, 0.820289, 0.817837, 0.826503, 0.825486, 0.825416, 0.826673, 0.824993, 0.818455, 0.817581, 0.818021, 0.817009, 0.820851, 0.820716, 0.820005, 0.832398, 0.832081, 0.810639, 0.818558, 0.815245, 0.802287, 0.80761, 0.808575, 0.800448, 0.801876, 0.802799, 0.80238, 0.808694, 0.799594, 0.797191, 0.798074, 0.794341, 0.780248, 0.781043, 0.781402, 0.784074, 0.774337, 0.756122, 0.757463, 0.769233, 0.770457, 0.772499, 0.781695, 0.760567, 0.760383, 0.766257, 0.76497, 0.76461, 0.779257, 0.774972, 0.773978, 0.773245, 0.812737, 0.812357, 0.849423, 0.830336, 1.29083, 1.29935, 1.30876, 1.30593, 1.24359, 1.11316, 1.08521, 1.07788, 0.860339, 0.860476, 0.861044, 0.819228, 0.825014, 0.818801, 0.820605, 0.820025, 0.818839, 0.805145, 0.80473, 0.804609, 0.797591, 0.801234, 0.788127, 0.790255, 0.790027, 0.80662, 0.807046, 0.806635, 0.80649, 0.806209, 0.805607, 0.811559, 0.811254, 0.808492, 0.804881, 0.805152, 0.8045, 0.804466, 0.805125, 0.804274, 0.80662, 0.80897, 0.807305, 0.805998, 0.808069, 0.806758, 0.805586, 0.822476, 0.821399, 0.812168, 0.805503, 0.804363, 0.80421, 0.814883, 0.815039, 0.816304, 0.815329, 0.814876, 0.806303, 0.80365, 0.808546, 0.829284, 0.808352, 0.799235, 0.799614, 0.804818, 0.800663, 0.799051, 0.798518, 0.798, 0.797011, 0.795677, 0.79395, 0.796435, 0.801163, 0.803516, 0.797722, 0.798278, 0.797554, 0.804643, 0.800773, 0.797186, 0.798514, 0.796199, 0.794898, 0.796033, 0.796096, 0.79533, 0.79453, 0.802796, 0.794037, 0.797584, 0.797945, 0.796972, 0.797547, 0.796905, 0.829351, 0.795705, 0.792993, 0.794097, 0.793067, 0.798049, 0.790644, 0.798405, 0.787621, 0.788331, 0.793287, 0.784717, 0.781001, 0.788171, 0.794981, 0.795506, 0.794783, 0.797338, 0.791351, 0.793224, 0.79485, 0.79302, 0.792647, 0.793287, 0.793383, 0.813582, 0.805649, 0.795642, 0.812895, 0.812446, 0.811853, 0.793245, 0.794078, 0.79512, 0.829327, 0.793977, 0.794505, 0.795082, 0.794229, 0.793737, 0.79371, 0.794429, 0.797454, 0.834916, 0.793671, 0.794499, 0.792771, 0.828775, 0.793223, 0.794535, 0.79414, 0.793447, 0.793323, 0.793094, 0.792514, 0.791308, 0.81292, 0.803835, 0.804415, 0.791948, 0.791332, 0.792373, 0.787395, 0.788989, 0.789301, 0.788778, 0.788958, 0.828876, 0.790688, 0.790292, 0.790047, 0.790343, 0.790295, 0.790777, 0.79104, 0.791181, 0.790056, 0.789493, 0.789791, 0.801954, 0.793613, 0.801731, 0.790258, 0.794615, 0.789468, 0.792653, 0.821862, 0.792817, 0.792386, 0.793434, 0.791032, 0.790744, 0.79747, 0.789725, 0.790308, 0.791055, 0.788693, 0.790359
0.816057, 0.817517, 0.816016, 0.816418, 0.816244, 0.81632, 0.816181, 0.8172, 0.817247, 0.813108, 0.812201, 0.813519, 0.814565, 0.816622, 0.811375, 0.812221, 0.809814, 0.81084, 0.810918, 0.811796, 0.817581, 0.813351, 0.81127, 0.810784, 0.816552, 0.815258, 0.815146, 0.825864, 0.817417, 0.817164, 0.81831, 0.819679, 0.821597, 0.822604, 0.82767, 0.821553, 0.830364, 0.832682, 0.843983, 0.845774, 0.848637, 0.848842, 0.823873, 0.822237, 0.833411, 0.818067, 0.829813, 0.817577, 0.817016, 0.825311, 0.827235, 0.815388, 0.821119, 0.822297, 0.825653, 0.82001, 0.815364, 0.814245, 0.815354, 0.815713, 0.815, 0.828225, 0.828538, 0.818115, 0.818923, 0.815781, 0.814754, 0.812645, 0.81333, 0.812577, 0.810867, 0.815903, 0.809653, 0.807863, 0.80951, 0.815333, 0.80446, 0.795185, 0.800846, 0.814756, 0.801458, 0.80064, 0.80036, 0.798061, 0.796087, 0.780941, 0.766971, 0.753823, 0.75104, 0.75078, 0.75142, 0.769831, 0.770063, 0.791939, 0.771704, 0.779552, 0.760329, 0.778504, 0.80262, 0.802172, 0.7748, 0.776559, 0.781364, 0.769783, 0.780213, 0.790245, 0.836131, 0.837126, 0.837182, 1.31905, 1.31855, 1.31999, 1.31947, 1.21619, 1.22551, 1.08162, 0.869089, 0.867825, 0.849331, 0.84953, 0.817279, 0.816261, 0.804773, 0.804176, 0.809477, 0.788161, 0.781361, 0.782865, 0.810216, 0.811868, 0.787246, 0.808282, 0.790376, 0.80848, 0.807288, 0.809337, 0.808647, 0.80751, 0.811336, 0.808438, 0.807593, 0.807833, 0.809091, 0.805836, 0.812065, 0.811707, 0.806285, 0.806721, 0.811799, 0.818178, 0.815135, 0.80856, 0.810357, 0.809102, 0.807742, 0.806574, 0.806944, 0.808149, 0.814728, 0.806279, 0.819444, 0.807606, 0.807244, 0.826765, 0.807031, 0.807006, 0.805174, 0.805198, 0.80423, 0.804987, 0.804954, 0.80272, 0.804114, 0.8007, 0.800027, 0.801599, 0.802065, 0.804588, 0.813926, 0.813476, 0.811914, 0.806315, 0.795067, 0.797138, 0.798216, 0.798298, 0.796896, 0.79801, 0.799619, 0.799453, 0.800042, 0.796283, 0.796963, 0.81859, 0.796587, 0.798154, 0.797166, 0.796054, 0.801957, 0.799711, 0.807857, 0.796831, 0.797646, 0.796849, 0.805061, 0.793791, 0.794333, 0.806168, 0.791772, 0.792235, 0.790785, 0.787795, 0.794795, 0.78195, 0.784763, 0.791547, 0.787964, 0.791342, 0.805888, 0.798403, 0.802625, 0.797315, 0.795419, 0.794316, 0.794046, 0.794949, 0.796133, 0.79952, 0.797445, 0.796262, 0.796413, 0.795856, 0.79509, 0.831705, 0.795779, 0.7949, 0.795354, 0.812202, 0.795096, 0.795644, 0.796557, 0.795888, 0.795889, 0.797003, 0.796026, 0.794351, 0.793082, 0.797262, 0.822054, 0.795676, 0.795565, 0.794918, 0.794672, 0.796012, 0.796812, 0.794836, 0.793846, 0.794095, 0.793615, 0.792151, 0.792919, 0.792974, 0.805943, 0.808931, 0.792351, 0.807563, 0.791379, 0.790889, 0.788139, 0.786691, 0.797951, 0.79108, 0.791358, 0.789373, 0.790301, 0.791805, 0.792082, 0.792808, 0.792284, 0.793703, 0.792105, 0.792379, 0.794535, 0.797104, 0.795946, 0.805104, 0.791317, 0.790862, 0.798308, 0.79377, 0.79416, 0.793355, 0.792698, 0.79279, 0.794598, 0.794231, 0.791836, 0.790939, 0.790761, 0.789585, 0.829724, 0.789086
0.821781, 0.816024, 0.829891, 0.816773, 0.81613, 0.825521, 0.816255, 0.815999, 0.817601, 0.815475, 0.815316, 0.815603, 0.837574, 0.818444, 0.820854, 0.815584, 0.815334, 0.810212, 0.811634, 0.811975, 0.811412, 0.810896, 0.816628, 0.813005, 0.81259, 0.816844, 0.815625, 0.822549, 0.821306, 0.821934, 0.829073, 0.824501, 0.831474, 0.817709, 0.843668, 0.842918, 0.836233, 0.845947, 0.833281, 0.841122, 0.844904, 0.81968, 0.832649, 0.825923, 0.819628, 0.818773, 0.817085, 0.817287, 0.822928, 0.816752, 0.822865, 0.814433, 0.825575, 0.817113, 0.818762, 0.81172, 0.820684, 0.822896, 0.823569, 0.818341, 0.81457, 0.815546, 0.81538, 0.814996, 0.821084, 0.821662, 0.815603, 0.821783, 0.819514, 0.818477, 0.817521, 0.81452, 0.799224, 0.799862, 0.801175, 0.802912, 0.80273, 0.802298, 0.805662, 0.801428, 0.807918, 0.803977, 0.804069, 0.797067, 0.796273, 0.770052, 0.778678, 0.767356, 0.74803, 0.761121, 0.760706, 0.791784, 0.773306, 0.776797, 0.769917, 0.764303, 0.760037, 0.771143, 0.801378, 0.812903, 0.791302, 0.774605, 0.772572, 0.790702, 0.790161, 0.797048, 0.804805, 0.819215, 0.857999, 1.29342, 1.34684, 1.35184, 1.35084, 1.24669, 1.24647, 1.1161, 0.866143, 0.862325, 0.84628, 0.832511, 0.831498, 0.846008, 0.826105, 0.825959, 0.789447, 0.789619, 0.787427, 0.787349, 0.780868, 0.787001, 0.787724, 0.804438, 0.804483, 0.807114, 0.815872, 0.806419, 0.814441, 0.808969, 0.808967, 0.807698, 0.807859, 0.809208, 0.814349, 0.809244, 0.80872, 0.809924, 0.815355, 0.815589, 0.807799, 0.811101, 0.808485, 0.80739, 0.80871, 0.820601, 0.820141, 0.808866, 0.822362, 0.812987, 0.813686, 0.807837, 0.816573, 0.817789, 0.814823, 0.823985, 0.825243, 0.819779, 0.808054, 0.807183, 0.807721, 0.809214, 0.815375, 0.805846, 0.804164, 0.802401, 0.811831, 0.801477, 0.801661, 0.798521, 0.797074, 0.795495, 0.800649, 0.800224, 0.804884, 0.801726, 0.803408, 0.803245, 0.801523, 0.802031, 0.807652, 0.8157, 0.800781, 0.79967, 0.835786, 0.800029, 0.811645, 0.798965, 0.799047, 0.819861, 0.808438, 0.798035, 0.820623, 0.797476, 0.795908, 0.796776, 0.800302, 0.796174, 0.7975, 0.800302, 0.784031, 0.809536, 0.791995, 0.788652, 0.78471, 0.787656, 0.782024, 0.781667, 0.7888, 0.788645, 0.797513, 0.800237, 0.80049, 0.798719, 0.797728, 0.796742, 0.796821, 0.796611, 0.797572, 0.79789, 0.798138, 0.797458, 0.797241, 0.796048, 0.797003, 0.796282, 0.79668, 0.796636, 0.796654, 0.796354, 0.814191, 0.797932, 0.798366, 0.796494, 0.796652, 0.796516, 0.796906, 0.835194, 0.794173, 0.796585, 0.798353, 0.797237, 0.796191, 0.802028, 0.798673, 0.794085, 0.796842, 0.796151, 0.794923, 0.79496, 0.794275, 0.793734, 0.792795, 0.793385, 0.793218, 0.791062, 0.79169, 0.805262, 0.804622, 0.805621, 0.79058, 0.790764, 0.790556, 0.798456, 0.790596, 0.791151, 0.790859, 0.790393, 0.79088, 0.794898, 0.793335, 0.793912, 0.793352, 0.792597, 0.800576, 0.800958, 0.793603, 0.79414, 0.792446, 0.790376, 0.794603, 0.791678, 0.793078, 0.792669, 0.798359, 0.791356, 0.79769, 0.798026, 0.802691, 0.791353, 0.79205, 0.792356, 0.790688, 0.790967
0.815407, 0.816999, 0.818025, 0.821946, 0.816558, 0.821774, 0.842878, 0.816107, 0.815602, 0.818756, 0.818788, 0.85252, 0.833907, 0.832649, 0.828067, 0.831784, 0.821424, 0.822488, 0.811355, 0.810042, 0.811433, 0.811291, 0.811368, 0.814797, 0.814112, 0.812819, 0.81607, 0.815086, 0.814572, 0.823343, 0.822592, 0.829926, 0.828959, 0.823096, 0.821833, 0.824796, 0.845614, 0.852231, 0.851375, 0.850086, 0.83248, 0.832937, 0.836119, 0.815115, 0.814582, 0.818661, 0.817595, 0.815026, 0.816115, 0.832589, 0.820176, 0.819886, 0.8155, 0.813189, 0.811322, 0.816153, 0.818999, 0.81047, 0.822791, 0.811527, 0.820433, 0.815718, 0.814587, 0.812832, 0.821023, 0.81696, 0.80871, 0.809521, 0.810601, 0.818949, 0.815928, 0.806484, 0.802371, 0.807485, 0.804653, 0.803456, 0.803102, 0.804488, 0.802118, 0.80276, 0.811907, 0.812677, 0.803253, 0.801718, 0.795405, 0.77783, 0.771536, 0.7598, 0.749052, 0.748842, 0.748345, 0.745882, 0.742854, 0.74206, 0.73319, 0.73493, 0.743947, 0.76599, 0.797974, 0.787714, 0.775839, 0.777701, 0.792269, 0.79251, 0.801597, 0.808251, 0.808253, 0.826405, 0.82691, 1.31543, 1.33984, 1.35347, 1.35361, 1.23776, 1.23094, 0.873635, 0.868, 0.883803, 0.841044, 0.880434, 0.874632, 0.829848, 0.829067, 0.797844, 0.778513, 0.779919, 0.786684, 0.78645, 0.78481, 0.786949, 0.79867, 0.800224, 0.80142, 0.802836, 0.804534, 0.80849, 0.808858, 0.815094, 0.81028, 0.816031, 0.818555, 0.808361, 0.808471, 0.809118, 0.809682, 0.810781, 0.811503, 0.805343, 0.805012, 0.82524, 0.810828, 0.822578, 0.812209, 0.81226, 0.811822, 0.811061, 0.810923, 0.832834, 0.810878, 0.811316, 0.809998, 0.832897, 0.809732, 0.810449, 0.810583, 0.821635, 0.815943, 0.811058, 0.809627, 0.810671, 0.8099, 0.809032, 0.805111, 0.806488, 0.8043, 0.801556, 0.800644, 0.797636, 0.811249, 0.80525, 0.833219, 0.838548, 0.805276, 0.83923, 0.821504, 0.804246, 0.804742, 0.804928, 0.823101, 0.804329, 0.803636, 0.811285, 0.802052, 0.805303, 0.812322, 0.818736, 0.836988, 0.813282, 0.80038, 0.801663, 0.804711, 0.815253, 0.802648, 0.79955, 0.801031, 0.801239, 0.801245, 0.804162, 0.798515, 0.788563, 0.786319, 0.789037, 0.795312, 0.790492, 0.788173, 0.794717, 0.79451, 0.804839, 0.792226, 0.803575, 0.795334, 0.79597, 0.796957, 0.800724, 0.798491, 0.798147, 0.799173, 0.813438, 0.82407, 0.82287, 0.816571, 0.81704, 0.818633, 0.803618, 0.797439, 0.797064, 0.797365, 0.798438, 0.797777, 0.797815, 0.79753, 0.797466, 0.822744, 0.797248, 0.829237, 0.816621, 0.796776, 0.796703, 0.796696, 0.797204, 0.797077, 0.797896, 0.797895, 0.79803, 0.808571, 0.797253, 0.811649, 0.812262, 0.817993, 0.797054, 0.794433, 0.794049, 0.794137, 0.8113, 0.803076, 0.800887, 0.809336, 0.798863, 0.791901, 0.792455, 0.792117, 0.794259, 0.791902, 0.792747, 0.79849, 0.792127, 0.791417, 0.792105, 0.791576, 0.793537, 0.802302, 0.801069, 0.791951, 0.792358, 0.792314, 0.793088, 0.795111, 0.788397, 0.788346, 0.794753, 0.793881, 0.79188, 0.79342, 0.793878, 0.791766, 0.793216, 0.792761, 0.792199, 0.791305, 0.791083, 0.810574, 0.810418
0.815604, 0.816119, 0.816738, 0.815585, 0.818255, 0.818098, 0.817636, 0.816862, 0.818752, 0.821591, 0.819915, 0.848451, 0.831816, 0.831632, 0.825312, 0.825339, 0.832472, 0.815724, 0.818441, 0.818482, 0.817458, 0.815231, 0.812581, 0.811252, 0.818774, 0.812, 0.821522, 0.815087, 0.813459, 0.813183, 0.820162, 0.823637, 0.828352, 0.822574, 0.850273, 0.839928, 0.842546, 0.842696, 0.826248, 0.832921, 0.847127, 0.846649, 0.819619, 0.81658, 0.815405, 0.81596, 0.820285, 0.821539, 0.821332, 0.818034, 0.820375, 0.824736, 0.812689, 0.812411, 0.815009, 0.814564, 0.814222, 0.815062, 0.813902, 0.811958, 0.824524, 0.813703, 0.81341, 0.813072, 0.813907, 0.815132, 0.813524, 0.811476, 0.811447, 0.814449, 0.814202, 0.808281, 0.805486, 0.81837, 0.810473, 0.807995, 0.807055, 0.804874, 0.806129, 0.806527, 0.808559, 0.801201, 0.804396, 0.803038, 0.782771, 0.781703, 0.772633, 0.737074, 0.734179, 0.759118, 0.74247, 0.757338, 0.740233, 0.732559, 0.733112, 0.729649, 0.748981, 0.744347, 0.775626, 0.777422, 0.778179, 0.78963, 0.8222, 0.822266, 0.836273, 0.808546, 0.80778, 0.818396, 0.837038, 1.32248, 1.33152, 1.23933, 1.23942, 1.23274, 0.939224, 0.939129, 0.901299, 0.873943, 0.873411, 0.874754, 0.8435, 0.82451, 0.796871, 0.798541, 0.808398, 0.784145, 0.773744, 0.780148, 0.778363, 0.780292, 0.78055, 0.781565, 0.799679, 0.806217, 0.808869, 0.812154, 0.8115, 0.811022, 0.811506, 0.810422, 0.807953, 0.80938, 0.808755, 0.812725, 0.810986, 0.808474, 0.811497, 0.811961, 0.816151, 0.815796, 0.811013, 0.808708, 0.814824, 0.812341, 0.812383, 0.812821, 0.812251, 0.8095, 0.81726, 0.818123, 0.818033, 0.820803, 0.817729, 0.829534, 0.810765, 0.819296, 0.81062, 0.810076, 0.809956, 0.813018, 0.805147, 0.810982, 0.805367, 0.806434, 0.804393, 0.803494, 0.804997, 0.804588, 0.812524, 0.807085, 0.807286, 0.807238, 0.808357, 0.805427, 0.806855, 0.804749, 0.821902, 0.806331, 0.806556, 0.821517, 0.803223, 0.804509, 0.804857, 0.801699, 0.802928, 0.802685, 0.807985, 0.809245, 0.837048, 0.815606, 0.815466, 0.807474, 0.801354, 0.79889, 0.801108, 0.808369, 0.808827, 0.794675, 0.796433, 0.794913, 0.795228, 0.795137, 0.791502, 0.79759, 0.792015, 0.794777, 0.794067, 0.807808, 0.805516, 0.799812, 0.798923, 0.79869, 0.80414, 0.802741, 0.79437, 0.797544, 0.794427, 0.80124, 0.804042, 0.811629, 0.80071, 0.79857, 0.823095, 0.808836, 0.805731, 0.797524, 0.797827, 0.799804, 0.798012, 0.798361, 0.798992, 0.800245, 0.799181, 0.799048, 0.798114, 0.798733, 0.798866, 0.798139, 0.798043, 0.798481, 0.799232, 0.798661, 0.812629, 0.811265, 0.798674, 0.799012, 0.797462, 0.795944, 0.796709, 0.796733, 0.795989, 0.796358, 0.795805, 0.796232, 0.80832, 0.794376, 0.821467, 0.815325, 0.813671, 0.800454, 0.801375, 0.801772, 0.801736, 0.792849, 0.794763, 0.798201, 0.796459, 0.793106, 0.7941, 0.796165, 0.805222, 0.794281, 0.792949, 0.793526, 0.793954, 0.79413, 0.800517, 0.791574, 0.80153, 0.801657, 0.795975, 0.79875, 0.797336, 0.792302, 0.79144, 0.790832, 0.790637, 0.790968, 0.80099, 0.800271, 0.794378, 0.792855
0.816169, 0.83931, 0.816348, 0.817473, 0.811885, 0.818958, 0.819709, 0.818497, 0.818956, 0.819045, 0.846232, 0.828053, 0.828491, 0.840503, 0.841283, 0.837753, 0.8144, 0.814275, 0.814016, 0.818594, 0.815376, 0.816981, 0.817914, 0.818956, 0.824398, 0.8292, 0.816094, 0.822425, 0.822338, 0.823135, 0.81841, 0.818018, 0.819504, 0.818342, 0.830957, 0.82688, 0.825091, 0.819617, 0.820524, 0.818439, 0.818879, 0.819414, 0.816196, 0.816608, 0.833294, 0.813456, 0.812909, 0.819316, 0.819801, 0.82257, 0.822709, 0.825405, 0.818707, 0.833749, 0.819809, 0.816998, 0.812293, 0.812658, 0.829343, 0.821462, 0.821171, 0.816009, 0.828419, 0.827585, 0.818041, 0.818948, 0.811929, 0.812117, 0.818882, 0.816801, 0.818074, 0.810883, 0.813806, 0.809399, 0.805044, 0.812558, 0.812802, 0.807379, 0.804106, 0.805337, 0.805792, 0.802612, 0.802654, 0.801564, 0.783745, 0.788094, 0.77578, 0.776626, 0.777663, 0.757518, 0.75661, 0.752667, 0.750783, 0.739725, 0.733202, 0.744235, 0.743769, 0.774587, 0.77563, 0.78306, 0.783632, 0.782792, 0.783803, 0.784888, 0.832331, 0.833312, 0.834549, 0.878377, 0.897139, 1.26248, 1.34376, 1.35101, 1.28872, 1.26144, 1.26455, 0.954604, 0.911226, 0.89663, 0.895795, 0.839735, 0.801905, 0.819339, 0.797311, 0.786019, 0.784943, 0.776716, 0.775013, 0.774802, 0.774425, 0.777017, 0.787936, 0.790286, 0.790588, 0.79841, 0.80681, 0.815382, 0.814848, 0.809888, 0.817901, 0.811277, 0.819503, 0.81554, 0.81482, 0.81665, 0.812968, 0.817055, 0.81414, 0.812769, 0.840077, 0.812111, 0.817593, 0.810424, 0.808447, 0.821347, 0.815022, 0.814346, 0.814586, 0.810355, 0.811565, 0.810934, 0.810336, 0.811184, 0.811721, 0.815027, 0.810988, 0.812755, 0.813329, 0.812259, 0.812343, 0.813841, 0.814778, 0.810341, 0.810709, 0.806283, 0.80825, 0.808056, 0.811378, 0.808236, 0.806271, 0.806938, 0.80472, 0.804915, 0.815075, 0.808913, 0.806506, 0.807721, 0.806771, 0.807365, 0.807735, 0.805914, 0.805815, 0.805149, 0.804551, 0.805465, 0.804518, 0.804898, 0.819272, 0.802023, 0.801282, 0.817516, 0.81518, 0.801372, 0.800008, 0.801747, 0.811172, 0.795203, 0.795985, 0.797578, 0.798354, 0.795499, 0.795238, 0.80413, 0.796651, 0.797599, 0.801163, 0.799019, 0.802688, 0.799942, 0.799599, 0.805696, 0.802057, 0.800518, 0.810051, 0.798827, 0.798726, 0.796627, 0.795189, 0.792917, 0.797982, 0.798595, 0.819265, 0.800605, 0.800415, 0.800522, 0.818522, 0.798936, 0.799959, 0.83542, 0.835951, 0.799054, 0.829701, 0.799607, 0.799232, 0.800672, 0.800752, 0.799534, 0.799677, 0.799166, 0.799092, 0.802429, 0.800864, 0.808049, 0.800198, 0.799144, 0.799066, 0.799421, 0.824595, 0.797299, 0.798369, 0.798504, 0.797783, 0.796969, 0.796036, 0.79526, 0.822546, 0.82717, 0.822156, 0.820544, 0.79411, 0.794937, 0.79461, 0.794745, 0.795798, 0.796784, 0.794131, 0.803028, 0.832923, 0.794137, 0.794819, 0.800137, 0.792832, 0.792887, 0.794358, 0.794506, 0.792151, 0.790405, 0.798461, 0.79535, 0.793804, 0.798348, 0.798593, 0.793586, 0.792643, 0.792796, 0.79213, 0.791665, 0.793379, 0.794734, 0.799014, 0.793432, 0.794016, 0.794783
0.815762, 0.815579, 0.816212, 0.818626, 0.825052, 0.8199, 0.820264, 0.819696, 0.820272, 0.820736, 0.870783, 0.82982, 0.866028, 0.831957, 0.845365, 0.829045, 0.822197, 0.826176, 0.825444, 0.81755, 0.818825, 0.813813, 0.825902, 0.825311, 0.82605, 0.828963, 0.829566, 0.821843, 0.816715, 0.818282, 0.818667, 0.821485, 0.819199, 0.819079, 0.819314, 0.8194, 0.819268, 0.819278, 0.822497, 0.818354, 0.82163, 0.821342, 0.816496, 0.815175, 0.818295, 0.821595, 0.819426, 0.818901, 0.810967, 0.81029, 0.811491, 0.815088, 0.815198, 0.814774, 0.813371, 0.813913, 0.813275, 0.812416, 0.831646, 0.81397, 0.815214, 0.816992, 0.816112, 0.814867, 0.815189, 0.814884, 0.815, 0.818243, 0.817905, 0.812692, 0.812836, 0.814121, 0.816514, 0.815167, 0.814249, 0.810133, 0.813107, 0.806897, 0.805103, 0.81115, 0.809592, 0.805395, 0.803329, 0.801807, 0.794387, 0.796857, 0.791991, 0.783491, 0.756491, 0.766988, 0.743822, 0.746039, 0.732263, 0.746378, 0.745457, 0.74691, 0.747318, 0.757451, 0.765913, 0.764543, 0.779689, 0.792136, 0.793368, 0.799501, 0.80036, 0.843501, 0.910253, 0.912822, 0.917667, 1.26885, 1.26891, 1.33281, 1.26176, 1.2883, 1.0128, 0.938386, 0.933519, 0.83529, 0.834817, 0.820133, 0.825512, 0.781838, 0.782617, 0.784216, 0.780856, 0.788918, 0.784689, 0.773166, 0.775097, 0.776042, 0.787037, 0.795179, 0.81047, 0.816325, 0.815702, 0.816646, 0.81135, 0.812947, 0.813463, 0.813892, 0.811594, 0.825013, 0.832426, 0.822512, 0.818469, 0.812154, 0.812333, 0.81323, 0.811543, 0.811592, 0.81171, 0.812574, 0.813829, 0.814986, 0.814115, 0.822312, 0.813898, 0.812314, 0.811806, 0.810569, 0.811494, 0.81279, 0.812021, 0.811421, 0.812832, 0.81259, 0.811873, 0.812, 0.81032, 0.809205, 0.808436, 0.809303, 0.811893, 0.80899, 0.815571, 0.8114, 0.807913, 0.807961, 0.807579, 0.808057, 0.808309, 0.807824, 0.818707, 0.808507, 0.81189, 0.808863, 0.80937, 0.807237, 0.805037, 0.806976, 0.80653, 0.806241, 0.806792, 0.822794, 0.804908, 0.80448, 0.826685, 0.807203, 0.804306, 0.804068, 0.803657, 0.801048, 0.801327, 0.800687, 0.804818, 0.79715, 0.797102, 0.797162, 0.797478, 0.796439, 0.797372, 0.798103, 0.814428, 0.803547, 0.809104, 0.809631, 0.801482, 0.801326, 0.803408, 0.800922, 0.803084, 0.802683, 0.80258, 0.805294, 0.80051, 0.801938, 0.795879, 0.797824, 0.804142, 0.800189, 0.800583, 0.800716, 0.828592, 0.81253, 0.801001, 0.84035, 0.801184, 0.800812, 0.800748, 0.800669, 0.800789, 0.802155, 0.801991, 0.801217, 0.826093, 0.800344, 0.800097, 0.799976, 0.79951, 0.800139, 0.799708, 0.807791, 0.802863, 0.804135, 0.804765, 0.808377, 0.798717, 0.797826, 0.798271, 0.816082, 0.798265, 0.798619, 0.79705, 0.797354, 0.796845, 0.827099, 0.819644, 0.796971, 0.797054, 0.797661, 0.796948, 0.796838, 0.828921, 0.794974, 0.798625, 0.797375, 0.795939, 0.794216, 0.811646, 0.796533, 0.801451, 0.816384, 0.797032, 0.795974, 0.79504, 0.796956, 0.792797, 0.791856, 0.800439, 0.796677, 0.796095, 0.79603, 0.792731, 0.794233, 0.805717, 0.793721, 0.796082, 0.801017, 0.801211, 0.800896, 0.798183, 0.793957
