1.64444, 1.6271, 1.62254, 1.61911, 1.61376, 1.60576, 1.60741, 1.61789, 1.61195, 1.57823, 1.61824, 1.62517, 1.63204, 1.69208, 1.69485, 1.65905, 1.54229, 1.56677, 1.56604, 1.55731, 1.56101, 1.55889, 1.54944, 1.54692, 1.53684, 1.52599, 1.52343, 1.51983, 1.51582, 1.51289, 1.51569, 1.50337, 1.4987, 1.49462, 1.49224, 1.48844, 1.4859, 1.47851, 1.47397, 1.48494, 1.46746, 1.46671, 1.47151, 1.47862, 1.47579, 1.56045, 1.65471, 1.75625, 1.75534, 1.53451, 1.43916, 1.43998, 1.4307, 1.42977, 1.43373, 1.41783, 1.41662, 1.41055, 1.40691, 1.40406, 1.39952, 1.3956, 1.39195, 1.38603, 1.38551, 1.3843, 1.37851, 1.37558, 1.37929, 1.36988, 1.3706, 1.36573, 1.3619, 1.36155, 1.35712, 1.35089, 1.34821, 1.34666, 1.34132, 1.34084, 1.33358, 1.33252, 1.33196, 1.33181, 1.3437, 1.34356, 1.35504, 1.35725, 1.36378, 1.36829, 1.39326, 1.36409, 1.34, 1.33283, 1.3235, 1.31705, 1.29867, 1.29115, 1.29297, 1.29127, 1.29058, 1.2954, 
1.65414, 1.63416, 1.62502, 1.62183, 1.61913, 1.61234, 1.60775, 1.60811, 1.61001, 1.59903, 1.62904, 1.6486, 1.66582, 1.67916, 1.68585, 1.63894, 1.54747, 1.56589, 1.55987, 1.55526, 1.54907, 1.57758, 1.55058, 1.53223, 1.53048, 1.53004, 1.52328, 1.5221, 1.51698, 1.51887, 1.50706, 1.50265, 1.5004, 1.49689, 1.49156, 1.48915, 1.48725, 1.48324, 1.47761, 1.47095, 1.4718, 1.46817, 1.46594, 1.48255, 1.45492, 1.49183, 1.68969, 1.73892, 1.72386, 1.45181, 1.44693, 1.4403, 1.42933, 1.43629, 1.42075, 1.41708, 1.41352, 1.40644, 1.40199, 1.40131, 1.40092, 1.39772, 1.39213, 1.38803, 1.38744, 1.38387, 1.38132, 1.37491, 1.37446, 1.36913, 1.36627, 1.36391, 1.36689, 1.36085, 1.35761, 1.351, 1.35298, 1.34842, 1.34709, 1.35082, 1.34012, 1.33759, 1.33515, 1.33515, 1.34368, 1.3499, 1.341, 1.36812, 1.36133, 1.42193, 1.37331, 1.38861, 1.34431, 1.31705, 1.31182, 1.30496, 1.30214, 1.29458, 1.28863, 1.28731, 1.28969, 1.29129, 
1.68385, 1.65791, 1.62467, 1.62264, 1.61839, 1.61215, 1.6177, 1.61022, 1.62778, 1.59914, 1.62251, 1.64763, 1.67099, 1.6964, 1.69922, 1.68049, 1.55433, 1.57234, 1.56821, 1.55259, 1.5508, 1.56609, 1.56178, 1.5361, 1.53217, 1.52801, 1.52793, 1.51991, 1.51712, 1.51266, 1.50989, 1.50634, 1.5026, 1.49818, 1.49497, 1.48897, 1.48785, 1.48302, 1.49758, 1.47782, 1.46836, 1.46697, 1.46373, 1.47734, 1.43277, 1.52802, 1.60223, 1.73546, 1.65092, 1.44968, 1.43124, 1.43639, 1.43279, 1.42625, 1.42332, 1.4152, 1.41382, 1.40894, 1.4127, 1.40149, 1.39852, 1.39776, 1.39252, 1.3902, 1.38779, 1.38503, 1.38321, 1.38044, 1.37246, 1.37063, 1.36788, 1.36562, 1.36739, 1.36184, 1.35977, 1.35743, 1.35216, 1.35158, 1.35135, 1.35448, 1.34578, 1.34046, 1.34656, 1.34098, 1.34437, 1.34363, 1.36114, 1.37447, 1.39018, 1.39933, 1.37086, 1.36068, 1.34361, 1.34418, 1.32521, 1.30637, 1.2984, 1.29448, 1.28942, 1.29259, 1.29179, 1.29047, 
1.69368, 1.67117, 1.64163, 1.63157, 1.62027, 1.6272, 1.61326, 1.61131, 1.61979, 1.59441, 1.63762, 1.67386, 1.68518, 1.69903, 1.71329, 1.64964, 1.56155, 1.5753, 1.57256, 1.56035, 1.56186, 1.56394, 1.56812, 1.55134, 1.53336, 1.54155, 1.52766, 1.52427, 1.52115, 1.51899, 1.51042, 1.50695, 1.50582, 1.50065, 1.49882, 1.49587, 1.49175, 1.4883, 1.47861, 1.47333, 1.47824, 1.47308, 1.46826, 1.48075, 1.44054, 1.50001, 1.66125, 1.75189, 1.71979, 1.51413, 1.45709, 1.44751, 1.43165, 1.42878, 1.42752, 1.4173, 1.41605, 1.41053, 1.40509, 1.40403, 1.40203, 1.40155, 1.39966, 1.39185, 1.39234, 1.38846, 1.38782, 1.38184, 1.37765, 1.37459, 1.36995, 1.36749, 1.36377, 1.3633, 1.35974, 1.35683, 1.35625, 1.35539, 1.35746, 1.35299, 1.35202, 1.34744, 1.34361, 1.34339, 1.34645, 1.35126, 1.36536, 1.36662, 1.39173, 1.37183, 1.37771, 1.37178, 1.33914, 1.3258, 1.31645, 1.31032, 1.30078, 1.29471, 1.2935, 1.29183, 1.29555, 1.29799, 
1.68883, 1.67934, 1.64859, 1.63391, 1.64012, 1.62052, 1.6274, 1.61809, 1.61746, 1.61007, 1.68197, 1.64686, 1.66964, 1.72032, 1.72024, 1.61401, 1.56699, 1.57854, 1.56674, 1.57173, 1.55608, 1.55825, 1.57453, 1.55802, 1.54519, 1.53386, 1.53135, 1.52811, 1.57908, 1.51933, 1.51327, 1.51095, 1.5075, 1.50339, 1.49996, 1.49768, 1.49564, 1.4896, 1.49725, 1.4795, 1.47478, 1.47467, 1.47317, 1.47747, 1.47085, 1.54421, 1.62152, 1.71891, 1.73016, 1.54379, 1.41207, 1.45347, 1.44827, 1.43346, 1.43808, 1.42209, 1.42015, 1.41453, 1.41219, 1.40919, 1.40773, 1.40549, 1.40245, 1.39656, 1.393, 1.3903, 1.38897, 1.38508, 1.38238, 1.38002, 1.37427, 1.36881, 1.36623, 1.36416, 1.3648, 1.35935, 1.36305, 1.35953, 1.35996, 1.35717, 1.35449, 1.34887, 1.35303, 1.34978, 1.36206, 1.35069, 1.34905, 1.38335, 1.36871, 1.38209, 1.39172, 1.36719, 1.30919, 1.33036, 1.3312, 1.30853, 1.3032, 1.3018, 1.29775, 1.30034, 1.2962, 1.29983, 
1.68192, 1.67154, 1.66218, 1.63211, 1.62638, 1.61988, 1.61964, 1.62737, 1.63313, 1.60088, 1.64802, 1.65494, 1.68913, 1.70359, 1.74514, 1.69416, 1.57678, 1.57589, 1.58593, 1.56389, 1.55869, 1.56531, 1.54971, 1.55362, 1.54704, 1.54458, 1.52993, 1.52949, 1.52014, 1.51685, 1.5145, 1.51073, 1.50835, 1.50571, 1.50247, 1.50132, 1.49517, 1.49056, 1.49568, 1.48282, 1.47903, 1.47971, 1.47794, 1.47865, 1.45456, 1.51398, 1.64547, 1.74899, 1.63396, 1.55238, 1.46742, 1.46035, 1.46456, 1.44057, 1.43196, 1.42911, 1.42613, 1.41947, 1.42036, 1.41137, 1.40999, 1.40784, 1.40392, 1.39973, 1.39745, 1.39836, 1.392, 1.38872, 1.38654, 1.38306, 1.37757, 1.37471, 1.36845, 1.36541, 1.36426, 1.36391, 1.36137, 1.36436, 1.3623, 1.37916, 1.36194, 1.36053, 1.35021, 1.35012, 1.35151, 1.35609, 1.3525, 1.37191, 1.3612, 1.36708, 1.38189, 1.38893, 1.3576, 1.32449, 1.31863, 1.31561, 1.31342, 1.30332, 1.31266, 1.3026, 1.30222, 1.29961, 
1.67278, 1.67632, 1.68721, 1.63125, 1.64104, 1.62443, 1.62066, 1.62602, 1.6346, 1.62436, 1.65376, 1.6501, 1.68619, 1.70086, 1.71009, 1.64655, 1.569, 1.58018, 1.57877, 1.56605, 1.56942, 1.5618, 1.56691, 1.57071, 1.54767, 1.54216, 1.53989, 1.53073, 1.52706, 1.52265, 1.51958, 1.51654, 1.51114, 1.5113, 1.50336, 1.50122, 1.49891, 1.49307, 1.49195, 1.48857, 1.4854, 1.48548, 1.48249, 1.47938, 1.46278, 1.53886, 1.61563, 1.74081, 1.73364, 1.60117, 1.44077, 1.45964, 1.46411, 1.44983, 1.43942, 1.43263, 1.42812, 1.42486, 1.42321, 1.41974, 1.4126, 1.41111, 1.41227, 1.4026, 1.40038, 1.39817, 1.39969, 1.39308, 1.39118, 1.38826, 1.38065, 1.37648, 1.37376, 1.36816, 1.36487, 1.36272, 1.36499, 1.36618, 1.37119, 1.36788, 1.36297, 1.35945, 1.35444, 1.35672, 1.35568, 1.36565, 1.35251, 1.36749, 1.39042, 1.41602, 1.41907, 1.37469, 1.35423, 1.3327, 1.3329, 1.31874, 1.31161, 1.30927, 1.30674, 1.31172, 1.30836, 1.29997, 
1.66737, 1.67514, 1.63763, 1.64496, 1.63275, 1.63012, 1.62738, 1.63537, 1.62493, 1.62689, 1.64176, 1.68691, 1.67913, 1.71996, 1.69934, 1.66734, 1.56145, 1.59802, 1.58683, 1.5665, 1.56196, 1.56066, 1.56908, 1.57182, 1.5527, 1.55448, 1.53851, 1.53435, 1.54109, 1.53375, 1.52277, 1.52018, 1.51577, 1.51205, 1.51731, 1.5121, 1.5018, 1.49765, 1.49719, 1.49552, 1.49615, 1.48739, 1.48534, 1.49567, 1.46048, 1.55213, 1.61854, 1.76301, 1.74206, 1.6097, 1.46521, 1.47158, 1.45355, 1.45064, 1.45468, 1.4375, 1.43032, 1.45671, 1.45029, 1.42439, 1.41923, 1.4165, 1.4119, 1.41304, 1.40521, 1.40195, 1.40034, 1.3978, 1.39532, 1.39265, 1.38777, 1.38171, 1.37884, 1.3703, 1.36737, 1.36339, 1.36588, 1.36563, 1.36793, 1.3641, 1.36372, 1.3622, 1.35688, 1.35608, 1.35682, 1.36062, 1.3774, 1.38587, 1.37876, 1.41594, 1.39683, 1.4219, 1.36525, 1.34426, 1.33925, 1.33282, 1.33262, 1.33327, 1.32828, 1.31534, 1.31561, 1.31369, 
1.64862, 1.6655, 1.67644, 1.65147, 1.63681, 1.63146, 1.63077, 1.62398, 1.63074, 1.61382, 1.6848, 1.6512, 1.69561, 1.71792, 1.74794, 1.7, 1.58923, 1.58394, 1.57872, 1.58942, 1.56509, 1.55951, 1.56387, 1.57393, 1.55811, 1.54201, 1.54039, 1.54128, 1.532, 1.52811, 1.52516, 1.52276, 1.51924, 1.51238, 1.51098, 1.50598, 1.50498, 1.50045, 1.49991, 1.4982, 1.49174, 1.48779, 1.48238, 1.49278, 1.47227, 1.49852, 1.6348, 1.7503, 1.73671, 1.55015, 1.46107, 1.46245, 1.46435, 1.45058, 1.44794, 1.4379, 1.43606, 1.42687, 1.4291, 1.42335, 1.42066, 1.41583, 1.41411, 1.40877, 1.40711, 1.40547, 1.40379, 1.40321, 1.39881, 1.39477, 1.38725, 1.38286, 1.38203, 1.3721, 1.36757, 1.36975, 1.36506, 1.36423, 1.36355, 1.35859, 1.35884, 1.35773, 1.36711, 1.35566, 1.3573, 1.37124, 1.3531, 1.37743, 1.3845, 1.3954, 1.41361, 1.4481, 1.37179, 1.34144, 1.33325, 1.32979, 1.32067, 1.31915, 1.31599, 1.31226, 1.31358, 1.31578, 
1.65491, 1.67904, 1.64669, 1.64422, 1.64443, 1.63158, 1.62781, 1.6267, 1.62863, 1.61731, 1.63855, 1.68229, 1.68288, 1.77452, 1.74837, 1.65897, 1.58957, 1.58884, 1.58874, 1.57591, 1.56857, 1.56166, 1.5592, 1.56907, 1.57616, 1.56083, 1.55541, 1.54617, 1.54809, 1.5329, 1.52986, 1.5254, 1.5207, 1.51687, 1.51325, 1.50917, 1.50653, 1.50703, 1.5035, 1.49937, 1.49884, 1.51205, 1.50638, 1.49937, 1.49561, 1.52265, 1.67252, 1.71578, 1.72991, 1.57961, 1.48182, 1.46772, 1.46424, 1.45045, 1.44354, 1.44052, 1.43916, 1.43188, 1.42802, 1.42687, 1.42316, 1.42107, 1.41843, 1.41306, 1.41265, 1.40741, 1.4089, 1.40502, 1.40447, 1.39827, 1.39332, 1.3862, 1.37974, 1.37571, 1.3727, 1.37086, 1.37038, 1.36513, 1.36163, 1.35986, 1.36013, 1.35908, 1.3675, 1.35644, 1.35874, 1.36392, 1.38536, 1.41877, 1.3975, 1.40247, 1.40438, 1.4277, 1.36517, 1.33513, 1.34373, 1.33143, 1.32449, 1.32038, 1.31551, 1.31656, 1.31404, 1.31382, 
1.65171, 1.65731, 1.64685, 1.64789, 1.64883, 1.63534, 1.6305, 1.62943, 1.62993, 1.60427, 1.64194, 1.66448, 1.67583, 1.75517, 1.74977, 1.71614, 1.57971, 1.59381, 1.58954, 1.57707, 1.57056, 1.56501, 1.56388, 1.56758, 1.56834, 1.55236, 1.5518, 1.54741, 1.54286, 1.53488, 1.53096, 1.52759, 1.52308, 1.51619, 1.51281, 1.5097, 1.50625, 1.50449, 1.5008, 1.5023, 1.50267, 1.49268, 1.4898, 1.49162, 1.46392, 1.48837, 1.65942, 1.73597, 1.71679, 1.62813, 1.43781, 1.46137, 1.46554, 1.4722, 1.44628, 1.43963, 1.43585, 1.43334, 1.43092, 1.42989, 1.426, 1.42351, 1.42147, 1.41463, 1.41017, 1.40951, 1.40884, 1.40802, 1.4061, 1.40422, 1.40036, 1.39502, 1.38168, 1.38015, 1.3772, 1.37376, 1.37121, 1.36898, 1.36712, 1.36535, 1.36392, 1.36188, 1.35809, 1.35476, 1.3667, 1.36358, 1.37027, 1.38563, 1.39658, 1.40489, 1.40779, 1.4093, 1.37234, 1.32948, 1.34388, 1.33829, 1.32638, 1.33119, 1.3183, 1.31311, 1.31192, 1.31546, 
1.66484, 1.65853, 1.66554, 1.66725, 1.65601, 1.64771, 1.63487, 1.64036, 1.63748, 1.61216, 1.62455, 1.67984, 1.70402, 1.74915, 1.76916, 1.69372, 1.61111, 1.59495, 1.59023, 1.57794, 1.57107, 1.56375, 1.55912, 1.56446, 1.56946, 1.55407, 1.55163, 1.55703, 1.54141, 1.53745, 1.53395, 1.52963, 1.52729, 1.5193, 1.51528, 1.50909, 1.50728, 1.50319, 1.50238, 1.49988, 1.49647, 1.50311, 1.48997, 1.49697, 1.47732, 1.55615, 1.6208, 1.69977, 1.63511, 1.49921, 1.42955, 1.45945, 1.45568, 1.44923, 1.44638, 1.44818, 1.43569, 1.43697, 1.43236, 1.43332, 1.42686, 1.43006, 1.42202, 1.41889, 1.40899, 1.40684, 1.40618, 1.40942, 1.40611, 1.40672, 1.40315, 1.39715, 1.39134, 1.38821, 1.38514, 1.37795, 1.37472, 1.37191, 1.3693, 1.37015, 1.3758, 1.36272, 1.35738, 1.35737, 1.36329, 1.36176, 1.37143, 1.37098, 1.38098, 1.40034, 1.41635, 1.41929, 1.38224, 1.33259, 1.35048, 1.334, 1.32981, 1.32744, 1.31666, 1.3125, 1.31223, 1.30845, 
1.66043, 1.65726, 1.65404, 1.66911, 1.66222, 1.64138, 1.63936, 1.63001, 1.63232, 1.6218, 1.65207, 1.67771, 1.73042, 1.7549, 1.73432, 1.69004, 1.63024, 1.59519, 1.5927, 1.57833, 1.57069, 1.56473, 1.57222, 1.55408, 1.57792, 1.58249, 1.55161, 1.55424, 1.54401, 1.53674, 1.53719, 1.52877, 1.52489, 1.5174, 1.51591, 1.51378, 1.50888, 1.50658, 1.50364, 1.49649, 1.49976, 1.49195, 1.48891, 1.50006, 1.46842, 1.53634, 1.61086, 1.71764, 1.67606, 1.45168, 1.43699, 1.45924, 1.46524, 1.4609, 1.44117, 1.44429, 1.43613, 1.43282, 1.43118, 1.42702, 1.42569, 1.42369, 1.42098, 1.41539, 1.40775, 1.40679, 1.40623, 1.40734, 1.40545, 1.40842, 1.40529, 1.39715, 1.39323, 1.39124, 1.38792, 1.37871, 1.37742, 1.37502, 1.37462, 1.37454, 1.37052, 1.36572, 1.36199, 1.35722, 1.35616, 1.36187, 1.36761, 1.36391, 1.39804, 1.42098, 1.42486, 1.41993, 1.40641, 1.33409, 1.34748, 1.3299, 1.32874, 1.32538, 1.31957, 1.31898, 1.31266, 1.31287, 
1.66245, 1.66353, 1.6608, 1.66814, 1.66918, 1.65814, 1.6552, 1.63054, 1.63365, 1.62034, 1.65414, 1.68602, 1.71787, 1.74228, 1.79072, 1.75948, 1.59368, 1.5993, 1.60383, 1.57972, 1.58912, 1.56858, 1.56806, 1.55687, 1.55287, 1.5586, 1.56041, 1.55888, 1.55372, 1.54365, 1.53507, 1.53278, 1.52884, 1.52137, 1.52039, 1.51724, 1.51284, 1.50898, 1.50508, 1.50673, 1.4978, 1.49403, 1.49683, 1.49835, 1.46769, 1.57895, 1.65268, 1.70114, 1.68263, 1.60515, 1.43242, 1.46367, 1.46669, 1.46643, 1.44719, 1.44098, 1.43684, 1.4327, 1.42956, 1.42627, 1.42439, 1.42225, 1.41852, 1.41594, 1.41206, 1.40889, 1.40853, 1.40549, 1.40401, 1.40254, 1.40302, 1.39776, 1.39689, 1.39234, 1.38787, 1.38423, 1.37999, 1.38038, 1.3782, 1.37835, 1.37587, 1.37393, 1.36692, 1.36037, 1.36821, 1.37081, 1.38504, 1.39958, 1.44944, 1.41657, 1.41657, 1.42728, 1.38938, 1.32214, 1.35378, 1.33343, 1.33024, 1.33344, 1.32245, 1.31822, 1.31805, 1.31216, 
1.66764, 1.67733, 1.66229, 1.65928, 1.67291, 1.65513, 1.65769, 1.63486, 1.63058, 1.62427, 1.64422, 1.70351, 1.73416, 1.75106, 1.7612, 1.71446, 1.57624, 1.60037, 1.58981, 1.5897, 1.57725, 1.57145, 1.56784, 1.5728, 1.55388, 1.57675, 1.55357, 1.5584, 1.54514, 1.54166, 1.53878, 1.53581, 1.52982, 1.52608, 1.52257, 1.52057, 1.517, 1.51111, 1.50705, 1.50052, 1.49939, 1.49285, 1.49225, 1.49262, 1.47856, 1.51374, 1.5784, 1.70319, 1.69805, 1.61783, 1.44835, 1.45284, 1.47181, 1.4533, 1.44749, 1.44869, 1.43704, 1.43334, 1.43124, 1.42915, 1.42958, 1.424, 1.42224, 1.41589, 1.41297, 1.41039, 1.40681, 1.40918, 1.40351, 1.40251, 1.40956, 1.39941, 1.39696, 1.39069, 1.38778, 1.38426, 1.38046, 1.38125, 1.38033, 1.38123, 1.37695, 1.37454, 1.37725, 1.36748, 1.36587, 1.37831, 1.36444, 1.3923, 1.39905, 1.40968, 1.43302, 1.42109, 1.421, 1.32367, 1.34764, 1.33589, 1.33139, 1.32684, 1.32543, 1.34686, 1.31879, 1.31427, 
1.66885, 1.66529, 1.65949, 1.66623, 1.66813, 1.67904, 1.65109, 1.63622, 1.64437, 1.62597, 1.64295, 1.71057, 1.71453, 1.75409, 1.74707, 1.69408, 1.58352, 1.59615, 1.59645, 1.58604, 1.57991, 1.57476, 1.59557, 1.56295, 1.55793, 1.5678, 1.55835, 1.55018, 1.54714, 1.5431, 1.53807, 1.53652, 1.53302, 1.527, 1.52491, 1.52306, 1.52047, 1.51387, 1.50723, 1.50409, 1.50021, 1.49527, 1.4943, 1.49957, 1.46771, 1.50586, 1.65667, 1.69418, 1.6933, 1.6237, 1.46134, 1.45607, 1.45901, 1.44615, 1.44351, 1.44292, 1.44076, 1.43592, 1.42857, 1.42944, 1.42785, 1.42602, 1.42219, 1.41644, 1.41537, 1.41311, 1.40865, 1.40668, 1.40624, 1.40519, 1.4029, 1.40205, 1.40161, 1.39188, 1.38779, 1.38588, 1.38186, 1.37997, 1.37915, 1.37612, 1.37528, 1.37483, 1.37307, 1.36926, 1.36647, 1.38099, 1.35376, 1.44123, 1.44767, 1.43994, 1.45313, 1.44789, 1.42671, 1.33748, 1.36069, 1.34823, 1.33642, 1.32655, 1.31999, 1.33981, 1.32222, 1.32084, 
1.66635, 1.66828, 1.65786, 1.65481, 1.66776, 1.66629, 1.65075, 1.64665, 1.63773, 1.6105, 1.62685, 1.69707, 1.76553, 1.72535, 1.78223, 1.68997, 1.63133, 1.59966, 1.5979, 1.59088, 1.58619, 1.58123, 1.57436, 1.56856, 1.56812, 1.57168, 1.57705, 1.55913, 1.55002, 1.54339, 1.53794, 1.53655, 1.53525, 1.53079, 1.52594, 1.52331, 1.51724, 1.51314, 1.51218, 1.50872, 1.50405, 1.49966, 1.49893, 1.4981, 1.48201, 1.54751, 1.63515, 1.70383, 1.69788, 1.6054, 1.43906, 1.45505, 1.46971, 1.45016, 1.44746, 1.45033, 1.44157, 1.43796, 1.43941, 1.43311, 1.43227, 1.42943, 1.42463, 1.42218, 1.41952, 1.41341, 1.4108, 1.41087, 1.40988, 1.40555, 1.40448, 1.40375, 1.39946, 1.39509, 1.39075, 1.38691, 1.38504, 1.38965, 1.37995, 1.3788, 1.37943, 1.3723, 1.37566, 1.37297, 1.37103, 1.39074, 1.35113, 1.40223, 1.42124, 1.44408, 1.48197, 1.45753, 1.43697, 1.33457, 1.35047, 1.34587, 1.3326, 1.32396, 1.32111, 1.31812, 1.32025, 1.31612, 
1.66572, 1.66055, 1.66423, 1.66023, 1.65882, 1.67292, 1.65161, 1.65502, 1.64768, 1.62595, 1.67885, 1.7547, 1.77243, 1.79468, 1.79478, 1.74736, 1.57603, 1.60361, 1.60346, 1.6042, 1.59011, 1.58742, 1.58028, 1.57616, 1.56917, 1.56513, 1.56891, 1.55946, 1.55739, 1.55425, 1.54187, 1.53954, 1.54031, 1.53442, 1.52823, 1.52679, 1.52007, 1.51577, 1.5137, 1.51601, 1.50669, 1.50414, 1.50147, 1.52261, 1.49433, 1.52004, 1.65325, 1.70738, 1.70269, 1.6441, 1.44108, 1.47378, 1.46929, 1.45681, 1.45269, 1.45366, 1.44647, 1.44163, 1.45175, 1.43554, 1.43394, 1.43286, 1.43209, 1.42644, 1.42558, 1.41979, 1.41705, 1.41534, 1.41508, 1.41173, 1.40751, 1.40364, 1.40325, 1.39654, 1.39319, 1.39055, 1.39121, 1.38637, 1.38269, 1.38874, 1.38094, 1.37792, 1.37575, 1.37372, 1.37277, 1.38259, 1.36656, 1.3753, 1.4136, 1.46572, 1.45254, 1.46225, 1.45077, 1.36678, 1.35787, 1.3405, 1.33367, 1.33026, 1.32625, 1.32096, 1.32068, 1.31851, 
1.67158, 1.66598, 1.65932, 1.65825, 1.66889, 1.68266, 1.67912, 1.65551, 1.65738, 1.64432, 1.62734, 1.71885, 1.74762, 1.79942, 1.79297, 1.75334, 1.60708, 1.60577, 1.61071, 1.60201, 1.59718, 1.58622, 1.58184, 1.57667, 1.57229, 1.57496, 1.58859, 1.57386, 1.55768, 1.56436, 1.54187, 1.53883, 1.53649, 1.53039, 1.52864, 1.5243, 1.51936, 1.51578, 1.51031, 1.51074, 1.5066, 1.50488, 1.51204, 1.50496, 1.48995, 1.5105, 1.54351, 1.69092, 1.69386, 1.62202, 1.46214, 1.46481, 1.47651, 1.47402, 1.45844, 1.45412, 1.45063, 1.44727, 1.43886, 1.43747, 1.43679, 1.43409, 1.43301, 1.43006, 1.42624, 1.42292, 1.42009, 1.42708, 1.41468, 1.41241, 1.40987, 1.40581, 1.402, 1.39872, 1.39336, 1.3911, 1.38797, 1.38768, 1.38165, 1.3801, 1.38757, 1.37799, 1.37764, 1.37367, 1.37428, 1.37138, 1.35483, 1.38123, 1.43045, 1.4544, 1.44754, 1.45411, 1.43267, 1.35776, 1.35002, 1.34409, 1.3373, 1.336, 1.33069, 1.32897, 1.32529, 1.32895, 
1.6776, 1.67549, 1.66545, 1.6647, 1.6604, 1.67264, 1.68533, 1.65741, 1.65248, 1.649, 1.65616, 1.69651, 1.77011, 1.79635, 1.7919, 1.73655, 1.57881, 1.60581, 1.60571, 1.6031, 1.58935, 1.58579, 1.58282, 1.57974, 1.57546, 1.57453, 1.58565, 1.57887, 1.56459, 1.55465, 1.54565, 1.54018, 1.53658, 1.53098, 1.53082, 1.52667, 1.52314, 1.51935, 1.51764, 1.51179, 1.50976, 1.50453, 1.50353, 1.50294, 1.46377, 1.52013, 1.62488, 1.69887, 1.71208, 1.6139, 1.45528, 1.48617, 1.48165, 1.47099, 1.46286, 1.4659, 1.45112, 1.44543, 1.44347, 1.43844, 1.43287, 1.4339, 1.43352, 1.4295, 1.42807, 1.42856, 1.42137, 1.41919, 1.4162, 1.41617, 1.41068, 1.40349, 1.40274, 1.39501, 1.39272, 1.38993, 1.38539, 1.38393, 1.38141, 1.37822, 1.37564, 1.37518, 1.37379, 1.37156, 1.37338, 1.37278, 1.38791, 1.40291, 1.42948, 1.48829, 1.46616, 1.47614, 1.44671, 1.35193, 1.3497, 1.35811, 1.35443, 1.3351, 1.33308, 1.32791, 1.32836, 1.324, 
1.67907, 1.67489, 1.67023, 1.68234, 1.66539, 1.67929, 1.69511, 1.67166, 1.65636, 1.63087, 1.65777, 1.6545, 1.78935, 1.65077, 1.77909, 1.72224, 1.63747, 1.6133, 1.61334, 1.6, 1.59533, 1.59196, 1.58817, 1.58237, 1.5755, 1.58247, 1.57496, 1.58219, 1.55768, 1.55808, 1.5588, 1.54538, 1.5387, 1.53515, 1.53348, 1.53128, 1.52501, 1.52158, 1.51994, 1.51246, 1.51158, 1.50703, 1.50361, 1.50451, 1.49428, 1.50308, 1.57469, 1.67157, 1.68115, 1.61548, 1.53329, 1.48869, 1.48186, 1.47241, 1.47875, 1.47538, 1.45546, 1.45686, 1.45044, 1.4401, 1.43804, 1.43515, 1.43405, 1.43129, 1.42914, 1.42666, 1.42376, 1.42255, 1.42095, 1.41603, 1.40931, 1.412, 1.40257, 1.39865, 1.39306, 1.38974, 1.38624, 1.38151, 1.38108, 1.37873, 1.37807, 1.37887, 1.37256, 1.37078, 1.37859, 1.37724, 1.36338, 1.4036, 1.40512, 1.45462, 1.46892, 1.47086, 1.43084, 1.37587, 1.3702, 1.33799, 1.34028, 1.33596, 1.34726, 1.32929, 1.32763, 1.32616, 
1.69637, 1.67553, 1.67255, 1.67131, 1.65996, 1.66752, 1.68286, 1.65122, 1.66201, 1.66194, 1.64421, 1.68388, 1.7548, 1.77649, 1.78514, 1.7309, 1.5961, 1.60948, 1.6245, 1.59342, 1.5864, 1.59683, 1.58295, 1.57768, 1.57501, 1.5765, 1.57205, 1.58268, 1.57554, 1.5628, 1.5677, 1.55439, 1.54092, 1.53678, 1.53354, 1.53174, 1.52688, 1.52299, 1.51907, 1.52631, 1.51333, 1.50899, 1.52031, 1.50456, 1.49638, 1.55433, 1.61713, 1.67269, 1.71023, 1.66859, 1.55115, 1.48619, 1.48822, 1.48211, 1.47414, 1.47419, 1.45623, 1.45207, 1.44793, 1.44367, 1.43973, 1.44013, 1.43699, 1.43379, 1.42987, 1.42865, 1.42708, 1.42373, 1.42119, 1.41913, 1.41432, 1.41019, 1.40562, 1.40228, 1.39563, 1.39257, 1.38808, 1.38357, 1.38779, 1.38145, 1.37565, 1.375, 1.37626, 1.37526, 1.37717, 1.38912, 1.37331, 1.4321, 1.44874, 1.47328, 1.49121, 1.47438, 1.43934, 1.3554, 1.36386, 1.37201, 1.34102, 1.3422, 1.34718, 1.3557, 1.33085, 1.33565, 
1.68206, 1.6765, 1.67463, 1.68006, 1.66444, 1.66744, 1.6846, 1.67939, 1.665, 1.64817, 1.65415, 1.69691, 1.78272, 1.80859, 1.81254, 1.75638, 1.59004, 1.59779, 1.61016, 1.60294, 1.58996, 1.58568, 1.58483, 1.57929, 1.57833, 1.57481, 1.59703, 1.60083, 1.55731, 1.56342, 1.55799, 1.54777, 1.56844, 1.54235, 1.53732, 1.53449, 1.53008, 1.52441, 1.52118, 1.52625, 1.51715, 1.51155, 1.51936, 1.5079, 1.50016, 1.50989, 1.56661, 1.69309, 1.70892, 1.62832, 1.53002, 1.47472, 1.49081, 1.4865, 1.47068, 1.46644, 1.45925, 1.4581, 1.45256, 1.44793, 1.44631, 1.44103, 1.43887, 1.43756, 1.4319, 1.42781, 1.42601, 1.42579, 1.42097, 1.41976, 1.41546, 1.41255, 1.409, 1.40415, 1.40254, 1.39538, 1.39209, 1.38729, 1.38662, 1.38312, 1.37974, 1.37891, 1.37946, 1.38497, 1.39313, 1.38858, 1.39254, 1.42388, 1.45852, 1.48643, 1.48884, 1.46822, 1.40806, 1.37135, 1.35332, 1.35286, 1.34452, 1.33841, 1.33954, 1.33139, 1.34373, 1.33274, 
1.68586, 1.67938, 1.6749, 1.66775, 1.66313, 1.66139, 1.68402, 1.68242, 1.65815, 1.63768, 1.63676, 1.66636, 1.78117, 1.82031, 1.83153, 1.80898, 1.66994, 1.61414, 1.61283, 1.59964, 1.59542, 1.5962, 1.58796, 1.59229, 1.58219, 1.57608, 1.59361, 1.59568, 1.5819, 1.56563, 1.56217, 1.56057, 1.55771, 1.54369, 1.5406, 1.53977, 1.53541, 1.52936, 1.53188, 1.52152, 1.52226, 1.51875, 1.51852, 1.51913, 1.4815, 1.48971, 1.55088, 1.63105, 1.66983, 1.64526, 1.53105, 1.49206, 1.4817, 1.47832, 1.47686, 1.47137, 1.46848, 1.46267, 1.45566, 1.45241, 1.44702, 1.44771, 1.44373, 1.44024, 1.43518, 1.43294, 1.4323, 1.42862, 1.42324, 1.42069, 1.41668, 1.4138, 1.41158, 1.40518, 1.39933, 1.39661, 1.39305, 1.38906, 1.38917, 1.38472, 1.38194, 1.38144, 1.38155, 1.38175, 1.38667, 1.39135, 1.38282, 1.44409, 1.46598, 1.47114, 1.47805, 1.49251, 1.46274, 1.36739, 1.34347, 1.34794, 1.35285, 1.34092, 1.34373, 1.3372, 1.3362, 1.33253, 
1.68442, 1.67758, 1.67349, 1.67564, 1.66569, 1.6631, 1.68559, 1.6895, 1.66959, 1.65506, 1.63087, 1.68846, 1.76916, 1.83547, 1.83614, 1.74217, 1.59682, 1.61639, 1.62703, 1.60613, 1.6064, 1.59497, 1.58902, 1.5895, 1.5828, 1.57879, 1.59338, 1.57881, 1.58647, 1.56839, 1.55504, 1.55733, 1.55027, 1.55058, 1.55734, 1.54464, 1.53789, 1.52822, 1.5298, 1.52329, 1.51965, 1.51718, 1.52749, 1.51811, 1.51276, 1.48624, 1.67022, 1.71975, 1.6947, 1.63197, 1.55591, 1.4695, 1.48623, 1.47658, 1.47547, 1.46811, 1.47459, 1.46455, 1.45939, 1.45533, 1.45344, 1.44815, 1.44705, 1.44304, 1.4381, 1.43368, 1.43216, 1.42795, 1.42492, 1.42272, 1.41963, 1.41679, 1.41274, 1.40948, 1.40405, 1.40059, 1.39744, 1.39469, 1.39248, 1.39171, 1.3881, 1.38581, 1.41635, 1.38545, 1.38661, 1.39095, 1.38952, 1.43282, 1.48864, 1.47578, 1.48312, 1.4812, 1.44483, 1.40962, 1.36748, 1.35268, 1.34146, 1.34363, 1.3539, 1.33865, 1.34322, 1.33701, 
1.68511, 1.67838, 1.67253, 1.66878, 1.66524, 1.66069, 1.65955, 1.67884, 1.68268, 1.65842, 1.62344, 1.7093, 1.8026, 1.79832, 1.807, 1.75577, 1.59922, 1.6132, 1.62015, 1.6024, 1.59941, 1.59359, 1.58914, 1.58597, 1.57936, 1.57835, 1.57699, 1.57373, 1.57569, 1.5817, 1.55713, 1.55265, 1.54932, 1.5462, 1.54381, 1.54, 1.53416, 1.52854, 1.52623, 1.52338, 1.51815, 1.51344, 1.51391, 1.51629, 1.49289, 1.50654, 1.57735, 1.68473, 1.69652, 1.65566, 1.56253, 1.46102, 1.48255, 1.49125, 1.47214, 1.46772, 1.46285, 1.45857, 1.45495, 1.45249, 1.45236, 1.44752, 1.44757, 1.44412, 1.43827, 1.43777, 1.4346, 1.43069, 1.42911, 1.42392, 1.42281, 1.41806, 1.41424, 1.40969, 1.40777, 1.40468, 1.39984, 1.39508, 1.39387, 1.39148, 1.3883, 1.38767, 1.38502, 1.38516, 1.40895, 1.40551, 1.38173, 1.43162, 1.47838, 1.48183, 1.49217, 1.49777, 1.54128, 1.40239, 1.34084, 1.35105, 1.34642, 1.34398, 1.34623, 1.34072, 1.33956, 1.33988, 
1.68156, 1.67905, 1.68099, 1.67333, 1.66816, 1.65598, 1.66145, 1.68326, 1.65868, 1.64923, 1.63041, 1.70676, 1.73051, 1.82721, 1.8367, 1.83884, 1.66501, 1.61684, 1.61642, 1.60011, 1.59764, 1.59331, 1.58819, 1.58399, 1.58269, 1.57868, 1.5869, 1.57159, 1.58069, 1.58004, 1.55431, 1.5531, 1.55212, 1.54687, 1.5411, 1.53598, 1.53031, 1.52707, 1.51988, 1.53379, 1.51292, 1.51337, 1.51662, 1.51291, 1.48185, 1.51733, 1.63263, 1.66291, 1.68703, 1.69689, 1.52067, 1.45543, 1.50277, 1.47775, 1.47013, 1.47036, 1.45532, 1.45625, 1.45131, 1.45002, 1.45117, 1.44365, 1.44266, 1.43803, 1.43469, 1.43522, 1.43478, 1.43071, 1.42647, 1.4269, 1.42643, 1.42325, 1.41999, 1.41268, 1.40913, 1.40705, 1.40368, 1.39799, 1.39372, 1.39141, 1.38886, 1.3879, 1.38629, 1.38519, 1.40599, 1.38499, 1.37159, 1.3842, 1.47417, 1.48012, 1.48845, 1.48859, 1.46129, 1.3624, 1.35419, 1.36735, 1.34815, 1.34994, 1.34581, 1.34388, 1.34029, 1.3403, 
1.68579, 1.67889, 1.67588, 1.66796, 1.663, 1.66586, 1.66744, 1.66557, 1.66893, 1.66771, 1.63095, 1.70972, 1.76588, 1.81438, 1.84066, 1.75584, 1.6924, 1.61676, 1.61456, 1.59801, 1.61391, 1.59659, 1.59358, 1.58214, 1.57723, 1.57648, 1.57585, 1.57432, 1.57207, 1.57619, 1.56733, 1.55686, 1.54558, 1.54741, 1.54481, 1.53375, 1.53056, 1.52894, 1.51808, 1.52012, 1.51152, 1.50655, 1.50609, 1.51739, 1.46798, 1.54543, 1.63591, 1.68563, 1.70535, 1.63041, 1.52251, 1.46686, 1.47941, 1.48155, 1.46494, 1.45756, 1.47082, 1.45277, 1.44811, 1.44621, 1.44393, 1.44224, 1.43639, 1.4345, 1.43392, 1.43467, 1.433, 1.43031, 1.42471, 1.42362, 1.42066, 1.45262, 1.41677, 1.41565, 1.4131, 1.40623, 1.40682, 1.40069, 1.39576, 1.39359, 1.39179, 1.40657, 1.40888, 1.38648, 1.38712, 1.38787, 1.38484, 1.39572, 1.46841, 1.48371, 1.49653, 1.4868, 1.51402, 1.3821, 1.3592, 1.36337, 1.35212, 1.34762, 1.35058, 1.3429, 1.34115, 1.33641, 
1.68383, 1.6801, 1.67888, 1.6693, 1.66195, 1.66244, 1.65302, 1.66901, 1.67668, 1.66194, 1.61866, 1.70088, 1.79199, 1.82868, 1.83154, 1.80974, 1.6485, 1.60707, 1.61085, 1.59756, 1.59033, 1.59335, 1.58742, 1.58075, 1.5751, 1.57161, 1.56822, 1.56441, 1.56816, 1.57781, 1.5615, 1.54479, 1.54185, 1.54663, 1.54086, 1.5337, 1.53011, 1.51959, 1.51533, 1.50643, 1.50267, 1.50446, 1.50243, 1.5125, 1.50539, 1.51971, 1.58919, 1.68175, 1.61681, 1.63286, 1.57769, 1.44935, 1.47551, 1.47759, 1.46127, 1.46439, 1.45254, 1.44863, 1.44655, 1.44562, 1.44324, 1.44077, 1.43488, 1.43196, 1.43323, 1.43344, 1.43193, 1.42653, 1.42435, 1.42355, 1.41955, 1.41785, 1.41616, 1.4127, 1.4103, 1.4125, 1.40026, 1.39506, 1.39315, 1.39117, 1.38853, 1.38781, 1.38708, 1.38276, 1.38984, 1.39035, 1.34793, 1.3865, 1.44798, 1.47648, 1.51335, 1.51387, 1.46963, 1.43835, 1.37074, 1.36418, 1.35146, 1.34864, 1.35832, 1.341, 1.33808, 1.33646, 
1.6878, 1.68195, 1.67896, 1.6784, 1.66824, 1.66764, 1.66178, 1.67451, 1.68597, 1.66271, 1.63458, 1.64797, 1.7472, 1.82388, 1.83268, 1.79636, 1.68724, 1.62602, 1.61572, 1.59698, 1.61201, 1.59315, 1.59177, 1.58514, 1.58296, 1.58189, 1.5778, 1.56753, 1.56069, 1.58223, 1.5756, 1.54838, 1.54745, 1.54781, 1.54582, 1.54401, 1.53128, 1.52335, 1.51639, 1.50945, 1.51675, 1.50631, 1.51638, 1.51317, 1.51576, 1.54437, 1.60253, 1.67083, 1.63135, 1.64552, 1.5375, 1.46523, 1.48454, 1.4852, 1.47103, 1.46221, 1.45542, 1.45426, 1.45158, 1.44844, 1.45172, 1.4414, 1.43555, 1.4346, 1.43325, 1.43699, 1.43154, 1.4291, 1.42521, 1.42358, 1.42001, 1.4164, 1.41236, 1.40956, 1.4062, 1.40235, 1.39937, 1.39542, 1.39343, 1.39342, 1.38899, 1.38575, 1.38487, 1.38108, 1.38597, 1.39223, 1.38466, 1.42391, 1.48233, 1.49056, 1.50235, 1.51285, 1.48204, 1.40324, 1.35886, 1.36195, 1.34836, 1.35052, 1.34304, 1.34224, 1.33697, 1.33474, 
1.69875, 1.69559, 1.68962, 1.68625, 1.6813, 1.67879, 1.6749, 1.67171, 1.68331, 1.6688, 1.63912, 1.65502, 1.81013, 1.85391, 1.86935, 1.83103, 1.71444, 1.60431, 1.61023, 1.61118, 1.60742, 1.59938, 1.59738, 1.59231, 1.59207, 1.59036, 1.5841, 1.58142, 1.56724, 1.57272, 1.57537, 1.56341, 1.55949, 1.55361, 1.54714, 1.54697, 1.54044, 1.53112, 1.52802, 1.52863, 1.53192, 1.52628, 1.52, 1.5289, 1.53405, 1.5434, 1.6091, 1.62946, 1.65437, 1.63078, 1.56059, 1.47306, 1.4771, 1.49864, 1.48947, 1.46974, 1.46273, 1.46225, 1.46095, 1.45613, 1.45125, 1.44284, 1.43981, 1.43871, 1.44253, 1.44425, 1.44017, 1.43168, 1.42988, 1.42905, 1.42809, 1.42444, 1.41931, 1.4104, 1.40882, 1.40865, 1.40994, 1.40646, 1.39777, 1.39844, 1.39247, 1.38915, 1.38909, 1.38884, 1.38853, 1.38349, 1.37145, 1.42947, 1.45146, 1.52686, 1.5176, 1.51728, 1.46589, 1.38108, 1.37657, 1.36467, 1.3619, 1.34882, 1.34982, 1.35104, 1.34664, 1.34024, 
1.69999, 1.6932, 1.68564, 1.68002, 1.6844, 1.67818, 1.67342, 1.67345, 1.68099, 1.67031, 1.63471, 1.68069, 1.72973, 1.834, 1.85895, 1.78358, 1.71126, 1.63342, 1.61815, 1.61203, 1.62361, 1.6132, 1.59603, 1.59045, 1.59096, 1.58958, 1.58373, 1.58279, 1.57327, 1.57242, 1.5788, 1.58268, 1.56769, 1.56158, 1.55002, 1.54458, 1.54468, 1.53569, 1.54094, 1.53016, 1.53378, 1.52524, 1.52475, 1.53616, 1.53312, 1.57796, 1.63832, 1.68518, 1.66999, 1.64824, 1.60215, 1.46777, 1.48491, 1.48719, 1.49162, 1.48485, 1.47291, 1.47515, 1.46753, 1.46595, 1.46104, 1.45127, 1.44676, 1.44669, 1.4502, 1.45086, 1.44307, 1.4378, 1.43421, 1.43328, 1.43131, 1.42677, 1.42184, 1.41877, 1.41717, 1.41517, 1.41194, 1.40926, 1.42702, 1.40042, 1.3959, 1.4063, 1.39385, 1.39153, 1.39158, 1.39512, 1.39548, 1.40848, 1.44831, 1.5279, 1.56162, 1.54325, 1.50517, 1.43091, 1.37206, 1.37894, 1.36544, 1.35415, 1.35533, 1.35221, 1.35976, 1.34481, 
1.69092, 1.68482, 1.66644, 1.66519, 1.66151, 1.68439, 1.67241, 1.66596, 1.65932, 1.66529, 1.62482, 1.67911, 1.73125, 1.82781, 1.85685, 1.76511, 1.61553, 1.61617, 1.62407, 1.62069, 1.60588, 1.59279, 1.57596, 1.58305, 1.58504, 1.58247, 1.56444, 1.56611, 1.57436, 1.5827, 1.57187, 1.5809, 1.55952, 1.5518, 1.54308, 1.54367, 1.54091, 1.55451, 1.52295, 1.53152, 1.53092, 1.51948, 1.51563, 1.52382, 1.52315, 1.48782, 1.60715, 1.64453, 1.6593, 1.652, 1.56734, 1.47672, 1.48846, 1.49035, 1.50053, 1.48556, 1.46788, 1.4855, 1.46805, 1.46084, 1.45586, 1.46512, 1.43515, 1.43965, 1.44419, 1.44309, 1.43584, 1.43517, 1.42096, 1.423, 1.4255, 1.41954, 1.41621, 1.41309, 1.40818, 1.40291, 1.40425, 1.39955, 1.39737, 1.39887, 1.39589, 1.3829, 1.39715, 1.38538, 1.39202, 1.38869, 1.36245, 1.37923, 1.49708, 1.52984, 1.52581, 1.52659, 1.50808, 1.43327, 1.35466, 1.36532, 1.36157, 1.36718, 1.36258, 1.3476, 1.34335, 1.33262, 
1.69201, 1.68855, 1.67062, 1.67316, 1.66852, 1.67066, 1.672, 1.65834, 1.65393, 1.65135, 1.62049, 1.69778, 1.75787, 1.83167, 1.87633, 1.85506, 1.62721, 1.63529, 1.62681, 1.61389, 1.60948, 1.59933, 1.5788, 1.58288, 1.58567, 1.58378, 1.568, 1.5595, 1.56036, 1.55877, 1.56954, 1.57498, 1.55771, 1.54868, 1.55386, 1.54596, 1.54236, 1.53645, 1.52004, 1.53152, 1.52523, 1.51308, 1.51143, 1.51322, 1.51083, 1.48817, 1.5864, 1.62433, 1.65518, 1.66671, 1.59542, 1.45298, 1.47256, 1.48159, 1.50004, 1.48843, 1.46892, 1.47094, 1.46526, 1.4495, 1.44964, 1.44024, 1.42978, 1.42939, 1.44501, 1.44727, 1.43299, 1.41451, 1.40948, 1.40912, 1.4105, 1.40684, 1.40234, 1.40214, 1.38863, 1.38657, 1.38818, 1.38959, 1.39374, 1.39878, 1.39921, 1.38182, 1.37145, 1.37244, 1.37498, 1.38616, 1.39964, 1.36013, 1.49241, 1.48914, 1.52287, 1.53684, 1.52177, 1.41272, 1.34004, 1.36784, 1.35462, 1.35383, 1.35047, 1.34481, 1.32631, 1.32231, 
1.69818, 1.69011, 1.68581, 1.68269, 1.68177, 1.69638, 1.69688, 1.67535, 1.65552, 1.65766, 1.66866, 1.68704, 1.78732, 1.90677, 1.90234, 1.86934, 1.76504, 1.62015, 1.64724, 1.63158, 1.61663, 1.61992, 1.60208, 1.59884, 1.59291, 1.5913, 1.58201, 1.57632, 1.57369, 1.58201, 1.57133, 1.58524, 1.5801, 1.55942, 1.55601, 1.56891, 1.5504, 1.54854, 1.55693, 1.53452, 1.53765, 1.52701, 1.53357, 1.53411, 1.52383, 1.51958, 1.662, 1.66886, 1.70252, 1.66917, 1.61423, 1.50599, 1.48387, 1.48213, 1.49997, 1.49316, 1.48409, 1.47493, 1.47543, 1.46104, 1.45271, 1.45032, 1.44422, 1.44962, 1.45209, 1.45037, 1.44324, 1.43743, 1.43616, 1.42304, 1.41607, 1.41648, 1.41171, 1.4119, 1.40415, 1.41334, 1.40304, 1.40641, 1.40637, 1.40965, 1.40605, 1.41335, 1.39368, 1.38759, 1.39553, 1.39819, 1.39991, 1.38905, 1.39907, 1.47207, 1.51682, 1.51161, 1.45898, 1.39182, 1.37005, 1.37174, 1.3687, 1.3607, 1.35708, 1.35836, 1.34027, 1.34009, 
1.70434, 1.68981, 1.6833, 1.67662, 1.67332, 1.67113, 1.6717, 1.66558, 1.66765, 1.65242, 1.63689, 1.67563, 1.78224, 1.84061, 1.87512, 1.86433, 1.63115, 1.61732, 1.63083, 1.61798, 1.61925, 1.61751, 1.59889, 1.59022, 1.58872, 1.59254, 1.58455, 1.57848, 1.57292, 1.56815, 1.57875, 1.57874, 1.57308, 1.56152, 1.55726, 1.55234, 1.54675, 1.53817, 1.53558, 1.53188, 1.52724, 1.52379, 1.51977, 1.52801, 1.53139, 1.49658, 1.6065, 1.64215, 1.6719, 1.65086, 1.60224, 1.47236, 1.49189, 1.49666, 1.50695, 1.50555, 1.48534, 1.47096, 1.46903, 1.46504, 1.45466, 1.45263, 1.45364, 1.45492, 1.45448, 1.44709, 1.43832, 1.4372, 1.45068, 1.43304, 1.43722, 1.42827, 1.42508, 1.41926, 1.42588, 1.4123, 1.40964, 1.40894, 1.40607, 1.40523, 1.41307, 1.40021, 1.3963, 1.39529, 1.39414, 1.40599, 1.39245, 1.39648, 1.45255, 1.4775, 1.53416, 1.55256, 1.48752, 1.42025, 1.35428, 1.38753, 1.3679, 1.36931, 1.36465, 1.34793, 1.35129, 1.35741, 
1.68979, 1.68118, 1.67599, 1.67556, 1.67207, 1.66943, 1.65996, 1.65516, 1.65866, 1.6585, 1.62176, 1.66257, 1.75265, 1.80417, 1.87231, 1.86531, 1.65013, 1.61329, 1.61843, 1.61297, 1.60719, 1.59445, 1.58663, 1.58002, 1.58187, 1.57577, 1.5779, 1.57169, 1.56759, 1.56415, 1.56182, 1.56042, 1.56948, 1.55745, 1.5475, 1.54661, 1.53357, 1.53359, 1.52738, 1.52648, 1.52369, 1.52175, 1.51663, 1.51549, 1.51601, 1.52401, 1.59144, 1.64136, 1.65166, 1.64093, 1.59361, 1.49937, 1.47915, 1.47914, 1.47251, 1.48606, 1.47504, 1.45696, 1.4575, 1.44635, 1.44383, 1.44446, 1.44544, 1.44285, 1.43976, 1.43678, 1.43659, 1.43209, 1.43329, 1.42602, 1.42641, 1.41846, 1.41555, 1.40998, 1.40657, 1.40284, 1.3983, 1.39492, 1.39514, 1.39381, 1.39249, 1.3925, 1.38821, 1.38621, 1.3893, 1.38577, 1.38855, 1.3741, 1.45387, 1.48535, 1.52661, 1.52831, 1.50138, 1.38595, 1.35792, 1.36635, 1.35674, 1.34823, 1.34218, 1.35857, 1.34709, 1.3403, 
1.67853, 1.67446, 1.66817, 1.66987, 1.6659, 1.66144, 1.67208, 1.65543, 1.645, 1.65014, 1.65064, 1.67165, 1.74983, 1.79574, 1.84558, 1.86282, 1.67199, 1.60666, 1.61682, 1.60196, 1.59417, 1.59881, 1.58435, 1.57577, 1.56944, 1.56419, 1.56655, 1.56544, 1.55613, 1.55555, 1.55936, 1.55187, 1.56296, 1.54983, 1.53513, 1.53088, 1.52862, 1.52595, 1.5208, 1.51726, 1.52345, 1.50803, 1.50417, 1.50867, 1.51065, 1.51064, 1.57534, 1.59587, 1.65186, 1.63011, 1.58237, 1.48839, 1.47373, 1.4747, 1.47406, 1.47813, 1.48326, 1.46629, 1.45356, 1.44267, 1.44303, 1.4414, 1.44515, 1.44342, 1.43706, 1.43111, 1.42899, 1.4234, 1.41816, 1.42016, 1.41957, 1.40766, 1.40559, 1.4001, 1.40072, 1.39682, 1.39132, 1.38846, 1.38892, 1.38507, 1.39197, 1.3834, 1.38402, 1.37631, 1.37749, 1.38594, 1.37187, 1.39719, 1.44083, 1.46034, 1.51791, 1.55842, 1.51331, 1.45416, 1.35222, 1.35343, 1.34351, 1.34291, 1.33883, 1.33828, 1.33343, 1.33619, 
1.68411, 1.68063, 1.67722, 1.67215, 1.66861, 1.67302, 1.67136, 1.66513, 1.65147, 1.64899, 1.64686, 1.68342, 1.75099, 1.79745, 1.87392, 1.86592, 1.73758, 1.62995, 1.62794, 1.60885, 1.60784, 1.59194, 1.58903, 1.58393, 1.58575, 1.5716, 1.56782, 1.56431, 1.57612, 1.59234, 1.56782, 1.55928, 1.54877, 1.5541, 1.54101, 1.53413, 1.53164, 1.53299, 1.5257, 1.53134, 1.52439, 1.52415, 1.50538, 1.51576, 1.52163, 1.51356, 1.58538, 1.62168, 1.64156, 1.63721, 1.57313, 1.4414, 1.48098, 1.48598, 1.4705, 1.49288, 1.47137, 1.4535, 1.45123, 1.44375, 1.44341, 1.44187, 1.44162, 1.44017, 1.43508, 1.43092, 1.42896, 1.42299, 1.42301, 1.42623, 1.42516, 1.41506, 1.40629, 1.40325, 1.39665, 1.39531, 1.38959, 1.38703, 1.38557, 1.38503, 1.38622, 1.38322, 1.37793, 1.37224, 1.37125, 1.39264, 1.38943, 1.37873, 1.44435, 1.47216, 1.57987, 1.55928, 1.52427, 1.41615, 1.358, 1.37633, 1.35703, 1.33868, 1.33801, 1.3337, 1.33327, 1.33236, 
1.68619, 1.68273, 1.67798, 1.67291, 1.66896, 1.66186, 1.65645, 1.65414, 1.649, 1.65398, 1.64372, 1.67626, 1.70117, 1.79314, 1.87192, 1.83597, 1.7002, 1.61893, 1.61968, 1.60422, 1.59558, 1.59139, 1.5891, 1.58552, 1.60057, 1.57198, 1.57497, 1.56424, 1.56141, 1.55767, 1.55051, 1.54759, 1.54641, 1.55807, 1.55216, 1.53814, 1.5401, 1.52715, 1.52719, 1.5163, 1.51426, 1.51307, 1.50739, 1.5136, 1.5222, 1.49028, 1.54286, 1.61368, 1.65774, 1.669, 1.58146, 1.52595, 1.47861, 1.48254, 1.48904, 1.48227, 1.46545, 1.46009, 1.4581, 1.4499, 1.44777, 1.4465, 1.43992, 1.4396, 1.44738, 1.43315, 1.43127, 1.42675, 1.42452, 1.4209, 1.41974, 1.41499, 1.41354, 1.4058, 1.40199, 1.39769, 1.39794, 1.39279, 1.39167, 1.39288, 1.39583, 1.38869, 1.38219, 1.38226, 1.40335, 1.38529, 1.39587, 1.34845, 1.44062, 1.48163, 1.52178, 1.56535, 1.52146, 1.39989, 1.36766, 1.37002, 1.35807, 1.34742, 1.34305, 1.35787, 1.3428, 1.33404, 
1.67725, 1.6751, 1.66925, 1.6623, 1.65726, 1.65419, 1.64769, 1.63822, 1.6449, 1.63011, 1.62514, 1.62169, 1.7313, 1.81999, 1.87599, 1.88877, 1.68607, 1.57593, 1.5974, 1.58918, 1.58448, 1.59634, 1.57721, 1.57302, 1.57127, 1.5667, 1.56172, 1.55837, 1.554, 1.54667, 1.55496, 1.54302, 1.54082, 1.55985, 1.54116, 1.53859, 1.52211, 1.52031, 1.51044, 1.5073, 1.50647, 1.49925, 1.49648, 1.49575, 1.50714, 1.49379, 1.56478, 1.62987, 1.64342, 1.62794, 1.59195, 1.52218, 1.46607, 1.47155, 1.46799, 1.48167, 1.47534, 1.45687, 1.44132, 1.43754, 1.43711, 1.43303, 1.43013, 1.42473, 1.42257, 1.41989, 1.41851, 1.41626, 1.41, 1.40599, 1.41314, 1.41001, 1.3966, 1.39335, 1.38958, 1.38591, 1.38368, 1.3817, 1.37848, 1.37646, 1.37315, 1.37098, 1.36717, 1.36576, 1.36595, 1.37068, 1.36426, 1.35358, 1.40558, 1.54745, 1.52698, 1.53478, 1.5304, 1.37895, 1.34467, 1.34402, 1.34011, 1.33465, 1.33212, 1.34714, 1.3464, 1.32271, 
1.678, 1.67197, 1.66595, 1.6638, 1.67107, 1.64918, 1.64714, 1.63461, 1.63423, 1.62738, 1.62103, 1.61822, 1.65862, 1.74414, 1.86904, 1.86908, 1.6964, 1.57495, 1.60592, 1.60123, 1.59847, 1.58106, 1.57668, 1.5715, 1.56843, 1.56653, 1.56326, 1.55993, 1.55487, 1.54683, 1.53737, 1.53426, 1.52647, 1.54636, 1.54301, 1.53221, 1.53081, 1.52412, 1.5121, 1.50976, 1.51433, 1.50167, 1.49767, 1.50583, 1.50725, 1.4714, 1.57395, 1.64038, 1.64504, 1.64317, 1.58601, 1.51944, 1.45901, 1.47807, 1.4694, 1.47439, 1.47056, 1.44596, 1.43995, 1.44983, 1.43046, 1.43118, 1.42544, 1.42014, 1.41611, 1.41317, 1.4129, 1.41498, 1.40963, 1.39688, 1.39513, 1.39489, 1.39404, 1.39182, 1.39227, 1.38453, 1.38107, 1.37987, 1.37755, 1.37419, 1.37058, 1.36741, 1.36383, 1.36429, 1.36438, 1.36174, 1.36833, 1.36442, 1.43427, 1.48528, 1.51014, 1.53784, 1.5405, 1.43033, 1.3439, 1.344, 1.33984, 1.32871, 1.32495, 1.32359, 1.32206, 1.31709, 
1.67, 1.66657, 1.66075, 1.65579, 1.65123, 1.66471, 1.64137, 1.63905, 1.63146, 1.62729, 1.64095, 1.61334, 1.73039, 1.82173, 1.89209, 1.8895, 1.74942, 1.58669, 1.59846, 1.59173, 1.58738, 1.57971, 1.5743, 1.57201, 1.56625, 1.56387, 1.56269, 1.55859, 1.55291, 1.5456, 1.54119, 1.53437, 1.53278, 1.53127, 1.54837, 1.52469, 1.52073, 1.51689, 1.51536, 1.51245, 1.5088, 1.50497, 1.50079, 1.50271, 1.50284, 1.49109, 1.50172, 1.58439, 1.63659, 1.61977, 1.58966, 1.52073, 1.44772, 1.48059, 1.46176, 1.46033, 1.4715, 1.47513, 1.45401, 1.44113, 1.44889, 1.42758, 1.42664, 1.42899, 1.41651, 1.41625, 1.41162, 1.40897, 1.40551, 1.40268, 1.40191, 1.39713, 1.39446, 1.39286, 1.39134, 1.38489, 1.38215, 1.37615, 1.37313, 1.37205, 1.37013, 1.36792, 1.36172, 1.35905, 1.35813, 1.35847, 1.35771, 1.34399, 1.44713, 1.50689, 1.55711, 1.54717, 1.48718, 1.34051, 1.32697, 1.34748, 1.32982, 1.33731, 1.32346, 1.32049, 1.31626, 1.31627, 
1.67083, 1.66135, 1.65446, 1.6511, 1.65839, 1.64377, 1.63886, 1.63693, 1.63731, 1.64654, 1.63307, 1.6235, 1.71627, 1.80266, 1.90024, 1.81944, 1.74869, 1.58301, 1.61318, 1.60721, 1.58874, 1.57952, 1.578, 1.56795, 1.56482, 1.55796, 1.56357, 1.55903, 1.55205, 1.54624, 1.54365, 1.53885, 1.53615, 1.5371, 1.55444, 1.53556, 1.52318, 1.5191, 1.51778, 1.5151, 1.51293, 1.50686, 1.50324, 1.50961, 1.50599, 1.47234, 1.5552, 1.61743, 1.62341, 1.63434, 1.57609, 1.53426, 1.47259, 1.48265, 1.46285, 1.46525, 1.47938, 1.47345, 1.44455, 1.44041, 1.43629, 1.43325, 1.43031, 1.42768, 1.42162, 1.41977, 1.42282, 1.41419, 1.41178, 1.40942, 1.40727, 1.40562, 1.40333, 1.39957, 1.39647, 1.39177, 1.38701, 1.37959, 1.37947, 1.3772, 1.3749, 1.372, 1.36836, 1.36831, 1.36528, 1.37566, 1.3648, 1.35003, 1.43682, 1.48788, 1.51029, 1.53396, 1.51245, 1.44249, 1.32715, 1.35434, 1.33963, 1.33172, 1.32874, 1.33504, 1.32155, 1.32197, 
1.66824, 1.66326, 1.65273, 1.65178, 1.65747, 1.64088, 1.63799, 1.63745, 1.63861, 1.65144, 1.64467, 1.62671, 1.72769, 1.83146, 1.88518, 1.88196, 1.6327, 1.59316, 1.59614, 1.59838, 1.58244, 1.57621, 1.57226, 1.56538, 1.5611, 1.55414, 1.5565, 1.55555, 1.54912, 1.54564, 1.54039, 1.53549, 1.53385, 1.53986, 1.53781, 1.55216, 1.51788, 1.51602, 1.5233, 1.51298, 1.50585, 1.50233, 1.49898, 1.5097, 1.51996, 1.48036, 1.53266, 1.56488, 1.62508, 1.61675, 1.55883, 1.53364, 1.46908, 1.47835, 1.45483, 1.46549, 1.46061, 1.4643, 1.43942, 1.43644, 1.43114, 1.42777, 1.4267, 1.42828, 1.42509, 1.42224, 1.41473, 1.41429, 1.41057, 1.41155, 1.40755, 1.40675, 1.4033, 1.39962, 1.3975, 1.3955, 1.38811, 1.38479, 1.38101, 1.3793, 1.37652, 1.38619, 1.37178, 1.36857, 1.36828, 1.37583, 1.371, 1.35619, 1.43711, 1.46805, 1.52823, 1.56026, 1.50957, 1.41973, 1.35334, 1.33798, 1.33093, 1.3278, 1.32603, 1.32565, 1.32363, 1.31928, 
1.66885, 1.66643, 1.65973, 1.6588, 1.65317, 1.64557, 1.64139, 1.63722, 1.63526, 1.63198, 1.63386, 1.59246, 1.74332, 1.82302, 1.90076, 1.90679, 1.65933, 1.60319, 1.59944, 1.59107, 1.58648, 1.58277, 1.572, 1.56933, 1.56443, 1.55803, 1.55699, 1.55608, 1.55314, 1.54794, 1.54453, 1.53991, 1.5339, 1.53171, 1.52165, 1.54052, 1.53717, 1.5161, 1.51587, 1.50718, 1.50237, 1.49842, 1.49623, 1.49612, 1.49554, 1.48569, 1.50708, 1.58507, 1.59913, 1.59011, 1.57514, 1.52345, 1.44884, 1.4656, 1.45427, 1.44695, 1.45993, 1.46762, 1.44077, 1.43686, 1.44558, 1.42945, 1.42796, 1.42688, 1.42247, 1.41731, 1.41598, 1.41538, 1.41316, 1.40894, 1.40512, 1.40312, 1.40167, 1.39687, 1.39862, 1.38685, 1.38291, 1.37909, 1.37817, 1.37586, 1.37545, 1.37112, 1.38654, 1.36757, 1.37154, 1.36865, 1.38625, 1.36375, 1.50573, 1.50056, 1.52673, 1.571, 1.5576, 1.42412, 1.33142, 1.33792, 1.33067, 1.32942, 1.32733, 1.32454, 1.32566, 1.32039, 
1.67596, 1.67321, 1.6693, 1.66837, 1.65931, 1.66936, 1.64956, 1.64277, 1.63823, 1.63516, 1.64319, 1.62597, 1.72485, 1.78277, 1.89619, 1.96713, 1.66277, 1.57557, 1.61115, 1.60253, 1.58946, 1.58494, 1.58297, 1.56979, 1.56577, 1.56193, 1.56163, 1.55896, 1.55337, 1.54797, 1.54518, 1.54226, 1.53508, 1.53146, 1.52791, 1.53683, 1.53804, 1.5168, 1.51926, 1.50856, 1.51115, 1.49997, 1.49886, 1.50326, 1.50668, 1.46867, 1.51296, 1.58624, 1.67663, 1.62301, 1.56867, 1.51296, 1.45514, 1.47079, 1.45477, 1.46892, 1.44725, 1.46274, 1.46922, 1.43696, 1.43382, 1.43141, 1.42722, 1.42515, 1.42118, 1.41726, 1.41548, 1.4121, 1.40888, 1.40552, 1.40489, 1.40088, 1.39889, 1.39465, 1.39119, 1.38573, 1.38466, 1.37778, 1.37746, 1.37492, 1.37427, 1.37223, 1.36997, 1.36813, 1.36795, 1.37839, 1.37626, 1.35438, 1.40805, 1.44646, 1.51537, 1.54983, 1.53445, 1.42039, 1.33791, 1.34434, 1.34516, 1.32932, 1.33575, 1.32697, 1.32371, 1.3238, 
1.67402, 1.67111, 1.6682, 1.66626, 1.65966, 1.65619, 1.65113, 1.64477, 1.63781, 1.63382, 1.65129, 1.60439, 1.70278, 1.75048, 1.8792, 1.89786, 1.6218, 1.58285, 1.61389, 1.59794, 1.60014, 1.60082, 1.59012, 1.56832, 1.56474, 1.56139, 1.55908, 1.55624, 1.55439, 1.55152, 1.54962, 1.5393, 1.5356, 1.54079, 1.52781, 1.54329, 1.53825, 1.52194, 1.51355, 1.51926, 1.50311, 1.50247, 1.51318, 1.50718, 1.50799, 1.49866, 1.52131, 1.52372, 1.6027, 1.62078, 1.58654, 1.52983, 1.45438, 1.48545, 1.45789, 1.45528, 1.45142, 1.45493, 1.45892, 1.44717, 1.43713, 1.43149, 1.43364, 1.42634, 1.42357, 1.41697, 1.41689, 1.41305, 1.40988, 1.40726, 1.40337, 1.3996, 1.3977, 1.39371, 1.39147, 1.38858, 1.38581, 1.38197, 1.38097, 1.37765, 1.37678, 1.39236, 1.37335, 1.37148, 1.36539, 1.36856, 1.37021, 1.38242, 1.455, 1.47123, 1.5342, 1.57833, 1.55785, 1.46887, 1.34455, 1.34751, 1.34941, 1.33975, 1.33353, 1.3468, 1.33061, 1.35448, 
1.67375, 1.6713, 1.66855, 1.66282, 1.65595, 1.65184, 1.64961, 1.65486, 1.63898, 1.63338, 1.63913, 1.59845, 1.70284, 1.78885, 1.86366, 1.93638, 1.62947, 1.58456, 1.60045, 1.60633, 1.57969, 1.57744, 1.57193, 1.56756, 1.56597, 1.56239, 1.55975, 1.55528, 1.5533, 1.54855, 1.546, 1.53988, 1.54008, 1.53144, 1.52659, 1.52797, 1.54017, 1.51447, 1.50693, 1.50758, 1.50305, 1.50027, 1.49691, 1.50919, 1.5013, 1.48361, 1.54877, 1.57479, 1.60707, 1.58928, 1.57475, 1.51452, 1.44819, 1.48269, 1.45355, 1.45531, 1.45732, 1.46055, 1.4669, 1.4519, 1.43639, 1.42829, 1.42607, 1.42441, 1.42007, 1.41875, 1.41435, 1.41312, 1.41205, 1.42978, 1.40348, 1.39909, 1.39817, 1.39157, 1.39029, 1.38415, 1.383, 1.38208, 1.37866, 1.37678, 1.37444, 1.3733, 1.37156, 1.36592, 1.367, 1.35916, 1.38428, 1.34826, 1.42329, 1.49804, 1.52731, 1.57977, 1.54786, 1.47282, 1.36544, 1.34736, 1.35695, 1.33909, 1.34875, 1.33191, 1.3305, 1.32822, 
1.67227, 1.67076, 1.66281, 1.65922, 1.65499, 1.65347, 1.65149, 1.64179, 1.63786, 1.63507, 1.6367, 1.61404, 1.6824, 1.75961, 1.85466, 1.96369, 1.81727, 1.58671, 1.60274, 1.59863, 1.60648, 1.57993, 1.57871, 1.57308, 1.56939, 1.56749, 1.56237, 1.55879, 1.55268, 1.54892, 1.54752, 1.54261, 1.53672, 1.53132, 1.52838, 1.52768, 1.53522, 1.52208, 1.51321, 1.50982, 1.50621, 1.505, 1.50198, 1.49929, 1.49971, 1.4798, 1.52475, 1.57243, 1.5825, 1.59922, 1.60272, 1.53433, 1.47859, 1.4656, 1.46139, 1.45082, 1.4483, 1.45229, 1.45858, 1.44806, 1.43434, 1.42896, 1.42663, 1.42338, 1.42144, 1.42245, 1.41591, 1.4145, 1.41129, 1.4075, 1.40391, 1.40167, 1.39777, 1.39342, 1.38993, 1.38593, 1.38399, 1.38004, 1.37902, 1.3761, 1.37599, 1.37226, 1.36821, 1.36771, 1.36043, 1.36026, 1.36379, 1.36214, 1.4146, 1.44229, 1.55925, 1.39846, 1.56597, 1.46838, 1.34503, 1.34974, 1.35633, 1.34038, 1.33524, 1.33349, 1.33243, 1.32675, 
1.67207, 1.67152, 1.6647, 1.65798, 1.66405, 1.64804, 1.64493, 1.64194, 1.64313, 1.63698, 1.64457, 1.61487, 1.71383, 1.79027, 1.90688, 1.91154, 1.65616, 1.60236, 1.62335, 1.60241, 1.58853, 1.58611, 1.57981, 1.592, 1.57859, 1.56601, 1.56296, 1.55903, 1.55624, 1.55274, 1.55006, 1.54429, 1.54028, 1.53633, 1.52976, 1.53766, 1.53726, 1.53709, 1.51837, 1.52355, 1.52122, 1.50729, 1.50442, 1.50339, 1.50507, 1.49259, 1.52771, 1.58238, 1.6037, 1.59794, 1.5713, 1.49359, 1.46534, 1.47325, 1.47352, 1.45919, 1.45827, 1.44816, 1.46138, 1.45492, 1.44338, 1.4316, 1.43017, 1.42585, 1.42274, 1.42215, 1.41973, 1.4165, 1.41414, 1.40906, 1.40446, 1.40121, 1.39674, 1.39492, 1.39162, 1.38831, 1.38512, 1.38098, 1.37746, 1.37565, 1.37499, 1.37186, 1.36909, 1.39574, 1.37411, 1.36256, 1.37614, 1.3603, 1.39622, 1.50945, 1.50224, 1.59268, 1.58369, 1.44677, 1.34899, 1.35148, 1.34696, 1.3428, 1.34387, 1.33618, 1.33077, 1.33229, 
1.67564, 1.6677, 1.66395, 1.65723, 1.6528, 1.64725, 1.64489, 1.6571, 1.63611, 1.63575, 1.64377, 1.63047, 1.70452, 1.80124, 1.8683, 1.92054, 1.72203, 1.58321, 1.6041, 1.60679, 1.58527, 1.58162, 1.57631, 1.57123, 1.56458, 1.56094, 1.55768, 1.55544, 1.55159, 1.55111, 1.54824, 1.54053, 1.53789, 1.53996, 1.53013, 1.52611, 1.5412, 1.53707, 1.51996, 1.51312, 1.51858, 1.50251, 1.4998, 1.49805, 1.50299, 1.47256, 1.54508, 1.57829, 1.59733, 1.57974, 1.56436, 1.51592, 1.46263, 1.48278, 1.47142, 1.45541, 1.45051, 1.45714, 1.44905, 1.45485, 1.43444, 1.44081, 1.42793, 1.42454, 1.42243, 1.42075, 1.42012, 1.41615, 1.41331, 1.40928, 1.40572, 1.40339, 1.40004, 1.39711, 1.39283, 1.38852, 1.38449, 1.3813, 1.37726, 1.37561, 1.37136, 1.37199, 1.36948, 1.36403, 1.36358, 1.3641, 1.37091, 1.36707, 1.42843, 1.44886, 1.51894, 1.57076, 1.55048, 1.4413, 1.33702, 1.36115, 1.36546, 1.33105, 1.32843, 1.32721, 1.32688, 1.32774, 
1.67594, 1.66766, 1.66224, 1.65747, 1.65183, 1.64726, 1.64471, 1.63853, 1.63865, 1.63655, 1.63767, 1.61287, 1.63856, 1.7247, 1.94093, 1.97625, 1.68985, 1.58375, 1.60434, 1.58992, 1.58737, 1.58246, 1.57719, 1.57186, 1.56596, 1.56491, 1.5577, 1.5557, 1.55361, 1.5474, 1.54796, 1.53833, 1.53518, 1.53124, 1.52808, 1.52432, 1.52221, 1.54153, 1.52453, 1.51227, 1.5106, 1.51651, 1.51317, 1.49865, 1.49885, 1.47888, 1.52804, 1.52701, 1.58217, 1.57288, 1.56756, 1.51938, 1.4369, 1.47073, 1.46303, 1.45492, 1.4516, 1.44784, 1.44521, 1.46374, 1.44693, 1.44362, 1.43954, 1.42599, 1.42494, 1.42245, 1.4176, 1.41525, 1.41378, 1.40962, 1.40592, 1.4028, 1.40124, 1.39655, 1.39165, 1.38634, 1.3835, 1.3773, 1.37311, 1.36889, 1.36769, 1.36878, 1.36534, 1.36398, 1.36345, 1.36229, 1.36593, 1.36333, 1.39787, 1.44354, 1.60386, 1.62672, 1.62692, 1.43105, 1.34295, 1.34974, 1.3337, 1.33094, 1.32917, 1.33087, 1.32651, 1.3291, 
1.67479, 1.669, 1.66361, 1.65766, 1.65226, 1.64846, 1.64431, 1.6404, 1.63786, 1.64739, 1.63495, 1.6227, 1.68638, 1.77591, 1.86606, 1.93456, 1.74949, 1.58783, 1.60268, 1.59218, 1.58596, 1.58015, 1.57527, 1.57002, 1.56544, 1.56198, 1.55865, 1.58604, 1.55146, 1.55029, 1.54223, 1.53669, 1.53503, 1.52791, 1.52924, 1.52647, 1.52026, 1.53245, 1.55131, 1.51275, 1.51078, 1.50204, 1.49892, 1.49661, 1.50035, 1.47796, 1.52421, 1.58111, 1.59252, 1.57143, 1.55906, 1.5613, 1.46405, 1.47672, 1.46682, 1.45167, 1.44753, 1.44316, 1.44028, 1.44845, 1.44735, 1.42826, 1.43345, 1.42303, 1.42475, 1.42191, 1.41935, 1.41619, 1.4153, 1.41228, 1.40765, 1.40549, 1.39956, 1.39865, 1.39306, 1.38892, 1.38369, 1.37812, 1.37527, 1.37386, 1.40946, 1.36737, 1.37147, 1.36775, 1.37577, 1.36489, 1.37911, 1.35489, 1.39562, 1.44906, 1.55219, 1.58443, 1.58609, 1.43813, 1.35405, 1.3539, 1.33609, 1.33205, 1.33079, 1.33741, 1.32982, 1.32647, 
1.67253, 1.66298, 1.66454, 1.65825, 1.65122, 1.64576, 1.64172, 1.63736, 1.63651, 1.6411, 1.64169, 1.60327, 1.70183, 1.76942, 1.83593, 1.98205, 1.76185, 1.57908, 1.60734, 1.59443, 1.59338, 1.58958, 1.57549, 1.57939, 1.56821, 1.56406, 1.55674, 1.55424, 1.54797, 1.54394, 1.54176, 1.53466, 1.53154, 1.52866, 1.52048, 1.519, 1.5179, 1.52311, 1.53989, 1.51785, 1.50799, 1.50247, 1.5, 1.49832, 1.51662, 1.47504, 1.54701, 1.60221, 1.57063, 1.56187, 1.56309, 1.542, 1.44834, 1.46803, 1.47178, 1.45942, 1.45401, 1.44325, 1.44789, 1.46534, 1.47049, 1.47364, 1.42424, 1.4247, 1.42096, 1.41891, 1.41565, 1.4147, 1.41287, 1.41263, 1.40612, 1.40414, 1.40386, 1.40058, 1.3958, 1.39023, 1.38503, 1.37986, 1.37643, 1.37406, 1.37078, 1.37025, 1.37108, 1.36827, 1.37601, 1.37452, 1.37594, 1.37754, 1.35654, 1.50642, 1.55504, 1.62772, 1.58564, 1.37903, 1.34066, 1.35391, 1.35998, 1.34671, 1.33572, 1.34802, 1.33462, 1.32661, 
1.66908, 1.66391, 1.65986, 1.6559, 1.6506, 1.64417, 1.64017, 1.63614, 1.63765, 1.63471, 1.63164, 1.61024, 1.66493, 1.7668, 1.77401, 1.9215, 1.65514, 1.5821, 1.59729, 1.59246, 1.58342, 1.57988, 1.57577, 1.57105, 1.57217, 1.56131, 1.55647, 1.55426, 1.55014, 1.54662, 1.54025, 1.53778, 1.53126, 1.52952, 1.5206, 1.51565, 1.51263, 1.51282, 1.52921, 1.53086, 1.50773, 1.51099, 1.50244, 1.49595, 1.4985, 1.46811, 1.53698, 1.61337, 1.59278, 1.56452, 1.56171, 1.53331, 1.44674, 1.46291, 1.46079, 1.44908, 1.44688, 1.44336, 1.43984, 1.43774, 1.43423, 1.42353, 1.42318, 1.42201, 1.41974, 1.41858, 1.41569, 1.41229, 1.40919, 1.40682, 1.40468, 1.40177, 1.40029, 1.39842, 1.39591, 1.39232, 1.38814, 1.38643, 1.38183, 1.37678, 1.37354, 1.3697, 1.36802, 1.36828, 1.3664, 1.36389, 1.36793, 1.3723, 1.38599, 1.4579, 1.523, 1.59627, 1.58612, 1.37954, 1.33031, 1.35124, 1.35174, 1.33316, 1.33091, 1.33672, 1.32663, 1.32557, 
1.67028, 1.66494, 1.66117, 1.65618, 1.65455, 1.64741, 1.6387, 1.6372, 1.63636, 1.63461, 1.63505, 1.62957, 1.65495, 1.76837, 1.87241, 1.77824, 1.88655, 1.58002, 1.59586, 1.58994, 1.58438, 1.58123, 1.57451, 1.57012, 1.56602, 1.56206, 1.55831, 1.55716, 1.55152, 1.54913, 1.55695, 1.53771, 1.53407, 1.52973, 1.52363, 1.51844, 1.51584, 1.51414, 1.53187, 1.53454, 1.51016, 1.50746, 1.51212, 1.49751, 1.49992, 1.48899, 1.50641, 1.59559, 1.5944, 1.56286, 1.55937, 1.52975, 1.46713, 1.4818, 1.46138, 1.45267, 1.44696, 1.44632, 1.44452, 1.43787, 1.44603, 1.41272, 1.42078, 1.42088, 1.41811, 1.41592, 1.41245, 1.41584, 1.40594, 1.40482, 1.40219, 1.40325, 1.4004, 1.39594, 1.39306, 1.39091, 1.38922, 1.38515, 1.38346, 1.37927, 1.37731, 1.37485, 1.371, 1.36634, 1.36451, 1.36413, 1.3683, 1.368, 1.40487, 1.48573, 1.52064, 1.60213, 1.47827, 1.3816, 1.31705, 1.34958, 1.34835, 1.33345, 1.33054, 1.32846, 1.3271, 1.32042, 
1.66935, 1.6646, 1.65925, 1.65258, 1.65393, 1.64504, 1.64131, 1.6401, 1.64377, 1.63369, 1.64128, 1.63009, 1.68316, 1.70354, 1.85052, 1.93117, 1.67705, 1.57241, 1.60322, 1.60193, 1.58304, 1.57881, 1.57483, 1.56894, 1.56617, 1.56271, 1.55889, 1.55556, 1.55164, 1.5487, 1.54438, 1.54385, 1.53433, 1.53035, 1.52334, 1.51993, 1.52316, 1.5126, 1.5246, 1.55106, 1.52525, 1.50679, 1.50585, 1.49952, 1.49592, 1.47787, 1.5234, 1.55828, 1.55931, 1.5492, 1.54777, 1.53275, 1.4443, 1.46583, 1.46576, 1.45508, 1.46354, 1.45094, 1.46198, 1.45064, 1.4482, 1.43767, 1.43207, 1.41991, 1.41685, 1.41582, 1.41229, 1.40986, 1.40564, 1.4027, 1.40213, 1.40034, 1.39591, 1.39299, 1.38942, 1.38636, 1.38436, 1.38224, 1.38135, 1.38138, 1.3782, 1.37724, 1.37436, 1.37039, 1.36726, 1.37891, 1.36712, 1.36799, 1.33473, 1.46871, 1.53725, 1.58994, 1.5885, 1.46438, 1.34883, 1.35648, 1.35097, 1.33313, 1.32921, 1.32926, 1.32516, 1.32653, 
1.6685, 1.66634, 1.65424, 1.64961, 1.64432, 1.64521, 1.64324, 1.64102, 1.63461, 1.63196, 1.6316, 1.62757, 1.62857, 1.72676, 1.88872, 1.92535, 1.82012, 1.59645, 1.60329, 1.59162, 1.58433, 1.57319, 1.56926, 1.56773, 1.56402, 1.56184, 1.55452, 1.5521, 1.5478, 1.54541, 1.54259, 1.53979, 1.53349, 1.52825, 1.52321, 1.51846, 1.51572, 1.51373, 1.51672, 1.55089, 1.55166, 1.5015, 1.50222, 1.49371, 1.49411, 1.48203, 1.52784, 1.58515, 1.58442, 1.54377, 1.54419, 1.51699, 1.45077, 1.46281, 1.46148, 1.45408, 1.45314, 1.45518, 1.44502, 1.46781, 1.45694, 1.44386, 1.43218, 1.4236, 1.42031, 1.418, 1.41401, 1.40947, 1.40624, 1.40366, 1.40256, 1.40063, 1.39728, 1.39326, 1.39101, 1.38675, 1.38452, 1.38081, 1.37953, 1.37869, 1.37888, 1.37732, 1.37078, 1.3694, 1.36289, 1.36155, 1.36182, 1.37392, 1.4021, 1.44209, 1.55077, 1.63053, 1.64199, 1.47211, 1.31574, 1.34713, 1.3442, 1.3317, 1.32791, 1.32646, 1.32448, 1.32167, 
1.66991, 1.66812, 1.65861, 1.65282, 1.64843, 1.64689, 1.64444, 1.63656, 1.63478, 1.63156, 1.63103, 1.6304, 1.61546, 1.77177, 1.91408, 1.95582, 1.7069, 1.57158, 1.59337, 1.59508, 1.58179, 1.59247, 1.57295, 1.56804, 1.56552, 1.56181, 1.56059, 1.55098, 1.54875, 1.54141, 1.53708, 1.53322, 1.53111, 1.52603, 1.52355, 1.51951, 1.52285, 1.53391, 1.51322, 1.53227, 1.53063, 1.51034, 1.50218, 1.49867, 1.49593, 1.4726, 1.50028, 1.57261, 1.57218, 1.5652, 1.54766, 1.5329, 1.49242, 1.46292, 1.46924, 1.45691, 1.46436, 1.45326, 1.49066, 1.47583, 1.45279, 1.43053, 1.42731, 1.4228, 1.4216, 1.4154, 1.4131, 1.40951, 1.40608, 1.40296, 1.40156, 1.39845, 1.4002, 1.39114, 1.38831, 1.38228, 1.38337, 1.38054, 1.37741, 1.37646, 1.37502, 1.37398, 1.37148, 1.36818, 1.36274, 1.36188, 1.3679, 1.36559, 1.34782, 1.48815, 1.56354, 1.61044, 1.57819, 1.48778, 1.31974, 1.33853, 1.33436, 1.33346, 1.33105, 1.3281, 1.32639, 1.32184, 
1.67293, 1.67476, 1.66522, 1.65756, 1.65299, 1.6497, 1.64394, 1.64002, 1.63663, 1.63349, 1.63412, 1.63177, 1.61625, 1.70411, 1.88882, 1.91452, 1.63474, 1.5831, 1.59232, 1.59534, 1.58741, 1.5831, 1.57257, 1.57075, 1.56804, 1.56293, 1.55714, 1.55124, 1.54586, 1.53978, 1.53497, 1.53183, 1.52738, 1.52505, 1.52273, 1.52175, 1.51993, 1.5164, 1.52307, 1.52418, 1.5419, 1.52802, 1.50773, 1.50411, 1.5032, 1.47144, 1.52506, 1.56048, 1.56617, 1.55912, 1.54747, 1.53889, 1.44817, 1.46415, 1.46849, 1.47655, 1.47532, 1.47898, 1.49724, 1.46943, 1.45074, 1.43859, 1.42621, 1.42346, 1.42086, 1.41665, 1.41505, 1.40809, 1.40425, 1.40114, 1.39925, 1.39643, 1.39273, 1.38967, 1.38838, 1.38444, 1.38233, 1.3803, 1.37813, 1.37745, 1.37582, 1.37381, 1.36839, 1.36702, 1.37487, 1.36093, 1.36854, 1.37408, 1.35819, 1.49955, 1.52955, 1.58962, 1.60572, 1.39645, 1.32408, 1.34198, 1.33747, 1.33725, 1.33329, 1.32959, 1.32623, 1.32303, 
1.67122, 1.66738, 1.66398, 1.65982, 1.65392, 1.64767, 1.64394, 1.64657, 1.63386, 1.62628, 1.62629, 1.63771, 1.68232, 1.761, 1.79087, 1.94427, 1.67751, 1.57143, 1.60252, 1.60009, 1.59671, 1.58673, 1.58001, 1.58854, 1.56297, 1.56259, 1.55544, 1.54944, 1.54671, 1.53783, 1.53166, 1.52489, 1.52923, 1.52302, 1.52091, 1.5201, 1.53469, 1.52606, 1.51545, 1.52424, 1.54643, 1.53858, 1.50366, 1.5123, 1.49529, 1.47029, 1.49678, 1.52607, 1.56198, 1.52669, 1.54363, 1.5077, 1.47563, 1.4961, 1.48045, 1.50241, 1.50452, 1.49128, 1.47108, 1.46307, 1.44078, 1.43453, 1.42848, 1.4283, 1.4305, 1.41647, 1.41395, 1.40872, 1.40497, 1.40362, 1.40014, 1.39846, 1.39323, 1.3908, 1.38813, 1.3821, 1.38318, 1.38116, 1.37952, 1.3786, 1.37277, 1.36932, 1.36661, 1.36569, 1.35968, 1.35805, 1.37908, 1.38639, 1.3433, 1.45077, 1.54257, 1.64187, 1.53458, 1.51153, 1.33777, 1.34538, 1.33494, 1.33685, 1.33311, 1.32951, 1.32692, 1.33345, 
1.67101, 1.66603, 1.66159, 1.65744, 1.65304, 1.64917, 1.64443, 1.63828, 1.63429, 1.62719, 1.62722, 1.62744, 1.61841, 1.74512, 1.82078, 1.87218, 1.79435, 1.60016, 1.60028, 1.59907, 1.5891, 1.58425, 1.57768, 1.56972, 1.56516, 1.55489, 1.55323, 1.5486, 1.54186, 1.53351, 1.54032, 1.52504, 1.52349, 1.52241, 1.51975, 1.51655, 1.51579, 1.51293, 1.5101, 1.51691, 1.53972, 1.55752, 1.52545, 1.50241, 1.49425, 1.48289, 1.52326, 1.54896, 1.55519, 1.51841, 1.56348, 1.52017, 1.47166, 1.47946, 1.50326, 1.49373, 1.47605, 1.47136, 1.45528, 1.44773, 1.43635, 1.44003, 1.42666, 1.423, 1.42046, 1.41583, 1.41194, 1.40924, 1.40274, 1.39891, 1.39818, 1.39953, 1.3927, 1.39081, 1.38784, 1.38508, 1.38422, 1.37857, 1.37617, 1.37447, 1.37174, 1.36801, 1.36598, 1.36647, 1.36129, 1.35758, 1.36475, 1.35598, 1.34705, 1.42425, 1.48799, 1.63291, 1.63502, 1.42055, 1.33357, 1.34164, 1.33153, 1.32988, 1.32852, 1.32844, 1.32634, 1.3171, 
1.666, 1.65865, 1.65436, 1.65499, 1.65439, 1.65898, 1.64784, 1.64185, 1.64046, 1.6276, 1.63471, 1.62114, 1.6169, 1.77632, 1.86625, 1.99091, 1.68173, 1.579, 1.61681, 1.60664, 1.60964, 1.59305, 1.58872, 1.58578, 1.57244, 1.56629, 1.55631, 1.55459, 1.54892, 1.5428, 1.53847, 1.54516, 1.52755, 1.52602, 1.52273, 1.51877, 1.51647, 1.51213, 1.51242, 1.51601, 1.51434, 1.53555, 1.56239, 1.53199, 1.49172, 1.49262, 1.46867, 1.55198, 1.55462, 1.52791, 1.53924, 1.53386, 1.49977, 1.46885, 1.47408, 1.46577, 1.45793, 1.45216, 1.44757, 1.44076, 1.44495, 1.43041, 1.42765, 1.4244, 1.42046, 1.41583, 1.41321, 1.41012, 1.40816, 1.40287, 1.40035, 1.3972, 1.39446, 1.39275, 1.39191, 1.38897, 1.38774, 1.38344, 1.37899, 1.37803, 1.37279, 1.37082, 1.38139, 1.36374, 1.36024, 1.35809, 1.36498, 1.36494, 1.36431, 1.45462, 1.53516, 1.63188, 1.63725, 1.40884, 1.30632, 1.34375, 1.33313, 1.33027, 1.32894, 1.32683, 1.32382, 1.3226, 
1.66854, 1.65521, 1.6524, 1.65256, 1.65265, 1.6517, 1.64463, 1.63892, 1.63442, 1.62832, 1.62672, 1.62191, 1.59472, 1.75096, 1.8366, 1.97439, 1.69233, 1.5894, 1.61211, 1.59403, 1.59499, 1.59661, 1.59201, 1.57556, 1.57137, 1.565, 1.57574, 1.55449, 1.55061, 1.54434, 1.53859, 1.53353, 1.52518, 1.52232, 1.51958, 1.5172, 1.51471, 1.51195, 1.50649, 1.51749, 1.52016, 1.51135, 1.52768, 1.52672, 1.52021, 1.4876, 1.49955, 1.53211, 1.53607, 1.51983, 1.54322, 1.54758, 1.49006, 1.45444, 1.48317, 1.45793, 1.45292, 1.44535, 1.44027, 1.45762, 1.44031, 1.42914, 1.4272, 1.42567, 1.42051, 1.41755, 1.41404, 1.41124, 1.40756, 1.40615, 1.40315, 1.39821, 1.39648, 1.39217, 1.3911, 1.39129, 1.39163, 1.38574, 1.38189, 1.37836, 1.37251, 1.37883, 1.36822, 1.36425, 1.36125, 1.36309, 1.36777, 1.37798, 1.34028, 1.46674, 1.54057, 1.64946, 1.65052, 1.45338, 1.32987, 1.34775, 1.34708, 1.34054, 1.33267, 1.32872, 1.32563, 1.32467, 
1.6681, 1.65938, 1.65709, 1.65511, 1.65564, 1.65209, 1.64579, 1.64007, 1.63503, 1.63227, 1.62383, 1.63083, 1.6176, 1.693, 1.86823, 1.96967, 1.79895, 1.57528, 1.60193, 1.60986, 1.60271, 1.59537, 1.58846, 1.57273, 1.58, 1.5614, 1.55742, 1.55075, 1.54566, 1.54082, 1.53689, 1.53372, 1.52718, 1.52497, 1.51974, 1.51656, 1.51537, 1.5108, 1.50878, 1.50621, 1.50197, 1.50174, 1.49772, 1.5044, 1.50564, 1.48528, 1.49509, 1.5537, 1.5747, 1.50638, 1.52031, 1.53096, 1.47921, 1.47376, 1.47469, 1.45415, 1.44921, 1.4449, 1.44098, 1.43338, 1.43076, 1.42725, 1.42404, 1.42285, 1.41956, 1.41289, 1.41282, 1.41742, 1.40735, 1.40524, 1.40198, 1.39678, 1.39386, 1.39145, 1.38992, 1.38598, 1.38297, 1.38402, 1.38071, 1.37909, 1.37444, 1.37253, 1.366, 1.36198, 1.36175, 1.36122, 1.36091, 1.36408, 1.34656, 1.47882, 1.54245, 1.63759, 1.66762, 1.48578, 1.33756, 1.34628, 1.33637, 1.33289, 1.32859, 1.32588, 1.32597, 1.3253, 
1.66541, 1.65929, 1.6572, 1.65479, 1.65315, 1.6481, 1.64314, 1.63664, 1.63373, 1.62775, 1.62616, 1.62504, 1.61297, 1.72864, 1.84517, 1.97225, 1.82771, 1.58869, 1.58632, 1.59509, 1.60648, 1.60254, 1.58661, 1.5865, 1.56568, 1.55802, 1.55384, 1.54873, 1.54496, 1.53989, 1.53661, 1.53323, 1.52905, 1.53641, 1.51902, 1.51576, 1.5145, 1.51039, 1.50518, 1.50351, 1.49994, 1.49674, 1.49494, 1.49884, 1.49945, 1.48953, 1.51718, 1.57585, 1.53554, 1.5709, 1.51696, 1.52765, 1.48887, 1.46828, 1.46585, 1.45908, 1.45174, 1.44693, 1.44555, 1.43718, 1.43159, 1.42819, 1.42626, 1.4215, 1.41899, 1.41557, 1.41559, 1.41186, 1.40898, 1.40526, 1.40274, 1.39729, 1.39311, 1.39242, 1.38921, 1.38617, 1.38444, 1.38348, 1.37869, 1.37716, 1.37256, 1.37112, 1.36748, 1.3621, 1.36135, 1.35957, 1.3585, 1.36164, 1.33008, 1.44159, 1.53501, 1.66156, 1.66178, 1.491, 1.35078, 1.34786, 1.33399, 1.33232, 1.32764, 1.32809, 1.32644, 1.32667, 
1.66523, 1.66091, 1.65366, 1.65248, 1.65453, 1.64145, 1.64006, 1.63703, 1.64549, 1.62662, 1.62267, 1.62072, 1.58851, 1.72363, 1.86993, 1.98681, 1.84927, 1.55979, 1.57241, 1.58289, 1.5808, 1.59811, 1.58792, 1.59072, 1.56776, 1.553, 1.54967, 1.56904, 1.54409, 1.54105, 1.53839, 1.52994, 1.52853, 1.52647, 1.51647, 1.51548, 1.51198, 1.50878, 1.50626, 1.49979, 1.49646, 1.49325, 1.49303, 1.49145, 1.49899, 1.49481, 1.53434, 1.5581, 1.54143, 1.50876, 1.53072, 1.53199, 1.48831, 1.47053, 1.47176, 1.45496, 1.45102, 1.44439, 1.43971, 1.43711, 1.43111, 1.4268, 1.42449, 1.42509, 1.4206, 1.41817, 1.41327, 1.41088, 1.40966, 1.4091, 1.40148, 1.3983, 1.39608, 1.39299, 1.39028, 1.38509, 1.38391, 1.38074, 1.37715, 1.37431, 1.38117, 1.37089, 1.36828, 1.36335, 1.36186, 1.36046, 1.35837, 1.38078, 1.34551, 1.45406, 1.56245, 1.64705, 1.64524, 1.49019, 1.33081, 1.34444, 1.34741, 1.34059, 1.3496, 1.3269, 1.32621, 1.32545, 
1.66365, 1.65649, 1.651, 1.64739, 1.64538, 1.64029, 1.63846, 1.63391, 1.63012, 1.62645, 1.64341, 1.62732, 1.60633, 1.70303, 1.76221, 1.9969, 1.81436, 1.54391, 1.6337, 1.7273, 1.66247, 1.62478, 1.60423, 1.58129, 1.56866, 1.5545, 1.55157, 1.55004, 1.55341, 1.53867, 1.53602, 1.53268, 1.52748, 1.53303, 1.51787, 1.51466, 1.51103, 1.5088, 1.50546, 1.49976, 1.49676, 1.49089, 1.48877, 1.48948, 1.49202, 1.49118, 1.49536, 1.55839, 1.51461, 1.50636, 1.35295, 1.51407, 1.50965, 1.46403, 1.47388, 1.45907, 1.44463, 1.4416, 1.43692, 1.43149, 1.42774, 1.42505, 1.42231, 1.42231, 1.42062, 1.41623, 1.41328, 1.4089, 1.40541, 1.40219, 1.39944, 1.39596, 1.39328, 1.39593, 1.38525, 1.38482, 1.37901, 1.37572, 1.37864, 1.37206, 1.36534, 1.36574, 1.37012, 1.36046, 1.35795, 1.35691, 1.35699, 1.36013, 1.36774, 1.37177, 1.48586, 1.59243, 1.62074, 1.57577, 1.35442, 1.3431, 1.34395, 1.34261, 1.33306, 1.32247, 1.32094, 1.32018, 
1.66169, 1.65494, 1.651, 1.64858, 1.64552, 1.64143, 1.635, 1.63149, 1.62602, 1.62082, 1.61979, 1.62019, 1.61396, 1.6655, 1.79652, 2.00781, 2.04483, 1.55487, 1.58701, 1.8099, 1.78339, 1.63655, 1.6336, 1.59239, 1.56931, 1.57798, 1.5582, 1.54755, 1.54407, 1.53908, 1.53634, 1.53082, 1.52761, 1.5234, 1.51995, 1.51575, 1.51016, 1.50674, 1.50359, 1.49915, 1.49722, 1.49204, 1.48927, 1.49733, 1.4919, 1.48583, 1.52579, 1.5433, 1.53062, 1.49344, 1.50377, 1.5378, 1.48283, 1.46805, 1.4627, 1.4471, 1.4416, 1.43611, 1.43527, 1.42867, 1.42639, 1.42241, 1.42255, 1.42218, 1.4222, 1.41619, 1.41027, 1.40698, 1.40216, 1.40114, 1.40618, 1.39353, 1.39098, 1.38701, 1.38498, 1.38131, 1.37902, 1.37841, 1.37245, 1.36876, 1.36771, 1.36894, 1.36663, 1.36196, 1.35895, 1.35866, 1.35672, 1.35867, 1.34157, 1.39257, 1.54074, 1.64962, 1.65186, 1.55909, 1.32451, 1.34199, 1.34771, 1.34692, 1.33248, 1.32422, 1.32877, 1.31949, 
1.65893, 1.6524, 1.65069, 1.64847, 1.64275, 1.64018, 1.63862, 1.62841, 1.62104, 1.61979, 1.62711, 1.63039, 1.61276, 1.67251, 1.84747, 1.97573, 1.8593, 1.57291, 1.58269, 1.64101, 1.65861, 1.5995, 1.5928, 1.58413, 1.56969, 1.55857, 1.55628, 1.54313, 1.53991, 1.53537, 1.5317, 1.52986, 1.52662, 1.52142, 1.51622, 1.51244, 1.50845, 1.50473, 1.50035, 1.4988, 1.49521, 1.49133, 1.48842, 1.49864, 1.49071, 1.48884, 1.50958, 1.52364, 1.54152, 1.49577, 1.48936, 1.50195, 1.5, 1.46756, 1.46496, 1.44788, 1.43882, 1.43357, 1.4304, 1.4344, 1.42618, 1.42328, 1.42337, 1.42021, 1.41636, 1.41244, 1.40943, 1.40715, 1.40024, 1.39859, 1.39524, 1.39242, 1.38942, 1.38839, 1.38489, 1.38105, 1.37813, 1.37667, 1.37371, 1.37289, 1.37316, 1.36966, 1.36542, 1.36365, 1.37635, 1.35845, 1.35849, 1.35885, 1.35154, 1.39189, 1.49369, 1.6135, 1.76539, 1.39109, 1.337, 1.34333, 1.34447, 1.33034, 1.33613, 1.34387, 1.31963, 1.32199, 
1.65177, 1.64759, 1.64391, 1.64019, 1.6354, 1.63316, 1.6281, 1.6241, 1.61932, 1.61549, 1.61308, 1.60994, 1.62297, 1.61424, 1.88896, 1.90783, 1.79501, 1.5646, 1.58369, 1.59575, 1.59053, 1.59791, 1.58908, 1.57522, 1.56126, 1.54739, 1.54439, 1.53837, 1.53483, 1.53123, 1.52644, 1.52106, 1.52144, 1.51989, 1.51588, 1.51097, 1.50447, 1.49908, 1.49259, 1.48897, 1.48754, 1.48502, 1.48188, 1.48213, 1.49601, 1.48926, 1.50562, 1.53157, 1.52354, 1.50342, 1.50185, 1.53126, 1.49431, 1.45425, 1.45399, 1.44317, 1.44415, 1.43357, 1.43149, 1.42628, 1.42268, 1.42034, 1.42082, 1.41552, 1.41238, 1.40647, 1.40219, 1.39713, 1.39675, 1.39227, 1.39099, 1.39383, 1.39097, 1.39073, 1.38226, 1.38022, 1.37517, 1.3698, 1.37235, 1.36938, 1.36687, 1.37198, 1.36695, 1.35813, 1.35588, 1.35313, 1.35186, 1.36366, 1.33307, 1.37033, 1.53752, 1.58159, 1.64194, 1.51091, 1.33964, 1.34881, 1.32934, 1.32364, 1.33029, 1.32288, 1.32431, 1.31609, 
1.64758, 1.64451, 1.64114, 1.63729, 1.63389, 1.63345, 1.62986, 1.62632, 1.61836, 1.61392, 1.61216, 1.60826, 1.61051, 1.73894, 1.79927, 1.90265, 1.70771, 1.55165, 1.57893, 1.57867, 1.58257, 1.59341, 1.57184, 1.5763, 1.55268, 1.5465, 1.54035, 1.53553, 1.53389, 1.52762, 1.52441, 1.52086, 1.52003, 1.51699, 1.51216, 1.50926, 1.50539, 1.49631, 1.49283, 1.48877, 1.48698, 1.48242, 1.47949, 1.47579, 1.48169, 1.48285, 1.50805, 1.53185, 1.55939, 1.51612, 1.53002, 1.53864, 1.50277, 1.45707, 1.45786, 1.44832, 1.44117, 1.43568, 1.43217, 1.4283, 1.42352, 1.41827, 1.42264, 1.41168, 1.40744, 1.40202, 1.39946, 1.3966, 1.39336, 1.39187, 1.39134, 1.3911, 1.39103, 1.3889, 1.38726, 1.38062, 1.37645, 1.36772, 1.36499, 1.36666, 1.36809, 1.3623, 1.36051, 1.36416, 1.35567, 1.35168, 1.34751, 1.35735, 1.35141, 1.38145, 1.48017, 1.60716, 1.70118, 1.35736, 1.31093, 1.33437, 1.33309, 1.31887, 1.31673, 1.31788, 1.31828, 1.31218, 
1.64586, 1.6446, 1.63862, 1.63656, 1.63497, 1.6333, 1.63513, 1.62562, 1.62001, 1.61568, 1.61109, 1.61066, 1.61307, 1.67613, 1.80353, 2.08598, 1.78683, 1.5621, 1.58788, 1.57839, 1.57677, 1.57329, 1.56717, 1.56015, 1.55274, 1.55152, 1.54305, 1.53795, 1.53407, 1.52695, 1.5249, 1.52145, 1.51766, 1.51462, 1.50965, 1.50655, 1.50011, 1.49613, 1.48969, 1.48628, 1.48634, 1.48177, 1.4809, 1.47882, 1.48072, 1.49942, 1.50359, 1.53386, 1.52262, 1.49246, 1.50517, 1.51361, 1.49619, 1.44932, 1.45783, 1.44512, 1.44044, 1.43348, 1.43065, 1.42585, 1.42248, 1.41813, 1.41527, 1.40914, 1.40631, 1.40245, 1.39818, 1.39625, 1.39262, 1.38845, 1.38974, 1.38863, 1.38822, 1.38594, 1.38273, 1.37743, 1.3715, 1.36815, 1.36375, 1.36292, 1.3618, 1.36017, 1.35682, 1.35755, 1.35115, 1.34754, 1.34761, 1.34761, 1.36, 1.38736, 1.52592, 1.5979, 1.65232, 1.4653, 1.3749, 1.3333, 1.34115, 1.3229, 1.32266, 1.31829, 1.31624, 1.31487, 
1.64395, 1.64401, 1.64027, 1.63751, 1.6347, 1.63219, 1.63005, 1.6266, 1.62055, 1.61597, 1.61625, 1.61108, 1.61975, 1.6241, 1.79795, 1.80363, 1.76636, 1.55434, 1.58956, 1.58117, 1.57192, 1.57866, 1.56636, 1.56443, 1.55477, 1.54909, 1.55194, 1.53849, 1.53686, 1.52824, 1.52973, 1.52103, 1.51691, 1.5146, 1.50872, 1.50577, 1.50221, 1.49813, 1.49145, 1.49659, 1.48537, 1.48193, 1.47988, 1.47828, 1.48105, 1.47874, 1.52343, 1.52118, 1.53064, 1.52603, 1.50233, 1.50134, 1.50996, 1.47554, 1.4571, 1.45284, 1.43978, 1.43415, 1.42901, 1.42591, 1.42311, 1.41914, 1.41744, 1.41322, 1.40835, 1.40491, 1.40909, 1.39818, 1.39411, 1.39181, 1.38985, 1.39032, 1.388, 1.38612, 1.3817, 1.37861, 1.3706, 1.37872, 1.36392, 1.36258, 1.36404, 1.35998, 1.3579, 1.35496, 1.35311, 1.34704, 1.34495, 1.36892, 1.34331, 1.38815, 1.45781, 1.5925, 1.68381, 1.5571, 1.2999, 1.34902, 1.32775, 1.32286, 1.32044, 1.32021, 1.31654, 1.31362, 
1.64583, 1.64301, 1.63625, 1.63584, 1.6324, 1.63125, 1.62782, 1.62098, 1.61973, 1.6133, 1.60935, 1.60784, 1.60961, 1.6623, 1.80963, 1.82003, 1.66423, 1.55074, 1.5731, 1.57172, 1.57946, 1.56779, 1.56261, 1.55869, 1.56537, 1.54906, 1.54137, 1.53683, 1.53463, 1.52938, 1.52017, 1.51794, 1.51635, 1.51195, 1.5075, 1.50504, 1.50183, 1.50528, 1.49177, 1.48888, 1.48585, 1.48108, 1.47802, 1.47501, 1.47894, 1.49373, 1.50706, 1.53082, 1.53216, 1.51468, 1.48204, 1.48994, 1.48843, 1.45523, 1.48287, 1.44014, 1.43513, 1.42913, 1.42467, 1.42161, 1.41953, 1.41786, 1.41372, 1.41091, 1.40774, 1.40803, 1.3995, 1.39773, 1.39461, 1.39103, 1.38916, 1.38625, 1.38474, 1.38003, 1.37562, 1.37284, 1.36478, 1.36406, 1.35936, 1.3603, 1.35942, 1.35698, 1.36416, 1.35334, 1.35006, 1.36084, 1.34266, 1.34335, 1.35019, 1.37081, 1.55367, 1.57971, 1.6703, 1.65605, 1.29313, 1.32098, 1.32132, 1.32634, 1.33262, 1.34701, 1.33347, 1.31544, 
1.64953, 1.64075, 1.63717, 1.63762, 1.63407, 1.63148, 1.62748, 1.62307, 1.62002, 1.62142, 1.60999, 1.61592, 1.60904, 1.68565, 1.71901, 1.74402, 1.75973, 1.56728, 1.59443, 1.57942, 1.57619, 1.56979, 1.56804, 1.55782, 1.57786, 1.54753, 1.54622, 1.54472, 1.53505, 1.5308, 1.52509, 1.52346, 1.51995, 1.51729, 1.51027, 1.50929, 1.5008, 1.50139, 1.49292, 1.49076, 1.48664, 1.48517, 1.48155, 1.48031, 1.48269, 1.48994, 1.49323, 1.55479, 1.52028, 1.48505, 1.47199, 1.5169, 1.50296, 1.46089, 1.45983, 1.45002, 1.44051, 1.43565, 1.42783, 1.42287, 1.42028, 1.41892, 1.41362, 1.41271, 1.40995, 1.40552, 1.40041, 1.39892, 1.39338, 1.39197, 1.38856, 1.3849, 1.38022, 1.37818, 1.3733, 1.37194, 1.36628, 1.36382, 1.36147, 1.36184, 1.36104, 1.36077, 1.35388, 1.35003, 1.34695, 1.34529, 1.347, 1.34463, 1.35432, 1.34373, 1.49949, 1.55841, 1.70023, 1.58149, 1.31169, 1.32477, 1.32536, 1.33642, 1.3212, 1.31697, 1.31864, 1.312, 
1.64772, 1.6435, 1.63641, 1.63253, 1.62852, 1.62801, 1.62496, 1.62026, 1.61575, 1.61973, 1.62658, 1.60977, 1.60151, 1.58623, 1.67807, 1.76558, 1.78896, 1.5638, 1.59307, 1.59249, 1.57248, 1.57605, 1.58115, 1.56127, 1.57956, 1.54194, 1.54045, 1.53842, 1.53365, 1.53112, 1.52778, 1.52131, 1.52016, 1.51304, 1.50903, 1.50571, 1.49957, 1.50292, 1.49643, 1.48875, 1.4882, 1.48553, 1.48014, 1.47969, 1.49613, 1.48907, 1.48678, 1.50586, 1.50407, 1.47303, 1.47851, 1.48926, 1.4835, 1.44893, 1.45113, 1.44398, 1.42865, 1.42498, 1.42458, 1.42319, 1.42143, 1.41704, 1.41242, 1.40873, 1.40441, 1.40041, 1.40002, 1.3964, 1.39284, 1.38965, 1.38522, 1.38015, 1.37777, 1.37231, 1.3673, 1.36725, 1.36094, 1.36217, 1.35847, 1.36046, 1.35717, 1.3549, 1.36176, 1.35126, 1.34956, 1.34648, 1.34708, 1.36417, 1.34632, 1.37955, 1.40895, 1.53016, 1.71135, 1.5603, 1.28155, 1.338, 1.31934, 1.31664, 1.31793, 1.31591, 1.31247, 1.30964, 
1.64162, 1.63805, 1.63273, 1.62722, 1.62463, 1.62075, 1.61643, 1.61475, 1.60976, 1.60391, 1.60058, 1.60383, 1.59086, 1.62687, 1.69005, 1.87818, 2.0993, 1.54965, 1.57771, 1.57563, 1.56747, 1.56413, 1.55553, 1.56924, 1.5417, 1.53528, 1.53289, 1.53173, 1.52881, 1.52777, 1.52361, 1.51693, 1.50857, 1.50675, 1.50448, 1.49845, 1.49737, 1.48993, 1.48788, 1.48421, 1.47983, 1.47846, 1.47823, 1.47391, 1.48225, 1.48493, 1.4952, 1.50155, 1.49867, 1.46895, 1.47728, 1.49708, 1.49354, 1.44022, 1.43814, 1.44, 1.42351, 1.42061, 1.418, 1.41724, 1.4193, 1.41348, 1.41035, 1.40691, 1.40294, 1.39799, 1.39531, 1.39335, 1.38962, 1.38598, 1.381, 1.37509, 1.37177, 1.36794, 1.36157, 1.36027, 1.35853, 1.3547, 1.36497, 1.35515, 1.35423, 1.35363, 1.34931, 1.34806, 1.3435, 1.34028, 1.34378, 1.33922, 1.34146, 1.33298, 1.4552, 1.60929, 1.73376, 1.48932, 1.30496, 1.32958, 1.32573, 1.31093, 1.31442, 1.31856, 1.30742, 1.31303, 
1.63803, 1.6347, 1.63247, 1.62481, 1.62047, 1.62024, 1.61157, 1.6131, 1.62947, 1.59994, 1.601, 1.589, 1.59191, 1.62836, 1.70205, 1.89387, 1.99975, 1.54113, 1.57254, 1.56546, 1.5585, 1.55298, 1.54845, 1.54296, 1.53307, 1.53187, 1.52463, 1.52288, 1.52285, 1.52485, 1.51798, 1.51349, 1.50778, 1.50598, 1.50209, 1.49514, 1.49179, 1.48615, 1.48118, 1.47806, 1.4759, 1.47261, 1.47422, 1.46777, 1.47614, 1.47417, 1.47574, 1.50539, 1.49131, 1.50506, 1.47265, 1.51417, 1.48801, 1.45535, 1.43762, 1.44109, 1.42285, 1.41708, 1.41344, 1.41254, 1.41288, 1.40784, 1.40617, 1.39737, 1.39276, 1.39079, 1.38946, 1.38855, 1.38908, 1.37861, 1.37864, 1.37467, 1.36711, 1.36471, 1.36017, 1.35765, 1.35771, 1.35031, 1.34997, 1.3512, 1.35039, 1.35288, 1.34759, 1.34424, 1.33675, 1.3366, 1.33646, 1.33988, 1.33717, 1.33009, 1.4572, 1.60268, 1.72783, 1.48993, 1.2847, 1.31253, 1.30931, 1.30882, 1.30749, 1.30958, 1.30286, 1.29901, 
1.63932, 1.63515, 1.63118, 1.62981, 1.62253, 1.61775, 1.61343, 1.60987, 1.60643, 1.59979, 1.59322, 1.59222, 1.6032, 1.6134, 1.71968, 1.84493, 1.82347, 1.55106, 1.56915, 1.56937, 1.56955, 1.5512, 1.54634, 1.53954, 1.53425, 1.52784, 1.5239, 1.52068, 1.51919, 1.51686, 1.51478, 1.514, 1.50796, 1.51296, 1.5006, 1.49574, 1.49013, 1.49561, 1.47966, 1.47809, 1.47551, 1.48953, 1.4668, 1.4645, 1.46796, 1.48248, 1.46915, 1.50002, 1.51681, 1.4926, 1.48552, 1.48573, 1.48985, 1.45863, 1.44787, 1.44424, 1.42689, 1.41323, 1.41337, 1.42287, 1.40749, 1.4067, 1.40269, 1.39826, 1.39222, 1.38832, 1.38463, 1.38183, 1.38141, 1.37838, 1.37887, 1.37324, 1.36809, 1.36377, 1.36121, 1.35498, 1.35332, 1.34916, 1.34956, 1.35012, 1.35045, 1.34746, 1.34671, 1.34165, 1.33867, 1.33321, 1.32996, 1.33359, 1.34005, 1.28926, 1.48655, 1.54819, 1.85101, 1.40537, 1.30286, 1.31895, 1.31384, 1.3075, 1.31172, 1.30263, 1.29807, 1.29492, 
1.64224, 1.63208, 1.62964, 1.62533, 1.62117, 1.61495, 1.61111, 1.62058, 1.60494, 1.6009, 1.59742, 1.60915, 1.60348, 1.59866, 1.64007, 1.87996, 2.01681, 1.54592, 1.56853, 1.56782, 1.56757, 1.55106, 1.54724, 1.5554, 1.556, 1.53053, 1.52538, 1.52167, 1.51908, 1.51495, 1.51173, 1.50894, 1.50639, 1.49887, 1.49374, 1.49141, 1.48651, 1.48581, 1.47956, 1.47691, 1.47302, 1.46851, 1.46523, 1.46437, 1.46433, 1.49546, 1.47515, 1.48336, 1.4881, 1.48096, 1.48531, 1.48482, 1.47829, 1.46058, 1.44035, 1.43345, 1.41701, 1.41303, 1.41138, 1.41035, 1.40432, 1.40564, 1.40131, 1.3982, 1.39347, 1.39117, 1.38799, 1.3835, 1.37908, 1.37942, 1.37366, 1.37279, 1.37094, 1.36532, 1.36119, 1.35699, 1.35106, 1.35288, 1.35755, 1.35101, 1.34847, 1.34773, 1.3476, 1.3436, 1.34052, 1.34428, 1.33641, 1.33456, 1.33968, 1.31674, 1.47195, 1.53065, 1.69263, 1.55923, 1.29417, 1.31751, 1.32083, 1.31032, 1.30558, 1.30246, 1.32026, 1.2983, 
1.63679, 1.63304, 1.62553, 1.62348, 1.62004, 1.61678, 1.60808, 1.6075, 1.60199, 1.59961, 1.62716, 1.59873, 1.60791, 1.58689, 1.75145, 1.90646, 1.93377, 1.53756, 1.56691, 1.56575, 1.56209, 1.54866, 1.5515, 1.54216, 1.53468, 1.53111, 1.52812, 1.52023, 1.51669, 1.5128, 1.51153, 1.50652, 1.5033, 1.49697, 1.49871, 1.49522, 1.48632, 1.4834, 1.48025, 1.47634, 1.48136, 1.4795, 1.46418, 1.46349, 1.4647, 1.46605, 1.4734, 1.49388, 1.49632, 1.48164, 1.46819, 1.49266, 1.47234, 1.44935, 1.43798, 1.43724, 1.41981, 1.42287, 1.42057, 1.41889, 1.40663, 1.40533, 1.40974, 1.39906, 1.39422, 1.38793, 1.38506, 1.38285, 1.37781, 1.37177, 1.36889, 1.36826, 1.36788, 1.36534, 1.36379, 1.35777, 1.35543, 1.35408, 1.35051, 1.34772, 1.34751, 1.34723, 1.34363, 1.34374, 1.36081, 1.33989, 1.33477, 1.34029, 1.34667, 1.30891, 1.39555, 1.53311, 1.73784, 1.52376, 1.31651, 1.32324, 1.31964, 1.32356, 1.31569, 1.30215, 1.30994, 1.31237, 
1.63764, 1.63523, 1.62735, 1.63042, 1.61786, 1.61452, 1.60753, 1.60376, 1.6127, 1.60019, 1.60262, 1.603, 1.60414, 1.61263, 1.64806, 2.03778, 2.02847, 1.55856, 1.57543, 1.57338, 1.55397, 1.55231, 1.56109, 1.54474, 1.55103, 1.53751, 1.5266, 1.52185, 1.5165, 1.51783, 1.51409, 1.51196, 1.50751, 1.5005, 1.49657, 1.4933, 1.48948, 1.48352, 1.47691, 1.47485, 1.47193, 1.46766, 1.4644, 1.46386, 1.48066, 1.469, 1.48179, 1.46938, 1.47993, 1.48182, 1.4614, 1.46764, 1.47908, 1.46885, 1.4477, 1.42966, 1.41666, 1.41247, 1.41004, 1.40851, 1.40549, 1.40393, 1.40007, 1.39499, 1.39177, 1.38594, 1.38225, 1.37832, 1.37709, 1.37407, 1.37203, 1.37083, 1.36817, 1.36423, 1.36342, 1.36113, 1.35799, 1.35593, 1.35404, 1.34895, 1.34891, 1.34764, 1.34324, 1.34045, 1.3382, 1.3399, 1.33662, 1.34404, 1.35239, 1.32818, 1.43326, 1.50902, 1.75684, 1.4057, 1.29616, 1.32035, 1.32189, 1.30735, 1.30541, 1.30438, 1.30292, 1.3016, 
1.63149, 1.62836, 1.65455, 1.61771, 1.61511, 1.61115, 1.60361, 1.60027, 1.5983, 1.60171, 1.60613, 1.60146, 1.61372, 1.60336, 1.74929, 1.81749, 1.97689, 1.53128, 1.57129, 1.55627, 1.54833, 1.56094, 1.55721, 1.53687, 1.537, 1.52961, 1.52726, 1.51809, 1.51971, 1.51249, 1.50892, 1.50568, 1.50222, 1.49901, 1.49222, 1.48657, 1.48476, 1.47935, 1.47586, 1.47285, 1.47, 1.46878, 1.4615, 1.4607, 1.46513, 1.48152, 1.47582, 1.4764, 1.48116, 1.48928, 1.46895, 1.47351, 1.47832, 1.4779, 1.44397, 1.43712, 1.42001, 1.40632, 1.40569, 1.40573, 1.40361, 1.40297, 1.39951, 1.39645, 1.39117, 1.38584, 1.38343, 1.38237, 1.37956, 1.37599, 1.37239, 1.37146, 1.37165, 1.3652, 1.36165, 1.36051, 1.35825, 1.35574, 1.35246, 1.34749, 1.34655, 1.34298, 1.3405, 1.34016, 1.33831, 1.34482, 1.33505, 1.33872, 1.33761, 1.33125, 1.40672, 1.52638, 1.63279, 1.39368, 1.29869, 1.33511, 1.31357, 1.30564, 1.30633, 1.30518, 1.30143, 1.30222, 
1.62781, 1.62065, 1.61162, 1.6102, 1.60763, 1.60242, 1.60708, 1.59258, 1.59042, 1.60574, 1.59962, 1.60247, 1.59008, 1.57851, 1.6545, 1.79604, 1.909, 1.53084, 1.5472, 1.5486, 1.54025, 1.53419, 1.53136, 1.5329, 1.5372, 1.52381, 1.52412, 1.51523, 1.50895, 1.50375, 1.50051, 1.49482, 1.49073, 1.48618, 1.48269, 1.47823, 1.4738, 1.47271, 1.46963, 1.46712, 1.46503, 1.45996, 1.4585, 1.47721, 1.4685, 1.47814, 1.47434, 1.46889, 1.49305, 1.474, 1.46425, 1.45563, 1.46529, 1.45069, 1.43194, 1.42745, 1.41001, 1.40174, 1.40908, 1.39972, 1.39743, 1.39649, 1.39402, 1.39015, 1.38452, 1.38101, 1.37866, 1.37577, 1.3738, 1.37432, 1.36787, 1.36443, 1.35809, 1.35501, 1.35217, 1.35398, 1.34866, 1.34473, 1.34027, 1.3384, 1.33739, 1.33807, 1.33613, 1.33612, 1.33081, 1.3343, 1.32645, 1.32574, 1.32277, 1.3302, 1.46403, 1.56163, 1.74758, 1.38437, 1.30583, 1.33402, 1.32086, 1.30559, 1.30503, 1.29656, 1.29686, 1.29317, 
1.60949, 1.60358, 1.59806, 1.59562, 1.59245, 1.58871, 1.57893, 1.57487, 1.5721, 1.56567, 1.56574, 1.57116, 1.56984, 1.53781, 1.64962, 1.81516, 1.94918, 1.50968, 1.53278, 1.5403, 1.52335, 1.51826, 1.53089, 1.51109, 1.51151, 1.51039, 1.50737, 1.50194, 1.49672, 1.49481, 1.48485, 1.48175, 1.47785, 1.47135, 1.46857, 1.46397, 1.46253, 1.46271, 1.45778, 1.45556, 1.44844, 1.4623, 1.4553, 1.4381, 1.44859, 1.45091, 1.46061, 1.46089, 1.47445, 1.45051, 1.45312, 1.46256, 1.45852, 1.42779, 1.42019, 1.40429, 1.39731, 1.38765, 1.38372, 1.38481, 1.38348, 1.39572, 1.38693, 1.38753, 1.37832, 1.36552, 1.3633, 1.36752, 1.3689, 1.35696, 1.35092, 1.34696, 1.34338, 1.34072, 1.33249, 1.34651, 1.33764, 1.34895, 1.33147, 1.32244, 1.31853, 1.32311, 1.32351, 1.31777, 1.31452, 1.31293, 1.30808, 1.31839, 1.31488, 1.32372, 1.39611, 1.50557, 1.58426, 1.45866, 1.27735, 1.28114, 1.29363, 1.29171, 1.28817, 1.28199, 1.27771, 1.2739, 
1.60706, 1.60215, 1.59986, 1.62491, 1.59401, 1.58529, 1.58226, 1.57521, 1.5782, 1.57301, 1.56842, 1.57204, 1.57635, 1.56302, 1.58809, 1.71446, 2.11871, 1.52991, 1.54686, 1.53968, 1.5379, 1.51359, 1.51367, 1.51548, 1.51249, 1.50833, 1.50526, 1.50226, 1.50209, 1.50233, 1.49135, 1.48176, 1.47729, 1.47571, 1.47962, 1.4784, 1.47002, 1.46428, 1.45471, 1.45346, 1.4483, 1.44911, 1.44216, 1.43492, 1.43762, 1.44489, 1.45586, 1.45079, 1.45437, 1.46084, 1.44544, 1.43424, 1.44488, 1.43307, 1.42669, 1.42203, 1.40132, 1.39303, 1.39894, 1.37987, 1.38447, 1.38589, 1.38203, 1.37068, 1.36348, 1.37114, 1.35744, 1.35464, 1.3511, 1.35453, 1.34767, 1.34636, 1.33829, 1.33584, 1.33676, 1.32599, 1.32723, 1.33043, 1.32363, 1.32196, 1.32054, 1.31105, 1.31849, 1.31888, 1.31904, 1.30631, 1.30379, 1.29911, 1.30657, 1.31057, 1.44009, 1.51711, 1.56841, 1.69002, 1.27136, 1.30239, 1.29135, 1.28683, 1.27089, 1.27345, 1.27364, 1.26812, 
1.62016, 1.61225, 1.61252, 1.61396, 1.61945, 1.60103, 1.59527, 1.59916, 1.58723, 1.58301, 1.59107, 1.58554, 1.58305, 1.56438, 1.66201, 2.05934, 1.83205, 1.51337, 1.55211, 1.54736, 1.55385, 1.55141, 1.52293, 1.52505, 1.5231, 1.51708, 1.52311, 1.51047, 1.50743, 1.50756, 1.49525, 1.49316, 1.49028, 1.48683, 1.48644, 1.48444, 1.48073, 1.4743, 1.46865, 1.46044, 1.45663, 1.45745, 1.45159, 1.45441, 1.44347, 1.4644, 1.46895, 1.47769, 1.47997, 1.46869, 1.45797, 1.44479, 1.46804, 1.44205, 1.41907, 1.43301, 1.41297, 1.40646, 1.39618, 1.40679, 1.38871, 1.39273, 1.38373, 1.38174, 1.37539, 1.37703, 1.36941, 1.36823, 1.36586, 1.36544, 1.36336, 1.35807, 1.34903, 1.34804, 1.34808, 1.34301, 1.33636, 1.33448, 1.3346, 1.33229, 1.33218, 1.32154, 1.32877, 1.32741, 1.32422, 1.32352, 1.31586, 1.31848, 1.33353, 1.29601, 1.29863, 1.53, 1.47494, 1.49226, 1.27454, 1.30675, 1.29572, 1.2947, 1.2864, 1.28104, 1.28516, 1.28155, 
1.62134, 1.61806, 1.61916, 1.61383, 1.61112, 1.61308, 1.59984, 1.61982, 1.59378, 1.59577, 1.59477, 1.58274, 1.58248, 1.5683, 1.61996, 1.83035, 1.73779, 1.53676, 1.5523, 1.55562, 1.54449, 1.54863, 1.54772, 1.53122, 1.52721, 1.53182, 1.51922, 1.5099, 1.50801, 1.50424, 1.49947, 1.4978, 1.49904, 1.49304, 1.48645, 1.4824, 1.47593, 1.47241, 1.46846, 1.47498, 1.46198, 1.45848, 1.4558, 1.45076, 1.45766, 1.46043, 1.47378, 1.45778, 1.46809, 1.47127, 1.46432, 1.46196, 1.45567, 1.45935, 1.43113, 1.42328, 1.42634, 1.41672, 1.4067, 1.40122, 1.4203, 1.39383, 1.38863, 1.38702, 1.385, 1.37972, 1.37529, 1.37311, 1.378, 1.36831, 1.36443, 1.36318, 1.3594, 1.35598, 1.35431, 1.36167, 1.34768, 1.34354, 1.33996, 1.33835, 1.33456, 1.33495, 1.33151, 1.33082, 1.33284, 1.34939, 1.32294, 1.33337, 1.32643, 1.33683, 1.37532, 1.50691, 1.49873, 1.49204, 1.33614, 1.30332, 1.31946, 1.30144, 1.30278, 1.29834, 1.29074, 1.29, 
1.62786, 1.61696, 1.61321, 1.61025, 1.60637, 1.60513, 1.61674, 1.5924, 1.58729, 1.59613, 1.58395, 1.5823, 1.58612, 1.57925, 1.67213, 1.92422, 2.03059, 1.55122, 1.55672, 1.55577, 1.53073, 1.53125, 1.53084, 1.53013, 1.52366, 1.52248, 1.5113, 1.50165, 1.50249, 1.50283, 1.50634, 1.49846, 1.49351, 1.49927, 1.48363, 1.47757, 1.47215, 1.47315, 1.46855, 1.46074, 1.46769, 1.4545, 1.45133, 1.45173, 1.45237, 1.45769, 1.4732, 1.47155, 1.46167, 1.45449, 1.45755, 1.45874, 1.47167, 1.45159, 1.43691, 1.43129, 1.41019, 1.40888, 1.40243, 1.39989, 1.39984, 1.39428, 1.38981, 1.3848, 1.38353, 1.37929, 1.37428, 1.37397, 1.37202, 1.39906, 1.36434, 1.35913, 1.35544, 1.35335, 1.35477, 1.35127, 1.34524, 1.35042, 1.3402, 1.34028, 1.33817, 1.32981, 1.32996, 1.32976, 1.34951, 1.32677, 1.33004, 1.34005, 1.32599, 1.32423, 1.37353, 1.57121, 1.65228, 1.60595, 1.32431, 1.31624, 1.31012, 1.30284, 1.29928, 1.31375, 1.30907, 1.30011, 
1.61692, 1.61722, 1.61132, 1.6113, 1.60673, 1.60296, 1.59558, 1.5861, 1.60952, 1.5818, 1.59328, 1.58186, 1.58577, 1.57792, 1.66238, 1.74205, 2.13772, 1.53718, 1.5483, 1.55092, 1.53233, 1.52903, 1.52826, 1.52491, 1.52042, 1.51552, 1.50443, 1.49628, 1.49978, 1.50218, 1.49884, 1.49464, 1.48945, 1.48668, 1.48171, 1.47644, 1.4686, 1.46755, 1.47875, 1.45898, 1.45626, 1.45498, 1.45336, 1.45142, 1.45293, 1.471, 1.45771, 1.46393, 1.48518, 1.45042, 1.451, 1.45075, 1.48422, 1.45194, 1.43153, 1.41605, 1.40787, 1.40163, 1.39995, 1.39528, 1.38959, 1.38929, 1.38845, 1.38262, 1.38094, 1.37799, 1.37446, 1.37327, 1.37004, 1.3662, 1.36346, 1.35823, 1.35546, 1.3542, 1.35278, 1.34672, 1.34364, 1.33912, 1.33602, 1.33928, 1.33537, 1.33043, 1.32942, 1.33165, 1.33354, 1.32464, 1.32125, 1.31885, 1.33356, 1.32811, 1.38249, 1.40306, 1.57867, 1.54173, 1.52609, 1.49795, 1.31785, 1.3236, 1.2924, 1.29785, 1.30468, 1.28443, 
1.61442, 1.61299, 1.61024, 1.61024, 1.60808, 1.62032, 1.59507, 1.58563, 1.58451, 1.58482, 1.58235, 1.57815, 1.59365, 1.5866, 1.59473, 1.89728, 2.11548, 1.51409, 1.55031, 1.54908, 1.53528, 1.54375, 1.53278, 1.53073, 1.52111, 1.51404, 1.50934, 1.50265, 1.50227, 1.49957, 1.49757, 1.49302, 1.48953, 1.4865, 1.48228, 1.47295, 1.46874, 1.46731, 1.46521, 1.46401, 1.45464, 1.45418, 1.45159, 1.45184, 1.45241, 1.46509, 1.45484, 1.46841, 1.45806, 1.45679, 1.45179, 1.44768, 1.44817, 1.46194, 1.42599, 1.42052, 1.40887, 1.40285, 1.39825, 1.394, 1.38924, 1.38598, 1.38437, 1.38191, 1.38135, 1.37866, 1.37587, 1.37143, 1.36817, 1.364, 1.36064, 1.36081, 1.35592, 1.35703, 1.35241, 1.35189, 1.35048, 1.34522, 1.34006, 1.33649, 1.33477, 1.33234, 1.3317, 1.32953, 1.32549, 1.31972, 1.31748, 1.31551, 1.3273, 1.31581, 1.32659, 1.43123, 1.7279, 1.51691, 1.5199, 1.5127, 1.41688, 1.29031, 1.28996, 1.28895, 1.289, 1.28755, 
1.61342, 1.60847, 1.59905, 1.60442, 1.60272, 1.59718, 1.58957, 1.58593, 1.5836, 1.58256, 1.57669, 1.58574, 1.57868, 1.57865, 1.66513, 1.76758, 2.32898, 1.54486, 1.54065, 1.54967, 1.53297, 1.5412, 1.54027, 1.53314, 1.51529, 1.52074, 1.50889, 1.50407, 1.49993, 1.49411, 1.49228, 1.48916, 1.48534, 1.48523, 1.47989, 1.47503, 1.46531, 1.46384, 1.46168, 1.46059, 1.46084, 1.45324, 1.45215, 1.45044, 1.45887, 1.45234, 1.45823, 1.45635, 1.45373, 1.45359, 1.47824, 1.44025, 1.45109, 1.43386, 1.42505, 1.42235, 1.41122, 1.40223, 1.39983, 1.39471, 1.38653, 1.39127, 1.38053, 1.37836, 1.3748, 1.37466, 1.36996, 1.36637, 1.36456, 1.36541, 1.36117, 1.35702, 1.35408, 1.3516, 1.35412, 1.34995, 1.34653, 1.34194, 1.33761, 1.33396, 1.32949, 1.32634, 1.32628, 1.32708, 1.32114, 1.3228, 1.31338, 1.32346, 1.31621, 1.31513, 1.2859, 1.45108, 1.75161, 1.52819, 1.49103, 1.46295, 1.35659, 1.28685, 1.28732, 1.28462, 1.28558, 1.28546, 
1.60314, 1.60197, 1.59574, 1.62641, 1.59792, 1.58646, 1.58528, 1.57964, 1.57928, 1.58038, 1.58162, 1.56857, 1.57304, 1.57207, 1.63182, 1.82379, 1.84339, 1.55775, 1.53454, 1.54102, 1.52586, 1.53383, 1.52091, 1.51665, 1.53416, 1.50971, 1.50049, 1.49934, 1.4953, 1.49002, 1.4901, 1.48314, 1.47843, 1.47543, 1.47892, 1.46705, 1.46412, 1.4708, 1.46064, 1.45742, 1.45334, 1.44829, 1.45498, 1.44527, 1.44805, 1.46884, 1.46951, 1.46411, 1.4617, 1.45086, 1.45515, 1.42794, 1.42927, 1.43945, 1.42108, 1.42614, 1.40083, 1.39318, 1.38902, 1.38631, 1.38197, 1.41519, 1.37907, 1.37905, 1.37492, 1.37454, 1.36581, 1.36516, 1.36484, 1.35918, 1.35401, 1.35354, 1.35041, 1.3445, 1.34673, 1.34296, 1.33863, 1.33503, 1.33124, 1.32434, 1.32102, 1.32289, 1.31946, 1.31911, 1.31703, 1.32637, 1.30478, 1.30176, 1.30894, 1.29648, 1.27231, 1.48768, 1.62602, 1.55783, 1.46172, 1.40445, 1.34409, 1.2842, 1.28155, 1.27879, 1.27924, 1.27638, 
1.59875, 1.60081, 1.59724, 1.59289, 1.59222, 1.58537, 1.58005, 1.57531, 1.57179, 1.57161, 1.58247, 1.57954, 1.56562, 1.57254, 1.62277, 1.62375, 1.71325, 1.54074, 1.52612, 1.52128, 1.51933, 1.51834, 1.51838, 1.52825, 1.51223, 1.50968, 1.49959, 1.49661, 1.48981, 1.49002, 1.48267, 1.47588, 1.47178, 1.46957, 1.46723, 1.46505, 1.45943, 1.45741, 1.45441, 1.45179, 1.46526, 1.44767, 1.44392, 1.44221, 1.46137, 1.45554, 1.45186, 1.45418, 1.46128, 1.44816, 1.43539, 1.43674, 1.4397, 1.42073, 1.42065, 1.39993, 1.40699, 1.38582, 1.37987, 1.3792, 1.37659, 1.39213, 1.37464, 1.37458, 1.37047, 1.3674, 1.36486, 1.36352, 1.35671, 1.35219, 1.3476, 1.3471, 1.34337, 1.34665, 1.34247, 1.34688, 1.33432, 1.333, 1.32781, 1.32168, 1.3223, 1.319, 1.31693, 1.31462, 1.30634, 1.32367, 1.30148, 1.29828, 1.30131, 1.3004, 1.28629, 1.43825, 1.65158, 1.56406, 1.36251, 1.31798, 1.2986, 1.29464, 1.27611, 1.27196, 1.2841, 1.27358, 
1.60457, 1.60099, 1.59903, 1.59679, 1.59416, 1.58812, 1.58506, 1.58577, 1.58251, 1.57529, 1.56569, 1.56357, 1.55983, 1.58124, 1.59843, 1.63939, 1.72342, 1.76746, 1.53099, 1.534, 1.52027, 1.5163, 1.51556, 1.51453, 1.51047, 1.50904, 1.50621, 1.49954, 1.49852, 1.48653, 1.48343, 1.48057, 1.47565, 1.46754, 1.46749, 1.46536, 1.46244, 1.45813, 1.45679, 1.45525, 1.45478, 1.44489, 1.44258, 1.43998, 1.44351, 1.45742, 1.46117, 1.4721, 1.45241, 1.44871, 1.47408, 1.43254, 1.43038, 1.43377, 1.41431, 1.39929, 1.40511, 1.38857, 1.38134, 1.37549, 1.37488, 1.37696, 1.37296, 1.3722, 1.3685, 1.3682, 1.36503, 1.35919, 1.3565, 1.35155, 1.34371, 1.33982, 1.33699, 1.33699, 1.33616, 1.33598, 1.33453, 1.33266, 1.32946, 1.32641, 1.32358, 1.32304, 1.31954, 1.31595, 1.31327, 1.30746, 1.3032, 1.30271, 1.30075, 1.30155, 1.28042, 1.51805, 1.58645, 1.50159, 1.35723, 1.2888, 1.28461, 1.28211, 1.28741, 1.28562, 1.2731, 1.26764, 
1.60733, 1.60336, 1.59777, 1.59626, 1.59297, 1.58955, 1.58592, 1.57964, 1.57676, 1.57161, 1.58113, 1.571, 1.56578, 1.56155, 1.55401, 1.74255, 1.72426, 1.5316, 1.53609, 1.54501, 1.53374, 1.51814, 1.51695, 1.51653, 1.51867, 1.51006, 1.50471, 1.5007, 1.49816, 1.49226, 1.49623, 1.48487, 1.47951, 1.47582, 1.47214, 1.47122, 1.46619, 1.46781, 1.4595, 1.45769, 1.45445, 1.44824, 1.44448, 1.44217, 1.45514, 1.4477, 1.45663, 1.46619, 1.46367, 1.45042, 1.44399, 1.43935, 1.42834, 1.43028, 1.41164, 1.39884, 1.40624, 1.38478, 1.38066, 1.37934, 1.38163, 1.38262, 1.37404, 1.37411, 1.3712, 1.37036, 1.37167, 1.36245, 1.35832, 1.35348, 1.35011, 1.3406, 1.33654, 1.3372, 1.33824, 1.33652, 1.33441, 1.3327, 1.33423, 1.33332, 1.32902, 1.32416, 1.32361, 1.34558, 1.31746, 1.31631, 1.31281, 1.3092, 1.31442, 1.31367, 1.27077, 1.355, 1.57841, 1.4865, 1.27112, 1.28966, 1.28763, 1.28585, 1.2847, 1.28186, 1.28137, 1.27152, 
1.60447, 1.59964, 1.59564, 1.59257, 1.59662, 1.59373, 1.58125, 1.58683, 1.57248, 1.59627, 1.5818, 1.5759, 1.56226, 1.56911, 1.62715, 1.7756, 1.70628, 1.70032, 1.52701, 1.53088, 1.53018, 1.52462, 1.51754, 1.51667, 1.5097, 1.5061, 1.4997, 1.49603, 1.49892, 1.49007, 1.487, 1.48123, 1.47786, 1.47883, 1.47002, 1.47079, 1.4619, 1.459, 1.45601, 1.45742, 1.44912, 1.44456, 1.44792, 1.43961, 1.43999, 1.45769, 1.46528, 1.45515, 1.45291, 1.46507, 1.44042, 1.45389, 1.44139, 1.4366, 1.41298, 1.4099, 1.40181, 1.3875, 1.38137, 1.3821, 1.37892, 1.38934, 1.37544, 1.37226, 1.37426, 1.36787, 1.3645, 1.35837, 1.36159, 1.35428, 1.35326, 1.34641, 1.3441, 1.34164, 1.33851, 1.33621, 1.33426, 1.33274, 1.32876, 1.32766, 1.32686, 1.3259, 1.32431, 1.32088, 1.32703, 1.31356, 1.31132, 1.30966, 1.32002, 1.31908, 1.28504, 1.41406, 1.6106, 1.60186, 1.26144, 1.28494, 1.28821, 1.29541, 1.29053, 1.2747, 1.27642, 1.27453, 
1.60042, 1.59966, 1.59566, 1.58779, 1.58403, 1.57749, 1.56817, 1.56249, 1.56144, 1.5621, 1.5573, 1.55403, 1.55517, 1.55891, 1.6244, 1.69689, 1.68678, 1.50984, 1.51558, 1.52048, 1.51774, 1.51709, 1.51499, 1.51067, 1.5061, 1.50108, 1.48671, 1.51652, 1.47909, 1.47531, 1.46835, 1.46498, 1.46038, 1.45377, 1.45225, 1.45317, 1.44821, 1.44135, 1.44326, 1.45135, 1.44284, 1.4382, 1.42675, 1.43377, 1.44, 1.44738, 1.44525, 1.45048, 1.46579, 1.45456, 1.44127, 1.42871, 1.4233, 1.42984, 1.40906, 1.41952, 1.39598, 1.38466, 1.37852, 1.37146, 1.3837, 1.36552, 1.36024, 1.35832, 1.35932, 1.35602, 1.3565, 1.3499, 1.34572, 1.34355, 1.34657, 1.35102, 1.33447, 1.32797, 1.32638, 1.32321, 1.32017, 1.31929, 1.31928, 1.31438, 1.31277, 1.32464, 1.33044, 1.30935, 1.30701, 1.31497, 1.31002, 1.30891, 1.29576, 1.30277, 1.32401, 1.43757, 1.72113, 1.47229, 1.34437, 1.29697, 1.27924, 1.26985, 1.27815, 1.26076, 1.25797, 1.26494, 
